ply
format ascii 1.0
element vertex 1953
property float32 x
property float32 y
property float32 z
end_header
-20.7985 12.1627 -1.6351
-20.7931 9.7842 -1.5595
-20.7880 7.5992 -1.5021
-20.7833 5.5538 -1.4599
-20.7788 3.6048 -1.4312
-20.7745 1.7164 -1.4146
-49.4329 -0.3416 -3.3548
-49.4227 -4.7720 -3.3696
-27.9600 -5.2499 -1.9306
-20.7570 -5.8554 -1.4636
-20.7523 -7.9131 -1.5072
-20.7472 -10.1153 -1.5664
-20.7417 -12.5174 -1.6441
-20.8157 -15.2514 -1.7512
-20.8087 -18.3123 -1.8811
-20.7203 -21.8102 -2.0416
-23.7480 -29.9487 -2.5939
-25.2302 -38.4181 -3.1192
-22.6578 -42.3012 -3.2566
-17.9151 -42.0917 -3.1045
15.7036 -36.9666 -2.7257
18.0147 -33.6885 -2.5926
16.2455 -24.7744 -2.0105
12.1190 -15.3049 -1.3248
12.0998 -12.7538 -1.1931
12.0950 -10.6588 -1.0941
12.0909 -8.8716 -1.0177
12.0873 -7.3059 -0.9585
11.9167 -5.8201 -0.9000
12.0291 -4.5963 -0.8739
11.9110 -3.3689 -0.8400
11.9084 -2.2445 -0.8224
11.9069 -1.1580 -0.8119
11.9049 -0.0905 -0.8079
11.9010 0.9750 -0.8104
12.0248 2.0776 -0.8281
12.0189 3.2029 -0.8441
37.2203 13.5771 -2.6887
15.3288 8.9499 -1.2046
32.1054 22.8146 -2.6729
30.3109 25.9036 -2.7058
23.8726 24.4088 -2.3170
23.3248 28.5537 -2.5021
17.6984 26.1153 -2.1409
-17.6450 27.7798 -2.2334
-24.6881 22.4015 -2.2623
-20.8872 15.7974 -1.7772
-20.8004 12.9884 -1.6642
-20.7948 10.5328 -1.5819
-20.7896 8.2915 -1.5189
-20.7848 6.2059 -1.4721
-20.7803 4.2298 -1.4391
-20.7759 2.3254 -1.4187
-48.8301 1.0803 -3.3146
-49.4261 -3.3278 -3.3618
-33.3340 -5.2623 -2.2902
-20.8507 -5.2335 -1.4589
-20.7539 -7.2310 -1.4915
-20.7489 -9.3807 -1.5453
-20.7436 -11.7109 -1.6166
-20.7376 -14.2880 -1.7090
-20.8111 -17.2688 -1.8352
-20.8032 -20.6619 -1.9898
-24.1583 -28.7129 -2.5465
-26.8606 -38.4218 -3.1814
-22.7359 -39.6379 -3.1011
15.7111 -40.1874 -2.9283
16.7773 -33.6914 -2.5542
20.7143 -33.6823 -2.6835
12.1078 -16.2379 -1.3746
12.0450 -13.4578 -1.2257
12.1583 -11.3584 -1.1291
12.0921 -9.4245 -1.0404
12.0884 -7.7945 -0.9761
11.9177 -6.2554 -0.9134
11.9492 -4.9680 -0.8782
11.9119 -3.7458 -0.8474
11.9093 -2.6047 -0.8273
11.9067 -1.5080 -0.8145
12.0195 -0.4405 -0.8162
11.9018 0.6279 -0.8088
12.0267 1.7200 -0.8245
12.0208 2.8324 -0.8381
12.0150 3.9916 -0.8592
9.1758 6.1275 -0.7488
30.7086 24.7378 -2.6761
25.9235 25.0103 -2.4445
23.1754 26.7468 -2.4017
18.4514 25.5941 -2.1412
17.1475 28.9142 -2.2813
-20.8895 16.7742 -1.8181
-20.8024 13.8448 -1.6958
-20.7966 11.3039 -1.6063
-20.7913 9.0002 -1.5375
-20.7863 6.8695 -1.4857
-20.7817 4.8624 -1.4484
-20.7773 2.9385 -1.4241
-21.4099 1.0961 -1.4549
-49.4294 -1.8889 -3.3569
-17.6832 -2.2677 -1.2099
-23.7815 -5.2402 -1.6526
-20.7554 -6.5624 -1.4773
-20.7506 -8.6652 -1.5261
-20.7454 -10.9303 -1.5913
-20.7396 -13.4186 -1.6764
-20.7332 -16.2115 -1.7861
-20.8059 -19.4979 -1.9351
-28.5589 -38.4257 -3.2491
-23.6049 -38.5174 -3.0657
15.4985 -43.3108 -3.1218
15.5750 -33.6941 -2.5191
19.3915 -33.6854 -2.6377
16.2418 -23.1556 -1.9195
10.3044 -12.2084 -1.0842
12.0980 -11.9783 -1.1554
11.9973 -9.9236 -1.0566
10.2981 -7.0716 -0.8478
11.9187 -6.7043 -0.9280
11.9156 -5.3648 -0.8868
11.9143 -4.1303 -0.8557
11.9101 -2.9696 -0.8330
11.9076 -1.8607 -0.8179
12.0203 -0.7905 -0.8175
11.9026 0.2819 -0.8080
11.9002 1.3508 -0.8128
12.0227 2.4668 -0.8329
12.0169 3.6085 -0.8515
37.6192 15.0717 -2.7502
34.1337 21.3882 -2.7336
31.3121 23.7589 -2.6674
29.5245 26.8743 -2.7094
23.4209 25.4954 -2.3494
20.7075 27.0331 -2.3109
17.3446 27.4012 -2.2008
-20.8114 17.7292 -1.8553
-20.8045 14.7351 -1.7301
-20.7984 12.0998 -1.6329
-20.7929 9.7270 -1.5578
-20.7879 7.5462 -1.5008
-20.7832 5.5037 -1.4590
-20.7787 3.5567 -1.4306
-20.7744 1.6693 -1.4144
-49.4327 -0.4531 -3.3548
-49.4225 -4.8843 -3.3703
-27.6130 -5.2491 -1.9075
-20.7569 -5.9058 -1.4645
-20.7522 -7.9666 -1.5085
-20.7471 -10.1731 -1.5681
-20.7416 -12.5811 -1.6463
-20.8155 -15.3233 -1.7541
-20.8085 -18.3954 -1.8848
-23.6696 -29.9882 -2.5927
-25.1065 -38.4178 -3.1145
-22.6573 -42.5299 -3.2703
-17.7903 -42.0606 -3.0992
15.7031 -36.7354 -2.7112
18.1121 -33.6883 -2.5957
16.2452 -24.6528 -2.0036
12.1189 -15.2342 -1.3211
12.0278 -12.6209 -1.1832
12.0949 -10.6105 -1.0919
12.0908 -8.8298 -1.0160
12.0872 -7.2688 -0.9572
11.9166 -5.7869 -0.8990
12.0290 -4.5653 -0.8731
11.9110 -3.3399 -0.8395
11.9084 -2.2167 -0.8220
11.9073 -1.1310 -0.8117
11.9044 -0.0637 -0.8079
11.9010 1.0020 -0.8105
12.0247 2.1055 -0.8285
12.0188 3.2318 -0.8446
37.0719 13.6175 -2.6802
15.3005 8.9796 -1.2040
32.1243 22.9370 -2.6787
30.1794 25.9089 -2.6993
23.7398 24.3825 -2.3094
23.2420 28.5833 -2.5001
17.5987 26.0945 -2.1360
-17.6821 27.7003 -2.2302
-24.6878 22.3002 -2.2577
-20.8871 15.7235 -1.7742
-20.8003 12.9234 -1.6618
-20.7946 10.4740 -1.5801
-20.7895 8.2373 -1.5176
-20.7847 6.1550 -1.4711
-20.7801 4.1811 -1.4385
-20.7758 2.2781 -1.4184
-49.4360 0.9824 -3.3556
-49.4258 -3.4395 -3.3623
-32.8469 -5.2611 -2.2575
-20.7584 -5.2600 -1.4533
-20.7538 -7.2834 -1.4926
-20.7488 -9.4370 -1.5469
-20.7434 -11.7725 -1.6186
-20.7375 -14.3568 -1.7117
-20.8109 -17.3479 -1.8386
-20.8030 -20.7548 -1.9942
-24.1386 -28.8208 -2.5513
-26.7319 -38.4215 -3.1764
-22.7131 -39.8053 -3.1102
15.7104 -39.9207 -2.9114
16.8719 -33.6912 -2.5571
20.8187 -33.6821 -2.6872
11.9913 -7.3218 -0.8666
11.9168 -5.8868 -0.8198
12.0292 -4.6585 -0.7956
11.9112 -3.4269 -0.7645
11.9086 -2.3000 -0.7481
11.9061 -1.2120 -0.7381
12.0188 -0.1455 -0.7414
11.9011 0.9211 -0.7362
12.0251 2.0220 -0.7521
12.0192 3.1451 -0.7663
36.5608 13.1505 -2.3964
15.4527 8.9292 -1.1008
32.1602 22.6364 -2.4257
30.4996 25.8284 -2.4651
24.1844 24.5061 -2.1236
22.9937 27.8912 -2.2295
18.0772 26.4175 -1.9743
-19.6303 31.2147 -2.2743
-24.6885 22.6053 -2.0646
-20.8071 15.8845 -1.6146
-20.8007 13.1191 -1.5168
-20.7951 10.6508 -1.4410
-20.7899 8.4003 -1.3830
-20.7850 6.3080 -1.3397
-20.7805 4.3274 -1.3092
-20.7761 2.4201 -1.2901
-48.9109 1.3022 -3.0178
-48.8907 -7.4928 -3.0507
-21.2592 -5.2344 -1.3504
-20.7541 -7.1265 -1.3534
-20.7492 -9.2687 -1.4016
-20.7438 -11.5883 -1.4655
-20.7379 -14.1510 -1.5485
-20.7313 -17.0456 -1.6554
-20.8037 -20.4771 -1.8004
-24.4171 -28.7569 -2.3268
-27.1192 -38.4224 -2.9007
-23.1512 -39.9443 -2.8476
15.8003 -40.9581 -2.7077
16.5887 -33.6918 -2.3163
20.5062 -33.6828 -2.4322
12.0995 -16.3801 -1.2560
12.1018 -13.6444 -1.1249
12.1586 -11.4615 -1.0306
10.3005 -8.1029 -0.8083
10.3007 -6.7076 -0.7582
11.9178 -6.3241 -0.8321
11.9163 -5.0172 -0.7975
11.9120 -3.8048 -0.7713
11.9094 -2.6610 -0.7527
11.9069 -1.5625 -0.7407
12.0196 -0.4947 -0.7420
11.9019 0.5743 -0.7349
12.0270 1.6649 -0.7489
12.0211 2.7754 -0.7609
12.0152 3.9317 -0.7797
9.1950 6.0807 -0.6799
30.2335 24.1316 -2.3859
9.1104 8.7107 -0.7774
23.3579 26.7137 -2.1887
19.3893 26.6413 -2.0323
16.9070 28.2187 -2.0289
12.7448 45.7379 -2.9285
-20.8094 16.8644 -1.6520
-20.8027 13.9805 -1.5459
-20.7968 11.4256 -1.4635
-20.7915 9.1116 -1.4001
-20.7866 6.9736 -1.3523
-20.7819 4.9612 -1.3178
-20.7775 3.0339 -1.2951
-20.7732 1.1572 -1.2832
-17.6573 -2.1836 -1.0974
-24.3067 -5.2415 -1.5336
-20.7557 -6.4599 -1.3407
-20.7508 -8.5558 -1.3844
-20.7456 -10.8115 -1.4429
-20.7399 -13.2868 -1.5192
-20.7335 -16.0618 -1.6176
-20.8063 -19.3232 -1.7514
-28.8287 -38.4263 -2.9629
-24.2521 -39.1767 -2.8419
15.4768 -33.8814 -2.2974
19.1905 -33.6858 -2.3912
16.2423 -23.3793 -1.7558
12.1037 -14.4718 -1.1636
12.0603 -12.0489 -1.0515
10.3016 -8.5994 -0.8277
10.2983 -7.1401 -0.7729
11.9725 -6.8057 -0.8494
11.9158 -5.4295 -0.8076
12.0282 -4.2305 -0.7864
11.9102 -3.0267 -0.7579
11.9077 -1.9157 -0.7439
12.0205 -0.8448 -0.7432
11.9027 0.2283 -0.7343
11.9003 1.2966 -0.7383
12.0230 2.4105 -0.7563
12.0171 3.5496 -0.7728
37.6007 14.8684 -2.4939
34.0694 21.1351 -2.4728
31.3007 23.5290 -2.4152
28.1218 25.3670 -2.3359
24.1370 26.0389 -2.1899
21.5369 27.8553 -2.1717
17.0359 26.6475 -1.9507
-24.6854 21.2219 -2.0078
-20.8048 14.8764 -1.5775
-20.7987 12.2256 -1.4880
-20.7932 9.8414 -1.4189
-20.7881 7.6523 -1.3663
-20.7834 5.6040 -1.3277
-20.7789 3.6530 -1.3013
-20.7746 1.7634 -1.2859
-28.3152 -5.2507 -1.7762
-20.7572 -5.8051 -1.3294
-20.7524 -7.8597 -1.3687
-20.7474 -10.0577 -1.4221
-20.7418 -12.4540 -1.4922
-20.7357 -15.1212 -1.5829
-20.7287 -18.1594 -1.6997
-20.7205 -21.7123 -1.8511
-17.6607 -22.1693 -1.7482
-25.4302 -38.5336 -2.8476
-22.6583 -42.0745 -2.9474
15.7042 -37.2000 -2.4905
17.9174 -33.6887 -2.3535
16.2458 -24.8968 -1.8336
12.1210 -15.3784 -1.2077
12.0999 -12.8116 -1.0869
10.3028 -9.1207 -0.8487
10.2993 -7.5928 -0.7892
12.0402 -7.3145 -0.8689
11.9167 -5.8534 -0.8189
12.0292 -4.6274 -0.7949
11.9111 -3.3979 -0.7640
11.9085 -2.2722 -0.7477
11.9065 -1.1850 -0.7380
11.9055 -0.1173 -0.7343
11.9011 0.9480 -0.7364
12.0249 2.0498 -0.7524
12.0190 3.1740 -0.7667
36.4648 13.2086 -2.3921
15.3749 8.9305 -1.0967
32.1792 22.7582 -2.4309
30.3672 25.8338 -2.4590
24.1599 24.5916 -2.1263
22.9001 27.9054 -2.2265
18.0197 26.4611 -1.9746
-19.7036 31.1755 -2.2747
-24.6883 22.5032 -2.0604
-20.8069 15.8104 -1.6118
-20.8006 13.0536 -1.5146
-20.7949 10.5917 -1.4394
-20.7897 8.3459 -1.3817
-20.7849 6.2569 -1.3388
-20.7804 4.2786 -1.3086
-20.7760 2.3727 -1.2897
-48.8303 1.1901 -3.0126
-33.8353 -5.2634 -2.1120
-21.0532 -5.2340 -1.3380
-20.7540 -7.1787 -1.3545
-20.7491 -9.3247 -1.4031
-20.7437 -11.6496 -1.4674
-20.7378 -14.2194 -1.5509
-20.7311 -17.1237 -1.6584
-20.8034 -20.5692 -1.8044
-24.3884 -28.8544 -2.3302
-26.9897 -38.4221 -2.8960
-23.0612 -39.9963 -2.8476
15.7117 -40.4571 -2.6769
16.6829 -33.6916 -2.3188
20.6100 -33.6825 -2.4355
12.1080 -16.3146 -1.2531
12.0298 -13.5018 -1.1154
12.1584 -11.4098 -1.0284
10.3004 -8.0654 -0.8069
10.3006 -6.6746 -0.7570
11.9177 -6.2897 -0.8311
11.9167 -4.9859 -0.7967
11.9120 -3.7753 -0.7707
11.9093 -2.6328 -0.7523
11.9068 -1.5352 -0.7405
12.0196 -0.4676 -0.7419
11.9019 0.6011 -0.7350
12.0269 1.6925 -0.7491
12.0209 2.8039 -0.7613
12.0151 3.9616 -0.7803
9.1853 6.1040 -0.6802
30.0992 24.1354 -2.3796
9.1238 8.7628 -0.7802
23.2583 26.7208 -2.1849
19.4782 26.8905 -2.0479
16.8244 28.2246 -2.0266
-20.8092 16.7868 -1.6490
-20.8026 13.9125 -1.5436
-20.7967 11.3647 -1.4617
-20.7914 9.0558 -1.3987
-20.7865 6.9215 -1.3513
-20.7818 4.9118 -1.3171
-20.7774 2.9862 -1.2947
-20.7731 1.1103 -1.2831
-17.6651 -2.2249 -1.0982
-24.0413 -5.2408 -1.5176
-20.7555 -6.5111 -1.3417
-20.7507 -8.6104 -1.3857
-20.7455 -10.8709 -1.4446
-20.7398 -13.3526 -1.5214
-20.7334 -16.1365 -1.6205
-20.8061 -19.4104 -1.7550
-28.6936 -38.4260 -2.9579
-24.1372 -39.1877 -2.8387
15.4831 -33.6943 -2.2871
19.2909 -33.6856 -2.3942
16.2420 -23.2670 -1.7501
12.1036 -14.4057 -1.1605
12.0981 -12.0324 -1.0524
10.3015 -8.5601 -0.8261
10.2982 -7.1058 -0.7717
11.9725 -6.7700 -0.8483
11.9157 -5.3971 -0.8068
11.9149 -4.1605 -0.7784
11.9102 -2.9982 -0.7575
11.9076 -1.8882 -0.7436
12.0204 -0.8176 -0.7431
11.9027 0.2551 -0.7343
11.9002 1.3237 -0.7385
12.0229 2.4387 -0.7566
12.0170 3.5790 -0.7734
37.5970 14.9648 -2.4958
34.0688 21.2410 -2.4762
31.3590 23.6835 -2.4238
29.6054 26.8263 -2.4641
24.2519 26.2812 -2.2057
21.3945 27.8002 -2.1636
17.7332 27.8762 -2.0377
-24.6851 21.1254 -2.0039
-20.8046 14.8056 -1.5749
-20.7985 12.1627 -1.4860
-20.7931 9.7842 -1.4174
-20.7880 7.5992 -1.3651
-20.7833 5.5538 -1.3268
-20.7788 3.6048 -1.3007
-20.7745 1.7164 -1.2857
-27.9600 -5.2499 -1.7546
-20.7570 -5.8554 -1.3302
-20.7523 -7.9131 -1.3699
-20.7472 -10.1153 -1.4236
-20.7417 -12.5174 -1.4942
-20.7355 -15.1926 -1.5855
-20.7285 -18.2418 -1.7031
-20.7203 -21.8102 -1.8555
-24.5890 -31.0093 -2.4409
-25.3435 -38.5906 -2.8476
-22.6578 -42.3012 -2.9597
-17.9145 -42.0903 -2.8214
15.7036 -36.9666 -2.4772
18.0147 -33.6885 -2.3563
16.2455 -24.7744 -1.8273
12.1209 -15.3073 -1.2043
12.0998 -12.7538 -1.0843
10.3027 -9.0794 -0.8470
10.2992 -7.5570 -0.7879
12.0873 -7.3059 -0.8711
11.9167 -5.8201 -0.8180
12.0291 -4.5963 -0.7942
11.9110 -3.3689 -0.7635
11.9084 -2.2445 -0.7474
11.9069 -1.1580 -0.7379
11.9049 -0.0905 -0.7343
11.9010 0.9750 -0.7365
12.0248 2.0776 -0.7527
12.0189 3.2028 -0.7672
37.4739 13.6696 -2.4603
15.3283 8.9496 -1.0948
32.1983 22.8806 -2.4363
30.2357 25.8393 -2.4531
24.1352 24.6773 -2.1290
22.9693 28.1185 -2.2394
17.9178 26.4392 -1.9699
-17.6445 27.7790 -2.0298
-24.6881 22.4015 -2.0561
-20.8068 15.7365 -1.6090
-20.8004 12.9884 -1.5125
-20.7948 10.5328 -1.4377
-20.7896 8.2915 -1.3805
-20.7848 6.2059 -1.3379
-20.7803 4.2298 -1.3080
-20.7759 2.3254 -1.2894
-48.8301 1.0803 -3.0125
-33.3340 -5.2623 -2.0814
-20.8507 -5.2335 -1.3259
-20.7539 -7.2310 -1.3555
-20.7489 -9.3807 -1.4045
-20.7436 -11.7109 -1.4692
-20.7376 -14.2880 -1.5532
-20.7309 -17.2023 -1.6615
-20.8032 -20.6619 -1.8084
-24.3501 -28.9409 -2.3328
-26.8606 -38.4218 -2.8915
-22.9712 -40.0481 -2.8476
15.7111 -40.1874 -2.6614
16.7773 -33.6914 -2.3214
20.7143 -33.6823 -2.4389
12.1078 -16.2378 -1.2493
12.0450 -13.4578 -1.1140
12.1583 -11.3584 -1.0262
10.3003 -8.0280 -0.8055
10.3159 -6.6516 -0.7571
11.9177 -6.2554 -0.8302
11.9492 -4.9680 -0.7982
11.9119 -3.7458 -0.7702
11.9093 -2.6047 -0.7519
11.9067 -1.5080 -0.7402
12.0195 -0.4405 -0.7418
11.9018 0.6279 -0.7351
12.0267 1.7200 -0.7493
12.0208 2.8324 -0.7617
12.0149 3.9916 -0.7809
9.1755 6.1273 -0.6805
29.9656 24.1393 -2.3733
25.7725 24.8647 -2.2088
23.1589 26.7279 -2.1813
19.1725 26.5943 -2.0221
17.1540 28.9252 -2.0742
-20.8090 16.7096 -1.6460
-20.8024 13.8448 -1.5412
-20.7966 11.3039 -1.4599
-20.7913 9.0002 -1.3974
-20.7863 6.8695 -1.3503
-20.7817 4.8624 -1.3164
-20.7773 2.9385 -1.2942
-21.4099 1.0961 -1.3222
-17.6827 -2.2676 -1.0996
-23.7815 -5.2402 -1.5020
-20.7554 -6.5624 -1.3426
-20.7506 -8.6652 -1.3870
-20.7454 -10.9303 -1.4463
-20.7396 -13.4186 -1.5236
-20.7332 -16.2115 -1.6233
-20.8059 -19.4979 -1.7587
-28.5589 -38.4257 -2.9529
-24.0244 -39.2020 -2.8358
15.4985 -43.3108 -2.8372
15.5750 -33.6941 -2.2895
19.3915 -33.6854 -2.3973
16.2418 -23.1556 -1.7445
10.3044 -12.2084 -0.9854
12.0980 -11.9783 -1.0500
10.3015 -8.5209 -0.8246
10.2981 -7.0716 -0.7705
11.9187 -6.7043 -0.8434
11.9156 -5.3648 -0.8060
11.9143 -4.1303 -0.7778
11.9101 -2.9696 -0.7571
11.9076 -1.8607 -0.7433
12.0203 -0.7905 -0.7430
11.9026 0.2819 -0.7343
11.9002 1.3508 -0.7387
12.0227 2.4668 -0.7570
12.0169 3.6085 -0.7739
42.5095 17.0310 -2.8245
34.0682 21.3472 -2.4797
31.4177 23.8391 -2.4325
29.4986 26.8507 -2.4603
24.1996 26.3431 -2.2063
21.4222 27.9660 -2.1728
17.7406 28.0268 -2.0458
-20.8114 17.7292 -1.6862
-20.8045 14.7351 -1.5724
-20.7984 12.0998 -1.4841
-20.7929 9.7270 -1.4158
-20.7879 7.5462 -1.3640
-20.7832 5.5037 -1.3260
-20.7787 3.5567 -1.3002
-20.7744 1.6693 -1.2854
-27.6130 -5.2491 -1.7336
-20.7569 -5.9058 -1.3311
-20.7522 -7.9666 -1.3710
-20.7471 -10.1731 -1.4252
-20.7416 -12.5811 -1.4962
-20.7354 -15.2643 -1.5881
-20.7283 -18.3245 -1.7064
-23.8032 -30.1574 -2.3696
-25.2566 -38.6475 -2.8476
-22.6573 -42.5299 -2.9722
-17.7898 -42.0596 -2.8167
15.7031 -36.7354 -2.4641
18.1121 -33.6883 -2.3591
16.2452 -24.6528 -1.8210
12.1208 -15.2366 -1.2008
12.0278 -12.6209 -1.0753
10.3026 -9.0382 -0.8453
10.2992 -7.5214 -0.7866
12.0872 -7.2688 -0.8699
11.9166 -5.7869 -0.8171
12.0290 -4.5653 -0.7936
11.9110 -3.3399 -0.7630
11.9084 -2.2167 -0.7471
11.9073 -1.1310 -0.7377
11.9044 -0.0637 -0.7342
11.9010 1.0020 -0.7366
12.0247 2.1055 -0.7529
12.0187 3.2318 -0.7676
37.4796 13.7673 -2.4627
15.3001 8.9794 -1.0942
32.2174 23.0035 -2.4416
30.1046 25.8447 -2.4472
24.1065 24.7591 -2.1314
22.8974 28.1595 -2.2385
17.8164 26.4173 -1.9653
-17.6816 27.6996 -2.0269
-24.6878 22.3002 -2.0519
-20.8066 15.6629 -1.6063
-20.8003 12.9234 -1.5104
-20.7946 10.4740 -1.4361
-20.7895 8.2373 -1.3792
-20.7847 6.1550 -1.3370
-20.7801 4.1811 -1.3074
-20.7758 2.2781 -1.2891
-32.8469 -5.2611 -2.0517
-20.7584 -5.2600 -1.3208
-20.7538 -7.2834 -1.3566
-20.7488 -9.4370 -1.4059
-20.7434 -11.7725 -1.4711
-20.7375 -14.3568 -1.5557
-20.7307 -17.2810 -1.6646
-20.8030 -20.7548 -1.8125
-24.3118 -29.0276 -2.3354
-26.7319 -38.4215 -2.8869
-22.8810 -40.0997 -2.8476
15.7104 -39.9207 -2.6460
16.8719 -33.6912 -2.3240
20.8187 -33.6821 -2.4422
11.9913 -7.3218 -0.7797
11.9168 -5.8868 -0.7376
12.0292 -4.6585 -0.7159
11.9112 -3.4269 -0.6878
11.9086 -2.3000 -0.6731
11.9061 -1.2120 -0.6642
12.0188 -0.1455 -0.6671
11.9011 0.9211 -0.6624
12.0251 2.0220 -0.6767
12.0191 3.1451 -0.6895
36.5886 13.1604 -2.1579
15.4498 8.9276 -0.9903
32.2530 22.7017 -2.1889
30.4237 25.7641 -2.2125
24.2030 24.5249 -1.9122
23.0965 28.0158 -2.0150
18.0928 26.4404 -1.7780
-19.6298 31.2140 -2.0463
-24.6885 22.6054 -1.8577
-20.8071 15.8845 -1.4528
-20.8007 13.1191 -1.3648
-20.7951 10.6508 -1.2966
-20.7899 8.4003 -1.2444
-20.7850 6.3080 -1.2055
-20.7805 4.3274 -1.1780
-20.7761 2.4201 -1.1608
-48.9109 1.3022 -2.7154
-48.8907 -7.4928 -2.7449
-21.2593 -5.2344 -1.2151
-20.7541 -7.1265 -1.2178
-20.7492 -9.2687 -1.2612
-20.7438 -11.5883 -1.3187
-20.7379 -14.1510 -1.3933
-20.7313 -17.0456 -1.4895
-20.7235 -20.3982 -1.6138
-24.6024 -28.9751 -2.1095
-27.6594 -39.1878 -2.6619
-23.4262 -40.4188 -2.5926
15.8003 -40.9581 -2.4363
16.5887 -33.6918 -2.0841
20.5062 -33.6828 -2.1885
12.0995 -16.3801 -1.1302
12.1018 -13.6444 -1.0121
10.3042 -9.7134 -0.7859
12.0923 -9.5125 -0.8538
10.3007 -6.7076 -0.6822
11.9178 -6.3241 -0.7487
11.9163 -5.0172 -0.7175
11.9120 -3.8048 -0.6940
11.9094 -2.6610 -0.6772
11.9069 -1.5625 -0.6665
12.0196 -0.4947 -0.6676
11.9019 0.5743 -0.6613
12.0270 1.6649 -0.6738
12.0211 2.7754 -0.6847
12.0152 3.9317 -0.7016
9.1948 6.0805 -0.6118
30.3993 24.2640 -2.1586
9.1104 8.7107 -0.6995
22.9547 26.2525 -1.9353
19.0154 26.1276 -1.7934
16.8963 28.2007 -1.8244
12.7445 45.7368 -2.6349
-20.8094 16.8644 -1.4865
-20.8027 13.9805 -1.3910
-20.7968 11.4256 -1.3169
-20.7915 9.1116 -1.2598
-20.7866 6.9736 -1.2168
-20.7819 4.9612 -1.1857
-20.7775 3.0339 -1.1653
-20.7732 1.1572 -1.1546
-17.6569 -2.1835 -0.9874
-24.3067 -5.2415 -1.3799
-20.7557 -6.4599 -1.2064
-20.7508 -8.5558 -1.2456
-20.7456 -10.8115 -1.2983
-20.7399 -13.2868 -1.3669
-20.7335 -16.0618 -1.4555
-20.7262 -19.2487 -1.5698
-25.9639 -28.8383 -2.1535
-22.5472 -30.0536 -2.0851
-24.2521 -39.1767 -2.5571
15.4768 -33.8814 -2.0672
19.1905 -33.6858 -2.1515
16.2423 -23.3793 -1.5799
12.1037 -14.4718 -1.0470
10.3055 -10.2958 -0.8084
10.3495 -8.6394 -0.7482
11.9936 -8.3155 -0.8099
11.9725 -6.8057 -0.7643
11.9158 -5.4295 -0.7267
12.0282 -4.2305 -0.7076
11.9102 -3.0267 -0.6820
11.9077 -1.9157 -0.6693
12.0205 -0.8448 -0.6687
11.9027 0.2283 -0.6607
11.9003 1.2966 -0.6643
12.0230 2.4105 -0.6805
12.0171 3.5496 -0.6954
37.1147 14.6763 -2.2149
34.2947 21.2748 -2.2397
30.3925 22.8464 -2.1101
29.0143 26.1720 -2.1685
23.2152 25.0445 -1.8952
21.3846 27.6584 -1.9402
17.1068 26.7583 -1.7625
-24.6854 21.2220 -1.8066
-20.8048 14.8764 -1.4194
-20.7987 12.2256 -1.3389
-20.7932 9.8414 -1.2767
-20.7881 7.6523 -1.2294
-20.7834 5.6040 -1.1946
-20.7789 3.6530 -1.1708
-20.7746 1.7634 -1.1571
-28.3152 -5.2507 -1.5982
-20.7572 -5.8051 -1.1962
-20.7524 -7.8597 -1.2315
-20.7474 -10.0577 -1.2796
-20.7418 -12.4540 -1.3427
-20.7357 -15.1212 -1.4242
-20.7287 -18.1594 -1.5294
-20.7205 -21.7123 -1.6656
-17.6603 -22.1687 -1.5730
-25.8581 -39.1819 -2.6053
-23.4207 -43.4901 -2.7413
15.7042 -37.2000 -2.2409
17.9174 -33.6887 -2.1176
16.2458 -24.8967 -1.6498
12.1229 -15.3808 -1.0868
10.3070 -10.9132 -0.8331
10.3028 -9.1207 -0.7636
12.0909 -8.9136 -0.8336
12.0402 -7.3145 -0.7818
11.9167 -5.8534 -0.7368
12.0292 -4.6274 -0.7153
11.9111 -3.3979 -0.6874
11.9085 -2.2722 -0.6728
11.9065 -1.1850 -0.6640
11.9055 -0.1173 -0.6607
11.9011 0.9480 -0.6626
12.0249 2.0498 -0.6770
12.0190 3.1740 -0.6899
36.4112 13.1892 -2.1492
15.3744 8.9302 -0.9867
32.2723 22.8240 -2.1936
30.2918 25.7697 -2.2071
24.1784 24.6104 -1.9146
23.0023 28.0299 -2.0123
18.4769 27.1324 -1.8217
-19.7032 31.1748 -2.0467
-24.6883 22.5032 -1.8539
-20.8069 15.8104 -1.4503
-20.8006 13.0536 -1.3628
-20.7949 10.5917 -1.2951
-20.7897 8.3459 -1.2433
-20.7849 6.2569 -1.2046
-20.7804 4.2786 -1.1774
-20.7760 2.3727 -1.1605
-48.8303 1.1901 -2.7107
-33.8353 -5.2634 -1.9003
-21.0532 -5.2340 -1.2039
-20.7540 -7.1787 -1.2187
-20.7491 -9.3247 -1.2624
-20.7437 -11.6496 -1.3203
-20.7378 -14.2194 -1.3954
-20.7311 -17.1237 -1.4922
-20.7233 -20.4900 -1.6173
-24.5641 -29.0623 -2.1118
-27.5273 -39.1874 -2.6577
-23.4258 -40.6286 -2.6027
15.7117 -40.4571 -2.4086
16.6829 -33.6916 -2.0864
20.6100 -33.6825 -2.1914
12.1080 -16.3146 -1.1275
10.3085 -11.5698 -0.8600
10.3041 -9.6697 -0.7842
12.0922 -9.4684 -0.8523
10.3006 -6.6746 -0.6812
11.9177 -6.2897 -0.7479
11.9167 -4.9859 -0.7169
11.9120 -3.7753 -0.6935
11.9093 -2.6328 -0.6769
11.9068 -1.5352 -0.6663
12.0196 -0.4676 -0.6676
11.9019 0.6011 -0.6614
12.0269 1.6925 -0.6740
12.0209 2.8039 -0.6850
12.0150 3.9616 -0.7021
9.1850 6.1039 -0.6120
30.2639 24.2675 -2.1528
9.1238 8.7628 -0.7021
23.2418 26.7018 -1.9646
19.3403 26.7001 -1.8297
16.8137 28.2067 -1.8224
-20.8092 16.7868 -1.4838
-20.8026 13.9125 -1.3889
-20.7967 11.3647 -1.3152
-20.7914 9.0558 -1.2585
-20.7865 6.9215 -1.2158
-20.7818 4.9118 -1.1851
-20.7774 2.9862 -1.1649
-20.7731 1.1103 -1.1545
-17.6647 -2.2249 -0.9881
-24.0412 -5.2408 -1.3655
-20.7555 -6.5111 -1.2072
-20.7507 -8.6104 -1.2468
-20.7455 -10.8709 -1.2998
-20.7398 -13.3526 -1.3689
-20.7333 -16.1365 -1.4581
-20.7260 -19.3356 -1.5730
-25.9087 -28.9075 -2.1543
-22.4878 -30.1154 -2.0859
-24.1372 -39.1877 -2.5542
15.4831 -33.6943 -2.0579
19.2909 -33.6856 -2.1543
16.2420 -23.2670 -1.5747
12.1036 -14.4057 -1.0442
10.3054 -10.2495 -0.8066
10.3689 -8.6161 -0.7482
10.3232 -7.1230 -0.6961
11.9725 -6.7700 -0.7633
11.9157 -5.3971 -0.7260
11.9149 -4.1605 -0.7004
11.9102 -2.9982 -0.6816
11.9076 -1.8882 -0.6691
12.0204 -0.8176 -0.6686
11.9027 0.2551 -0.6607
11.9002 1.3237 -0.6645
12.0229 2.4387 -0.6808
12.0170 3.5790 -0.6958
34.0036 21.2003 -2.2238
30.5142 23.0455 -2.1221
28.8473 26.1393 -2.1604
23.3460 25.2995 -1.9105
21.4122 27.8233 -1.9484
16.9520 26.6482 -1.7528
-24.6851 21.1254 -1.8031
-20.8046 14.8056 -1.4171
-20.7985 12.1627 -1.3371
-20.7931 9.7842 -1.2753
-20.7880 7.5992 -1.2283
-20.7833 5.5538 -1.1939
-20.7788 3.6048 -1.1704
-20.7745 1.7164 -1.1568
-27.9600 -5.2499 -1.5788
-20.7571 -5.8554 -1.1969
-20.7523 -7.9131 -1.2326
-20.7472 -10.1153 -1.2810
-20.7417 -12.5174 -1.3445
-20.7355 -15.1926 -1.4266
-20.7285 -18.2418 -1.5324
-20.7203 -21.8102 -1.6695
-23.4295 -29.5471 -2.0927
-25.7315 -39.1815 -2.6014
-23.4202 -43.7247 -2.7527
-17.9139 -42.0888 -2.5386
15.7036 -36.9666 -2.2290
18.0146 -33.6885 -2.1201
16.2455 -24.7744 -1.6441
12.1228 -15.3097 -1.0837
10.3068 -10.8639 -0.8311
10.3027 -9.0794 -0.7621
10.3242 -7.5754 -0.7106
12.0873 -7.3059 -0.7838
11.9167 -5.8201 -0.7360
12.0291 -4.5963 -0.7146
11.9110 -3.3689 -0.6870
11.9084 -2.2445 -0.6725
11.9069 -1.1580 -0.6639
11.9049 -0.0905 -0.6607
11.9010 0.9750 -0.6627
12.0248 2.0776 -0.6772
12.0188 3.2028 -0.6903
36.6274 13.3608 -2.1637
15.3279 8.9494 -0.9850
32.2916 22.9469 -2.1985
30.1608 25.7753 -2.2018
24.1505 24.6929 -1.9168
22.9084 28.0439 -2.0096
18.0118 26.5778 -1.7818
-17.6440 27.7782 -1.8263
-24.6881 22.4015 -1.8501
-20.8068 15.7365 -1.4478
-20.8004 12.9885 -1.3609
-20.7948 10.5328 -1.2936
-20.7896 8.2915 -1.2421
-20.7848 6.2059 -1.2038
-20.7803 4.2298 -1.1769
-20.7759 2.3254 -1.1602
-48.8301 1.0803 -2.7106
-33.3340 -5.2623 -1.8728
-20.8507 -5.2335 -1.1930
-20.7539 -7.2310 -1.2197
-20.7489 -9.3807 -1.2637
-20.7436 -11.7109 -1.3220
-20.7376 -14.2880 -1.3976
-20.7309 -17.2023 -1.4950
-20.7231 -20.5823 -1.6209
-24.5258 -29.1496 -2.1141
-27.3955 -39.1870 -2.6535
-23.4254 -40.8400 -2.6129
15.7111 -40.1873 -2.3947
16.7773 -33.6914 -2.0888
20.7143 -33.6823 -2.1945
12.1078 -16.2379 -1.1241
10.3084 -11.5175 -0.8578
10.3040 -9.6261 -0.7826
10.3259 -8.0479 -0.7265
10.3005 -6.6417 -0.6802
11.9177 -6.2554 -0.7470
11.9492 -4.9680 -0.7182
11.9119 -3.7458 -0.6930
11.9093 -2.6047 -0.6765
11.9067 -1.5080 -0.6661
12.0195 -0.4405 -0.6675
11.9018 0.6279 -0.6614
12.0267 1.7200 -0.6742
12.0208 2.8324 -0.6854
12.0149 3.9916 -0.7026
9.1753 6.1272 -0.6123
30.1291 24.2710 -2.1471
27.4259 26.4598 -2.1149
23.1425 26.7089 -1.9613
19.2001 26.6325 -1.8221
16.7314 28.2127 -1.8203
-20.8090 16.7096 -1.4811
-20.8024 13.8448 -1.3868
-20.7966 11.3039 -1.3136
-20.7913 9.0002 -1.2573
-20.7863 6.8695 -1.2149
-20.7817 4.8624 -1.1845
-20.7773 2.9385 -1.1645
-21.4099 1.0961 -1.1897
-17.6822 -2.2675 -0.9893
-23.7815 -5.2402 -1.3515
-20.7554 -6.5624 -1.2081
-20.7506 -8.6652 -1.2480
-20.7454 -10.9303 -1.3013
-20.7396 -13.4186 -1.3709
-20.7332 -16.2115 -1.4606
-20.7258 -19.4228 -1.5763
-25.8534 -28.9767 -2.1551
-22.4284 -30.1773 -2.0866
-24.0244 -39.2019 -2.5516
15.4985 -43.3108 -2.5529
15.5750 -33.6941 -2.0600
19.3915 -33.6854 -2.1571
16.2418 -23.1556 -1.5697
10.3044 -12.2084 -0.8866
10.3053 -10.2034 -0.8048
10.3265 -8.5416 -0.7437
11.9934 -8.2357 -0.8074
11.9187 -6.7043 -0.7589
11.9156 -5.3648 -0.7252
11.9143 -4.1303 -0.6998
11.9101 -2.9696 -0.6812
11.9076 -1.8607 -0.6688
12.0203 -0.7905 -0.6685
11.9026 0.2819 -0.6607
11.9002 1.3508 -0.6647
12.0227 2.4668 -0.6811
12.0168 3.6084 -0.6963
34.0029 21.3063 -2.2269
30.6372 23.2468 -2.1343
29.4728 26.8272 -2.2118
23.1978 25.2526 -1.9030
21.4400 27.9893 -1.9567
16.9355 26.7549 -1.7573
-20.8114 17.7292 -1.5172
-20.8045 14.7351 -1.4148
-20.7984 12.0998 -1.3354
-20.7929 9.7270 -1.2740
-20.7879 7.5462 -1.2273
-20.7832 5.5037 -1.1932
-20.7787 3.5567 -1.1699
-20.7744 1.6693 -1.1566
-27.6130 -5.2491 -1.5599
-20.7569 -5.9058 -1.1977
-20.7522 -7.9666 -1.2336
-20.7471 -10.1731 -1.2824
-20.7416 -12.5811 -1.3463
-20.7354 -15.2643 -1.4289
-20.7283 -18.3245 -1.5354
-30.8610 -39.0993 -2.7644
-25.6053 -39.1811 -2.5976
-23.4198 -43.9613 -2.7643
-17.7894 -42.0586 -2.5343
15.7031 -36.7354 -2.2171
18.1121 -33.6883 -2.1227
16.2452 -24.6528 -1.6385
12.1227 -15.2389 -1.0807
10.3067 -10.8150 -0.8291
10.3026 -9.0382 -0.7606
12.0908 -8.8298 -0.8309
12.0872 -7.2688 -0.7828
11.9166 -5.7869 -0.7352
12.0290 -4.5653 -0.7140
11.9110 -3.3399 -0.6865
11.9084 -2.2167 -0.6722
11.9073 -1.1310 -0.6638
11.9044 -0.0637 -0.6607
11.9010 1.0020 -0.6628
12.0247 2.1055 -0.6775
12.0187 3.2318 -0.6907
36.5309 13.4188 -2.1598
15.2998 8.9792 -0.9845
31.8937 22.7723 -2.1749
30.0303 25.7809 -2.1965
24.1150 24.7678 -1.9184
23.0243 28.3155 -2.0253
17.9771 26.6556 -1.7843
-17.6812 27.6989 -1.8237
-24.6879 22.3002 -1.8463
-20.8066 15.6629 -1.4453
-20.8003 12.9234 -1.3590
-20.7946 10.4740 -1.2922
-20.7895 8.2373 -1.2410
-20.7847 6.1550 -1.2030
-20.7801 4.1811 -1.1763
-20.7758 2.2781 -1.1599
-32.8469 -5.2611 -1.8461
-20.7584 -5.2600 -1.1884
-20.7538 -7.2834 -1.2206
-20.7488 -9.4370 -1.2650
-20.7434 -11.7725 -1.3237
-20.7375 -14.3568 -1.3997
-20.7307 -17.2810 -1.4978
-20.7229 -20.6749 -1.6245
-24.4873 -29.2372 -2.1165
-27.2642 -39.1865 -2.6493
-23.4250 -41.0530 -2.6231
15.7104 -39.9207 -2.3809
16.8719 -33.6912 -2.0911
20.8187 -33.6821 -2.1975
12.0874 -7.3805 -0.6985
11.9168 -5.8868 -0.6555
12.0292 -4.6585 -0.6362
11.9112 -3.4269 -0.6113
11.9086 -2.3000 -0.5982
11.9061 -1.2120 -0.5902
12.0188 -0.1455 -0.5928
11.9011 0.9211 -0.5887
12.0251 2.0220 -0.6014
12.0191 3.1451 -0.6127
36.8836 13.2665 -1.9332
15.4470 8.9259 -0.8799
32.3131 22.7440 -1.9489
30.3482 25.7002 -1.9614
24.2047 24.5266 -1.6995
23.2000 28.1414 -1.7988
18.5072 27.0459 -1.6163
16.7942 29.9707 -1.6944
-19.6293 31.2133 -1.8185
-24.6885 22.6054 -1.6509
-20.8071 15.8845 -1.2911
-20.8007 13.1191 -1.2129
-20.7951 10.6508 -1.1523
-20.7899 8.4003 -1.1059
-20.7850 6.3080 -1.0713
-20.7805 4.3274 -1.0469
-20.7761 2.4201 -1.0316
-48.9109 1.3022 -2.4131
-48.8104 -7.4805 -2.4354
-21.2592 -5.2344 -1.0798
-20.7541 -7.1265 -1.0823
-20.7492 -9.2687 -1.1208
-20.7438 -11.5883 -1.1719
-20.7379 -14.1510 -1.2382
-20.7313 -17.0456 -1.3237
-20.7235 -20.3982 -1.4341
-26.5006 -31.2107 -2.0193
-27.6594 -39.1878 -2.3657
-23.4262 -40.4188 -2.3041
15.8003 -40.9582 -2.1652
16.5887 -33.6918 -1.8522
20.5062 -33.6828 -1.9449
10.3140 -13.9629 -0.8562
10.3086 -11.6226 -0.7662
12.1586 -11.4615 -0.8241
11.9962 -9.4368 -0.7528
11.9924 -7.8092 -0.7058
11.9178 -6.3241 -0.6654
11.9163 -5.0172 -0.6377
11.9120 -3.8048 -0.6167
11.9094 -2.6610 -0.6019
11.9069 -1.5625 -0.5923
12.0196 -0.4947 -0.5933
11.9019 0.5743 -0.5877
12.0270 1.6649 -0.5988
12.0211 2.7754 -0.6085
12.0151 3.9317 -0.6235
9.1945 6.0804 -0.5437
30.5669 24.3977 -1.9289
9.1104 8.7107 -0.6217
23.3247 26.6757 -1.7476
19.3652 26.6083 -1.6231
17.1570 28.6359 -1.6464
12.7442 45.7357 -2.3416
-20.8094 16.8644 -1.3210
-20.8027 13.9805 -1.2361
-20.7968 11.4256 -1.1703
-20.7915 9.1116 -1.1196
-20.7866 6.9736 -1.0813
-20.7819 4.9612 -1.0538
-20.7775 3.0339 -1.0356
-20.7732 1.1572 -1.0261
-17.6565 -2.1835 -0.8774
-24.3067 -5.2415 -1.2264
-20.7557 -6.4599 -1.0721
-20.7508 -8.5558 -1.1070
-20.7456 -10.8115 -1.1538
-20.7399 -13.2868 -1.2148
-20.7335 -16.0619 -1.2935
-20.7262 -19.2487 -1.3951
-25.8322 -28.6920 -1.9041
-22.3959 -29.8519 -1.8406
-24.2521 -39.1767 -2.2725
15.4768 -33.8814 -1.8371
19.1905 -33.6858 -1.9121
16.2364 -23.3709 -1.4035
10.3102 -12.3274 -0.7926
10.3333 -10.3236 -0.7204
11.9975 -10.0150 -0.7708
11.9936 -8.3155 -0.7198
11.9725 -6.8057 -0.6792
11.9158 -5.4295 -0.6458
12.0282 -4.2305 -0.6289
11.9102 -3.0267 -0.6061
11.9077 -1.9157 -0.5948
12.0205 -0.8448 -0.5943
11.9027 0.2283 -0.5871
11.9003 1.2966 -0.5904
12.0230 2.4105 -0.6048
12.0171 3.5496 -0.6180
36.3068 22.5230 -2.1072
30.6177 23.0156 -1.8891
28.8478 26.0219 -1.9161
23.6981 25.5654 -1.7193
21.2951 27.5426 -1.7171
17.2620 27.0011 -1.5806
-24.6854 21.2219 -1.6055
-20.8048 14.8764 -1.2614
-20.7987 12.2256 -1.1899
-20.7932 9.8414 -1.1346
-20.7881 7.6523 -1.0925
-20.7834 5.6040 -1.0616
-20.7789 3.6530 -1.0405
-20.7746 1.7634 -1.0283
-28.3153 -5.2507 -1.4203
-20.7572 -5.8051 -1.0630
-20.7524 -7.8597 -1.0945
-20.7474 -10.0577 -1.1371
-20.7418 -12.4540 -1.1932
-20.7357 -15.1212 -1.2657
-20.7287 -18.1594 -1.3592
-20.7205 -21.7123 -1.4802
-17.6598 -22.1681 -1.3978
-25.6590 -38.8804 -2.2975
-23.4207 -43.4901 -2.4362
15.7042 -37.2000 -1.9915
17.9174 -33.6887 -1.8819
16.2458 -24.8968 -1.4662
10.3120 -13.0832 -0.8216
10.3445 -10.9530 -0.7430
10.3279 -9.1428 -0.6803
12.0909 -8.9136 -0.7409
12.0873 -7.3432 -0.6975
11.9167 -5.8534 -0.6548
12.0292 -4.6274 -0.6357
11.9111 -3.3979 -0.6109
11.9085 -2.2722 -0.5979
11.9065 -1.1850 -0.5901
11.9055 -0.1173 -0.5872
11.9011 0.9480 -0.5888
12.0249 2.0498 -0.6016
12.0189 3.1739 -0.6131
36.7036 13.2951 -1.9253
15.3739 8.9300 -0.8769
32.3465 22.8765 -1.9540
30.2169 25.7060 -1.9566
24.1969 24.6293 -1.7028
23.1053 28.1554 -1.7963
18.4142 27.0404 -1.6135
16.7667 30.0802 -1.6984
-19.7027 31.1740 -1.8188
-24.6883 22.5032 -1.6475
-20.8069 15.8104 -1.2888
-20.8006 13.0536 -1.2112
-20.7949 10.5917 -1.1510
-20.7897 8.3459 -1.1049
-20.7849 6.2569 -1.0705
-20.7804 4.2786 -1.0464
-20.7760 2.3727 -1.0313
-48.8303 1.1901 -2.4090
-33.8354 -5.2634 -1.6888
-21.0532 -5.2340 -1.0699
-20.7540 -7.1787 -1.0831
-20.7491 -9.3247 -1.1219
-20.7437 -11.6496 -1.1734
-20.7378 -14.2194 -1.2401
-20.7311 -17.1237 -1.3261
-20.7233 -20.4900 -1.4373
-26.4352 -31.2760 -2.0197
-27.5273 -39.1874 -2.3619
-23.4258 -40.6286 -2.3130
15.7117 -40.4571 -2.1405
16.6829 -33.6916 -1.8542
20.6100 -33.6825 -1.9475
10.3138 -13.8971 -0.8535
10.3085 -11.5698 -0.7643
12.1584 -11.4098 -0.8223
11.9961 -9.3931 -0.7514
11.9923 -7.7708 -0.7048
11.9177 -6.2897 -0.6646
11.9167 -4.9859 -0.6371
11.9120 -3.7753 -0.6163
11.9093 -2.6328 -0.6015
11.9068 -1.5352 -0.5921
12.0196 -0.4676 -0.5933
11.9019 0.6011 -0.5877
12.0269 1.6925 -0.5990
12.0209 2.8039 -0.6088
12.0150 3.9616 -0.6240
9.1848 6.1037 -0.5439
30.4303 24.4009 -1.9237
9.1238 8.7628 -0.6239
23.2253 26.6829 -1.7447
19.3044 26.6505 -1.6230
17.0779 28.6500 -1.6450
-20.8092 16.7868 -1.3186
-20.8026 13.9125 -1.2343
-20.7967 11.3646 -1.1688
-20.7914 9.0558 -1.1185
-20.7865 6.9215 -1.0805
-20.7818 4.9118 -1.0532
-20.7774 2.9862 -1.0353
-20.7731 1.1103 -1.0260
-17.6642 -2.2248 -0.8781
-24.0412 -5.2408 -1.2136
-20.7555 -6.5111 -1.0728
-20.7507 -8.6104 -1.1080
-20.7455 -10.8708 -1.1551
-20.7398 -13.3526 -1.2165
-20.7333 -16.1365 -1.2958
-20.7260 -19.3356 -1.3980
-25.7772 -28.7608 -1.9048
-22.3369 -29.9132 -1.8412
-24.1372 -39.1877 -2.2699
15.4831 -33.6943 -1.8289
19.2909 -33.6856 -1.9145
16.2359 -23.2581 -1.3989
10.3101 -12.2711 -0.7905
12.0981 -12.0324 -0.8415
11.9974 -9.9693 -0.7693
10.3232 -7.1230 -0.6186
11.9725 -6.7700 -0.6783
11.9157 -5.3971 -0.6452
11.9149 -4.1605 -0.6224
11.9102 -2.9982 -0.6057
11.9076 -1.8882 -0.5946
12.0204 -0.8176 -0.5942
11.9027 0.2551 -0.5872
11.9002 1.3237 -0.5905
12.0229 2.4387 -0.6050
12.0169 3.5790 -0.6184
36.1715 22.5520 -2.1023
30.7416 23.2172 -1.9000
28.6824 25.9899 -1.9090
23.5466 25.5169 -1.7124
21.2544 27.6182 -1.7188
17.1543 26.9662 -1.5763
-24.6851 21.1254 -1.6024
-20.8046 14.8056 -1.2594
-20.7985 12.1627 -1.1883
-20.7931 9.7842 -1.1334
-20.7880 7.5992 -1.0916
-20.7833 5.5538 -1.0610
-20.7788 3.6048 -1.0401
-20.7745 1.7164 -1.0281
-27.9600 -5.2499 -1.4031
-20.7570 -5.8554 -1.0637
-20.7523 -7.9131 -1.0954
-20.7472 -10.1153 -1.1384
-20.7417 -12.5174 -1.1948
-20.7355 -15.1926 -1.2678
-20.7285 -18.2418 -1.3618
-20.7203 -21.8102 -1.4837
-24.3514 -30.7097 -1.9330
-25.5777 -38.9472 -2.2981
-23.4202 -43.7247 -2.4464
-17.9133 -42.0874 -2.2559
15.7036 -36.9666 -1.9809
18.0147 -33.6885 -1.8842
16.2455 -24.7744 -1.4611
10.3118 -13.0226 -0.8193
12.0998 -12.7538 -0.8671
12.0950 -10.6588 -0.7951
10.3242 -7.5754 -0.6315
12.0873 -7.3059 -0.6966
11.9167 -5.8201 -0.6541
12.0291 -4.5963 -0.6351
11.9110 -3.3689 -0.6105
11.9084 -2.2445 -0.5977
11.9069 -1.1580 -0.5900
11.9049 -0.0905 -0.5872
11.9010 0.9750 -0.5889
12.0248 2.0776 -0.6018
12.0188 3.2028 -0.6135
36.5249 13.3234 -1.9175
15.3274 8.9491 -0.8754
31.6276 22.4750 -1.9136
30.0864 25.7117 -1.9519
24.1723 24.7152 -1.7050
23.0955 28.2729 -1.8005
18.2260 26.8940 -1.6023
16.7130 30.1432 -1.6999
-17.6435 27.7774 -1.6230
-24.6881 22.4015 -1.6441
-20.8068 15.7365 -1.2866
-20.8004 12.9885 -1.2094
-20.7948 10.5328 -1.1496
-20.7896 8.2915 -1.1039
-20.7848 6.2059 -1.0698
-20.7803 4.2298 -1.0459
-20.7759 2.3254 -1.0311
-48.8301 1.0803 -2.4089
-33.3340 -5.2623 -1.6644
-20.8507 -5.2335 -1.0602
-20.7539 -7.2310 -1.0839
-20.7489 -9.3807 -1.1231
-20.7436 -11.7109 -1.1748
-20.7376 -14.2880 -1.2420
-20.7309 -17.2023 -1.3286
-20.7231 -20.5823 -1.4405
-26.3697 -31.3412 -2.0201
-27.3955 -39.1870 -2.3582
-23.4254 -40.8400 -2.3220
15.7111 -40.1873 -2.1281
16.7773 -33.6914 -1.8563
20.7143 -33.6823 -1.9502
10.3137 -13.8317 -0.8509
10.3084 -11.5175 -0.7623
10.3290 -9.6494 -0.6971
10.3259 -8.0479 -0.6457
10.3272 -6.6589 -0.6060
11.9177 -6.2554 -0.6638
11.9492 -4.9680 -0.6382
11.9119 -3.7458 -0.6159
11.9093 -2.6047 -0.6012
11.9067 -1.5080 -0.5919
12.0195 -0.4405 -0.5932
11.9018 0.6279 -0.5878
12.0267 1.7200 -0.5992
12.0208 2.8324 -0.6091
12.0148 3.9916 -0.6244
9.1751 6.1271 -0.5441
30.2943 24.4041 -1.9186
25.7868 24.8785 -1.7672
23.1261 26.6900 -1.7417
18.8594 26.1600 -1.5905
16.9825 28.6361 -1.6420
-20.8090 16.7096 -1.3162
-20.8024 13.8448 -1.2324
-20.7966 11.3039 -1.1674
-20.7913 9.0002 -1.1174
-20.7863 6.8695 -1.0797
-20.7817 4.8624 -1.0526
-20.7773 2.9385 -1.0349
-21.4098 1.0961 -1.0573
-17.6817 -2.2675 -0.8792
-23.7815 -5.2402 -1.2010
-20.7554 -6.5624 -1.0736
-20.7506 -8.6652 -1.1091
-20.7454 -10.9303 -1.1565
-20.7396 -13.4186 -1.2183
-20.7332 -16.2115 -1.2980
-20.7258 -19.4227 -1.4009
-25.7222 -28.8296 -1.9055
-22.2778 -29.9746 -1.8419
-24.0244 -39.2019 -2.2676
15.4985 -43.3108 -2.2687
15.5750 -33.6941 -1.8307
19.3915 -33.6854 -1.9170
16.2353 -23.1463 -1.3944
10.3044 -12.2084 -0.7879
12.0980 -11.9783 -0.8397
10.3265 -8.5416 -0.6610
11.9934 -8.2357 -0.7175
11.9187 -6.7043 -0.6744
11.9156 -5.3648 -0.6445
11.9143 -4.1303 -0.6219
11.9101 -2.9696 -0.6054
11.9076 -1.8607 -0.5944
12.0203 -0.7905 -0.5941
11.9026 0.2819 -0.5872
11.9002 1.3508 -0.5907
12.0227 2.4668 -0.6053
12.0168 3.6084 -0.6188
33.9380 21.2656 -1.9753
30.8668 23.4211 -1.9110
28.5180 25.9581 -1.9019
23.0919 25.1373 -1.6835
19.3206 25.2225 -1.5670
17.0472 26.9314 -1.5720
-20.8114 17.7292 -1.3484
-20.8045 14.7351 -1.2574
-20.7984 12.0998 -1.1867
-20.7929 9.7270 -1.1322
-20.7879 7.5462 -1.0907
-20.7832 5.5037 -1.0604
-20.7787 3.5567 -1.0397
-20.7744 1.6693 -1.0279
-27.6130 -5.2491 -1.3863
-20.7569 -5.9058 -1.0644
-20.7522 -7.9666 -1.0963
-20.7471 -10.1731 -1.1396
-20.7416 -12.5811 -1.1964
-20.7354 -15.2643 -1.2699
-20.7283 -18.3245 -1.3645
-25.1122 -31.8159 -1.9990
-25.5773 -39.1382 -2.3059
-23.4198 -43.9613 -2.4566
-17.7890 -42.0577 -2.2522
15.7031 -36.7354 -1.9704
18.1121 -33.6883 -1.8864
16.2452 -24.6528 -1.4561
10.3117 -12.9624 -0.8169
12.0278 -12.6209 -0.8599
12.0949 -10.6105 -0.7935
12.0908 -8.8298 -0.7384
12.0872 -7.2688 -0.6956
11.9166 -5.7869 -0.6534
12.0290 -4.5653 -0.6346
11.9110 -3.3399 -0.6101
11.9084 -2.2167 -0.5974
11.9073 -1.1310 -0.5899
11.9044 -0.0637 -0.5871
11.9010 1.0020 -0.5890
12.0247 2.1055 -0.6021
12.0187 3.2318 -0.6138
36.7047 13.4826 -1.9285
15.2994 8.9790 -0.8749
31.7336 22.6580 -1.9231
29.9563 25.7174 -1.9472
24.1476 24.8014 -1.7072
23.0411 28.3362 -1.8012
17.7867 26.3732 -1.5689
16.6592 30.2063 -1.7013
-17.6808 27.6983 -1.6207
-24.6878 22.3002 -1.6408
-20.8066 15.6629 -1.2844
-20.8003 12.9234 -1.2077
-20.7946 10.4740 -1.1483
-20.7895 8.2373 -1.1029
-20.7847 6.1550 -1.0691
-20.7801 4.1811 -1.0454
-20.7758 2.2781 -1.0308
-32.8469 -5.2611 -1.6406
-20.7584 -5.2600 -1.0562
-20.7538 -7.2834 -1.0848
-20.7488 -9.4370 -1.1242
-20.7434 -11.7725 -1.1763
-20.7375 -14.3568 -1.2440
-20.7307 -17.2810 -1.3311
-20.7229 -20.6749 -1.4437
-27.2642 -39.1865 -2.3544
-23.4250 -41.0530 -2.3312
15.7104 -39.9207 -2.1159
16.8719 -33.6912 -1.8584
20.8187 -33.6821 -1.9529
12.0874 -7.3805 -0.6111
11.9168 -5.8868 -0.5735
12.0292 -4.6585 -0.5566
11.9112 -3.4269 -0.5348
11.9086 -2.3000 -0.5233
11.9061 -1.2120 -0.5164
12.0188 -0.1455 -0.5186
11.9011 0.9211 -0.5150
12.0251 2.0220 -0.5261
12.0191 3.1451 -0.5360
37.0021 13.3092 -1.6967
15.4442 8.9243 -0.7696
31.2640 22.0055 -1.6496
29.0113 24.5681 -1.6403
24.2400 24.5624 -1.4890
23.1514 28.0825 -1.5703
18.4367 26.9429 -1.4086
16.7281 29.8528 -1.4765
-19.6289 31.2125 -1.5909
-24.6885 22.6054 -1.4443
-20.8071 15.8845 -1.1295
-20.8007 13.1191 -1.0611
-20.7951 10.6508 -1.0081
-20.7899 8.4003 -0.9675
-20.7850 6.3080 -0.9372
-20.7805 4.3274 -0.9158
-20.7761 2.4201 -0.9025
-48.9109 1.3022 -2.1111
-48.8907 -7.4928 -2.1341
-21.2536 -5.2330 -0.9444
-20.7541 -7.1265 -0.9468
-20.7492 -9.2687 -0.9805
-20.7438 -11.5883 -1.0252
-20.7379 -14.1510 -1.0832
-20.7313 -17.0456 -1.1580
-20.7235 -20.3982 -1.2546
-25.0521 -29.5048 -1.6700
-21.8768 -30.9951 -1.6369
-23.4262 -40.4188 -2.0157
15.7208 -40.7519 -1.8846
16.5887 -33.6918 -1.6203
20.5062 -33.6828 -1.7014
10.3140 -13.9629 -0.7490
10.3448 -11.6634 -0.6727
12.0267 -11.3372 -0.7131
12.0923 -9.5125 -0.6638
12.0886 -7.8718 -0.6224
11.9178 -6.3241 -0.5821
11.9163 -5.0172 -0.5579
11.9120 -3.8048 -0.5395
11.9094 -2.6610 -0.5265
11.9069 -1.5625 -0.5181
12.0196 -0.4947 -0.5190
11.9019 0.5743 -0.5141
12.0270 1.6649 -0.5239
12.0211 2.7754 -0.5323
12.0151 3.9317 -0.5455
9.1943 6.0803 -0.4756
30.7363 24.5329 -1.6968
9.1104 8.7107 -0.5438
23.4436 26.8117 -1.5367
18.9718 26.0678 -1.3911
17.0320 28.4272 -1.4298
12.7439 45.7347 -2.0485
-20.8094 16.8644 -1.1557
-20.8027 13.9805 -1.0814
-20.7968 11.4256 -1.0238
-20.7915 9.1116 -0.9794
-20.7866 6.9736 -0.9460
-20.7819 4.9612 -0.9219
-20.7775 3.0339 -0.9060
-20.7732 1.1572 -0.8977
-17.6560 -2.1834 -0.7676
-24.3067 -5.2415 -1.0729
-20.7557 -6.4599 -0.9379
-20.7508 -8.5558 -0.9684
-20.7456 -10.8115 -1.0094
-20.7399 -13.2868 -1.0627
-20.7335 -16.0619 -1.1316
-20.7262 -19.2488 -1.2204
-25.6668 -28.5083 -1.6551
-22.3099 -29.7373 -1.6040
-24.2521 -39.1767 -1.9880
15.4768 -33.8814 -1.6072
19.1905 -33.6858 -1.6727
10.3160 -14.8490 -0.7801
10.3595 -12.3864 -0.6967
10.3333 -10.3236 -0.6302
12.0937 -10.0953 -0.6797
12.0897 -8.3822 -0.6347
11.9725 -6.8057 -0.5942
11.9158 -5.4295 -0.5650
12.0282 -4.2305 -0.5501
11.9102 -3.0267 -0.5302
11.9077 -1.9157 -0.5204
12.0205 -0.8448 -0.5199
11.9027 0.2283 -0.5137
11.9003 1.2966 -0.5165
12.0230 2.4105 -0.5291
12.0170 3.5496 -0.5406
30.8461 23.1873 -1.6650
28.6833 25.8735 -1.6667
23.7893 25.6638 -1.5099
21.8527 28.2638 -1.5415
17.5504 27.4523 -1.4058
-24.6854 21.2219 -1.4046
-20.8048 14.8764 -1.1035
-20.7987 12.2256 -1.0409
-20.7932 9.8414 -0.9926
-20.7881 7.6523 -0.9558
-20.7834 5.6040 -0.9288
-20.7789 3.6530 -0.9103
-20.7746 1.7634 -0.8996
-28.3152 -5.2507 -1.2425
-20.7572 -5.8051 -0.9300
-20.7524 -7.8597 -0.9575
-20.7474 -10.0577 -0.9948
-20.7418 -12.4540 -1.0439
-20.7357 -15.1212 -1.1073
-20.7287 -18.1594 -1.1890
-20.7205 -21.7123 -1.2950
-17.6593 -22.1676 -1.2229
-25.5781 -38.7578 -2.0036
-23.4207 -43.4901 -2.1313
15.7042 -37.2000 -1.7422
17.9174 -33.6887 -1.6464
10.3182 -15.8128 -0.8147
12.1267 -15.3856 -0.8453
10.3445 -10.9530 -0.6500
10.3279 -9.1429 -0.5951
12.0909 -8.9136 -0.6481
12.0873 -7.3432 -0.6102
11.9167 -5.8534 -0.5728
12.0292 -4.6274 -0.5561
11.9111 -3.3979 -0.5344
11.9085 -2.2722 -0.5231
11.9065 -1.1850 -0.5163
11.9055 -0.1173 -0.5137
11.9011 0.9480 -0.5151
12.0249 2.0498 -0.5263
12.0189 3.1739 -0.5364
36.7434 13.3096 -1.6862
15.3735 8.9297 -0.7671
31.3666 22.1835 -1.6576
28.8823 24.5707 -1.6361
24.2155 24.6482 -1.4909
23.0972 28.1455 -1.5709
18.3520 26.9491 -1.4068
16.6539 29.8778 -1.4759
-19.7022 31.1733 -1.5911
-24.6883 22.5032 -1.4413
-20.8069 15.8104 -1.1275
-20.8006 13.0536 -1.0596
-20.7949 10.5917 -1.0069
-20.7897 8.3459 -0.9666
-20.7849 6.2569 -0.9366
-20.7804 4.2786 -0.9154
-20.7760 2.3727 -0.9022
-48.8303 1.1901 -2.1075
-33.8353 -5.2634 -1.4774
-21.0476 -5.2326 -0.9358
-20.7540 -7.1787 -0.9475
-20.7491 -9.3247 -0.9815
-20.7437 -11.6496 -1.0265
-20.7378 -14.2194 -1.0849
-20.7311 -17.1237 -1.1602
-20.7233 -20.4900 -1.2574
-25.0194 -29.6010 -1.6723
-21.9222 -31.2081 -1.6455
-23.4258 -40.6286 -2.0235
15.7117 -40.4571 -1.8726
16.6829 -33.6916 -1.6221
20.6100 -33.6825 -1.7038
10.3342 -13.9246 -0.7482
12.0298 -13.5018 -0.7802
12.0265 -11.2860 -0.7116
12.0922 -9.4684 -0.6627
12.0885 -7.8331 -0.6215
11.9177 -6.2897 -0.5814
11.9167 -4.9859 -0.5574
11.9120 -3.7753 -0.5392
11.9093 -2.6328 -0.5263
11.9068 -1.5352 -0.5180
12.0196 -0.4676 -0.5190
11.9019 0.6011 -0.5142
12.0269 1.6925 -0.5240
12.0209 2.8039 -0.5326
12.0150 3.9616 -0.5459
9.1846 6.1036 -0.4758
29.4266 23.5961 -1.6274
9.1238 8.7628 -0.5458
23.3913 26.8735 -1.5372
19.1668 26.4606 -1.4097
16.5685 27.7953 -1.3962
-20.8092 16.7868 -1.1536
-20.8026 13.9125 -1.0798
-20.7967 11.3646 -1.0225
-20.7914 9.0558 -0.9785
-20.7865 6.9215 -0.9453
-20.7818 4.9118 -0.9214
-20.7774 2.9862 -0.9057
-20.7731 1.1103 -0.8976
-17.6637 -2.2247 -0.7682
-24.0412 -5.2408 -1.0617
-20.7555 -6.5111 -0.9386
-20.7507 -8.6104 -0.9693
-20.7455 -10.8709 -1.0105
-20.7398 -13.3526 -1.0643
-20.7333 -16.1365 -1.1336
-20.7260 -19.3356 -1.2230
-25.6018 -28.5650 -1.6551
-22.2520 -29.7995 -1.6047
-24.1372 -39.1877 -1.9858
15.4831 -33.6943 -1.5999
19.2909 -33.6856 -1.6749
10.3159 -14.7776 -0.7776
12.1036 -14.4057 -0.8118
12.0981 -12.0324 -0.7362
12.0936 -10.0492 -0.6784
10.3232 -7.1230 -0.5411
11.9725 -6.7700 -0.5934
11.9157 -5.3971 -0.5644
11.9149 -4.1605 -0.5445
11.9102 -2.9982 -0.5299
11.9076 -1.8882 -0.5202
12.0204 -0.8176 -0.5198
11.9027 0.2551 -0.5137
11.9002 1.3237 -0.5166
12.0229 2.4387 -0.5293
12.0169 3.5790 -0.5410
30.9722 23.3914 -1.6746
28.5195 25.8423 -1.6605
23.5519 25.5227 -1.4984
19.3840 25.1878 -1.3713
17.5864 27.6454 -1.4137
-24.6851 21.1254 -1.4019
-20.8046 14.8056 -1.1017
-20.7985 12.1627 -1.0396
-20.7931 9.7842 -0.9915
-20.7880 7.5992 -0.9550
-20.7833 5.5538 -0.9282
-20.7788 3.6048 -0.9099
-20.7745 1.7164 -0.8994
-27.9600 -5.2499 -1.2275
-20.7570 -5.8554 -0.9305
-20.7523 -7.9131 -0.9583
-20.7472 -10.1153 -0.9959
-20.7417 -12.5174 -1.0453
-20.7355 -15.1926 -1.1091
-20.7285 -18.2418 -1.1914
-20.7203 -21.8102 -1.2980
-24.2985 -30.6429 -1.6874
-25.5777 -38.9472 -2.0104
-23.4202 -43.7247 -2.1402
-17.9127 -42.0860 -1.9735
15.7036 -36.9665 -1.7329
18.0147 -33.6885 -1.6483
10.3181 -15.7350 -0.8119
10.3368 -13.0543 -0.7184
12.0279 -12.6781 -0.7540
12.0950 -10.6588 -0.6956
10.3242 -7.5754 -0.5525
12.0873 -7.3059 -0.6094
11.9167 -5.8201 -0.5722
12.0291 -4.5963 -0.5556
11.9110 -3.3689 -0.5341
11.9084 -2.2445 -0.5229
11.9069 -1.1580 -0.5162
11.9049 -0.0905 -0.5137
11.9010 0.9750 -0.5152
12.0248 2.0776 -0.5265
12.0188 3.2028 -0.5367
36.6815 13.3805 -1.6847
15.3270 8.9488 -0.7658
31.4704 22.3634 -1.6658
30.0124 25.6485 -1.7034
24.9118 25.4713 -1.5372
23.0430 28.2087 -1.5716
18.2598 26.9438 -1.4043
16.5797 29.9028 -1.4753
-17.6430 27.7766 -1.4198
-24.6881 22.4015 -1.4384
-20.8068 15.7365 -1.1256
-20.8004 12.9885 -1.0581
-20.7948 10.5328 -1.0057
-20.7896 8.2915 -0.9657
-20.7848 6.2059 -0.9359
-20.7803 4.2298 -0.9150
-20.7759 2.3254 -0.9020
-48.8301 1.0803 -2.1074
-33.3340 -5.2623 -1.4561
-20.8451 -5.2321 -0.9273
-20.7539 -7.2310 -0.9483
-20.7489 -9.3807 -0.9825
-20.7436 -11.7109 -1.0278
-20.7376 -14.2880 -1.0866
-20.7309 -17.2023 -1.1623
-20.7231 -20.5823 -1.2602
-24.9820 -29.6919 -1.6742
-27.3955 -39.1870 -2.0630
-23.4254 -40.8400 -2.0314
15.7111 -40.1873 -1.8618
16.7773 -33.6914 -1.6239
20.7143 -33.6823 -1.7061
10.3387 -13.8653 -0.7462
12.0297 -13.4407 -0.7783
10.3290 -9.6494 -0.6099
10.3259 -8.0479 -0.5649
10.3272 -6.6589 -0.5302
11.9177 -6.2554 -0.5807
11.9492 -4.9680 -0.5584
11.9119 -3.7458 -0.5388
11.9093 -2.6047 -0.5260
11.9067 -1.5080 -0.5178
12.0195 -0.4405 -0.5190
11.9018 0.6279 -0.5142
12.0267 1.7200 -0.5242
12.0208 2.8324 -0.5329
12.0148 3.9915 -0.5463
9.1749 6.1269 -0.4760
30.4613 24.5386 -1.6877
25.1860 24.2989 -1.5100
23.3988 27.0048 -1.5417
19.1064 26.5026 -1.4097
17.1024 28.8382 -1.4466
-20.8090 16.7096 -1.1515
-20.8024 13.8448 -1.0782
-20.7966 11.3039 -1.0213
-20.7913 9.0002 -0.9775
-20.7863 6.8695 -0.9446
-20.7817 4.8624 -0.9209
-20.7773 2.9385 -0.9054
-21.3841 1.0947 -0.9239
-17.6813 -2.2674 -0.7691
-23.7815 -5.2402 -1.0507
-20.7554 -6.5624 -0.9392
-20.7506 -8.6652 -0.9702
-20.7454 -10.9303 -1.0117
-20.7396 -13.4186 -1.0658
-20.7332 -16.2115 -1.1356
-20.7258 -19.4228 -1.2256
-25.5368 -28.6218 -1.6550
-22.1940 -29.8617 -1.6053
-24.0244 -39.2019 -1.9838
15.4985 -43.3108 -1.9848
15.5750 -33.6941 -1.6016
19.3915 -33.6854 -1.6770
10.3157 -14.7069 -0.7751
10.3044 -12.2084 -0.6893
12.0980 -11.9783 -0.7346
10.3265 -8.5416 -0.5782
12.0895 -8.3017 -0.6328
11.9187 -6.7043 -0.5900
11.9156 -5.3648 -0.5638
11.9143 -4.1303 -0.5441
11.9101 -2.9696 -0.5296
11.9076 -1.8607 -0.5200
12.0203 -0.7905 -0.5198
11.9026 0.2819 -0.5137
11.9002 1.3508 -0.5167
12.0227 2.4668 -0.5295
12.0167 3.6084 -0.5414
45.2698 18.1369 -2.1042
31.0998 23.5978 -1.6844
28.3566 25.8112 -1.6544
23.5784 25.6669 -1.5038
19.4291 25.3641 -1.3786
17.4911 27.6327 -1.4110
-20.8114 17.7292 -1.1796
-20.8045 14.7351 -1.1000
-20.7984 12.0998 -1.0382
-20.7929 9.7270 -0.9905
-20.7879 7.5462 -0.9542
-20.7832 5.5037 -0.9276
-20.7787 3.5567 -0.9096
-20.7744 1.6693 -0.8992
-27.6130 -5.2491 -1.2127
-20.7569 -5.9058 -0.9311
-20.7522 -7.9666 -0.9591
-20.7471 -10.1731 -0.9970
-20.7416 -12.5811 -1.0467
-20.7354 -15.2643 -1.1109
-20.7283 -18.3245 -1.1937
-29.4986 -31.1905 -1.8523
-25.4521 -32.2465 -1.7725
-25.5773 -39.1382 -2.0173
-23.4198 -43.9613 -2.1492
-17.7886 -42.0567 -1.9703
15.7031 -36.7354 -1.7238
18.1121 -33.6883 -1.6503
10.3179 -15.6578 -0.8091
10.3602 -13.0235 -0.7180
12.0278 -12.6209 -0.7522
12.0949 -10.6105 -0.6942
12.0908 -8.8298 -0.6460
12.0872 -7.2688 -0.6086
11.9166 -5.7869 -0.5716
12.0290 -4.5653 -0.5551
11.9110 -3.3399 -0.5337
11.9084 -2.2167 -0.5226
11.9073 -1.1310 -0.5161
11.9044 -0.0637 -0.5136
11.9010 1.0020 -0.5153
12.0247 2.1055 -0.5267
12.0186 3.2318 -0.5370
36.6196 13.4514 -1.6832
15.2990 8.9788 -0.7654
31.5751 22.5448 -1.6740
29.8828 25.6543 -1.6993
24.8147 25.4866 -1.5348
22.9888 28.2718 -1.5722
18.0007 26.6906 -1.3890
16.6194 30.1341 -1.4848
-17.6804 27.6976 -1.4178
-24.6878 22.3002 -1.4354
-20.8066 15.6629 -1.1237
-20.8003 12.9234 -1.0566
-20.7946 10.4740 -1.0046
-20.7895 8.2373 -0.9648
-20.7847 6.1550 -0.9353
-20.7801 4.1811 -0.9146
-20.7758 2.2781 -0.9018
-32.8469 -5.2611 -1.4353
-20.7584 -5.2600 -0.9240
-20.7538 -7.2834 -0.9490
-20.7488 -9.4370 -0.9835
-20.7434 -11.7725 -1.0291
-20.7375 -14.3568 -1.0883
-20.7307 -17.2810 -1.1645
-20.7229 -20.6749 -1.2630
-25.0339 -29.8899 -1.6822
-27.2641 -39.1865 -2.0597
-23.4250 -41.0530 -2.0394
15.7104 -39.9207 -1.8510
16.8719 -33.6912 -1.6258
20.8187 -33.6821 -1.7085
10.3667 -6.3299 -0.4491
11.9168 -5.8868 -0.4915
12.0292 -4.6585 -0.4770
11.9112 -3.4269 -0.4583
11.9086 -2.3000 -0.4485
11.9061 -1.2120 -0.4425
12.0188 -0.1455 -0.4444
11.9011 0.9211 -0.4414
12.0251 2.0220 -0.4509
12.0191 3.1451 -0.4594
