ply
format ascii 1.0
element vertex 2137
property float32 x
property float32 y
property float32 z
end_header
-12.0324 9.8775 2.0251
-12.7808 8.7065 2.0117
-13.3854 7.4637 1.9937
-13.8608 6.1784 1.9741
-14.2119 4.8673 1.9542
-14.4067 3.5348 1.9297
-14.4712 2.2057 1.9042
-14.4148 0.8935 1.8788
-14.2364 -0.3908 1.8527
-11.2535 -1.3204 1.4740
-6.0839 -1.2723 0.8085
-6.0863 -1.8528 0.8276
-6.0889 -2.4663 0.8546
-6.0917 -3.1266 0.8907
-6.0947 -3.8513 0.9379
-6.0982 -4.6639 0.9987
-9.3067 -8.5364 1.6428
-8.4036 -9.2185 1.6227
-7.4646 -9.8225 1.6049
-6.4949 -10.3484 1.5894
-5.4995 -10.7962 1.5761
-0.9110 -2.2691 0.3181
-0.7020 -2.3317 0.3168
-0.4896 -2.3777 0.3158
-0.2750 -2.4071 0.3152
-0.0590 -2.4199 0.3149
0.1572 -2.4161 0.3150
0.3727 -2.3957 0.3154
0.5864 -2.3586 0.3162
0.7973 -2.3050 0.3173
1.0044 -2.2349 0.3187
5.9550 -10.6033 1.5820
6.9395 -10.1201 1.5963
2.2925 -1.8676 0.4032
2.2958 -1.5513 0.3778
2.2987 -1.2704 0.3581
2.3117 -1.0200 0.3445
2.4225 -0.8195 0.3487
2.5173 -0.6076 0.3531
2.5950 -0.3855 0.3577
2.6542 -0.1545 0.3625
2.6938 0.0841 0.3675
2.7126 0.3286 0.3726
2.7095 0.5773 0.3778
2.6838 0.8280 0.3830
2.6346 1.0787 0.3882
2.5614 1.3269 0.3933
2.4641 1.5701 0.3984
2.3427 1.8057 0.4033
2.3341 2.1572 0.4334
9.2936 10.2722 1.8889
9.0835 12.0467 2.0573
7.9807 12.8226 2.0594
6.8111 13.4965 2.0614
5.5844 14.0624 2.0631
4.3094 14.5117 2.0642
2.9926 14.8148 2.0609
1.6545 14.9853 2.0557
0.2690 13.0476 1.7795
-0.8990 13.0580 1.7848
-2.3570 14.7847 2.0414
-3.6643 14.5052 2.0400
-4.9390 14.1063 2.0380
-6.1701 13.5917 2.0353
-7.3467 12.9665 2.0321
-8.4589 12.2367 2.0284
-9.4972 11.4093 2.0242
-10.5032 10.5422 2.0292
-11.3566 9.5248 2.0211
-12.0836 8.4194 2.0082
-12.6728 7.2425 1.9903
-13.1453 6.0263 1.9718
-13.4874 4.7785 1.9511
-13.6906 3.5125 1.9272
-13.7746 2.2483 1.9031
-13.7517 0.9980 1.8801
-13.6126 -0.2302 1.8564
-13.3345 -1.4223 1.8285
-6.2135 -1.2312 0.8637
-6.0860 -1.7828 0.8647
-6.0886 -2.3918 0.8920
-6.0913 -3.0458 0.9286
-6.0944 -3.7618 0.9766
-6.0977 -4.5625 1.0384
-9.0322 -8.1111 1.6553
-8.1743 -8.7793 1.6357
-7.2796 -9.3723 1.6182
-6.3536 -9.8902 1.6029
-1.0934 -2.0916 0.3218
-0.8978 -2.1697 0.3202
-0.6977 -2.2319 0.3189
-0.4942 -2.2783 0.3179
-0.2884 -2.3086 0.3172
-0.0812 -2.3229 0.3169
0.1265 -2.3211 0.3170
0.3335 -2.3032 0.3173
0.5389 -2.2693 0.3180
0.7416 -2.2194 0.3191
0.9407 -2.1536 0.3205
5.6118 -10.2434 1.5926
6.5588 -9.7844 1.6062
7.4785 -9.2501 1.6220
8.1924 -8.4616 1.6059
2.2914 -1.9783 0.4128
2.2948 -1.6482 0.3853
2.2978 -1.3572 0.3639
2.3005 -1.0947 0.3474
2.3887 -0.8850 0.3473
2.4888 -0.6766 0.3517
2.5721 -0.4577 0.3562
2.6374 -0.2294 0.3610
2.6833 0.0070 0.3659
2.7089 0.2498 0.3709
2.7129 0.4973 0.3761
2.6945 0.7476 0.3813
2.6529 0.9986 0.3865
2.5875 1.2479 0.3917
2.4979 1.4930 0.3968
2.3842 1.7313 0.4018
2.3328 2.0354 0.4222
2.3370 2.4391 0.4606
9.4361 11.7965 2.0598
8.3415 12.5850 2.0588
7.1923 13.2922 2.0608
5.9829 13.8932 2.0626
4.7229 14.3829 2.0642
3.4173 14.7322 2.0621
2.0844 14.9450 2.0576
0.6426 13.0442 1.7808
-0.5241 13.0547 1.7815
-1.9335 14.8501 2.0420
-3.2486 14.6079 2.0405
-4.5350 14.2468 2.0387
-5.7813 13.7688 2.0362
-6.9765 13.1784 2.0332
-8.1104 12.4814 2.0297
-9.1733 11.6844 2.0256
-10.1956 10.8365 2.0288
-11.1007 9.8647 2.0250
-11.8637 8.7808 2.0126
-12.4968 7.6242 1.9961
-13.0068 6.4192 1.9778
-13.3967 5.1823 1.9586
-13.6386 3.9183 1.9349
-13.7604 2.6522 1.9108
-13.7676 1.3961 1.8869
-13.6805 0.1601 1.8655
-13.4342 -1.0452 1.8374
-7.2961 -1.2299 1.0089
-6.0852 -1.5950 0.8578
-6.0877 -2.1926 0.8823
-6.0904 -2.8305 0.9158
-6.0934 -3.5245 0.9598
-6.0966 -4.2952 1.0169
-6.1003 -5.1707 1.0904
-8.4534 -8.5735 1.6417
-7.5697 -9.1906 1.6235
-6.6532 -9.7325 1.6075
-5.7089 -10.1993 1.5938
-0.9609 -2.1464 0.3207
-0.7622 -2.2137 0.3192
-0.5597 -2.2652 0.3182
-0.3545 -2.3006 0.3174
-0.1476 -2.3201 0.3170
0.0600 -2.3234 0.3169
0.2673 -2.3107 0.3172
0.4733 -2.2819 0.3178
0.6770 -2.2371 0.3187
0.8774 -2.1764 0.3200
1.0735 -2.0999 0.3216
6.2583 -9.9396 1.6016
7.1873 -9.4294 1.6167
8.0856 -8.8441 1.6340
2.2902 -2.0946 0.4232
2.2938 -1.7490 0.3933
2.2969 -1.4468 0.3701
2.2997 -1.1762 0.3522
2.3533 -0.9493 0.3460
2.4585 -0.7445 0.3503
2.5473 -0.5289 0.3547
2.6185 -0.3034 0.3594
2.6708 -0.0695 0.3643
2.7030 0.1714 0.3693
2.7140 0.4177 0.3744
2.7029 0.6673 0.3796
2.6688 0.9183 0.3848
2.6111 1.1684 0.3901
2.5293 1.4151 0.3952
2.4232 1.6559 0.4002
2.3316 1.9197 0.4118
2.3356 2.3020 0.4472
8.9653 10.5731 1.8902
8.6952 12.3370 2.0581
7.5674 13.0770 2.0602
6.3761 13.7126 2.0620
5.1313 14.2385 2.0637
3.8392 14.6360 2.0632
2.5131 14.8913 2.0592
1.0171 13.0408 1.7836
-0.1503 13.0513 1.7797
-1.5085 14.9049 2.0428
-2.8300 14.6982 2.0410
-4.1269 14.3754 2.0393
-5.3872 13.9344 2.0371
-6.5999 13.3794 2.0342
-7.7545 12.7158 2.0309
-8.8412 11.9501 2.0269
-9.8658 11.1062 2.0256
-10.8248 10.1885 2.0270
-11.6310 9.1350 2.0166
-12.3088 8.0016 2.0018
-12.8562 6.8091 1.9837
-13.2864 5.5817 1.9651
-13.5743 4.3238 1.9426
-13.7343 3.0571 1.9186
-13.7763 1.7964 1.8944
-13.7205 0.5535 1.8724
-13.5239 -0.6637 1.8463
-9.3897 -1.3077 1.2927
-6.0844 -1.4101 0.8516
-6.0869 -1.9975 0.8735
-6.0896 -2.6210 0.9040
-6.0924 -3.2951 0.9444
-6.0955 -4.0385 0.9970
-6.0991 -4.8768 1.0648
-8.7285 -8.3601 1.6480
-7.8565 -9.0011 1.6291
-6.9500 -9.5672 1.6124
-6.0140 -10.0580 1.5979
-1.0236 -2.1215 0.3212
-0.8263 -2.1939 0.3197
-0.6249 -2.2504 0.3185
-0.4204 -2.2910 0.3176
-0.2140 -2.3156 0.3171
-0.0065 -2.3241 0.3169
0.2010 -2.3165 0.3171
0.4076 -2.2929 0.3175
0.6121 -2.2532 0.3184
0.8137 -2.1976 0.3195
1.0113 -2.1261 0.3210
5.9551 -10.0870 1.5972
6.8929 -9.6010 1.6116
7.8016 -9.0397 1.6282
2.2889 -2.2170 0.4345
2.2927 -1.8543 0.4021
2.2959 -1.5397 0.3769
2.2988 -1.2600 0.3574
2.3164 -1.0124 0.3447
2.4265 -0.8113 0.3489
2.5207 -0.5991 0.3533
2.5977 -0.3766 0.3579
2.6562 -0.1452 0.3627
2.6949 0.0936 0.3677
2.7129 0.3384 0.3728
2.7090 0.5871 0.3780
2.6823 0.8379 0.3832
2.6322 1.0885 0.3884
2.5581 1.3366 0.3936
2.4598 1.5796 0.3986
2.3374 1.8148 0.4035
2.3343 2.1726 0.4348
9.2582 10.3057 1.8890
9.0415 12.0791 2.0574
7.9359 12.8511 2.0595
6.7639 13.5208 2.0615
5.5351 14.0823 2.0632
4.2582 14.5261 2.0641
2.9223 14.7334 2.0481
1.6017 14.9893 2.0555
0.2232 13.0480 1.7794
-0.9451 13.0584 1.7853
-2.4088 14.7760 2.0414
-3.7151 14.4918 2.0399
-4.9883 14.0882 2.0379
-6.2175 13.5692 2.0352
-7.3917 12.9398 2.0320
-8.5012 12.2060 2.0282
-9.5364 11.3749 2.0240
-10.5389 10.5040 2.0289
-11.3873 9.4826 2.0206
-12.1090 8.3740 2.0075
-12.6936 7.1953 1.9896
-13.1615 5.9778 1.9711
-13.4977 4.7289 1.9502
-13.6961 3.4627 1.9263
-13.7755 2.1988 1.9021
-13.7490 0.9492 1.8792
-13.6035 -0.2778 1.8553
-13.3216 -1.4683 1.8275
-6.1017 -1.2313 0.8488
-6.0861 -1.8061 0.8656
-6.0887 -2.4166 0.8932
-6.0915 -3.0726 0.9303
-6.0945 -3.7915 0.9787
-6.0979 -4.5961 1.0412
-8.9995 -8.1390 1.6545
-8.1398 -8.8040 1.6349
-7.2437 -9.3941 1.6175
-6.3167 -9.9090 1.6023
-1.0858 -2.0950 0.3217
-0.8900 -2.1724 0.3201
-0.6898 -2.2341 0.3188
-0.4862 -2.2798 0.3178
-0.2803 -2.3095 0.3172
-0.0730 -2.3231 0.3169
0.1346 -2.3207 0.3170
0.3416 -2.3022 0.3174
0.5469 -2.2677 0.3181
0.7495 -2.2171 0.3191
0.9485 -2.1507 0.3205
5.6495 -10.2267 1.5931
6.5955 -9.7648 1.6068
7.5141 -9.2276 1.6226
8.1938 -8.4037 1.6004
2.2915 -1.9644 0.4116
2.2949 -1.6361 0.3843
2.2979 -1.3464 0.3632
2.3006 -1.0849 0.3468
2.3929 -0.8770 0.3475
2.4924 -0.6682 0.3518
2.5750 -0.4489 0.3564
2.6395 -0.2202 0.3612
2.6847 0.0164 0.3661
2.7095 0.2595 0.3711
2.7126 0.5071 0.3763
2.6934 0.7575 0.3815
2.6508 1.0084 0.3867
2.5844 1.2576 0.3919
2.4939 1.5025 0.3970
2.3792 1.7405 0.4020
2.3330 2.0500 0.4235
2.3372 2.4565 0.4623
9.3941 11.8289 2.0597
8.2976 12.6147 2.0588
7.1459 13.3178 2.0609
5.9342 13.9146 2.0627
4.6725 14.3998 2.0643
3.3652 14.7431 2.0620
2.0317 14.9507 2.0573
0.5967 13.0446 1.7806
-0.5700 13.0551 1.7818
-1.9856 14.8425 2.0419
-3.2998 14.5960 2.0405
-4.5849 14.2302 2.0386
-5.8293 13.7477 2.0361
-7.0223 13.1530 2.0331
-8.1535 12.4519 2.0295
-9.2135 11.6512 2.0254
-10.2344 10.8015 2.0290
-11.1327 9.8234 2.0245
-11.8915 8.7369 2.0121
-12.5190 7.5776 1.9954
-13.0244 6.3712 1.9771
-13.4085 5.1328 1.9577
-13.6457 3.8684 1.9340
-13.7628 2.6026 1.9099
-13.7663 1.3471 1.8861
-13.6728 0.1120 1.8644
-13.4225 -1.0918 1.8363
-7.1440 -1.2301 0.9885
-6.0853 -1.6179 0.8586
-6.0878 -2.2168 0.8834
-6.0905 -2.8566 0.9173
-6.0935 -3.5532 0.9618
-6.0967 -4.3274 1.0194
-6.1005 -5.2077 1.0937
-8.4193 -8.5992 1.6410
-7.5343 -9.2133 1.6229
-6.6166 -9.7523 1.6070
-5.6713 -10.2161 1.5933
-0.9532 -2.1493 0.3206
-0.7543 -2.2161 0.3192
-0.5517 -2.2669 0.3181
-0.3464 -2.3017 0.3174
-0.1394 -2.3205 0.3170
0.0682 -2.3232 0.3169
0.2754 -2.3099 0.3172
0.4814 -2.2805 0.3178
0.6850 -2.2351 0.3188
0.8852 -2.1737 0.3200
5.3415 -10.3588 1.5892
6.2953 -9.9209 1.6021
7.2232 -9.4078 1.6173
8.1202 -8.8195 1.6347
2.2903 -2.0800 0.4219
2.2939 -1.7364 0.3923
2.2970 -1.4356 0.3693
2.2998 -1.1660 0.3516
2.3577 -0.9414 0.3462
2.4623 -0.7363 0.3504
2.5505 -0.5202 0.3549
2.6209 -0.2944 0.3596
2.6724 -0.0601 0.3645
2.7038 0.1810 0.3695
2.7140 0.4274 0.3746
2.7020 0.6772 0.3798
2.6670 0.9282 0.3851
2.6083 1.1781 0.3903
2.5255 1.4247 0.3954
2.4186 1.6652 0.4004
2.3318 1.9336 0.4130
2.3358 2.3184 0.4487
8.9288 10.6053 1.8904
8.6522 12.3680 2.0582
7.5217 13.1040 2.0602
6.3281 13.7354 2.0621
5.0814 14.2568 2.0638
3.7876 14.6485 2.0631
2.4606 14.8986 2.0590
0.9711 13.0412 1.7832
-0.1961 13.0517 1.7799
-1.5607 14.8989 2.0427
-2.8816 14.6878 2.0409
-4.1772 14.3603 2.0393
-5.4359 13.9147 2.0370
-6.6465 13.3553 2.0341
-7.7986 12.6876 2.0307
-8.8824 11.9180 2.0268
-9.9078 11.0749 2.0262
-10.8592 10.1492 2.0267
-11.6602 9.0918 2.0161
-12.3325 7.9555 2.0011
-12.8754 6.7614 1.9830
-13.3009 5.5329 1.9643
-13.5829 4.2741 1.9416
-13.7382 3.0074 1.9176
-13.7756 1.7472 1.8934
-13.7163 0.5051 1.8716
-13.5135 -0.7108 1.8452
-9.3894 -1.3413 1.2933
-6.0845 -1.4327 0.8523
-6.0870 -2.0212 0.8746
-6.0897 -2.6464 0.9054
-6.0925 -3.3228 0.9463
-6.0957 -4.0695 0.9994
-6.0992 -4.9121 1.0678
-8.6950 -8.3867 1.6472
-7.8215 -9.0248 1.6284
-6.9137 -9.5879 1.6118
-5.9767 -10.0758 1.5974
-1.0160 -2.1246 0.3211
-0.8184 -2.1964 0.3196
-0.6169 -2.2523 0.3184
-0.4124 -2.2923 0.3176
-0.2058 -2.3162 0.3171
0.0017 -2.3241 0.3169
0.2092 -2.3159 0.3171
0.4156 -2.2916 0.3176
0.6201 -2.2513 0.3184
0.8215 -2.1951 0.3196
1.0189 -2.1230 0.3211
5.9925 -10.0693 1.5978
6.9292 -9.5803 1.6122
7.8366 -9.0161 1.6289
2.2891 -2.2016 0.4331
2.2928 -1.8411 0.4010
2.2960 -1.5281 0.3761
2.2989 -1.2495 0.3568
2.3210 -1.0047 0.3449
2.4305 -0.8032 0.3490
2.5241 -0.5905 0.3535
2.6003 -0.3677 0.3581
2.6581 -0.1360 0.3629
2.6960 0.1031 0.3679
2.7131 0.3481 0.3730
2.7083 0.5970 0.3782
2.6808 0.8478 0.3834
2.6297 1.0983 0.3886
2.5547 1.3462 0.3938
2.4555 1.5890 0.3988
2.3321 1.8238 0.4037
2.3344 2.1881 0.4363
9.2228 10.3390 1.8892
8.9994 12.1113 2.0574
7.8910 12.8794 2.0596
6.7166 13.5449 2.0615
5.4858 14.1021 2.0633
4.2070 14.5403 2.0640
2.8679 14.7301 2.0462
1.5488 14.9931 2.0553
0.1773 13.0484 1.7794
-0.9913 13.0589 1.7858
-2.4606 14.7671 2.0413
-3.7658 14.4782 2.0399
-5.0376 14.0700 2.0378
-6.2647 13.5465 2.0351
-7.4366 12.9129 2.0319
-8.5434 12.1751 2.0281
-9.5755 11.3403 2.0238
-10.5746 10.4657 2.0287
-11.4178 9.4403 2.0201
-12.1341 8.3286 2.0068
-12.7142 7.1481 1.9889
-13.1775 5.9293 1.9703
-13.5077 4.6792 1.9492
-13.7014 3.4129 1.9254
-13.7762 2.1493 1.9012
-13.7461 0.9005 1.8784
-13.5943 -0.3254 1.8542
-13.3085 -1.5141 1.8264
-6.0838 -1.2499 0.8469
-6.0862 -1.8294 0.8666
-6.0888 -2.4414 0.8945
-6.0916 -3.0996 0.9320
-6.0946 -3.8214 0.9809
-6.0980 -4.6299 1.0440
-8.9665 -8.1666 1.6537
-8.1052 -8.8286 1.6342
-7.2078 -9.4157 1.6169
-6.2797 -9.9277 1.6018
-1.0782 -2.0983 0.3217
-0.8822 -2.1752 0.3201
-0.6818 -2.2362 0.3188
-0.4781 -2.2812 0.3178
-0.2721 -2.3103 0.3172
-0.0648 -2.3233 0.3169
0.1428 -2.3203 0.3170
0.3497 -2.3011 0.3174
0.5549 -2.2660 0.3181
0.7574 -2.2148 0.3192
0.9562 -2.1478 0.3206
5.6871 -10.2100 1.5936
6.6322 -9.7451 1.6073
7.5495 -9.2049 1.6233
2.2878 -2.3300 0.4453
2.2917 -1.9506 0.4104
2.2951 -1.6241 0.3834
2.2980 -1.3356 0.3624
2.3007 -1.0751 0.3463
2.3971 -0.8690 0.3477
2.4959 -0.6598 0.3520
2.5779 -0.4401 0.3566
2.6417 -0.2111 0.3614
2.6861 0.0259 0.3663
2.7100 0.2691 0.3713
2.7123 0.5169 0.3765
2.6921 0.7674 0.3817
2.6486 1.0183 0.3869
2.5813 1.2673 0.3921
2.4899 1.5120 0.3972
2.3742 1.7496 0.4021
2.3331 2.0647 0.4248
2.3374 2.4740 0.4641
9.3520 11.8613 2.0596
8.2536 12.6443 2.0589
7.0993 13.3433 2.0609
5.8855 13.9358 2.0627
4.6221 14.4165 2.0643
3.3132 14.7538 2.0619
1.9789 14.9561 2.0571
0.5508 13.0450 1.7803
-0.6160 13.0555 1.7822
-2.0377 14.8347 2.0418
-3.3510 14.5838 2.0404
-4.6346 14.2134 2.0385
-5.8772 13.7264 2.0360
-7.0680 13.1274 2.0330
-8.1966 12.4223 2.0294
-9.2536 11.6177 2.0252
-10.2724 10.7656 2.0290
-11.1645 9.7820 2.0240
-11.9192 8.6930 2.0116
-12.5411 7.5309 1.9947
-13.0419 6.3230 1.9763
-13.4201 5.0833 1.9568
-13.6525 3.8187 1.9330
-13.7650 2.5529 1.9089
-13.7648 1.2981 1.8852
-13.6648 0.0639 1.8633
-13.4106 -1.1382 1.8352
-6.9980 -1.2302 0.9688
-6.0854 -1.6409 0.8594
-6.0879 -2.2411 0.8846
-6.0907 -2.8828 0.9188
-6.0936 -3.5820 0.9638
-6.0969 -4.3598 1.0220
-6.1006 -5.2450 1.0970
-8.3852 -8.6248 1.6402
-7.4988 -9.2359 1.6222
-6.5799 -9.7720 1.6064
-5.6336 -10.2328 1.5928
-0.9455 -2.1523 0.3205
-0.7464 -2.2184 0.3191
-0.5436 -2.2686 0.3181
-0.3383 -2.3028 0.3174
-0.1313 -2.3209 0.3170
0.0763 -2.3230 0.3169
0.2836 -2.3090 0.3172
0.4894 -2.2790 0.3178
0.6929 -2.2330 0.3188
0.8930 -2.1710 0.3201
5.3794 -10.3430 1.5897
6.3323 -9.9022 1.6027
7.2591 -9.3861 1.6179
8.1548 -8.7948 1.6354
2.2905 -2.0655 0.4206
2.2940 -1.7239 0.3913
2.2971 -1.4245 0.3686
2.2999 -1.1560 0.3510
2.3621 -0.9336 0.3463
2.4661 -0.7280 0.3506
2.5536 -0.5115 0.3551
2.6233 -0.2853 0.3598
2.6741 -0.0508 0.3647
2.7047 0.1906 0.3697
2.7140 0.4372 0.3748
2.7011 0.6870 0.3800
2.6651 0.9380 0.3853
2.6055 1.1879 0.3905
2.5218 1.4343 0.3956
2.4139 1.6745 0.4006
2.3319 1.9476 0.4143
2.3359 2.3349 0.4504
8.8921 10.6373 1.8905
8.6091 12.3989 2.0582
7.4759 13.1308 2.0603
6.2801 13.7580 2.0622
5.0314 14.2750 2.0638
3.7359 14.6608 2.0630
2.4080 14.9057 2.0588
0.9251 13.0416 1.7828
-0.2420 13.0522 1.7800
-1.6130 14.8927 2.0426
-2.9331 14.6772 2.0409
-4.2275 14.3449 2.0392
-5.4845 13.8948 2.0369
-6.6929 13.3311 2.0340
-7.8426 12.6592 2.0306
-8.9235 11.8858 2.0266
-9.9484 11.0420 2.0266
-10.8935 10.1098 2.0265
-11.6891 9.0486 2.0156
-12.3560 7.9093 2.0004
-12.8943 6.7137 1.9823
-13.3152 5.4841 1.9636
-13.5913 4.2243 1.9407
-13.7418 2.9576 1.9167
-13.7747 1.6979 1.8925
-13.7118 0.4567 1.8707
-13.5028 -0.7577 1.8441
-9.3892 -1.3750 1.2939
-6.0846 -1.4553 0.8531
-6.0871 -2.0450 0.8756
-6.0898 -2.6719 0.9068
-6.0926 -3.3507 0.9481
-6.0958 -4.1006 1.0018
-6.0994 -4.9476 1.0709
-8.6613 -8.4132 1.6465
-7.7864 -9.0484 1.6277
-6.8774 -9.6085 1.6112
-5.9394 -10.0934 1.5969
-1.0083 -2.1278 0.3211
-0.8106 -2.1989 0.3196
-0.6089 -2.2542 0.3184
-0.4043 -2.2935 0.3176
-0.1977 -2.3169 0.3171
0.0098 -2.3241 0.3169
0.2173 -2.3152 0.3171
0.4237 -2.2903 0.3176
0.6281 -2.2494 0.3185
0.8294 -2.1926 0.3196
1.0266 -2.1198 0.3212
6.0298 -10.0515 1.5983
6.9654 -9.5596 1.6128
7.8717 -8.9923 1.6296
2.2893 -2.1863 0.4316
2.2930 -1.8280 0.3999
2.2962 -1.5166 0.3752
2.2990 -1.2392 0.3561
2.3256 -0.9970 0.3450
2.4345 -0.7950 0.3492
2.5274 -0.5819 0.3536
2.6030 -0.3587 0.3583
2.6599 -0.1267 0.3631
2.6971 0.1127 0.3681
2.7134 0.3578 0.3732
2.7077 0.6068 0.3784
2.6792 0.8576 0.3836
2.6272 1.1082 0.3888
2.5512 1.3559 0.3940
2.4511 1.5984 0.3990
2.3308 1.8360 0.4046
2.3346 2.2037 0.4378
9.1871 10.3722 1.8893
8.9572 12.1433 2.0575
7.8460 12.9075 2.0597
6.6692 13.5689 2.0616
5.4364 14.1218 2.0633
4.1557 14.5543 2.0639
2.8214 14.7677 2.0501
1.4960 14.9967 2.0550
0.1315 13.0488 1.7794
-1.0375 13.0593 1.7863
-2.5125 14.7581 2.0413
-3.8165 14.4643 2.0398
-5.0867 14.0515 2.0377
-6.3119 13.5237 2.0350
-7.4815 12.8858 2.0317
-8.5854 12.1441 2.0279
-9.6144 11.3056 2.0236
-10.6100 10.4273 2.0285
-11.4481 9.3979 2.0196
-12.1591 8.2830 2.0061
-12.7347 7.1008 1.9881
-13.1933 5.8808 1.9696
-13.5176 4.6295 1.9483
-13.7066 3.3630 1.9244
-13.7768 2.0998 1.9002
-13.7430 0.8519 1.8775
-13.5849 -0.3729 1.8531
-13.2953 -1.5599 1.8253
-6.0839 -1.2723 0.8475
-6.0863 -1.8528 0.8675
-6.0889 -2.4663 0.8958
-6.0917 -3.1266 0.9337
-6.0947 -3.8513 0.9831
-6.0982 -4.6639 1.0468
-8.9335 -8.1940 1.6529
-8.0706 -8.8531 1.6335
-7.1719 -9.4373 1.6162
-6.2426 -9.9463 1.6012
-1.0706 -2.1016 0.3216
-0.8744 -2.1779 0.3200
-0.6739 -2.2382 0.3187
-0.4701 -2.2827 0.3178
-0.2640 -2.3111 0.3172
-0.0567 -2.3235 0.3169
0.1509 -2.3198 0.3170
0.3578 -2.3001 0.3174
0.5629 -2.2643 0.3181
0.7653 -2.2125 0.3192
0.9639 -2.1448 0.3206
5.7247 -10.1932 1.5941
6.6688 -9.7253 1.6079
2.2925 -1.8676 0.4218
2.2958 -1.5513 0.3952
2.2987 -1.2704 0.3746
2.3013 -1.0154 0.3588
2.3206 -0.7850 0.3494
2.4102 -0.5817 0.3537
2.4832 -0.3689 0.3581
2.5384 -0.1477 0.3627
2.5747 0.0804 0.3674
2.5910 0.3139 0.3723
2.5865 0.5511 0.3772
2.5603 0.7900 0.3822
2.5118 1.0284 0.3871
2.4406 1.2643 0.3921
2.3464 1.4952 0.3969
2.3304 1.7962 0.4197
2.3341 2.1572 0.4533
8.8335 9.7637 1.8780
8.6571 11.4812 2.0510
7.6106 12.2281 2.0544
6.4947 12.8695 2.0562
5.3207 13.3984 2.0563
4.1007 13.8089 2.0547
2.8477 14.0975 2.0514
1.5746 14.2618 2.0466
0.2949 14.3048 2.0408
-0.9417 13.6784 1.9556
-2.2494 14.1099 2.0380
-3.4971 13.8437 2.0366
-4.7140 13.4635 2.0347
-5.8893 12.9732 2.0322
-7.0129 12.3773 2.0291
-8.0752 11.6817 2.0256
-9.0673 10.8928 2.0215
-10.0154 10.0526 2.0240
-10.8295 9.0827 2.0160
-11.5172 8.0247 2.0022
-12.0838 6.9058 1.9852
-12.5365 5.7471 1.9671
-12.8531 4.5538 1.9450
-13.0542 3.3492 1.9223
-13.1457 2.1457 1.8999
-13.1410 0.9536 1.8793
-13.0150 -0.2201 1.8567
-12.7575 -1.3607 1.8300
-6.2181 -1.2321 0.9042
-6.0860 -1.7828 0.9046
-6.0886 -2.3918 0.9331
-6.0913 -3.0458 0.9714
-6.0944 -3.7618 1.0215
-6.0970 -4.5619 1.0861
-8.6799 -7.7947 1.6640
-7.8618 -8.4436 1.6456
-7.0041 -9.0177 1.6286
-6.1154 -9.5194 1.6138
-1.0508 -2.0101 0.3235
-0.8630 -2.0856 0.3219
-0.6708 -2.1458 0.3207
-0.4752 -2.1906 0.3197
-0.2773 -2.2199 0.3191
-0.0780 -2.2337 0.3188
0.1216 -2.2320 0.3188
0.3207 -2.2147 0.3192
0.5181 -2.1819 0.3199
0.7130 -2.1337 0.3209
0.9043 -2.0701 0.3222
5.4026 -9.8617 1.6039
6.3124 -9.4168 1.6170
7.1949 -8.8993 1.6323
8.0453 -8.3096 1.6497
2.2914 -1.9783 0.4318
2.2948 -1.6482 0.4030
2.2978 -1.3572 0.3806
2.3005 -1.0947 0.3634
2.3030 -0.8532 0.3503
2.3833 -0.6479 0.3523
2.4617 -0.4380 0.3566
2.5227 -0.2194 0.3612
2.5652 0.0067 0.3659
2.5880 0.2387 0.3707
2.5903 0.4748 0.3756
2.5711 0.7134 0.3806
2.5298 0.9523 0.3856
2.4659 1.1892 0.3905
2.3791 1.4219 0.3953
2.3293 1.6914 0.4106
2.3328 2.0354 0.4416
2.3370 2.4391 0.4818
8.9801 11.2264 2.0506
7.9538 12.0000 2.0535
6.8589 12.6760 2.0558
5.7023 13.2417 2.0564
4.4956 13.6906 2.0554
3.2517 14.0185 2.0526
1.9837 14.2229 2.0483
0.6755 13.7119 1.9582
-0.5737 14.2895 2.0398
-1.8451 14.1707 2.0383
-3.1004 13.9415 2.0371
-4.3283 13.5974 2.0354
-5.5181 13.1419 2.0330
-6.6593 12.5793 2.0302
-7.7422 11.9149 2.0268
-8.7577 11.1551 2.0229
-9.7181 10.3290 2.0229
-10.5846 9.4060 2.0197
-11.3127 8.3730 2.0075
-11.9143 7.2689 1.9907
-12.4058 6.1227 1.9733
-12.7643 4.9377 1.9521
-13.0022 3.7354 1.9296
-13.1260 2.5299 1.9067
-13.1540 1.3338 1.8859
-13.0771 0.1531 1.8654
-12.8502 -0.9998 1.8384
-7.3024 -1.2309 1.0563
-6.0852 -1.5950 0.8973
-6.0877 -2.1926 0.9229
-6.0904 -2.8305 0.9579
-6.0934 -3.5245 1.0040
-6.0966 -4.2952 1.0637
-6.1003 -5.1707 1.1406
-8.1290 -8.2446 1.6515
-7.2824 -8.8417 1.6338
-6.4031 -9.3666 1.6183
-5.4961 -9.8189 1.6050
-0.9236 -2.0631 0.3224
-0.7327 -2.1282 0.3210
-0.5381 -2.1779 0.3200
-0.3409 -2.2122 0.3193
-0.1419 -2.2310 0.3189
0.0577 -2.2343 0.3188
0.2570 -2.2220 0.3190
0.4551 -2.1941 0.3196
0.6509 -2.1508 0.3205
0.8434 -2.0921 0.3217
1.0317 -2.0182 0.3233
6.0238 -9.5672 1.6126
6.9156 -9.0729 1.6272
7.7768 -8.5063 1.6439
2.2902 -2.0946 0.4427
2.2938 -1.7491 0.4114
2.2969 -1.4468 0.3872
2.2997 -1.1762 0.3684
2.3022 -0.9287 0.3541
2.3547 -0.7131 0.3509
2.4384 -0.5063 0.3552
2.5051 -0.2903 0.3597
2.5537 -0.0664 0.3644
2.5829 0.1638 0.3692
2.5919 0.3989 0.3740
2.5796 0.6369 0.3790
2.5455 0.8759 0.3840
2.4889 1.1137 0.3889
2.4094 1.3480 0.3938
2.3282 1.5909 0.4022
2.3316 1.9197 0.4308
2.3356 2.3020 0.4678
8.5379 10.0690 1.8830
8.2895 11.7614 2.0524
7.2168 12.4712 2.0552
6.0787 13.0730 2.0564
4.8867 13.5599 2.0559
3.6533 13.9268 2.0537
2.3916 14.1710 2.0499
1.1146 14.2899 2.0444
-0.1647 14.3036 2.0403
-1.4391 14.2194 2.0385
-2.7009 14.0275 2.0376
-3.9388 13.7199 2.0360
-5.1419 13.2997 2.0338
-6.2997 12.7708 2.0311
-7.4024 12.1384 2.0279
-8.4404 11.4084 2.0242
-9.4052 10.5877 2.0200
-10.3239 9.7170 2.0222
-11.0923 8.7119 2.0118
-11.7335 7.6276 1.9962
-12.2605 6.4936 1.9789
-12.6637 5.3201 1.9592
-12.9386 4.1213 1.9369
-13.0987 2.9156 1.9141
-13.1563 1.7156 1.8924
-13.1135 0.5290 1.8720
-12.9333 -0.6347 1.8470
-9.3896 -1.3077 1.3522
-6.0844 -1.4101 0.8909
-6.0869 -1.9975 0.9138
-6.0895 -2.6210 0.9456
-6.0924 -3.2951 0.9879
-6.0955 -4.0385 1.0429
-6.0530 -4.8399 1.1054
-8.3914 -8.0372 1.6573
-7.5573 -8.6583 1.6392
-6.6879 -9.2064 1.6231
-5.7892 -9.6820 1.6090
-0.9838 -2.0390 0.3229
-0.7943 -2.1090 0.3214
-0.6008 -2.1637 0.3203
-0.4043 -2.2029 0.3195
-0.2058 -2.2267 0.3190
-0.0062 -2.2349 0.3188
0.1933 -2.2276 0.3189
0.3919 -2.2047 0.3194
0.5885 -2.1664 0.3202
0.7822 -2.1126 0.3213
0.9720 -2.0435 0.3228
5.7326 -9.7101 1.6084
6.6331 -9.2391 1.6223
7.5046 -8.6956 1.6383
2.2889 -2.2170 0.4545
2.2927 -1.8543 0.4206
2.2959 -1.5397 0.3943
2.2988 -1.2600 0.3739
2.3014 -1.0058 0.3582
2.3244 -0.7772 0.3496
2.4134 -0.5736 0.3538
2.4857 -0.3604 0.3583
2.5402 -0.1389 0.3629
2.5757 0.0895 0.3676
2.5913 0.3232 0.3725
2.5859 0.5604 0.3774
2.5589 0.7993 0.3824
2.5095 1.0378 0.3873
2.4373 1.2735 0.3922
2.3423 1.5041 0.3970
2.3305 1.8094 0.4208
2.3343 2.1726 0.4548
8.8004 9.7961 1.8783
8.6174 11.5125 2.0512
7.5680 12.2553 2.0545
6.4495 12.8925 2.0562
5.2735 13.4168 2.0562
4.0520 13.8226 2.0546
2.7979 14.1064 2.0513
1.5244 14.2656 2.0464
0.2447 14.3054 2.0408
-0.9932 13.7228 1.9625
-2.2989 14.1016 2.0379
-3.5456 13.8308 2.0366
-4.7610 13.4463 2.0346
-5.9345 12.9517 2.0321
-7.0559 12.3518 2.0290
-8.1156 11.6524 2.0254
-9.1047 10.8599 2.0214
-10.0508 10.0175 2.0241
-10.8589 9.0426 2.0156
-11.5415 7.9816 2.0015
-12.1038 6.8610 1.9845
-12.5511 5.7006 1.9662
-12.8631 4.5066 1.9441
-13.0598 3.3018 1.9214
-13.1475 2.0986 1.8990
-13.1386 0.9071 1.8785
-13.0067 -0.2656 1.8556
-12.7455 -1.4048 1.8290
-6.1061 -1.2322 0.8885
-6.0861 -1.8061 0.9055
-6.0887 -2.4166 0.9344
-6.0915 -3.0726 0.9731
-6.0945 -3.7915 1.0238
-6.0735 -4.5778 1.0848
-8.6486 -7.8217 1.6633
-7.8287 -8.4675 1.6449
-6.9697 -9.0388 1.6280
-6.0799 -9.5376 1.6133
-1.0435 -2.0134 0.3235
-0.8555 -2.0883 0.3219
-0.6631 -2.1478 0.3206
-0.4675 -2.1920 0.3197
-0.2695 -2.2208 0.3191
-0.0702 -2.2340 0.3188
0.1295 -2.2316 0.3188
0.3285 -2.2137 0.3192
0.5258 -2.1803 0.3199
0.7206 -2.1315 0.3209
0.9117 -2.0673 0.3223
5.4389 -9.8456 1.6044
6.3476 -9.3978 1.6176
7.2290 -8.8775 1.6330
8.0780 -8.2849 1.6505
2.2915 -1.9645 0.4305
2.2949 -1.6361 0.4020
2.2979 -1.3464 0.3799
2.3006 -1.0849 0.3628
2.3031 -0.8441 0.3499
2.3867 -0.6399 0.3524
2.4644 -0.4296 0.3568
2.5247 -0.2106 0.3614
2.5665 0.0157 0.3661
2.5885 0.2479 0.3709
2.5900 0.4842 0.3758
2.5699 0.7228 0.3808
2.5277 0.9616 0.3858
2.4629 1.1985 0.3907
2.3752 1.4310 0.3955
2.3294 1.7040 0.4117
2.3330 2.0500 0.4430
2.3372 2.4565 0.4836
8.9407 11.2579 2.0506
7.9121 12.0286 2.0536
6.8145 12.7004 2.0558
5.6557 13.2616 2.0564
4.4474 13.7058 2.0553
3.2022 14.0289 2.0525
1.9335 14.2284 2.0481
0.6305 13.7826 1.9679
-0.6238 14.2869 2.0398
-1.8948 14.1639 2.0383
-3.1493 13.9301 2.0371
-4.3759 13.5816 2.0353
-5.5639 13.1218 2.0329
-6.7030 12.5550 2.0300
-7.7835 11.8868 2.0266
-8.7962 11.1234 2.0227
-9.7559 10.2965 2.0232
-10.6152 9.3667 2.0193
-11.3384 8.3305 2.0068
-11.9357 7.2245 1.9900
-12.4229 6.0769 1.9726
-12.7759 4.8906 1.9512
-13.0092 3.6880 1.9287
-13.1286 2.4826 1.9058
-13.1530 1.2871 1.8850
-13.0700 0.1071 1.8643
-12.8393 -1.0443 1.8374
-7.1500 -1.2311 1.0349
-6.0853 -1.6179 0.8981
-6.0878 -2.2168 0.9241
-6.0905 -2.8566 0.9595
-6.0935 -3.5532 1.0061
-6.0967 -4.3274 1.0664
-6.1005 -5.2077 1.1441
-8.0964 -8.2694 1.6507
-7.2484 -8.8637 1.6332
-6.3679 -9.3858 1.6178
-1.1026 -1.9862 0.3240
-0.9162 -2.0659 0.3224
-0.7251 -2.1304 0.3210
-0.5304 -2.1796 0.3200
-0.3331 -2.2133 0.3192
-0.1341 -2.2314 0.3189
0.0656 -2.2341 0.3188
0.2649 -2.2212 0.3191
0.4629 -2.1927 0.3196
0.6585 -2.1488 0.3206
0.8509 -2.0895 0.3218
1.0390 -2.0150 0.3234
6.0594 -9.5491 1.6131
6.9500 -9.0520 1.6278
7.8099 -8.4825 1.6446
2.2904 -2.0800 0.4413
2.2939 -1.7364 0.4104
2.2970 -1.4356 0.3864
2.2998 -1.1660 0.3678
2.3023 -0.9193 0.3536
2.3583 -0.7051 0.3511
2.4414 -0.4979 0.3554
2.5074 -0.2816 0.3599
2.5552 -0.0575 0.3646
2.5837 0.1730 0.3693
2.5918 0.4082 0.3742
2.5787 0.6463 0.3792
2.5437 0.8852 0.3842
2.4862 1.1230 0.3891
2.4058 1.3571 0.3940
2.3284 1.6031 0.4032
2.3318 1.9336 0.4321
2.3358 2.3184 0.4694
8.5744 10.1844 1.8989
8.2487 11.7912 2.0525
7.1732 12.4969 2.0553
6.0328 13.0943 2.0564
4.8389 13.5766 2.0558
3.6042 13.9388 2.0536
2.3416 14.1781 2.0497
1.0240 13.7516 1.9669
-0.2149 14.3025 2.0403
-1.4890 14.2141 2.0385
-2.7501 14.0176 2.0375
-3.9868 13.7055 2.0359
-5.1883 13.2809 2.0337
-6.3442 12.7479 2.0310
-7.4445 12.1115 2.0278
-8.4798 11.3778 2.0240
-9.4415 10.5536 2.0198
-10.3568 9.6796 2.0220
-11.1202 8.6708 2.0113
-11.7563 7.5838 1.9955
-12.2790 6.4482 1.9782
-12.6767 5.2733 1.9583
-12.9470 4.0740 1.9360
-13.1026 2.8683 1.9132
-13.1566 1.6687 1.8916
-13.1097 0.4827 1.8712
-12.9236 -0.6797 1.8459
-9.3894 -1.3413 1.3529
-6.0845 -1.4327 0.8916
-6.0870 -2.0212 0.9148
-6.0897 -2.6464 0.9471
-6.0925 -3.3228 0.9899
-6.0957 -4.0695 1.0454
-6.0992 -4.9121 1.1170
-8.3595 -8.0631 1.6566
-7.5237 -8.6812 1.6386
-6.6531 -9.2265 1.6225
-5.7534 -9.6992 1.6085
-0.9765 -2.0421 0.3229
-0.7868 -2.1114 0.3214
-0.5931 -2.1655 0.3203
-0.3965 -2.2041 0.3194
-0.1979 -2.2273 0.3189
0.0016 -2.2349 0.3188
0.2011 -2.2270 0.3189
0.3997 -2.2035 0.3194
0.5962 -2.1645 0.3202
0.7897 -2.1102 0.3214
0.9793 -2.0405 0.3228
5.7685 -9.6929 1.6089
6.6679 -9.2191 1.6229
7.5382 -8.6728 1.6390
2.2891 -2.2016 0.4530
2.2928 -1.8411 0.4194
2.2960 -1.5281 0.3934
2.2989 -1.2495 0.3732
2.3015 -0.9963 0.3577
2.3282 -0.7694 0.3498
2.4166 -0.5653 0.3540
2.4882 -0.3518 0.3584
2.5419 -0.1300 0.3630
2.5767 0.0986 0.3678
2.5915 0.3325 0.3727
2.5853 0.5698 0.3776
2.5573 0.8087 0.3826
2.5071 1.0471 0.3875
2.4340 1.2827 0.3924
2.3381 1.5130 0.3972
2.3306 1.8227 0.4220
2.3344 2.1881 0.4564
8.7672 9.8283 1.8786
8.5776 11.5436 2.0513
7.5252 12.2824 2.0546
6.4044 12.9152 2.0562
5.2263 13.4350 2.0562
4.0032 13.8361 2.0545
2.7481 14.1150 2.0511
1.4741 14.2693 2.0461
0.1944 14.3058 2.0407
-1.0820 14.2549 2.0391
-2.3483 14.0932 2.0379
-3.5941 13.8178 2.0365
-4.8080 13.4289 2.0345
-5.9796 12.9301 2.0320
-7.0987 12.3262 2.0289
-8.1559 11.6229 2.0253
-9.1421 10.8270 2.0212
-10.0848 9.9810 2.0238
-10.8881 9.0023 2.0151
-11.5656 7.9384 2.0009
-12.1237 6.8161 1.9838
-12.5656 5.6540 1.9654
-12.8730 4.4593 1.9432
-13.0652 3.2544 1.9205
-13.1492 2.0515 1.8982
-13.1361 0.8605 1.8777
-12.9982 -0.3112 1.8545
-12.7333 -1.4487 1.8279
-6.0838 -1.2499 0.8859
-6.0862 -1.8294 0.9065
-6.0888 -2.4414 0.9357
-6.0916 -3.0996 0.9749
-6.0946 -3.8214 1.0261
-6.0536 -4.5962 1.0841
-8.6173 -7.8485 1.6625
-7.7956 -8.4914 1.6442
-6.9353 -9.0597 1.6274
-6.0444 -9.5557 1.6128
-1.0362 -2.0166 0.3234
-0.8480 -2.0909 0.3218
-0.6555 -2.1499 0.3206
-0.4597 -2.1935 0.3197
-0.2617 -2.2216 0.3191
-0.0623 -2.2342 0.3188
0.1373 -2.2312 0.3189
0.3362 -2.2127 0.3192
0.5335 -2.1787 0.3199
0.7282 -2.1293 0.3210
0.9191 -2.0645 0.3223
5.4751 -9.8293 1.6048
6.3828 -9.3787 1.6181
7.2630 -8.8556 1.6336
2.2878 -2.3300 0.4658
2.2917 -1.9506 0.4293
2.2951 -1.6241 0.4010
2.2980 -1.3356 0.3791
2.3007 -1.0751 0.3622
2.3032 -0.8349 0.3494
2.3900 -0.6318 0.3526
2.4671 -0.4212 0.3570
2.5267 -0.2019 0.3615
2.5677 0.0247 0.3663
2.5890 0.2571 0.3711
2.5896 0.4935 0.3760
2.5687 0.7322 0.3810
2.5256 0.9710 0.3859
2.4599 1.2077 0.3909
2.3713 1.4400 0.3957
2.3295 1.7167 0.4128
2.3331 2.0647 0.4444
2.3374 2.4740 0.4855
8.9010 11.2893 2.0506
7.8702 12.0570 2.0537
6.7700 12.7246 2.0559
5.6090 13.2813 2.0564
4.3990 13.7208 2.0552
3.1527 14.0391 2.0523
1.8833 14.2336 2.0479
0.6039 14.3014 2.0417
-0.6483 13.7393 1.9619
-1.9445 14.1569 2.0382
-3.1981 13.9185 2.0370
-4.4234 13.5656 2.0352
-5.6097 13.1015 2.0328
-6.7467 12.5307 2.0299
-7.8247 11.8585 2.0265
-8.8345 11.0915 2.0226
-9.7936 10.2639 2.0235
-10.6456 9.3273 2.0188
-11.3639 8.2880 2.0062
-11.9569 7.1801 1.9894
-12.4398 6.0311 1.9719
-12.7872 4.8436 1.9504
-13.0161 3.6406 1.9278
-13.1310 2.4353 1.9049
-13.1518 1.2403 1.8842
-13.0628 0.0611 1.8632
-12.8283 -1.0888 1.8363
-7.0037 -1.2313 1.0143
-6.0854 -1.6409 0.8990
-6.0879 -2.2411 0.9253
-6.0907 -2.8828 0.9611
-6.0936 -3.5820 1.0082
-6.0969 -4.3598 1.0691
-6.1006 -5.2450 1.1476
-8.0637 -8.2941 1.6500
-7.2144 -8.8856 1.6325
-6.3327 -9.4048 1.6172
-1.0954 -1.9897 0.3240
-0.9088 -2.0688 0.3223
-0.7175 -2.1326 0.3209
-0.5227 -2.1812 0.3199
-0.3253 -2.2143 0.3192
-0.1262 -2.2318 0.3188
0.0734 -2.2339 0.3188
0.2727 -2.2203 0.3191
0.4706 -2.1913 0.3197
0.6662 -2.1468 0.3206
0.8584 -2.0869 0.3219
1.0463 -2.0117 0.3234
6.0949 -9.5309 1.6136
6.9844 -9.0310 1.6284
7.8431 -8.4586 1.6453
2.2905 -2.0655 0.4399
2.2940 -1.7239 0.4093
2.2971 -1.4245 0.3855
2.2999 -1.1560 0.3671
2.3024 -0.9100 0.3531
2.3618 -0.6972 0.3513
2.4443 -0.4896 0.3556
2.5096 -0.2730 0.3601
2.5567 -0.0486 0.3647
2.5844 0.1822 0.3695
2.5917 0.4175 0.3744
2.5778 0.6557 0.3794
2.5419 0.8946 0.3844
2.4834 1.1323 0.3893
2.4022 1.3662 0.3942
2.3285 1.6152 0.4042
2.3319 1.9476 0.4334
2.3359 2.3349 0.4711
8.6368 10.3320 1.9208
8.2078 11.8209 2.0527
7.1295 12.5225 2.0554
5.9868 13.1155 2.0564
4.7911 13.5931 2.0558
3.5549 13.9505 2.0534
2.2916 14.1850 2.0495
0.9711 13.6910 1.9577
-0.2651 14.3013 2.0402
-1.5389 14.2085 2.0385
-2.7992 14.0075 2.0375
-4.0348 13.6909 2.0358
-5.2347 13.2620 2.0337
-6.3885 12.7248 2.0309
-7.4865 12.0844 2.0276
-8.5190 11.3470 2.0239
-9.4792 10.5213 2.0200
-10.3895 9.6421 2.0218
-11.1480 8.6297 2.0109
-11.7789 7.5399 1.9948
-12.2973 6.4028 1.9775
-12.6895 5.2264 1.9575
-12.9553 4.0267 1.9351
-13.1064 2.8208 1.9122
-13.1567 1.6217 1.8908
-13.1058 0.4365 1.8704
-12.9138 -0.7247 1.8449
-9.3891 -1.3750 1.3535
-6.0846 -1.4553 0.8924
-6.0871 -2.0450 0.9159
-6.0898 -2.6719 0.9485
-6.0926 -3.3507 0.9918
-6.0958 -4.1006 1.0479
-6.0994 -4.9476 1.1202
-8.3275 -8.0890 1.6559
-7.4901 -8.7040 1.6379
-6.6183 -9.2464 1.6219
-5.7175 -9.7163 1.6080
-0.9691 -2.0451 0.3228
-0.7792 -2.1139 0.3213
-0.5854 -2.1673 0.3202
-0.3887 -2.2054 0.3194
-0.1901 -2.2279 0.3189
0.0095 -2.2349 0.3188
0.2090 -2.2263 0.3190
0.4074 -2.2023 0.3195
0.6039 -2.1627 0.3203
0.7973 -2.1077 0.3214
0.9867 -2.0374 0.3229
5.8043 -9.6757 1.6094
6.7027 -9.1990 1.6235
7.5718 -8.6498 1.6397
2.2893 -2.1863 0.4515
2.2930 -1.8280 0.4183
2.2962 -1.5166 0.3925
2.2990 -1.2392 0.3725
2.3016 -0.9867 0.3572
2.3320 -0.7616 0.3499
2.4197 -0.5571 0.3542
2.4906 -0.3432 0.3586
2.5437 -0.1212 0.3632
2.5777 0.1077 0.3680
2.5916 0.3417 0.3729
2.5846 0.5792 0.3778
2.5558 0.8181 0.3828
2.5046 1.0565 0.3877
2.4307 1.2918 0.3926
2.3338 1.5219 0.3974
2.3308 1.8360 0.4232
2.3346 2.2037 0.4579
8.7338 9.8604 1.8788
8.5376 11.5745 2.0515
7.4824 12.3093 2.0547
6.3591 12.9378 2.0563
5.1789 13.4531 2.0562
3.9544 13.8494 2.0544
2.6983 14.1234 2.0509
1.4238 14.2728 2.0459
0.1442 14.3061 2.0407
-1.1321 14.2505 2.0390
-2.3978 14.0845 2.0379
-3.6425 13.8047 2.0364
-4.8549 13.4113 2.0344
-6.0246 12.9083 2.0318
-7.1416 12.3003 2.0287
-8.1960 11.5933 2.0251
-9.1793 10.7939 2.0210
-10.1187 9.9445 2.0236
-10.9172 8.9620 2.0147
-11.5897 7.8951 2.0002
-12.1433 6.7711 1.9831
-12.5798 5.6074 1.9645
-12.8828 4.4121 1.9423
-13.0704 3.2069 1.9196
-13.1507 2.0044 1.8974
-13.1335 0.8141 1.8769
-12.9896 -0.3566 1.8535
-12.7210 -1.4925 1.8269
-6.0839 -1.2723 0.8865
-6.0863 -1.8527 0.9075
-6.0889 -2.4663 0.9370
-6.0917 -3.1266 0.9767
-6.0947 -3.8513 1.0283
-6.0369 -4.6170 1.0840
-8.5859 -7.8752 1.6618
-7.7624 -8.5151 1.6435
-6.9008 -9.0806 1.6268
-6.0088 -9.5738 1.6122
-1.0289 -2.0198 0.3233
-0.8405 -2.0935 0.3218
-0.6479 -2.1519 0.3205
-0.4520 -2.1949 0.3196
-0.2539 -2.2224 0.3190
-0.0545 -2.2343 0.3188
0.1451 -2.2308 0.3189
0.3440 -2.2117 0.3193
0.5412 -2.1770 0.3200
0.7357 -2.1270 0.3210
0.9265 -2.0616 0.3224
5.5112 -9.8130 1.6053
6.4180 -9.3596 1.6187
2.2925 -1.8676 0.4404
2.2958 -1.5513 0.4126
2.2987 -1.2704 0.3911
2.3013 -1.0154 0.3746
2.3038 -0.7793 0.3622
2.3116 -0.5580 0.3541
2.3804 -0.3536 0.3584
2.4320 -0.1415 0.3628
2.4655 0.0770 0.3674
2.4797 0.3004 0.3720
2.4740 0.5271 0.3767
2.4476 0.7552 0.3815
2.3998 0.9826 0.3862
2.3304 1.2072 0.3909
2.3271 1.4828 0.4109
2.3304 1.7962 0.4382
2.3341 2.1572 0.4733
8.4214 9.3082 1.8694
8.2566 10.9501 2.0424
7.2581 11.6617 2.0456
6.1936 12.2728 2.0473
5.0740 12.7771 2.0474
3.9108 13.1694 2.0459
2.7160 13.4457 2.0429
1.5018 13.6023 2.0380
0.2819 13.6739 2.0368
-0.9388 13.6360 2.0356
-2.1510 13.4930 2.0348
-3.3443 13.2388 2.0335
-4.5082 12.8758 2.0317
-5.6325 12.4075 2.0293
-6.7075 11.8384 2.0264
-7.7242 11.1739 2.0230
-8.6739 10.4202 2.0191
-9.5702 9.6057 2.0194
-10.3484 8.6792 2.0114
-11.0005 7.6647 1.9967
-11.5461 6.5986 1.9805
-11.9663 5.4857 1.9604
-12.2747 4.3489 1.9394
-12.4751 3.2006 1.9180
-12.5798 2.0533 1.8983
-12.5812 0.9130 1.8786
-12.4667 -0.2108 1.8569
-12.2274 -1.3042 1.8313
-6.2226 -1.2330 0.9447
-6.0860 -1.7828 0.9445
-6.0886 -2.3918 0.9742
-6.0913 -3.0458 1.0142
-6.0944 -3.7618 1.0666
-6.0386 -4.5183 1.1232
-8.3535 -7.5016 1.6721
-7.5716 -8.1320 1.6547
-6.7483 -8.6883 1.6384
-5.8940 -9.1748 1.6240
-1.0113 -1.9347 0.3251
-0.8307 -2.0076 0.3236
-0.6458 -2.0659 0.3223
-0.4576 -2.1093 0.3214
-0.2670 -2.1377 0.3208
-0.0751 -2.1510 0.3205
0.1171 -2.1494 0.3206
0.3088 -2.1326 0.3209
0.4989 -2.1009 0.3216
0.6864 -2.0542 0.3226
0.8704 -1.9927 0.3238
1.0499 -1.9165 0.3254
6.0834 -9.0753 1.6271
6.9316 -8.5736 1.6419
7.7465 -8.0010 1.6585
2.2914 -1.9783 0.4508
2.2948 -1.6482 0.4208
2.2978 -1.3572 0.3974
2.3005 -1.0947 0.3794
2.3030 -0.8532 0.3658
2.3053 -0.6267 0.3558
2.3602 -0.4200 0.3570
2.4174 -0.2102 0.3614
2.4568 0.0064 0.3659
2.4773 0.2284 0.3705
2.4781 0.4543 0.3752
2.4583 0.6821 0.3799
2.4174 0.9100 0.3847
2.3550 1.1357 0.3894
2.3262 1.3903 0.4036
2.3293 1.6914 0.4287
2.3328 2.0354 0.4611
2.3370 2.4391 0.5031
8.5624 10.7043 2.0414
7.5855 11.4444 2.0448
6.5410 12.0885 2.0469
5.4379 12.6276 2.0475
4.2873 13.0562 2.0466
3.1013 13.3700 2.0440
1.8920 13.5654 2.0398
0.6731 13.6623 2.0371
-0.5484 13.6596 2.0359
-1.7644 13.5510 2.0351
-2.9649 13.3321 2.0340
-4.1393 13.0036 2.0323
-5.2774 12.5686 2.0301
-6.3692 12.0313 2.0274
-7.4055 11.3967 2.0241
-8.3775 10.6708 2.0204
-9.2808 9.8643 2.0170
-10.1135 8.9874 2.0149
-10.8040 7.9965 2.0018
-11.3828 6.9446 1.9858
-11.8441 5.8454 1.9670
-12.1880 4.7148 1.9462
-12.4216 3.5686 1.9247
-12.5577 2.4204 1.9046
-12.5918 1.2768 1.8849
-12.5237 0.1466 1.8652
-12.3139 -0.9581 1.8394
-7.3086 -1.2320 1.1038
-6.0852 -1.5950 0.9369
-6.0877 -2.1926 0.9636
-6.0904 -2.8305 1.0002
-6.0934 -3.5245 1.0483
-6.0966 -4.2952 1.1106
-6.1003 -5.1707 1.1909
-7.8263 -7.9376 1.6601
-7.0156 -8.5178 1.6434
-6.1707 -9.0266 1.6284
-1.0681 -1.9082 0.3257
-0.8891 -1.9859 0.3240
-0.7054 -2.0489 0.3227
-0.5181 -2.0970 0.3217
-0.3282 -2.1302 0.3210
-0.1367 -2.1484 0.3206
0.0556 -2.1515 0.3205
0.2475 -2.1396 0.3208
0.4382 -2.1127 0.3213
0.6267 -2.0708 0.3222
0.8120 -2.0140 0.3234
0.9930 -1.9424 0.3249
5.8059 -9.2211 1.6228
6.6632 -8.7419 1.6370
7.4902 -8.1928 1.6532
2.2902 -2.0946 0.4622
2.2938 -1.7491 0.4296
2.2969 -1.4468 0.4043
2.2997 -1.1762 0.3847
2.3022 -0.9287 0.3697
2.3046 -0.6979 0.3586
2.3383 -0.4855 0.3557
2.4010 -0.2782 0.3600
2.4462 -0.0636 0.3644
2.4729 0.1568 0.3690
2.4800 0.3817 0.3737
2.4669 0.6090 0.3784
2.4329 0.8371 0.3832
2.3774 1.0638 0.3879
2.3252 1.3009 0.3968
2.3283 1.5910 0.4200
2.3316 1.9197 0.4498
2.3356 2.3020 0.4884
8.4933 10.0164 1.9558
7.9058 11.2170 2.0437
6.8824 11.8933 2.0464
5.7968 12.4668 2.0475
4.6602 12.9313 2.0470
3.4842 13.2822 2.0450
2.2810 13.5160 2.0413
1.0638 13.6391 2.0374
-0.1574 13.6729 2.0364
-1.3762 13.5975 2.0354
-2.5828 13.4143 2.0344
-3.7667 13.1206 2.0329
-4.9175 12.7193 2.0309
-6.0252 12.2142 2.0283
-7.0803 11.6101 2.0252
-8.0738 10.9128 2.0216
-8.9975 10.1287 2.0176
-9.8665 9.2865 2.0179
-10.5970 8.3228 2.0067
-11.2087 7.2864 1.9910
-11.7107 6.2023 1.9735
-12.0899 5.0791 1.9529
-12.3587 3.9366 1.9317
-12.5248 2.7879 1.9109
-12.5921 1.6420 1.8912
-12.5570 0.5065 1.8716
-12.3912 -0.6081 1.8476
-9.3896 -1.3077 1.4119
-6.0844 -1.4101 0.9301
-6.0869 -1.9975 0.9541
-6.0895 -2.6210 0.9873
-6.0924 -3.2951 1.0315
-6.0955 -4.0385 1.0889
-5.9394 -4.7491 1.1325
-8.0770 -7.7361 1.6656
-7.2796 -8.3401 1.6486
-6.4445 -8.8713 1.6330
-5.5802 -9.3325 1.6194
-0.9470 -1.9626 0.3245
-0.7647 -2.0303 0.3231
-0.5784 -2.0832 0.3220
-0.3893 -2.1212 0.3212
-0.1981 -2.1442 0.3207
-0.0060 -2.1522 0.3205
0.1861 -2.1451 0.3207
0.3773 -2.1229 0.3211
0.5666 -2.0858 0.3219
0.7530 -2.0338 0.3230
0.9355 -1.9670 0.3244
5.5257 -9.3597 1.6187
6.3918 -8.9030 1.6322
7.2290 -8.3762 1.6478
2.2890 -2.2170 0.4746
2.2927 -1.8543 0.4391
2.2959 -1.5397 0.4117
2.2988 -1.2600 0.3904
2.3014 -1.0058 0.3740
2.3039 -0.7703 0.3618
2.3147 -0.5501 0.3543
2.3828 -0.3455 0.3586
2.4337 -0.1331 0.3630
2.4664 0.0857 0.3675
2.4799 0.3093 0.3722
2.4734 0.5361 0.3769
2.4461 0.7641 0.3816
2.3975 0.9915 0.3864
2.3273 1.2160 0.3910
2.3273 1.4944 0.4119
2.3305 1.8094 0.4394
2.3343 2.1726 0.4749
8.3902 9.3395 1.8697
8.2188 10.9799 2.0425
7.2174 11.6876 2.0457
6.1506 12.2947 2.0473
5.0290 12.7947 2.0474
3.8644 13.1825 2.0458
2.6685 13.4541 2.0427
1.4539 13.6059 2.0378
0.2339 13.6745 2.0368
-0.9867 13.6325 2.0356
-2.1984 13.4851 2.0348
-3.3907 13.2265 2.0335
-4.5532 12.8593 2.0316
-5.6758 12.3870 2.0292
-6.7487 11.8140 2.0263
-7.7628 11.1459 2.0228
-8.7097 10.3888 2.0190
-9.6039 9.5721 2.0194
-10.3765 8.6409 2.0110
-11.0239 7.6237 1.9961
-11.5654 6.5558 1.9799
-11.9805 5.4414 1.9596
-12.2846 4.3039 1.9385
-12.4812 3.1555 1.9173
-12.5818 2.0083 1.8975
-12.5792 0.8684 1.8778
-12.4590 -0.2545 1.8559
-12.2162 -1.3465 1.8303
-6.1105 -1.2331 0.9284
-6.0861 -1.8061 0.9454
-6.0887 -2.4166 0.9756
-6.0914 -3.0726 1.0161
-6.0945 -3.7915 1.0689
-6.0175 -4.5355 1.1222
-8.3235 -7.5277 1.6713
-7.5400 -8.1553 1.6541
-6.7153 -8.7088 1.6378
-5.8599 -9.1924 1.6235
-1.0043 -1.9378 0.3250
-0.8235 -2.0102 0.3235
-0.6384 -2.0679 0.3223
-0.4501 -2.1107 0.3214
-0.2595 -2.1385 0.3208
-0.0676 -2.1513 0.3205
0.1247 -2.1490 0.3206
0.3163 -2.1317 0.3209
0.5063 -2.0993 0.3216
0.6937 -2.0521 0.3226
0.8776 -1.9900 0.3239
1.0569 -1.9132 0.3255
6.1173 -9.0569 1.6276
6.9643 -8.5525 1.6426
7.7776 -7.9769 1.6592
2.2915 -1.9645 0.4495
2.2949 -1.6361 0.4197
2.2979 -1.3464 0.3966
2.3006 -1.0849 0.3788
2.3031 -0.8441 0.3653
2.3054 -0.6181 0.3555
2.3628 -0.4119 0.3572
2.4193 -0.2018 0.3616
2.4580 0.0150 0.3661
2.4777 0.2373 0.3707
2.4777 0.4632 0.3754
2.4571 0.6911 0.3801
2.4154 0.9189 0.3849
2.3521 1.1445 0.3896
2.3263 1.4015 0.4045
2.3294 1.7040 0.4298
2.3330 2.0500 0.4625
2.3372 2.4565 0.5050
8.5252 10.7348 2.0415
7.5457 11.4716 2.0449
6.4987 12.1117 2.0470
5.3934 12.6466 2.0475
4.2413 13.0708 2.0465
3.0541 13.3800 2.0439
1.8442 13.5707 2.0396
0.6251 13.6644 2.0371
-0.5963 13.6571 2.0358
-1.8119 13.5445 2.0351
-3.0116 13.3213 2.0340
-4.1848 12.9885 2.0323
-5.3212 12.5494 2.0300
-6.4110 12.0081 2.0272
-7.4450 11.3698 2.0240
-8.4143 10.6405 2.0203
-9.3179 9.8343 2.0176
-10.1428 8.9499 2.0145
-10.8287 7.9560 2.0012
-11.4034 6.9023 1.9851
-11.8597 5.8014 1.9662
-12.1992 4.6699 1.9454
-12.4286 3.5234 1.9239
-12.5610 2.3753 1.9038
-12.5911 1.2321 1.8841
-12.5173 0.1025 1.8642
-12.3038 -1.0008 1.8384
-7.1560 -1.2321 1.0814
-6.0853 -1.6179 0.9377
-6.0878 -2.2168 0.9649
-6.0905 -2.8566 1.0019
-6.0935 -3.5532 1.0505
-6.0967 -4.3274 1.1134
-6.1005 -5.2077 1.1945
-7.7953 -7.9618 1.6594
-6.9829 -8.5391 1.6428
-6.1368 -9.0452 1.6278
-1.0612 -1.9115 0.3256
-0.8819 -1.9886 0.3240
-0.6981 -2.0510 0.3227
-0.5107 -2.0986 0.3217
-0.3207 -2.1312 0.3210
-0.1291 -2.1488 0.3206
0.0631 -2.1514 0.3205
0.2550 -2.1389 0.3208
0.4457 -2.1113 0.3214
0.6340 -2.0688 0.3222
0.8192 -2.0115 0.3234
1.0000 -1.9393 0.3250
5.8401 -9.2036 1.6233
6.6963 -8.7216 1.6376
7.5220 -8.1698 1.6539
2.2904 -2.0800 0.4608
2.2939 -1.7364 0.4285
2.2970 -1.4356 0.4034
2.2998 -1.1661 0.3840
2.3023 -0.9193 0.3692
2.3047 -0.6891 0.3582
2.3411 -0.4775 0.3558
2.4031 -0.2699 0.3601
2.4476 -0.0551 0.3646
2.4735 0.1656 0.3692
2.4799 0.3906 0.3739
2.4660 0.6180 0.3786
2.4311 0.8461 0.3834
2.3747 1.0726 0.3881
2.3254 1.3118 0.3976
2.3284 1.6031 0.4210
2.3318 1.9336 0.4511
2.3358 2.3184 0.4901
8.5410 10.1447 1.9750
7.8669 11.2455 2.0439
6.8408 11.9178 2.0465
5.7530 12.4871 2.0475
4.6146 12.9473 2.0470
3.4374 13.2937 2.0449
2.2333 13.5227 2.0412
1.0159 13.6426 2.0374
-0.2054 13.6719 2.0363
-1.4239 13.5924 2.0353
-2.6299 13.4048 2.0344
-3.8126 13.1068 2.0329
-4.9619 12.7014 2.0308
-6.0677 12.1923 2.0282
-7.1205 11.5844 2.0251
-8.1114 10.8836 2.0215
-9.0322 10.0962 2.0175
-9.8980 9.2508 2.0177
-10.6229 8.2831 2.0061
-11.2306 7.2447 1.9903
-11.7276 6.1587 1.9727
-12.1025 5.0344 1.9521
-12.3670 3.8915 1.9308
-12.5295 2.7428 1.9102
-12.5926 1.5971 1.8904
-12.5536 0.4623 1.8708
-12.3822 -0.6513 1.8466
-9.3893 -1.3413 1.4125
-6.0845 -1.4327 0.9309
-6.0870 -2.0212 0.9552
-6.0897 -2.6464 0.9888
-6.0925 -3.3228 1.0335
-6.0957 -4.0695 1.0915
-5.9490 -4.7911 1.1376
-8.0465 -7.7612 1.6649
-7.2473 -8.3623 1.6480
-6.4110 -8.8907 1.6324
-5.5458 -9.3492 1.6189
-0.9399 -1.9655 0.3245
-0.7574 -2.0327 0.3230
-0.5711 -2.0850 0.3219
-0.3818 -2.1224 0.3212
-0.1906 -2.1448 0.3207
0.0016 -2.1522 0.3205
0.1937 -2.1445 0.3207
0.3848 -2.1218 0.3211
0.5740 -2.0841 0.3219
0.7603 -2.0314 0.3230
0.9426 -1.9640 0.3244
5.5603 -9.3431 1.6192
6.4252 -8.8836 1.6328
7.2612 -8.3541 1.6484
2.2891 -2.2016 0.4730
2.2928 -1.8411 0.4379
2.2961 -1.5281 0.4107
2.2989 -1.2495 0.3897
2.3015 -0.9963 0.3735
2.3039 -0.7614 0.3614
2.3176 -0.5422 0.3545
2.3851 -0.3372 0.3587
2.4353 -0.1246 0.3632
2.4673 0.0944 0.3677
2.4800 0.3182 0.3724
2.4727 0.5450 0.3771
2.4446 0.7731 0.3818
2.3951 1.0004 0.3866
2.3245 1.2249 0.3913
2.3274 1.5061 0.4128
2.3306 1.8227 0.4406
2.3344 2.1881 0.4765
8.3589 9.3706 1.8701
8.1807 11.0095 2.0427
7.1767 11.7134 2.0458
6.1074 12.3164 2.0474
4.9840 12.8121 2.0473
3.8179 13.1954 2.0457
2.6211 13.4624 2.0425
1.4059 13.6094 2.0376
0.1858 13.6749 2.0367
-1.0345 13.6288 2.0355
-2.2457 13.4770 2.0348
-3.4371 13.2141 2.0334
-4.5982 12.8427 2.0315
-5.7189 12.3663 2.0291
-6.7897 11.7895 2.0261
-7.8014 11.1177 2.0227
-8.7455 10.3573 2.0188
-9.6376 9.5384 2.0194
-10.4045 8.6026 2.0106
-11.0472 7.5825 1.9955
-11.5843 6.5128 1.9792
-11.9945 5.3970 1.9588
-12.2943 4.2588 1.9377
-12.4872 3.1104 1.9165
-12.5837 1.9633 1.8967
-12.5770 0.8239 1.8771
-12.4512 -0.2981 1.8548
-12.2048 -1.3886 1.8293
-6.0838 -1.2499 0.9250
-6.0862 -1.8294 0.9465
-6.0888 -2.4414 0.9770
-6.0916 -3.0996 1.0179
-6.0946 -3.8213 1.0713
-5.9988 -4.5545 1.1217
-8.2935 -7.5536 1.6706
-7.5082 -8.1784 1.6534
-6.6822 -8.7291 1.6372
-5.8257 -9.2100 1.6230
-0.9973 -1.9409 0.3250
-0.8163 -2.0128 0.3235
-0.6311 -2.0698 0.3223
-0.4427 -2.1120 0.3214
-0.2520 -2.1393 0.3208
-0.0600 -2.1515 0.3205
0.1322 -2.1486 0.3206
0.3238 -2.1307 0.3210
0.5137 -2.0978 0.3216
0.7010 -2.0499 0.3226
0.8847 -1.9872 0.3240
1.0638 -1.9098 0.3256
6.1512 -9.0384 1.6282
6.9970 -8.5312 1.6432
2.2878 -2.3300 0.4863
2.2917 -1.9506 0.4482
2.2951 -1.6241 0.4187
2.2980 -1.3356 0.3958
2.3007 -1.0751 0.3782
2.3032 -0.8349 0.3648
2.3055 -0.6094 0.3551
2.3653 -0.4038 0.3574
2.4212 -0.1934 0.3617
2.4591 0.0237 0.3662
2.4781 0.2461 0.3709
2.4773 0.4721 0.3756
2.4559 0.7000 0.3803
2.4133 0.9278 0.3851
2.3492 1.1533 0.3897
2.3264 1.4127 0.4053
2.3296 1.7167 0.4310
2.3331 2.0647 0.4640
2.3374 2.4740 0.5069
8.4878 10.7652 2.0416
7.5058 11.4987 2.0450
6.4563 12.1347 2.0470
5.3490 12.6654 2.0475
4.1952 13.0851 2.0464
3.0069 13.3897 2.0437
1.7963 13.5757 2.0394
0.5771 13.6662 2.0371
-0.6443 13.6545 2.0358
-1.8595 13.5378 2.0351
-3.0583 13.3103 2.0339
-4.2302 12.9733 2.0322
-5.3650 12.5300 2.0299
-6.4528 11.9849 2.0271
-7.4844 11.3428 2.0238
-8.4510 10.6101 2.0201
-9.3546 9.8038 2.0181
-10.1720 8.9124 2.0141
-10.8532 7.9155 2.0005
-11.4239 6.8600 1.9845
-11.8752 5.7574 1.9654
-12.2103 4.6251 1.9445
-12.4354 3.4782 1.9230
-12.5641 2.3302 1.9030
-12.5902 1.1873 1.8833
-12.5106 0.0585 1.8632
-12.2935 -1.0434 1.8374
-7.0095 -1.2323 1.0599
-6.0854 -1.6409 0.9386
-6.0879 -2.2411 0.9661
-6.0906 -2.8828 1.0035
-6.0936 -3.5820 1.0527
-6.0969 -4.3598 1.1162
-6.1006 -5.2450 1.1982
-7.7641 -7.9860 1.6588
-6.9503 -8.5603 1.6421
-6.1030 -9.0636 1.6273
-1.0542 -1.9148 0.3255
-0.8748 -1.9914 0.3239
-0.6908 -2.0532 0.3226
-0.5033 -2.1002 0.3216
-0.3132 -2.1322 0.3209
-0.1216 -2.1492 0.3206
0.0707 -2.1511 0.3205
0.2626 -2.1381 0.3208
0.4531 -2.1099 0.3214
0.6414 -2.0669 0.3223
0.8264 -2.0089 0.3235
1.0070 -1.9362 0.3250
5.8743 -9.1860 1.6238
6.7294 -8.7012 1.6382
7.5537 -8.1466 1.6545
2.2905 -2.0655 0.4593
2.2940 -1.7239 0.4274
2.2971 -1.4245 0.4025
2.2999 -1.1560 0.3833
2.3024 -0.9100 0.3687
2.3048 -0.6804 0.3579
2.3438 -0.4695 0.3560
2.4052 -0.2616 0.3603
2.4490 -0.0465 0.3648
2.4741 0.1744 0.3694
2.4797 0.3995 0.3741
2.4650 0.6270 0.3788
2.4293 0.8550 0.3835
2.3721 1.0815 0.3883
2.3255 1.3226 0.3984
2.3285 1.6152 0.4220
2.3319 1.9476 0.4525
2.3359 2.3349 0.4919
8.6028 10.2913 1.9976
7.8279 11.2738 2.0440
6.7992 11.9422 2.0466
5.7092 12.5073 2.0475
4.5690 12.9630 2.0469
3.3904 13.3049 2.0448
2.1856 13.5293 2.0410
0.9680 13.6459 2.0373
-0.2534 13.6707 2.0363
-1.4716 13.5872 2.0353
-2.6769 13.3952 2.0343
-3.8585 13.0929 2.0328
-5.0063 12.6833 2.0307
-6.1101 12.1702 2.0281
-7.1607 11.5586 2.0249
-8.1490 10.8542 2.0213
-9.0669 10.0636 2.0173
-9.9293 9.2150 2.0174
-10.6487 8.2432 2.0055
-11.2524 7.2029 1.9897
-11.7445 6.1150 1.9719
-12.1150 4.9898 1.9513
-12.3752 3.8464 1.9300
-12.5339 2.6976 1.9094
-12.5930 1.5522 1.8896
-12.5500 0.4180 1.8701
-12.3731 -0.6943 1.8456
-9.3891 -1.3750 1.4132
-6.0846 -1.4553 0.9317
-6.0871 -2.0450 0.9563
-6.0898 -2.6719 0.9904
-6.0926 -3.3507 1.0355
-6.0958 -4.1006 1.0941
-5.9758 -4.8474 1.1459
-8.0159 -7.7862 1.6642
-7.2151 -8.3844 1.6473
-6.3775 -8.9101 1.6318
-5.5112 -9.3658 1.6184
-0.9328 -1.9684 0.3244
-0.7502 -2.0350 0.3230
-0.5637 -2.0867 0.3219
-0.3743 -2.1236 0.3211
-0.1831 -2.1454 0.3207
0.0091 -2.1522 0.3205
0.2012 -2.1439 0.3207
0.3923 -2.1206 0.3212
0.5814 -2.0823 0.3220
0.7675 -2.0291 0.3231
0.9497 -1.9611 0.3245
5.5948 -9.3264 1.6197
6.4587 -8.8641 1.6333
7.2934 -8.3318 1.6491
2.2893 -2.1863 0.4714
2.2930 -1.8280 0.4367
2.2962 -1.5166 0.4098
2.2990 -1.2392 0.3890
2.3016 -0.9867 0.3729
2.3040 -0.7524 0.3610
2.3206 -0.5343 0.3546
2.3874 -0.3290 0.3589
2.4370 -0.1161 0.3633
2.4682 0.1031 0.3679
2.4801 0.3270 0.3726
2.4720 0.5540 0.3773
2.4430 0.7820 0.3820
2.3928 1.0093 0.3867
2.3246 1.2355 0.3920
2.3275 1.5178 0.4138
2.3308 1.8360 0.4419
2.3346 2.2037 0.4781
8.3356 9.4109 1.8723
8.1426 11.0390 2.0429
7.1358 11.7391 2.0459
6.0642 12.3380 2.0474
4.9388 12.8293 2.0473
3.7713 13.2081 2.0456
2.5736 13.4704 2.0424
1.3581 13.6139 2.0375
0.1378 13.6751 2.0367
-1.0824 13.6250 2.0355
-2.2930 13.4688 2.0347
-3.4833 13.2015 2.0333
-4.6430 12.8259 2.0314
-5.7620 12.3455 2.0290
-6.8307 11.7649 2.0260
-7.8398 11.0895 2.0225
-8.7811 10.3257 2.0186
-9.6701 9.5036 2.0192
-10.4324 8.5640 2.0101
-11.0703 7.5413 1.9948
-11.6025 6.4695 1.9784
-12.0084 5.3527 1.9580
-12.3038 4.2138 1.9368
-12.4929 3.0652 1.9157
-12.5853 1.9182 1.8959
-12.5747 0.7794 1.8763
-12.4432 -0.3416 1.8538
-12.1933 -1.4306 1.8284
-6.0838 -1.2723 0.9256
-6.0863 -1.8527 0.9475
-6.0889 -2.4663 0.9784
-6.0917 -3.1266 1.0197
-6.0947 -3.8513 1.0737
-5.9823 -4.5753 1.1216
-8.2634 -7.5795 1.6699
-7.4764 -8.2014 1.6527
-6.6491 -8.7493 1.6366
-5.7914 -9.2275 1.6225
-0.9903 -1.9440 0.3249
-0.8091 -2.0153 0.3234
-0.6238 -2.0718 0.3222
-0.4352 -2.1134 0.3213
-0.2444 -2.1400 0.3208
-0.0525 -2.1516 0.3205
0.1398 -2.1482 0.3206
0.3313 -2.1297 0.3210
0.5211 -2.0962 0.3217
0.7083 -2.0477 0.3227
0.8919 -1.9844 0.3240
1.0707 -1.9065 0.3256
6.1850 -9.0197 1.6287
2.2926 -1.8676 0.4590
