ply
format ascii 1.0
element vertex 2177
property float32 x
property float32 y
property float32 z
end_header
0.3989 -1.5647 0.3328
0.5382 -1.5265 0.3336
0.6743 -1.4770 0.3347
0.8064 -1.4163 0.3359
0.9337 -1.3447 0.3374
1.0553 -1.2624 0.3392
2.2883 -2.2874 0.6669
2.2921 -1.9145 0.6156
2.2954 -1.5925 0.5759
2.2984 -1.3075 0.5450
2.3010 -1.0494 0.5213
2.3035 -0.8111 0.5034
2.3058 -0.5869 0.4904
2.3080 -0.3722 0.4819
2.3102 -0.1633 0.4774
2.3123 0.0434 0.4767
2.3144 0.2512 0.4799
2.3166 0.4634 0.4870
2.3189 0.6838 0.4983
2.3213 0.9167 0.5144
2.3239 1.1671 0.5360
2.3267 1.4418 0.5642
2.3299 1.7496 0.6006
2.3336 2.1028 0.6475
6.5596 7.0688 1.9878
5.9295 7.6603 1.9968
1.0462 1.6344 0.4000
0.9007 1.7298 0.4020
0.7460 1.8110 0.4037
0.5834 1.8767 0.4051
0.4147 1.9262 0.4061
0.2417 1.9589 0.4068
0.0660 1.9742 0.4072
-0.1104 1.9720 0.4071
-0.2856 1.9524 0.4067
-0.4578 1.9155 0.4059
-0.6251 1.8618 0.4048
-0.7858 1.7922 0.4034
-0.9384 1.7074 0.4016
-5.4187 8.0597 2.0019
-6.0870 7.5084 1.9924
-6.6970 6.8988 1.9819
-7.2439 6.2377 1.9705
-7.6907 5.5088 1.9500
-8.1327 4.7897 1.9455
-8.4691 4.0173 1.9322
-8.7314 3.2227 1.9185
-8.9187 2.4133 1.9045
-9.0311 1.5961 1.8904
-9.0693 0.7782 1.8763
-9.0287 -0.0337 1.8611
-8.8996 -0.8307 1.8424
-6.7307 -1.2414 1.4108
-6.0856 -1.6955 1.3022
-5.9467 -2.2455 1.3102
-6.0909 -2.9451 1.3946
-6.0938 -3.6505 1.4642
-6.0273 -4.3858 1.5365
-6.3068 -5.5134 1.7267
-5.7444 -6.0066 1.7132
-1.0254 -1.2844 0.3388
-0.9023 -1.3639 0.3371
-0.7737 -1.4328 0.3356
-0.6404 -1.4907 0.3344
-0.5034 -1.5373 0.3334
-0.3634 -1.5726 0.3327
-0.2213 -1.5963 0.3322
-0.0780 -1.6085 0.3319
0.0658 -1.6089 0.3319
0.2092 -1.5978 0.3322
0.3514 -1.5750 0.3326
0.4916 -1.5406 0.3333
0.6289 -1.4949 0.3343
0.7624 -1.4380 0.3355
0.8915 -1.3700 0.3369
1.0151 -1.2913 0.3386
5.6956 -6.0465 1.7122
2.2909 -2.0335 0.6314
2.2944 -1.6962 0.5881
2.2974 -1.4000 0.5546
2.3001 -1.1337 0.5286
2.3027 -0.8895 0.5088
2.3050 -0.6611 0.4943
2.3073 -0.4436 0.4843
2.3094 -0.2332 0.4785
2.3116 -0.0261 0.4765
2.3137 0.1809 0.4784
2.3159 0.3912 0.4841
2.3181 0.6085 0.4940
2.3205 0.8366 0.5084
2.3230 1.0805 0.5281
2.3258 1.3461 0.5539
2.3288 1.6416 0.5873
2.3323 1.9778 0.6303
2.3364 2.3706 0.6861
6.1482 7.4676 1.9938
1.0928 1.5992 0.3993
0.9508 1.6993 0.4014
0.7990 1.7853 0.4032
0.6389 1.8564 0.4047
0.4721 1.9114 0.4058
0.3003 1.9498 0.4066
0.1253 1.9710 0.4071
-0.0510 1.9747 0.4072
-0.2269 1.9609 0.4069
-0.4003 1.9298 0.4062
-0.5694 1.8817 0.4052
-0.7326 1.8174 0.4039
-0.8881 1.7375 0.4022
-1.0344 1.6433 0.4002
-5.8682 7.7008 1.9957
-6.4985 7.1101 1.9855
-7.0671 6.4656 1.9744
-7.5373 5.7496 1.9541
-8.0029 5.0433 1.9499
-8.3641 4.2802 1.9367
-8.6514 3.4923 1.9231
-8.8640 2.6870 1.9092
-9.0016 1.8716 1.8952
-9.0647 1.0532 1.8810
-9.0544 0.2385 1.8670
-8.9507 -0.5646 1.8486
-8.7769 -1.3473 1.8303
-6.0848 -1.4997 1.2918
-5.8569 -2.0126 1.2765
-6.0899 -2.7219 1.3750
-6.0928 -3.4052 1.4387
-6.0960 -4.1613 1.5214
-5.8596 -4.8194 1.5639
-5.9376 -5.8461 1.7176
-1.0655 -1.2552 0.3394
-0.9444 -1.3383 0.3376
-0.8175 -1.4108 0.3361
-0.6857 -1.4724 0.3348
-0.5499 -1.5229 0.3337
-0.4108 -1.5620 0.3329
-0.2694 -1.5896 0.3323
-0.1263 -1.6057 0.3320
0.0174 -1.6101 0.3319
0.1610 -1.6028 0.3320
0.3037 -1.5839 0.3324
0.4447 -1.5535 0.3331
0.5830 -1.5116 0.3339
0.7179 -1.4584 0.3351
0.8486 -1.3941 0.3364
0.9741 -1.3190 0.3380
5.4976 -6.1997 1.7080
2.2896 -2.1589 0.6487
2.2932 -1.8045 0.6015
2.2964 -1.4959 0.5649
2.2992 -1.2206 0.5366
2.3018 -0.9697 0.5149
2.3042 -0.7365 0.4986
2.3065 -0.5159 0.4872
2.3087 -0.3035 0.4800
2.3109 -0.0957 0.4767
2.3130 0.1110 0.4773
2.3151 0.3198 0.4817
2.3174 0.5343 0.4902
2.3197 0.7583 0.5030
2.3221 0.9963 0.5208
2.3248 1.2538 0.5445
2.3277 1.5382 0.5751
2.3311 1.8592 0.6146
2.3349 2.2308 0.6656
6.3603 7.2683 1.9908
5.7113 7.8408 1.9995
0.9998 1.6671 0.4007
0.8511 1.7580 0.4026
0.6936 1.8342 0.4042
0.5289 1.8947 0.4055
0.3586 1.9388 0.4064
0.1845 1.9658 0.4070
0.0083 1.9754 0.4072
-0.1678 1.9675 0.4070
-0.3423 1.9422 0.4065
-0.5130 1.8998 0.4056
-0.6784 1.8408 0.4044
-0.8367 1.7661 0.4028
-0.9863 1.6766 0.4009
-5.6431 7.8864 1.9989
-6.2930 7.3153 1.9890
-6.8828 6.6882 1.9782
-7.4081 6.0118 1.9666
-7.8650 5.2934 1.9542
-8.2507 4.5402 1.9412
-8.5630 3.7598 1.9277
-8.8009 2.9596 1.9139
-8.9637 2.1468 1.8999
-9.0517 1.3286 1.8858
-9.0659 0.5120 1.8717
-8.9941 -0.2962 1.8549
-8.8428 -1.0864 1.8364
-6.0840 -1.3068 1.2827
-5.9140 -1.8353 1.2764
-6.0890 -2.5046 1.3571
-6.0918 -3.1681 1.4153
-6.0949 -3.8972 1.4912
-5.8581 -4.5299 1.5264
-6.1270 -5.6800 1.7221
-5.5533 -6.1568 1.7090
-0.9859 -1.3115 0.3382
-0.8608 -1.3876 0.3366
-0.7306 -1.4529 0.3352
-0.5960 -1.5072 0.3341
-0.4579 -1.5501 0.3332
-0.3172 -1.5816 0.3325
-0.1746 -1.6016 0.3321
-0.0310 -1.6099 0.3319
0.1127 -1.6066 0.3320
0.2559 -1.5916 0.3323
0.3975 -1.5650 0.3328
0.5368 -1.5270 0.3336
0.6730 -1.4775 0.3347
0.8051 -1.4170 0.3359
0.9325 -1.3455 0.3374
1.0541 -1.2633 0.3391
2.2882 -2.2914 0.6675
2.2921 -1.9179 0.6160
2.2954 -1.5955 0.5762
2.2983 -1.3102 0.5453
2.3010 -1.0519 0.5215
2.3034 -0.8134 0.5035
2.3058 -0.5890 0.4905
2.3080 -0.3743 0.4820
2.3101 -0.1653 0.4774
2.3123 0.0413 0.4767
2.3144 0.2491 0.4798
2.3166 0.4613 0.4869
2.3189 0.6816 0.4982
2.3213 0.9143 0.5143
2.3239 1.1645 0.5358
2.3267 1.4389 0.5639
2.3299 1.7463 0.6002
2.3335 2.0990 0.6470
6.5656 7.0626 1.9877
5.9361 7.6547 1.9967
1.0476 1.6334 0.4000
0.9022 1.7290 0.4020
0.7475 1.8102 0.4037
0.5851 1.8761 0.4051
0.4164 1.9258 0.4061
0.2434 1.9586 0.4068
0.0677 1.9741 0.4072
-0.1086 1.9721 0.4071
-0.2838 1.9526 0.4067
-0.4561 1.9159 0.4060
-0.6234 1.8625 0.4048
-0.7843 1.7929 0.4034
-0.9370 1.7083 0.4016
-5.4117 8.0649 2.0020
-6.0806 7.5142 1.9925
-6.6913 6.9051 1.9820
-7.2387 6.2445 1.9706
-7.6863 5.5160 1.9501
-8.1289 4.7972 1.9456
-8.4661 4.0251 1.9323
-8.7291 3.2308 1.9186
-8.9172 2.4214 1.9046
-9.0304 1.6042 1.8905
-9.0693 0.7863 1.8764
-9.0296 -0.0257 1.8612
-8.9013 -0.8228 1.8426
-6.7645 -1.2414 1.4176
-6.0856 -1.6897 1.3019
-5.9380 -2.2362 1.3079
-6.0908 -2.9384 1.3940
-6.0938 -3.6431 1.4635
-6.0350 -4.3832 1.5375
-6.3122 -5.5082 1.7269
-5.7502 -6.0019 1.7133
-1.0266 -1.2835 0.3388
-0.9035 -1.3632 0.3371
-0.7750 -1.4322 0.3357
-0.6418 -1.4902 0.3344
-0.5048 -1.5369 0.3334
-0.3648 -1.5723 0.3327
-0.2228 -1.5962 0.3322
-0.0794 -1.6084 0.3319
0.0644 -1.6090 0.3319
0.2078 -1.5979 0.3321
0.3500 -1.5752 0.3326
0.4902 -1.5410 0.3333
0.6275 -1.4954 0.3343
0.7611 -1.4386 0.3355
0.8902 -1.3707 0.3369
1.0139 -1.2921 0.3385
5.6898 -6.0511 1.7121
2.2908 -2.0371 0.6319
2.2943 -1.6993 0.5885
2.2884 -2.2793 0.6865
2.2922 -1.9076 0.6339
2.2955 -1.5865 0.5931
2.2984 -1.3021 0.5615
2.3011 -1.0445 0.5371
2.3035 -0.8065 0.5188
2.3058 -0.5825 0.5055
2.3080 -0.3680 0.4968
2.3102 -0.1591 0.4922
2.3123 0.0475 0.4916
2.3145 0.2553 0.4949
2.3167 0.4677 0.5024
2.3189 0.6883 0.5142
2.3214 0.9215 0.5309
2.3240 1.1723 0.5533
2.3268 1.4476 0.5825
2.3300 1.7561 0.6202
2.3337 2.1104 0.6688
6.3386 6.8551 1.9845
5.7233 7.4211 1.9920
1.0090 1.5824 0.3989
0.8680 1.6742 0.4008
0.7181 1.7521 0.4025
0.5607 1.8151 0.4038
0.3976 1.8625 0.4048
0.2302 1.8936 0.4055
0.0604 1.9081 0.4058
-0.1101 1.9056 0.4057
-0.2794 1.8864 0.4053
-0.4457 1.8505 0.4046
-0.6074 1.7985 0.4035
-0.7627 1.7311 0.4021
-0.9102 1.6491 0.4004
-1.0484 1.5535 0.3984
-5.9028 7.2548 1.9880
-6.4931 6.6650 1.9778
-7.0224 6.0253 1.9668
-7.4554 5.3202 1.9468
-7.8833 4.6239 1.9426
-8.2095 3.8763 1.9297
-8.4640 3.1069 1.9165
-8.6460 2.3230 1.9029
-8.7555 1.5313 1.8893
-8.7931 0.7387 1.8756
-8.7539 -0.0483 1.8607
-8.6300 -0.8210 1.8427
-6.6694 -1.2424 1.4420
-6.0541 -1.6984 1.3365
-5.9257 -2.2496 1.3473
-6.0909 -2.9585 1.4393
-6.0939 -3.6653 1.5115
-6.0371 -4.4094 1.5890
-6.1205 -5.3698 1.7307
-5.5743 -5.8495 1.7175
-0.9943 -1.2499 0.3395
-0.8746 -1.3273 0.3379
-0.7496 -1.3942 0.3365
-0.6200 -1.4504 0.3353
-0.4868 -1.4956 0.3343
-0.3507 -1.5298 0.3336
-0.2125 -1.5527 0.3331
-0.0731 -1.5643 0.3329
0.0668 -1.5645 0.3329
0.2062 -1.5534 0.3331
0.3445 -1.5310 0.3335
0.4807 -1.4973 0.3343
0.6141 -1.4525 0.3352
0.7438 -1.3967 0.3364
0.8690 -1.3303 0.3377
0.9889 -1.2534 0.3394
5.5494 -5.8703 1.7170
2.2910 -2.0263 0.6501
2.2944 -1.6900 0.6057
2.2975 -1.3944 0.5712
2.3002 -1.1287 0.5446
2.3027 -0.8848 0.5243
2.3051 -0.6566 0.5094
2.3073 -0.4394 0.4992
2.3095 -0.2290 0.4933
2.3116 -0.0220 0.4914
2.3138 0.1850 0.4934
2.3159 0.3955 0.4994
2.3182 0.6129 0.5097
2.3205 0.8413 0.5247
2.3231 1.0855 0.5450
2.3258 1.3517 0.5718
2.3289 1.6479 0.6064
2.3324 1.9850 0.6510
2.3365 2.3791 0.7088
5.9377 7.2381 1.9899
1.0542 1.5486 0.3982
0.9165 1.6448 0.4002
0.7694 1.7275 0.4020
0.6144 1.7956 0.4034
0.4530 1.8484 0.4045
0.2869 1.8850 0.4053
0.1177 1.9051 0.4057
-0.0527 1.9083 0.4058
-0.2226 1.8947 0.4055
-0.3901 1.8644 0.4049
-0.5536 1.8178 0.4039
-0.7112 1.7555 0.4026
-0.8615 1.6782 0.4010
-1.0030 1.5871 0.3991
-5.6912 7.4410 1.9912
-6.3010 6.8694 1.9814
-6.8513 6.2458 1.9706
-7.3068 5.5532 1.9507
-7.7576 4.8695 1.9469
-8.1077 4.1308 1.9341
-8.3864 3.3679 1.9210
-8.5928 2.5881 1.9075
-8.7267 1.7983 1.8939
-8.7884 1.0053 1.8802
-8.7790 0.2156 1.8666
-8.6791 -0.5629 1.8487
-8.5118 -1.3222 1.8309
-6.0848 -1.5112 1.3327
-5.8355 -2.0168 1.3124
-6.0900 -2.7349 1.4190
-6.0929 -3.4195 1.4851
-6.7928 -4.6547 1.7503
-6.2964 -5.1975 1.7354
-5.7620 -5.6934 1.7218
-1.0333 -1.2216 0.3401
-0.9156 -1.3024 0.3384
-0.7922 -1.3728 0.3369
-0.6641 -1.4326 0.3356
-0.5320 -1.4816 0.3346
-0.3968 -1.5195 0.3338
-0.2592 -1.5462 0.3332
-0.1201 -1.5617 0.3329
0.0197 -1.5657 0.3328
0.1594 -1.5584 0.3330
0.2981 -1.5398 0.3334
0.4351 -1.5099 0.3340
0.5695 -1.4688 0.3348
0.7006 -1.4167 0.3359
0.8274 -1.3539 0.3373
0.9492 -1.2805 0.3388
1.0651 -1.1968 0.3405
2.2897 -2.1513 0.6678
2.2933 -1.7980 0.6194
2.2965 -1.4901 0.5819
2.2993 -1.2154 0.5528
2.3019 -0.9649 0.5305
2.3043 -0.7320 0.5139
2.3066 -0.5116 0.5022
2.3088 -0.2993 0.4948
2.3109 -0.0916 0.4916
2.3130 0.1151 0.4923
2.3152 0.3241 0.4969
2.3174 0.5387 0.5057
2.3197 0.7629 0.5191
2.3222 1.0012 0.5375
2.3249 1.2592 0.5620
2.3278 1.5442 0.5938
2.3311 1.8661 0.6347
2.3350 2.2388 0.6876
6.1449 7.0475 1.9875
1.0982 1.5134 0.3975
0.9640 1.6139 0.3996
0.8199 1.7012 0.4014
0.6674 1.7744 0.4029
0.5080 1.8324 0.4042
0.3433 1.8745 0.4051
0.1749 1.9002 0.4056
0.0047 1.9091 0.4058
-0.1656 1.9012 0.4056
-0.3341 1.8764 0.4051
-0.4991 1.8353 0.4043
-0.6589 1.7781 0.4031
-0.8118 1.7058 0.4016
-0.9565 1.6193 0.3997
-5.4734 7.6206 1.9943
-6.1021 7.0680 1.9848
-6.6729 6.4611 1.9743
-7.1814 5.8067 1.9630
-7.5923 5.0902 1.9429
-7.9977 4.3825 1.9385
-8.3006 3.6270 1.9254
-8.5315 2.8521 1.9121
-8.6897 2.0649 1.8985
-8.7757 1.2722 1.8848
-8.7900 0.4807 1.8712
-8.7208 -0.3027 1.8548
-8.5753 -1.0691 1.8369
-6.0840 -1.3181 1.3232
-5.8866 -1.8383 1.3108
-6.0891 -2.5173 1.4005
-6.0919 -3.1819 1.4609
-6.0950 -3.9125 1.5395
-5.8712 -4.5567 1.5797
-5.9459 -5.5318 1.7262
-1.0715 -1.1922 0.3407
-0.9558 -1.2763 0.3389
-0.8343 -1.3503 0.3374
-0.7077 -1.4137 0.3360
-0.5769 -1.4664 0.3349
-0.4426 -1.5080 0.3341
-0.3057 -1.5385 0.3334
-0.1670 -1.5577 0.3330
-0.0274 -1.5656 0.3328
0.1124 -1.5621 0.3329
0.2516 -1.5473 0.3332
0.3892 -1.5212 0.3338
0.5246 -1.4838 0.3345
0.6569 -1.4355 0.3355
0.7852 -1.3762 0.3368
0.9088 -1.3063 0.3382
1.0268 -1.2261 0.3399
2.2883 -2.2834 0.6871
2.2921 -1.9111 0.6343
2.2955 -1.5895 0.5935
2.2984 -1.3048 0.5618
2.3010 -1.0469 0.5373
2.3035 -0.8088 0.5189
2.3058 -0.5847 0.5056
2.3080 -0.3701 0.4969
2.3102 -0.1612 0.4922
2.3123 0.0455 0.4916
2.3145 0.2533 0.4949
2.3166 0.4656 0.5023
2.3189 0.6861 0.5140
2.3213 0.9191 0.5307
2.3239 1.1697 0.5530
2.3268 1.4447 0.5821
2.3300 1.7528 0.6197
2.3336 2.1066 0.6682
6.3444 6.8491 1.9844
5.7297 7.4157 1.9919
1.0103 1.5814 0.3989
0.8694 1.6733 0.4008
0.7196 1.7514 0.4025
0.5623 1.8146 0.4038
0.3992 1.8621 0.4048
0.2319 1.8934 0.4055
0.0621 1.9080 0.4058
-0.1084 1.9057 0.4057
-0.2777 1.8866 0.4053
-0.4441 1.8509 0.4046
-0.6058 1.7991 0.4035
-0.7612 1.7318 0.4021
-0.9088 1.6499 0.4004
-1.0471 1.5545 0.3984
-5.8967 7.2604 1.9881
-6.4875 6.6711 1.9779
-7.0175 6.0319 1.9669
-7.4511 5.3272 1.9469
-7.8797 4.6312 1.9427
-8.2066 3.8839 1.9299
-8.4618 3.1147 1.9166
-8.6446 2.3308 1.9031
-8.7548 1.5392 1.8894
-8.7931 0.7466 1.8758
-8.7548 -0.0405 1.8609
-8.6316 -0.8134 1.8428
-6.7025 -1.2424 1.4489
-6.0631 -1.6951 1.3382
-5.9174 -2.2405 1.3449
-6.0909 -2.9518 1.4387
-6.0939 -3.6579 1.5107
-6.0451 -4.4070 1.5901
-6.1258 -5.3647 1.7308
-5.5799 -5.8450 1.7176
-0.9955 -1.2491 0.3395
-0.8758 -1.3265 0.3379
-0.7509 -1.3936 0.3365
-0.6213 -1.4498 0.3353
-0.4881 -1.4952 0.3343
-0.3520 -1.5295 0.3336
-0.2139 -1.5525 0.3331
-0.0744 -1.5642 0.3329
0.0654 -1.5646 0.3329
0.2048 -1.5536 0.3331
0.3431 -1.5312 0.3335
0.4793 -1.4977 0.3342
0.6127 -1.4530 0.3352
0.7425 -1.3974 0.3363
0.8678 -1.3310 0.3377
0.9877 -1.2542 0.3393
5.5437 -5.8748 1.7169
2.2909 -2.0299 0.6506
2.2944 -1.6931 0.6061
2.2974 -1.3972 0.5716
2.3002 -1.1312 0.5448
2.3027 -0.8871 0.5245
2.3050 -0.6588 0.5096
2.3073 -0.4415 0.4993
2.3095 -0.2311 0.4933
2.3116 -0.0241 0.4914
2.3137 0.1830 0.4933
2.3159 0.3934 0.4993
2.3182 0.6107 0.5095
2.3205 0.8389 0.5245
2.3230 1.0830 0.5448
2.3258 1.3489 0.5715
2.3288 1.6447 0.6060
2.3323 1.9814 0.6505
2.3364 2.3749 0.7081
5.9439 7.2326 1.9899
1.0555 1.5476 0.3982
0.9179 1.6439 0.4002
0.7709 1.7267 0.4019
0.6160 1.7950 0.4034
0.4547 1.8479 0.4045
0.2886 1.8847 0.4053
0.1194 1.9050 0.4057
-0.0510 1.9084 0.4058
-0.2209 1.8949 0.4055
-0.3885 1.8648 0.4049
-0.5520 1.8183 0.4039
-0.7097 1.7561 0.4026
-0.8601 1.6791 0.4010
-1.0017 1.5881 0.3991
-5.6849 7.4464 1.9913
-6.2952 6.8754 1.9815
-6.8461 6.2523 1.9707
-7.3023 5.5600 1.9509
-7.7537 4.8767 1.9470
-8.1045 4.1383 1.9342
-8.3840 3.3756 1.9211
-8.5911 2.5959 1.9076
-8.7257 1.8062 1.8940
-8.7882 1.0132 1.8804
-8.7795 0.2235 1.8667
-8.6805 -0.5553 1.8489
-8.5138 -1.3147 1.8311
-6.0848 -1.5055 1.3324
-5.8356 -2.0110 1.3120
-6.0900 -2.7284 1.4184
-6.0928 -3.4123 1.4844
-6.7975 -4.6490 1.7505
-6.3015 -5.1923 1.7355
-5.7675 -5.6887 1.7219
-1.0344 -1.2208 0.3401
-0.9168 -1.3016 0.3384
-0.7935 -1.3722 0.3369
-0.6654 -1.4321 0.3357
-0.5333 -1.4812 0.3346
-0.3981 -1.5192 0.3338
-0.2606 -1.5460 0.3333
-0.1215 -1.5616 0.3329
0.0183 -1.5657 0.3328
0.1580 -1.5585 0.3330
0.2967 -1.5400 0.3334
0.4338 -1.5102 0.3340
0.5682 -1.4692 0.3348
0.6993 -1.4173 0.3359
0.8261 -1.3545 0.3372
0.9480 -1.2812 0.3388
1.0640 -1.1977 0.3405
2.2896 -2.1551 0.6683
2.2933 -1.8012 0.6198
2.2964 -1.4930 0.5822
2.2993 -1.2180 0.5531
2.3019 -0.9673 0.5307
2.3043 -0.7343 0.5141
2.3065 -0.5137 0.5023
2.3087 -0.3014 0.4949
2.3109 -0.0936 0.4916
2.3130 0.1131 0.4922
2.3152 0.3219 0.4968
2.3174 0.5365 0.5056
2.3197 0.7606 0.5189
2.3222 0.9987 0.5373
2.3248 1.2565 0.5617
2.3278 1.5412 0.5934
2.3311 1.8626 0.6342
2.3350 2.2348 0.6870
6.1509 7.0417 1.9874
1.0995 1.5123 0.3974
0.9653 1.6129 0.3996
0.8214 1.7004 0.4014
0.6690 1.7737 0.4029
0.5096 1.8319 0.4042
0.3449 1.8742 0.4051
0.1766 1.9000 0.4056
0.0064 1.9091 0.4058
-0.1639 1.9013 0.4056
-0.3325 1.8768 0.4051
-0.4975 1.8357 0.4043
-0.6573 1.7788 0.4031
-0.8104 1.7066 0.4016
-0.9551 1.6202 0.3998
-5.4669 7.6258 1.9944
-6.0961 7.0737 1.9849
-6.6675 6.4674 1.9744
-7.1767 5.8134 1.9631
-7.5882 5.0973 1.9430
-7.9943 4.3899 1.9386
-8.2980 3.6346 1.9256
-8.5295 2.8599 1.9122
-8.6885 2.0727 1.8986
-8.7752 1.2801 1.8850
-8.7902 0.4885 1.8713
-8.7219 -0.2950 1.8550
-8.5771 -1.0615 1.8370
-6.0840 -1.3124 1.3229
-5.8896 -1.8335 1.3111
-6.0890 -2.5109 1.4000
-6.0918 -3.1750 1.4602
-6.0949 -3.9048 1.5386
-5.8740 -4.5506 1.5794
-5.9512 -5.5269 1.7263
-1.0726 -1.1913 0.3407
-0.9570 -1.2755 0.3390
-0.8356 -1.3496 0.3374
-0.7090 -1.4131 0.3361
-0.5782 -1.4659 0.3349
-0.4439 -1.5076 0.3341
-0.3071 -1.5383 0.3334
-0.1684 -1.5576 0.3330
-0.0288 -1.5656 0.3328
0.1110 -1.5622 0.3329
0.2502 -1.5475 0.3332
0.3879 -1.5215 0.3337
0.5233 -1.4843 0.3345
0.6556 -1.4360 0.3355
0.7840 -1.3768 0.3368
0.9076 -1.3071 0.3382
1.0256 -1.2270 0.3399
2.2883 -2.2874 0.6877
2.2921 -1.9145 0.6348
2.2954 -1.5925 0.5938
2.2984 -1.3075 0.5620
2.3010 -1.0494 0.5376
2.3035 -0.8111 0.5191
2.3058 -0.5869 0.5057
2.3080 -0.3722 0.4969
2.3102 -0.1633 0.4923
2.3123 0.0434 0.4916
2.3144 0.2512 0.4948
2.3166 0.4634 0.5022
2.3189 0.6838 0.5139
2.3213 0.9167 0.5305
2.3239 1.1671 0.5528
2.3267 1.4418 0.5818
2.3299 1.7496 0.6193
2.3336 2.1028 0.6677
6.3502 6.8432 1.9844
5.7361 7.4104 1.9919
1.0117 1.5805 0.3989
0.8709 1.6725 0.4008
0.7211 1.7507 0.4025
0.5639 1.8140 0.4038
0.4009 1.8617 0.4048
0.2336 1.8932 0.4055
0.0638 1.9079 0.4058
-0.1067 1.9058 0.4057
-0.2760 1.8869 0.4053
-0.4424 1.8514 0.4046
-0.6042 1.7997 0.4035
-0.7597 1.7326 0.4021
-0.9074 1.6508 0.4004
-1.0458 1.5555 0.3984
-5.8905 7.2660 1.9882
-6.4819 6.6772 1.9780
-7.0125 6.0385 1.9670
-7.4468 5.3341 1.9470
-7.8761 4.6386 1.9429
-8.2037 3.8914 1.9300
-8.4597 3.1224 1.9167
-8.6431 2.3387 1.9032
-8.7540 1.5471 1.8896
-8.7931 0.7545 1.8759
-8.7557 -0.0327 1.8611
-8.6332 -0.8058 1.8430
-6.7361 -1.2424 1.4560
-6.0726 -1.6919 1.3399
-5.9100 -2.2317 1.3428
-6.0909 -2.9451 1.4381
-6.0938 -3.6505 1.5099
-6.0535 -4.4048 1.5913
-6.1310 -5.3597 1.7309
-5.5855 -5.8404 1.7177
-0.9966 -1.2483 0.3395
-0.8771 -1.3258 0.3379
-0.7521 -1.3929 0.3365
-0.6227 -1.4493 0.3353
-0.4895 -1.4948 0.3343
-0.3534 -1.5292 0.3336
-0.2152 -1.5523 0.3331
-0.0758 -1.5642 0.3329
0.0640 -1.5646 0.3329
0.2035 -1.5537 0.3331
0.3417 -1.5315 0.3335
0.4780 -1.4980 0.3342
0.6114 -1.4535 0.3352
0.7412 -1.3980 0.3363
0.8666 -1.3317 0.3377
0.9866 -1.2551 0.3393
5.5381 -5.8793 1.7168
2.2909 -2.0335 0.6511
2.2944 -1.6962 0.6065
2.2974 -1.4000 0.5719
2.3002 -1.1337 0.5451
2.3027 -0.8895 0.5247
2.3050 -0.6611 0.5097
2.3073 -0.4436 0.4994
2.3094 -0.2332 0.4934
2.3116 -0.0261 0.4914
2.3137 0.1809 0.4933
2.3159 0.3912 0.4992
2.3181 0.6085 0.5094
2.3205 0.8366 0.5243
2.3230 1.0805 0.5446
2.3258 1.3461 0.5712
2.3288 1.6416 0.6056
2.3323 1.9778 0.6500
2.3364 2.3706 0.7075
5.9501 7.2271 1.9898
1.0568 1.5466 0.3982
0.9193 1.6430 0.4002
0.7724 1.7260 0.4019
0.6176 1.7944 0.4034
0.4563 1.8475 0.4045
0.2902 1.8844 0.4053
0.1211 1.9049 0.4057
-0.0493 1.9084 0.4058
-0.2192 1.8951 0.4055
-0.3868 1.8652 0.4049
-0.5504 1.8189 0.4039
-0.7082 1.7568 0.4026
-0.8586 1.6799 0.4010
-1.0003 1.5890 0.3991
-5.6785 7.4518 1.9914
-6.2894 6.8813 1.9816
-6.8409 6.2587 1.9708
-7.2978 5.5668 1.9510
-7.7499 4.8839 1.9471
-8.1014 4.1457 1.9344
-8.3816 3.3833 1.9212
-8.5894 2.6037 1.9078
-8.7248 1.8141 1.8942
-8.7879 1.0211 1.8805
-8.7799 0.2313 1.8669
-8.6818 -0.5476 1.8490
-8.5157 -1.3072 1.8313
-6.0848 -1.4997 1.3321
-5.8357 -2.0053 1.3116
-6.0899 -2.7219 1.4179
-6.0928 -3.4052 1.4836
-6.8023 -4.6434 1.7506
-6.3066 -5.1871 1.7357
-5.7730 -5.6840 1.7220
-1.0355 -1.2199 0.3401
-0.9180 -1.3009 0.3384
-0.7947 -1.3715 0.3369
-0.6667 -1.4316 0.3357
-0.5347 -1.4807 0.3346
-0.3995 -1.5189 0.3338
-0.2619 -1.5458 0.3333
-0.1229 -1.5615 0.3329
0.0169 -1.5657 0.3328
0.1566 -1.5587 0.3330
0.2954 -1.5403 0.3334
0.4324 -1.5106 0.3340
0.5669 -1.4697 0.3348
0.6980 -1.4179 0.3359
0.8249 -1.3552 0.3372
0.9468 -1.2820 0.3388
1.0629 -1.1986 0.3405
2.2896 -2.1589 0.6689
2.2932 -1.8045 0.6203
2.2964 -1.4959 0.5825
2.2993 -1.2206 0.5533
2.3018 -0.9697 0.5309
2.3042 -0.7365 0.5142
2.3065 -0.5159 0.5024
2.3087 -0.3035 0.4950
2.3109 -0.0957 0.4916
2.3130 0.1110 0.4922
2.3151 0.3198 0.4968
2.3174 0.5343 0.5055
2.3197 0.7583 0.5187
2.3221 0.9963 0.5371
2.3248 1.2538 0.5614
2.3277 1.5382 0.5930
2.3311 1.8592 0.6338
2.3349 2.2308 0.6864
6.1569 7.0359 1.9873
1.1008 1.5113 0.3974
0.9667 1.6120 0.3995
0.8228 1.6996 0.4014
0.6705 1.7731 0.4029
0.5112 1.8314 0.4042
0.3466 1.8738 0.4050
0.1783 1.8999 0.4056
0.0081 1.9091 0.4058
-0.1622 1.9015 0.4056
-0.3308 1.8771 0.4051
-0.4959 1.8362 0.4043
-0.6558 1.7794 0.4031
-0.8089 1.7074 0.4016
-0.9537 1.6211 0.3998
-5.4603 7.6310 1.9945
-6.0901 7.0795 1.9850
-6.6622 6.4737 1.9745
-7.1720 5.8201 1.9633
-7.5841 5.1043 1.9432
-7.9909 4.3973 1.9387
-8.2953 3.6422 1.9257
-8.5276 2.8677 1.9123
-8.6873 2.0806 1.8988
-8.7746 1.2880 1.8851
-8.7904 0.4964 1.8714
-8.7230 -0.2872 1.8551
-8.5789 -1.0540 1.8372
-6.0840 -1.3068 1.3227
-5.8927 -1.8287 1.3115
-6.0890 -2.5046 1.3995
-6.0918 -3.1681 1.4595
-6.0949 -3.8972 1.5377
-5.8770 -4.5445 1.5791
-5.9566 -5.5221 1.7265
-1.0737 -1.1904 0.3407
-0.9582 -1.2747 0.3390
-0.8368 -1.3489 0.3374
-0.7103 -1.4126 0.3361
-0.5795 -1.4654 0.3350
-0.4453 -1.5073 0.3341
-0.3085 -1.5380 0.3334
-0.1698 -1.5575 0.3330
-0.0302 -1.5656 0.3328
0.1096 -1.5623 0.3329
0.2488 -1.5477 0.3332
0.3865 -1.5218 0.3337
0.5219 -1.4847 0.3345
0.6543 -1.4365 0.3355
0.7827 -1.3775 0.3368
0.9064 -1.3078 0.3382
1.0245 -1.2278 0.3399
2.2882 -2.2914 0.6883
2.2921 -1.9179 0.6353
2.2954 -1.5955 0.5942
2.2983 -1.3102 0.5623
2.3010 -1.0519 0.5378
2.3034 -0.8134 0.5192
2.3058 -0.5890 0.5058
2.3080 -0.3743 0.4970
2.3101 -0.1653 0.4923
2.3123 0.0413 0.4916
2.3144 0.2491 0.4948
2.3166 0.4613 0.5021
2.3189 0.6816 0.5137
2.3213 0.9143 0.5303
2.3239 1.1645 0.5525
2.3267 1.4389 0.5815
2.3299 1.7463 0.6189
2.3336 2.0990 0.6671
6.3560 6.8372 1.9843
5.7425 7.4051 1.9918
1.0130 1.5795 0.3988
0.8723 1.6716 0.4008
0.7227 1.7500 0.4024
0.5655 1.8135 0.4038
0.4025 1.8613 0.4048
0.2352 1.8929 0.4055
0.0655 1.9079 0.4058
-0.1050 1.9060 0.4057
-0.2743 1.8872 0.4053
-0.4408 1.8518 0.4046
-0.6026 1.8003 0.4035
-0.7582 1.7333 0.4021
-0.9059 1.6517 0.4004
-1.0444 1.5565 0.3984
-5.8843 7.2716 1.9883
-6.4763 6.6833 1.9781
-7.0075 6.0451 1.9671
-7.4425 5.3410 1.9472
-7.8725 4.6458 1.9430
-8.2008 3.8990 1.9301
-8.4575 3.1302 1.9169
-8.6416 2.3465 1.9033
-8.7533 1.5550 1.8897
-8.7930 0.7624 1.8760
-8.7565 -0.0249 1.8613
-8.6347 -0.7982 1.8432
-6.7700 -1.2425 1.4630
-6.0827 -1.6889 1.3418
-5.9033 -2.2231 1.3408
-6.0908 -2.9384 1.4374
-6.0938 -3.6431 1.5091
-6.0621 -4.4029 1.5925
-6.1363 -5.3547 1.7311
-5.5911 -5.8359 1.7179
-0.9978 -1.2475 0.3395
-0.8783 -1.3251 0.3379
-0.7534 -1.3923 0.3365
-0.6240 -1.4488 0.3353
-0.4908 -1.4944 0.3343
-0.3548 -1.5289 0.3336
-0.2166 -1.5522 0.3331
-0.0772 -1.5641 0.3329
0.0626 -1.5647 0.3328
0.2021 -1.5539 0.3331
0.3404 -1.5318 0.3335
0.4767 -1.4984 0.3342
0.6101 -1.4540 0.3352
0.7400 -1.3986 0.3363
0.8653 -1.3324 0.3377
0.9854 -1.2559 0.3393
5.5325 -5.8838 1.7167
2.2909 -2.0371 0.6516
2.2943 -1.6993 0.6069
2.2884 -2.2793 0.7073
2.2922 -1.9076 0.6531
2.2955 -1.5865 0.6111
2.2984 -1.3021 0.5785
2.3011 -1.0445 0.5534
2.3035 -0.8065 0.5345
2.3058 -0.5825 0.5208
2.3080 -0.3680 0.5119
2.3102 -0.1591 0.5071
2.3123 0.0475 0.5065
2.3145 0.2553 0.5100
2.3167 0.4677 0.5176
2.3190 0.6883 0.5298
2.3214 0.9215 0.5470
2.3240 1.1723 0.5700
2.3268 1.4476 0.6001
2.3300 1.7561 0.6390
2.3337 2.1104 0.6891
6.1371 6.6371 1.9797
1.1035 1.4308 0.3957
0.9767 1.5317 0.3978
0.8400 1.6203 0.3997
0.6949 1.6955 0.4013
0.5426 1.7563 0.4026
0.3846 1.8020 0.4035
0.2227 1.8320 0.4042
0.0584 1.8459 0.4045
-0.1065 1.8436 0.4044
-0.2703 1.8250 0.4040
-0.4312 1.7904 0.4033
-0.5877 1.7403 0.4023
-0.7381 1.6752 0.4009
-0.8810 1.5961 0.3993
-1.0149 1.5038 0.3973
-5.7178 7.0273 1.9841
-6.2905 6.4570 1.9742
-6.8045 5.8384 1.9636
-7.2256 5.1562 1.9440
-7.6107 4.4640 1.9323
-7.9595 3.7582 1.9277
-8.2079 3.0129 1.9148
-8.3862 2.2532 1.9017
-8.4942 1.4856 1.8885
-8.5326 0.7168 1.8752
-8.4964 -0.0468 1.8608
-8.3785 -0.7970 1.8432
-6.6747 -1.2434 1.4869
-6.0318 -1.6921 1.3720
-5.8993 -2.2396 1.3819
-6.0909 -2.9585 1.4830
-6.9029 -4.1518 1.7641
-6.0819 -4.4421 1.6494
-5.9541 -5.2238 1.7347
-1.0773 -1.1305 0.3420
-0.9671 -1.2157 0.3402
-0.8508 -1.2911 0.3386
-0.7292 -1.3563 0.3372
-0.6033 -1.4111 0.3361
-0.4737 -1.4553 0.3352
-0.3412 -1.4886 0.3345
-0.2068 -1.5109 0.3340
-0.0711 -1.5223 0.3337
0.0650 -1.5225 0.3337
0.2007 -1.5116 0.3340
0.3352 -1.4897 0.3344
0.4677 -1.4569 0.3351
0.5975 -1.4132 0.3360
0.7236 -1.3588 0.3372
0.8453 -1.2941 0.3385
0.9618 -1.2191 0.3401
1.0723 -1.1343 0.3419
2.2910 -2.0263 0.6698
2.2944 -1.6900 0.6241
2.2975 -1.3944 0.5886
2.3002 -1.1287 0.5611
2.3027 -0.8848 0.5402
2.3051 -0.6566 0.5249
2.3073 -0.4394 0.5144
2.3095 -0.2290 0.5083
2.3116 -0.0220 0.5063
2.3138 0.1850 0.5083
2.3159 0.3955 0.5145
2.3182 0.6129 0.5251
2.3205 0.8413 0.5406
2.3231 1.0855 0.5616
2.3258 1.3517 0.5891
2.3289 1.6479 0.6248
2.3324 1.9850 0.6707
2.3365 2.3791 0.7303
5.7460 7.0045 1.9841
1.0205 1.4991 0.3972
0.8870 1.5920 0.3991
0.7446 1.6717 0.4008
0.5945 1.7375 0.4022
0.4383 1.7884 0.4033
0.2776 1.8237 0.4040
0.1139 1.8431 0.4044
-0.0510 1.8462 0.4045
-0.2154 1.8331 0.4042
-0.3775 1.8038 0.4036
-0.5356 1.7589 0.4027
-0.6883 1.6987 0.4014
-0.8338 1.6242 0.3998
-0.9709 1.5362 0.3980
-5.5125 7.2073 1.9872
-6.1041 6.6547 1.9777
-6.6383 6.0517 1.9673
-7.1111 5.4045 1.9561
-7.4885 4.7006 1.9363
-7.8602 4.0047 1.9319
-8.1321 3.2658 1.9192
-8.3340 2.5101 1.9062
-8.4657 1.7445 1.8930
-8.5274 0.9754 1.8797
-8.5201 0.2093 1.8665
-8.4254 -0.5465 1.8491
-8.2653 -1.2839 1.8318
-6.0848 -1.5112 1.3731
-5.8191 -2.0111 1.3484
-6.0900 -2.7349 1.4620
-6.0929 -3.4195 1.5301
-6.6061 -4.5267 1.7538
-6.1247 -5.0558 1.7393
-5.6061 -5.5394 1.7260
-1.0049 -1.1881 0.3408
-0.8906 -1.2668 0.3391
-0.7707 -1.3355 0.3377
-0.6461 -1.3938 0.3365
-0.5176 -1.4416 0.3355
-0.3861 -1.4786 0.3347
-0.2522 -1.5046 0.3341
-0.1169 -1.5197 0.3338
0.0192 -1.5237 0.3337
0.1551 -1.5165 0.3339
0.2901 -1.4983 0.3342
0.4234 -1.4692 0.3348
0.5541 -1.4291 0.3357
0.6816 -1.3783 0.3367
0.8049 -1.3170 0.3380
0.9232 -1.2455 0.3395
1.0358 -1.1640 0.3412
2.2897 -2.1513 0.6881
2.2933 -1.7980 0.6382
2.2965 -1.4901 0.5995
2.2993 -1.2154 0.5696
2.3019 -0.9649 0.5466
2.3043 -0.7320 0.5295
2.3066 -0.5116 0.5174
2.3088 -0.2993 0.5099
2.3109 -0.0916 0.5065
2.3130 0.1151 0.5072
2.3152 0.3241 0.5120
2.3174 0.5387 0.5211
2.3197 0.7629 0.5348
2.3222 1.0012 0.5538
2.3249 1.2592 0.5790
2.3278 1.5442 0.6118
2.3311 1.8661 0.6540
2.3350 2.2388 0.7085
5.9476 6.8211 1.9820
1.0632 1.4651 0.3964
0.9330 1.5621 0.3985
0.7935 1.6464 0.4003
0.6458 1.7170 0.4017
0.4915 1.7729 0.4029
0.3321 1.8136 0.4038
0.1692 1.8384 0.4043
0.0045 1.8470 0.4045
-0.1602 1.8393 0.4043
-0.3232 1.8154 0.4038
-0.4829 1.7757 0.4030
-0.6376 1.7206 0.4019
-0.7857 1.6509 0.4004
-0.9258 1.5673 0.3986
-1.0565 1.4710 0.3966
-5.9111 6.8467 1.9810
-6.4651 6.2599 1.9708
-6.9590 5.6269 1.9599
-7.3587 4.9336 1.9403
-7.7530 4.2484 1.9361
-8.0483 3.5168 1.9235
-8.2739 2.7660 1.9106
-8.4292 2.0029 1.8974
-8.5144 1.2343 1.8842
-8.5302 0.4665 1.8709
-8.4650 -0.2938 1.8550
-8.3262 -1.0380 1.8376
-6.0840 -1.3181 1.3633
-5.8702 -1.8332 1.3468
-6.0891 -2.5173 1.4430
-6.0919 -3.1819 1.5052
-6.7590 -4.3388 1.7590
-5.9028 -4.5812 1.6364
-5.7846 -5.3818 1.7303
-1.0420 -1.1594 0.3414
-0.9297 -1.2414 0.3397
-0.8116 -1.3135 0.3382
-0.6885 -1.3754 0.3368
-0.5613 -1.4267 0.3358
-0.4307 -1.4673 0.3349
-0.2975 -1.4971 0.3343
-0.1625 -1.5159 0.3339
-0.0266 -1.5236 0.3337
0.1094 -1.5202 0.3338
0.2448 -1.5057 0.3341
0.3788 -1.4802 0.3346
0.5105 -1.4438 0.3354
0.6391 -1.3966 0.3364
0.7639 -1.3388 0.3376
0.8840 -1.2707 0.3390
0.9986 -1.1925 0.3406
2.2883 -2.2834 0.7080
2.2922 -1.9111 0.6536
2.2955 -1.5895 0.6115
2.2984 -1.3048 0.5788
2.3010 -1.0469 0.5536
2.3035 -0.8088 0.5347
2.3058 -0.5847 0.5210
2.3080 -0.3701 0.5119
2.3102 -0.1612 0.5072
2.3123 0.0455 0.5065
2.3145 0.2533 0.5099
2.3166 0.4656 0.5175
2.3189 0.6861 0.5296
2.3213 0.9191 0.5468
2.3239 1.1697 0.5698
2.3268 1.4447 0.5998
2.3300 1.7528 0.6385
2.3336 2.1066 0.6885
6.1428 6.6314 1.9796
1.1047 1.4298 0.3957
0.9780 1.5308 0.3978
0.8414 1.6195 0.3997
0.6964 1.6948 0.4013
0.5441 1.7558 0.4026
0.3862 1.8016 0.4035
0.2243 1.8318 0.4042
0.0601 1.8459 0.4045
-0.1048 1.8437 0.4044
-0.2687 1.8253 0.4040
-0.4297 1.7908 0.4033
-0.5862 1.7408 0.4023
-0.7367 1.6759 0.4009
-0.8796 1.5969 0.3993
-1.0136 1.5048 0.3973
-5.7118 7.0327 1.9842
-6.2851 6.4630 1.9743
-6.7997 5.8448 1.9637
-7.2215 5.1630 1.9442
-7.6072 4.4711 1.9325
-7.9566 3.7656 1.9278
-8.2058 3.0204 1.9150
-8.3848 2.2608 1.9019
-8.4935 1.4933 1.8886
-8.5325 0.7245 1.8754
-8.4972 -0.0393 1.8609
-8.3801 -0.7897 1.8434
-6.7080 -1.2434 1.4941
-6.0402 -1.6887 1.3735
-5.8922 -2.2309 1.3798
-6.0909 -2.9518 1.4823
-6.9072 -4.1461 1.7643
-6.0920 -4.4412 1.6511
-5.9592 -5.2189 1.7348
-1.0784 -1.1296 0.3420
-0.9682 -1.2149 0.3402
-0.8520 -1.2904 0.3386
-0.7305 -1.3557 0.3373
-0.6045 -1.4106 0.3361
-0.4750 -1.4549 0.3352
-0.3426 -1.4883 0.3345
-0.2081 -1.5108 0.3340
-0.0725 -1.5222 0.3337
0.0636 -1.5226 0.3337
0.1993 -1.5118 0.3340
0.3339 -1.4900 0.3344
0.4664 -1.4573 0.3351
0.5962 -1.4137 0.3360
0.7223 -1.3594 0.3371
0.8441 -1.2948 0.3385
0.9607 -1.2199 0.3401
1.0713 -1.1352 0.3418
2.2909 -2.0299 0.6703
2.2944 -1.6931 0.6245
2.2974 -1.3972 0.5889
2.3002 -1.1312 0.5614
2.3027 -0.8871 0.5404
2.3050 -0.6588 0.5250
2.3073 -0.4415 0.5145
2.3095 -0.2311 0.5083
2.3116 -0.0241 0.5063
2.3137 0.1830 0.5083
2.3159 0.3934 0.5145
2.3182 0.6107 0.5250
2.3205 0.8389 0.5404
2.3230 1.0830 0.5613
2.3258 1.3489 0.5888
2.3288 1.6447 0.6244
2.3323 1.9814 0.6702
2.3364 2.3749 0.7296
5.7521 6.9992 1.9841
1.0218 1.4981 0.3971
0.8884 1.5911 0.3991
0.7461 1.6710 0.4008
0.5961 1.7369 0.4022
0.4399 1.7879 0.4032
0.2792 1.8234 0.4040
0.1155 1.8430 0.4044
-0.0494 1.8463 0.4045
-0.2137 1.8333 0.4042
-0.3759 1.8042 0.4036
-0.5341 1.7594 0.4027
-0.6868 1.6994 0.4014
-0.8324 1.6250 0.3999
-0.9696 1.5372 0.3980
-5.5063 7.2126 1.9873
-6.0985 6.6605 1.9778
-6.6333 6.0579 1.9674
-7.1067 5.4111 1.9562
-7.4848 4.7075 1.9365
-7.8571 4.0119 1.9321
-8.1297 3.2733 1.9193
-8.3324 2.5177 1.9063
-8.4647 1.7521 1.8931
-8.5271 0.9831 1.8798
-8.5205 0.2169 1.8666
-8.4267 -0.5390 1.8492
-8.2672 -1.2766 1.8320
-6.0848 -1.5055 1.3728
-5.8192 -2.0054 1.3480
-6.0900 -2.7284 1.4615
-6.0928 -3.4123 1.5294
-6.6107 -4.5213 1.7540
-6.1297 -5.0507 1.7394
-5.6115 -5.5348 1.7261
-1.0060 -1.1873 0.3408
-0.8917 -1.2661 0.3391
-0.7719 -1.3349 0.3377
-0.6474 -1.3933 0.3365
-0.5189 -1.4412 0.3355
-0.3874 -1.4783 0.3347
-0.2536 -1.5044 0.3341
-0.1182 -1.5196 0.3338
0.0178 -1.5237 0.3337
0.1537 -1.5167 0.3339
0.2888 -1.4986 0.3342
0.4221 -1.4695 0.3348
0.5529 -1.4295 0.3357
0.6803 -1.3789 0.3367
0.8037 -1.3177 0.3380
0.9221 -1.2462 0.3395
1.0348 -1.1648 0.3412
2.2896 -2.1551 0.6886
2.2933 -1.8012 0.6386
2.2965 -1.4930 0.5999
2.2993 -1.2180 0.5698
2.3019 -0.9673 0.5468
2.3043 -0.7343 0.5296
2.3065 -0.5137 0.5175
2.3087 -0.3014 0.5099
2.3109 -0.0936 0.5065
2.3130 0.1131 0.5072
2.3152 0.3219 0.5119
2.3174 0.5365 0.5209
2.3197 0.7606 0.5346
2.3222 0.9987 0.5536
2.3248 1.2565 0.5788
2.3278 1.5412 0.6114
2.3311 1.8627 0.6535
2.3350 2.2348 0.7078
5.9534 6.8156 1.9819
1.0644 1.4641 0.3964
0.9344 1.5612 0.3985
0.7949 1.6456 0.4002
0.6473 1.7164 0.4017
0.4931 1.7725 0.4029
0.3337 1.8133 0.4038
0.1708 1.8382 0.4043
0.0062 1.8470 0.4045
-0.1586 1.8395 0.4043
-0.3216 1.8158 0.4038
-0.4814 1.7762 0.4030
-0.6361 1.7212 0.4019
-0.7842 1.6516 0.4004
-0.9244 1.5682 0.3987
-1.0553 1.4720 0.3967
-5.9053 6.8523 1.9811
-6.4599 6.2660 1.9709
-6.9544 5.6334 1.9600
-7.3548 4.9405 1.9404
-7.7497 4.2556 1.9363
-8.0457 3.5241 1.9237
-8.2720 2.7735 1.9107
-8.4280 2.0106 1.8976
-8.5139 1.2420 1.8843
-8.5304 0.4741 1.8711
-8.4661 -0.2863 1.8552
-8.3279 -1.0307 1.8378
-6.0840 -1.3124 1.3631
-5.8732 -1.8284 1.3471
-6.0890 -2.5109 1.4425
-6.0918 -3.1750 1.5045
-6.7635 -4.3332 1.7591
-5.9054 -4.5748 1.6360
-5.7898 -5.3770 1.7305
-1.0431 -1.1585 0.3414
-0.9309 -1.2407 0.3397
-0.8128 -1.3129 0.3382
-0.6898 -1.3748 0.3369
-0.5626 -1.4263 0.3358
-0.4320 -1.4670 0.3349
-0.2988 -1.4969 0.3343
-0.1639 -1.5157 0.3339
-0.0280 -1.5235 0.3337
0.1080 -1.5203 0.3338
0.2435 -1.5059 0.3341
0.3774 -1.4805 0.3346
0.5092 -1.4442 0.3354
0.6378 -1.3971 0.3364
0.7627 -1.3394 0.3376
0.8828 -1.2714 0.3390
0.9975 -1.1933 0.3406
2.2883 -2.2874 0.7086
2.2921 -1.9145 0.6541
2.2954 -1.5925 0.6118
2.2984 -1.3075 0.5791
2.3010 -1.0494 0.5539
2.3035 -0.8111 0.5348
2.3058 -0.5869 0.5211
2.3080 -0.3722 0.5120
2.3102 -0.1633 0.5072
2.3123 0.0434 0.5065
2.3144 0.2512 0.5098
2.3166 0.4634 0.5174
2.3189 0.6838 0.5295
2.3213 0.9167 0.5466
2.3239 1.1671 0.5695
2.3267 1.4418 0.5995
2.3299 1.7496 0.6381
2.3336 2.1028 0.6879
6.1484 6.6257 1.9796
1.1059 1.4287 0.3957
0.9793 1.5299 0.3978
0.8428 1.6187 0.3997
0.6978 1.6941 0.4013
0.5457 1.7553 0.4026
0.3878 1.8013 0.4035
0.2260 1.8316 0.4042
0.0617 1.8458 0.4045
-0.1032 1.8438 0.4044
-0.2670 1.8255 0.4041
-0.4281 1.7913 0.4033
-0.5847 1.7414 0.4023
-0.7352 1.6766 0.4009
-0.8782 1.5978 0.3993
-1.0123 1.5057 0.3974
-5.7058 7.0382 1.9843
-6.2797 6.4689 1.9744
-6.7949 5.8511 1.9638
-7.2173 5.1697 1.9443
-7.6037 4.4781 1.9326
-7.9538 3.7729 1.9279
-8.2037 3.0280 1.9151
-8.3833 2.2684 1.9020
-8.4928 1.5009 1.8888
-8.5325 0.7321 1.8755
-8.4980 -0.0317 1.8611
-8.3815 -0.7823 1.8436
-6.7416 -1.2434 1.5013
-6.0490 -1.6853 1.3752
-5.8858 -2.2225 1.3779
-6.0909 -2.9451 1.4817
-6.9115 -4.1403 1.7644
-6.1028 -4.4408 1.6529
-5.9643 -5.2140 1.7349
-1.0795 -1.1287 0.3420
-0.9693 -1.2141 0.3402
-0.8531 -1.2897 0.3387
-0.7317 -1.3551 0.3373
-0.6058 -1.4101 0.3361
-0.4763 -1.4545 0.3352
-0.3439 -1.4880 0.3345
-0.2095 -1.5106 0.3340
-0.0738 -1.5222 0.3337
0.0623 -1.5226 0.3337
0.1980 -1.5120 0.3340
0.3325 -1.4903 0.3344
0.4651 -1.4576 0.3351
0.5949 -1.4142 0.3360
0.7211 -1.3600 0.3371
0.8429 -1.2954 0.3385
0.9596 -1.2207 0.3400
1.0702 -1.1361 0.3418
2.2909 -2.0335 0.6709
2.2944 -1.6962 0.6249
2.2974 -1.4000 0.5892
2.3002 -1.1338 0.5616
2.3027 -0.8895 0.5406
2.3050 -0.6611 0.5252
2.3073 -0.4436 0.5146
2.3094 -0.2332 0.5083
2.3116 -0.0261 0.5063
2.3137 0.1809 0.5083
2.3159 0.3912 0.5144
2.3181 0.6085 0.5249
2.3205 0.8366 0.5402
2.3230 1.0805 0.5611
2.3258 1.3461 0.5885
2.3288 1.6416 0.6240
2.3323 1.9778 0.6697
2.3364 2.3706 0.7289
5.7581 6.9938 1.9840
1.0231 1.4971 0.3971
0.8898 1.5902 0.3991
0.7475 1.6703 0.4008
0.5976 1.7363 0.4022
0.4415 1.7875 0.4032
0.2808 1.8232 0.4040
0.1171 1.8428 0.4044
-0.0477 1.8463 0.4045
-0.2121 1.8335 0.4042
-0.3743 1.8046 0.4036
-0.5325 1.7599 0.4027
-0.6853 1.7001 0.4014
-0.8310 1.6258 0.3999
-0.9682 1.5381 0.3980
-5.5002 7.2178 1.9874
-6.0928 6.6663 1.9779
-6.6283 6.0641 1.9675
-7.1023 5.4178 1.9563
-7.4811 4.7145 1.9366
-7.8540 4.0192 1.9322
-8.1273 3.2807 1.9195
-8.3307 2.5253 1.9064
-8.4637 1.7598 1.8932
-8.5268 0.9907 1.8800
-8.5209 0.2245 1.8668
-8.4280 -0.5316 1.8494
-8.2691 -1.2694 1.8322
-6.0848 -1.4997 1.3725
-5.8195 -1.9997 1.3476
-6.0899 -2.7219 1.4609
-6.0928 -3.4052 1.5286
-6.6152 -4.5158 1.7541
-6.1347 -5.0457 1.7396
-5.6168 -5.5302 1.7263
-1.0071 -1.1864 0.3408
-0.8929 -1.2654 0.3392
-0.7731 -1.3342 0.3377
-0.6486 -1.3928 0.3365
-0.5202 -1.4408 0.3355
-0.3887 -1.4780 0.3347
-0.2549 -1.5042 0.3341
-0.1196 -1.5195 0.3338
0.0165 -1.5237 0.3337
0.1524 -1.5168 0.3339
0.2874 -1.4988 0.3342
0.4207 -1.4699 0.3348
0.5516 -1.4300 0.3357
0.6791 -1.3794 0.3367
0.8025 -1.3183 0.3380
0.9209 -1.2470 0.3395
1.0337 -1.1657 0.3412
2.2896 -2.1589 0.6892
2.2932 -1.8045 0.6391
2.2964 -1.4959 0.6002
2.2993 -1.2206 0.5701
2.3018 -0.9697 0.5470
2.3042 -0.7365 0.5298
2.3065 -0.5159 0.5176
2.3087 -0.3035 0.5100
2.3109 -0.0957 0.5065
2.3130 0.1110 0.5071
2.3151 0.3198 0.5118
2.3174 0.5343 0.5208
2.3197 0.7583 0.5345
2.3221 0.9963 0.5534
2.3248 1.2538 0.5785
2.3277 1.5382 0.6110
2.3311 1.8592 0.6530
2.3349 2.2308 0.7072
5.9593 6.8101 1.9818
1.0657 1.4630 0.3964
0.9357 1.5603 0.3984
0.7963 1.6449 0.4002
0.6488 1.7157 0.4017
0.4946 1.7720 0.4029
0.3353 1.8129 0.4038
0.1725 1.8380 0.4043
0.0078 1.8470 0.4045
-0.1569 1.8396 0.4043
-0.3200 1.8161 0.4039
-0.4798 1.7767 0.4030
-0.6346 1.7219 0.4019
-0.7828 1.6524 0.4004
-0.9231 1.5691 0.3987
-1.0540 1.4730 0.3967
-5.8995 6.8579 1.9812
-6.4546 6.2721 1.9711
-6.9498 5.6399 1.9601
-7.3508 4.9473 1.9405
-7.7464 4.2628 1.9364
-8.0431 3.5315 1.9238
-8.2701 2.7811 1.9108
-8.4268 2.0182 1.8977
-8.5134 1.2496 1.8844
-8.5305 0.4817 1.8712
-8.4671 -0.2788 1.8553
-8.3296 -1.0234 1.8379
-6.0840 -1.3068 1.3628
-5.8762 -1.8236 1.3475
-6.0890 -2.5046 1.4419
-6.0918 -3.1681 1.5038
-6.7679 -4.3275 1.7593
-5.9081 -4.5685 1.6356
-5.7951 -5.3723 1.7306
-1.0442 -1.1577 0.3414
-0.9320 -1.2399 0.3397
-0.8140 -1.3122 0.3382
-0.6910 -1.3742 0.3369
-0.5639 -1.4258 0.3358
-0.4333 -1.4666 0.3349
-0.3002 -1.4966 0.3343
-0.1652 -1.5156 0.3339
-0.0294 -1.5235 0.3337
0.1067 -1.5203 0.3338
0.2421 -1.5061 0.3341
0.3761 -1.4808 0.3346
0.5079 -1.4446 0.3354
0.6366 -1.3976 0.3363
0.7614 -1.3401 0.3375
0.8816 -1.2721 0.3390
0.9964 -1.1941 0.3406
2.2882 -2.2914 0.7092
2.2921 -1.9179 0.6545
2.2954 -1.5955 0.6122
2.2983 -1.3102 0.5794
2.3010 -1.0519 0.5541
2.3035 -0.8134 0.5350
2.3058 -0.5890 0.5212
2.3080 -0.3743 0.5121
2.3101 -0.1653 0.5072
2.3123 0.0413 0.5065
2.3144 0.2491 0.5098
2.3166 0.4613 0.5173
2.3189 0.6816 0.5293
2.3213 0.9143 0.5464
2.3239 1.1645 0.5693
2.3267 1.4389 0.5991
2.3299 1.7463 0.6377
2.3336 2.0990 0.6874
6.1541 6.6200 1.9795
1.1071 1.4276 0.3957
0.9806 1.5289 0.3978
0.8442 1.6179 0.3997
0.6993 1.6935 0.4012
0.5472 1.7547 0.4025
0.3894 1.8009 0.4035
0.2276 1.8314 0.4042
0.0633 1.8458 0.4045
-0.1016 1.8439 0.4044
-0.2654 1.8258 0.4041
-0.4265 1.7917 0.4033
-0.5831 1.7420 0.4023
-0.7337 1.6774 0.4010
-0.8768 1.5986 0.3993
-1.0110 1.5067 0.3974
-5.6998 7.0436 1.9844
-6.2743 6.4748 1.9746
-6.7900 5.8575 1.9639
-7.2131 5.1764 1.9444
-7.6002 4.4852 1.9327
-7.9510 3.7802 1.9281
-8.2015 3.0355 1.9152
-8.3819 2.2760 1.9021
-8.4920 1.5086 1.8889
-8.5324 0.7398 1.8756
-8.4989 -0.0242 1.8613
-8.3830 -0.7749 1.8437
-6.7755 -1.2435 1.5086
-6.0583 -1.6821 1.3770
-5.8800 -2.2144 1.3760
-6.0908 -2.9384 1.4810
-6.9158 -4.1345 1.7646
-6.1145 -4.4410 1.6550
-5.9694 -5.2091 1.7351
-1.0805 -1.1278 0.3421
-0.9705 -1.2133 0.3403
-0.8543 -1.2890 0.3387
-0.7329 -1.3545 0.3373
-0.6071 -1.4096 0.3361
-0.4776 -1.4541 0.3352
-0.3452 -1.4877 0.3345
-0.2108 -1.5104 0.3340
-0.0752 -1.5221 0.3337
0.0609 -1.5227 0.3337
0.1967 -1.5121 0.3339
0.3312 -1.4906 0.3344
0.4638 -1.4580 0.3351
0.5936 -1.4147 0.3360
0.7199 -1.3606 0.3371
0.8417 -1.2961 0.3385
0.9584 -1.2215 0.3400
1.0691 -1.1370 0.3418
2.2909 -2.0371 0.6714
2.2943 -1.6994 0.6253
1.0782 -1.0740 0.3431
2.2922 -1.9076 0.6724
2.2955 -1.5865 0.6291
2.2984 -1.3021 0.5956
2.3011 -1.0445 0.5698
2.3035 -0.8065 0.5503
2.3058 -0.5825 0.5362
2.3080 -0.3680 0.5270
2.3102 -0.1591 0.5221
2.3123 0.0475 0.5215
2.3145 0.2553 0.5250
2.3167 0.4677 0.5329
2.3190 0.6883 0.5454
2.3214 0.9215 0.5631
2.3240 1.1723 0.5869
2.3268 1.4476 0.6179
2.3300 1.7561 0.6578
2.3337 2.1104 0.7094
5.9451 6.4295 1.9744
1.0693 1.3866 0.3948
0.9463 1.4841 0.3968
0.8138 1.5697 0.3986
0.6731 1.6423 0.4002
0.5255 1.7010 0.4014
0.3725 1.7452 0.4023
0.2157 1.7742 0.4030
0.0566 1.7876 0.4032
-0.1031 1.7853 0.4032
-0.2617 1.7674 0.4028
-0.4176 1.7340 0.4021
-0.5692 1.6855 0.4011
-0.7150 1.6227 0.3998
-0.8535 1.5462 0.3982
-0.9834 1.4571 0.3963
-5.5435 6.8132 1.9804
-6.0997 6.2612 1.9709
-6.5992 5.6622 1.9605
-7.0382 5.0225 1.9495
-7.3839 4.3310 1.9301
-7.7236 3.6468 1.9258
-7.9662 2.9242 1.9133
-8.1409 2.1873 1.9006
-8.2474 1.4425 1.8878
-8.2864 0.6962 1.8749
-8.2529 -0.0455 1.8608
-8.1407 -0.7744 1.8437
-6.6801 -1.2444 1.5321
-6.0170 -1.6880 1.4090
-5.8830 -2.2334 1.4188
-6.0909 -2.9585 1.5267
-6.7167 -4.0398 1.7672
-6.2759 -4.5838 1.7523
-5.7961 -5.0851 1.7385
-1.0484 -1.1001 0.3426
-0.9412 -1.1832 0.3409
-0.8281 -1.2567 0.3393
-0.7099 -1.3204 0.3380
-0.5873 -1.3738 0.3369
-0.4612 -1.4169 0.3360
-0.3323 -1.4495 0.3353
-0.2013 -1.4713 0.3348
-0.0692 -1.4823 0.3346
0.0633 -1.4826 0.3346
0.1954 -1.4720 0.3348
0.3264 -1.4506 0.3352
0.4554 -1.4185 0.3359
0.5817 -1.3759 0.3368
0.7044 -1.3228 0.3379
0.8228 -1.2596 0.3392
0.9361 -1.1865 0.3408
1.0435 -1.1039 0.3425
2.2910 -2.0263 0.6896
2.2944 -1.6900 0.6425
2.2975 -1.3944 0.6060
2.3002 -1.1287 0.5777
2.3027 -0.8848 0.5562
2.3051 -0.6566 0.5404
2.3073 -0.4394 0.5296
2.3095 -0.2290 0.5233
2.3116 -0.0220 0.5212
2.3138 0.1850 0.5233
2.3159 0.3955 0.5297
2.3182 0.6129 0.5406
2.3205 0.8413 0.5565
2.3231 1.0855 0.5781
2.3258 1.3517 0.6065
2.3289 1.6479 0.6432
2.3324 1.9850 0.6905
2.3365 2.3792 0.7518
1.1085 1.3512 0.3941
0.9888 1.4525 0.3962
0.8594 1.5423 0.3981
0.7213 1.6194 0.3997
0.5759 1.6829 0.4010
0.4245 1.7320 0.4021
0.2688 1.7661 0.4028
0.1103 1.7848 0.4032
-0.0494 1.7878 0.4033
-0.2086 1.7752 0.4030
-0.3656 1.7469 0.4024
-0.5188 1.7035 0.4015
-0.6667 1.6454 0.4003
-0.8077 1.5734 0.3988
-0.9407 1.4884 0.3970
-1.0642 1.3914 0.3950
-5.9186 6.4526 1.9742
-6.4377 5.8687 1.9641
-6.8974 5.2420 1.9533
-7.2945 4.5788 1.9419
-7.5967 3.8704 1.9223
-7.8921 3.1694 1.9175
-8.0897 2.4366 1.9049
-8.2192 1.6937 1.8921
-8.2808 0.9472 1.8792
-8.2754 0.2033 1.8664
-8.1855 -0.5309 1.8494
-8.0320 -1.2476 1.8327
-6.0848 -1.5112 1.4136
-5.8071 -2.0070 1.3853
-6.0900 -2.7349 1.5052
-6.8533 -3.8463 1.7719
-6.4289 -4.4053 1.7572
-5.9618 -4.9213 1.7430
-1.0830 -1.0701 0.3433
-0.9780 -1.1563 0.3415
-0.8668 -1.2331 0.3398
-0.7502 -1.3001 0.3384
-0.6290 -1.3570 0.3372
-0.5040 -1.4036 0.3362
-0.3759 -1.4397 0.3355
-0.2456 -1.4651 0.3349
-0.1138 -1.4798 0.3346
0.0187 -1.4837 0.3346
0.1510 -1.4767 0.3347
0.2825 -1.4590 0.3351
0.4122 -1.4305 0.3357
0.5395 -1.3914 0.3365
0.6635 -1.3418 0.3375
0.7835 -1.2820 0.3388
0.8986 -1.2122 0.3402
1.0081 -1.1328 0.3419
2.2897 -2.1513 0.7084
2.2933 -1.7980 0.6570
2.2965 -1.4901 0.6172
2.2993 -1.2154 0.5864
2.3019 -0.9649 0.5628
2.3043 -0.7320 0.5451
2.3066 -0.5116 0.5327
2.3088 -0.2993 0.5249
2.3109 -0.0916 0.5214
2.3130 0.1151 0.5222
2.3152 0.3241 0.5271
2.3174 0.5387 0.5364
2.3197 0.7629 0.5506
2.3222 1.0012 0.5702
2.3249 1.2592 0.5961
2.3278 1.5442 0.6298
2.3312 1.8661 0.6733
2.3350 2.2388 0.7294
5.7624 6.6088 1.9769
1.0302 1.4197 0.3955
0.9040 1.5134 0.3975
0.7686 1.5949 0.3992
0.6255 1.6631 0.4006
0.4760 1.7171 0.4018
0.3216 1.7563 0.4026
0.1639 1.7803 0.4031
0.0044 1.7886 0.4033
-0.1551 1.7812 0.4031
-0.3130 1.7581 0.4026
-0.4677 1.7198 0.4018
-0.6176 1.6666 0.4007
-0.7611 1.5992 0.3993
-0.8969 1.5184 0.3976
-1.0237 1.4253 0.3957
-5.7312 6.6384 1.9774
-6.2694 6.0704 1.9676
-6.7494 5.4574 1.9570
-7.1680 4.8057 1.9458
-7.4924 4.1056 1.9263
-7.8103 3.4128 1.9217
-8.0308 2.6847 1.9092
-8.1832 1.9445 1.8964
-8.2676 1.1985 1.8836
-8.2846 0.4531 1.8707
-8.2232 -0.2854 1.8552
-8.0905 -1.0086 1.8383
-6.0840 -1.3181 1.4036
-5.8582 -1.8294 1.3838
-6.0891 -2.5173 1.4856
-6.0919 -3.1819 1.5496
-6.5772 -4.2221 1.7622
-5.9629 -4.6279 1.7019
-5.6315 -5.2393 1.7343
-1.0141 -1.1283 0.3420
-0.9049 -1.2083 0.3404
-0.7900 -1.2786 0.3389
-0.6703 -1.3390 0.3376
-0.5465 -1.3891 0.3366
-0.4193 -1.4287 0.3357
-0.2897 -1.4578 0.3351
-0.1583 -1.4761 0.3347
-0.0259 -1.4836 0.3346
0.1065 -1.4803 0.3346
0.2384 -1.4662 0.3349
0.3688 -1.4413 0.3354
0.4970 -1.4057 0.3362
0.6222 -1.3597 0.3371
0.7436 -1.3033 0.3383
0.8604 -1.2368 0.3397
0.9719 -1.1606 0.3413
1.0772 -1.0749 0.3431
2.2922 -1.9111 0.6729
2.2955 -1.5895 0.6295
2.2984 -1.3048 0.5959
2.3011 -1.0469 0.5700
2.3035 -0.8088 0.5504
2.3058 -0.5847 0.5363
2.3080 -0.3701 0.5270
2.3102 -0.1612 0.5221
2.3123 0.0455 0.5215
2.3145 0.2533 0.5250
2.3167 0.4656 0.5328
2.3189 0.6861 0.5452
2.3213 0.9191 0.5629
2.3239 1.1697 0.5866
2.3268 1.4447 0.6175
2.3300 1.7528 0.6574
2.3336 2.1066 0.7088
5.9506 6.4240 1.9743
1.0705 1.3855 0.3948
0.9475 1.4832 0.3968
0.8151 1.5689 0.3986
0.6745 1.6416 0.4002
0.5270 1.7005 0.4014
0.3741 1.7448 0.4023
0.2172 1.7739 0.4030
0.0582 1.7875 0.4032
-0.1015 1.7854 0.4032
-0.2602 1.7676 0.4028
-0.4161 1.7344 0.4021
-0.5677 1.6861 0.4011
-0.7136 1.6234 0.3998
-0.8521 1.5471 0.3982
-0.9821 1.4580 0.3964
-5.5377 6.8184 1.9805
-6.0945 6.2669 1.9710
-6.5945 5.6684 1.9606
-7.0312 5.0269 1.9488
-7.3805 4.3378 1.9302
-7.7208 3.6539 1.9259
-7.9641 2.9315 1.9134
-8.1395 2.1947 1.9007
-8.2467 1.4499 1.8879
-8.2863 0.7036 1.8750
-8.2537 -0.0382 1.8610
-8.1421 -0.7672 1.8439
-6.7134 -1.2444 1.5394
-6.0251 -1.6845 1.4106
-5.8764 -2.2250 1.4167
-6.0909 -2.9518 1.5261
-6.7208 -4.0342 1.7674
-6.2805 -4.5786 1.7524
-5.8011 -5.0804 1.7386
-1.0494 -1.0993 0.3427
-0.9423 -1.1824 0.3409
-0.8293 -1.2561 0.3394
-0.7111 -1.3198 0.3380
-0.5886 -1.3734 0.3369
-0.4624 -1.4166 0.3360
-0.3335 -1.4492 0.3353
-0.2027 -1.4711 0.3348
-0.0706 -1.4823 0.3346
0.0620 -1.4826 0.3346
0.1941 -1.4721 0.3348
0.3251 -1.4509 0.3352
0.4541 -1.4189 0.3359
0.5804 -1.3764 0.3368
0.7032 -1.3234 0.3379
0.8217 -1.2603 0.3392
0.9350 -1.1873 0.3407
1.0425 -1.1048 0.3425
2.2909 -2.0299 0.6901
2.2944 -1.6931 0.6429
2.2974 -1.3972 0.6063
2.3002 -1.1312 0.5779
2.3027 -0.8871 0.5564
2.3050 -0.6588 0.5405
2.3073 -0.4415 0.5297
2.3095 -0.2311 0.5233
2.3116 -0.0241 0.5212
2.3137 0.1830 0.5233
2.3159 0.3934 0.5296
2.3182 0.6107 0.5405
2.3205 0.8389 0.5563
2.3230 1.0830 0.5779
2.3258 1.3489 0.6062
2.3289 1.6447 0.6428
2.3323 1.9814 0.6900
2.3364 2.3749 0.7511
1.1096 1.3502 0.3940
0.9901 1.4516 0.3962
0.8607 1.5414 0.3981
0.7227 1.6187 0.3997
0.5773 1.6823 0.4010
0.4261 1.7316 0.4021
0.2704 1.7659 0.4028
0.1119 1.7847 0.4032
-0.0478 1.7879 0.4033
-0.2070 1.7754 0.4030
-0.3640 1.7473 0.4024
-0.5173 1.7040 0.4015
-0.6652 1.6461 0.4003
-0.8064 1.5742 0.3988
-0.9394 1.4893 0.3970
-1.0630 1.3924 0.3950
-5.9132 6.4581 1.9743
-6.4328 5.8748 1.9642
-6.8931 5.2484 1.9534
-7.2909 4.5856 1.9420
-7.5937 3.8774 1.9224
-7.8898 3.1767 1.9177
-8.0881 2.4439 1.9050
-8.2182 1.7011 1.8922
-8.2805 0.9546 1.8793
-8.2758 0.2107 1.8665
-8.1867 -0.5237 1.8496
-8.0339 -1.2406 1.8328
-6.0848 -1.5055 1.4133
-5.8073 -2.0013 1.3849
-6.0899 -2.7284 1.5046
-6.8573 -3.8405 1.7721
-6.4333 -4.4000 1.7573
-5.9666 -4.9164 1.7431
-1.0840 -1.0692 0.3433
-0.9791 -1.1555 0.3415
-0.8680 -1.2324 0.3399
-0.7514 -1.2995 0.3384
-0.6303 -1.3565 0.3372
-0.5053 -1.4032 0.3363
-0.3772 -1.4394 0.3355
-0.2469 -1.4649 0.3350
-0.1151 -1.4797 0.3346
0.0174 -1.4837 0.3346
0.1497 -1.4769 0.3347
0.2812 -1.4592 0.3351
0.4110 -1.4308 0.3356
0.5383 -1.3918 0.3365
0.6623 -1.3424 0.3375
0.7823 -1.2827 0.3387
0.8975 -1.2130 0.3402
1.0070 -1.1336 0.3419
2.2897 -2.1551 0.7089
2.2933 -1.8012 0.6575
2.2965 -1.4930 0.6176
2.2993 -1.2180 0.5867
2.3019 -0.9673 0.5630
2.3043 -0.7343 0.5453
2.3065 -0.5137 0.5328
2.3087 -0.3014 0.5250
2.3109 -0.0936 0.5215
2.3130 0.1131 0.5221
2.3152 0.3219 0.5270
2.3174 0.5365 0.5363
2.3197 0.7606 0.5504
2.3222 0.9987 0.5699
2.3248 1.2565 0.5958
2.3278 1.5412 0.6295
2.3311 1.8627 0.6728
2.3350 2.2348 0.7287
5.7680 6.6034 1.9769
1.0314 1.4187 0.3955
0.9053 1.5125 0.3974
0.7700 1.5941 0.3992
0.6270 1.6624 0.4006
0.4776 1.7166 0.4017
0.3232 1.7560 0.4026
0.1654 1.7801 0.4031
0.0060 1.7886 0.4033
-0.1536 1.7813 0.4031
-0.3115 1.7584 0.4026
-0.4662 1.7202 0.4018
-0.6161 1.6672 0.4007
-0.7597 1.5999 0.3993
-0.8956 1.5193 0.3976
-1.0225 1.4263 0.3957
-5.7256 6.6438 1.9775
-6.2643 6.0763 1.9677
-6.7450 5.4637 1.9571
-7.1641 4.8124 1.9459
-7.4891 4.1125 1.9264
-7.8078 3.4199 1.9219
-8.0289 2.6920 1.9093
-8.1820 1.9519 1.8965
-8.2671 1.2060 1.8837
-8.2848 0.4605 1.8708
-8.2242 -0.2781 1.8554
-8.0921 -1.0015 1.8384
-6.0840 -1.3124 1.4033
-5.8612 -1.8246 1.3841
-6.0890 -2.5109 1.4850
-6.0918 -3.1750 1.5489
-6.5815 -4.2166 1.7623
-5.9644 -4.6206 1.7011
-5.6366 -5.2347 1.7344
-1.0151 -1.1275 0.3421
-0.9060 -1.2076 0.3404
-0.7912 -1.2780 0.3389
-0.6715 -1.3384 0.3376
-0.5477 -1.3886 0.3366
-0.4206 -1.4284 0.3357
-0.2910 -1.4575 0.3351
-0.1596 -1.4760 0.3347
-0.0273 -1.4836 0.3346
0.1052 -1.4804 0.3346
0.2371 -1.4664 0.3349
0.3675 -1.4416 0.3354
0.4957 -1.4061 0.3362
0.6210 -1.3602 0.3371
0.7424 -1.3039 0.3383
0.8593 -1.2375 0.3397
0.9708 -1.1614 0.3413
1.0762 -1.0758 0.3431
2.2921 -1.9145 0.6734
2.2954 -1.5925 0.6299
2.2984 -1.3075 0.5962
2.3010 -1.0494 0.5702
2.3035 -0.8111 0.5506
2.3058 -0.5869 0.5365
2.3080 -0.3722 0.5271
2.3102 -0.1633 0.5222
2.3123 0.0434 0.5214
2.3144 0.2512 0.5249
2.3166 0.4634 0.5327
2.3189 0.6838 0.5451
2.3213 0.9167 0.5627
2.3239 1.1671 0.5863
2.3268 1.4418 0.6172
2.3299 1.7496 0.6569
2.3336 2.1028 0.7082
5.9562 6.4185 1.9743
1.0717 1.3845 0.3948
0.9488 1.4823 0.3968
0.8165 1.5681 0.3986
0.6759 1.6410 0.4001
0.5285 1.7000 0.4014
0.3756 1.7445 0.4023
0.2188 1.7737 0.4029
0.0597 1.7875 0.4032
-0.0999 1.7855 0.4032
-0.2586 1.7679 0.4028
-0.4146 1.7348 0.4022
-0.5663 1.6867 0.4011
-0.7121 1.6241 0.3998
-0.8508 1.5479 0.3982
-0.9809 1.4589 0.3964
-5.5319 6.8236 1.9806
-6.0892 6.2727 1.9711
-6.5899 5.6746 1.9607
-7.0137 5.0239 1.9452
-7.3771 4.3447 1.9303
-7.7180 3.6610 1.9260
-7.9621 2.9388 1.9136
-8.1381 2.2021 1.9009
-8.2460 1.4573 1.8880
-8.2863 0.7110 1.8751
-8.2545 -0.0308 1.8611
-8.1435 -0.7601 1.8441
-6.7471 -1.2445 1.5469
-6.0336 -1.6811 1.4122
-5.8705 -2.2167 1.4148
-6.0909 -2.9451 1.5254
-6.7250 -4.0286 1.7675
-6.2851 -4.5734 1.7525
-5.8060 -5.0756 1.7388
