ply
format ascii 1.0
element vertex 1954
property float32 x
property float32 y
property float32 z
end_header
-20.7302 -17.5158 -3.1910
-20.8024 -21.0349 -3.4784
-26.3430 -38.4206 -5.4773
-22.6623 -40.3610 -5.4424
15.7373 -39.1242 -4.9583
17.1918 -33.6904 -4.4472
10.3141 -16.4056 -2.2785
12.1070 -15.9044 -2.3502
12.1009 -13.2511 -2.1099
12.1578 -11.1309 -1.9381
11.9955 -9.1555 -1.7743
12.0880 -7.6210 -1.6802
11.9173 -6.1003 -1.5741
11.9166 -4.8109 -1.5110
11.9116 -3.6104 -1.4634
11.9090 -2.4748 -1.4301
11.9064 -1.3812 -1.4093
12.0192 -0.3136 -1.4137
11.9015 0.7547 -1.4022
12.0260 1.8511 -1.4306
12.0204 2.9688 -1.4558
11.8943 4.0946 -1.4790
38.6884 17.3212 -4.9840
37.1578 20.8018 -5.0069
31.4309 21.4920 -4.4769
29.1252 23.9972 -4.4371
27.7957 27.4188 -4.5906
-24.6899 23.1729 -3.9813
-20.8885 16.3564 -3.1194
-20.8016 13.4775 -2.9143
-20.8762 11.0147 -2.7753
-20.8709 8.7281 -2.6599
-20.8660 6.6078 -2.5734
-20.8614 4.6055 -2.5119
-20.7767 2.6714 -2.4630
-28.0789 1.0807 -3.3039
-33.3020 -1.6978 -3.9206
-32.1273 -4.5387 -3.8149
-22.3921 -5.2370 -2.7038
-20.7547 -6.8584 -2.5701
-20.8301 -9.0178 -2.6688
-20.8248 -11.3217 -2.7870
-20.8189 -13.8604 -2.9407
-20.8123 -16.7195 -3.1389
-20.8047 -20.0202 -3.3948
-27.7691 -38.4239 -5.5741
-23.1069 -38.8654 -5.3163
9.2926 -33.8053 -4.1222
15.7153 -42.0490 -5.2780
16.1540 -33.6928 -4.3933
20.0302 -33.6839 -4.6078
16.2401 -22.4675 -3.2595
12.1025 -13.9307 -2.1697
12.0455 -11.5893 -1.9654
12.0928 -9.7130 -1.8237
10.2921 -6.8508 -1.4537
11.9182 -6.4782 -1.5949
11.7527 -5.0868 -1.5057
11.9123 -3.9354 -1.4751
11.9097 -2.7844 -1.4381
11.9071 -1.6811 -1.4139
12.0199 -0.6118 -1.4151
11.9022 0.4591 -1.4005
11.8997 1.5310 -1.4107
12.0220 2.6551 -1.4476
11.9753 3.7934 -1.4770
36.7128 15.3567 -4.6790
9.2780 6.0124 -1.2999
29.4039 23.0282 -4.3913
9.1570 8.5958 -1.4766
-20.8905 17.2094 -3.1824
-20.8837 14.2774 -2.9744
-20.8778 11.6855 -2.8131
-20.8724 9.3426 -2.6887
-20.8674 7.1816 -2.5948
-20.8627 5.1509 -2.5266
-20.7779 3.1966 -2.4717
-20.7735 1.3154 -2.4474
-33.3039 -0.8717 -3.9171
-17.7681 -2.0627 -2.1032
-25.2218 -5.2436 -3.0289
-20.8363 -6.3174 -2.5600
-20.8315 -8.4120 -2.6415
-20.8263 -10.6629 -2.7510
-20.8206 -13.1290 -2.8941
-20.8142 -15.8892 -3.0789
-20.7268 -18.9793 -3.3043
-28.4459 -31.1550 -4.9603
-29.2472 -38.4273 -5.6780
-24.1479 -38.4171 -5.3352
15.6990 -34.9383 -4.5036
18.9183 -33.6864 -4.5426
9.4123 -13.7251 -1.9568
12.0635 -14.6011 -2.2269
11.9911 -12.1231 -2.0049
12.0939 -10.2170 -1.8615
11.9938 -8.4196 -1.7230
12.0865 -6.9629 -1.6400
10.5551 -4.8823 -1.3674
12.0284 -4.3070 -1.5022
11.9104 -3.0976 -1.4470
11.9078 -1.9832 -1.4194
12.0206 -0.9108 -1.4174
11.9029 0.1640 -1.3996
11.9004 1.2323 -1.4067
12.0236 2.3447 -1.4403
12.0179 3.4818 -1.4711
36.3260 14.1482 -4.5836
34.6690 21.2662 -4.7821
30.0761 22.3753 -4.4075
27.6924 24.7340 -4.3656
18.3932 28.4728 -3.9855
-24.6857 21.3840 -3.8400
-20.8855 15.0510 -3.0269
-20.8793 12.3753 -2.8537
-20.8738 9.9710 -2.7199
-20.8687 7.7653 -2.6180
-20.8640 5.7030 -2.5431
-20.7791 3.7258 -2.4821
-20.7747 1.8332 -2.4521
-33.3058 -0.0464 -3.9160
-33.2990 -3.0320 -3.9314
-28.8271 -5.2519 -3.4452
-20.8376 -5.7583 -2.5418
-20.8328 -7.8182 -2.6163
-20.8278 -10.0205 -2.7175
-20.8222 -12.4201 -2.8507
-20.8161 -15.0894 -3.0229
-20.8091 -18.1277 -3.2449
-20.7208 -21.5947 -3.5188
-17.6981 -22.0953 -3.3285
-25.4981 -38.4187 -5.4215
-22.6589 -41.8213 -5.5926
15.7046 -37.4026 -4.7696
17.8369 -33.6889 -4.4820
21.8902 -33.6796 -4.7229
12.1059 -15.4146 -2.3045
12.1000 -12.8550 -2.0757
12.0745 -10.7241 -1.8988
12.0910 -8.9429 -1.7682
11.9996 -7.3146 -1.6523
11.9168 -5.8748 -1.5622
11.9561 -4.6183 -1.5070
11.9111 -3.4149 -1.4569
11.9085 -2.2878 -1.4258
11.9062 -1.1994 -1.4070
11.9058 -0.1308 -1.3999
11.9011 0.9352 -1.4036
12.0251 2.0372 -1.4340
12.0195 3.1618 -1.4613
11.9028 4.2995 -1.4880
41.9461 19.5448 -5.4410
15.3951 8.9263 -2.0924
30.5052 21.5416 -4.3908
29.0132 24.6493 -4.4762
27.4904 27.9487 -4.6093
19.0363 27.9258 -3.9737
-19.7183 31.1765 -4.3373
-24.6883 22.4804 -3.9259
-20.8874 15.8529 -3.0831
-20.8810 13.0859 -2.8974
-20.8753 10.6145 -2.7535
-20.8701 8.3599 -2.6434
-20.8653 6.2627 -2.5614
-20.8607 4.2762 -2.5037
-20.7759 2.3531 -2.4584
-32.7384 0.7654 -3.8503
-33.3009 -2.2020 -3.9240
-28.9174 -4.5313 -3.4415
-20.9472 -5.2337 -2.5386
-20.8342 -7.2352 -2.5931
-20.8292 -9.3931 -2.6865
-20.8238 -11.7318 -2.8102
-20.8179 -14.3178 -2.9707
-20.8111 -17.2417 -3.1776
-20.8033 -20.6325 -3.4450
-26.8943 -38.4219 -5.5143
-22.7413 -39.5988 -5.3691
15.7110 -40.1777 -5.0723
16.7832 -33.6914 -4.4256
20.7236 -33.6823 -4.6498
12.1078 -16.2290 -2.3807
12.0528 -13.4578 -2.1242
12.1583 -11.3496 -1.9556
12.0921 -9.4158 -1.8020
12.0884 -7.7858 -1.6906
11.9176 -6.2468 -1.5821
11.9168 -4.9457 -1.5170
11.9119 -3.7368 -1.4679
11.9092 -2.5954 -1.4331
11.9067 -1.4982 -1.4110
12.0195 -0.4300 -1.4141
11.9018 0.6391 -1.4014
12.0266 1.7322 -1.4286
12.0211 2.8458 -1.4525
11.9168 3.9738 -1.4770
37.9562 16.5543 -4.8688
9.1719 6.1422 -1.2979
28.6920 23.1777 -4.3367
27.9902 27.0811 -4.5792
20.1052 27.9787 -4.0509
-20.8893 16.6857 -3.1434
-20.8827 13.8189 -2.9442
-20.8768 11.2747 -2.7897
-20.8715 8.9667 -2.6709
-20.8666 6.8309 -2.5815
-20.8619 4.8179 -2.5174
-20.7771 2.8762 -2.4662
-22.6868 1.0931 -2.6705
-33.3028 -1.3748 -3.9190
-17.7946 -2.3385 -2.1102
-23.4223 -5.2394 -2.8220
-20.8355 -6.6622 -2.5720
-20.8306 -8.7796 -2.6579
-20.8254 -11.0622 -2.7726
-20.7394 -13.5195 -2.9108
-20.8131 -16.3912 -3.1149
-20.8056 -19.6367 -3.3638
-28.0920 -31.7155 -4.9815
-28.3401 -38.4252 -5.6138
-23.4524 -38.5911 -5.3096
15.5641 -42.9059 -5.3664
15.7552 -33.6937 -4.3733
19.5920 -33.6849 -4.5818
16.2382 -22.9290 -3.3035
10.3083 -12.1001 -1.8690
12.0977 -11.8673 -1.9925
12.0932 -9.9075 -1.8381
12.0893 -8.2171 -1.7187
11.9185 -6.6287 -1.6035
11.2728 -5.0092 -1.4504
11.9130 -4.0638 -1.4799
11.9100 -2.9063 -1.4414
11.9074 -1.7989 -1.4159
12.0202 -0.7285 -1.4159
11.9025 0.3438 -1.4000
11.9000 1.4141 -1.4090
12.0226 2.5334 -1.4446
12.0113 3.6773 -1.4770
36.5363 14.8690 -4.6379
31.6979 20.1081 -4.4136
31.1065 23.8796 -4.6108
9.2800 8.5439 -1.4831
-17.6381 17.7361 -2.9410
-20.8108 17.4847 -3.1958
-20.8844 14.5764 -2.9945
-20.8784 11.9527 -2.8286
-20.8729 9.5864 -2.7006
-20.8679 7.4084 -2.6036
-20.7828 5.3451 -2.5231
-20.7783 3.4028 -2.4756
-20.7740 1.5175 -2.4491
-33.3047 -0.5491 -3.9164
-33.2978 -3.5392 -3.9371
-26.5221 -5.2466 -3.1788
-20.8368 -6.0979 -2.5527
-20.7518 -8.1472 -2.6212
-20.8269 -10.4100 -2.7376
-20.8212 -12.8495 -2.8768
-20.8150 -15.5731 -3.0565
-20.8035 -18.6825 -3.2876
-28.7506 -30.8829 -4.9611
-29.8401 -38.4287 -5.7206
-24.6698 -38.4168 -5.3681
-22.6553 -43.3643 -5.7525
15.7891 -36.0688 -4.6294
18.4922 -33.6874 -4.5184
9.2513 -13.7744 -1.9509
12.0642 -14.8931 -2.2535
11.9915 -7.3989 -1.5688
11.9170 -5.9553 -1.4832
12.0294 -4.7216 -1.4388
11.9113 -3.4848 -1.3818
11.9087 -2.3547 -1.3515
11.9062 -1.2645 -1.3330
12.0190 -0.1972 -1.3383
11.9013 0.8704 -1.3286
12.0254 1.9704 -1.3567
12.0198 3.0924 -1.3818
12.5351 4.4514 -1.4810
39.5653 18.1755 -4.8476
36.6798 21.0031 -4.7059
31.3809 21.9065 -4.2609
29.2775 24.6023 -4.2577
27.6424 27.8005 -4.3649
19.1070 27.7061 -3.7471
-24.6888 22.7265 -3.7360
-20.8878 16.0321 -2.9316
-20.8813 13.2440 -2.7530
-20.7952 10.7159 -2.6046
-20.8704 8.4915 -2.5086
-20.8655 6.3861 -2.4295
-20.8610 4.3941 -2.3735
-20.8565 2.4767 -2.3384
-33.3081 0.9591 -3.7099
-33.3013 -2.0211 -3.7145
-29.9936 -4.5338 -3.3773
-21.4445 -5.2349 -2.4577
-20.7542 -7.0818 -2.4415
-20.8295 -9.2580 -2.5378
-20.8242 -11.5839 -2.6531
-20.8182 -14.1526 -2.8027
-20.8116 -17.0530 -2.9956
-20.8038 -20.4109 -3.2448
-27.5157 -38.8602 -5.3013
-23.4264 -40.2854 -5.1885
15.8006 -41.0605 -4.8983
16.5565 -33.6919 -4.1796
20.4735 -33.6829 -4.3886
12.0831 -16.3801 -2.2662
12.1019 -13.6606 -2.0319
12.1586 -11.4736 -1.8613
12.0923 -9.5216 -1.7136
10.3996 -6.7780 -1.3821
11.9178 -6.3294 -1.5024
11.7913 -4.9686 -1.4246
11.9120 -3.8078 -1.3924
11.9094 -2.6630 -1.3587
11.9069 -1.5637 -1.3371
12.0196 -0.4952 -1.3394
11.9019 0.5745 -1.3267
12.0270 1.6659 -1.3518
12.0214 2.7773 -1.3737
12.0156 3.9345 -1.4077
37.9057 16.2885 -4.5934
9.1951 6.0859 -1.2277
28.4974 22.7667 -4.0610
9.1134 8.7224 -1.4045
19.3077 26.5643 -3.6563
12.7144 45.7834 -5.2903
-20.8897 16.8720 -2.9896
-20.8830 13.9823 -2.7981
-20.8771 11.4212 -2.6495
-20.8718 9.1009 -2.5351
-20.7920 6.9313 -2.4401
-20.8622 4.9370 -2.3869
-20.8577 3.0024 -2.3462
-20.7731 1.1137 -2.3161
-33.3032 -1.1943 -3.7102
-17.6687 -2.2247 -1.9827
-24.0386 -5.2408 -2.7392
-20.7843 -6.5220 -2.4253
-20.8309 -8.6473 -2.5111
-20.7455 -10.8763 -2.6079
-20.8200 -13.4120 -2.7574
-20.7561 -16.1651 -2.9291
-20.8061 -19.4254 -3.1692
-28.6631 -38.4260 -5.3373
-24.1086 -39.1913 -5.1229
15.5337 -33.6942 -4.1309
19.3491 -33.6854 -4.3251
16.2419 -23.1994 -3.1530
12.1035 -14.3640 -2.0913
12.0980 -11.9967 -1.8969
11.9973 -9.9379 -1.7345
12.0896 -8.3133 -1.6335
11.9187 -6.7135 -1.5230
10.5721 -4.7665 -1.2912
11.9144 -4.1365 -1.4042
11.9101 -2.9747 -1.3668
11.9076 -1.8649 -1.3419
12.0203 -0.7938 -1.3412
11.9026 0.2793 -1.3256
11.9002 1.3489 -1.3334
12.0229 2.4656 -1.3664
12.0172 3.6081 -1.3970
36.4944 14.6223 -4.3772
34.6017 21.6885 -4.5466
31.0952 23.6045 -4.3465
27.4314 24.9824 -4.1309
24.5865 26.7820 -4.0478
18.1944 28.7724 -3.7902
-20.8112 17.6781 -3.0402
-20.8411 14.7146 -2.8404
-20.7983 12.0568 -2.6766
-20.8732 9.7238 -2.5637
-20.7878 7.5069 -2.4607
-20.8635 5.4864 -2.4018
-20.8590 3.5320 -2.3554
-20.8546 1.6369 -2.3290
-33.3051 -0.3688 -3.7083
-33.2982 -3.3571 -3.7261
-27.3065 -5.2484 -3.0959
-20.8371 -5.9758 -2.4134
-20.8323 -8.0489 -2.4865
-20.8272 -10.2697 -2.5854
-20.8216 -12.6946 -2.7151
-20.8154 -15.3984 -2.8827
-20.8083 -18.4842 -3.0988
-29.8843 -31.7544 -4.8548
-30.1755 -38.4294 -5.4400
-25.4608 -39.1806 -5.2024
-22.6566 -42.8008 -5.3918
-17.6956 -42.1538 -5.0900
15.7146 -36.4341 -4.4177
18.2560 -33.6880 -4.2660
9.2508 -13.9360 -1.8623
12.1055 -15.1107 -2.1557
12.0580 -12.5645 -1.9389
12.0947 -10.5344 -1.7858
12.0906 -8.7628 -1.6625
12.0870 -7.2083 -1.5669
10.2877 -4.9485 -1.2710
12.0289 -4.5131 -1.4304
11.9108 -3.2904 -1.3758
11.9083 -2.1685 -1.3476
11.9081 -1.0833 -1.3313
11.9034 -0.0156 -1.3253
11.9008 1.0511 -1.3302
12.0245 2.1571 -1.3601
12.0188 3.2863 -1.3873
36.3036 13.5121 -4.3128
40.1524 19.1843 -4.9545
15.2727 9.0540 -1.9767
29.5996 21.3345 -4.0623
28.0788 24.3274 -4.1363
18.6744 27.9729 -3.7446
-29.0459 31.0260 -4.7318
-24.6873 22.0462 -3.6850
-20.8866 15.5360 -2.8982
-20.8803 12.8057 -2.7271
-20.8747 10.3612 -2.5947
-20.7892 8.0950 -2.4839
-20.8647 6.0430 -2.4185
-20.7798 4.0505 -2.3571
-20.8558 2.1579 -2.3344
-33.3070 0.4562 -3.7086
-33.3001 -2.5259 -3.7182
-31.5553 -5.2582 -3.5617
-20.7581 -5.4005 -2.3881
-20.7534 -7.4331 -2.4543
-20.8287 -9.6366 -2.5552
-20.8232 -11.9984 -2.6757
-20.8172 -14.6161 -2.8319
-20.7302 -17.5158 -3.0216
-20.7633 -20.9954 -3.2876
-26.8673 -39.1852 -5.2897
-23.3121 -41.5183 -5.3013
15.7373 -39.1242 -4.6951
17.1918 -33.6904 -4.2111
10.3141 -16.4056 -2.1575
12.0664 -15.8510 -2.2180
12.1009 -13.2511 -1.9979
12.1578 -11.1308 -1.8352
11.9955 -9.1555 -1.6801
12.0880 -7.6210 -1.5910
11.9173 -6.1003 -1.4906
12.0297 -4.8566 -1.4444
11.9116 -3.6104 -1.3858
11.9090 -2.4748 -1.3542
11.9064 -1.3812 -1.3345
12.0192 -0.3136 -1.3386
11.9015 0.7547 -1.3277
12.0260 1.8511 -1.3547
12.0204 2.9688 -1.3785
12.0145 4.1360 -1.4147
39.2016 17.5509 -4.7820
37.1563 20.8010 -4.7410
31.4574 21.5100 -4.2428
29.1669 24.0316 -4.2076
27.8381 27.4606 -4.3536
16.9765 29.3763 -3.7775
-24.6899 23.1729 -3.7700
-20.8885 16.3564 -2.9538
-20.8016 13.4775 -2.7596
-20.8762 11.0147 -2.6280
-20.8709 8.7281 -2.5187
-20.8661 6.6078 -2.4369
-20.8614 4.6055 -2.3786
-20.7767 2.6714 -2.3322
-28.0789 1.0807 -3.1285
-33.3020 -1.6978 -3.7125
-32.1273 -4.5387 -3.6124
-22.3921 -5.2370 -2.5603
-20.7547 -6.8584 -2.4337
-20.8301 -9.0178 -2.5271
-20.8248 -11.3217 -2.6391
-20.8189 -13.8604 -2.7846
-20.8123 -16.7195 -2.9723
-20.8047 -20.0202 -3.2146
-27.8905 -38.5920 -5.3013
-23.5358 -39.5868 -5.1276
9.2922 -33.8040 -3.9032
15.7153 -42.0490 -4.9979
16.1540 -33.6928 -4.1601
20.0302 -33.6839 -4.3632
16.2402 -22.4676 -3.0865
12.1025 -13.9307 -2.0546
12.0454 -11.5893 -1.8610
12.0928 -9.7130 -1.7269
10.2921 -6.8508 -1.3765
11.9182 -6.4782 -1.5103
11.2902 -4.8866 -1.3697
11.9123 -3.9354 -1.3968
11.9097 -2.7844 -1.3617
11.9071 -1.6811 -1.3388
12.0199 -0.6118 -1.3400
11.9022 0.4591 -1.3261
11.8997 1.5310 -1.3358
12.0220 2.6551 -1.3707
12.0162 3.8064 -1.4034
36.5698 15.2969 -4.4134
9.2777 6.0122 -1.2309
29.5556 23.1470 -4.1797
9.1570 8.5958 -1.3984
20.3736 27.4679 -3.8076
-20.8905 17.2094 -3.0134
-20.8837 14.2774 -2.8166
-20.8778 11.6855 -2.6638
-20.8724 9.3426 -2.5460
-20.7870 7.1540 -2.4476
-20.8627 5.1509 -2.3925
-20.8582 3.2089 -2.3496
-20.7735 1.3154 -2.3175
-33.3039 -0.8717 -3.7092
-17.7673 -2.0626 -1.9914
-25.2218 -5.2436 -2.8681
-20.8363 -6.3174 -2.4241
-20.8315 -8.4120 -2.5013
-20.8263 -10.6629 -2.6050
-20.8206 -13.1290 -2.7405
-20.8142 -15.8892 -2.9154
-20.8069 -19.0527 -3.1411
-28.4468 -31.1560 -4.6972
-29.2472 -38.4273 -5.3766
-24.6262 -39.1779 -5.1521
15.6603 -34.8521 -4.2540
18.9184 -33.6864 -4.3015
9.4119 -13.7245 -1.8528
12.1042 -14.6503 -2.1158
11.9911 -12.1231 -1.8985
12.0939 -10.2170 -1.7627
11.9938 -8.4196 -1.6315
12.0865 -6.9629 -1.5530
10.1542 -4.6969 -1.2456
12.0284 -4.3070 -1.4225
11.9104 -3.0976 -1.3702
11.9078 -1.9832 -1.3440
12.0206 -0.9108 -1.3422
11.9029 0.1640 -1.3254
11.9004 1.2323 -1.3320
12.0235 2.3447 -1.3639
12.0178 3.4818 -1.3930
36.4190 14.1844 -4.3514
41.9813 20.8420 -5.2184
34.6012 21.2246 -4.5194
30.2282 22.4885 -4.1947
27.6842 24.7267 -4.1327
24.8527 26.5515 -4.0491
18.4477 28.5572 -3.7852
-24.6857 21.3839 -3.6362
-20.8855 15.0510 -2.8662
-20.8793 12.3753 -2.7023
-20.8738 9.9710 -2.5755
-20.7883 7.7354 -2.4695
-20.8640 5.7030 -2.4081
-20.8594 3.7402 -2.3595
-20.8551 1.8403 -2.3309
-33.3058 -0.0464 -3.7082
-33.2990 -3.0320 -3.7227
-28.8271 -5.2519 -3.2623
-20.8376 -5.7583 -2.4069
-20.7526 -7.7881 -2.4679
-20.8278 -10.0205 -2.5733
-20.8222 -12.4201 -2.6994
-20.8161 -15.0894 -2.8624
-20.8091 -18.1277 -3.0726
-20.7208 -21.5947 -3.3321
-17.6976 -22.0947 -3.1518
-26.0050 -39.1824 -5.2358
-22.6828 -41.8654 -5.3013
15.7046 -37.4026 -4.5165
17.8369 -33.6889 -4.2441
21.8902 -33.6796 -4.4722
12.0653 -15.3629 -2.1749
12.1000 -12.8550 -1.9655
12.0745 -10.7241 -1.7980
12.0910 -8.9429 -1.6744
11.9996 -7.3146 -1.5646
11.9168 -5.8748 -1.4792
12.0292 -4.6465 -1.4357
11.9111 -3.4149 -1.3796
11.9085 -2.2878 -1.3501
11.9062 -1.1994 -1.3323
11.9058 -0.1308 -1.3256
11.9011 0.9352 -1.3291
12.0251 2.0372 -1.3579
12.0194 3.1618 -1.3837
36.5524 13.2034 -4.3270
39.7729 18.5322 -4.8853
15.3946 8.9260 -1.9812
30.6174 21.6209 -4.1731
29.0570 24.6865 -4.2450
27.5324 27.9914 -4.3714
18.9518 27.8019 -3.7461
-19.7178 31.1758 -4.1070
-24.6883 22.4804 -3.7175
-20.8874 15.8529 -2.9195
-20.8810 13.0859 -2.7436
-20.8753 10.6145 -2.6074
-20.8701 8.3599 -2.5031
-20.8653 6.2627 -2.4254
-20.8607 4.2762 -2.3708
-20.8563 2.3622 -2.3369
-32.7385 0.7654 -3.6460
-33.3009 -2.2020 -3.7157
-33.2939 -5.2171 -3.7521
-20.9472 -5.2337 -2.4039
-20.7539 -7.2073 -2.4460
-20.8292 -9.3931 -2.5439
-20.8238 -11.7318 -2.6611
-20.8179 -14.3178 -2.8131
-20.8111 -17.2417 -3.0089
-20.8033 -20.6325 -3.2621
-27.3049 -39.0085 -5.3013
-23.4255 -40.7902 -5.2371
15.7110 -40.1777 -4.8031
16.7832 -33.6914 -4.1907
20.7236 -33.6823 -4.4030
12.1078 -16.2290 -2.2543
12.0528 -13.4578 -2.0114
12.1583 -11.3496 -1.8518
12.0921 -9.4158 -1.7063
12.0884 -7.7858 -1.6009
11.9176 -6.2468 -1.4981
11.9704 -4.9679 -1.4430
11.9119 -3.7368 -1.3899
11.9092 -2.5954 -1.3571
11.9067 -1.4982 -1.3361
12.0195 -0.4300 -1.3391
11.9018 0.6391 -1.3270
12.0266 1.7322 -1.3528
12.0210 2.8458 -1.3754
12.0152 4.0066 -1.4101
37.4382 16.3283 -4.5474
9.1717 6.1420 -1.2290
28.7321 23.2101 -4.1123
28.0327 27.1222 -4.3428
19.0444 26.5024 -3.6335
-20.8893 16.6857 -2.9766
-20.8827 13.8189 -2.7880
-20.8768 11.2747 -2.6417
-20.8715 8.9667 -2.5291
-20.8292 6.8187 -2.4401
-20.8619 4.8179 -2.3838
-20.8575 2.8873 -2.3443
-22.6869 1.0931 -2.5288
-33.3028 -1.3748 -3.7110
-17.7930 -2.3383 -1.9980
-23.4223 -5.2394 -2.6722
-20.7552 -6.6365 -2.4261
-20.8306 -8.7796 -2.5168
-20.8254 -11.0622 -2.6254
-20.7394 -13.5195 -2.7563
-20.8131 -16.3912 -2.9496
-20.8056 -19.6367 -3.1852
-28.3401 -38.4252 -5.3158
-23.8379 -39.2256 -5.1104
15.5641 -42.9059 -5.0816
15.7552 -33.6937 -4.1412
19.5920 -33.6849 -4.3386
16.2413 -22.9334 -3.1288
10.3083 -12.1001 -1.7698
12.0977 -11.8673 -1.8868
12.0932 -9.9075 -1.7406
12.0893 -8.2171 -1.6275
11.9185 -6.6287 -1.5184
10.8197 -4.8079 -1.3182
11.9130 -4.0638 -1.4014
11.9100 -2.9063 -1.3649
11.9074 -1.7989 -1.3408
12.0202 -0.7285 -1.3407
11.9025 0.3438 -1.3257
11.9000 1.4141 -1.3342
12.0226 2.5334 -1.3679
12.0168 3.6790 -1.3992
36.5371 14.8693 -4.3919
31.7242 20.1248 -4.1828
31.1378 23.9036 -4.3705
9.2800 8.5439 -1.4044
24.4376 26.9108 -4.0472
20.7242 27.3826 -3.8234
-17.6377 17.7356 -2.7848
-20.8108 17.4847 -3.0262
-20.8844 14.5764 -2.8355
-20.8784 11.9527 -2.6785
-20.8729 9.5864 -2.5573
-20.7875 7.3799 -2.4559
-20.7828 5.3451 -2.3892
-20.8587 3.4159 -2.3533
-20.8543 1.5234 -2.3280
-33.3047 -0.5491 -3.7085
-33.2978 -3.5392 -3.7281
-26.5221 -5.2466 -3.0101
-20.8368 -6.0979 -2.4172
-20.7518 -8.1472 -2.4821
-20.8269 -10.4100 -2.5923
-20.8212 -12.8495 -2.7241
-20.8150 -15.5731 -2.8943
-20.8078 -18.6863 -3.1137
-28.7515 -30.8838 -4.6979
-29.8401 -38.4287 -5.4169
-25.1597 -39.1796 -5.1841
-22.6553 -43.3643 -5.4472
15.7068 -35.8809 -4.3609
18.4922 -33.6874 -4.2786
9.2510 -13.7740 -1.8473
12.1054 -14.9440 -2.1412
11.9915 -7.3989 -1.4810
11.9170 -5.9553 -1.4002
12.0294 -4.7216 -1.3582
11.9113 -3.4848 -1.3044
11.9087 -2.3547 -1.2759
11.9062 -1.2645 -1.2584
12.0190 -0.1972 -1.2634
11.9013 0.8704 -1.2542
12.0254 1.9704 -1.2808
12.0197 3.0924 -1.3045
36.8534 13.0871 -4.1104
39.6968 18.2359 -4.5915
36.6784 21.0022 -4.4423
31.4074 21.9250 -4.0258
29.3218 24.6395 -4.0255
26.2830 26.4334 -3.9179
19.2197 27.8694 -3.5582
16.7037 29.5612 -3.5687
-24.6888 22.7265 -3.5269
-20.8878 16.0321 -2.7675
-20.8813 13.2440 -2.5989
-20.7952 10.7159 -2.4588
-20.8704 8.4915 -2.3682
-20.8655 6.3861 -2.2935
-20.8610 4.3941 -2.2407
-20.8565 2.4767 -2.2075
-49.6481 1.4297 -5.2204
-21.4445 -5.2349 -2.3201
-20.8345 -7.1092 -2.3138
-20.8295 -9.2580 -2.3958
-20.8242 -11.5839 -2.5046
-20.8182 -14.1526 -2.6458
-20.8116 -17.0530 -2.8279
-20.8038 -20.4109 -3.0632
-27.7478 -39.1881 -5.0468
-23.4264 -40.2853 -4.8980
15.8006 -41.0604 -4.6241
16.5565 -33.6919 -3.9456
20.4735 -33.6829 -4.1429
12.0831 -16.3801 -2.1394
12.1019 -13.6606 -1.9182
12.1586 -11.4736 -1.7571
12.0923 -9.5216 -1.6177
10.3996 -6.7780 -1.3047
11.9178 -6.3294 -1.4183
11.3088 -4.7653 -1.2898
11.9120 -3.8078 -1.3144
11.9094 -2.6630 -1.2826
11.9069 -1.5637 -1.2622
12.0196 -0.4952 -1.2644
11.9019 0.5745 -1.2524
12.0270 1.6659 -1.2762
12.0213 2.7773 -1.2968
12.0155 3.9345 -1.3289
37.9996 16.3289 -4.3471
9.1949 6.0857 -1.1589
28.5368 22.7982 -3.8390
9.1134 8.7224 -1.3259
19.2857 26.5341 -3.4477
12.7139 45.7817 -4.9939
-20.8897 16.8720 -2.8223
-20.8830 13.9823 -2.6414
-20.8771 11.4212 -2.5012
-20.8718 9.1009 -2.3932
-20.8669 6.9563 -2.3118
-20.8622 4.9370 -2.2533
-20.8577 3.0024 -2.2148
-20.7731 1.1137 -2.1865
-49.6407 -1.7802 -5.2208
-17.6682 -2.2246 -1.8717
-24.0386 -5.2408 -2.5859
-20.8358 -6.5382 -2.2952
-20.8309 -8.6473 -2.3706
-20.7455 -10.8763 -2.4619
-20.8200 -13.4120 -2.6030
-20.7561 -16.1651 -2.7651
-20.8061 -19.4254 -2.9918
-29.2352 -39.1930 -5.1391
-24.1086 -39.1913 -4.8361
15.5337 -33.6942 -3.8996
19.3491 -33.6854 -4.0830
16.2419 -23.1994 -2.9765
12.1035 -14.3640 -1.9742
12.0980 -11.9967 -1.7907
11.9973 -9.9379 -1.6374
12.0896 -8.3133 -1.5421
11.9187 -6.7135 -1.4378
10.2433 -4.6183 -1.1810
11.9144 -4.1365 -1.3256
11.9101 -2.9747 -1.2903
11.9076 -1.8649 -1.2668
12.0203 -0.7938 -1.2661
11.9026 0.2793 -1.2514
11.9002 1.3489 -1.2588
12.0229 2.4656 -1.2900
12.0172 3.6080 -1.3188
36.3516 14.5650 -4.1160
42.1004 21.4116 -4.9643
34.5338 21.6459 -4.2837
31.1264 23.6282 -4.1073
27.4233 24.9750 -3.8985
24.6588 26.8608 -3.8324
21.3156 27.8495 -3.6861
18.0701 28.5759 -3.5536
-20.1306 36.0734 -4.3419
-20.8112 17.6781 -2.8700
-20.8411 14.7146 -2.6814
-20.7983 12.0568 -2.5267
-20.8732 9.7238 -2.4202
-20.8682 7.5360 -2.3320
-20.8635 5.4864 -2.2674
-20.8590 3.5320 -2.2236
-20.8546 1.6369 -2.1986
-49.6435 -0.5498 -5.2181
-27.3065 -5.2484 -2.9226
-20.8371 -5.9758 -2.2784
-20.8323 -8.0489 -2.3473
-20.7470 -10.2301 -2.4313
-20.8216 -12.6946 -2.5631
-20.8154 -15.3984 -2.7213
-20.8083 -18.4842 -2.9253
-29.2320 -31.0612 -4.4831
-25.4608 -39.1806 -4.9112
-17.6950 -42.1524 -4.8049
15.7024 -36.4057 -4.1672
18.2560 -33.6880 -4.0272
9.2497 -13.9343 -1.7579
12.1074 -15.1130 -2.0353
12.0580 -12.5645 -1.8304
12.0947 -10.5344 -1.6858
12.0906 -8.7628 -1.5694
12.0870 -7.2083 -1.4792
10.2877 -4.9485 -1.1999
12.0289 -4.5131 -1.3503
11.9108 -3.2904 -1.2988
11.9083 -2.1685 -1.2722
11.9081 -1.0833 -1.2568
11.9034 -0.0156 -1.2511
11.9008 1.0511 -1.2557
12.0244 2.1571 -1.2840
12.0188 3.2863 -1.3096
36.8280 13.7073 -4.1302
41.5360 19.8453 -4.8383
15.2723 9.0538 -1.8660
29.7058 21.4111 -3.8487
28.0705 24.3202 -3.9036
18.7844 28.1377 -3.5558
-29.0452 31.0252 -4.4668
-24.6873 22.0462 -3.4788
-20.8866 15.5360 -2.7360
-20.8803 12.8057 -2.5745
-20.7957 10.3220 -2.4401
-20.7892 8.0950 -2.3448
-20.8647 6.0430 -2.2831
-20.7798 4.0505 -2.2252
-20.8558 2.1579 -2.2037
-49.6463 0.6801 -5.2185
-31.5553 -5.2582 -3.3623
-20.7581 -5.4005 -2.2544
-20.8337 -7.4618 -2.3259
-20.8287 -9.6366 -2.4121
-20.8232 -11.9984 -2.5259
-20.8172 -14.6161 -2.6734
-20.7302 -17.5158 -2.8525
-20.8024 -21.0349 -3.1094
-26.8673 -39.1852 -4.9937
-23.4238 -41.7174 -5.0286
15.7346 -39.1173 -4.4315
17.1918 -33.6904 -3.9754
10.3141 -16.4056 -2.0368
12.0664 -15.8510 -2.0938
12.1009 -13.2511 -1.8861
12.1578 -11.1309 -1.7325
11.9955 -9.1555 -1.5860
12.0880 -7.6210 -1.5019
11.9173 -6.1003 -1.4071
12.0297 -4.8566 -1.3635
11.9116 -3.6104 -1.3082
11.9090 -2.4748 -1.2784
11.9064 -1.3812 -1.2598
12.0192 -0.3136 -1.2637
11.9015 0.7547 -1.2534
12.0260 1.8511 -1.2789
12.0204 2.9688 -1.3014
12.0145 4.1360 -1.3355
39.3301 17.6085 -4.5292
37.1548 20.8001 -4.4754
31.4839 21.5281 -4.0087
29.2087 24.0660 -3.9778
27.8805 27.5024 -4.1161
17.0364 29.4801 -3.5787
-24.6899 23.1729 -3.5589
-20.8885 16.3564 -2.7885
-20.8016 13.4775 -2.6051
-20.7958 10.9723 -2.4713
-20.8709 8.7281 -2.3777
-20.8660 6.6078 -2.3004
-20.8614 4.6055 -2.2454
-20.7767 2.6714 -2.2017
-28.0789 1.0807 -2.9534
-49.6389 -2.5307 -5.2240
-32.1273 -4.5387 -3.4102
-22.3921 -5.2370 -2.4170
-20.7547 -6.8584 -2.2974
-20.8301 -9.0178 -2.3857
-20.8248 -11.3217 -2.4913
-20.8189 -13.8604 -2.6287
-20.8123 -16.7195 -2.8059
-20.8047 -20.0202 -3.0347
-28.3227 -39.1900 -5.0821
-23.5358 -39.5868 -4.8406
9.2918 -33.8027 -3.6846
15.7153 -42.0490 -4.7181
16.1540 -33.6928 -3.9272
20.0302 -33.6839 -4.1190
16.2402 -22.4676 -2.9138
12.1025 -13.9307 -1.9396
12.0454 -11.5893 -1.7569
12.0928 -9.7130 -1.6302
10.2921 -6.8508 -1.2995
11.9182 -6.4782 -1.4257
10.8381 -4.6910 -1.2413
11.9123 -3.9354 -1.3186
11.9097 -2.7844 -1.2855
11.9071 -1.6811 -1.2639
12.0199 -0.6118 -1.2650
11.9022 0.4591 -1.2519
11.8997 1.5310 -1.2610
12.0219 2.6551 -1.2940
12.0162 3.8064 -1.3248
36.4281 15.2376 -4.1502
9.2775 6.0121 -1.1619
29.7086 23.2668 -3.9661
9.1570 8.5958 -1.3200
24.2425 27.2208 -3.8312
20.3932 27.4942 -3.5979
-20.0077 34.6150 -4.2022
-20.8905 17.2094 -2.8448
-20.8837 14.2774 -2.6589
-20.8778 11.6855 -2.5147
-20.8724 9.3426 -2.4035
-20.8674 7.1816 -2.3195
-20.8627 5.1509 -2.2586
-20.8582 3.2089 -2.2181
-20.7735 1.3154 -2.1878
-49.6418 -1.2993 -5.2193
-17.7664 -2.0625 -1.8799
-25.2218 -5.2436 -2.7076
-20.8363 -6.3174 -2.2884
-20.8315 -8.4120 -2.3613
-20.7461 -10.6218 -2.4497
-20.8206 -13.1290 -2.5871
-20.8142 -15.8892 -2.7522
-20.8069 -19.0527 -2.9652
-28.4477 -31.1570 -4.4344
-29.8314 -39.1949 -5.1770
-24.6262 -39.1779 -4.8637
15.6990 -34.9383 -4.0258
18.9183 -33.6864 -4.0607
9.4115 -13.7239 -1.7490
12.1042 -14.6503 -1.9974
11.9911 -12.1231 -1.7922
12.0939 -10.2170 -1.6640
11.9938 -8.4196 -1.5402
12.0865 -6.9629 -1.4661
10.0245 -4.6369 -1.1609
12.0284 -4.3070 -1.3428
11.9104 -3.0976 -1.2935
11.9078 -1.9832 -1.2688
12.0206 -0.9108 -1.2670
11.9029 0.1640 -1.2512
11.9004 1.2323 -1.2575
12.0235 2.3447 -1.2875
12.0178 3.4818 -1.3151
36.2773 14.1292 -4.0919
41.7090 20.7069 -4.8943
34.5337 21.1832 -4.2581
30.3817 22.6027 -3.9800
27.6759 24.7193 -3.9002
24.7097 26.3987 -3.8004
18.2615 28.2690 -3.5372
-20.2424 37.1134 -4.4432
-24.6857 21.3839 -3.4327
-20.8855 15.0510 -2.7058
-20.8793 12.3753 -2.5510
-20.8738 9.9710 -2.4314
-20.8687 7.7653 -2.3403
-20.8640 5.7030 -2.2733
-20.8594 3.7402 -2.2274
-20.8551 1.8403 -2.2005
-49.6446 -0.0692 -5.2179
-28.8271 -5.2519 -3.0797
-20.8376 -5.7583 -2.2722
-20.8328 -7.8182 -2.3387
-20.7938 -10.0042 -2.4253
-20.8222 -12.4201 -2.5483
-20.8161 -15.0894 -2.7022
-20.8091 -18.1277 -2.9006
-20.7208 -21.5947 -3.1456
-17.6971 -22.0941 -2.9753
-26.0049 -39.1824 -4.9427
-23.4211 -43.2281 -5.1675
15.7046 -37.4026 -4.2637
17.8369 -33.6889 -4.0065
16.2460 -24.9957 -3.1333
12.1077 -15.4169 -2.0604
12.1000 -12.8550 -1.8555
12.0745 -10.7241 -1.6974
12.0910 -8.9429 -1.5807
11.9996 -7.3146 -1.4771
11.9168 -5.8748 -1.3964
12.0292 -4.6465 -1.3554
11.9111 -3.4149 -1.3023
11.9085 -2.2878 -1.2745
11.9062 -1.1994 -1.2577
11.9058 -0.1308 -1.2514
11.9011 0.9352 -1.2547
12.0250 2.0372 -1.2819
12.0194 3.1618 -1.3063
36.8443 13.3088 -4.1174
39.9062 18.5943 -4.6273
15.3941 8.9257 -1.8703
30.7303 21.7006 -3.9540
29.1009 24.7237 -4.0134
25.9115 26.3435 -3.8837
22.9160 27.8947 -3.7943
19.0635 27.9657 -3.5573
-19.7174 31.1750 -3.8770
-24.6883 22.4804 -3.5094
-20.8874 15.8529 -2.7560
-20.8810 13.0859 -2.5900
-20.7949 10.5736 -2.4519
-20.8701 8.3599 -2.3630
-20.8653 6.2627 -2.2897
-20.8607 4.2762 -2.2381
-20.8563 2.3622 -2.2061
-32.7385 0.7654 -3.4419
-33.5857 -5.2628 -3.5731
-20.9472 -5.2337 -2.2693
-20.8342 -7.2352 -2.3180
-20.8292 -9.3931 -2.4015
-20.8238 -11.7318 -2.5121
-20.8179 -14.3178 -2.6556
-20.8111 -17.2418 -2.8405
-20.8033 -20.6325 -3.0795
-27.4299 -39.1871 -5.0275
-23.4255 -40.7902 -4.9439
15.7110 -40.1777 -4.5342
16.7832 -33.6914 -3.9562
20.7236 -33.6823 -4.1566
12.1078 -16.2290 -2.1282
12.0528 -13.4578 -1.8988
12.1583 -11.3496 -1.7481
12.0921 -9.4158 -1.6108
12.0884 -7.7858 -1.5113
11.9176 -6.2468 -1.4142
11.5888 -4.8096 -1.3188
11.9119 -3.7368 -1.3121
11.9092 -2.5954 -1.2811
11.9067 -1.4982 -1.2613
12.0195 -0.4300 -1.2641
11.9018 0.6391 -1.2527
12.0266 1.7322 -1.2771
12.0210 2.8458 -1.2984
12.0152 4.0066 -1.3312
39.1464 17.0733 -4.4888
9.1715 6.1419 -1.1601
28.7723 23.2425 -3.8875
26.7504 25.8815 -3.9121
19.0586 26.5222 -3.4327
17.3710 29.3983 -3.5890
-20.8893 16.6857 -2.8100
-20.8827 13.8189 -2.6319
-20.7964 11.2312 -2.4842
-20.8715 8.9667 -2.3876
-20.8666 6.8309 -2.3077
-20.8619 4.8179 -2.2504
-20.8575 2.8873 -2.2131
-22.6869 1.0931 -2.3873
-49.6400 -2.0493 -5.2218
-17.7914 -2.3380 -1.8860
-23.4223 -5.2394 -2.5226
-20.8355 -6.6622 -2.2991
-20.8306 -8.7796 -2.3759
-20.7451 -11.0196 -2.4689
-20.7394 -13.5195 -2.6020
-20.8131 -16.3912 -2.7845
-20.8056 -19.6367 -3.0069
-28.9055 -39.1919 -5.1184
-23.8379 -39.2256 -4.8244
15.5641 -42.9059 -4.7971
15.7552 -33.6937 -3.9094
19.5920 -33.6849 -4.0957
16.2413 -22.9334 -2.9536
10.3083 -12.1001 -1.6707
12.0977 -11.8673 -1.7812
12.0932 -9.9075 -1.6431
12.0893 -8.2171 -1.5364
11.9185 -6.6287 -1.4334
10.4021 -4.6224 -1.1964
11.9130 -4.0638 -1.3230
11.9100 -2.9063 -1.2885
11.9074 -1.7989 -1.2657
12.0202 -0.7285 -1.2657
11.9025 0.3438 -1.2515
11.9000 1.4141 -1.2595
12.0225 2.5334 -1.2914
12.0168 3.6789 -1.3209
36.3936 14.8109 -4.1298
31.7505 20.1414 -3.9519
31.1692 23.9277 -4.1300
9.2800 8.5439 -1.3258
24.5095 26.9900 -3.8319
20.4069 26.9633 -3.5541
-20.0738 35.5184 -4.2881
-17.6372 17.7352 -2.6289
-20.8108 17.4847 -2.8568
-20.8844 14.5764 -2.6768
-20.8784 11.9527 -2.5286
-20.8729 9.5864 -2.4141
-20.8679 7.4084 -2.3274
-20.7828 5.3451 -2.2554
-20.8587 3.4159 -2.2215
-20.8543 1.5234 -2.1977
-49.4319 -0.8150 -5.1962
-26.5221 -5.2466 -2.8416
-20.8368 -6.0979 -2.2819
-20.7518 -8.1472 -2.3432
-20.7466 -10.3699 -2.4378
-20.8212 -12.8495 -2.5716
-20.8150 -15.5731 -2.7323
-20.8078 -18.6863 -2.9394
-28.7524 -30.8848 -4.4351
-30.4367 -39.1969 -5.2160
-25.1597 -39.1796 -4.8939
15.7011 -35.8679 -4.1152
18.4922 -33.6874 -4.0391
9.2508 -13.7736 -1.7439
12.1073 -14.9463 -2.0217
11.9915 -7.3989 -1.3933
11.9170 -5.9553 -1.3173
12.0294 -4.7216 -1.2778
11.9113 -3.4848 -1.2272
11.9087 -2.3547 -1.2003
11.9062 -1.2645 -1.1839
12.0190 -0.1972 -1.1886
11.9013 0.8704 -1.1799
12.0254 1.9704 -1.2049
12.0197 3.0924 -1.2272
37.8936 13.4564 -3.9762
39.8291 18.2967 -4.3340
36.6769 21.0014 -4.1791
31.4340 21.9435 -3.7906
29.3662 24.6768 -3.7928
26.1053 26.2547 -3.6610
23.2132 27.9466 -3.5923
18.1942 26.3824 -3.1689
16.7626 29.6655 -3.3692
-24.6888 22.7265 -3.3181
-20.8878 16.0321 -2.6036
-20.8397 13.2176 -2.4401
-20.7952 10.7159 -2.3132
-20.8704 8.4915 -2.2279
-20.8655 6.3861 -2.1577
-20.8610 4.3941 -2.1080
-20.8565 2.4767 -2.0768
-49.6481 1.4297 -4.9112
-49.6378 -3.0126 -4.9172
-21.4445 -5.2349 -2.1827
-20.8345 -7.1092 -2.1767
-20.8295 -9.2580 -2.2539
-20.8242 -11.5839 -2.3562
-20.8182 -14.1526 -2.4891
-20.8116 -17.0530 -2.6605
-20.8038 -20.4109 -2.8818
-27.7478 -39.1881 -4.7479
-23.4264 -40.2853 -4.6080
15.6930 -40.7810 -4.3207
16.5565 -33.6919 -3.7120
20.4735 -33.6829 -3.8976
12.0831 -16.3801 -2.0127
12.1019 -13.6606 -1.8046
12.1586 -11.4736 -1.6530
12.0923 -9.5216 -1.5219
10.3996 -6.7780 -1.2274
11.9178 -6.3294 -1.3343
10.9561 -4.6166 -1.1756
11.9120 -3.8078 -1.2366
11.9094 -2.6630 -1.2067
11.9069 -1.5637 -1.1875
12.0196 -0.4952 -1.1895
11.9019 0.5745 -1.1782
12.0270 1.6659 -1.2006
12.0213 2.7772 -1.2200
12.0155 3.9345 -1.2502
37.7267 16.2116 -4.0603
9.1946 6.0856 -1.0903
28.5762 22.8297 -3.6166
9.1134 8.7224 -1.2474
19.2639 26.5041 -3.2398
16.8814 28.2201 -3.2516
12.7134 45.7800 -4.6980
-19.9660 33.7836 -3.8803
-20.8897 16.8720 -2.6552
-20.8026 13.9284 -2.4755
-20.8771 11.4212 -2.3531
-20.8718 9.1009 -2.2515
-20.8669 6.9563 -2.1749
-20.8622 4.9370 -2.1198
-20.8577 3.0024 -2.0837
-20.7731 1.1137 -2.0570
-49.6407 -1.7802 -4.9116
-17.6677 -2.2246 -1.7608
-24.0386 -5.2408 -2.4328
-20.8358 -6.5382 -2.1593
-20.8309 -8.6473 -2.2302
-20.7455 -10.8763 -2.3161
-20.7398 -13.3604 -2.4394
-20.7561 -16.1651 -2.6014
-20.8061 -19.4254 -2.8146
-29.2352 -39.1930 -4.8348
-24.1086 -39.1913 -4.5498
15.5337 -33.6942 -3.6687
19.3491 -33.6854 -3.8412
16.2419 -23.1994 -2.8003
12.1035 -14.3640 -1.8573
12.0980 -11.9967 -1.6847
11.9973 -9.9379 -1.5404
12.0896 -8.3133 -1.4508
11.9187 -6.7135 -1.3526
10.2433 -4.6183 -1.1110
11.9144 -4.1365 -1.2471
11.9101 -2.9747 -1.2139
11.9076 -1.8649 -1.1918
12.0203 -0.7938 -1.1912
11.9026 0.2793 -1.1773
11.9002 1.3489 -1.1842
12.0228 2.4656 -1.2136
12.0171 3.6080 -1.2407
36.7283 14.7160 -3.9124
34.4663 21.6036 -4.0222
31.1575 23.6518 -3.8680
28.7153 26.1517 -3.8404
24.5568 26.7497 -3.5906
21.1857 27.6797 -3.4466
17.1406 27.1060 -3.1712
-20.8112 17.6781 -2.7000
-20.8411 14.7146 -2.5226
-20.7983 12.0568 -2.3771
-20.8732 9.7238 -2.2769
-20.8682 7.5360 -2.1939
-20.8635 5.4864 -2.1331
-20.8590 3.5320 -2.0919
-20.8546 1.6369 -2.0684
-49.6435 -0.5498 -4.9090
-27.3065 -5.2484 -2.7495
-20.8371 -5.9758 -2.1434
-20.8323 -8.0489 -2.2083
-20.8272 -10.2697 -2.2961
-20.8216 -12.6946 -2.4113
-20.8154 -15.3984 -2.5602
-20.8083 -18.4843 -2.7521
-28.9603 -30.7726 -4.1784
-25.4609 -39.1806 -4.6203
-17.6944 -42.1510 -4.5202
15.7024 -36.4057 -3.9204
18.2560 -33.6880 -3.7888
9.2485 -13.9325 -1.6536
12.1093 -15.1154 -1.9151
12.0580 -12.5645 -1.7220
12.0947 -10.5344 -1.5860
12.0906 -8.7628 -1.4765
12.0870 -7.2083 -1.3916
10.2877 -4.9485 -1.1288
12.0289 -4.5131 -1.2704
11.9108 -3.2904 -1.2219
11.9083 -2.1685 -1.1969
11.9081 -1.0833 -1.1823
11.9034 -0.0156 -1.1770
11.9008 1.0511 -1.1813
12.0244 2.1570 -1.2080
12.0187 3.2863 -1.2320
36.7706 13.6859 -3.8796
41.6788 19.9136 -4.5674
15.2719 9.0535 -1.7555
29.8127 21.4881 -3.6338
28.0621 24.3129 -3.6714
18.8956 28.3042 -3.3651
-29.0444 31.0244 -4.2022
-24.6873 22.0461 -3.2728
-20.8866 15.5360 -2.5740
-20.8803 12.8057 -2.4220
-20.8747 10.3612 -2.3044
-20.7892 8.0950 -2.2060
-20.8647 6.0430 -2.1479
-20.7798 4.0505 -2.0934
-20.8558 2.1579 -2.0732
-49.6463 0.6801 -4.9095
-31.5553 -5.2582 -3.1632
-20.7581 -5.4005 -2.1209
-20.8337 -7.4618 -2.1882
-20.8287 -9.6366 -2.2693
-20.8232 -11.9984 -2.3763
-20.8172 -14.6161 -2.5151
-20.7302 -17.5158 -2.6835
-20.8024 -21.0349 -2.9253
-26.8673 -39.1852 -4.6979
-23.3500 -41.5858 -4.7159
15.7084 -39.0524 -4.1622
17.1918 -33.6904 -3.7400
10.3141 -16.4056 -1.9162
12.0664 -15.8510 -1.9698
12.1009 -13.2511 -1.7744
12.1578 -11.1308 -1.6299
11.9955 -9.1555 -1.4921
12.0880 -7.6210 -1.4130
11.9173 -6.1003 -1.3238
11.6089 -4.6867 -1.2379
11.9116 -3.6104 -1.2307
11.9090 -2.4748 -1.2027
11.9064 -1.3812 -1.1852
12.0192 -0.3136 -1.1889
11.9015 0.7547 -1.1792
12.0260 1.8511 -1.2031
12.0203 2.9688 -1.2243
12.0145 4.1360 -1.2564
39.4594 17.6663 -4.2749
37.1533 20.7993 -4.2102
31.5103 21.5462 -3.7745
29.2505 24.1004 -3.7476
26.3897 26.0319 -3.6653
19.2022 27.2754 -3.2983
17.0967 29.5844 -3.3787
-19.7424 32.2829 -3.7417
-24.6899 23.1729 -3.3482
-20.8885 16.3564 -2.6233
-20.8016 13.4775 -2.4508
-20.8762 11.0147 -2.3339
-20.8709 8.7281 -2.2369
-20.8660 6.6078 -2.1642
-20.8614 4.6055 -2.1124
-20.7767 2.6714 -2.0713
-28.0789 1.0807 -2.7785
-49.6389 -2.5307 -4.9147
-22.3921 -5.2370 -2.2739
-20.7547 -6.8584 -2.1614
-20.8301 -9.0178 -2.2444
-20.8248 -11.3217 -2.3438
-20.7387 -13.8070 -2.4635
-20.8123 -16.7195 -2.6397
-20.8047 -20.0202 -2.8550
-28.3227 -39.1900 -4.7812
-23.5358 -39.5868 -4.5539
9.2915 -33.8014 -3.4663
15.7153 -42.0490 -4.4387
16.1540 -33.6928 -3.6947
20.0302 -33.6839 -3.8751
16.2402 -22.4676 -2.7412
12.1025 -13.9307 -1.8247
12.0454 -11.5893 -1.6528
12.0928 -9.7130 -1.5337
10.2921 -6.8508 -1.2225
11.9182 -6.4782 -1.3413
10.6679 -4.6173 -1.1494
11.9123 -3.9354 -1.2405
11.9097 -2.7844 -1.2094
11.9071 -1.6811 -1.1891
12.0199 -0.6118 -1.1901
11.9022 0.4591 -1.1778
11.8997 1.5310 -1.1863
12.0219 2.6551 -1.2174
12.0161 3.8064 -1.2463
36.7024 15.3523 -3.9338
9.2772 6.0119 -1.0931
29.8631 23.3878 -3.7507
9.1570 8.5958 -1.2419
24.0878 27.0471 -3.5813
19.8497 26.7615 -3.2946
17.1437 28.0388 -3.2497
-20.8905 17.2094 -2.6763
-20.8837 14.2774 -2.5014
-20.8778 11.6855 -2.3658
-20.8724 9.3426 -2.2612
-20.8674 7.1816 -2.1821
-20.8627 5.1509 -2.1248
-20.8582 3.2089 -2.0867
-20.7735 1.3154 -2.0582
-49.6418 -1.2993 -4.9103
-17.7655 -2.0624 -1.7685
-25.2218 -5.2436 -2.5473
-20.8363 -6.3174 -2.1529
-20.8315 -8.4120 -2.2214
-20.8263 -10.6629 -2.3135
-20.7472 -13.0828 -2.4253
-20.8142 -15.8892 -2.5893
-20.8069 -19.0527 -2.7896
-29.8314 -39.1949 -4.8704
-24.6262 -39.1779 -4.5757
15.6990 -34.9383 -3.7874
18.9183 -33.6864 -3.8203
9.4110 -13.7233 -1.6454
12.1042 -14.6503 -1.8791
11.9911 -12.1231 -1.6861
12.0939 -10.2170 -1.5655
11.9938 -8.4196 -1.4490
12.0865 -6.9629 -1.3792
11.9160 -5.5118 -1.2982
12.0284 -4.3070 -1.2633
11.9104 -3.0976 -1.2169
11.9078 -1.9832 -1.1937
12.0206 -0.9108 -1.1920
11.9029 0.1640 -1.1771
11.9004 1.2323 -1.1830
12.0234 2.3447 -1.2113
12.0177 3.4818 -1.2372
36.7448 14.3113 -3.8992
41.8563 20.7800 -4.6207
34.4666 21.1420 -3.9981
30.5366 22.7179 -3.7634
28.1472 25.1402 -3.7317
24.8586 26.5578 -3.5969
18.1359 28.0745 -3.3049
12.8343 40.7191 -4.2216
-24.6857 21.3839 -3.2294
-20.8855 15.0510 -2.5455
-20.8793 12.3753 -2.3999
-20.8738 9.9710 -2.2874
-20.8687 7.7653 -2.2017
-20.8640 5.7030 -2.1387
-20.8594 3.7402 -2.0955
-20.8551 1.8403 -2.0702
-49.6446 -0.0692 -4.9089
-28.8271 -5.2519 -2.8973
-20.8376 -5.7583 -2.1376
-20.8328 -7.8182 -2.2002
-20.8278 -10.0205 -2.2854
-20.8222 -12.4201 -2.3974
-20.8161 -15.0894 -2.5422
-20.8091 -18.1277 -2.7289
-20.7208 -21.5947 -2.9593
-17.6967 -22.0935 -2.7990
-25.6476 -38.6439 -4.5861
-23.4211 -43.2281 -4.8615
15.7046 -37.4026 -4.0112
17.8369 -33.6889 -3.7693
16.2493 -25.0008 -2.9483
12.1096 -15.4193 -1.9387
12.1000 -12.8550 -1.7456
12.0745 -10.7241 -1.5969
12.0910 -8.9429 -1.4870
11.9996 -7.3146 -1.3896
11.9168 -5.8748 -1.3137
12.0292 -4.6465 -1.2751
11.9111 -3.4149 -1.2252
11.9085 -2.2878 -1.1991
11.9062 -1.1994 -1.1833
11.9058 -0.1308 -1.1773
11.9011 0.9352 -1.1804
12.0250 2.0372 -1.2060
12.0193 3.1618 -1.2289
36.3532 13.1314 -3.8219
40.0402 18.6567 -4.3679
15.3937 8.9255 -1.7595
30.8439 21.7808 -3.7336
29.1448 24.7611 -3.7815
25.8451 26.2760 -3.6444
23.0023 27.9998 -3.5831
18.1085 26.5648 -3.1790
16.5766 29.7106 -3.3641
-19.7169 31.1743 -3.6473
-24.6883 22.4804 -3.3016
-20.8874 15.8529 -2.5928
-20.8810 13.0859 -2.4367
-20.8753 10.6145 -2.3157
-20.8701 8.3599 -2.2230
-20.8653 6.2627 -2.1541
-20.8607 4.2762 -2.1056
-20.8563 2.3622 -2.0755
-49.6474 1.1608 -4.9105
-49.6372 -3.2823 -4.9188
-33.5857 -5.2628 -3.3615
-20.9472 -5.2337 -2.1349
-20.8342 -7.2352 -2.1808
-20.8292 -9.3931 -2.2593
-20.8238 -11.7318 -2.3634
-20.8179 -14.3178 -2.4983
-20.8111 -17.2417 -2.6723
-20.8033 -20.6325 -2.8972
-27.4299 -39.1871 -4.7298
-23.4255 -40.7902 -4.6511
15.7038 -40.1593 -4.2638
16.7832 -33.6914 -3.7219
20.7236 -33.6823 -3.9104
12.1078 -16.2290 -2.0021
12.0528 -13.4578 -1.7864
12.1583 -11.3496 -1.6446
12.0921 -9.4158 -1.5154
12.0884 -7.7858 -1.4218
11.9176 -6.2468 -1.3305
11.1231 -4.6163 -1.1908
11.9119 -3.7368 -1.2344
11.9092 -2.5954 -1.2052
11.9067 -1.4982 -1.1866
12.0195 -0.4300 -1.1892
11.9018 0.6391 -1.1785
12.0266 1.7322 -1.2015
12.0209 2.8458 -1.2215
12.0151 4.0065 -1.2524
39.2732 17.1286 -4.2366
9.1712 6.1417 -1.0914
28.8125 23.2751 -3.6624
26.4017 25.5441 -3.6325
19.0729 26.5421 -3.2318
16.7346 28.3214 -3.2528
-19.8173 33.1215 -3.8165
-20.8893 16.6857 -2.6436
-20.8022 13.7657 -2.4665
-20.8768 11.2747 -2.3461
-20.8715 8.9667 -2.2462
-20.8666 6.8309 -2.1710
-20.8619 4.8179 -2.1171
-20.8575 2.8873 -2.0821
-22.6869 1.0931 -2.2459
-49.6400 -2.0493 -4.9126
-17.7898 -2.3378 -1.7742
-23.4223 -5.2394 -2.3732
-20.8355 -6.6622 -2.1630
-20.8306 -8.7796 -2.2352
-20.8254 -11.0622 -2.3317
-20.7394 -13.5195 -2.4480
-20.8131 -16.3912 -2.6196
-20.8056 -19.6367 -2.8289
-28.9055 -39.1919 -4.8153
-23.8379 -39.2256 -4.5387
15.5641 -42.9059 -4.5131
15.7552 -33.6937 -3.6779
19.5920 -33.6849 -3.8532
16.2413 -22.9334 -2.7787
10.3083 -12.1001 -1.5718
12.0977 -11.8673 -1.6757
12.0932 -9.9075 -1.5458
12.0893 -8.2171 -1.4454
11.9185 -6.6287 -1.3485
10.3922 -4.6179 -1.1245
11.9130 -4.0638 -1.2446
11.9100 -2.9063 -1.2122
11.9074 -1.7989 -1.1908
12.0202 -0.7285 -1.1907
11.9025 0.3438 -1.1774
11.9000 1.4141 -1.1850
12.0225 2.5334 -1.2149
12.0168 3.6789 -1.2427
36.7190 14.9433 -3.9199
31.7768 20.1581 -3.7210
30.8908 23.7140 -3.8507
9.2800 8.5439 -1.2473
24.3884 26.8566 -3.5871
20.4262 26.9889 -3.3468
17.4056 27.8576 -3.2480
-17.6368 17.7347 -2.4731
-20.8108 17.4847 -2.6877
-20.8844 14.5764 -2.5183
-20.8784 11.9527 -2.3788
-20.8729 9.5864 -2.2712
-20.8679 7.4084 -2.1896
-20.7828 5.3451 -2.1219
-20.8587 3.4159 -2.0900
-20.8543 1.5234 -2.0676
-49.4319 -0.8150 -4.8885
-26.5221 -5.2466 -2.6733
-20.8368 -6.0979 -2.1468
-20.7518 -8.1472 -2.2044
-20.8269 -10.4100 -2.3023
-20.8212 -12.8495 -2.4193
-20.8150 -15.5731 -2.5705
-20.8078 -18.6863 -2.7654
-30.4367 -39.1969 -4.9071
-25.1597 -39.1796 -4.6041
15.7011 -35.8678 -3.8716
18.4922 -33.6874 -3.7999
9.2505 -13.7732 -1.6406
12.1091 -14.9486 -1.9022
11.9915 -7.3989 -1.3057
11.9170 -5.9553 -1.2345
11.7574 -4.6148 -1.1704
11.9113 -3.4848 -1.1500
11.9087 -2.3547 -1.1249
11.9062 -1.2645 -1.1095
12.0190 -0.1972 -1.1139
11.9013 0.8704 -1.1058
12.0254 1.9704 -1.1292
12.0197 3.0924 -1.1501
36.9285 13.1137 -3.6313
39.9621 18.3578 -4.0751
36.6754 21.0005 -3.9162
31.4605 21.9620 -3.5553
29.8129 25.0522 -3.6084
25.5733 25.7196 -3.3609
23.3011 28.0524 -3.3792
18.1805 26.3626 -2.9674
16.8219 29.7705 -3.1686
-19.6258 31.4053 -3.4316
-24.6888 22.7265 -3.1095
-20.8878 16.0321 -2.4399
-20.8813 13.2440 -2.2913
-20.7952 10.7159 -2.1678
-20.8704 8.4915 -2.0879
-20.8655 6.3861 -2.0220
-20.8610 4.3941 -1.9755
-20.8565 2.4767 -1.9462
-49.6481 1.4297 -4.6025
-49.6378 -3.0126 -4.6081
-21.4445 -5.2349 -2.0455
-20.8345 -7.1092 -2.0399
-20.8295 -9.2580 -2.1122
-20.8242 -11.5839 -2.2081
-20.8182 -14.1526 -2.3327
-20.8116 -17.0530 -2.4932
-20.8038 -20.4109 -2.7006
-27.7478 -39.1881 -4.4494
-22.8419 -39.2802 -4.2105
15.7125 -40.8317 -4.0541
16.5565 -33.6919 -3.4786
20.4735 -33.6829 -3.6525
12.0831 -16.3801 -1.8861
12.1019 -13.6606 -1.6911
12.1586 -11.4736 -1.5491
12.0923 -9.5216 -1.4262
10.3996 -6.7780 -1.1503
11.9178 -6.3294 -1.2504
11.9162 -5.0212 -1.1982
11.9120 -3.8078 -1.1588
11.9094 -2.6630 -1.1308
11.9069 -1.5637 -1.1128
12.0196 -0.4952 -1.1147
11.9019 0.5745 -1.1042
12.0270 1.6659 -1.1251
12.0212 2.7772 -1.1433
12.0154 3.9345 -1.1716
38.7482 16.6506 -3.9080
9.1944 6.0854 -1.0217
29.9982 23.9657 -3.5579
9.1134 8.7224 -1.1689
23.1675 26.5263 -3.2635
19.2421 26.4741 -3.0327
16.9525 28.3389 -3.0600
12.7130 45.7782 -4.4025
-20.8092 16.8070 -2.4786
-20.8830 13.9822 -2.3288
-20.8771 11.4212 -2.2051
-20.8718 9.1009 -2.1099
-20.8669 6.9563 -2.0382
-20.8622 4.9370 -1.9866
-20.8577 3.0024 -1.9527
-20.7731 1.1137 -1.9277
-49.6407 -1.7802 -4.6028
-17.6672 -2.2245 -1.6500
-24.0386 -5.2408 -2.2798
-20.8358 -6.5382 -2.0235
-20.8309 -8.6473 -2.0900
-20.7455 -10.8762 -2.1705
-20.8200 -13.4120 -2.2949
-20.7333 -16.1474 -2.4351
-20.8061 -19.4254 -2.6376
-29.2352 -39.1930 -4.5308
-23.6849 -38.5026 -4.1888
15.5337 -33.6942 -3.4381
19.3491 -33.6854 -3.5997
16.2419 -23.1994 -2.6242
12.1035 -14.3640 -1.7406
12.0980 -11.9967 -1.5788
11.9973 -9.9379 -1.4436
12.0896 -8.3133 -1.3596
11.9187 -6.7135 -1.2676
11.9156 -5.3723 -1.2112
11.9144 -4.1365 -1.1687
11.9101 -2.9747 -1.1375
11.9076 -1.8649 -1.1168
12.0203 -0.7938 -1.1163
11.9026 0.2793 -1.1032
11.9002 1.3489 -1.1098
12.0228 2.4656 -1.1373
12.0171 3.6080 -1.1627
37.4688 15.0126 -3.7403
34.3991 21.5615 -3.7620
29.8690 22.6737 -3.4749
28.4387 25.8998 -3.5643
24.7053 26.9114 -3.3852
20.1100 26.2743 -3.0660
17.6256 27.8730 -3.0559
12.8431 42.1665 -4.0845
-20.8112 17.6781 -2.5303
-20.8411 14.7146 -2.3640
-20.7983 12.0568 -2.2277
-20.8732 9.7238 -2.1338
-20.8682 7.5360 -2.0559
-20.8635 5.4864 -1.9990
-20.8590 3.5320 -1.9604
-20.8546 1.6369 -1.9384
-49.6435 -0.5498 -4.6004
-27.3065 -5.2484 -2.5766
-20.8371 -5.9758 -2.0087
-20.8323 -8.0489 -2.0695
-20.8272 -10.2697 -2.1518
-20.8216 -12.6946 -2.2597
-20.8154 -15.3984 -2.3992
-20.8083 -18.4843 -2.5791
-28.7211 -30.5183 -3.8833
-25.4609 -39.1806 -4.3299
-17.6938 -42.1496 -4.2359
15.7024 -36.4057 -3.6739
18.2560 -33.6880 -3.5506
9.2474 -13.9308 -1.5494
12.1112 -15.1177 -1.7950
12.0580 -12.5645 -1.6137
12.0947 -10.5344 -1.4863
12.0906 -8.7628 -1.3837
12.0870 -7.2083 -1.3041
10.2877 -4.9485 -1.0578
12.0289 -4.5131 -1.1905
11.9108 -3.2904 -1.1450
11.9083 -2.1685 -1.1216
11.9081 -1.0833 -1.1080
11.9034 -0.0156 -1.1030
11.9008 1.0511 -1.1071
12.0244 2.1570 -1.1320
12.0187 3.2863 -1.1546
39.0211 14.5236 -3.8582
41.4047 19.7826 -4.2521
15.2716 9.0533 -1.6451
29.9202 21.5656 -3.4176
28.9344 25.0686 -3.5475
24.1425 25.0248 -3.2221
22.7130 28.1996 -3.3553
19.0054 28.4686 -3.1718
-29.0437 31.0236 -3.9379
-24.6873 22.0462 -3.0670
-20.8866 15.5360 -2.4121
-20.8803 12.8056 -2.2697
-20.8747 10.3612 -2.1595
-20.7892 8.0950 -2.0673
-20.8647 6.0430 -2.0129
-20.7798 4.0505 -1.9618
-20.8558 2.1580 -1.9429
-49.6463 0.6801 -4.6008
-49.6361 -3.7651 -4.6127
-31.5553 -5.2582 -2.9643
-20.7581 -5.4005 -1.9876
-20.8337 -7.4618 -2.0506
-20.8287 -9.6366 -2.1266
-20.8232 -11.9984 -2.2269
-20.8172 -14.6161 -2.3570
-20.7302 -17.5158 -2.5148
-20.8024 -21.0349 -2.7414
-26.8673 -39.1852 -4.4026
-23.3500 -41.5858 -4.4194
15.7084 -39.0524 -3.9005
17.1918 -33.6904 -3.5049
10.3141 -16.4056 -1.7957
12.0664 -15.8510 -1.8460
12.1009 -13.2511 -1.6629
12.1578 -11.1308 -1.5274
11.9955 -9.1555 -1.3983
12.0880 -7.6210 -1.3242
11.9173 -6.1003 -1.2406
11.4326 -4.6155 -1.1425
11.9116 -3.6104 -1.1534
11.9090 -2.4748 -1.1271
11.9064 -1.3812 -1.1107
12.0192 -0.3136 -1.1141
11.9015 0.7547 -1.1051
12.0260 1.8511 -1.1275
12.0203 2.9688 -1.1473
12.0144 4.1360 -1.1774
38.7864 17.3651 -3.9379
37.1518 20.7984 -3.9454
31.5368 21.5643 -3.5402
30.4303 25.0725 -3.6536
25.6276 25.2801 -3.3357
22.7318 26.8343 -3.2588
18.3323 26.0398 -2.9509
16.5410 28.6229 -3.0633
-24.6899 23.1729 -3.1377
-20.8081 16.2934 -2.4489
-20.8016 13.4775 -2.2968
-20.8762 11.0147 -2.1872
-20.8709 8.7281 -2.0963
-20.8660 6.6078 -2.0282
-20.8614 4.6055 -1.9796
-20.7767 2.6714 -1.9411
-28.0789 1.0807 -2.6038
-49.6389 -2.5307 -4.6057
-22.3921 -5.2370 -2.1309
-20.7547 -6.8584 -2.0255
-20.8301 -9.0178 -2.1033
-20.8248 -11.3217 -2.1964
-20.8189 -13.8604 -2.3176
-20.7322 -16.6551 -2.4643
-20.8047 -20.0202 -2.6755
-28.3227 -39.1900 -4.4806
-23.1069 -38.8654 -4.1898
9.2911 -33.8001 -3.2482
15.7153 -42.0490 -4.1597
16.1540 -33.6928 -3.4624
20.0302 -33.6839 -3.6314
16.2402 -22.4676 -2.5689
12.1025 -13.9307 -1.7100
12.0454 -11.5893 -1.5489
12.0928 -9.7130 -1.4373
10.2921 -6.8508 -1.1457
11.9182 -6.4782 -1.2570
11.9151 -5.1571 -1.2031
11.9123 -3.9354 -1.1625
11.9097 -2.7844 -1.1334
11.9071 -1.6811 -1.1143
12.0199 -0.6118 -1.1153
11.9022 0.4591 -1.1037
11.8997 1.5310 -1.1118
12.0219 2.6551 -1.1408
12.0161 3.8063 -1.1680
38.8873 16.2663 -3.9060
9.2769 6.0117 -1.0244
30.5605 23.9340 -3.5969
9.1570 8.5958 -1.1638
23.4474 26.3281 -3.2669
19.7290 26.5988 -3.0687
17.2158 28.1568 -3.0582
-20.8905 17.2094 -2.5080
-20.8837 14.2774 -2.3442
-20.8778 11.6855 -2.2170
-20.8724 9.3426 -2.1190
-20.8674 7.1816 -2.0450
-20.8627 5.1509 -1.9913
-20.8582 3.2089 -1.9555
-20.7735 1.3154 -1.9288
-49.6418 -1.2993 -4.6016
-17.7647 -2.0623 -1.6572
-25.2218 -5.2436 -2.3871
-20.8363 -6.3174 -2.0176
-20.8315 -8.4120 -2.0818
-20.8263 -10.6629 -2.1681
-20.8206 -13.1290 -2.2809
-20.8042 -15.8815 -2.4253
-20.8069 -19.0527 -2.6143
-29.8314 -39.1949 -4.5642
-24.1480 -38.4171 -4.2047
15.6990 -34.9383 -3.5493
18.9184 -33.6864 -3.5801
9.4106 -13.7227 -1.5419
12.1042 -14.6503 -1.7610
11.9911 -12.1231 -1.5801
12.0939 -10.2170 -1.4670
11.9938 -8.4196 -1.3579
12.0865 -6.9629 -1.2925
11.9160 -5.5118 -1.2166
12.0284 -4.3070 -1.1839
11.9104 -3.0976 -1.1404
11.9078 -1.9832 -1.1186
12.0206 -0.9108 -1.1171
11.9029 0.1640 -1.1031
11.9004 1.2323 -1.1086
12.0234 2.3447 -1.1351
12.0177 3.4817 -1.1594
39.1492 15.2478 -3.8931
42.0045 20.8535 -4.3456
34.3999 21.1011 -3.7395
30.6928 22.8342 -3.5448
28.1891 25.1777 -3.5023
25.0092 26.7187 -3.3912
18.5676 28.7428 -3.1708
12.8343 40.7190 -3.9562
-19.8551 36.4033 -3.8424
-24.6857 21.3839 -3.0264
-20.8855 15.0510 -2.3855
-20.8793 12.3753 -2.2491
-20.8738 9.9710 -2.1436
-20.8687 7.7653 -2.0633
-20.8640 5.7030 -2.0043
-20.8594 3.7402 -1.9637
-20.8551 1.8403 -1.9400
-49.6446 -0.0692 -4.6003
-28.8271 -5.2519 -2.7152
-20.8376 -5.7583 -2.0033
-20.8328 -7.8182 -2.0619
-20.8278 -10.0205 -2.1417
-20.8222 -12.4201 -2.2466
-20.8161 -15.0894 -2.3824
-20.8091 -18.1277 -2.5573
-20.7208 -21.5947 -2.7732
-17.6962 -22.0929 -2.6230
-25.5824 -38.5458 -4.2868
-23.4211 -43.2281 -4.5558
15.7046 -37.4026 -3.7590
17.8369 -33.6889 -3.5323
16.2493 -25.0008 -2.7630
12.1115 -15.4217 -1.8171
12.1000 -12.8550 -1.6359
12.0745 -10.7241 -1.4965
12.0910 -8.9429 -1.3936
11.9996 -7.3146 -1.3022
11.9168 -5.8748 -1.2311
11.9459 -4.6144 -1.1867
11.9111 -3.4149 -1.1482
11.9085 -2.2878 -1.1237
11.9062 -1.1994 -1.1089
11.9058 -0.1308 -1.1033
11.9011 0.9352 -1.1062
12.0250 2.0372 -1.1302
12.0193 3.1617 -1.1516
36.5728 13.2107 -3.6033
40.1749 18.7195 -4.1070
15.3932 8.9252 -1.6488
30.9744 21.8730 -3.5137
30.0669 25.5445 -3.6559
25.3562 25.7789 -3.3506
23.0892 28.1055 -3.3705
17.9785 26.3741 -2.9577
16.6351 29.8156 -3.1637
-19.7165 31.1735 -3.4179
-24.6883 22.4804 -3.0940
-20.8874 15.8529 -2.4298
-20.8810 13.0859 -2.2835
-20.8753 10.6145 -2.1701
-20.8701 8.3599 -2.0833
-20.8653 6.2627 -2.0187
-20.8607 4.2762 -1.9732
-20.8563 2.3622 -1.9450
-49.6474 1.1608 -4.6018
-49.6372 -3.2823 -4.6096
-33.5857 -5.2628 -3.1501
-20.9472 -5.2337 -2.0007
-20.8342 -7.2352 -2.0437
-20.8292 -9.3931 -2.1173
-20.8238 -11.7318 -2.2148
-20.8179 -14.3178 -2.3413
-20.8111 -17.2418 -2.5043
-20.8033 -20.6325 -2.7150
-27.4299 -39.1871 -4.4324
-23.4255 -40.7902 -4.3587
15.7110 -40.1777 -3.9976
16.7832 -33.6914 -3.4879
20.7236 -33.6823 -3.6646
12.1078 -16.2290 -1.8763
12.0528 -13.4578 -1.6741
12.1583 -11.3496 -1.5412
12.0921 -9.4158 -1.4201
