ply
format ascii 1.0
element vertex 2177
property float32 x
property float32 y
property float32 z
end_header
-0.1127 -0.7643 0.3497
-0.0440 -0.7709 0.3495
0.0249 -0.7718 0.3495
0.0937 -0.7667 0.3496
0.1618 -0.7558 0.3498
0.2288 -0.7390 0.3502
0.2943 -0.7166 0.3507
0.3576 -0.6887 0.3512
0.4185 -0.6553 0.3519
0.4763 -0.6168 0.3527
0.5308 -0.5733 0.3537
0.5815 -0.5252 0.3547
0.6280 -0.4727 0.3558
0.6699 -0.4161 0.3570
0.7068 -0.3560 0.3582
0.7385 -0.2926 0.3595
0.7646 -0.2264 0.3609
0.7849 -0.1579 0.3624
0.7991 -0.0876 0.3638
0.8070 -0.0160 0.3653
0.8086 0.0563 0.3669
0.8036 0.1287 0.3684
0.7922 0.2007 0.3699
0.7742 0.2717 0.3714
0.7498 0.3410 0.3728
0.7191 0.4081 0.3743
0.6823 0.4723 0.3756
0.6396 0.5331 0.3769
0.5914 0.5899 0.3781
0.5379 0.6422 0.3792
0.4798 0.6894 0.3802
0.4173 0.7312 0.3811
0.3511 0.7670 0.3818
0.2817 0.7965 0.3824
0.2098 0.8195 0.3829
0.1360 0.8357 0.3833
0.0609 0.8450 0.3835
-0.0147 0.8471 0.3835
-0.0902 0.8422 0.3834
-0.1649 0.8303 0.3831
-0.2380 0.8114 0.3828
-0.3091 0.7859 0.3822
-0.3773 0.7538 0.3816
-0.4421 0.7157 0.3808
-0.5030 0.6717 0.3798
-0.5594 0.6225 0.3788
-0.6108 0.5684 0.3777
-0.6570 0.5100 0.3764
-0.6974 0.4478 0.3751
-0.7319 0.3824 0.3738
-0.7602 0.3143 0.3723
-0.7821 0.2443 0.3709
-0.7975 0.1728 0.3694
-0.8064 0.1006 0.3678
-0.8088 0.0281 0.3663
-0.8048 -0.0440 0.3648
-0.7944 -0.1151 0.3633
-0.7778 -0.1848 0.3619
-0.7552 -0.2524 0.3604
-0.7269 -0.3176 0.3591
-0.6932 -0.3798 0.3578
-0.6542 -0.4386 0.3565
-0.6105 -0.4936 0.3554
-0.5624 -0.5445 0.3543
-0.5101 -0.5908 0.3533
-0.4543 -0.6324 0.3524
-0.3952 -0.6690 0.3517
-0.3333 -0.7002 0.3510
-0.2691 -0.7260 0.3505
-0.2030 -0.7463 0.3500
-0.1355 -0.7607 0.3497
-0.0670 -0.7694 0.3496
0.0019 -0.7721 0.3495
0.0708 -0.7690 0.3496
0.1392 -0.7601 0.3497
0.2066 -0.7453 0.3501
0.2726 -0.7247 0.3505
0.3367 -0.6986 0.3510
0.3984 -0.6671 0.3517
0.4574 -0.6302 0.3525
0.5130 -0.5884 0.3533
0.5650 -0.5417 0.3543
0.6130 -0.4907 0.3554
0.6564 -0.4354 0.3565
0.6951 -0.3764 0.3578
0.7285 -0.3141 0.3591
0.7565 -0.2488 0.3605
0.7788 -0.1810 0.3619
0.7950 -0.1112 0.3633
0.8051 -0.0400 0.3648
0.8088 0.0321 0.3664
0.8060 0.1045 0.3679
0.7967 0.1768 0.3694
0.7810 0.2481 0.3709
0.7587 0.3181 0.3724
0.7301 0.3860 0.3738
0.6953 0.4512 0.3752
0.6545 0.5132 0.3765
0.6081 0.5714 0.3777
0.5563 0.6253 0.3788
0.4997 0.6742 0.3799
0.4386 0.7178 0.3808
0.3736 0.7557 0.3816
0.3052 0.7874 0.3822
0.2341 0.8126 0.3828
0.1608 0.8311 0.3832
0.0861 0.8427 0.3834
0.0106 0.8472 0.3835
-0.0650 0.8447 0.3834
-0.1401 0.8350 0.3832
-0.2138 0.8185 0.3829
-0.2856 0.7951 0.3824
-0.3548 0.7652 0.3818
-0.4209 0.7291 0.3810
-0.4831 0.6870 0.3802
-0.5411 0.6395 0.3792
-0.5942 0.5870 0.3781
-0.6422 0.5299 0.3769
-0.6846 0.4689 0.3756
-0.7211 0.4045 0.3742
-0.7514 0.3373 0.3728
-0.7755 0.2679 0.3714
-0.7931 0.1968 0.3699
-0.8042 0.1248 0.3684
-0.8088 0.0523 0.3668
-0.8069 -0.0200 0.3653
-0.7986 -0.0915 0.3638
-0.7840 -0.1617 0.3623
-0.7634 -0.2301 0.3609
-0.7370 -0.2961 0.3595
-0.7050 -0.3594 0.3582
-0.6678 -0.4194 0.3569
-0.6256 -0.4757 0.3557
-0.5789 -0.5280 0.3546
-0.5280 -0.5759 0.3536
-0.4733 -0.6191 0.3527
-0.4152 -0.6573 0.3519
-0.3542 -0.6904 0.3512
-0.2907 -0.7180 0.3506
-0.2252 -0.7401 0.3502
-0.1581 -0.7565 0.3498
-0.0900 -0.7671 0.3496
-0.0211 -0.7719 0.3495
0.0478 -0.7707 0.3495
0.1164 -0.7637 0.3497
0.1842 -0.7508 0.3499
0.2508 -0.7322 0.3503
0.3155 -0.7080 0.3508
0.3781 -0.6782 0.3515
0.4380 -0.6431 0.3522
0.4948 -0.6029 0.3530
0.5481 -0.5578 0.3540
0.5975 -0.5082 0.3550
0.6424 -0.4543 0.3561
0.6827 -0.3965 0.3574
0.7180 -0.3352 0.3586
0.7478 -0.2709 0.3600
0.7720 -0.2039 0.3614
0.7903 -0.1347 0.3629
0.8024 -0.0639 0.3643
0.8082 0.0079 0.3659
0.8076 0.0803 0.3674
0.8006 0.1527 0.3689
0.7869 0.2244 0.3704
0.7668 0.2949 0.3719
0.7403 0.3636 0.3733
0.7076 0.4298 0.3747
0.6688 0.4929 0.3760
0.6242 0.5524 0.3773
0.5742 0.6078 0.3785
0.5191 0.6584 0.3795
0.4595 0.7039 0.3805
0.3957 0.7437 0.3813
0.3284 0.7775 0.3820
0.2581 0.8049 0.3826
0.1855 0.8257 0.3830
0.1112 0.8396 0.3833
0.0358 0.8465 0.3835
-0.0398 0.8463 0.3835
-0.1151 0.8390 0.3833
-0.1894 0.8248 0.3830
-0.2619 0.8037 0.3826
-0.3320 0.7759 0.3820
-0.3992 0.7418 0.3813
-0.4628 0.7017 0.3805
-0.5222 0.6560 0.3795
-0.5770 0.6050 0.3784
-0.6268 0.5495 0.3773
-0.6710 0.4897 0.3760
-0.7095 0.4264 0.3747
-0.7420 0.3600 0.3733
-0.7682 0.2913 0.3718
-0.7879 0.2207 0.3704
-0.8012 0.1489 0.3689
-0.8080 0.0765 0.3673
-0.8082 0.0041 0.3658
-0.8020 -0.0677 0.3643
-0.7896 -0.1384 0.3628
-0.7710 -0.2075 0.3614
-0.7465 -0.2744 0.3600
-0.7163 -0.3386 0.3586
-0.6808 -0.3997 0.3573
-0.6402 -0.4573 0.3561
-0.5950 -0.5110 0.3550
-0.5454 -0.5604 0.3540
-0.4920 -0.6052 0.3530
-0.4350 -0.6451 0.3522
-0.3749 -0.6799 0.3514
-0.3122 -0.7094 0.3508
-0.2473 -0.7334 0.3503
-0.1807 -0.7517 0.3499
-0.1128 -0.7642 0.3497
-0.0442 -0.7709 0.3495
0.0248 -0.7718 0.3495
0.0936 -0.7667 0.3496
0.1617 -0.7558 0.3498
0.2287 -0.7391 0.3502
0.2941 -0.7167 0.3507
0.3575 -0.6887 0.3512
0.4183 -0.6554 0.3519
0.4762 -0.6169 0.3527
0.5307 -0.5734 0.3537
0.5814 -0.5253 0.3547
0.6279 -0.4728 0.3558
0.6698 -0.4162 0.3569
0.7068 -0.3561 0.3582
0.7384 -0.2927 0.3595
0.7646 -0.2265 0.3609
0.7848 -0.1580 0.3624
0.7990 -0.0877 0.3638
0.8070 -0.0162 0.3653
0.8086 0.0561 0.3669
0.8037 0.1286 0.3684
0.7922 0.2006 0.3699
0.7743 0.2716 0.3714
0.7499 0.3409 0.3728
0.7192 0.4080 0.3743
0.6824 0.4722 0.3756
0.6397 0.5330 0.3769
0.5915 0.5898 0.3781
0.5381 0.6421 0.3792
0.4799 0.6893 0.3802
0.4174 0.7311 0.3810
0.3512 0.7669 0.3818
0.2819 0.7965 0.3824
0.2100 0.8195 0.3829
0.1361 0.8357 0.3833
0.0611 0.8450 0.3835
-0.0146 0.8471 0.3835
-0.0901 0.8422 0.3834
-0.1647 0.8303 0.3832
-0.2379 0.8115 0.3828
-0.3089 0.7859 0.3822
-0.3771 0.7539 0.3816
-0.4420 0.7157 0.3808
-0.5028 0.6718 0.3798
-0.5593 0.6226 0.3788
-0.6107 0.5685 0.3777
-0.6569 0.5101 0.3764
-0.6973 0.4479 0.3751
-0.7318 0.3825 0.3738
-0.7601 0.3145 0.3723
-0.7820 0.2444 0.3709
-0.7975 0.1730 0.3694
-0.8064 0.1007 0.3678
-0.8088 0.0283 0.3663
-0.8048 -0.0438 0.3648
-0.7944 -0.1150 0.3633
-0.7778 -0.1846 0.3619
-0.7553 -0.2523 0.3604
-0.7270 -0.3175 0.3591
-0.6932 -0.3797 0.3578
-0.6543 -0.4385 0.3565
-0.6106 -0.4935 0.3554
-0.5625 -0.5444 0.3543
-0.5102 -0.5908 0.3533
-0.4544 -0.6323 0.3524
-0.3953 -0.6689 0.3517
-0.3334 -0.7002 0.3510
-0.2692 -0.7260 0.3505
-0.2031 -0.7462 0.3500
-0.1356 -0.7607 0.3497
-0.0672 -0.7694 0.3496
0.0018 -0.7721 0.3495
0.0706 -0.7690 0.3496
0.1391 -0.7601 0.3497
0.2065 -0.7453 0.3501
0.2725 -0.7248 0.3505
0.3366 -0.6987 0.3510
0.3983 -0.6671 0.3517
0.4573 -0.6303 0.3525
0.5129 -0.5885 0.3533
0.5649 -0.5418 0.3543
0.6129 -0.4908 0.3554
0.6564 -0.4355 0.3565
0.6950 -0.3765 0.3578
0.7285 -0.3142 0.3591
0.7565 -0.2489 0.3605
0.7787 -0.1811 0.3619
0.7950 -0.1114 0.3633
0.8050 -0.0402 0.3648
0.8088 0.0319 0.3664
0.8060 0.1044 0.3679
0.7968 0.1766 0.3694
0.7810 0.2480 0.3709
0.7587 0.3179 0.3724
0.7301 0.3858 0.3738
0.6953 0.4511 0.3752
0.6546 0.5131 0.3765
0.6082 0.5713 0.3777
0.5564 0.6252 0.3788
0.4998 0.6741 0.3799
0.4387 0.7178 0.3808
0.3737 0.7556 0.3816
0.3054 0.7873 0.3822
0.2342 0.8126 0.3828
0.1610 0.8311 0.3832
0.0862 0.8427 0.3834
0.0107 0.8472 0.3835
-0.0649 0.8447 0.3834
-0.1399 0.8351 0.3832
-0.2137 0.8185 0.3829
-0.2855 0.7952 0.3824
-0.3547 0.7653 0.3818
-0.4207 0.7291 0.3810
-0.4830 0.6871 0.3802
-0.5409 0.6396 0.3792
-0.5941 0.5871 0.3781
-0.6421 0.5300 0.3769
-0.6845 0.4691 0.3756
-0.7210 0.4047 0.3742
-0.7514 0.3374 0.3728
-0.7754 0.2680 0.3714
-0.7931 0.1970 0.3699
-0.8042 0.1249 0.3684
-0.8088 0.0525 0.3668
-0.8069 -0.0198 0.3653
-0.7986 -0.0914 0.3638
-0.7840 -0.1616 0.3623
-0.7635 -0.2300 0.3609
-0.7371 -0.2960 0.3595
-0.7051 -0.3593 0.3582
-0.6679 -0.4192 0.3569
-0.6257 -0.4756 0.3557
-0.5790 -0.5279 0.3546
-0.5281 -0.5758 0.3536
-0.4734 -0.6190 0.3527
-0.4153 -0.6573 0.3519
-0.3544 -0.6903 0.3512
-0.2909 -0.7180 0.3506
-0.2253 -0.7401 0.3502
-0.1583 -0.7565 0.3498
-0.0901 -0.7671 0.3496
-0.0213 -0.7719 0.3495
0.0477 -0.7707 0.3495
0.1163 -0.7637 0.3497
0.1841 -0.7509 0.3499
0.2506 -0.7323 0.3503
0.3154 -0.7080 0.3508
0.3780 -0.6783 0.3515
0.4379 -0.6432 0.3522
0.4947 -0.6030 0.3530
0.5480 -0.5579 0.3540
0.5974 -0.5083 0.3550
0.6424 -0.4544 0.3561
0.6827 -0.3966 0.3574
0.7179 -0.3354 0.3586
0.7478 -0.2710 0.3600
0.7720 -0.2040 0.3614
0.7902 -0.1349 0.3629
0.8024 -0.0641 0.3643
0.8082 0.0078 0.3658
0.8077 0.0802 0.3674
0.8006 0.1526 0.3689
0.7870 0.2243 0.3704
0.7669 0.2948 0.3719
0.7404 0.3634 0.3733
0.7076 0.4296 0.3747
0.6688 0.4928 0.3760
0.6243 0.5523 0.3773
0.5743 0.6077 0.3785
0.5192 0.6584 0.3795
0.4596 0.7038 0.3805
0.3958 0.7436 0.3813
0.3285 0.7774 0.3820
0.2582 0.8049 0.3826
0.1856 0.8256 0.3830
0.1113 0.8396 0.3833
0.0360 0.8465 0.3835
-0.0397 0.8463 0.3835
-0.1150 0.8391 0.3833
-0.1892 0.8248 0.3830
-0.2618 0.8037 0.3826
-0.3319 0.7760 0.3820
-0.3991 0.7419 0.3813
-0.4627 0.7018 0.3805
-0.5221 0.6560 0.3795
-0.5769 0.6051 0.3784
-0.6267 0.5496 0.3773
-0.6710 0.4898 0.3760
-0.7095 0.4265 0.3747
-0.7419 0.3602 0.3733
-0.7681 0.2914 0.3719
-0.7879 0.2208 0.3704
-0.8012 0.1491 0.3689
-0.8080 0.0767 0.3673
-0.8082 0.0043 0.3658
-0.8020 -0.0676 0.3643
-0.7896 -0.1383 0.3628
-0.7710 -0.2074 0.3614
-0.7465 -0.2742 0.3600
-0.7164 -0.3385 0.3586
-0.6809 -0.3996 0.3573
-0.6403 -0.4572 0.3561
-0.5951 -0.5109 0.3550
-0.5455 -0.5603 0.3540
-0.4921 -0.6051 0.3530
-0.4351 -0.6451 0.3522
-0.3750 -0.6799 0.3514
-0.3123 -0.7094 0.3508
-0.2474 -0.7333 0.3503
-0.1808 -0.7517 0.3499
-0.1129 -0.7642 0.3497
-0.0443 -0.7709 0.3495
0.0247 -0.7718 0.3495
0.0934 -0.7667 0.3496
0.1616 -0.7558 0.3498
0.2286 -0.7391 0.3502
0.2940 -0.7167 0.3506
0.3574 -0.6888 0.3512
0.4182 -0.6555 0.3519
0.4761 -0.6170 0.3527
0.5306 -0.5735 0.3536
0.5813 -0.5254 0.3547
0.6278 -0.4729 0.3558
0.6697 -0.4163 0.3569
0.7067 -0.3562 0.3582
0.7384 -0.2928 0.3595
0.7645 -0.2266 0.3609
0.7848 -0.1582 0.3624
0.7990 -0.0879 0.3638
0.8070 -0.0163 0.3653
0.8086 0.0560 0.3669
0.8037 0.1284 0.3684
0.7922 0.2004 0.3699
0.7743 0.2714 0.3714
0.7499 0.3407 0.3728
0.7193 0.4078 0.3743
0.6825 0.4721 0.3756
0.6398 0.5329 0.3769
0.5916 0.5897 0.3781
0.5382 0.6420 0.3792
0.4800 0.6892 0.3802
0.4176 0.7310 0.3810
0.3514 0.7669 0.3818
0.2820 0.7964 0.3824
0.2101 0.8195 0.3829
0.1363 0.8357 0.3833
0.0612 0.8449 0.3835
-0.0144 0.8471 0.3835
-0.0899 0.8423 0.3834
-0.1646 0.8303 0.3832
-0.2378 0.8115 0.3828
-0.3088 0.7860 0.3822
-0.3770 0.7540 0.3816
-0.4419 0.7158 0.3808
-0.5027 0.6719 0.3798
-0.5591 0.6227 0.3788
-0.6106 0.5686 0.3777
-0.6568 0.5102 0.3764
-0.6973 0.4480 0.3751
-0.7318 0.3826 0.3738
-0.7601 0.3146 0.3723
-0.7820 0.2446 0.3709
-0.7975 0.1731 0.3694
-0.8064 0.1009 0.3679
-0.8088 0.0284 0.3663
-0.8048 -0.0437 0.3648
-0.7944 -0.1148 0.3633
-0.7779 -0.1845 0.3619
-0.7553 -0.2522 0.3604
-0.7271 -0.3173 0.3591
-0.6933 -0.3796 0.3578
-0.6544 -0.4384 0.3565
-0.6107 -0.4934 0.3554
-0.5625 -0.5443 0.3543
-0.5103 -0.5907 0.3533
-0.4545 -0.6323 0.3524
-0.3954 -0.6688 0.3517
-0.3335 -0.7001 0.3510
-0.2693 -0.7260 0.3505
-0.2032 -0.7462 0.3500
-0.1357 -0.7607 0.3497
-0.0673 -0.7693 0.3496
0.0016 -0.7721 0.3495
0.0705 -0.7691 0.3496
0.1389 -0.7601 0.3497
0.2064 -0.7453 0.3501
0.2724 -0.7248 0.3505
0.3365 -0.6987 0.3510
0.3982 -0.6672 0.3517
0.4571 -0.6304 0.3525
0.5128 -0.5885 0.3533
0.5649 -0.5419 0.3543
0.6128 -0.4909 0.3554
0.6563 -0.4356 0.3565
0.6949 -0.3767 0.3578
0.7284 -0.3143 0.3591
0.7564 -0.2490 0.3605
0.7787 -0.1813 0.3619
0.7950 -0.1115 0.3633
0.8050 -0.0403 0.3648
0.8088 0.0318 0.3664
0.8060 0.1043 0.3679
0.7968 0.1765 0.3694
0.7810 0.2479 0.3709
0.7588 0.3178 0.3724
0.7302 0.3857 0.3738
0.6954 0.4510 0.3752
0.6547 0.5130 0.3765
0.6083 0.5712 0.3777
0.5566 0.6251 0.3788
0.4999 0.6740 0.3798
0.4389 0.7177 0.3808
0.3739 0.7556 0.3816
0.3055 0.7873 0.3822
0.2344 0.8125 0.3828
0.1611 0.8310 0.3832
0.0864 0.8426 0.3834
0.0109 0.8472 0.3835
-0.0648 0.8447 0.3834
-0.1398 0.8351 0.3832
-0.2135 0.8186 0.3829
-0.2853 0.7952 0.3824
-0.3546 0.7654 0.3818
-0.4206 0.7292 0.3810
-0.4829 0.6872 0.3802
-0.5408 0.6397 0.3792
-0.5940 0.5872 0.3781
-0.6420 0.5302 0.3769
-0.6844 0.4692 0.3756
-0.7209 0.4048 0.3742
-0.7513 0.3376 0.3728
-0.7754 0.2681 0.3714
-0.7930 0.1971 0.3699
-0.8042 0.1251 0.3684
-0.8088 0.0526 0.3668
-0.8069 -0.0197 0.3653
-0.7986 -0.0912 0.3638
-0.7841 -0.1614 0.3623
-0.7635 -0.2298 0.3609
-0.7371 -0.2959 0.3595
-0.7052 -0.3591 0.3582
-0.6680 -0.4191 0.3569
-0.6258 -0.4755 0.3557
-0.5791 -0.5278 0.3546
-0.5282 -0.5757 0.3536
-0.4735 -0.6189 0.3527
-0.4155 -0.6572 0.3519
-0.3545 -0.6903 0.3512
-0.2910 -0.7179 0.3506
-0.2255 -0.7401 0.3502
-0.1584 -0.7565 0.3498
-0.0902 -0.7671 0.3496
-0.0214 -0.7719 0.3495
0.0475 -0.7707 0.3495
0.1162 -0.7637 0.3497
0.1840 -0.7509 0.3499
0.2505 -0.7323 0.3503
0.3153 -0.7081 0.3508
0.3779 -0.6783 0.3515
0.4378 -0.6432 0.3522
0.4946 -0.6031 0.3530
0.5479 -0.5580 0.3540
0.5973 -0.5084 0.3550
0.6423 -0.4545 0.3561
0.6826 -0.3968 0.3574
0.6034 -0.4828 0.3556
0.6462 -0.4284 0.3567
0.6841 -0.3704 0.3579
0.7170 -0.3089 0.3592
0.7445 -0.2447 0.3605
0.7663 -0.1780 0.3619
0.7823 -0.1093 0.3634
0.7921 -0.0392 0.3649
0.7957 0.0317 0.3664
0.7929 0.1030 0.3678
0.7837 0.1740 0.3693
0.7681 0.2442 0.3708
0.7461 0.3130 0.3723
0.7179 0.3797 0.3737
0.6837 0.4439 0.3750
0.6435 0.5048 0.3763
0.5978 0.5620 0.3775
0.5469 0.6149 0.3786
0.4912 0.6630 0.3796
0.4311 0.7058 0.3805
0.3672 0.7430 0.3813
0.2999 0.7741 0.3820
0.2300 0.7989 0.3825
0.1580 0.8171 0.3829
0.0845 0.8284 0.3831
0.0102 0.8328 0.3832
-0.0641 0.8303 0.3831
-0.1378 0.8209 0.3830
-0.2103 0.8046 0.3826
-0.2809 0.7816 0.3821
-0.3490 0.7522 0.3815
-0.4139 0.7167 0.3808
-0.4751 0.6754 0.3799
-0.5321 0.6287 0.3789
-0.5844 0.5771 0.3778
-0.6316 0.5210 0.3767
-0.6733 0.4610 0.3754
-0.7092 0.3977 0.3741
-0.7391 0.3316 0.3727
-0.7628 0.2633 0.3713
-0.7801 0.1935 0.3698
-0.7911 0.1226 0.3683
-0.7956 0.0513 0.3668
-0.7938 -0.0198 0.3653
-0.7857 -0.0902 0.3638
-0.7714 -0.1592 0.3624
-0.7512 -0.2265 0.3610
-0.7252 -0.2916 0.3596
-0.6938 -0.3538 0.3583
-0.6572 -0.4128 0.3571
-0.6157 -0.4683 0.3559
-0.5697 -0.5198 0.3548
-0.5196 -0.5669 0.3538
-0.4658 -0.6095 0.3529
-0.4086 -0.6472 0.3521
-0.3486 -0.6797 0.3514
-0.2861 -0.7069 0.3509
-0.2216 -0.7287 0.3504
-0.1556 -0.7448 0.3501
-0.0884 -0.7553 0.3499
-0.0207 -0.7599 0.3498
0.0472 -0.7588 0.3498
0.1147 -0.7519 0.3499
0.1815 -0.7392 0.3502
0.2470 -0.7208 0.3506
0.3108 -0.6969 0.3511
0.3723 -0.6676 0.3517
0.4313 -0.6330 0.3524
0.4872 -0.5934 0.3532
0.5396 -0.5490 0.3542
0.5881 -0.5001 0.3552
0.6324 -0.4470 0.3563
0.6720 -0.3901 0.3575
0.7066 -0.3298 0.3588
0.7359 -0.2664 0.3601
0.7597 -0.2005 0.3615
0.7776 -0.1324 0.3629
0.7895 -0.0628 0.3644
0.7952 0.0079 0.3659
0.7945 0.0792 0.3673
0.7875 0.1504 0.3688
0.7740 0.2209 0.3703
0.7542 0.2902 0.3718
0.7281 0.3577 0.3732
0.6958 0.4228 0.3746
0.6576 0.4848 0.3759
0.6137 0.5433 0.3771
0.5645 0.5977 0.3782
0.5103 0.6475 0.3793
0.4516 0.6921 0.3802
0.3889 0.7313 0.3811
0.3227 0.7644 0.3818
0.2536 0.7914 0.3823
0.1822 0.8117 0.3827
0.1091 0.8254 0.3830
0.0351 0.8321 0.3832
-0.0393 0.8319 0.3832
-0.1133 0.8248 0.3830
-0.1863 0.8108 0.3827
-0.2576 0.7900 0.3823
-0.3266 0.7628 0.3817
-0.3926 0.7292 0.3810
-0.4551 0.6898 0.3802
-0.5136 0.6449 0.3793
-0.5675 0.5948 0.3782
-0.6164 0.5402 0.3771
-0.6600 0.4815 0.3758
-0.6979 0.4192 0.3745
-0.7298 0.3540 0.3732
-0.7556 0.2864 0.3717
-0.7751 0.2169 0.3703
-0.7882 0.1463 0.3688
-0.7948 0.0751 0.3673
-0.7951 0.0039 0.3658
-0.7891 -0.0668 0.3643
-0.7768 -0.1363 0.3629
-0.7586 -0.2043 0.3614
-0.7345 -0.2701 0.3601
-0.7049 -0.3333 0.3587
-0.6700 -0.3935 0.3575
-0.6301 -0.4502 0.3563
-0.5856 -0.5030 0.3552
-0.5368 -0.5517 0.3541
-0.4842 -0.5958 0.3532
-0.4281 -0.6351 0.3524
-0.3689 -0.6694 0.3517
-0.3072 -0.6985 0.3511
-0.2433 -0.7221 0.3506
-0.1778 -0.7401 0.3502
-0.1109 -0.7524 0.3499
-0.0434 -0.7590 0.3498
0.0245 -0.7598 0.3498
0.0923 -0.7548 0.3499
0.1593 -0.7441 0.3501
0.2253 -0.7276 0.3504
0.2897 -0.7055 0.3509
0.3521 -0.6780 0.3515
0.4119 -0.6451 0.3521
0.4689 -0.6072 0.3529
0.5225 -0.5643 0.3538
0.5724 -0.5169 0.3548
0.6181 -0.4652 0.3559
0.6593 -0.4095 0.3571
0.6956 -0.3503 0.3583
0.7268 -0.2879 0.3596
0.7524 -0.2228 0.3610
0.7723 -0.1554 0.3624
0.7862 -0.0862 0.3639
0.7940 -0.0158 0.3654
0.7954 0.0554 0.3668
0.7906 0.1266 0.3683
0.7792 0.1974 0.3698
0.7615 0.2672 0.3713
0.7375 0.3354 0.3727
0.7072 0.4013 0.3741
0.6710 0.4645 0.3754
0.6290 0.5242 0.3767
0.5815 0.5800 0.3779
0.5289 0.6314 0.3790
0.4717 0.6778 0.3799
0.4103 0.7188 0.3808
0.3452 0.7540 0.3815
0.2770 0.7831 0.3821
0.2063 0.8057 0.3826
0.1337 0.8216 0.3830
0.0599 0.8306 0.3832
-0.0145 0.8328 0.3832
-0.0887 0.8280 0.3831
-0.1621 0.8162 0.3829
-0.2340 0.7977 0.3825
-0.3038 0.7726 0.3819
-0.3709 0.7411 0.3813
-0.4347 0.7036 0.3805
-0.4945 0.6605 0.3796
-0.5500 0.6121 0.3786
-0.6006 0.5589 0.3775
-0.6460 0.5015 0.3763
-0.6858 0.4403 0.3750
-0.7198 0.3760 0.3736
-0.7477 0.3092 0.3722
-0.7693 0.2403 0.3708
-0.7845 0.1700 0.3693
-0.7933 0.0990 0.3678
-0.7957 0.0277 0.3663
-0.7918 -0.0433 0.3648
-0.7816 -0.1133 0.3634
-0.7653 -0.1818 0.3619
-0.7432 -0.2484 0.3605
-0.7154 -0.3125 0.3592
-0.6822 -0.3738 0.3579
-0.6439 -0.4317 0.3567
-0.6009 -0.4858 0.3555
-0.5535 -0.5359 0.3545
-0.5021 -0.5816 0.3535
-0.4472 -0.6226 0.3526
-0.3890 -0.6585 0.3519
-0.3281 -0.6894 0.3512
-0.2649 -0.7148 0.3507
-0.1998 -0.7347 0.3503
-0.1334 -0.7489 0.3500
-0.0660 -0.7575 0.3498
0.0019 -0.7602 0.3497
0.0697 -0.7571 0.3498
0.1370 -0.7483 0.3500
0.2034 -0.7337 0.3503
0.2684 -0.7135 0.3507
0.3315 -0.6878 0.3513
0.3922 -0.6567 0.3519
0.4502 -0.6204 0.3527
0.5050 -0.5792 0.3535
0.5562 -0.5333 0.3545
0.6033 -0.4829 0.3555
0.6461 -0.4286 0.3567
0.6841 -0.3705 0.3579
0.7170 -0.3091 0.3592
0.7445 -0.2448 0.3605
0.7663 -0.1781 0.3619
0.7822 -0.1094 0.3634
0.7921 -0.0394 0.3649
0.7957 0.0316 0.3663
0.7929 0.1028 0.3678
0.7837 0.1739 0.3693
0.7681 0.2441 0.3708
0.7462 0.3128 0.3723
0.7180 0.3796 0.3737
0.6837 0.4437 0.3750
0.6436 0.5047 0.3763
0.5979 0.5619 0.3775
0.5470 0.6148 0.3786
0.4913 0.6629 0.3796
0.4312 0.7058 0.3805
0.3673 0.7429 0.3813
0.3001 0.7741 0.3820
0.2301 0.7989 0.3825
0.1581 0.8170 0.3829
0.0846 0.8284 0.3831
0.0104 0.8328 0.3832
-0.0640 0.8303 0.3831
-0.1377 0.8209 0.3830
-0.2102 0.8046 0.3826
-0.2808 0.7817 0.3821
-0.3489 0.7523 0.3815
-0.4138 0.7168 0.3808
-0.4750 0.6755 0.3799
-0.5320 0.6288 0.3789
-0.5843 0.5772 0.3778
-0.6315 0.5211 0.3767
-0.6732 0.4611 0.3754
-0.7091 0.3978 0.3741
-0.7390 0.3318 0.3727
-0.7627 0.2635 0.3713
-0.7801 0.1936 0.3698
-0.7911 0.1227 0.3683
-0.7956 0.0515 0.3668
-0.7938 -0.0196 0.3653
-0.7857 -0.0900 0.3638
-0.7714 -0.1591 0.3624
-0.7512 -0.2264 0.3610
-0.7253 -0.2914 0.3596
-0.6939 -0.3537 0.3583
-0.6572 -0.4127 0.3571
-0.6158 -0.4682 0.3559
-0.5698 -0.5197 0.3548
-0.5197 -0.5669 0.3538
-0.4659 -0.6094 0.3529
-0.4088 -0.6471 0.3521
-0.3487 -0.6797 0.3514
-0.2862 -0.7069 0.3509
-0.2217 -0.7287 0.3504
-0.1557 -0.7448 0.3501
-0.0886 -0.7553 0.3499
-0.0208 -0.7599 0.3498
0.0471 -0.7588 0.3498
0.1146 -0.7519 0.3499
0.1814 -0.7392 0.3502
0.2469 -0.7209 0.3506
0.3106 -0.6970 0.3511
0.3722 -0.6676 0.3517
0.4312 -0.6331 0.3524
0.4871 -0.5935 0.3532
0.5395 -0.5491 0.3542
0.5881 -0.5002 0.3552
0.6323 -0.4471 0.3563
0.6719 -0.3903 0.3575
0.7066 -0.3299 0.3588
0.7359 -0.2666 0.3601
0.7597 -0.2006 0.3615
0.7776 -0.1326 0.3629
0.7895 -0.0629 0.3644
0.7952 0.0078 0.3658
0.7945 0.0790 0.3673
0.7875 0.1502 0.3688
0.7741 0.2208 0.3703
0.7542 0.2901 0.3718
0.7281 0.3576 0.3732
0.6958 0.4226 0.3746
0.6576 0.4847 0.3759
0.6138 0.5432 0.3771
0.5646 0.5976 0.3782
0.5104 0.6474 0.3793
0.4517 0.6921 0.3802
0.3890 0.7312 0.3811
0.3229 0.7644 0.3818
0.2537 0.7913 0.3823
0.1823 0.8117 0.3827
0.1093 0.8254 0.3830
0.0352 0.8321 0.3832
-0.0392 0.8320 0.3832
-0.1132 0.8248 0.3830
-0.1862 0.8108 0.3827
-0.2575 0.7901 0.3823
-0.3264 0.7628 0.3817
-0.3925 0.7293 0.3810
-0.4550 0.6899 0.3802
-0.5134 0.6449 0.3793
-0.5674 0.5949 0.3782
-0.6163 0.5403 0.3771
-0.6599 0.4816 0.3758
-0.6978 0.4193 0.3745
-0.7297 0.3541 0.3732
-0.7555 0.2865 0.3717
-0.7750 0.2171 0.3703
-0.7881 0.1465 0.3688
-0.7948 0.0753 0.3673
-0.7951 0.0041 0.3658
-0.7891 -0.0666 0.3643
-0.7769 -0.1362 0.3629
-0.7586 -0.2042 0.3614
-0.7346 -0.2700 0.3601
-0.7049 -0.3332 0.3587
-0.6700 -0.3934 0.3575
-0.6302 -0.4501 0.3563
-0.5857 -0.5029 0.3552
-0.5369 -0.5516 0.3541
-0.4843 -0.5957 0.3532
-0.4282 -0.6351 0.3524
-0.3691 -0.6694 0.3517
-0.3073 -0.6984 0.3511
-0.2435 -0.7220 0.3506
-0.1779 -0.7400 0.3502
-0.1111 -0.7524 0.3499
-0.0435 -0.7590 0.3498
0.0244 -0.7598 0.3498
0.0921 -0.7548 0.3499
0.1592 -0.7441 0.3501
0.2252 -0.7276 0.3504
0.2896 -0.7056 0.3509
0.3519 -0.6780 0.3515
0.4118 -0.6452 0.3521
0.4688 -0.6072 0.3529
0.5224 -0.5644 0.3538
0.5723 -0.5170 0.3548
0.6180 -0.4653 0.3559
0.6592 -0.4097 0.3571
0.6956 -0.3504 0.3583
0.7267 -0.2880 0.3596
0.7524 -0.2229 0.3610
0.7723 -0.1555 0.3624
0.7862 -0.0863 0.3639
0.7940 -0.0159 0.3654
0.7955 0.0552 0.3668
0.7906 0.1265 0.3683
0.7793 0.1973 0.3698
0.7616 0.2671 0.3713
0.7375 0.3353 0.3727
0.7073 0.4012 0.3741
0.6711 0.4643 0.3754
0.6290 0.5241 0.3767
0.5816 0.5799 0.3779
0.5290 0.6313 0.3790
0.4718 0.6777 0.3799
0.4104 0.7188 0.3808
0.3453 0.7540 0.3815
0.2771 0.7830 0.3821
0.2064 0.8056 0.3826
0.1338 0.8216 0.3830
0.0600 0.8306 0.3832
-0.0143 0.8328 0.3832
-0.0885 0.8280 0.3831
-0.1619 0.8163 0.3829
-0.2339 0.7977 0.3825
-0.3037 0.7726 0.3819
-0.3708 0.7412 0.3813
-0.4345 0.7037 0.3805
-0.4944 0.6605 0.3796
-0.5499 0.6122 0.3786
-0.6005 0.5590 0.3775
-0.6460 0.5016 0.3763
-0.6858 0.4405 0.3750
-0.7197 0.3762 0.3736
-0.7476 0.3093 0.3722
-0.7692 0.2404 0.3708
-0.7845 0.1702 0.3693
-0.7933 0.0991 0.3678
-0.7957 0.0278 0.3663
-0.7918 -0.0431 0.3648
-0.7816 -0.1131 0.3634
-0.7654 -0.1817 0.3619
-0.7432 -0.2483 0.3605
-0.7154 -0.3124 0.3592
-0.6823 -0.3737 0.3579
-0.6440 -0.4316 0.3567
-0.6010 -0.4857 0.3555
-0.5536 -0.5358 0.3545
-0.5023 -0.5815 0.3535
-0.4473 -0.6225 0.3527
-0.3891 -0.6585 0.3519
-0.3282 -0.6893 0.3512
-0.2650 -0.7147 0.3507
-0.2000 -0.7347 0.3503
-0.1335 -0.7489 0.3500
-0.0661 -0.7574 0.3498
0.0017 -0.7602 0.3497
0.0696 -0.7571 0.3498
0.1369 -0.7483 0.3500
0.2033 -0.7338 0.3503
0.2683 -0.7135 0.3507
0.3314 -0.6878 0.3513
0.3921 -0.6567 0.3519
0.4501 -0.6205 0.3527
0.5049 -0.5793 0.3535
0.5561 -0.5333 0.3545
0.6033 -0.4830 0.3555
0.6460 -0.4287 0.3567
0.6840 -0.3706 0.3579
0.7169 -0.3092 0.3592
0.7444 -0.2449 0.3605
0.7663 -0.1782 0.3619
0.7822 -0.1096 0.3634
0.7921 -0.0395 0.3649
0.7957 0.0314 0.3663
0.7929 0.1027 0.3678
0.7838 0.1737 0.3693
0.7682 0.2439 0.3708
0.7462 0.3127 0.3723
0.7181 0.3795 0.3737
0.6838 0.4436 0.3750
0.6437 0.5046 0.3763
0.5980 0.5618 0.3775
0.5471 0.6147 0.3786
0.4914 0.6628 0.3796
0.4313 0.7057 0.3805
0.3674 0.7429 0.3813
0.3002 0.7740 0.3820
0.2303 0.7988 0.3825
0.1582 0.8170 0.3829
0.0848 0.8284 0.3831
0.0105 0.8328 0.3832
-0.0638 0.8304 0.3831
-0.1376 0.8209 0.3830
-0.2101 0.8047 0.3826
-0.2807 0.7817 0.3821
-0.3487 0.7524 0.3815
-0.4136 0.7169 0.3808
-0.4749 0.6756 0.3799
-0.5319 0.6289 0.3789
-0.5842 0.5773 0.3778
-0.6314 0.5212 0.3767
-0.6731 0.4613 0.3754
-0.7091 0.3980 0.3741
-0.7390 0.3319 0.3727
-0.7627 0.2636 0.3713
-0.7801 0.1937 0.3698
-0.7911 0.1229 0.3683
-0.7956 0.0516 0.3668
-0.7938 -0.0195 0.3653
-0.7857 -0.0899 0.3638
-0.7715 -0.1590 0.3624
-0.7513 -0.2263 0.3610
-0.7253 -0.2913 0.3596
-0.6939 -0.3536 0.3583
-0.6573 -0.4126 0.3571
-0.6159 -0.4681 0.3559
-0.5699 -0.5196 0.3548
-0.5198 -0.5668 0.3538
-0.4660 -0.6093 0.3529
-0.4089 -0.6470 0.3521
-0.3488 -0.6796 0.3514
-0.2863 -0.7069 0.3509
-0.2218 -0.7286 0.3504
-0.1558 -0.7448 0.3501
-0.0887 -0.7552 0.3499
-0.0209 -0.7599 0.3498
0.0469 -0.7588 0.3498
0.1145 -0.7519 0.3499
0.1813 -0.7392 0.3502
0.2467 -0.7209 0.3506
0.3105 -0.6970 0.3511
0.3721 -0.6677 0.3517
0.4311 -0.6331 0.3524
0.4870 -0.5936 0.3532
0.5394 -0.5492 0.3542
0.5880 -0.5003 0.3552
0.6322 -0.4473 0.3563
0.6719 -0.3904 0.3575
0.7065 -0.3300 0.3588
0.7358 -0.2667 0.3601
0.7596 -0.2007 0.3615
0.7775 -0.1327 0.3629
0.7895 -0.0630 0.3644
0.7952 0.0077 0.3658
0.7945 0.0789 0.3673
0.7875 0.1501 0.3688
0.7741 0.2206 0.3703
0.7543 0.2899 0.3718
0.7282 0.3574 0.3732
0.6959 0.4225 0.3746
0.6577 0.4846 0.3759
0.6139 0.5431 0.3771
0.5647 0.5975 0.3782
0.5105 0.6473 0.3793
0.4519 0.6920 0.3802
0.3892 0.7311 0.3811
0.3230 0.7643 0.3817
0.2539 0.7913 0.3823
0.1825 0.8117 0.3827
0.1094 0.8253 0.3830
0.0354 0.8321 0.3832
-0.0390 0.8320 0.3832
-0.1130 0.8248 0.3830
-0.1860 0.8109 0.3827
-0.2573 0.7901 0.3823
-0.3263 0.7629 0.3817
-0.3923 0.7294 0.3810
-0.4549 0.6900 0.3802
-0.5133 0.6450 0.3793
-0.5673 0.5950 0.3782
-0.6162 0.5404 0.3771
-0.6598 0.4817 0.3758
-0.6977 0.4194 0.3745
-0.7297 0.3542 0.3732
-0.7555 0.2866 0.3718
-0.7750 0.2172 0.3703
-0.7881 0.1466 0.3688
-0.7948 0.0754 0.3673
-0.7951 0.0042 0.3658
-0.7891 -0.0665 0.3643
-0.7769 -0.1361 0.3629
-0.7587 -0.2040 0.3614
-0.7346 -0.2699 0.3601
-0.7050 -0.3331 0.3587
-0.6701 -0.3933 0.3575
-0.6302 -0.4500 0.3563
-0.5857 -0.5029 0.3552
-0.5370 -0.5515 0.3541
-0.4844 -0.5957 0.3532
-0.4283 -0.6350 0.3524
-0.3692 -0.6693 0.3517
-0.3075 -0.6984 0.3511
-0.2436 -0.7220 0.3506
-0.1780 -0.7400 0.3502
-0.1112 -0.7524 0.3499
-0.0436 -0.7590 0.3498
0.0243 -0.7598 0.3498
0.0920 -0.7548 0.3499
0.1591 -0.7441 0.3501
0.2250 -0.7277 0.3504
0.2894 -0.7056 0.3509
0.3518 -0.6781 0.3515
0.4117 -0.6453 0.3521
0.4687 -0.6073 0.3529
0.5223 -0.5645 0.3538
0.5722 -0.5171 0.3548
0.6179 -0.4654 0.3559
0.6592 -0.4098 0.3571
0.6955 -0.3505 0.3583
0.7267 -0.2881 0.3596
0.7523 -0.2230 0.3610
0.7722 -0.1556 0.3624
0.7862 -0.0864 0.3639
0.7939 -0.0160 0.3653
0.7955 0.0551 0.3668
0.7906 0.1263 0.3683
0.7793 0.1972 0.3698
0.7616 0.2670 0.3713
0.7376 0.3351 0.3727
0.7074 0.4011 0.3741
0.6711 0.4642 0.3754
0.6291 0.5240 0.3767
0.5817 0.5798 0.3779
0.5291 0.6312 0.3789
0.4719 0.6777 0.3799
0.4105 0.7187 0.3808
0.3454 0.7539 0.3815
0.2773 0.7830 0.3821
0.2065 0.8056 0.3826
0.1340 0.8215 0.3830
0.0602 0.8306 0.3831
-0.0142 0.8328 0.3832
-0.0884 0.8280 0.3831
-0.1618 0.8163 0.3829
-0.2338 0.7978 0.3825
-0.3036 0.7727 0.3819
-0.3707 0.7412 0.3813
-0.4344 0.7038 0.3805
-0.4943 0.6606 0.3796
-0.5498 0.6123 0.3786
-0.6004 0.5591 0.3775
-0.6459 0.5017 0.3763
-0.6857 0.4406 0.3750
-0.7197 0.3763 0.3736
-0.7476 0.3094 0.3722
-0.7692 0.2406 0.3708
-0.7844 0.1703 0.3693
-0.7933 0.0992 0.3678
-0.7957 0.0279 0.3663
-0.7918 -0.0430 0.3648
-0.7817 -0.1130 0.3634
-0.7654 -0.1816 0.3619
-0.7433 -0.2482 0.3605
-0.7155 -0.3123 0.3592
-0.6823 -0.3735 0.3579
-0.6441 -0.4315 0.3567
-0.6011 -0.4856 0.3555
-0.5537 -0.5357 0.3545
-0.5024 -0.5814 0.3535
-0.4474 -0.6224 0.3527
-0.3892 -0.6584 0.3519
-0.3283 -0.6892 0.3512
-0.2651 -0.7147 0.3507
-0.2001 -0.7346 0.3503
-0.1336 -0.7489 0.3500
-0.0662 -0.7574 0.3498
0.0016 -0.7602 0.3497
0.0694 -0.7572 0.3498
0.1368 -0.7483 0.3500
0.2032 -0.7338 0.3503
0.2681 -0.7136 0.3507
0.3312 -0.6879 0.3513
0.3920 -0.6568 0.3519
0.4500 -0.6205 0.3527
0.5048 -0.5793 0.3535
0.5560 -0.5334 0.3545
0.6032 -0.4831 0.3555
0.6459 -0.4288 0.3567
0.6839 -0.3707 0.3579
0.7168 -0.3093 0.3592
0.7444 -0.2450 0.3605
0.7662 -0.1783 0.3619
0.7822 -0.1097 0.3634
0.7920 -0.0397 0.3649
0.7957 0.0313 0.3663
0.7929 0.1026 0.3678
0.7838 0.1736 0.3693
0.7682 0.2438 0.3708
0.7463 0.3126 0.3723
0.7181 0.3793 0.3737
0.6839 0.4435 0.3750
0.6438 0.5044 0.3763
0.5981 0.5617 0.3775
0.5472 0.6146 0.3786
0.4915 0.6627 0.3796
0.4315 0.7056 0.3805
0.3675 0.7428 0.3813
0.3003 0.7740 0.3820
0.2304 0.7988 0.3825
0.1584 0.8170 0.3829
0.0849 0.8284 0.3831
0.0107 0.8328 0.3832
-0.0637 0.8304 0.3831
-0.1374 0.8210 0.3830
-0.2099 0.8047 0.3826
-0.2805 0.7818 0.3821
-0.3486 0.7524 0.3815
-0.4135 0.7169 0.3808
-0.4748 0.6756 0.3799
-0.5318 0.6290 0.3789
-0.5841 0.5774 0.3779
-0.6313 0.5213 0.3767
-0.6730 0.4614 0.3754
-0.7090 0.3981 0.3741
-0.7389 0.3320 0.3727
-0.7627 0.2637 0.3713
-0.7801 0.1939 0.3698
-0.7911 0.1230 0.3683
-0.7956 0.0517 0.3668
-0.7938 -0.0194 0.3653
-0.7857 -0.0897 0.3638
-0.7715 -0.1589 0.3624
-0.7513 -0.2262 0.3610
-0.7254 -0.2912 0.3596
-0.6940 -0.3534 0.3583
-0.6574 -0.4125 0.3571
-0.6160 -0.4680 0.3559
-0.5700 -0.5195 0.3548
-0.5199 -0.5667 0.3538
-0.4661 -0.6093 0.3529
-0.4090 -0.6470 0.3521
-0.3490 -0.6795 0.3514
-0.2865 -0.7068 0.3509
-0.2220 -0.7286 0.3504
-0.1559 -0.7448 0.3501
-0.0888 -0.7552 0.3499
-0.0211 -0.7599 0.3498
0.0468 -0.7588 0.3498
0.1144 -0.7519 0.3499
0.1811 -0.7393 0.3502
0.2466 -0.7210 0.3506
0.3104 -0.6971 0.3511
0.3720 -0.6678 0.3517
0.4310 -0.6332 0.3524
0.4869 -0.5936 0.3532
0.5393 -0.5493 0.3542
0.5879 -0.5004 0.3552
0.6322 -0.4474 0.3563
0.6718 -0.3905 0.3575
0.5940 -0.4753 0.3557
0.6361 -0.4218 0.3568
0.6734 -0.3645 0.3580
0.7057 -0.3041 0.3593
0.7328 -0.2408 0.3606
0.7542 -0.1751 0.3620
0.7698 -0.1076 0.3634
0.7794 -0.0386 0.3649
0.7829 0.0312 0.3663
0.7801 0.1013 0.3678
0.7710 0.1712 0.3693
0.7556 0.2402 0.3707
0.7340 0.3079 0.3722
0.7062 0.3735 0.3735
0.6724 0.4366 0.3749
0.6329 0.4965 0.3761
0.5880 0.5527 0.3773
0.5379 0.6047 0.3784
0.4830 0.6520 0.3794
0.4239 0.6941 0.3803
0.3610 0.7306 0.3810
0.2949 0.7612 0.3817
0.2261 0.7855 0.3822
0.1553 0.8034 0.3826
0.0831 0.8145 0.3828
0.0101 0.8189 0.3829
-0.0630 0.8164 0.3829
-0.1355 0.8071 0.3827
-0.2068 0.7911 0.3823
-0.2762 0.7686 0.3819
-0.3432 0.7397 0.3813
-0.4070 0.7048 0.3805
-0.4672 0.6642 0.3797
-0.5233 0.6183 0.3787
-0.5747 0.5675 0.3776
-0.6212 0.5124 0.3765
-0.6622 0.4535 0.3753
-0.6976 0.3912 0.3739
-0.7270 0.3262 0.3726
-0.7504 0.2591 0.3712
-0.7675 0.1903 0.3697
-0.7783 0.1206 0.3683
-0.7829 0.0505 0.3668
-0.7811 -0.0195 0.3653
-0.7732 -0.0887 0.3639
-0.7592 -0.1567 0.3624
-0.7393 -0.2230 0.3610
-0.7138 -0.2870 0.3597
-0.6829 -0.3482 0.3584
-0.6469 -0.4064 0.3572
-0.6061 -0.4610 0.3560
-0.5609 -0.5117 0.3550
-0.5116 -0.5582 0.3540
-0.4586 -0.6001 0.3531
-0.4023 -0.6372 0.3523
-0.3432 -0.6693 0.3517
-0.2817 -0.6961 0.3511
-0.2182 -0.7175 0.3506
-0.1532 -0.7334 0.3503
-0.0871 -0.7437 0.3501
-0.0204 -0.7483 0.3500
0.0465 -0.7472 0.3500
0.1130 -0.7403 0.3502
0.1787 -0.7278 0.3504
0.2432 -0.7098 0.3508
0.3060 -0.6862 0.3513
0.3666 -0.6573 0.3519
0.4247 -0.6232 0.3526
0.4797 -0.5842 0.3534
0.5313 -0.5405 0.3543
0.5790 -0.4923 0.3554
0.6225 -0.4401 0.3564
0.6615 -0.3840 0.3576
0.6955 -0.3246 0.3589
0.7243 -0.2622 0.3602
0.7477 -0.1973 0.3615
0.7653 -0.1303 0.3629
0.7769 -0.0618 0.3644
0.7824 0.0078 0.3658
0.7817 0.0779 0.3673
0.7748 0.1479 0.3688
0.7615 0.2173 0.3702
0.7419 0.2855 0.3717
0.7162 0.3518 0.3731
0.6844 0.4158 0.3744
0.6468 0.4769 0.3757
0.6036 0.5344 0.3769
0.5551 0.5878 0.3780
0.5018 0.6367 0.3791
0.4441 0.6806 0.3800
0.3824 0.7191 0.3808
0.3173 0.7517 0.3815
0.2494 0.7781 0.3820
0.1792 0.7981 0.3825
0.1073 0.8115 0.3827
0.0345 0.8182 0.3829
-0.0386 0.8180 0.3829
-0.1114 0.8110 0.3827
-0.1832 0.7972 0.3825
-0.2533 0.7768 0.3820
-0.3211 0.7500 0.3815
-0.3861 0.7171 0.3808
-0.4475 0.6783 0.3800
-0.5050 0.6342 0.3790
-0.5581 0.5850 0.3780
-0.6062 0.5313 0.3769
-0.6491 0.4735 0.3757
-0.6864 0.4123 0.3744
-0.7179 0.3482 0.3730
-0.7433 0.2817 0.3716
-0.7625 0.2134 0.3702
-0.7754 0.1440 0.3688
-0.7821 0.0739 0.3673
-0.7824 0.0039 0.3658
-0.7765 -0.0657 0.3644
-0.7645 -0.1342 0.3629
-0.7466 -0.2011 0.3615
-0.7229 -0.2659 0.3601
-0.6938 -0.3281 0.3588
-0.6595 -0.3873 0.3576
-0.6202 -0.4432 0.3564
-0.5765 -0.4952 0.3553
-0.5285 -0.5431 0.3543
-0.4767 -0.5866 0.3534
-0.4215 -0.6253 0.3526
-0.3633 -0.6591 0.3519
-0.3025 -0.6877 0.3513
-0.2396 -0.7110 0.3508
-0.1750 -0.7287 0.3504
-0.1092 -0.7409 0.3502
-0.0427 -0.7474 0.3500
0.0242 -0.7482 0.3500
0.0908 -0.7433 0.3501
0.1569 -0.7326 0.3503
0.2218 -0.7164 0.3507
0.2852 -0.6947 0.3511
0.3466 -0.6675 0.3517
0.4056 -0.6352 0.3524
0.4617 -0.5978 0.3531
0.5144 -0.5556 0.3540
0.5635 -0.5089 0.3550
0.6085 -0.4580 0.3561
0.6490 -0.4031 0.3572
0.6847 -0.3448 0.3584
0.7153 -0.2834 0.3597
0.7405 -0.2192 0.3611
0.7600 -0.1529 0.3625
0.7737 -0.0848 0.3639
0.7813 -0.0155 0.3654
0.7827 0.0545 0.3668
0.7778 0.1246 0.3683
0.7666 0.1942 0.3698
0.7491 0.2629 0.3712
0.7254 0.3299 0.3726
0.6957 0.3948 0.3740
0.6600 0.4568 0.3753
0.6186 0.5156 0.3765
0.5719 0.5705 0.3777
0.5202 0.6209 0.3787
0.4639 0.6666 0.3797
0.4034 0.7069 0.3805
0.3394 0.7415 0.3813
0.2724 0.7700 0.3819
0.2028 0.7922 0.3823
0.1314 0.8078 0.3827
0.0589 0.8167 0.3829
-0.0142 0.8188 0.3829
-0.0872 0.8141 0.3828
-0.1594 0.8026 0.3826
-0.2301 0.7844 0.3822
-0.2988 0.7597 0.3817
-0.3647 0.7288 0.3810
-0.4274 0.6919 0.3803
-0.4863 0.6495 0.3794
-0.5409 0.6019 0.3784
-0.5907 0.5497 0.3773
-0.6354 0.4932 0.3761
-0.6746 0.4331 0.3748
-0.7080 0.3699 0.3735
-0.7355 0.3041 0.3721
-0.7568 0.2364 0.3707
-0.7718 0.1673 0.3692
-0.7805 0.0974 0.3678
-0.7830 0.0272 0.3663
-0.7791 -0.0426 0.3648
-0.7692 -0.1115 0.3634
-0.7532 -0.1789 0.3620
-0.7315 -0.2445 0.3606
-0.7041 -0.3076 0.3593
-0.6715 -0.3679 0.3580
-0.6339 -0.4249 0.3568
-0.5916 -0.4783 0.3557
-0.5449 -0.5276 0.3546
-0.4944 -0.5726 0.3537
-0.4403 -0.6129 0.3529
-0.3830 -0.6484 0.3521
-0.3230 -0.6788 0.3515
-0.2608 -0.7038 0.3509
-0.1968 -0.7234 0.3505
-0.1313 -0.7375 0.3502
-0.0650 -0.7459 0.3500
0.0018 -0.7485 0.3500
0.0686 -0.7455 0.3501
0.1349 -0.7368 0.3502
0.2003 -0.7225 0.3505
0.2643 -0.7025 0.3509
0.3264 -0.6772 0.3515
0.3862 -0.6465 0.3521
0.4433 -0.6108 0.3529
0.4972 -0.5702 0.3537
0.5475 -0.5250 0.3547
0.5939 -0.4754 0.3557
0.6360 -0.4219 0.3568
0.6733 -0.3647 0.3580
0.7057 -0.3042 0.3593
0.7327 -0.2409 0.3606
0.7542 -0.1753 0.3620
0.7698 -0.1077 0.3634
0.7794 -0.0388 0.3649
0.7829 0.0311 0.3663
0.7801 0.1012 0.3678
0.7711 0.1711 0.3693
0.7557 0.2401 0.3707
0.7340 0.3077 0.3721
0.7063 0.3734 0.3735
0.6725 0.4365 0.3749
0.6330 0.4964 0.3761
0.5881 0.5526 0.3773
0.5380 0.6046 0.3784
0.4831 0.6519 0.3794
0.4240 0.6940 0.3803
0.3612 0.7306 0.3810
0.2951 0.7611 0.3817
0.2263 0.7855 0.3822
0.1554 0.8033 0.3826
0.0832 0.8145 0.3828
0.0102 0.8189 0.3829
-0.0629 0.8164 0.3829
-0.1354 0.8072 0.3827
-0.2067 0.7912 0.3823
-0.2761 0.7686 0.3819
-0.3430 0.7398 0.3813
-0.4069 0.7048 0.3805
-0.4671 0.6642 0.3797
-0.5232 0.6184 0.3787
-0.5746 0.5676 0.3776
-0.6211 0.5125 0.3765
-0.6621 0.4536 0.3753
-0.6975 0.3913 0.3739
-0.7270 0.3263 0.3726
-0.7504 0.2592 0.3712
-0.7675 0.1905 0.3697
-0.7783 0.1208 0.3683
-0.7829 0.0506 0.3668
-0.7811 -0.0193 0.3653
-0.7732 -0.0886 0.3639
-0.7592 -0.1566 0.3624
-0.7394 -0.2228 0.3611
-0.7139 -0.2868 0.3597
-0.6830 -0.3481 0.3584
-0.6470 -0.4063 0.3572
-0.6062 -0.4609 0.3560
-0.5610 -0.5116 0.3550
-0.5117 -0.5581 0.3540
-0.4587 -0.6000 0.3531
-0.4025 -0.6371 0.3523
-0.3434 -0.6692 0.3517
-0.2818 -0.6960 0.3511
-0.2183 -0.7175 0.3506
-0.1533 -0.7334 0.3503
-0.0872 -0.7437 0.3501
-0.0205 -0.7483 0.3500
0.0463 -0.7472 0.3500
0.1129 -0.7404 0.3502
0.1786 -0.7279 0.3504
0.2431 -0.7098 0.3508
0.3059 -0.6863 0.3513
0.3665 -0.6574 0.3519
0.4245 -0.6233 0.3526
0.4796 -0.5843 0.3534
0.5312 -0.5406 0.3543
0.5789 -0.4924 0.3554
0.6224 -0.4402 0.3564
0.6614 -0.3841 0.3576
0.6955 -0.3247 0.3589
0.7243 -0.2623 0.3602
0.7476 -0.1974 0.3615
0.7652 -0.1304 0.3629
0.7769 -0.0619 0.3644
0.7824 0.0077 0.3658
0.7818 0.0778 0.3673
0.7748 0.1478 0.3688
0.7615 0.2172 0.3702
0.7420 0.2854 0.3717
0.7162 0.3517 0.3731
0.6844 0.4157 0.3744
0.6468 0.4767 0.3757
0.6037 0.5343 0.3769
0.5552 0.5877 0.3780
0.5020 0.6367 0.3791
0.4442 0.6806 0.3800
0.3826 0.7190 0.3808
0.3175 0.7516 0.3815
0.2495 0.7781 0.3820
0.1793 0.7981 0.3825
0.1074 0.8115 0.3827
0.0346 0.8182 0.3829
-0.0385 0.8180 0.3829
-0.1113 0.8110 0.3827
-0.1831 0.7972 0.3825
-0.2532 0.7769 0.3820
-0.3210 0.7501 0.3815
-0.3859 0.7172 0.3808
-0.4474 0.6784 0.3800
-0.5049 0.6342 0.3790
-0.5580 0.5851 0.3780
-0.6061 0.5314 0.3769
-0.6490 0.4736 0.3757
-0.6864 0.4124 0.3744
-0.7178 0.3483 0.3730
-0.7432 0.2818 0.3716
-0.7625 0.2136 0.3702
-0.7754 0.1441 0.3688
-0.7820 0.0741 0.3673
-0.7824 0.0040 0.3658
-0.7765 -0.0656 0.3644
-0.7645 -0.1340 0.3629
-0.7466 -0.2009 0.3615
-0.7230 -0.2657 0.3602
-0.6939 -0.3280 0.3588
-0.6595 -0.3872 0.3576
-0.6203 -0.4431 0.3564
-0.5765 -0.4951 0.3553
-0.5286 -0.5430 0.3543
-0.4768 -0.5865 0.3534
-0.4216 -0.6253 0.3526
-0.3634 -0.6591 0.3519
-0.3026 -0.6877 0.3513
-0.2397 -0.7109 0.3508
-0.1752 -0.7287 0.3504
-0.1094 -0.7409 0.3502
-0.0428 -0.7474 0.3500
0.0240 -0.7482 0.3500
0.0907 -0.7433 0.3501
0.1568 -0.7327 0.3503
0.2217 -0.7165 0.3507
0.2851 -0.6947 0.3511
0.3465 -0.6676 0.3517
0.4055 -0.6352 0.3524
0.4616 -0.5979 0.3531
0.5143 -0.5557 0.3540
0.5634 -0.5090 0.3550
0.6084 -0.4581 0.3561
0.6489 -0.4033 0.3572
0.6847 -0.3449 0.3584
0.7153 -0.2835 0.3597
0.7405 -0.2194 0.3611
0.7600 -0.1530 0.3625
0.7737 -0.0849 0.3639
0.7813 -0.0156 0.3654
0.7827 0.0543 0.3668
0.7778 0.1244 0.3683
0.7666 0.1941 0.3698
0.7492 0.2628 0.3712
0.7255 0.3298 0.3726
0.6957 0.3946 0.3740
0.6600 0.4567 0.3753
0.6187 0.5155 0.3765
0.5720 0.5704 0.3777
0.5203 0.6209 0.3787
0.4640 0.6665 0.3797
0.4036 0.7068 0.3805
0.3395 0.7414 0.3813
0.2725 0.7699 0.3819
0.2030 0.7921 0.3823
0.1316 0.8078 0.3827
0.0590 0.8167 0.3829
-0.0141 0.8188 0.3829
-0.0870 0.8141 0.3828
-0.1592 0.8026 0.3826
-0.2300 0.7844 0.3822
-0.2986 0.7597 0.3817
-0.3646 0.7288 0.3810
-0.4273 0.6920 0.3803
-0.4862 0.6496 0.3794
-0.5408 0.6020 0.3784
-0.5906 0.5498 0.3773
-0.6353 0.4933 0.3761
-0.6745 0.4332 0.3748
-0.7080 0.3700 0.3735
-0.7354 0.3043 0.3721
-0.7567 0.2365 0.3707
-0.7718 0.1674 0.3692
-0.7805 0.0975 0.3678
-0.7830 0.0274 0.3663
-0.7792 -0.0424 0.3648
-0.7692 -0.1113 0.3634
-0.7533 -0.1788 0.3620
-0.7315 -0.2444 0.3606
-0.7042 -0.3075 0.3593
-0.6716 -0.3678 0.3580
-0.6339 -0.4248 0.3568
-0.5917 -0.4782 0.3557
-0.5450 -0.5275 0.3546
-0.4945 -0.5725 0.3537
-0.4404 -0.6129 0.3529
-0.3831 -0.6483 0.3521
-0.3232 -0.6787 0.3515
-0.2609 -0.7038 0.3509
-0.1969 -0.7234 0.3505
-0.1314 -0.7374 0.3502
-0.0651 -0.7458 0.3500
0.0017 -0.7485 0.3500
0.0685 -0.7455 0.3501
0.1348 -0.7368 0.3502
0.2002 -0.7225 0.3505
0.2641 -0.7026 0.3509
0.3263 -0.6772 0.3515
0.3861 -0.6466 0.3521
0.4432 -0.6109 0.3529
0.4971 -0.5703 0.3537
0.5475 -0.5251 0.3547
0.5938 -0.4755 0.3557
0.6359 -0.4220 0.3568
0.6733 -0.3648 0.3580
0.7056 -0.3043 0.3593
0.7327 -0.2411 0.3606
0.7541 -0.1754 0.3620
0.7698 -0.1078 0.3634
0.7794 -0.0389 0.3649
0.7829 0.0309 0.3663
0.7801 0.1011 0.3678
0.7711 0.1709 0.3693
0.7557 0.2400 0.3707
0.7341 0.3076 0.3721
0.7063 0.3733 0.3735
0.6726 0.4363 0.3749
0.6331 0.4963 0.3761
0.5881 0.5525 0.3773
0.5381 0.6045 0.3784
0.4833 0.6518 0.3794
0.4242 0.6939 0.3803
0.3613 0.7305 0.3810
0.2952 0.7611 0.3817
0.2264 0.7855 0.3822
0.1556 0.8033 0.3826
0.0834 0.8145 0.3828
0.0104 0.8189 0.3829
-0.0627 0.8164 0.3829
-0.1353 0.8072 0.3827
-0.2065 0.7912 0.3823
-0.2760 0.7687 0.3819
-0.3429 0.7398 0.3813
-0.4068 0.7049 0.3805
-0.4670 0.6643 0.3797
-0.5231 0.6184 0.3787
-0.5745 0.5677 0.3776
-0.6210 0.5126 0.3765
-0.6621 0.4537 0.3753
-0.6975 0.3914 0.3740
-0.7269 0.3265 0.3726
-0.7503 0.2593 0.3712
-0.7675 0.1906 0.3697
-0.7783 0.1209 0.3683
-0.7829 0.0508 0.3668
-0.7811 -0.0192 0.3653
-0.7732 -0.0884 0.3639
-0.7592 -0.1565 0.3624
-0.7394 -0.2227 0.3611
-0.7139 -0.2867 0.3597
-0.6830 -0.3480 0.3584
-0.6470 -0.4062 0.3572
-0.6063 -0.4608 0.3561
-0.5611 -0.5115 0.3550
-0.5118 -0.5580 0.3540
-0.4588 -0.5999 0.3531
-0.4026 -0.6370 0.3523
-0.3435 -0.6691 0.3517
-0.2819 -0.6960 0.3511
-0.2184 -0.7174 0.3506
-0.1534 -0.7334 0.3503
-0.0873 -0.7437 0.3501
-0.0206 -0.7483 0.3500
0.0462 -0.7472 0.3500
0.1127 -0.7404 0.3502
0.1785 -0.7279 0.3504
0.2430 -0.7098 0.3508
0.3057 -0.6863 0.3513
0.3664 -0.6574 0.3519
0.4244 -0.6234 0.3526
0.4795 -0.5844 0.3534
0.5311 -0.5407 0.3543
0.5788 -0.4925 0.3553
0.6224 -0.4403 0.3564
0.6613 -0.3843 0.3576
0.6954 -0.3249 0.3589
0.7242 -0.2625 0.3602
0.7476 -0.1976 0.3615
0.7652 -0.1306 0.3629
0.7769 -0.0620 0.3644
0.7824 0.0075 0.3658
0.7818 0.0776 0.3673
0.7748 0.1477 0.3688
0.7615 0.2170 0.3702
0.7420 0.2852 0.3717
0.7163 0.3516 0.3731
0.6845 0.4156 0.3744
0.6469 0.4766 0.3757
0.6037 0.5342 0.3769
0.5553 0.5876 0.3780
0.5021 0.6366 0.3791
0.4443 0.6805 0.3800
0.3827 0.7189 0.3808
0.3176 0.7516 0.3815
0.2496 0.7780 0.3820
0.1794 0.7981 0.3825
0.1076 0.8115 0.3827
0.0348 0.8182 0.3829
-0.0384 0.8180 0.3829
-0.1111 0.8110 0.3827
-0.1829 0.7973 0.3825
-0.2530 0.7769 0.3820
-0.3209 0.7501 0.3815
-0.3858 0.7172 0.3808
-0.4473 0.6785 0.3800
-0.5048 0.6343 0.3790
-0.5579 0.5852 0.3780
-0.6060 0.5315 0.3769
-0.6490 0.4738 0.3757
-0.6863 0.4126 0.3744
-0.7178 0.3484 0.3730
-0.7432 0.2820 0.3717
-0.7624 0.2137 0.3702
-0.7754 0.1443 0.3688
-0.7820 0.0742 0.3673
-0.7824 0.0041 0.3658
-0.7765 -0.0654 0.3644
-0.7646 -0.1339 0.3629
-0.7467 -0.2008 0.3615
-0.7230 -0.2656 0.3602
-0.6939 -0.3279 0.3588
-0.6596 -0.3871 0.3576
-0.6204 -0.4430 0.3564
-0.5766 -0.4950 0.3553
-0.5287 -0.5430 0.3543
-0.4769 -0.5864 0.3534
-0.4217 -0.6252 0.3526
-0.3635 -0.6590 0.3519
-0.3027 -0.6876 0.3513
-0.2398 -0.7109 0.3508
-0.1753 -0.7287 0.3504
-0.1095 -0.7409 0.3502
-0.0429 -0.7474 0.3500
0.0239 -0.7482 0.3500
0.0906 -0.7433 0.3501
0.1566 -0.7327 0.3503
0.2216 -0.7165 0.3507
0.2850 -0.6948 0.3511
0.3464 -0.6676 0.3517
0.4054 -0.6353 0.3524
0.4614 -0.5979 0.3531
0.5142 -0.5558 0.3540
0.5633 -0.5091 0.3550
0.6083 -0.4582 0.3561
0.6488 -0.4034 0.3572
0.6846 -0.3450 0.3584
0.7152 -0.2836 0.3597
0.7404 -0.2195 0.3611
0.7600 -0.1531 0.3625
0.7736 -0.0851 0.3639
0.7812 -0.0158 0.3654
0.7827 0.0542 0.3668
0.7778 0.1243 0.3683
0.7667 0.1940 0.3698
0.7492 0.2626 0.3712
0.7256 0.3297 0.3726
0.6958 0.3945 0.3740
0.6601 0.4566 0.3753
0.6188 0.5154 0.3765
0.5721 0.5703 0.3777
0.5204 0.6208 0.3787
0.4641 0.6664 0.3797
0.4037 0.7067 0.3805
0.3397 0.7413 0.3813
0.2726 0.7699 0.3819
0.2031 0.7921 0.3823
0.1317 0.8078 0.3827
0.0592 0.8167 0.3829
-0.0139 0.8188 0.3829
-0.0869 0.8141 0.3828
-0.1591 0.8026 0.3826
-0.2298 0.7844 0.3822
-0.2985 0.7598 0.3817
-0.3645 0.7289 0.3810
-0.4272 0.6921 0.3803
-0.4861 0.6497 0.3794
-0.5407 0.6021 0.3784
-0.5905 0.5499 0.3773
-0.6352 0.4935 0.3761
-0.6745 0.4334 0.3748
-0.7079 0.3701 0.3735
-0.7354 0.3044 0.3721
-0.7567 0.2367 0.3707
-0.7718 0.1675 0.3693
-0.7805 0.0976 0.3678
-0.7830 0.0275 0.3663
-0.7792 -0.0423 0.3648
-0.7692 -0.1112 0.3634
-0.7533 -0.1787 0.3620
-0.7315 -0.2442 0.3606
-0.7042 -0.3074 0.3593
-0.6716 -0.3677 0.3580
-0.6340 -0.4247 0.3568
-0.5917 -0.4781 0.3557
-0.5451 -0.5274 0.3546
-0.4946 -0.5724 0.3537
-0.4405 -0.6128 0.3529
-0.3832 -0.6483 0.3521
-0.3233 -0.6786 0.3515
-0.2611 -0.7037 0.3509
-0.1970 -0.7233 0.3505
-0.1316 -0.7374 0.3502
-0.0652 -0.7458 0.3500
0.0016 -0.7485 0.3500
0.0684 -0.7456 0.3501
0.1347 -0.7369 0.3502
0.2000 -0.7225 0.3505
0.2640 -0.7026 0.3509
0.3261 -0.6773 0.3515
0.3860 -0.6467 0.3521
0.4431 -0.6110 0.3529
0.4970 -0.5704 0.3537
0.5474 -0.5252 0.3547
0.5938 -0.4756 0.3557
0.6358 -0.4221 0.3568
0.6732 -0.3649 0.3580
0.7056 -0.3045 0.3593
0.7326 -0.2412 0.3606
0.7541 -0.1755 0.3620
0.7697 -0.1080 0.3634
0.7794 -0.0390 0.3649
0.7829 0.0308 0.3663
0.7802 0.1009 0.3678
0.7711 0.1708 0.3693
0.7557 0.2398 0.3707
0.7341 0.3075 0.3721
0.7064 0.3731 0.3735
0.6727 0.4362 0.3748
0.6332 0.4961 0.3761
0.5882 0.5524 0.3773
0.5382 0.6044 0.3784
0.4834 0.6517 0.3794
0.4243 0.6939 0.3803
0.3614 0.7304 0.3810
0.2953 0.7610 0.3817
0.2265 0.7854 0.3822
0.1557 0.8033 0.3826
0.0835 0.8145 0.3828
0.0105 0.8189 0.3829
-0.0626 0.8164 0.3829
-0.1351 0.8072 0.3827
-0.2064 0.7912 0.3823
-0.2758 0.7687 0.3819
-0.3428 0.7399 0.3813
-0.4066 0.7050 0.3805
-0.4669 0.6644 0.3797
-0.5229 0.6185 0.3787
-0.5744 0.5678 0.3777
-0.6209 0.5127 0.3765
-0.6620 0.4538 0.3753
-0.6974 0.3916 0.3740
-0.7269 0.3266 0.3726
-0.7503 0.2595 0.3712
-0.7674 0.1907 0.3697
-0.7783 0.1210 0.3683
-0.7829 0.0509 0.3668
-0.7811 -0.0191 0.3653
-0.7732 -0.0883 0.3639
-0.7593 -0.1563 0.3624
-0.7395 -0.2226 0.3611
-0.7140 -0.2866 0.3597
-0.6831 -0.3479 0.3584
-0.6471 -0.4061 0.3572
-0.6064 -0.4607 0.3561
-0.5612 -0.5114 0.3550
-0.5119 -0.5579 0.3540
-0.4589 -0.5998 0.3531
-0.4027 -0.6370 0.3523
-0.3436 -0.6691 0.3517
-0.2821 -0.6959 0.3511
-0.2186 -0.7174 0.3507
-0.1535 -0.7333 0.3503
-0.0875 -0.7437 0.3501
-0.0208 -0.7483 0.3500
0.0461 -0.7472 0.3500
0.1126 -0.7404 0.3502
0.1783 -0.7279 0.3504
0.2428 -0.7099 0.3508
0.3056 -0.6864 0.3513
0.3663 -0.6575 0.3519
0.4243 -0.6234 0.3526
0.4794 -0.5845 0.3534
0.5310 -0.5408 0.3543
0.5787 -0.4926 0.3553
0.6223 -0.4404 0.3564
0.6613 -0.3844 0.3576
0.5849 -0.4680 0.3559
0.6262 -0.4152 0.3570
0.6630 -0.3589 0.3582
0.6948 -0.2994 0.3594
0.7213 -0.2370 0.3607
0.7424 -0.1724 0.3621
0.7577 -0.1059 0.3635
0.7671 -0.0380 0.3649
0.7705 0.0307 0.3663
0.7677 0.0997 0.3678
0.7587 0.1685 0.3692
0.7435 0.2364 0.3707
0.7222 0.3029 0.3720
0.6948 0.3675 0.3734
0.6615 0.4295 0.3747
0.6226 0.4884 0.3759
0.5784 0.5437 0.3771
0.5290 0.5948 0.3782
0.4751 0.6413 0.3792
0.4169 0.6827 0.3800
0.3551 0.7186 0.3808
0.2900 0.7486 0.3814
0.2224 0.7725 0.3819
0.1527 0.7901 0.3823
0.0817 0.8010 0.3825
0.0099 0.8053 0.3826
-0.0620 0.8029 0.3826
-0.1333 0.7938 0.3824
-0.2034 0.7780 0.3821
-0.2717 0.7559 0.3816
-0.3375 0.7275 0.3810
-0.4003 0.6932 0.3803
-0.4595 0.6532 0.3794
-0.5147 0.6081 0.3785
-0.5653 0.5582 0.3774
-0.6110 0.5040 0.3763
-0.6514 0.4461 0.3751
-0.6863 0.3849 0.3738
-0.7153 0.3209 0.3725
-0.7383 0.2549 0.3711
-0.7552 0.1873 0.3697
-0.7659 0.1187 0.3682
-0.7704 0.0497 0.3668
-0.7687 -0.0192 0.3653
-0.7610 -0.0873 0.3639
-0.7472 -0.1543 0.3625
-0.7277 -0.2195 0.3611
-0.7027 -0.2825 0.3598
-0.6723 -0.3428 0.3585
-0.6369 -0.4001 0.3573
-0.5968 -0.4539 0.3562
-0.5523 -0.5038 0.3551
-0.5037 -0.5496 0.3542
-0.4516 -0.5909 0.3533
-0.3962 -0.6274 0.3525
-0.3380 -0.6590 0.3519
-0.2774 -0.6855 0.3513
-0.2149 -0.7066 0.3509
-0.1508 -0.7223 0.3505
-0.0857 -0.7324 0.3503
-0.0201 -0.7369 0.3502
0.0458 -0.7358 0.3503
0.1113 -0.7291 0.3504
0.1760 -0.7168 0.3507
0.2395 -0.6990 0.3510
0.3013 -0.6757 0.3515
0.3610 -0.6473 0.3521
0.4182 -0.6137 0.3528
0.4723 -0.5753 0.3536
0.5231 -0.5322 0.3545
0.5701 -0.4847 0.3555
0.6129 -0.4333 0.3566
0.6512 -0.3781 0.3577
0.6847 -0.3196 0.3590
0.7130 -0.2581 0.3603
0.7359 -0.1942 0.3616
0.7532 -0.1283 0.3630
0.7646 -0.0608 0.3644
0.7700 0.0077 0.3658
0.7693 0.0767 0.3673
0.7624 0.1456 0.3687
0.7493 0.2138 0.3702
0.7300 0.2809 0.3716
0.7046 0.3462 0.3730
0.6733 0.4091 0.3743
0.6362 0.4691 0.3755
0.5937 0.5256 0.3767
0.5461 0.5782 0.3778
0.4936 0.6263 0.3788
0.4368 0.6694 0.3798
0.3761 0.7072 0.3805
0.3121 0.7393 0.3812
0.2452 0.7652 0.3818
0.1762 0.7849 0.3822
0.1055 0.7981 0.3825
0.0339 0.8046 0.3826
-0.0380 0.8044 0.3826
-0.1096 0.7975 0.3825
-0.1802 0.7840 0.3822
-0.2491 0.7640 0.3818
-0.3158 0.7376 0.3812
-0.3797 0.7053 0.3805
-0.4402 0.6672 0.3797
-0.4967 0.6237 0.3788
-0.5489 0.5754 0.3778
-0.5963 0.5226 0.3767
-0.6385 0.4658 0.3755
-0.6753 0.4056 0.3742
-0.7063 0.3426 0.3729
-0.7313 0.2772 0.3716
-0.7503 0.2100 0.3701
-0.7630 0.1417 0.3687
-0.7696 0.0728 0.3673
-0.7700 0.0038 0.3658
-0.7642 -0.0647 0.3644
-0.7525 -0.1321 0.3630
-0.7349 -0.1979 0.3616
-0.7117 -0.2617 0.3602
-0.6830 -0.3230 0.3589
-0.6493 -0.3813 0.3577
-0.6107 -0.4363 0.3566
-0.5676 -0.4876 0.3555
-0.5204 -0.5348 0.3545
-0.4694 -0.5776 0.3536
-0.4150 -0.6158 0.3528
-0.3577 -0.6491 0.3521
-0.2979 -0.6772 0.3515
-0.2360 -0.7002 0.3510
-0.1724 -0.7177 0.3506
-0.1076 -0.7296 0.3504
-0.0420 -0.7360 0.3503
0.0238 -0.7368 0.3502
0.0895 -0.7320 0.3503
0.1545 -0.7215 0.3506
0.2185 -0.7055 0.3509
0.2809 -0.6841 0.3513
0.3413 -0.6574 0.3519
0.3994 -0.6255 0.3526
0.4546 -0.5886 0.3533
0.5065 -0.5471 0.3542
0.5548 -0.5011 0.3552
0.5991 -0.4509 0.3562
0.6390 -0.3969 0.3574
0.6741 -0.3395 0.3586
0.7042 -0.2789 0.3598
0.7289 -0.2158 0.3612
0.7481 -0.1505 0.3625
0.7615 -0.0835 0.3639
0.7689 -0.0153 0.3654
0.7702 0.0536 0.3668
0.7654 0.1226 0.3683
0.7543 0.1911 0.3697
0.7371 0.2587 0.3711
0.7137 0.3246 0.3725
0.6844 0.3884 0.3738
0.6492 0.4494 0.3751
0.6085 0.5072 0.3763
0.5625 0.5611 0.3775
0.5116 0.6108 0.3785
0.4562 0.6556 0.3795
0.3968 0.6952 0.3803
0.3338 0.7292 0.3810
0.2678 0.7573 0.3816
0.1995 0.7791 0.3821
0.1293 0.7944 0.3824
0.0579 0.8032 0.3826
-0.0140 0.8052 0.3826
-0.0857 0.8006 0.3825
-0.1567 0.7893 0.3823
-0.2263 0.7714 0.3819
-0.2938 0.7471 0.3814
-0.3587 0.7167 0.3808
-0.4204 0.6805 0.3800
-0.4783 0.6388 0.3791
-0.5320 0.5921 0.3782
-0.5811 0.5407 0.3771
-0.6250 0.4852 0.3759
-0.6636 0.4261 0.3747
-0.6966 0.3639 0.3734
-0.7236 0.2992 0.3720
-0.7446 0.2326 0.3706
-0.7595 0.1646 0.3692
-0.7681 0.0958 0.3677
-0.7705 0.0268 0.3663
-0.7668 -0.0419 0.3649
-0.7571 -0.1097 0.3634
-0.7414 -0.1761 0.3620
-0.7200 -0.2407 0.3607
