ply
format ascii 1.0
element vertex 2086
property float32 x
property float32 y
property float32 z
end_header
23.9038 10.5576 2.0971
22.8658 12.6495 2.0971
9.1923 6.2175 0.8906
20.2517 16.5144 2.0971
18.6964 18.2565 2.0971
13.2132 15.4379 1.6307
15.1493 21.2873 2.0968
10.6135 18.1513 1.6874
11.0850 23.5636 2.0898
8.9120 24.3906 2.0840
3.8571 14.4459 1.1999
2.8412 16.4022 1.3359
1.0739 13.0476 1.0506
-0.0950 13.0582 1.0480
-2.5165 25.9502 2.0923
-4.8239 25.6256 2.0926
-7.0920 25.0908 2.0925
-6.2731 16.4230 1.4108
-7.0716 14.4814 1.2933
-9.3912 15.5375 1.4570
-9.6316 13.1255 1.3065
-15.9658 18.1137 1.9377
-17.4501 16.5504 1.9301
-18.7548 14.8446 1.9195
-19.8526 13.0110 1.9049
-20.7413 11.0832 1.8873
-21.3881 9.0769 1.8646
-21.4547 6.9188 1.8091
-20.8702 4.7231 1.7172
-22.0193 2.9496 1.7829
-21.7009 0.9503 1.7432
-21.2556 -0.9707 1.7076
-9.5458 -1.2969 0.7731
-6.4385 -1.4698 0.5300
-6.1405 -1.9929 0.5181
-6.0895 -2.5978 0.5313
-6.0923 -3.2701 0.5549
-6.0955 -4.0112 0.5856
-6.0990 -4.8460 0.6251
-13.6614 -13.0057 1.5137
-12.2415 -13.9409 1.4889
-10.7882 -14.7595 1.4671
-9.3072 -15.4640 1.4484
-7.8112 -16.0722 1.4341
-6.2985 -16.5826 1.4235
-4.7652 -16.9802 1.4153
-3.2168 -17.2657 1.4094
-1.6583 -17.4395 1.4059
-0.0945 -17.5020 1.4046
1.4694 -17.4532 1.4056
3.0289 -17.2931 1.4089
4.5790 -17.0214 1.4146
6.1145 -16.6376 1.4225
7.6302 -16.1411 1.4328
8.3795 -14.2694 1.3280
9.6422 -13.4954 1.3310
10.2784 -11.9636 1.2658
10.2739 -9.9946 1.1503
10.2701 -8.3429 1.0619
3.3015 -2.2241 0.3195
3.5481 -1.9542 0.3251
3.7781 -1.6602 0.3312
3.9892 -1.3425 0.3378
4.1790 -1.0016 0.3449
4.3448 -0.6382 0.3524
4.4840 -0.2533 0.3604
11.9024 0.3924 0.9557
11.8999 1.4633 0.9622
11.8974 2.5576 0.9766
11.8948 3.6945 0.9996
24.1639 9.9481 2.0971
23.1792 12.0657 2.0971
9.4090 6.0222 0.8965
20.6639 15.9956 2.0971
9.2182 8.5556 1.0093
13.7182 15.2287 1.6449
15.6842 20.8965 2.0968
12.1291 19.5863 1.8488
11.6923 23.3017 2.0922
9.5239 24.1477 2.0832
7.3393 24.9332 2.0858
2.8791 14.4344 1.1812
2.7935 25.8912 2.0899
0.2361 13.0552 1.0479
-0.9334 13.0657 1.0512
-4.1729 25.7395 2.0926
-6.4539 25.2636 2.0926
-8.6815 24.5807 2.0921
-6.6247 14.4866 1.2784
-9.3869 16.4592 1.5206
-9.4005 13.5161 1.3212
-10.9953 13.1312 1.3744
-17.0451 17.0077 1.9324
-18.4108 15.3474 1.9235
-19.5596 13.5401 1.9091
-20.5225 11.6446 1.8936
-21.2237 9.6492 1.8710
-21.4561 7.5250 1.8247
-20.7826 5.2605 1.7204
-22.0775 3.5292 1.7942
-20.7738 1.4381 1.6711
-21.4421 -0.4349 1.7211
-17.5719 -1.9350 1.4187
-6.5168 -1.3147 0.5335
-6.2283 -1.8483 0.5214
-6.0887 -2.4169 0.5257
-6.0915 -3.0734 0.5475
-6.0945 -3.7927 0.5761
-6.0979 -4.5979 0.6129
-14.0571 -12.7189 1.5213
-12.6479 -13.6876 1.4956
-11.2034 -14.5390 1.4730
-9.7298 -15.2756 1.4534
-8.2357 -15.9068 1.4375
-6.7299 -16.4493 1.4263
-5.2019 -16.8789 1.4174
-3.6572 -17.1961 1.4109
-2.1010 -17.4015 1.4066
-0.5383 -17.4956 1.4047
1.0261 -17.4784 1.4051
2.5874 -17.3499 1.4077
4.1406 -17.1099 1.4127
5.6807 -16.7579 1.4200
7.2026 -16.2935 1.4296
8.2022 -14.8153 1.3590
9.1349 -13.4960 1.3078
10.2799 -12.5979 1.3049
10.2751 -10.5159 1.1799
10.2711 -8.7852 1.0847
3.2288 -2.2962 0.3180
3.4797 -2.0332 0.3234
3.7146 -1.7460 0.3294
3.9313 -1.4350 0.3359
4.1274 -1.1006 0.3428
4.3004 -0.7435 0.3502
4.4474 -0.3646 0.3581
11.9031 0.0905 0.9553
11.9006 1.1580 0.9595
11.8981 2.2438 0.9717
11.8955 3.3665 0.9921
24.4083 9.3323 2.0971
23.4776 11.4742 2.0971
15.2153 9.2031 1.4270
21.0628 15.4666 2.0971
19.5978 17.2853 2.0971
17.9763 18.9659 2.0971
16.2091 20.4922 2.0968
13.8421 21.1356 2.0276
12.2810 23.0011 2.0925
10.1536 23.9469 2.0874
7.9664 24.7307 2.0851
3.2627 14.4389 1.1880
3.4483 25.8062 2.0894
0.5673 13.0522 1.0484
-0.6008 13.0627 1.0494
-3.5186 25.8359 2.0925
-5.8115 25.4198 2.0926
-8.0563 24.7952 2.0922
-6.2516 14.6413 1.2776
-9.2383 17.1978 1.5667
-9.3970 14.2697 1.3712
-10.4387 13.1289 1.3461
-16.6275 17.4544 1.9346
-18.0421 15.8324 1.9263
-19.2520 14.0623 1.9133
-20.2880 12.2016 1.8999
-21.0447 10.2194 1.8775
-21.4576 8.1421 1.8418
-21.4527 6.0128 1.7880
-22.1209 4.1139 1.8057
-21.9027 2.0754 1.7656
-21.5897 0.1096 1.7326
-20.9493 -1.7706 1.6872
-6.9593 -1.2213 0.5670
-6.3136 -1.7006 0.5247
-6.0880 -2.2396 0.5206
-6.0907 -2.8816 0.5407
-6.0936 -3.5811 0.5672
-6.0969 -4.3591 0.6015
-14.4495 -12.4224 1.5292
-13.0515 -13.4249 1.5026
-11.6163 -14.3093 1.4791
-10.1504 -15.0782 1.4587
-8.6591 -15.7341 1.4413
-7.1595 -16.3069 1.4292
-5.6372 -16.7684 1.4197
-4.0967 -17.1175 1.4125
-2.5433 -17.3546 1.4076
-0.9819 -17.4802 1.4050
0.5825 -17.4945 1.4047
2.1451 -17.3976 1.4068
3.7011 -17.1893 1.4111
5.2455 -16.8692 1.4177
6.7732 -16.4367 1.4267
8.1858 -15.7131 1.4218
8.9719 -14.0077 1.3349
10.2814 -13.2731 1.3474
10.2764 -11.0649 1.2119
10.2722 -9.2472 1.1092
10.2686 -7.7021 1.0301
3.4101 -2.1102 0.3218
3.6498 -1.8299 0.3276
3.8719 -1.5256 0.3340
4.0741 -1.1978 0.3408
4.2538 -0.8470 0.3481
4.4085 -0.4742 0.3558
11.9037 -0.2114 0.9554
11.9013 0.8541 0.9576
11.8988 1.9329 0.9674
11.8963 3.0432 0.9854
11.8936 4.2050 1.0124
23.7610 10.8753 2.0971
15.3712 8.7730 1.4203
21.4481 14.9276 2.0971
20.0298 16.7828 2.0971
18.4514 18.5041 2.0971
13.1084 15.7353 1.6436
14.8641 21.4872 2.0968
10.3786 18.3053 1.6887
10.7686 23.7063 2.0896
8.5878 24.5120 2.0844
3.6509 14.4435 1.1956
4.1005 25.7043 2.0889
0.8991 13.0492 1.0497
-0.2691 13.0598 1.0483
-2.8623 25.9153 2.0924
-5.1651 25.5592 2.0926
-7.4256 24.9932 2.0924
-6.2652 15.7686 1.3617
-7.3108 14.4786 1.3017
-9.3933 15.0831 1.4260
-9.9043 13.1267 1.3197
-16.1978 17.8904 1.9368
-17.6574 16.3055 1.9288
-18.9299 14.5771 1.9174
-20.0007 12.7303 1.9026
-20.8500 10.7865 1.8839
-21.4590 8.7713 1.8604
-21.4540 6.6042 1.8014
-22.0343 4.6787 1.8077
-21.9829 2.6469 1.7769
-21.6389 0.6588 1.7374
-21.1530 -1.2487 1.7005
-9.3893 -1.4033 0.7619
-6.3962 -1.5501 0.5282
-6.0933 -2.0678 0.5164
-6.0899 -2.6944 0.5344
-6.0928 -3.3757 0.5590
-6.0960 -4.1290 0.5909
-6.0995 -4.9805 0.6320
-13.4521 -13.1527 1.5098
-12.0268 -14.0703 1.4854
-10.5690 -14.8717 1.4642
-9.0843 -15.5594 1.4459
-7.5872 -16.1555 1.4324
-6.0710 -16.6490 1.4222
-4.5352 -17.0299 1.4143
-2.9849 -17.2987 1.4088
-1.4253 -17.4559 1.4055
0.1387 -17.5018 1.4046
1.7024 -17.4364 1.4059
3.2608 -17.2597 1.4096
4.8090 -16.9713 1.4156
6.3419 -16.5708 1.4239
7.8542 -16.0574 1.4345
8.5841 -14.1814 1.3303
9.9434 -13.5319 1.3476
10.2777 -11.6451 1.2465
10.2733 -9.7309 1.1356
10.2696 -8.1176 1.0505
3.3392 -2.1854 0.3203
3.5835 -1.9119 0.3259
3.8108 -1.6143 0.3321
4.0189 -1.2931 0.3388
4.2053 -0.9488 0.3460
4.3673 -0.5821 0.3536
11.9044 -0.5135 0.9562
11.9020 0.5513 0.9562
11.8995 1.6245 0.9638
11.8970 2.7240 0.9795
11.8944 3.8689 1.0038
24.0291 10.2693 2.0971
23.0163 12.3736 2.0971
9.1969 6.0607 0.8839
20.4488 16.2696 2.0971
9.1126 8.6866 1.0103
13.4002 15.2804 1.6310
15.4042 21.1036 2.0968
10.9061 18.1473 1.6991
11.3797 23.4535 2.0920
9.2031 24.2774 2.0836
4.0445 14.4481 1.2040
2.8540 15.3740 1.2549
2.4484 25.9290 2.0901
0.0620 13.0568 1.0478
-2.2042 25.9777 2.0922
-4.5154 25.6817 2.0926
-6.7899 25.1748 2.0925
-9.0079 24.4615 2.0919
-6.8583 14.4839 1.2861
-9.3892 15.9649 1.4864
-9.4022 13.1414 1.2967
-11.2975 13.1325 1.3902
-17.2596 16.7686 1.9312
-18.5934 15.0842 1.9214
-19.7155 13.2629 1.9069
-20.6395 11.3500 1.8903
-21.3115 9.3484 1.8676
-21.4554 7.2051 1.8163
-20.7820 4.9666 1.7147
-22.0487 3.2239 1.7883
-20.7732 1.1601 1.6697
-21.3455 -0.7176 1.7140
-10.5605 -1.3056 0.8540
-6.4760 -1.3966 0.5317
-6.1825 -1.9247 0.5196
-6.0891 -2.5115 0.5286
-6.0919 -3.1761 0.5513
-6.0950 -3.9067 0.5810
-6.0985 -4.7271 0.6192
-13.8496 -12.8709 1.5173
-12.4346 -13.8220 1.4920
-10.9854 -14.6560 1.4699
-9.5079 -15.3757 1.4508
-8.0128 -15.9949 1.4357
-6.5033 -16.5205 1.4248
-4.9725 -16.9333 1.4163
-3.4258 -17.2338 1.4101
-1.8683 -17.4226 1.4062
-0.3051 -17.5001 1.4046
1.2592 -17.4663 1.4053
2.8195 -17.3212 1.4083
4.3712 -17.0645 1.4137
5.9089 -16.6958 1.4213
7.4276 -16.2145 1.4313
8.2183 -14.3885 1.3298
9.3991 -13.4954 1.3198
10.2791 -12.2597 1.2839
10.2745 -10.2386 1.1640
10.2706 -8.5503 1.0725
3.2672 -2.2586 0.3187
3.5158 -1.9919 0.3243
3.7482 -1.7011 0.3303
3.9620 -1.3866 0.3369
4.1548 -1.0488 0.3439
4.3240 -0.6883 0.3514
4.4669 -0.3063 0.3593
11.9027 0.2492 0.9554
11.9002 1.3183 0.9609
11.8977 2.4084 0.9742
11.8951 3.5383 0.9959
24.2818 9.6568 2.0971
23.3227 11.7861 2.0971
22.1772 13.8212 2.0971
20.8548 15.7459 2.0971
19.3657 17.5450 2.0971
17.7220 19.2038 2.0971
15.9345 20.7064 2.0968
14.0198 22.0426 2.0964
11.9725 23.1610 2.0924
9.8263 24.0624 2.0859
7.6375 24.8391 2.0855
3.0605 14.4365 1.1843
3.1044 25.8530 2.0896
0.3932 13.0538 1.0481
-0.7755 13.0643 1.0503
-3.8628 25.7872 2.0926
-6.1497 25.3398 2.0926
-8.3856 24.6845 2.0922
-6.4162 14.4890 1.2717
-9.3296 16.8258 1.5440
-9.3989 13.8666 1.3444
-10.7284 13.1301 1.3607
-16.8485 17.2209 1.9334
-18.2424 15.5827 1.9254
-19.4155 13.7887 1.9111
-20.4132 11.9094 1.8966
-21.1408 9.9200 1.8741
-21.4568 7.8163 1.8326
-20.7832 5.5275 1.7259
-22.0999 3.8060 1.7997
-21.8550 1.7774 1.7597
-21.5265 -0.1776 1.7276
-20.8378 -2.0412 1.6803
-6.5529 -1.2402 0.5352
-6.2691 -1.7786 0.5230
-6.0884 -2.3324 0.5232
-6.0911 -2.9818 0.5442
-6.0941 -3.6915 0.5718
-6.0974 -4.4835 0.6074
-14.2437 -12.5795 1.5250
-12.8397 -13.5642 1.4989
-11.3996 -14.4312 1.4759
-9.9295 -15.1831 1.4559
-8.4364 -15.8251 1.4392
-6.9339 -16.3829 1.4277
-5.4085 -16.8276 1.4185
-3.8658 -17.1599 1.4116
-2.3109 -17.3804 1.4071
-0.7487 -17.4894 1.4048
0.8157 -17.4872 1.4049
2.3777 -17.3737 1.4073
3.9322 -17.1487 1.4119
5.4744 -16.8118 1.4189
6.9991 -16.3625 1.4282
8.1946 -15.2310 1.3880
9.0065 -13.6574 1.3129
10.2806 -12.9128 1.3246
10.2757 -10.7726 1.1947
10.2716 -9.0018 1.0961
3.1940 -2.3298 0.3173
3.4469 -2.0700 0.3227
3.6841 -1.7860 0.3286
3.9033 -1.4782 0.3350
4.1023 -1.1469 0.3418
4.2786 -0.7928 0.3492
4.4292 -0.4168 0.3570
11.9034 -0.0527 0.9553
11.9009 1.0137 0.9585
11.8984 2.0960 0.9696
11.8959 3.2126 0.9889
24.5188 9.0381 2.0971
23.6139 11.1910 2.0971
15.1974 8.9444 1.4152
21.2473 15.2122 2.0971
19.8043 17.0483 2.0971
18.2032 18.7483 2.0971
16.4566 20.2986 2.0971
14.5763 21.6834 2.0968
10.2540 18.6611 1.7088
10.4459 23.8346 2.0884
8.2619 24.6289 2.0848
3.4462 14.4411 1.1915
3.7580 25.7600 2.0892
0.7246 13.0508 1.0490
-0.4434 13.0613 1.0488
-3.2076 25.8757 2.0925
-5.5053 25.4880 2.0926
-7.7578 24.8911 2.0923
-6.2578 15.1582 1.3161
-7.5532 14.4758 1.3103
-9.3953 14.6477 1.3965
-10.1826 13.1278 1.3333
-16.4252 17.6625 1.9356
-17.8613 16.0580 1.9275
-19.1010 14.3074 1.9152
-20.1448 12.4478 1.9004
-20.9543 10.4888 1.8805
-21.4583 8.4390 1.8504
-21.4533 6.2923 1.7942
-22.0952 4.3848 1.8078
-21.9425 2.3458 1.7709
-21.5868 0.3693 1.7326
-21.0473 -1.5242 1.6935
-7.4794 -1.2200 0.6082
-6.3531 -1.6296 0.5264
-6.0876 -2.1567 0.5183
-6.0903 -2.7923 0.5377
-6.0932 -3.4829 0.5632
-6.0965 -4.2490 0.5964
-6.1001 -5.1180 0.6390
-13.2419 -13.2970 1.5060
-11.8114 -14.1971 1.4821
-10.3492 -14.9814 1.4612
-8.8610 -15.6523 1.4434
-7.3626 -16.2362 1.4307
-5.8431 -16.7129 1.4208
-4.3048 -17.0770 1.4133
-2.7529 -17.3292 1.4081
-1.1923 -17.4698 1.4052
0.3720 -17.4991 1.4046
1.9351 -17.4172 1.4063
3.4923 -17.2238 1.4104
5.0386 -16.9187 1.4167
6.5688 -16.5014 1.4253
8.0775 -15.9711 1.4363
8.7882 -14.0911 1.3327
10.1440 -13.4261 1.3504
10.2770 -11.3361 1.2279
10.2727 -9.4739 1.1215
10.2691 -7.8972 1.0396
3.3766 -2.1461 0.3211
3.6185 -1.8690 0.3268
3.8431 -1.5679 0.3331
4.0481 -1.2433 0.3398
4.2310 -0.8955 0.3471
4.3892 -0.5256 0.3548
11.9041 -0.3547 0.9557
11.9016 0.7104 0.9568
11.8992 1.7864 0.9656
11.8966 2.8913 0.9825
11.8940 4.0449 1.0082
23.8901 10.5886 2.0971
22.8493 12.6792 2.0971
9.2022 6.2417 0.8923
20.2302 16.5407 2.0971
18.6726 18.2808 2.0971
13.1974 15.4602 1.6313
15.1216 21.3070 2.0968
10.5871 18.1604 1.6870
11.0542 23.5777 2.0898
8.8804 24.4027 2.0840
3.8369 14.4456 1.1995
2.8397 16.5216 1.3453
1.0568 13.0478 1.0505
-0.1120 13.0584 1.0480
-2.5503 25.9470 2.0923
-4.8572 25.6194 2.0926
-7.1246 25.0815 2.0925
-6.2723 16.3571 1.4059
-7.0948 14.4811 1.2941
-9.3914 15.4923 1.4539
-9.6581 13.1257 1.3078
-15.9891 18.0926 1.9377
-17.4705 16.5266 1.9300
-18.7720 14.8186 1.9193
-19.8673 12.9837 1.9047
-20.7521 11.0543 1.8869
-21.3998 9.0490 1.8646
-21.4547 6.8880 1.8083
-20.9958 4.7228 1.7270
-22.0159 2.9199 1.7823
-21.6950 0.9218 1.7426
-21.2458 -0.9979 1.7069
-9.4475 -1.2960 0.7653
-6.4344 -1.4776 0.5298
-6.1359 -2.0003 0.5179
-6.0895 -2.6072 0.5316
-6.0924 -3.2804 0.5553
-6.0955 -4.0226 0.5861
-6.0990 -4.8590 0.6258
-13.6410 -13.0202 1.5133
-12.2206 -13.9537 1.4885
-10.7668 -14.7706 1.4668
-9.2854 -15.4734 1.4482
-7.7893 -16.0804 1.4339
-6.2763 -16.5892 1.4234
-4.7428 -16.9852 1.4152
-3.1942 -17.2690 1.4094
-1.6355 -17.4412 1.4058
-0.0718 -17.5021 1.4046
1.4922 -17.4517 1.4056
3.0516 -17.2900 1.4090
4.6014 -17.0167 1.4147
6.1367 -16.6312 1.4226
7.6521 -16.1331 1.4329
8.3995 -14.2609 1.3282
9.6750 -13.5041 1.3331
10.2783 -11.9320 1.2638
10.2738 -9.9686 1.1488
10.2700 -8.3206 1.0607
3.3052 -2.2203 0.3195
3.5516 -1.9500 0.3252
3.7813 -1.6557 0.3313
3.9921 -1.3377 0.3379
4.1815 -0.9965 0.3450
4.3471 -0.6327 0.3525
4.4858 -0.2476 0.3605
11.9023 0.4079 0.9557
11.8999 1.4790 0.9623
11.8973 2.5738 0.9769
11.8947 3.7114 1.0000
24.1509 9.9795 2.0971
23.1635 12.0958 2.0971
9.3323 5.9902 0.8899
20.6430 16.0225 2.0971
9.1993 8.5604 1.0085
13.6784 15.2244 1.6425
15.6570 20.9169 2.0968
12.0961 19.5898 1.8477
11.6619 23.3167 2.0922
9.4926 24.1606 2.0832
7.3070 24.9432 2.0858
2.8653 14.4633 1.1833
2.7598 25.8951 2.0899
0.2191 13.0554 1.0479
-0.9505 13.0659 1.0513
-4.2056 25.7335 2.0926
-6.4867 25.2552 2.0926
-8.7135 24.5693 2.0920
-6.6474 14.4863 1.2791
-9.3871 16.4100 1.5172
-9.4007 13.4789 1.3188
-11.0245 13.1313 1.3760
-17.0661 16.9845 1.9323
-18.4288 15.3218 1.9233
-19.5751 13.5131 1.9089
-20.5342 11.6158 1.8933
-21.2325 9.6199 1.8707
-21.4561 7.4936 1.8239
-20.7826 5.2318 1.7199
-22.0749 3.4994 1.7937
-20.7738 1.4110 1.6710
-21.4328 -0.4625 1.7204
-17.5503 -1.9557 1.4172
-6.5128 -1.3228 0.5333
-6.2239 -1.8558 0.5212
-6.0888 -2.4261 0.5260
-6.0915 -3.0833 0.5479
-6.0946 -3.8037 0.5765
-6.0980 -4.6104 0.6135
-14.0369 -12.7339 1.5209
-12.6271 -13.7009 1.4953
-11.1822 -14.5505 1.4727
-9.7081 -15.2855 1.4532
-8.2140 -15.9155 1.4373
-6.7078 -16.4564 1.4261
-5.1795 -16.8843 1.4173
-3.6347 -17.1999 1.4108
-2.0783 -17.4037 1.4066
-0.5155 -17.4961 1.4047
1.0488 -17.4773 1.4051
2.6100 -17.3472 1.4078
4.1631 -17.1056 1.4128
5.7030 -16.7520 1.4201
7.2246 -16.2859 1.4298
8.2030 -14.7713 1.3559
9.1605 -13.4959 1.3090
10.2798 -12.5644 1.3028
10.2750 -10.4884 1.1783
10.2711 -8.7620 1.0834
3.2326 -2.2926 0.3180
3.4833 -2.0292 0.3235
3.7179 -1.7417 0.3295
3.9344 -1.4303 0.3360
4.1301 -1.0956 0.3429
4.3027 -0.7381 0.3503
4.4493 -0.3589 0.3582
11.9030 0.1060 0.9553
11.9006 1.1736 0.9597
11.8981 2.2598 0.9719
11.8955 3.3832 0.9925
24.3961 9.3641 2.0971
23.4627 11.5047 2.0971
15.2799 9.2694 1.4342
21.0426 15.4940 2.0971
19.5753 17.3108 2.0971
17.9517 18.9893 2.0971
16.1824 20.5133 2.0968
13.8208 21.1633 2.0285
12.2510 23.0169 2.0925
10.1221 23.9594 2.0873
7.9343 24.7414 2.0851
3.2429 14.4387 1.1876
3.4148 25.8110 2.0894
0.5503 13.0524 1.0484
-0.6179 13.0629 1.0495
-3.5523 25.8313 2.0925
-5.8445 25.4122 2.0926
-8.0885 24.7845 2.0922
-6.2510 14.5872 1.2736
-9.2215 17.1131 1.5601
-9.3972 14.2297 1.3685
-10.4667 13.1290 1.3475
-16.6493 17.4317 1.9345
-18.0615 15.8078 1.9262
-19.2681 14.0357 1.9131
-20.3004 12.1732 1.8996
-21.0543 10.1902 1.8771
-21.4575 8.1102 1.8409
-21.4526 5.9827 1.7873
-22.1191 4.0837 1.8051
-21.8982 2.0462 1.7650
-21.5899 0.0815 1.7326
-20.9385 -1.7972 1.6865
-6.9072 -1.2214 0.5629
-6.3093 -1.7083 0.5246
-6.0880 -2.2486 0.5208
-6.0907 -2.8913 0.5411
-6.0937 -3.5918 0.5677
-6.0970 -4.3712 0.6020
-14.4295 -12.4378 1.5288
-13.0309 -13.4386 1.5022
-11.5952 -14.3213 1.4788
-10.1289 -15.0885 1.4584
-8.6372 -15.7428 1.4410
-7.1374 -16.3145 1.4291
-5.6148 -16.7744 1.4196
-4.0742 -17.1217 1.4124
-2.5206 -17.3572 1.4075
-0.9592 -17.4812 1.4050
0.6052 -17.4939 1.4047
2.1678 -17.3954 1.4068
3.7237 -17.1854 1.4112
5.2679 -16.8637 1.4178
6.7952 -16.4295 1.4268
8.1867 -15.6650 1.4185
8.9918 -13.9985 1.3352
10.2814 -13.2374 1.3451
10.2763 -11.0361 1.2102
10.2721 -9.2230 1.1079
10.2686 -7.6811 1.0291
10.2727 -9.4986 1.2096
2.9209 -2.2523 0.3189
3.1588 -2.0134 0.3238
3.3816 -1.7522 0.3293
3.5875 -1.4691 0.3352
3.7743 -1.1646 0.3415
3.9397 -0.8392 0.3482
4.0813 -0.4941 0.3554
4.1965 -0.1305 0.3630
4.2828 0.2500 0.3709
4.3375 0.6454 0.3791
4.3579 1.0531 0.3876
4.3415 1.4701 0.3963
4.2860 1.8930 0.4051
4.1893 2.3175 0.4139
9.1919 6.2173 0.9594
18.7987 15.3295 2.0971
17.3550 16.9466 2.0971
13.2351 15.4635 1.7597
14.0607 19.7576 2.0965
10.6428 18.2014 1.8229
10.2651 21.8208 2.0848
8.2584 22.6019 2.0804
3.8565 14.4435 1.2924
2.8409 16.4003 1.4390
1.0738 13.0468 1.1318
-0.0950 13.0574 1.1289
-2.3313 24.0400 2.0881
-4.4689 23.7392 2.0884
-6.5699 23.2437 2.0883
-6.2729 16.4227 1.5199
-7.0723 14.4829 1.3934
-9.3910 15.5373 1.5696
-9.6311 13.1248 1.4074
-15.2059 17.2516 1.9881
-16.1409 15.3087 1.9233
-17.3282 13.7156 1.9106
-18.3568 12.0307 1.8975
-19.1502 10.2330 1.8772
-19.7742 8.3919 1.8571
-20.1295 6.4915 1.8285
-20.3372 4.6024 1.8027
-20.3223 2.7222 1.7726
-20.0628 0.8786 1.7362
-19.6498 -0.8973 1.7006
-9.5532 -1.2979 0.8335
-6.0844 -1.3889 0.5396
-6.0869 -1.9755 0.5533
-6.0895 -2.5978 0.5724
-6.0923 -3.2701 0.5978
-6.0955 -4.0112 0.6308
-6.0990 -4.8460 0.6735
-12.8527 -12.2359 1.5342
-11.5281 -13.1284 1.5105
-10.1681 -13.9111 1.4897
-8.7787 -14.5858 1.4718
-7.3651 -15.1543 1.4567
-5.9322 -15.6182 1.4444
-4.4873 -15.9900 1.4358
-3.0299 -16.2627 1.4302
-1.5621 -16.4289 1.4268
-0.0891 -16.4886 1.4255
1.3843 -16.4420 1.4265
2.8530 -16.2889 1.4297
4.3121 -16.0293 1.4351
5.7583 -15.6683 1.4432
7.1934 -15.2172 1.4552
8.1992 -13.9623 1.3998
9.1830 -12.8527 1.3656
10.2784 -11.9636 1.3636
10.2739 -9.9946 1.2392
2.8510 -2.3160 0.3176
3.0927 -2.0835 0.3224
3.3201 -1.8286 0.3277
3.5310 -1.5516 0.3334
3.7234 -1.2531 0.3396
3.8951 -0.9336 0.3463
4.0437 -0.5939 0.3533
4.1667 -0.2354 0.3608
4.2614 0.1405 0.3686
4.3253 0.5319 0.3768
4.3557 0.9364 0.3852
4.3500 1.3511 0.3938
4.3058 1.7727 0.4026
4.2210 2.1972 0.4114
9.4078 6.0214 0.9657
19.1813 14.8480 2.0971
9.2182 8.5556 1.0873
13.7602 15.2754 1.7774
14.5571 19.3949 2.0965
12.2287 19.7470 2.0081
10.8240 21.5714 2.0865
8.8257 22.3774 2.0797
6.8006 23.1032 2.0821
2.8786 14.4321 1.2723
2.5881 23.9874 2.0859
0.2361 13.0544 1.1288
-0.9333 13.0649 1.1324
-3.8655 23.8444 2.0884
-5.9788 23.4038 2.0883
-8.0426 22.7715 2.0879
-6.6254 14.4881 1.3773
-9.3867 16.4590 1.6381
-9.4003 13.5159 1.4233
-10.9947 13.1304 1.4806
-15.7704 15.7357 1.9260
-17.0076 14.1777 1.9143
-18.0794 12.5154 1.9010
-18.9433 10.7485 1.8830
-19.6086 8.9149 1.8622
-20.0473 7.0309 1.8367
-20.2732 5.1316 1.8080
-20.3660 3.2556 1.7831
-20.1527 1.3951 1.7465
-19.8104 -0.4018 1.7130
-17.4893 -1.9259 1.5212
-6.0837 -1.2274 0.5366
-6.0861 -1.8061 0.5489
-6.0887 -2.4169 0.5663
-6.0915 -3.0733 0.5899
-6.0945 -3.7927 0.6206
-6.0979 -4.5979 0.6603
-13.2222 -11.9635 1.5416
-11.9077 -12.8865 1.5169
-10.5571 -13.7002 1.4953
-9.1754 -14.4053 1.4766
-7.7682 -15.0037 1.4607
-6.3403 -15.4971 1.4476
-4.8981 -15.8931 1.4378
-3.4445 -16.1962 1.4315
-1.9792 -16.3926 1.4275
-0.5071 -16.4825 1.4257
0.9667 -16.4660 1.4260
2.4372 -16.3432 1.4286
3.8995 -16.1138 1.4333
5.3484 -15.7775 1.4403
6.7881 -15.3557 1.4515
8.1836 -14.7816 1.4607
8.8228 -13.0349 1.3608
10.0832 -12.3568 1.3788
10.2751 -10.5159 1.2711
10.2711 -8.7852 1.1685
3.0256 -2.1517 0.3210
3.2572 -1.9031 0.3261
3.4729 -1.6324 0.3318
3.6709 -1.3399 0.3378
3.8487 -1.0263 0.3444
4.0041 -0.6923 0.3513
4.1346 -0.3390 0.3586
4.2376 0.0322 0.3664
4.3105 0.4194 0.3744
4.3506 0.8205 0.3828
4.3554 1.2326 0.3913
4.3224 1.6526 0.4001
4.2493 2.0768 0.4089
15.1662 9.1735 1.5324
19.5516 14.3569 2.0971
18.1917 16.0451 2.0971
16.6866 17.6052 2.0971
15.0443 19.0197 2.0965
13.2579 20.2436 2.0921
11.3853 21.3234 2.0898
9.3867 22.1384 2.0789
7.3818 22.9161 2.0814
3.2622 14.4366 1.2796
3.1947 23.9091 2.0854
0.5673 13.0514 1.1294
-0.6008 13.0619 1.1305
-3.2596 23.9339 2.0883
-5.3836 23.5484 2.0884
-7.4633 22.9700 2.0881
-6.2515 14.6410 1.3763
-9.2031 17.1322 1.6813
-9.2767 14.0870 1.4582
-10.4381 13.1281 1.4500
-15.3827 16.1477 1.9281
-16.6741 14.6319 1.9179
-17.7921 12.9959 1.9048
-18.7220 11.2598 1.8888
-19.4381 9.4392 1.8682
-19.9504 7.5702 1.8448
-20.2272 5.6693 1.8161
-20.3960 3.7931 1.7936
-20.2298 1.9169 1.7568
-19.9539 0.1013 1.7251
-19.3841 -1.6384 1.6818
-6.9649 -1.2223 0.6113
-6.0854 -1.6392 0.5449
-6.0880 -2.2396 0.5608
-6.0907 -2.8816 0.5825
-6.0936 -3.5811 0.6111
-6.0969 -4.3591 0.6480
-13.5931 -11.6861 1.5498
-12.2842 -12.6357 1.5236
-10.9435 -13.4805 1.5011
-9.5701 -14.2162 1.4816
-8.1696 -14.8447 1.4649
-6.7471 -15.3678 1.4510
-5.3075 -15.7877 1.4400
-3.8582 -16.1211 1.4331
-2.3957 -16.3477 1.4284
-0.9251 -16.4678 1.4260
0.5488 -16.4815 1.4257
2.0207 -16.3888 1.4276
3.4859 -16.1897 1.4317
4.9391 -15.8838 1.4381
6.3813 -15.4858 1.4480
7.8090 -14.9897 1.4612
8.4605 -13.2093 1.3562
9.7285 -12.5593 1.3734
10.2764 -11.0649 1.3055
10.2722 -9.2472 1.1949
2.9573 -2.2181 0.3196
3.1930 -1.9759 0.3246
3.4135 -1.7114 0.3301
3.6167 -1.4251 0.3361
3.8004 -1.1173 0.3425
3.9624 -0.7890 0.3493
4.1002 -0.4410 0.3565
4.2113 -0.0748 0.3641
4.2930 0.3081 0.3721
4.3427 0.7055 0.3804
4.3578 1.1148 0.3889
4.3358 1.5329 0.3976
4.2742 1.9563 0.4064
4.1712 2.3807 0.4152
19.9093 13.8566 2.0971
18.5927 15.5787 2.0971
17.1276 17.1765 2.0971
13.1458 15.7802 1.7756
13.7950 19.9418 2.0964
10.4086 18.3582 1.8245
9.9669 21.9415 2.0835
7.9578 22.7140 2.0808
3.6503 14.4411 1.2878
3.7991 23.8151 2.0850
0.8991 13.0484 1.1308
-0.2691 13.0589 1.1292
-2.6516 24.0076 2.0882
-4.7849 23.6776 2.0884
-6.8790 23.1534 2.0882
-6.2651 15.7683 1.4669
-7.3116 14.4801 1.4024
-9.3931 15.0829 1.5362
-9.9038 13.1259 1.4216
-15.2110 16.8005 1.9594
-16.3279 15.0778 1.9214
-17.4915 13.4695 1.9086
-18.4864 11.7664 1.8945
-19.2532 9.9604 1.8741
-19.8388 8.1091 1.8529
-20.1670 6.2080 1.8243
-20.3962 4.3308 1.8026
-20.2939 2.4436 1.7672
-20.0106 0.6092 1.7308
-19.5611 -1.1547 1.6941
-9.3892 -1.4033 0.8208
-6.0847 -1.4746 0.5413
-6.0872 -2.0657 0.5557
-6.0899 -2.6944 0.5757
-6.0928 -3.3757 0.6022
-6.0960 -4.1290 0.6365
-6.0995 -4.9805 0.6808
-12.6577 -12.3760 1.5305
-11.3274 -13.2520 1.5072
-9.9627 -14.0185 1.4868
-8.5693 -14.6773 1.4694
-7.1526 -15.2301 1.4547
-5.7171 -15.6785 1.4428
-4.2709 -16.0374 1.4348
-2.8116 -16.2943 1.4295
-1.3427 -16.4445 1.4264
0.1307 -16.4884 1.4255
1.6037 -16.4259 1.4268
3.0713 -16.2570 1.4303
4.5285 -15.9814 1.4361
5.9733 -15.6076 1.4448
7.4060 -15.1410 1.4572
8.2069 -13.5582 1.3702
9.3715 -12.7537 1.3683
10.2777 -11.6451 1.3428
10.2733 -9.7309 1.2234
2.8879 -2.2828 0.3183
3.1276 -2.0469 0.3232
3.3526 -1.7887 0.3285
3.5609 -1.5085 0.3343
3.7504 -1.2068 0.3406
3.9188 -0.8842 0.3473
4.0637 -0.5417 0.3544
4.1827 -0.1804 0.3619
4.2730 0.1979 0.3698
4.3320 0.5914 0.3780
4.3572 0.9976 0.3864
4.3459 1.4136 0.3951
4.2958 1.8359 0.4039
4.2048 2.2605 0.4127
9.1967 6.0606 0.9522
18.9817 15.1023 2.0971
9.1126 8.6866 1.0884
13.4226 15.3060 1.7600
14.2973 19.5871 2.0965
10.9567 18.2315 1.8389
10.5324 21.7071 2.0859
8.5283 22.4972 2.0800
4.0438 14.4457 1.2969
2.8537 15.3723 1.3517
2.2684 24.0222 2.0861
0.0620 13.0560 1.1288
-2.0419 24.0655 2.0880
-4.1830 23.7910 2.0884
-6.2900 23.3216 2.0883
-8.3450 22.6612 2.0878
-6.8590 14.4853 1.3856
-9.3890 15.9647 1.6012
-9.4021 13.1412 1.3970
-11.2968 13.1317 1.4976
-15.9693 15.5150 1.9249
-17.1778 13.9358 1.9123
-18.2250 12.2602 1.8990
-19.0539 10.4780 1.8799
-19.7124 8.6470 1.8610
-20.0923 6.7473 1.8324
-20.2917 4.8494 1.8037
-20.3447 2.9747 1.7776
-20.1070 1.1229 1.7410
-19.7274 -0.6632 1.7065
-10.5695 -1.3067 0.9207
-6.0841 -1.3121 0.5381
-6.0865 -1.8948 0.5511
-6.0891 -2.5115 0.5695
-6.0919 -3.1761 0.5940
-6.0950 -3.9067 0.6259
-6.0985 -4.7271 0.6671
-13.0279 -12.1073 1.5376
-11.7085 -13.0148 1.5135
-10.3529 -13.8121 1.4923
-8.9671 -14.5012 1.4740
-7.5565 -15.0839 1.4586
-6.1259 -15.5618 1.4459
-4.6823 -15.9451 1.4367
-3.2267 -16.2323 1.4308
-1.7600 -16.4127 1.4271
-0.2874 -16.4868 1.4256
1.1862 -16.4545 1.4262
2.6559 -16.3157 1.4291
4.1165 -16.0705 1.4342
5.5640 -15.7211 1.4418
7.0014 -15.2840 1.4534
8.1920 -14.3424 1.4280
9.0124 -12.9401 1.3633
10.2687 -12.2472 1.3817
10.2745 -10.2386 1.2540
10.2706 -8.5503 1.1554
3.0610 -2.1160 0.3217
3.2904 -1.8641 0.3269
3.5036 -1.5902 0.3326
3.6987 -1.2945 0.3388
3.8733 -0.9777 0.3454
4.0252 -0.6408 0.3524
4.1517 -0.2847 0.3598
4.2504 0.0890 0.3675
4.3186 0.4784 0.3756
4.3537 0.8813 0.3840
4.3530 1.2948 0.3926
4.3141 1.7157 0.4014
4.2349 2.1401 0.4102
20.5861 12.8296 2.0971
19.3585 14.6162 2.0971
17.9762 16.2862 2.0971
16.4505 17.8260 2.0971
14.7894 19.2185 2.0965
12.9773 20.4035 2.0905
11.0888 21.4515 2.0877
9.0926 22.2658 2.0793
7.0770 23.0163 2.0818
3.0600 14.4342 1.2756
2.8761 23.9522 2.0856
0.3931 13.0530 1.1290
-0.7754 13.0635 1.1314
-3.5784 23.8888 2.0883
-5.6969 23.4743 2.0884
-7.7684 22.8676 2.0880
-6.4169 14.4905 1.3701
-9.3166 16.8023 1.6610
-9.3893 13.8525 1.4468
-10.7278 13.1293 1.4658
-15.5879 15.9324 1.9270
-16.8510 14.3942 1.9160
-17.9448 12.7442 1.9028
-18.8401 10.9916 1.8857
-19.5295 9.1640 1.8650
-20.0031 7.2867 1.8405
-20.2531 5.3865 1.8118
-20.3820 3.5101 1.7880
-20.1909 1.6421 1.7514
-19.8826 -0.1640 1.7190
-19.2869 -1.8893 1.6754
-6.4643 -1.2234 0.5688
-6.0858 -1.7266 0.5469
-6.0884 -2.3324 0.5637
-6.0911 -2.9818 0.5863
-6.0941 -3.6915 0.6160
-6.0974 -4.4835 0.6543
-13.3985 -11.8331 1.5454
-12.0867 -12.7687 1.5200
-10.7407 -13.5971 1.4980
-9.3629 -14.3167 1.4789
-7.9588 -14.9294 1.4627
-6.5335 -15.4368 1.4492
-5.0925 -15.8442 1.4388
-3.6410 -16.1616 1.4323
-2.1768 -16.3724 1.4279
-0.7054 -16.4766 1.4258
0.7685 -16.4744 1.4258
2.2397 -16.3659 1.4281
3.7034 -16.1509 1.4325
5.1544 -15.8291 1.4392
6.5953 -15.4185 1.4498
8.0202 -14.9068 1.4634
8.6512 -13.1186 1.3586
9.9153 -12.4539 1.3763
10.2757 -10.7726 1.2871
10.2716 -9.0018 1.1808
2.9933 -2.1834 0.3203
3.2269 -1.9379 0.3254
3.4449 -1.6701 0.3310
3.6453 -1.3805 0.3370
3.8260 -1.0697 0.3435
3.9846 -0.7383 0.3503
4.1185 -0.3876 0.3576
4.2254 -0.0187 0.3653
4.3025 0.3665 0.3733
4.3472 0.7658 0.3816
4.3569 1.1766 0.3902
4.3291 1.5958 0.3989
4.2615 2.0196 0.4077
4.1522 2.4438 0.4165
19.7228 14.1207 2.0971
18.3834 15.8251 2.0971
16.8971 17.4032 2.0971
15.2720 18.8374 2.0965
13.5171 20.1077 2.0947
11.6416 21.1863 2.0899
9.6614 22.0446 2.0809
7.6558 22.8221 2.0811
3.4457 14.4387 1.2833
3.4818 23.8665 2.0852
0.7246 13.0500 1.1300
-0.4434 13.0605 1.1298
-2.9715 23.9709 2.0882
-5.1001 23.6116 2.0884
-7.1867 23.0589 2.0881
-6.2577 15.1579 1.4177
-7.5540 14.4773 1.4118
-9.3951 14.6475 1.5044
-10.1820 13.1271 1.4363
-15.2251 16.3721 1.9329
-16.5115 14.8445 1.9196
-17.6512 13.2215 1.9066
-18.6121 11.5007 1.8915
-19.3522 9.6869 1.8710
-19.8993 7.8259 1.8486
-20.2004 5.9248 1.8200
-20.4054 4.0494 1.7985
-20.2618 2.1661 1.7617
-19.9550 0.3414 1.7254
-19.4694 -1.4100 1.6876
-7.4859 -1.2211 0.6557
-6.0851 -1.5608 0.5431
-6.0876 -2.1567 0.5584
-6.0903 -2.7923 0.5792
-6.0932 -3.4829 0.6068
-6.0965 -4.2490 0.6424
-6.1001 -5.1180 0.6884
-12.4618 -12.5136 1.5268
-11.1260 -13.3732 1.5040
-9.7566 -14.1235 1.4841
-8.3595 -14.7663 1.4670
-6.9397 -15.3035 1.4527
-5.5018 -15.7365 1.4412
-4.0541 -16.0825 1.4339
-2.5931 -16.3234 1.4289
-1.1232 -16.4578 1.4262
0.3504 -16.4858 1.4256
1.8230 -16.4075 1.4272
3.2893 -16.2227 1.4311
4.7445 -15.9312 1.4371
6.1879 -15.5447 1.4465
7.6180 -15.0625 1.4593
8.2880 -13.2892 1.3540
9.5595 -12.6525 1.3710
10.2770 -11.3361 1.3228
10.2727 -9.4739 1.2081
2.9245 -2.2490 0.3190
3.1621 -2.0098 0.3239
3.3848 -1.7483 0.3294
3.5904 -1.4648 0.3352
3.7769 -1.1600 0.3416
3.9420 -0.8343 0.3483
4.0832 -0.4890 0.3555
4.1980 -0.1251 0.3631
4.2838 0.2557 0.3710
4.3380 0.6512 0.3792
4.3579 1.0591 0.3877
4.3410 1.4763 0.3964
4.2849 1.8992 0.4052
4.1876 2.3237 0.4140
9.2018 6.2414 0.9613
18.7787 15.3539 2.0971
17.3329 16.9692 2.0971
13.2197 15.4864 1.7603
14.0349 19.7759 2.0965
10.6159 18.2097 1.8223
10.2360 21.8327 2.0847
8.2291 22.6131 2.0804
3.8363 14.4433 1.2920
2.8394 16.5197 1.4491
1.0568 13.0470 1.1317
-0.1120 13.0575 1.1289
-2.3626 24.0371 2.0881
-4.4997 23.7333 2.0884
-6.6001 23.2351 2.0882
-6.2721 16.3568 1.5145
-7.0955 14.4826 1.3943
-9.3912 15.4920 1.5662
-9.6575 13.1249 1.4088
-15.2064 17.2070 1.9853
-16.1594 15.2863 1.9231
-17.3443 13.6916 1.9104
-18.3697 12.0050 1.8972
-19.1604 10.2064 1.8769
-19.7807 8.3643 1.8567
-20.1334 6.4638 1.8281
-20.3425 4.5758 1.8026
-20.3197 2.6950 1.7721
-20.0579 0.8522 1.7357
-19.6413 -0.9226 1.6999
-9.4547 -1.2970 0.8251
-6.0844 -1.3972 0.5397
-6.0869 -1.9843 0.5535
-6.0895 -2.6072 0.5727
-6.0924 -3.2804 0.5982
-6.0955 -4.0226 0.6314
-6.0990 -4.8590 0.6742
-12.8338 -12.2496 1.5338
-11.5085 -13.1406 1.5102
-10.1480 -13.9217 1.4894
-8.7582 -14.5948 1.4715
-7.3443 -15.1618 1.4565
-5.9112 -15.6242 1.4442
-4.4662 -15.9947 1.4357
-3.0086 -16.2659 1.4301
-1.5408 -16.4305 1.4267
-0.0677 -16.4887 1.4255
1.4057 -16.4405 1.4265
2.8744 -16.2859 1.4297
4.3332 -16.0247 1.4352
5.7793 -15.6625 1.4433
7.2142 -15.2099 1.4554
8.2000 -13.9222 1.3969
9.2014 -12.8431 1.3659
10.2783 -11.9320 1.3615
10.2738 -9.9685 1.2376
2.8546 -2.3128 0.3176
3.0962 -2.0799 0.3225
3.3232 -1.8247 0.3278
3.5339 -1.5474 0.3335
3.7261 -1.2486 0.3397
3.8975 -0.9288 0.3464
4.0457 -0.5889 0.3535
4.1683 -0.2301 0.3609
4.2626 0.1461 0.3687
4.3260 0.5377 0.3769
4.3559 0.9423 0.3853
4.3497 1.3572 0.3939
4.3049 1.7788 0.4027
4.2195 2.2034 0.4115
9.3310 5.9894 0.9586
19.1619 14.8730 2.0971
9.1993 8.5604 1.0864
13.7153 15.2654 1.7742
14.5319 19.4138 2.0965
12.1877 19.7381 2.0055
10.7959 21.5852 2.0865
8.7967 22.3893 2.0797
6.7706 23.1123 2.0821
2.8650 14.4618 1.2746
2.5569 23.9910 2.0859
0.2191 13.0546 1.1288
-0.9504 13.0651 1.1325
-3.8965 23.8394 2.0884
-6.0091 23.3960 2.0883
-8.0722 22.7609 2.0879
-6.6481 14.4878 1.3781
-9.3870 16.4097 1.6344
-9.4005 13.4787 1.4207
-11.0238 13.1305 1.4822
-15.7899 15.7144 1.9259
-17.0244 14.1542 1.9141
-18.0938 12.4905 1.9008
-18.9543 10.7221 1.8827
-19.6169 8.8879 1.8619
-20.0518 7.0032 1.8363
-20.2752 5.1040 1.8076
-20.3641 3.2282 1.7825
-20.1484 1.3685 1.7459
-19.8024 -0.4274 1.7124
-17.4956 -1.9497 1.5219
-6.0837 -1.2356 0.5367
-6.0862 -1.8147 0.5491
-6.0888 -2.4261 0.5666
-6.0915 -3.0833 0.5903
-6.0946 -3.8037 0.6211
-6.0980 -4.6104 0.6609
-13.2031 -11.9775 1.5412
-11.8882 -12.8991 1.5166
-10.5371 -13.7112 1.4950
-9.1551 -14.4148 1.4763
-7.7476 -15.0117 1.4605
-6.3194 -15.5036 1.4474
-4.8771 -15.8983 1.4377
-3.4233 -16.1998 1.4315
-1.9578 -16.3947 1.4275
-0.4857 -16.4830 1.4256
0.9881 -16.4650 1.4260
2.4586 -16.3406 1.4286
3.9207 -16.1097 1.4334
5.3694 -15.7721 1.4404
6.8089 -15.3488 1.4517
8.1844 -14.7378 1.4574
8.8413 -13.0258 1.3610
10.1013 -12.3462 1.3791
10.2750 -10.4885 1.2694
10.2711 -8.7620 1.1672
3.0290 -2.1482 0.3210
3.2604 -1.8993 0.3262
3.4760 -1.6283 0.3318
3.6736 -1.3355 0.3379
3.8511 -1.0216 0.3445
4.0062 -0.6872 0.3514
4.1363 -0.3337 0.3588
4.2389 0.0377 0.3665
4.3113 0.4252 0.3745
4.3510 0.8264 0.3829
4.3552 1.2387 0.3915
4.3216 1.6588 0.4002
4.2479 2.0829 0.4090
15.2304 9.2394 1.5401
19.5329 14.3823 2.0971
18.1708 16.0688 2.0971
16.6637 17.6268 2.0971
15.0196 19.0392 2.0965
13.2295 20.2578 2.0918
11.3575 21.3381 2.0898
9.3581 22.1510 2.0789
7.3521 22.9260 2.0815
3.2424 14.4363 1.2792
3.1637 23.9135 2.0854
0.5503 13.0516 1.1294
-0.6178 13.0621 1.1305
-3.2908 23.9297 2.0883
-5.4143 23.5414 2.0884
-7.4931 22.9602 2.0880
-6.2508 14.5869 1.3720
-9.1991 17.0715 1.6765
-9.2798 14.0520 1.4559
-10.4661 13.1282 1.4515
-15.4029 16.1268 1.9280
-16.6915 14.6088 1.9177
-17.8072 12.9714 1.9047
-18.7337 11.2337 1.8885
-19.4472 9.4124 1.8679
-19.9557 7.5426 1.8444
-20.2299 5.6417 1.8157
-20.3948 3.7654 1.7930
-20.2262 1.8900 1.7563
-19.9523 0.0753 1.7250
-19.3747 -1.6630 1.6812
-6.9128 -1.2224 0.6069
-6.0855 -1.6477 0.5451
-6.0880 -2.2486 0.5611
-6.0907 -2.8913 0.5829
-6.0937 -3.5918 0.6115
-6.0970 -4.3712 0.6486
-13.5741 -11.7006 1.5493
-12.2650 -12.6488 1.5232
-10.9238 -13.4920 1.5008
-9.5499 -14.2261 1.4813
-8.1491 -14.8531 1.4647
-6.7263 -15.3746 1.4508
-5.2865 -15.7933 1.4399
-3.8370 -16.1252 1.4330
-2.3744 -16.3502 1.4284
-0.9036 -16.4688 1.4259
0.5702 -16.4809 1.4257
2.0421 -16.3867 1.4277
3.5071 -16.1860 1.4318
4.9602 -15.8786 1.4382
6.4022 -15.4794 1.4482
7.8296 -14.9817 1.4614
8.4792 -13.2005 1.3564
9.7468 -12.5491 1.3737
10.2763 -11.0361 1.3037
10.2721 -9.2230 1.1935
2.9608 -2.2148 0.3197
2.5148 -2.3253 0.3174
2.7488 -2.1196 0.3216
2.9699 -1.8931 0.3264
3.1763 -1.6458 0.3315
3.3661 -1.3784 0.3370
3.5372 -1.0914 0.3430
3.6876 -0.7855 0.3494
3.8151 -0.4619 0.3561
3.9174 -0.1218 0.3632
3.9921 0.2331 0.3706
4.0370 0.6007 0.3782
4.0497 0.9786 0.3861
4.0281 1.3640 0.3941
3.9702 1.7535 0.4022
3.8744 2.1434 0.4103
9.1512 6.1897 1.0237
17.5390 14.3023 2.0971
16.1920 15.8110 2.0971
13.2858 15.5227 1.8933
13.0970 18.4034 2.0931
10.7065 18.3104 1.9655
9.5386 20.2765 2.0764
7.6936 21.0561 2.0773
3.8558 14.4411 1.3851
2.8406 16.3984 1.5422
1.0738 13.0460 1.2130
-0.0950 13.0566 1.2099
-2.1713 22.3902 2.0845
-4.1621 22.1097 2.0848
-6.1190 21.6484 2.0846
-6.1767 16.1708 1.6040
-7.0730 14.4843 1.4937
-9.3909 15.5370 1.6823
-9.6305 13.1240 1.5084
-14.8717 16.8724 2.0841
-15.2123 14.4280 1.9428
-16.1018 12.7448 1.9029
-17.0354 11.1646 1.8874
-17.7845 9.5032 1.8685
-18.3469 7.7862 1.8469
-18.6973 6.0296 1.8204
-18.9243 4.2827 1.7979
-18.8667 2.5272 1.7639
-18.6534 0.8168 1.7301
-18.2683 -0.8343 1.6946
-9.5605 -1.2989 0.8941
-6.0844 -1.3889 0.5783
-6.0869 -1.9755 0.5930
-6.0895 -2.5978 0.6135
-6.0923 -3.2701 0.6407
-6.0954 -4.0112 0.6762
-6.0990 -4.8460 0.7218
-12.1425 -11.5597 1.5535
-10.8926 -12.4047 1.5297
-9.6149 -13.1542 1.5098
-8.3065 -13.8012 1.4926
-6.9728 -14.3471 1.4781
-5.6187 -14.7929 1.4663
-4.2487 -15.1398 1.4571
-2.8671 -15.3887 1.4505
-1.4776 -15.5401 1.4465
-0.0842 -15.5945 1.4451
1.3094 -15.5521 1.4462
2.6995 -15.4127 1.4499
4.0825 -15.1758 1.4562
5.4542 -14.8411 1.4652
6.8106 -14.4074 1.4767
8.1473 -13.8739 1.4909
8.6841 -12.1543 1.3842
9.8702 -11.4885 1.4035
10.2739 -9.9946 1.3282
2.6837 -2.1801 0.3204
2.9086 -1.9594 0.3250
3.1194 -1.7180 0.3300
3.3140 -1.4563 0.3354
3.4907 -1.1747 0.3413
3.6472 -0.8741 0.3475
3.7814 -0.5554 0.3542
3.8911 -0.2198 0.3611
3.9738 0.1310 0.3684
4.0274 0.4952 0.3760
4.0495 0.8705 0.3838
4.0378 1.2541 0.3918
3.9904 1.6428 0.3999
3.9055 2.0330 0.4080
3.7817 2.4205 0.4161
17.8959 13.8530 2.0971
9.2182 8.5556 1.1654
15.1470 16.8148 2.0971
13.5796 18.0924 2.0962
11.8638 19.1578 2.0881
10.0703 20.0694 2.0807
8.2222 20.8474 2.0766
6.3351 21.5218 2.0789
2.8781 14.4297 1.3635
2.4107 22.3428 2.0824
0.2360 13.0536 1.2098
-0.9333 13.0641 1.2137
-3.6002 22.2078 2.0847
-5.5684 21.7974 2.0847
-7.4812 21.1820 2.0816
-6.6260 14.4895 1.4764
-9.3866 16.4587 1.7557
-9.4002 13.5157 1.5255
-10.9940 13.1296 1.5868
-15.2043 15.1709 1.9903
-15.8017 13.1724 1.9063
-16.7935 11.6253 1.8926
-17.5884 9.9797 1.8739
-18.2166 8.2821 1.8543
-18.6150 6.5286 1.8279
-18.8458 4.7703 1.8014
-18.8993 3.0212 1.7735
-18.7291 1.2966 1.7397
-18.4080 -0.3734 1.7061
-17.4447 -1.9210 1.6263
-6.0837 -1.2274 0.5751
-6.0861 -1.8061 0.5883
-6.0887 -2.4169 0.6070
-6.0915 -3.0733 0.6322
-6.0945 -3.7927 0.6652
-6.0979 -4.5979 0.7077
-12.4923 -11.3030 1.5611
-11.2486 -12.1733 1.5359
-9.9806 -12.9521 1.5152
-8.6804 -13.6281 1.4972
-7.3533 -14.2025 1.4820
-6.0046 -14.6765 1.4694
-4.6387 -15.0514 1.4595
-3.2599 -15.3280 1.4521
-1.8723 -15.5070 1.4474
-0.4797 -15.5890 1.4452
0.9143 -15.5740 1.4456
2.3058 -15.4621 1.4486
3.6912 -15.2529 1.4542
5.0665 -14.9460 1.4624
6.4277 -14.5405 1.4732
7.7705 -14.0355 1.4866
8.3450 -12.3291 1.3796
9.5359 -11.6862 1.3977
10.2751 -10.5159 1.3624
2.6176 -2.2389 0.3192
2.8462 -2.0241 0.3236
3.0611 -1.7886 0.3285
3.2606 -1.5326 0.3338
3.4425 -1.2566 0.3396
3.6049 -0.9613 0.3457
3.7457 -0.6476 0.3522
3.8626 -0.3167 0.3591
3.9532 0.0300 0.3663
4.0153 0.3907 0.3738
4.0465 0.7631 0.3816
4.0447 1.1447 0.3895
4.0076 1.5323 0.3976
3.9335 1.9224 0.4057
3.8209 2.3111 0.4138
18.2414 13.3949 2.0971
16.9727 14.9699 2.0971
15.5684 16.4254 2.0971
14.0347 17.7433 2.0963
12.3468 18.8526 2.0883
10.5912 19.8362 2.0837
8.7452 20.6252 2.0759
6.8767 21.3480 2.0783
3.2616 14.4342 1.3713
2.9758 22.2702 2.0820
0.5672 13.0506 1.2105
-0.6007 13.0611 1.2116
-3.0358 22.2912 2.0847
-5.0141 21.9321 2.0847
-6.9511 21.3936 2.0844
-6.2514 14.6408 1.4752
-9.3819 17.4651 1.8371
-9.2349 14.0235 1.5559
-10.4375 13.1274 1.5541
-15.1954 15.9511 2.0414
-15.4897 13.5926 1.9096
-16.5364 12.0788 1.8976
-17.3792 10.4522 1.8792
-18.0580 8.7690 1.8602
-18.5192 7.0271 1.8355
-18.7971 5.2685 1.8089
-18.9191 3.5185 1.7832
-18.7929 1.7808 1.7492
-18.5371 0.0941 1.7177
-18.0352 -1.5243 1.6772
-6.9705 -1.2232 0.6558
-6.0854 -1.6392 0.5840
-6.0880 -2.2396 0.6011
-6.0907 -2.8816 0.6244
-6.0936 -3.5811 0.6549
-6.0969 -4.3591 0.6945
-12.8390 -11.0377 1.5689
-11.6030 -11.9350 1.5424
-10.3438 -12.7417 1.5208
-9.0521 -13.4467 1.5020
-7.7321 -14.0498 1.4860
-6.3890 -14.5522 1.4727
-5.0276 -14.9551 1.4620
-3.6520 -15.2595 1.4539
-2.2665 -15.4661 1.4485
-0.8749 -15.5756 1.4456
0.5190 -15.5881 1.4452
1.9116 -15.5037 1.4475
3.2991 -15.3222 1.4523
4.6777 -15.0430 1.4598
6.0433 -14.6656 1.4698
7.3918 -14.1889 1.4825
8.2036 -12.8082 1.4094
9.1995 -11.8763 1.3920
10.3758 -11.1721 1.4128
2.5504 -2.2960 0.3180
2.7827 -2.0872 0.3223
3.0017 -1.8575 0.3271
3.2057 -1.6072 0.3323
3.3928 -1.3369 0.3379
3.5610 -1.0470 0.3439
3.7081 -0.7384 0.3504
3.8320 -0.4122 0.3571
3.9303 -0.0698 0.3643
4.0007 0.2871 0.3717
4.0410 0.6564 0.3794
4.0487 1.0357 0.3872
4.0218 1.4219 0.3953
3.9584 1.8117 0.4034
3.8568 2.2013 0.4115
18.5751 12.9280 2.0971
17.3468 14.5348 2.0971
15.9798 16.0254 2.0971
13.2843 15.9464 1.9232
12.8333 18.5515 2.0903
10.4760 18.4770 1.9682
9.2620 20.3897 2.0752
7.4135 21.1603 2.0776
3.6498 14.4387 1.3800
3.5387 22.1829 2.0815
0.8990 13.0476 1.2119
-0.2691 13.0581 1.2103
-2.4696 22.3599 2.0846
-4.4564 22.0523 2.0848
-6.4068 21.5643 2.0846
-6.2649 15.7680 1.5722
-7.3123 14.4816 1.5033
-9.3930 15.0827 1.6465
-9.9032 13.1252 1.5236
-15.0878 16.6644 2.0831
-15.2231 14.0576 1.9201
-16.2547 12.5171 1.9011
-17.1573 10.9204 1.8846
-17.8822 9.2511 1.8656
-18.4098 7.5250 1.8429
-18.7352 5.7673 1.8165
-18.9260 4.0187 1.7929
-18.8445 2.2690 1.7588
-18.6088 0.5665 1.7252
-18.1907 -1.0738 1.6885
-9.3892 -1.4033 0.8797
-6.0847 -1.4746 0.5802
-6.0872 -2.0657 0.5957
-6.0899 -2.6944 0.6171
-6.0928 -3.3757 0.6454
-6.0959 -4.1290 0.6823
-6.0995 -4.9805 0.7297
-11.9574 -11.6913 1.5496
-10.7043 -12.5230 1.5266
-9.4216 -13.2572 1.5071
-8.1091 -13.8890 1.4903
-6.7721 -14.4198 1.4762
-5.4154 -14.8509 1.4648
-4.0434 -15.1831 1.4560
-2.6603 -15.4174 1.4497
-1.2700 -15.5544 1.4461
0.1236 -15.5944 1.4451
1.5170 -15.5375 1.4466
2.9063 -15.3835 1.4507
4.2878 -15.1322 1.4574
5.6575 -14.7827 1.4667
7.0113 -14.3343 1.4786
8.1894 -13.5293 1.4655
8.8614 -12.0595 1.3867
10.0450 -11.3815 1.4067
10.2733 -9.7309 1.3112
2.7181 -2.1485 0.3210
2.9410 -1.9247 0.3257
3.1495 -1.6803 0.3308
3.3416 -1.4156 0.3363
3.5153 -1.1311 0.3422
3.6687 -0.8277 0.3485
3.7994 -0.5064 0.3552
3.9052 -0.1685 0.3622
3.9837 0.1845 0.3695
4.0328 0.5506 0.3772
4.0499 0.9273 0.3850
4.0331 1.3119 0.3930
3.9802 1.7010 0.4011
3.8896 2.0910 0.4092
3.7599 2.4777 0.4173
17.7097 14.0903 2.0971
9.1126 8.6866 1.1666
13.4746 15.3653 1.8937
13.3289 18.2604 2.0949
11.6068 19.3133 2.0880
9.7945 20.1863 2.0791
7.9451 20.9588 2.0770
4.0431 14.4433 1.3898
2.8534 15.3707 1.4486
2.1129 22.3751 2.0826
0.0620 13.0552 1.2098
-1.9018 22.4139 2.0844
-3.8959 22.1580 2.0847
-5.8583 21.7209 2.0847
-7.7514 21.0495 2.0786
-6.8597 14.4868 1.4853
-9.3889 15.9644 1.7162
-9.4019 13.1410 1.4973
-11.2962 13.1309 1.6050
-15.2086 14.7759 1.9649
-15.9609 12.9485 1.9045
-16.9223 11.3838 1.8899
-17.6931 9.7297 1.8711
-18.2868 8.0216 1.8504
-18.6600 6.2663 1.8240
-18.8751 4.5108 1.7983
-18.8837 2.7611 1.7684
-18.6907 1.0438 1.7347
-18.3359 -0.6164 1.7000
-10.5785 -1.3078 0.9877
-6.0840 -1.3121 0.5767
-6.0865 -1.8948 0.5907
-6.0891 -2.5115 0.6103
-6.0919 -3.1761 0.6366
-6.0950 -3.9066 0.6708
-6.0985 -4.7271 0.7150
-12.3089 -11.4390 1.5571
-11.0618 -12.2960 1.5326
-9.7887 -13.0594 1.5123
-8.4841 -13.7201 1.4948
-7.1535 -14.2795 1.4799
-5.8019 -14.7387 1.4677
-4.4338 -15.0989 1.4582
-3.0535 -15.3609 1.4512
-1.6649 -15.5254 1.4469
-0.2718 -15.5929 1.4451
1.1220 -15.5634 1.4459
2.5128 -15.4371 1.4493
3.8970 -15.2134 1.4552
5.2705 -14.8918 1.4638
6.6292 -14.4716 1.4750
7.9688 -13.9516 1.4888
8.5235 -12.2382 1.3820
9.7119 -11.5832 1.4007
10.2745 -10.2386 1.3441
2.6525 -2.2082 0.3198
2.8792 -1.9903 0.3243
3.0919 -1.7517 0.3293
3.2888 -1.4927 0.3347
3.4680 -1.2138 0.3405
3.6274 -0.9157 0.3467
3.7647 -0.5993 0.3532
3.8778 -0.2659 0.3602
3.9644 0.0830 0.3674
4.0220 0.4455 0.3750
4.0484 0.8195 0.3827
4.0414 1.2022 0.3907
3.9990 1.5904 0.3988
3.9192 1.9806 0.4069
3.8007 2.3687 0.4150
18.0613 13.6368 2.0971
16.7716 15.1948 2.0971
15.3481 16.6315 2.0971
13.7969 17.9287 2.0963
12.0939 19.0146 2.0882
10.3173 19.9589 2.0820
8.4710 20.7437 2.0763
6.5926 21.4411 2.0786
3.0595 14.4319 1.3670
2.6790 22.3102 2.0822
0.3931 13.0522 1.2100
-0.7754 13.0627 1.2126
-3.3328 22.2492 2.0847
-5.3059 21.8631 2.0847
-7.2351 21.2976 2.0843
-6.4175 14.4919 1.4687
-9.3226 16.8131 1.7814
-9.3602 13.8096 1.5459
-10.7271 13.1285 1.5710
-15.2003 15.5362 2.0141
-15.6552 13.3727 1.9079
-16.6742 11.8419 1.8951
-17.4908 10.2044 1.8764
-18.1500 8.5167 1.8578
-18.5713 6.7651 1.8315
-18.8244 5.0065 1.8050
-18.9103 3.2567 1.7781
-18.7608 1.5258 1.7442
-18.4706 -0.1524 1.7116
-17.9496 -1.7583 1.6712
-6.4691 -1.2243 0.6101
-6.0858 -1.7266 0.5862
-6.0884 -2.3324 0.6042
-6.0911 -2.9818 0.6284
-6.0941 -3.6915 0.6602
-6.0974 -4.4835 0.7013
-12.6571 -11.1783 1.5648
-11.4164 -12.0606 1.5389
-10.1532 -12.8534 1.5178
-8.8570 -13.5431 1.4995
-7.5332 -14.1310 1.4839
-6.1871 -14.6185 1.4709
-4.8233 -15.0067 1.4606
-3.4461 -15.2965 1.4530
-2.0593 -15.4886 1.4479
-0.6672 -15.5836 1.4454
0.7268 -15.5816 1.4454
2.1189 -15.4828 1.4481
3.5053 -15.2868 1.4533
4.8822 -14.9930 1.4611
6.2456 -14.6009 1.4715
7.5911 -14.1092 1.4846
8.2171 -12.4603 1.3831
9.3766 -11.7773 1.3950
10.2757 -10.7726 1.3795
2.5858 -2.2662 0.3186
2.8162 -2.0542 0.3230
3.0331 -1.8215 0.3278
3.2347 -1.5682 0.3331
3.4191 -1.2948 0.3388
3.5843 -1.0021 0.3449
3.7281 -0.6908 0.3513
3.8483 -0.3621 0.3582
3.9426 -0.0175 0.3653
4.0087 0.3414 0.3728
4.0442 0.7124 0.3805
4.0469 1.0929 0.3884
4.0147 1.4799 0.3965
3.9457 1.8699 0.4046
3.8383 2.2590 0.4127
18.4012 13.1745 2.0971
17.1515 14.7647 2.0971
15.7648 16.2370 2.0971
14.2471 17.5732 2.0963
12.5731 18.7035 2.0883
10.8299 19.7090 2.0839
8.9911 20.5151 2.0756
7.1320 21.2607 2.0780
3.4451 14.4364 1.3753
3.2431 22.2306 2.0818
0.7245 13.0492 1.2110
-0.4433 13.0597 1.2109
-2.7675 22.3256 2.0846
-4.7500 21.9909 2.0848
-6.6935 21.4764 2.0845
-6.2576 15.1576 1.5195
-7.5547 14.4788 1.5133
-9.3950 14.6472 1.6125
-10.1814 13.1263 1.5393
-15.1909 16.3352 2.0671
-15.3377 13.7892 1.9112
-16.4043 12.2875 1.8992
-17.2756 10.6749 1.8818
-17.9762 8.9981 1.8628
-18.4690 7.2634 1.8390
-18.7694 5.5051 1.8125
-18.9240 3.7554 1.7878
-18.8189 2.0119 1.7538
-18.5611 0.3175 1.7202
-18.1102 -1.3115 1.6826
-7.4924 -1.2221 0.7034
-6.0851 -1.5608 0.5821
-6.0876 -2.1567 0.5985
-6.0903 -2.7923 0.6208
-6.0932 -3.4829 0.6504
-6.0965 -4.2490 0.6886
-6.1001 -5.1180 0.7379
-11.7715 -11.8205 1.5458
-10.5151 -12.6390 1.5235
-9.2277 -13.3578 1.5044
-7.9112 -13.9745 1.4880
-6.5710 -14.4904 1.4743
-5.2116 -14.9067 1.4633
-3.8378 -15.2243 1.4549
-2.4534 -15.4440 1.4490
-1.0624 -15.5665 1.4458
0.3314 -15.5920 1.4451
1.7244 -15.5207 1.4471
3.1128 -15.3523 1.4515
4.4929 -15.0863 1.4586
5.8605 -14.7221 1.4683
7.2115 -14.2588 1.4806
8.1970 -13.1433 1.4353
9.0391 -11.9638 1.3895
10.2192 -11.2724 1.4099
2.5183 -2.3224 0.3174
2.7522 -2.1165 0.3217
2.9730 -1.8896 0.3264
3.1792 -1.6421 0.3316
3.3687 -1.3744 0.3371
3.5395 -1.0871 0.3431
3.6896 -0.7809 0.3495
3.8168 -0.4571 0.3562
3.9187 -0.1168 0.3633
3.9930 0.2383 0.3707
4.0374 0.6061 0.3783
4.0496 0.9842 0.3862
4.0275 1.3697 0.3942
3.9691 1.7592 0.4023
3.8728 2.1490 0.4104
9.1545 6.2093 1.0250
17.5203 14.3250 2.0971
16.1714 15.8321 2.0971
13.2715 15.5470 1.8942
13.0714 18.4182 2.0928
10.6779 18.3161 1.9646
9.5105 20.2852 2.0760
7.6663 21.0664 2.0773
3.8357 14.4409 1.3845
2.8391 16.5178 1.5530
1.0567 13.0462 1.2129
-0.1120 13.0567 1.2099
-2.2004 22.3874 2.0845
-4.1909 22.1043 2.0848
-6.1471 21.6404 2.0846
-6.1939 16.1527 1.6030
-7.0962 14.4841 1.4946
-9.3911 15.4918 1.6787
-9.6569 13.1242 1.5099
-14.8929 16.8522 2.0840
-15.2127 14.3908 1.9405
-16.1168 12.7226 1.9027
-17.0474 11.1409 1.8871
-17.7941 9.4786 1.8682
-18.3532 7.7607 1.8465
-18.7012 6.0040 1.8200
-18.9246 4.2569 1.7974
-18.8647 2.5020 1.7634
-18.6491 0.7923 1.7297
-18.2608 -0.8577 1.6940
-9.4619 -1.2980 0.8850
-6.0844 -1.3972 0.5785
-6.0869 -1.9843 0.5932
-6.0895 -2.6072 0.6138
-6.0924 -3.2804 0.6412
-6.0955 -4.0226 0.6767
-6.0990 -4.8590 0.7226
-12.1245 -11.5727 1.5531
-10.8743 -12.4163 1.5294
-9.5960 -13.1644 1.5095
-8.2872 -13.8099 1.4924
-6.9532 -14.3543 1.4780
-5.5988 -14.7987 1.4662
-4.2287 -15.1441 1.4570
-2.8469 -15.3916 1.4504
-1.4574 -15.5416 1.4465
-0.0640 -15.5946 1.4451
1.3297 -15.5508 1.4462
2.7198 -15.4099 1.4500
4.1026 -15.1717 1.4564
5.4741 -14.8355 1.4653
6.8303 -14.4004 1.4769
8.1666 -13.8654 1.4911
8.7014 -12.1452 1.3844
9.8874 -11.4781 1.4038
10.2738 -9.9685 1.3265
2.6871 -2.1770 0.3205
2.9118 -1.9561 0.3250
3.1223 -1.7144 0.3301
3.3167 -1.4523 0.3355
3.4931 -1.1705 0.3414
3.6493 -0.8696 0.3476
3.7832 -0.5506 0.3543
3.8925 -0.2148 0.3612
3.9748 0.1362 0.3685
4.0280 0.5006 0.3761
4.0495 0.8761 0.3839
4.0374 1.2598 0.3919
3.9895 1.6485 0.4000
3.9040 2.0387 0.4081
3.7796 2.4261 0.4162
17.8779 13.8763 2.0971
9.1993 8.5604 1.1644
13.8317 15.3950 1.9178
13.5553 18.1091 2.0961
11.8389 19.1732 2.0881
10.0440 20.0817 2.0806
8.1952 20.8585 2.0767
6.3072 21.5304 2.0789
2.8647 14.4604 1.3660
2.3816 22.3461 2.0824
0.2191 13.0537 1.2098
-0.9504 13.0642 1.2138
-3.6290 22.2031 2.0847
-5.5967 21.7901 2.0847
-7.5077 21.1692 2.0813
-6.6487 14.4892 1.4772
-9.3868 16.4094 1.7518
-9.4004 13.4785 1.5227
-11.0232 13.1298 1.5886
-15.2047 15.1320 1.9878
-15.8173 13.1507 1.9061
-16.8063 11.6017 1.8924
-17.5988 9.9553 1.8736
-18.2236 8.2566 1.8539
-18.6196 6.5030 1.8276
-18.8480 4.7447 1.8010
-18.8979 2.9958 1.7730
-18.7255 1.2719 1.7392
-18.4011 -0.3971 1.7055
-17.4446 -1.9440 1.6265
-6.0837 -1.2356 0.5753
-6.0862 -1.8147 0.5885
-6.0888 -2.4261 0.6073
-6.0915 -3.0833 0.6327
-6.0946 -3.8037 0.6657
-6.0980 -4.6104 0.7084
-12.4744 -11.3164 1.5607
-11.2304 -12.1854 1.5355
-9.9619 -12.9627 1.5149
-8.6612 -13.6371 1.4970
-7.3338 -14.2101 1.4818
-5.9848 -14.6827 1.4692
-4.6187 -15.0561 1.4593
-3.2398 -15.3313 1.4520
-1.8520 -15.5089 1.4473
-0.4594 -15.5894 1.4452
0.9346 -15.5731 1.4457
2.3260 -15.4597 1.4487
3.7113 -15.2492 1.4543
5.0864 -14.9408 1.4625
6.4474 -14.5339 1.4733
7.7899 -14.0274 1.4868
8.3741 -12.3375 1.3817
9.5531 -11.6762 1.3979
10.2750 -10.4884 1.3606
2.6210 -2.2359 0.3192
2.8494 -2.0209 0.3237
3.0642 -1.7850 0.3286
3.2633 -1.5287 0.3339
3.4450 -1.2524 0.3397
3.6072 -0.9568 0.3458
3.7476 -0.6429 0.3523
3.8641 -0.3117 0.3592
3.9543 0.0352 0.3664
4.0160 0.3960 0.3739
4.0468 0.7686 0.3817
4.0444 1.1503 0.3896
4.0068 1.5380 0.3977
3.9322 1.9281 0.4058
3.8189 2.3167 0.4139
18.2240 13.4186 2.0971
16.9532 14.9920 2.0971
15.5470 16.4457 2.0971
14.0116 17.7615 2.0963
12.3222 18.8686 2.0882
10.5653 19.8499 2.0837
8.7185 20.6369 2.0759
6.8490 21.3573 2.0783
3.2418 14.4340 1.3708
2.9469 22.2743 2.0820
0.5502 13.0507 1.2104
-0.6178 13.0613 1.2117
-3.0649 22.2873 2.0847
-5.0426 21.9255 2.0847
-6.9789 21.3845 2.0844
-6.2507 14.5867 1.4705
-9.2187 17.1079 1.8008
-9.2416 13.9942 1.5540
-10.4655 13.1275 1.5557
-15.1959 15.9100 2.0387
-15.5060 13.5712 1.9094
-16.5506 12.0561 1.8974
-17.3902 10.4280 1.8790
-18.0666 8.7442 1.8599
-18.5245 7.0016 1.8351
-18.7999 5.2430 1.8086
-18.9184 3.4928 1.7827
-18.7899 1.7558 1.7487
-18.5308 0.0700 1.7171
-18.0270 -1.5473 1.6766
-6.9183 -1.2233 0.6510
-6.0855 -1.6477 0.5842
-6.0880 -2.2486 0.6014
-6.0907 -2.8913 0.6248
-6.0937 -3.5918 0.6555
-6.0970 -4.3712 0.6952
-12.8212 -11.0516 1.5685
-11.5848 -11.9473 1.5421
-10.3252 -12.7527 1.5205
-9.0331 -13.4562 1.5018
-7.7128 -14.0578 1.4858
