ply
format ascii 1.0
element vertex 933
property float32 x
property float32 y
property float32 z
end_header
12.0782 -20.5607 -8.9017
10.4613 -22.0714 -8.9468
12.1493 -20.6818 -8.7861
10.4613 -22.0714 -8.7766
12.1493 -20.6818 -8.6189
8.7805 -23.7522 -8.9236
10.4613 -22.0714 -8.6071
12.1493 -20.6818 -8.4525
8.8610 -23.9701 -8.8288
10.4613 -22.0714 -8.4383
12.1493 -20.6818 -8.2867
6.9565 -25.5762 -8.9746
8.8610 -23.9701 -8.6530
10.4613 -22.0714 -8.2702
12.1493 -20.6818 -8.1217
7.0203 -25.8108 -8.8737
8.8610 -23.9701 -8.4779
10.4613 -22.0714 -8.1029
12.1493 -20.6818 -7.9573
7.0203 -25.8108 -8.6911
8.8610 -23.9701 -8.3035
10.4613 -22.0714 -7.9362
12.1493 -20.6818 -7.7936
7.0203 -25.8108 -8.5093
8.8610 -23.9701 -8.1298
10.4613 -22.0714 -7.7702
12.1493 -20.6818 -7.6306
0.0000 -25.0410 -7.7966
7.0203 -25.8108 -8.3282
8.8610 -23.9701 -7.9568
10.4613 -22.0714 -7.6048
12.1493 -20.6818 -7.4682
-0.0000 -25.0410 -7.6277
7.0197 -25.8088 -8.1472
8.8610 -23.9701 -7.7844
10.4613 -22.0714 -7.4401
12.1135 -20.6209 -7.2849
0.0000 -25.0758 -7.4698
7.0203 -25.8108 -7.9681
8.8610 -23.9701 -7.6127
10.4613 -22.0714 -7.2760
12.1493 -20.6818 -7.1453
-0.0000 -25.0686 -7.2999
7.0203 -25.8108 -7.7890
8.8610 -23.9701 -7.4416
10.4613 -22.0714 -7.1125
12.1493 -20.6818 -6.9847
0.0000 -25.0615 -7.1306
7.0203 -25.8108 -7.6106
8.8610 -23.9701 -7.2712
10.4613 -22.0714 -6.9495
11.1615 -19.0002 -6.2698
0.0000 -25.0544 -6.9620
7.0203 -25.8108 -7.4328
8.8610 -23.9701 -7.1013
10.4613 -22.0714 -6.7872
11.1577 -18.9938 -6.1213
0.0000 -25.0474 -6.7942
7.0203 -25.8108 -7.2556
8.8610 -23.9701 -6.9320
9.7212 -20.5099 -6.1567
11.1577 -18.9939 -5.9753
-0.0000 -25.0445 -6.6280
7.0203 -25.8108 -7.0790
8.8610 -23.9701 -6.7633
9.8171 -20.7124 -6.0661
11.1871 -19.0440 -5.8453
-0.0000 -25.0416 -6.4625
7.0203 -25.8109 -6.9030
8.2087 -22.2055 -6.1096
9.8171 -20.7124 -5.9153
11.1871 -19.0440 -5.6999
-0.0000 -25.0024 -6.2884
7.0203 -25.8108 -6.7275
8.2398 -22.2898 -5.9769
9.8171 -20.7124 -5.7649
11.1871 -19.0440 -5.5550
0.0000 -25.0425 -6.1347
6.5282 -24.0014 -6.0932
8.2398 -22.2897 -5.8215
9.8171 -20.7124 -5.6150
11.1871 -19.0440 -5.4106
-0.0000 -25.0024 -5.9618
6.5282 -24.0014 -5.9311
8.2398 -22.2898 -5.6665
9.7212 -20.5100 -5.4121
11.1871 -19.0440 -5.2666
-0.0000 -25.0411 -5.8083
4.6333 -25.8963 -6.1020
6.5282 -24.0014 -5.7694
8.2398 -22.2898 -5.5121
9.8171 -20.7124 -5.3166
11.1871 -19.0440 -5.1230
-0.0000 -25.0405 -5.6458
4.6333 -25.8963 -5.9315
6.5282 -24.0014 -5.6081
8.2354 -22.2778 -5.3551
9.8171 -20.7124 -5.1680
11.1871 -19.0440 -4.9798
-0.0000 -25.0398 -5.4838
4.6333 -25.8963 -5.7614
6.4643 -23.7668 -5.3941
8.2398 -22.2897 -5.2044
9.8171 -20.7124 -5.0198
11.1871 -19.0440 -4.8371
-0.0000 -25.0392 -5.3222
4.6333 -25.8963 -5.5918
6.5281 -24.0014 -5.2870
8.2398 -22.2898 -5.0512
9.8171 -20.7124 -4.8720
11.1871 -19.0440 -4.6947
-0.0000 -25.0385 -5.1611
4.5880 -25.6431 -5.3697
6.5282 -24.0014 -5.1271
8.2398 -22.2897 -4.8984
9.8171 -20.7124 -4.7247
11.1871 -19.0440 -4.5527
-0.0000 -25.0378 -5.0004
4.6333 -25.8963 -5.2540
6.5282 -24.0014 -4.9675
8.2398 -22.2897 -4.7460
9.7212 -20.5100 -4.5329
11.1871 -19.0440 -4.4110
-0.0000 -25.0372 -4.8401
4.6333 -25.8963 -5.0856
6.5282 -24.0014 -4.8084
8.2398 -22.2898 -4.5939
9.8171 -20.7124 -4.4310
11.1871 -19.0440 -4.2697
-0.0000 -25.0365 -4.6801
4.6333 -25.8963 -4.9177
6.5282 -24.0014 -4.6496
8.2398 -22.2898 -4.4423
9.8171 -20.7124 -4.2847
11.1871 -19.0440 -4.1287
-0.0000 -25.0359 -4.5206
4.6333 -25.8963 -4.7502
6.5282 -24.0014 -4.4912
8.2398 -22.2898 -4.2909
9.8171 -20.7124 -4.1388
11.1871 -19.0440 -3.9881
-0.0000 -25.0352 -4.3614
4.5880 -25.6432 -4.5382
6.5282 -24.0014 -4.3332
8.2398 -22.2898 -4.1399
9.8171 -20.7124 -3.9931
10.8699 -18.5040 -3.7386
-0.0000 -25.0346 -4.2026
4.6333 -25.8963 -4.4163
6.5282 -24.0014 -4.1755
8.2398 -22.2898 -3.9893
9.4820 -20.0055 -3.7165
10.8699 -18.5040 -3.6026
-0.0000 -25.0339 -4.0441
4.6333 -25.8963 -4.2498
6.5282 -24.0014 -4.0181
7.9586 -21.5289 -3.7079
9.4820 -20.0055 -3.5764
10.8699 -18.5040 -3.4668
-0.0000 -25.0333 -3.8859
4.6333 -25.8963 -4.0837
6.3053 -23.1822 -3.7293
7.9586 -21.5289 -3.5629
9.4820 -20.0055 -3.4366
10.8699 -18.5040 -3.3313
-0.0000 -25.0326 -3.7280
4.4579 -24.9160 -3.7696
6.3053 -23.1822 -3.5779
7.9586 -21.5289 -3.4183
9.4820 -20.0055 -3.2971
10.8699 -18.5040 -3.1960
-0.0000 -25.0320 -3.5704
4.4751 -25.0124 -3.6243
6.3053 -23.1822 -3.4267
7.9586 -21.5289 -3.2739
9.4820 -20.0055 -3.1578
10.8699 -18.5040 -3.0610
-0.0000 -25.0313 -3.4132
2.4038 -27.0837 -3.7075
4.4751 -25.0124 -3.4647
6.3053 -23.1822 -3.2759
7.9586 -21.5289 -3.1298
9.4455 -19.9284 -3.0071
10.8699 -18.5040 -2.9263
-0.0000 -25.0307 -3.2561
2.4038 -27.0837 -3.5371
4.4751 -25.0124 -3.3054
6.3053 -23.1822 -3.1252
7.9586 -21.5289 -2.9859
9.4820 -20.0055 -2.8800
10.8699 -18.5040 -2.7917
0.0000 -25.0300 -3.0994
2.4038 -27.0837 -3.3669
4.4751 -25.0124 -3.1464
6.3053 -23.1822 -2.9749
7.9586 -21.5289 -2.8422
9.4820 -20.0055 -2.7414
10.8699 -18.5040 -2.6574
-0.0000 -25.0294 -2.9429
2.4038 -27.0837 -3.1969
4.4751 -25.0124 -2.9876
6.3053 -23.1822 -2.8247
7.9586 -21.5289 -2.6987
9.4820 -20.0055 -2.6030
10.8699 -18.5040 -2.5233
-0.0000 -25.0288 -2.7866
2.3945 -26.9794 -3.0156
4.4751 -25.0124 -2.8290
6.3053 -23.1822 -2.6748
7.9586 -21.5289 -2.5555
9.4820 -20.0055 -2.4649
10.8699 -18.5040 -2.3893
-0.0000 -25.0281 -2.6306
2.4038 -27.0838 -2.8578
4.4751 -25.0124 -2.6707
6.3053 -23.1822 -2.5251
7.9586 -21.5289 -2.4124
9.4820 -20.0055 -2.3269
10.8699 -18.5040 -2.2556
0.0000 -25.0275 -2.4747
2.4038 -27.0838 -2.6886
4.4751 -25.0124 -2.5125
6.3053 -23.1822 -2.3755
7.9586 -21.5289 -2.2696
9.4455 -19.9284 -2.1807
10.8699 -18.5040 -2.1220
-0.0000 -25.0268 -2.3191
2.4038 -27.0838 -2.5195
4.4751 -25.0124 -2.3545
6.3053 -23.1822 -2.2262
7.9586 -21.5289 -2.1269
9.4820 -20.0055 -2.0515
10.8699 -18.5040 -1.9886
0.0000 -25.0262 -2.1636
2.4038 -27.0838 -2.3507
4.4751 -25.0124 -2.1968
6.3053 -23.1822 -2.0770
7.9586 -21.5289 -1.9844
9.4820 -20.0055 -1.9140
10.8699 -18.5040 -1.8554
-0.0000 -25.0256 -2.0083
2.3945 -26.9794 -2.1737
4.4751 -25.0124 -2.0392
6.3053 -23.1822 -1.9280
7.9586 -21.5289 -1.8420
9.4820 -20.0055 -1.7767
10.8699 -18.5040 -1.7222
-0.0000 -25.0249 -1.8532
2.4038 -27.0837 -2.0136
4.4751 -25.0124 -1.8817
6.3053 -23.1822 -1.7791
7.9586 -21.5289 -1.6998
9.4820 -20.0055 -1.6395
10.8699 -18.5040 -1.5893
-0.0000 -25.0243 -1.6982
2.4038 -27.0838 -1.8452
4.4751 -25.0124 -1.7244
6.3053 -23.1822 -1.6304
7.9586 -21.5289 -1.5577
9.4820 -20.0055 -1.5024
10.8699 -18.5040 -1.4564
-0.0000 -25.0237 -1.5434
2.4038 -27.0837 -1.6770
4.4751 -25.0124 -1.5672
6.3053 -23.1822 -1.4818
7.9279 -21.4460 -1.4102
9.4455 -19.9284 -1.3602
10.8699 -18.5040 -1.3236
-0.0000 -25.0230 -1.3887
2.4038 -27.0838 -1.5090
4.4579 -24.9160 -1.4047
6.2810 -23.0929 -1.3281
7.9279 -21.4460 -1.2689
9.4455 -19.9284 -1.2239
10.8699 -18.5040 -1.1910
-0.0000 -25.0224 -1.2341
2.3945 -26.9794 -1.3359
4.4579 -24.9160 -1.2484
6.2810 -23.0929 -1.1803
7.9279 -21.4460 -1.1277
9.4455 -19.9284 -1.0877
10.8699 -18.5040 -1.0584
-0.0000 -25.0218 -1.0796
2.3945 -26.9794 -1.1687
4.4579 -24.9160 -1.0921
6.2810 -23.0929 -1.0326
7.9279 -21.4460 -0.9865
9.4455 -19.9284 -0.9515
10.8699 -18.5040 -0.9260
0.0000 -25.0211 -0.9252
2.3945 -26.9794 -1.0015
4.4579 -24.9160 -0.9359
6.2810 -23.0929 -0.8849
7.9279 -21.4460 -0.8455
9.4455 -19.9284 -0.8155
10.8699 -18.5040 -0.7935
-0.0000 -25.0205 -0.7709
2.3945 -26.9794 -0.8345
4.4579 -24.9160 -0.7798
6.2810 -23.0929 -0.7373
7.9279 -21.4460 -0.7044
9.4455 -19.9284 -0.6795
10.8699 -18.5040 -0.6612
-0.0000 -25.0199 -0.6166
2.3945 -26.9794 -0.6675
4.4579 -24.9160 -0.6238
6.2810 -23.0929 -0.5898
7.9279 -21.4460 -0.5635
9.4455 -19.9284 -0.5435
10.8699 -18.5040 -0.5289
-0.0000 -25.0192 -0.4624
2.3945 -26.9794 -0.5006
4.4579 -24.9160 -0.4678
6.2810 -23.0929 -0.4423
7.9279 -21.4460 -0.4226
9.4455 -19.9284 -0.4076
10.8699 -18.5040 -0.3966
-0.0000 -25.0186 -0.3082
2.3945 -26.9794 -0.3337
4.4579 -24.9160 -0.3119
6.2810 -23.0929 -0.2949
7.9279 -21.4460 -0.2817
9.4455 -19.9284 -0.2717
10.8699 -18.5040 -0.2644
-0.0000 -25.0180 -0.1541
2.3945 -26.9794 -0.1669
4.4579 -24.9160 -0.1559
6.2810 -23.0929 -0.1474
7.9279 -21.4460 -0.1408
9.4455 -19.9284 -0.1359
10.8699 -18.5040 -0.1322
0.0000 -25.0173 -0.0000
2.3945 -26.9794 -0.0000
4.4579 -24.9160 -0.0000
6.2810 -23.0929 -0.0000
7.9279 -21.4460 -0.0000
9.4455 -19.9284 -0.0000
10.8699 -18.5040 -0.0000
-0.0000 -25.0167 0.1541
2.3945 -26.9794 0.1668
4.6013 -25.7177 0.1609
6.4831 -23.8359 0.1522
8.1830 -22.1360 0.1454
9.7494 -20.5696 0.1402
10.8699 -18.5040 0.1322
-0.0000 -25.0161 0.3082
2.3945 -26.9794 0.3337
4.6013 -25.7177 0.3219
6.4831 -23.8359 0.3043
8.1830 -22.1360 0.2908
9.7494 -20.5696 0.2805
10.8699 -18.5040 0.2644
-0.0000 -25.0154 0.4623
2.3945 -26.9794 0.5006
4.6013 -25.7177 0.4829
6.4831 -23.8359 0.4565
8.1830 -22.1360 0.4362
9.7494 -20.5696 0.4207
10.8699 -18.5040 0.3966
-0.0000 -25.0148 0.6165
2.3945 -26.9794 0.6675
4.6013 -25.7177 0.6439
6.4831 -23.8359 0.6088
8.1830 -22.1360 0.5816
9.7494 -20.5696 0.5610
10.8699 -18.5040 0.5289
-0.0000 -25.0142 0.7707
2.3945 -26.9794 0.8345
4.6013 -25.7177 0.8049
6.4831 -23.8359 0.7611
8.1830 -22.1360 0.7271
9.7494 -20.5696 0.7013
10.8699 -18.5040 0.6612
0.0000 -25.0135 0.9249
2.3945 -26.9794 1.0015
4.6013 -25.7177 0.9661
6.4831 -23.8359 0.9134
8.1830 -22.1360 0.8727
9.7494 -20.5696 0.8417
10.8699 -18.5040 0.7935
-0.0000 -25.0129 1.0792
2.3945 -26.9794 1.1686
4.6013 -25.7177 1.1272
6.4831 -23.8359 1.0658
8.1830 -22.1360 1.0183
9.7494 -20.5696 0.9821
10.8699 -18.5040 0.9259
-0.0000 -25.0123 1.2336
2.3945 -26.9794 1.3358
4.6013 -25.7177 1.2885
6.4831 -23.8359 1.2183
8.1830 -22.1360 1.1640
9.7494 -20.5696 1.1227
10.8699 -18.5040 1.0584
-0.0000 -25.0116 1.3881
2.3945 -26.9794 1.5032
4.6013 -25.7177 1.4499
6.4831 -23.8359 1.3709
8.1830 -22.1360 1.3097
9.7494 -20.5696 1.2633
10.8699 -18.5040 1.1910
0.0000 -24.9169 1.5368
2.3945 -26.9794 1.6706
4.6013 -25.7177 1.6114
6.4831 -23.8359 1.5236
8.1830 -22.1360 1.4556
9.7494 -20.5696 1.4040
10.8699 -18.5040 1.3236
-0.0000 -24.8886 1.6890
2.3945 -26.9794 1.8381
4.6013 -25.7177 1.7730
6.4831 -23.8359 1.6764
8.1830 -22.1360 1.6016
9.7494 -20.5696 1.5448
10.8699 -18.5040 1.4564
0.0000 -24.8604 1.8410
2.3945 -26.9794 2.0058
4.6013 -25.7177 1.9348
6.4831 -23.8359 1.8293
8.1830 -22.1360 1.7477
9.7494 -20.5696 1.6857
10.8699 -18.5040 1.5893
-0.0000 -24.8322 1.9928
2.3945 -26.9794 2.1736
4.6013 -25.7177 2.0967
6.4831 -23.8359 1.9824
8.1830 -22.1360 1.8939
9.7494 -20.5696 1.8268
10.8699 -18.5040 1.7222
0.0000 -24.7952 2.1436
2.2837 -25.7305 2.2333
4.5260 -25.2967 2.2217
6.4831 -23.8359 2.1356
8.1830 -22.1360 2.0403
9.7494 -20.5696 1.9680
10.8699 -18.5040 1.8553
-0.0000 -24.1346 2.2364
2.1255 -23.9479 2.2278
4.2073 -23.5152 2.2136
6.2276 -22.8962 2.1987
8.1439 -22.0303 2.1764
9.7494 -20.5696 2.1093
10.8699 -18.5040 1.9886
0.0000 -22.5615 2.2309
1.9846 -22.3611 2.2198
3.9302 -21.9664 2.2065
5.8114 -21.3661 2.1894
7.6048 -20.5719 2.1687
9.2877 -19.5955 2.1442
10.8363 -18.4466 2.1154
0.0000 -21.4628 2.2558
1.8611 -20.9695 2.2126
3.6866 -20.6048 2.2000
5.4469 -20.0261 2.1813
7.1355 -19.3024 2.1629
8.7056 -18.3674 2.1364
10.1657 -17.3051 2.1094
0.0000 -21.3561 2.3777
1.7525 -19.7445 2.2069
3.4674 -19.3799 2.1920
5.1253 -18.8438 2.1742
6.7092 -18.1493 2.1543
8.1916 -17.2828 2.1294
9.5725 -16.2954 2.1041
0.0000 -20.1574 2.3701
1.7485 -19.7005 2.3254
3.2726 -18.2911 2.1848
4.8396 -17.7931 2.1681
6.3324 -17.1300 2.1473
7.7353 -16.3202 2.1235
9.0444 -15.3964 2.0995
0.0000 -19.0787 2.3624
1.6809 -18.9391 2.3544
3.2570 -18.2038 2.2899
4.5982 -16.9057 2.1694
5.9956 -16.2190 2.1412
7.3283 -15.4614 2.1187
8.5719 -14.5919 2.0956
0.0000 -18.1081 2.3556
1.5957 -17.9787 2.3480
3.1585 -17.6536 2.3330
4.5901 -16.8761 2.2751
5.8006 -15.6915 2.1762
6.9614 -14.6873 2.1144
8.1436 -13.8629 2.0915
0.0000 -17.2301 2.3494
1.5183 -17.1072 2.3418
3.0060 -16.8013 2.3273
4.4496 -16.3594 2.3117
5.7934 -15.6719 2.2783
6.9090 -14.5768 2.1996
7.9563 -13.5440 2.1419
0.0000 -16.4321 2.3438
1.4479 -16.3134 2.3360
2.8674 -16.0263 2.3222
4.2428 -15.5991 2.3058
5.5560 -15.0298 2.2856
6.8008 -14.3485 2.2649
7.9470 -13.5282 2.2379
0.0000 -15.7034 2.3387
1.3836 -15.5888 2.3307
2.7407 -15.3184 2.3175
4.0541 -14.9052 2.3004
5.3109 -14.3668 2.2811
6.5034 -13.7211 2.2613
7.6127 -12.9591 2.2383
-0.0000 -15.0355 2.3339
1.3246 -14.9246 2.3258
2.6246 -14.6693 2.3132
3.8811 -14.2692 2.2955
5.0862 -13.7587 2.2770
6.2283 -13.1405 2.2573
7.2878 -12.4061 2.2335
0.0000 -14.4210 2.3296
1.2704 -14.3136 2.3213
2.5162 -14.0636 2.3080
3.7220 -13.6842 2.2909
4.8793 -13.1990 2.2732
5.9703 -12.5962 2.2518
6.9889 -11.8973 2.2290
-0.0000 -13.8529 2.3255
1.2203 -13.7495 2.3172
2.4162 -13.5048 2.3031
3.5751 -13.1443 2.2867
4.6846 -12.6724 2.2680
5.7323 -12.0942 2.2468
6.7131 -11.4278 2.2249
0.0000 -13.3263 2.3216
1.1740 -13.2272 2.3134
2.3237 -12.9876 2.2985
3.4380 -12.6403 2.2821
4.5031 -12.1813 2.2625
5.5122 -11.6297 2.2421
6.4597 -10.9963 2.2218
0.0000 -12.8368 2.3179
1.1304 -12.7358 2.3087
2.2375 -12.5060 2.2940
3.3084 -12.1638 2.2761
4.3347 -11.7260 2.2573
5.2911 -11.1632 2.2306
6.2268 -10.6000 2.2198
0.0000 -12.3812 2.3145
1.0896 -12.2760 2.3038
2.1555 -12.0473 2.2878
3.1880 -11.7210 2.2706
4.1798 -11.3068 2.2534
5.1052 -10.7711 2.2282
6.0097 -10.2304 2.2179
-0.0000 -11.9622 2.3125
1.0510 -11.8416 2.2982
2.0799 -11.6249 2.2829
3.0664 -11.2740 2.2586
4.0365 -10.9191 2.2504
4.9443 -10.4316 2.2316
5.8068 -9.8849 2.2162
0.0000 -11.5542 2.3075
1.0154 -11.4401 2.2937
2.0098 -11.2332 2.2790
2.9748 -10.9371 2.2636
3.8886 -10.5192 2.2398
4.7851 -10.0958 2.2313
5.6167 -9.5613 2.2146
0.0000 -11.1721 2.3029
0.9820 -11.0640 2.2896
1.9442 -10.8662 2.2754
2.8782 -10.5821 2.2605
3.7765 -10.2160 2.2451
4.6165 -9.7399 2.2218
5.4382 -9.2575 2.2131
0.0000 -10.8137 2.2985
0.9506 -10.7110 2.2856
1.8825 -10.5216 2.2719
2.7875 -10.2487 2.2576
3.6583 -9.8962 2.2426
4.4880 -9.4688 2.2273
5.2703 -8.9717 2.2117
0.0000 -10.4766 2.2944
0.9212 -10.3790 2.2820
1.8245 -10.1973 2.2687
2.7022 -9.9347 2.2548
3.5470 -9.5950 2.2403
4.3523 -9.1826 2.2255
5.1121 -8.7023 2.2103
0.0000 -10.1591 2.2906
0.8934 -10.0661 2.2785
1.7698 -9.8917 2.2657
2.6216 -9.6387 2.2522
3.4419 -9.3109 2.2382
4.2243 -8.9124 2.2237
4.9627 -8.4480 2.2091
0.0000 -9.8595 2.2869
0.8672 -9.7707 2.2752
1.7181 -9.6030 2.2628
2.5456 -9.3591 2.2497
3.3427 -9.0424 2.2361
4.1032 -8.6570 2.2221
4.8213 -8.2074 2.2079
0.0000 -9.5763 2.2835
0.8424 -9.4914 2.2721
1.6693 -9.3300 2.2601
2.4736 -9.0945 2.2474
3.2487 -8.7883 2.2342
3.9886 -8.4152 2.2206
4.6875 -7.9796 2.2067
0.0000 -1.4819 0.3630
0.8189 -9.2269 2.2692
1.6172 -9.0386 2.2494
2.4054 -8.8437 2.2451
3.1597 -8.5473 2.2323
3.8799 -8.1858 2.2191
4.5605 -7.7634 2.2057
0.0000 -1.4437 0.3631
0.7967 -8.9760 2.2664
1.5734 -8.7943 2.2470
2.3407 -8.6057 2.2430
3.0751 -8.3185 2.2306
3.7766 -7.9680 2.2177
4.4399 -7.5580 2.2046
-0.0000 -1.4073 0.3632
0.7755 -8.7376 2.2638
1.5374 -8.5926 2.2527
2.2713 -8.3506 2.2333
2.9947 -8.1011 2.2289
3.6784 -7.7608 2.2164
4.3251 -7.3627 2.2037
0.0000 -1.3726 0.3633
0.1214 -1.3682 0.3635
1.4977 -8.3707 2.2505
2.2130 -8.1362 2.2315
2.9182 -7.8940 2.2273
3.5849 -7.5636 2.2152
4.2158 -7.1766 2.2027
0.0000 -1.3394 0.3633
0.1185 -1.3351 0.3636
1.4598 -8.1593 2.2484
2.1574 -7.9318 2.2297
2.8358 -7.6712 2.2185
3.4958 -7.3755 2.2140
4.1115 -6.9991 2.2019
-0.0000 -1.3077 0.3634
0.1157 -1.3035 0.3636
0.2306 -1.2891 0.3639
2.1115 -7.7633 2.2356
2.7756 -7.5083 2.2244
3.4107 -7.1959 2.2128
4.0120 -6.8296 2.2010
-0.0000 -1.2774 0.3634
0.1130 -1.2732 0.3637
0.2253 -1.2592 0.3639
2.0607 -7.5763 2.2340
2.7091 -7.3284 2.2230
3.3294 -7.0244 2.2117
3.9168 -6.6676 2.2002
0.0000 -1.2483 0.3635
0.1104 -1.2442 0.3637
0.2202 -1.2305 0.3640
2.0121 -7.3975 2.2324
2.6455 -7.1563 2.2217
3.2516 -6.8602 2.2107
3.8257 -6.5126 2.1994
-0.0000 -1.2205 0.3636
0.1080 -1.2165 0.3638
0.2152 -1.2030 0.3640
0.3210 -1.1801 0.3643
2.5845 -6.9915 2.2204
3.1770 -6.7030 2.2097
3.7385 -6.3641 2.1987
-0.0000 -1.1937 0.3636
0.1056 -1.1898 0.3638
0.2105 -1.1766 0.3641
0.3139 -1.1542 0.3643
2.5262 -6.8335 2.2192
3.1056 -6.5523 2.2087
3.6549 -6.2217 2.1980
0.0000 -1.1680 0.3637
0.1033 -1.1642 0.3639
0.2060 -1.1512 0.3641
0.3072 -1.1293 0.3644
0.4061 -1.0985 0.3647
3.0371 -6.4077 2.2078
3.5746 -6.0851 2.1973
-0.0000 -1.1433 0.3637
0.1011 -1.1395 0.3639
0.2016 -1.1268 0.3642
0.3007 -1.1054 0.3644
0.3975 -1.0752 0.3647
0.4914 -1.0367 0.3650
3.4975 -5.9538 2.1967
-0.0000 -1.1196 0.3638
0.0990 -1.1158 0.3640
0.1974 -1.1034 0.3642
0.2944 -1.0823 0.3645
0.3892 -1.0528 0.3647
0.4811 -1.0150 0.3650
3.4233 -5.8276 2.1960
-0.0000 -1.0967 0.3638
0.0970 -1.0930 0.3640
0.1934 -1.0808 0.3642
0.2884 -1.0602 0.3645
0.3812 -1.0312 0.3647
0.4712 -0.9942 0.3650
0.5577 -0.9494 0.3653
0.0000 -1.0746 0.3639
0.0951 -1.0710 0.3641
0.1895 -1.0590 0.3643
0.2825 -1.0388 0.3645
0.3735 -1.0105 0.3648
0.4617 -0.9742 0.3650
0.5464 -0.9302 0.3653
0.0000 -1.0533 0.3639
0.0932 -1.0498 0.3641
0.1857 -1.0381 0.3643
0.2769 -1.0182 0.3645
0.3661 -0.9904 0.3648
0.4526 -0.9548 0.3650
0.5356 -0.9117 0.3653
0.0000 -1.0328 0.3639
0.0914 -1.0293 0.3641
0.1821 -1.0178 0.3643
0.2715 -0.9983 0.3646
0.3590 -0.9710 0.3648
0.4437 -0.9361 0.3651
0.5251 -0.8939 0.3653
0.0000 -1.0130 0.3640
0.0896 -1.0095 0.3642
0.1786 -0.9982 0.3644
0.2663 -0.9791 0.3646
0.3520 -0.9523 0.3648
0.4352 -0.9181 0.3651
0.5150 -0.8766 0.3653
0.0000 -0.9938 0.3640
0.0879 -0.9904 0.3642
0.1752 -0.9793 0.3644
0.2613 -0.9606 0.3646
0.3454 -0.9343 0.3649
0.4269 -0.9007 0.3651
0.5052 -0.8600 0.3653
-0.0000 -0.9752 0.3641
0.0863 -0.9719 0.3642
0.1719 -0.9610 0.3644
0.2564 -0.9426 0.3647
0.3389 -0.9168 0.3649
0.4189 -0.8838 0.3651
0.4957 -0.8439 0.3654
0.0000 -0.9573 0.3641
0.0847 -0.9540 0.3643
0.1688 -0.9433 0.3645
0.2517 -0.9252 0.3647
0.3327 -0.8999 0.3649
0.4112 -0.8675 0.3651
0.4866 -0.8283 0.3654
0.0000 -0.9399 0.3641
0.0831 -0.9367 0.3643
0.1657 -0.9262 0.3645
0.2471 -0.9084 0.3647
0.3266 -0.8835 0.3649
0.4037 -0.8517 0.3651
0.4777 -0.8132 0.3654
-0.0000 -0.9231 0.3642
0.0816 -0.9199 0.3643
0.1627 -0.9096 0.3645
0.2426 -0.8921 0.3647
0.3208 -0.8677 0.3649
0.3964 -0.8364 0.3652
0.4691 -0.7986 0.3654
-0.0000 -0.9068 0.3642
0.0802 -0.9037 0.3644
0.1599 -0.8935 0.3646
0.2384 -0.8763 0.3648
0.3151 -0.8523 0.3650
0.3894 -0.8216 0.3652
0.4608 -0.7844 0.3654
-0.0000 -0.8909 0.3642
0.0788 -0.8879 0.3644
0.1571 -0.8779 0.3646
0.2342 -0.8610 0.3648
0.3096 -0.8374 0.3650
0.3826 -0.8072 0.3652
0.4527 -0.7707 0.3654
-0.0000 -0.8756 0.3643
0.0774 -0.8726 0.3644
0.1544 -0.8627 0.3646
0.2301 -0.8461 0.3648
0.3042 -0.8229 0.3650
0.3760 -0.7933 0.3652
0.4449 -0.7574 0.3654
-0.0000 -0.8607 0.3643
0.0761 -0.8577 0.3645
0.1517 -0.8480 0.3646
0.2262 -0.8317 0.3648
0.2990 -0.8089 0.3650
0.3696 -0.7797 0.3652
0.4373 -0.7444 0.3654
0.0000 -0.8462 0.3643
0.0748 -0.8432 0.3645
0.1492 -0.8337 0.3647
0.2224 -0.8177 0.3648
0.2940 -0.7952 0.3650
0.3633 -0.7666 0.3652
0.4299 -0.7319 0.3654
-0.0000 -0.8321 0.3643
0.0736 -0.8292 0.3645
0.1467 -0.8198 0.3647
0.2187 -0.8041 0.3649
0.2891 -0.7820 0.3650
0.3573 -0.7538 0.3652
0.4227 -0.7196 0.3655
0.0000 -0.8184 0.3644
0.0724 -0.8155 0.3645
0.1443 -0.8063 0.3647
0.2151 -0.7908 0.3649
0.2843 -0.7691 0.3651
0.3514 -0.7413 0.3653
0.4158 -0.7078 0.3655
0.0000 -0.8051 0.3644
0.0712 -0.8023 0.3646
0.1419 -0.7932 0.3647
0.2116 -0.7779 0.3649
0.2797 -0.7565 0.3651
0.3456 -0.7292 0.3653
0.4090 -0.6962 0.3655
0.0000 -0.7921 0.3644
0.0701 -0.7893 0.3646
0.1396 -0.7804 0.3647
0.2082 -0.7654 0.3649
0.2752 -0.7443 0.3651
0.3401 -0.7175 0.3653
0.4024 -0.6850 0.3655
0.0000 -0.7795 0.3645
0.0689 -0.7767 0.3646
0.1374 -0.7679 0.3648
0.2048 -0.7531 0.3649
0.2708 -0.7324 0.3651
0.3346 -0.7060 0.3653
0.3959 -0.6740 0.3655
-0.0000 -0.7672 0.3645
0.0679 -0.7645 0.3646
0.1352 -0.7558 0.3648
0.2016 -0.7412 0.3650
0.2665 -0.7209 0.3651
0.3293 -0.6948 0.3653
0.3897 -0.6633 0.3655
-0.0000 -0.7552 0.3645
0.0668 -0.7525 0.3646
0.1331 -0.7440 0.3648
0.1985 -0.7296 0.3650
0.2623 -0.7096 0.3651
0.3242 -0.6840 0.3653
0.3836 -0.6530 0.3655
-0.0000 -0.7435 0.3645
0.0658 -0.7409 0.3647
0.1311 -0.7325 0.3648
0.1954 -0.7183 0.3650
0.2582 -0.6986 0.3652
0.3192 -0.6734 0.3653
0.3776 -0.6428 0.3655
0.0000 -0.7321 0.3645
0.0647 -0.7295 0.3647
0.1290 -0.7212 0.3648
0.1924 -0.7073 0.3650
0.2543 -0.6879 0.3652
0.3142 -0.6630 0.3653
0.3718 -0.6329 0.3655
0.0000 -0.7210 0.3646
0.0638 -0.7184 0.3647
0.1271 -0.7103 0.3649
0.1895 -0.6966 0.3650
0.2504 -0.6774 0.3652
0.3095 -0.6529 0.3654
0.3662 -0.6233 0.3655
0.0000 -0.7101 0.3646
0.0628 -0.7076 0.3647
0.1252 -0.6996 0.3649
0.1866 -0.6861 0.3650
0.2466 -0.6672 0.3652
0.3048 -0.6431 0.3654
0.3606 -0.6139 0.3655
-0.0000 -0.6995 0.3646
0.0619 -0.6971 0.3647
0.1233 -0.6891 0.3649
0.1838 -0.6758 0.3650
0.2430 -0.6572 0.3652
0.3002 -0.6334 0.3654
0.3552 -0.6047 0.3655
0.0000 -0.6892 0.3646
0.0610 -0.6867 0.3648
0.1215 -0.6789 0.3649
0.1811 -0.6658 0.3651
0.2394 -0.6475 0.3652
0.2958 -0.6241 0.3654
0.3500 -0.5957 0.3656
0.0000 -0.6791 0.3647
0.0601 -0.6767 0.3648
0.1197 -0.6690 0.3649
0.1784 -0.6560 0.3651
0.2358 -0.6380 0.3652
0.2914 -0.6149 0.3654
0.3448 -0.5870 0.3656
0.0000 -0.6692 0.3647
0.0592 -0.6668 0.3648
0.1179 -0.6592 0.3649
0.1758 -0.6465 0.3651
0.2324 -0.6287 0.3652
0.2872 -0.6059 0.3654
0.3398 -0.5784 0.3656
0.0000 -0.6595 0.3647
0.0583 -0.6572 0.3648
0.1162 -0.6497 0.3650
0.1733 -0.6371 0.3651
0.2290 -0.6196 0.3653
0.2830 -0.5971 0.3654
0.3349 -0.5700 0.3656
-0.0000 -0.6501 0.3647
0.0575 -0.6478 0.3648
0.1146 -0.6404 0.3650
0.1708 -0.6280 0.3651
0.2257 -0.6107 0.3653
0.2790 -0.5886 0.3654
0.3300 -0.5618 0.3656
0.0000 -0.6408 0.3647
0.0567 -0.6385 0.3649
0.1129 -0.6312 0.3650
0.1684 -0.6190 0.3651
0.2225 -0.6020 0.3653
0.2750 -0.5802 0.3654
0.3253 -0.5538 0.3656
-0.0000 -0.6318 0.3648
0.0559 -0.6295 0.3649
0.1113 -0.6223 0.3650
0.1660 -0.6103 0.3651
0.2194 -0.5934 0.3653
0.2711 -0.5720 0.3654
0.3207 -0.5460 0.3656
