ply
format ascii 1.0
element vertex 2170
property float32 x
property float32 y
property float32 z
end_header
-10.7436 1.2970 1.8852
-10.7208 0.3307 1.8686
-10.5860 -0.6196 1.8473
-10.3660 -1.5429 1.8258
-6.0847 -1.4701 1.0905
-6.0872 -2.0603 1.1195
-6.0898 -2.6879 1.1597
-6.0927 -3.3678 1.2128
-6.0958 -4.1192 1.2817
-5.8151 -4.7368 1.3066
-6.9528 -6.7806 1.6919
-6.2661 -7.3102 1.6773
-5.5462 -7.7797 1.6644
-0.9614 -1.6407 0.3313
-0.8076 -1.7121 0.3298
-0.6492 -1.7706 0.3285
-0.4873 -1.8162 0.3276
-0.3227 -1.8485 0.3269
-0.1564 -1.8676 0.3265
0.0108 -1.8734 0.3264
0.1779 -1.8658 0.3265
0.3440 -1.8450 0.3270
0.5083 -1.8109 0.3277
0.6698 -1.7636 0.3287
0.8276 -1.7034 0.3299
0.9807 -1.6303 0.3314
5.6411 -7.7231 1.6661
6.3571 -7.2459 1.6793
2.2893 -2.1818 0.5509
2.2930 -1.8243 0.5105
2.2962 -1.5134 0.4791
2.2991 -1.2365 0.4548
2.3017 -0.9844 0.4361
2.3041 -0.7504 0.4221
2.3064 -0.5292 0.4122
2.3086 -0.3165 0.4059
2.3107 -0.1086 0.4030
2.3128 0.0980 0.4033
2.3150 0.3065 0.4068
2.3172 0.5205 0.4137
2.3195 0.7436 0.4243
2.3219 0.9805 0.4391
2.3246 1.2365 0.4587
2.3275 1.5188 0.4842
2.3308 1.8369 0.5170
2.3346 2.2045 0.5594
7.6542 8.6439 2.0114
6.8689 9.3138 2.0161
6.0194 9.9032 2.0189
1.0383 2.1123 0.4100
0.8499 2.2072 0.4120
0.6522 2.2830 0.4136
0.4472 2.3387 0.4148
0.2373 2.3735 0.4155
0.0247 2.3868 0.4158
-0.1882 2.3786 0.4157
-0.3989 2.3488 0.4150
-0.6053 2.2980 0.4140
-0.8049 2.2268 0.4125
-0.9957 2.1363 0.4106
-5.8077 10.0164 2.0171
-6.6681 9.4449 2.0141
-7.4716 8.7981 2.0108
-8.1898 8.0607 2.0019
-8.8138 7.2470 1.9878
-9.3544 6.3840 1.9730
-9.8084 5.4807 1.9574
-10.1322 4.5279 1.9334
-10.4490 3.5902 1.9248
-10.6344 2.6211 1.9081
-10.7305 1.6476 1.8913
-10.7389 0.6781 1.8746
-10.6461 -0.2794 1.8553
-10.4542 -1.2133 1.8335
-6.0838 -1.2639 1.0825
-6.0862 -1.8437 1.1079
-6.0888 -2.4563 1.1438
-6.0916 -3.1154 1.1920
-6.0947 -3.8384 1.2548
-5.8872 -4.4879 1.2896
-7.1916 -6.5750 1.6975
-6.5179 -7.1260 1.6824
-5.8095 -7.6173 1.6689
-1.0156 -1.6118 0.3319
-0.8636 -1.6878 0.3303
-0.7068 -1.7510 0.3290
-0.5461 -1.8013 0.3279
-0.3824 -1.8384 0.3271
-0.2165 -1.8623 0.3266
-0.0496 -1.8728 0.3264
0.1177 -1.8701 0.3264
0.2843 -1.8540 0.3268
0.4493 -1.8247 0.3274
0.6119 -1.7822 0.3283
0.7711 -1.7266 0.3294
0.9260 -1.6581 0.3309
1.0757 -1.5770 0.3326
6.1024 -7.4250 1.6743
2.2879 -2.3255 0.5683
2.2918 -1.9471 0.5239
2.2951 -1.6211 0.4895
2.2981 -1.3331 0.4628
2.3008 -1.0730 0.4423
2.3032 -0.8331 0.4267
2.3055 -0.6078 0.4154
2.3078 -0.3925 0.4078
2.3099 -0.1833 0.4037
2.3121 0.0234 0.4028
2.3142 0.2309 0.4052
2.3164 0.4424 0.4108
2.3187 0.6618 0.4201
2.3210 0.8931 0.4333
2.3236 1.1415 0.4510
2.3264 1.4134 0.4742
2.3296 1.7173 0.5042
2.3332 2.0651 0.5428
2.3374 2.4742 0.5930
7.1612 9.0825 2.0149
6.3322 9.6995 2.0180
1.1036 2.0736 0.4092
0.9190 2.1751 0.4114
0.7244 2.2579 0.4131
0.5219 2.3210 0.4144
0.3135 2.3634 0.4153
0.1016 2.3845 0.4158
-0.1115 2.3840 0.4158
-0.3233 2.3620 0.4153
-0.5315 2.3187 0.4144
-0.7338 2.2548 0.4131
-0.9280 2.1711 0.4113
-5.4846 10.2032 2.0180
-6.3639 9.6601 2.0152
-7.1887 9.0398 2.0121
-7.9450 8.3404 2.0067
-8.5981 7.5468 1.9930
-9.1692 6.7005 1.9784
-9.6547 5.8106 1.9631
-10.0107 4.8663 1.9391
-10.3191 3.9216 1.9231
-10.5779 2.9717 1.9141
-10.7061 1.9988 1.8973
-10.7459 1.0269 1.8806
-10.6956 0.0639 1.8633
-10.5325 -0.8796 1.8413
-7.0909 -1.2363 1.2539
-6.0853 -1.6314 1.0976
-6.0879 -2.2307 1.1295
-6.0906 -2.8712 1.1730
-6.0935 -3.5688 1.2302
-6.0968 -4.3445 1.3042
-6.1005 -5.2268 1.3995
-6.7652 -6.9340 1.6877
-6.0688 -7.4470 1.6736
-1.0691 -1.5813 0.3325
-0.9191 -1.6619 0.3308
-0.7639 -1.7297 0.3294
-0.6045 -1.7846 0.3283
-0.4417 -1.8265 0.3274
-0.2766 -1.8552 0.3268
-0.1099 -1.8706 0.3264
0.0574 -1.8726 0.3264
0.2243 -1.8614 0.3266
0.3900 -1.8368 0.3271
0.5536 -1.7990 0.3279
0.7141 -1.7482 0.3290
0.8707 -1.6843 0.3303
1.0224 -1.6077 0.3319
5.8436 -7.5963 1.6696
6.5506 -7.1023 1.6832
2.2904 -2.0766 0.5386
2.2939 -1.7337 0.5009
2.2970 -1.4334 0.4717
2.2998 -1.1641 0.4491
2.3024 -0.9177 0.4318
2.3047 -0.6877 0.4190
2.3070 -0.4693 0.4101
2.3092 -0.2583 0.4048
2.3113 -0.0511 0.4027
2.3134 0.1557 0.4039
2.3156 0.3654 0.4084
2.3178 0.5815 0.4163
2.3202 0.8080 0.4280
2.3227 1.0496 0.4440
2.3254 1.3121 0.4651
2.3284 1.6033 0.4925
2.3318 1.9336 0.5277
2.3358 2.3182 0.5733
7.4455 8.8417 2.0137
6.6380 9.4856 2.0169
5.7733 10.0532 2.0196
0.9869 2.1406 0.4106
0.7957 2.2303 0.4125
0.5957 2.3006 0.4140
0.3892 2.3505 0.4151
0.1783 2.3793 0.4157
-0.0346 2.3867 0.4158
-0.2472 2.3724 0.4155
-0.4569 2.3367 0.4148
-0.6616 2.2802 0.4136
-0.8590 2.2035 0.4120
-1.0470 2.1078 0.4100
-6.0525 9.8652 2.0163
-6.8978 9.2722 2.0133
-7.6842 8.6055 2.0099
-8.3716 7.8396 1.9981
-8.9728 7.0113 1.9838
-9.4896 6.1361 1.9687
-9.8775 5.2014 1.9448
-10.2181 4.2648 1.9289
-10.5096 3.3213 1.9201
-10.6701 2.3502 1.9034
-10.7416 1.3770 1.8866
-10.7260 0.4099 1.8699
-10.6006 -0.5422 1.8492
-10.3870 -1.4680 1.8275
-6.0845 -1.4227 1.0886
-6.0869 -2.0104 1.1168
-6.0896 -2.6344 1.1559
-6.0924 -3.3093 1.2078
-6.0956 -4.0540 1.2753
-5.8153 -4.6662 1.2989
-7.0078 -6.7343 1.6932
-6.3240 -7.2688 1.6785
-5.6067 -7.7433 1.6654
-0.9739 -1.6343 0.3314
-0.8204 -1.7067 0.3299
-0.6624 -1.7663 0.3286
-0.5008 -1.8129 0.3277
-0.3364 -1.8464 0.3269
-0.1701 -1.8665 0.3265
-0.0030 -1.8734 0.3264
0.1641 -1.8670 0.3265
0.3304 -1.8472 0.3269
0.4949 -1.8142 0.3276
0.6566 -1.7680 0.3286
0.8147 -1.7088 0.3298
0.9683 -1.6368 0.3313
5.5808 -7.7597 1.6651
6.2993 -7.2875 1.6781
2.2890 -2.2138 0.5548
2.2927 -1.8518 0.5134
2.2960 -1.5376 0.4814
2.2988 -1.2583 0.4565
2.3015 -1.0044 0.4375
2.3039 -0.7691 0.4231
2.3062 -0.5470 0.4129
2.3084 -0.3338 0.4063
2.3105 -0.1256 0.4031
2.3127 0.0810 0.4031
2.3148 0.2892 0.4064
2.3170 0.5026 0.4130
2.3193 0.7248 0.4233
2.3217 0.9603 0.4377
2.3244 1.2145 0.4569
2.3273 1.4943 0.4818
2.3305 1.8091 0.5140
2.3343 2.1720 0.5555
7.7146 8.5840 2.0106
6.9363 9.2618 2.0158
6.0914 9.8576 2.0187
1.0533 2.1037 0.4099
0.8658 2.2001 0.4119
0.6688 2.2775 0.4135
0.4643 2.3349 0.4147
0.2547 2.3714 0.4155
0.0423 2.3865 0.4158
-0.1707 2.3800 0.4157
-0.3817 2.3521 0.4151
-0.5885 2.3029 0.4141
-0.7888 2.2334 0.4126
-0.9803 2.1444 0.4108
-5.7344 10.0600 2.0173
-6.5993 9.4949 2.0144
-7.4077 8.8541 2.0111
-8.1348 8.1252 2.0030
-8.7655 7.3161 1.9890
-9.3131 6.4567 1.9742
-9.7743 5.5564 1.9587
-10.1055 4.6054 1.9347
-10.4297 3.6696 1.9261
-10.6225 2.7012 1.9094
-10.7260 1.7278 1.8927
-10.7415 0.7576 1.8759
-10.6583 -0.2013 1.8571
-10.4730 -1.1374 1.8352
-6.1804 -1.2366 1.0980
-6.0860 -1.7948 1.1054
-6.0886 -2.4042 1.1404
-6.0914 -3.0589 1.1875
-6.0944 -3.7759 1.2490
-5.9239 -4.4474 1.2905
-7.2454 -6.5269 1.6989
-6.5748 -7.0828 1.6836
-5.8690 -7.5791 1.6700
-1.0279 -1.6050 0.3320
-0.8764 -1.6820 0.3304
-0.7199 -1.7463 0.3291
-0.5594 -1.7976 0.3280
-0.3959 -1.8358 0.3272
-0.2303 -1.8608 0.3266
-0.0634 -1.8725 0.3264
0.1039 -1.8708 0.3264
0.2706 -1.8559 0.3267
0.4358 -1.8276 0.3273
0.5986 -1.7862 0.3282
0.7582 -1.7317 0.3293
0.9135 -1.6643 0.3307
1.0636 -1.5842 0.3324
6.0436 -7.4649 1.6732
6.7414 -6.9540 1.6873
2.2914 -1.9760 0.5271
2.2948 -1.6464 0.4920
2.2978 -1.3557 0.4648
2.3005 -1.0935 0.4438
2.3030 -0.8522 0.4278
2.3054 -0.6259 0.4162
2.3076 -0.4100 0.4083
2.3098 -0.2004 0.4039
2.3119 0.0064 0.4028
2.3140 0.2137 0.4048
2.3162 0.4248 0.4102
2.3185 0.6433 0.4192
2.3208 0.8735 0.4320
2.3234 1.1202 0.4494
2.3262 1.3899 0.4721
2.3293 1.6907 0.5014
2.3329 2.0344 0.5392
2.3370 2.4377 0.5883
7.2269 9.0283 2.0147
6.4027 9.6516 2.0177
1.1183 2.0645 0.4090
0.9346 2.1674 0.4112
0.7408 2.2518 0.4130
0.5388 2.3165 0.4143
0.3308 2.3607 0.4153
0.1191 2.3836 0.4158
-0.0939 2.3849 0.4158
-0.3059 2.3646 0.4154
-0.5145 2.3231 0.4145
-0.7174 2.2608 0.4132
-0.9123 2.1787 0.4115
-5.4099 10.2443 2.0182
-6.2934 9.7078 2.0155
-7.1230 9.0937 2.0124
-7.8876 8.4031 2.0078
-8.5473 7.6143 1.9942
-9.1253 6.7720 1.9797
-9.6180 5.8854 1.9644
-9.9812 4.9431 1.9404
-10.2970 4.0002 1.9245
-10.5633 3.0517 1.9155
-10.6989 2.0791 1.8987
-10.7459 1.1068 1.8820
-10.7055 0.1428 1.8652
-10.5490 -0.8029 1.8431
-7.4123 -1.2362 1.3091
-6.0851 -1.5834 1.0954
-6.0877 -2.1799 1.1265
-6.0904 -2.8165 1.1690
-6.0933 -3.5087 1.2249
-6.0965 -4.2770 1.2974
-6.1002 -5.1492 1.3907
-6.8211 -6.8891 1.6889
-6.1275 -7.4070 1.6747
-1.0812 -1.5741 0.3327
-0.9317 -1.6557 0.3310
-0.7769 -1.7246 0.3295
-0.6178 -1.7806 0.3283
-0.4552 -1.8235 0.3274
-0.2902 -1.8533 0.3268
-0.1237 -1.8698 0.3264
0.0436 -1.8730 0.3264
0.2106 -1.8628 0.3266
0.3764 -1.8393 0.3271
0.5402 -1.8027 0.3278
0.7010 -1.7528 0.3289
0.8580 -1.6901 0.3302
1.0101 -1.6145 0.3318
5.7839 -7.6344 1.6686
6.4936 -7.1453 1.6820
2.2901 -2.1073 0.5422
2.2937 -1.7602 0.5037
2.2968 -1.4568 0.4738
2.2996 -1.1854 0.4507
2.3022 -0.9373 0.4330
2.3045 -0.7062 0.4199
2.3068 -0.4870 0.4107
2.3090 -0.2755 0.4051
2.3111 -0.0681 0.4028
2.3133 0.1386 0.4037
2.3154 0.3479 0.4079
2.3176 0.5634 0.4155
2.3200 0.7888 0.4269
2.3225 1.0289 0.4425
2.3251 1.2895 0.4632
2.3281 1.5779 0.4900
2.3315 1.9046 0.5245
2.3354 2.2839 0.5691
7.5087 8.7846 2.0132
6.7068 9.4354 2.0167
5.8466 10.0095 2.0194
1.0022 2.1323 0.4105
0.8118 2.2236 0.4124
0.6125 2.2955 0.4139
0.4064 2.3472 0.4150
0.1958 2.3778 0.4156
-0.0171 2.3869 0.4158
-0.2297 2.3744 0.4156
-0.4398 2.3405 0.4149
-0.6450 2.2856 0.4137
-0.8430 2.2105 0.4122
-1.0319 2.1164 0.4102
-5.9805 9.9106 2.0165
-6.8303 9.3239 2.0135
-7.6218 8.6630 2.0102
-8.3185 7.9055 1.9992
-8.9264 7.0815 1.9850
-9.4502 6.2098 1.9700
-9.8454 5.2774 1.9460
-10.1934 4.3428 1.9302
-10.4924 3.4010 1.9215
-10.6602 2.4304 1.9048
-10.7390 1.4570 1.8880
-10.7305 0.4892 1.8713
-10.6147 -0.4646 1.8510
-10.4075 -1.3929 1.8293
-6.0843 -1.3755 1.0867
-6.0867 -1.9608 1.1140
-6.0894 -2.5813 1.1522
-6.0922 -3.2514 1.2030
-6.0953 -3.9895 1.2691
-5.8272 -4.6056 1.2940
-7.0625 -6.6876 1.6944
-6.3817 -7.2270 1.6796
-5.6669 -7.7065 1.6665
-0.9863 -1.6277 0.3316
-0.8333 -1.7012 0.3300
-0.6756 -1.7619 0.3287
-0.5142 -1.8096 0.3277
-0.3500 -1.8441 0.3270
-0.1839 -1.8654 0.3265
-0.0168 -1.8734 0.3264
0.1504 -1.8680 0.3265
0.3168 -1.8493 0.3269
0.4814 -1.8174 0.3275
0.6434 -1.7723 0.3285
0.8019 -1.7142 0.3297
0.9558 -1.6432 0.3312
5.5202 -7.7959 1.6641
6.2413 -7.3287 1.6770
2.2887 -2.2463 0.5587
2.2924 -1.8796 0.5164
2.2957 -1.5621 0.4837
2.2986 -1.2802 0.4584
2.3012 -1.0245 0.4388
2.3037 -0.7879 0.4242
2.3060 -0.5650 0.4136
2.3082 -0.3511 0.4067
2.3103 -0.1427 0.4033
2.3125 0.0639 0.4030
2.3146 0.2719 0.4060
2.3168 0.4847 0.4124
2.3191 0.7061 0.4223
2.3215 0.9403 0.4364
2.3241 1.1927 0.4551
2.3270 1.4701 0.4795
2.3302 1.7815 0.5110
2.3340 2.1398 0.5516
7.7745 8.5236 2.0098
7.0034 9.2093 2.0156
6.1631 9.8114 2.0185
1.0683 2.0949 0.4097
0.8816 2.1928 0.4117
0.6853 2.2719 0.4134
0.4814 2.3309 0.4146
0.2722 2.3692 0.4155
0.0598 2.3861 0.4158
-0.1532 2.3814 0.4157
-0.3645 2.3552 0.4152
-0.5717 2.3078 0.4142
-0.7725 2.2399 0.4128
-0.9649 2.1525 0.4109
-5.6609 10.1031 2.0175
-6.5301 9.5444 2.0147
-7.3434 8.9097 2.0114
-8.0792 8.1894 2.0041
-8.7166 7.3847 1.9902
-9.2712 6.5292 1.9755
-9.7396 5.6319 1.9600
-10.0781 4.6828 1.9360
-10.4098 3.7489 1.9275
-10.6100 2.7814 1.9108
-10.7208 1.8080 1.8940
-10.7435 0.8373 1.8773
-10.6700 -0.1230 1.8590
-10.4912 -1.0614 1.8370
-6.4254 -1.2366 1.1399
-6.0858 -1.7462 1.1030
-6.0884 -2.3525 1.1371
-6.0911 -3.0028 1.1831
-6.0941 -3.7139 1.2433
-5.9680 -4.4121 1.2930
-7.2989 -6.4785 1.7002
-6.6314 -7.0393 1.6848
-5.9284 -7.5405 1.6710
-1.0401 -1.5981 0.3322
-0.8891 -1.6762 0.3305
-0.7330 -1.7415 0.3292
-0.5728 -1.7939 0.3281
-0.4095 -1.8332 0.3272
-0.2440 -1.8592 0.3267
-0.0771 -1.8720 0.3264
0.0901 -1.8715 0.3264
0.2569 -1.8576 0.3267
0.4223 -1.8305 0.3273
0.5853 -1.7901 0.3281
0.7451 -1.7367 0.3292
0.9008 -1.6703 0.3306
1.0515 -1.5912 0.3323
5.9847 -7.5043 1.6722
6.6852 -6.9984 1.6861
2.2912 -2.0054 0.5304
2.2946 -1.6719 0.4946
2.2976 -1.3785 0.4668
2.3003 -1.1143 0.4453
2.3028 -0.8715 0.4289
2.3052 -0.6441 0.4170
2.3074 -0.4275 0.4088
2.3096 -0.2175 0.4041
2.3117 -0.0106 0.4027
2.3139 0.1965 0.4045
2.3160 0.4071 0.4097
2.3183 0.6249 0.4183
2.3206 0.8540 0.4308
2.3232 1.0991 0.4477
2.3259 1.3666 0.4700
2.3290 1.6645 0.4987
2.3325 2.0041 0.5357
2.3367 2.4016 0.5837
7.2921 8.9736 2.0144
6.4728 9.6031 2.0175
5.5978 10.1550 2.0201
0.9502 2.1596 0.4110
0.7571 2.2456 0.4128
0.5557 2.3120 0.4142
0.3481 2.3578 0.4152
0.1366 2.3825 0.4157
-0.0764 2.3856 0.4158
-0.2886 2.3671 0.4154
-0.4975 2.3273 0.4146
-0.7009 2.2667 0.4133
-0.8966 2.1862 0.4116
-5.3349 10.2849 2.0184
-6.2225 9.7550 2.0157
-7.0568 9.1471 2.0126
-7.8298 8.4655 2.0089
-8.4959 7.6814 1.9953
-9.0808 6.8432 1.9809
-9.5807 5.9599 1.9656
-9.9512 5.0198 1.9417
-10.2744 4.0786 1.9258
-10.5481 3.1315 1.9169
-10.6911 2.1593 1.9001
-10.7453 1.1867 1.8833
-10.7129 0.2217 1.8667
-10.5649 -0.7259 1.8449
-10.3361 -1.6458 1.8233
-6.0849 -1.5356 1.0933
-6.0875 -2.1294 1.1235
-6.0901 -2.7622 1.1650
-6.0930 -3.4491 1.2197
-6.0962 -4.2102 1.2907
-5.8578 -4.8712 1.3272
-6.8766 -6.8437 1.6902
-6.1859 -7.3666 1.6758
-1.0932 -1.5669 0.3328
-0.9442 -1.6495 0.3311
-0.7898 -1.7194 0.3296
-0.6310 -1.7765 0.3284
-0.4687 -1.8205 0.3275
-0.3039 -1.8514 0.3268
-0.1374 -1.8689 0.3265
0.0298 -1.8732 0.3264
0.1968 -1.8641 0.3266
0.3628 -1.8418 0.3270
0.5268 -1.8062 0.3278
0.6879 -1.7574 0.3288
0.8452 -1.6957 0.3301
0.9978 -1.6212 0.3316
5.7240 -7.6720 1.6675
6.4363 -7.1878 1.6809
2.2898 -2.1383 0.5458
2.2934 -1.7869 0.5065
2.2966 -1.4805 0.4760
2.2994 -1.2067 0.4524
2.3019 -0.9570 0.4343
2.3043 -0.7247 0.4208
2.3066 -0.5047 0.4113
2.3088 -0.2927 0.4054
2.3109 -0.0851 0.4029
2.3131 0.1215 0.4035
2.3152 0.3305 0.4074
2.3175 0.5453 0.4148
2.3198 0.7698 0.4258
2.3222 1.0085 0.4411
2.3249 1.2671 0.4613
2.3279 1.5529 0.4875
2.3312 1.8759 0.5213
2.3351 2.2502 0.5649
7.5702 8.7258 2.0125
6.7752 9.3846 2.0164
5.9195 9.9652 2.0192
1.0174 2.1240 0.4103
0.8279 2.2168 0.4122
0.6292 2.2904 0.4138
0.4236 2.3437 0.4149
0.2132 2.3761 0.4156
0.0005 2.3870 0.4158
-0.2123 2.3762 0.4156
-0.4226 2.3441 0.4149
-0.6283 2.2909 0.4138
-0.8270 2.2175 0.4123
-1.0167 2.1248 0.4104
-5.9080 9.9555 2.0168
-6.7624 9.3751 2.0138
-7.5589 8.7202 2.0104
-8.2647 7.9710 2.0003
-8.8794 7.1513 1.9862
-9.4103 6.2832 1.9712
-9.8313 5.3634 1.9510
-10.1681 4.4208 1.9316
-10.4746 3.4806 1.9229
-10.6498 2.5106 1.9062
-10.7359 1.5372 1.8894
-10.7344 0.5685 1.8727
-10.6283 -0.3869 1.8528
-10.4275 -1.3175 1.8310
-6.0841 -1.3285 1.0849
-6.0865 -1.9114 1.1114
-6.0891 -2.5285 1.1486
-6.0919 -3.1939 1.1983
-6.0950 -3.9255 1.2630
-5.8475 -4.5522 1.2910
-7.1169 -6.6405 1.6957
-6.4391 -7.1848 1.6808
-5.7270 -7.6693 1.6675
-0.9986 -1.6211 0.3317
-0.8461 -1.6956 0.3301
-0.6887 -1.7574 0.3288
-0.5276 -1.8061 0.3278
-0.3636 -1.8417 0.3270
-0.1976 -1.8641 0.3266
-0.0306 -1.8732 0.3264
0.1366 -1.8689 0.3265
0.3031 -1.8514 0.3268
0.4679 -1.8205 0.3275
0.6302 -1.7765 0.3284
0.7890 -1.7195 0.3296
0.9433 -1.6496 0.3310
5.4595 -7.8317 1.6631
6.1830 -7.3695 1.6759
2.3000 -1.1431 0.4638
2.3026 -0.8982 0.4463
2.3049 -0.6693 0.4334
2.3072 -0.4517 0.4245
2.3093 -0.2411 0.4192
2.3115 -0.0340 0.4174
2.3136 0.1729 0.4189
2.3158 0.3829 0.4238
2.3180 0.5997 0.4323
2.3204 0.8273 0.4448
2.3229 1.0703 0.4618
2.3256 1.3349 0.4842
2.3287 1.6288 0.5131
2.3321 1.9630 0.5504
2.3362 2.3529 0.5987
7.1089 8.5691 2.0104
6.3301 9.1888 2.0148
1.1078 1.9623 0.4069
0.9333 2.0641 0.4090
0.7487 2.1484 0.4108
0.5560 2.2140 0.4122
0.3572 2.2601 0.4132
0.1544 2.2860 0.4137
-0.0501 2.2913 0.4138
-0.2541 2.2760 0.4135
-0.4552 2.2402 0.4128
-0.6513 2.1845 0.4116
-0.8403 2.1097 0.4100
-1.0203 2.0167 0.4081
-5.9035 9.4652 2.0143
-6.7142 8.8880 2.0113
-7.4557 8.2269 2.0048
-8.1073 7.4809 1.9919
-8.6817 6.6815 1.9781
-9.1749 5.8374 1.9635
-9.5842 4.9572 1.9484
-9.9079 4.0500 1.9327
-10.1065 3.1123 1.9095
-10.2959 2.1884 1.9006
-10.3612 1.2508 1.8844
-10.3425 0.3190 1.8684
-10.2163 -0.5979 1.8479
-10.0080 -1.4897 1.8270
-6.0847 -1.4701 1.1303
-6.0216 -2.0381 1.1479
-6.0898 -2.6879 1.2019
-6.0927 -3.3678 1.2570
-6.0958 -4.1192 1.3284
-5.8033 -4.7272 1.3515
-6.7317 -6.5649 1.6978
-6.0684 -7.0796 1.6837
-1.0741 -1.5067 0.3341
-0.9307 -1.5882 0.3324
-0.7819 -1.6576 0.3309
-0.6286 -1.7145 0.3297
-0.4719 -1.7587 0.3288
-0.3125 -1.7902 0.3281
-0.1515 -1.8087 0.3277
0.0104 -1.8143 0.3276
0.1723 -1.8070 0.3278
0.3332 -1.7867 0.3282
0.4922 -1.7536 0.3289
0.6485 -1.7077 0.3298
0.8012 -1.6491 0.3311
0.9493 -1.5781 0.3325
5.4644 -7.4811 1.6728
6.1563 -7.0171 1.6855
2.2893 -2.1818 0.5710
2.2930 -1.8243 0.5291
2.2962 -1.5134 0.4966
2.2991 -1.2365 0.4714
2.3017 -0.9844 0.4520
2.3041 -0.7504 0.4375
2.3064 -0.5292 0.4273
2.3086 -0.3165 0.4207
2.3107 -0.1086 0.4177
2.3128 0.0980 0.4180
2.3150 0.3065 0.4217
2.3172 0.5205 0.4288
2.3195 0.7436 0.4398
2.3219 0.9805 0.4551
2.3246 1.2365 0.4754
2.3275 1.5188 0.5018
2.3308 1.8369 0.5359
2.3346 2.2045 0.5798
7.3681 8.3208 2.0068
6.6194 8.9755 2.0137
5.8004 9.5430 2.0165
0.9975 2.0293 0.4083
0.8163 2.1201 0.4102
0.6263 2.1926 0.4117
0.4295 2.2458 0.4129
0.2279 2.2790 0.4136
0.0237 2.2918 0.4138
-0.1807 2.2839 0.4137
-0.3831 2.2554 0.4131
-0.5813 2.2069 0.4121
-0.7731 2.1388 0.4106
-0.9565 2.0522 0.4088
-5.5982 9.6551 2.0152
-6.4279 9.1047 2.0124
-7.2026 8.4813 2.0091
-7.8809 7.7567 1.9966
-8.4836 6.9755 1.9832
-9.0065 6.1465 1.9689
-9.4464 5.2784 1.9539
-9.8011 4.3799 1.9384
-10.0306 3.4465 1.9151
-10.2515 2.5267 1.9064
-10.3474 1.5888 1.8903
-10.3588 0.6541 1.8742
-10.2727 -0.2696 1.8555
-10.0918 -1.1712 1.8344
-6.0838 -1.2639 1.1220
-6.0862 -1.8437 1.1483
-6.0888 -2.4563 1.1855
-6.0916 -3.1154 1.2354
-6.0947 -3.8384 1.3005
-5.8769 -4.4800 1.3343
-6.9621 -6.3652 1.7033
-6.3117 -6.9006 1.6886
-5.6271 -7.3782 1.6755
-0.9831 -1.5602 0.3330
-0.8361 -1.6340 0.3314
-0.6844 -1.6954 0.3301
-0.5288 -1.7442 0.3291
-0.3703 -1.7803 0.3283
-0.2097 -1.8035 0.3278
-0.0480 -1.8138 0.3276
0.1140 -1.8111 0.3277
0.2753 -1.7955 0.3280
0.4351 -1.7670 0.3286
0.5925 -1.7257 0.3295
0.7466 -1.6717 0.3306
0.8965 -1.6052 0.3320
1.0412 -1.5264 0.3336
5.9103 -7.1912 1.6808
2.2879 -2.3255 0.5890
2.2918 -1.9471 0.5430
2.2951 -1.6211 0.5074
2.2981 -1.3331 0.4797
2.3008 -1.0730 0.4584
2.3032 -0.8331 0.4423
2.3056 -0.6078 0.4305
2.3078 -0.3925 0.4227
2.3099 -0.1833 0.4184
2.3121 0.0234 0.4175
2.3142 0.2309 0.4199
2.3164 0.4424 0.4258
2.3187 0.6618 0.4354
2.3210 0.8931 0.4491
2.3236 1.1415 0.4675
2.3264 1.4134 0.4915
2.3296 1.7173 0.5226
2.3332 2.0651 0.5626
2.3374 2.4742 0.6146
6.9012 8.7527 2.0126
6.1020 9.3469 2.0155
1.0603 1.9923 0.4075
0.8828 2.0894 0.4096
0.6958 2.1686 0.4112
0.5012 2.2288 0.4125
0.3010 2.2694 0.4134
0.0975 2.2895 0.4138
-0.1070 2.2891 0.4138
-0.3104 2.2680 0.4133
-0.5104 2.2267 0.4125
-0.7047 2.1655 0.4112
-0.8914 2.0855 0.4095
-5.2867 9.8350 2.0161
-6.1345 9.3119 2.0135
-6.9300 8.7145 2.0104
-7.6446 8.0251 2.0013
-8.2752 7.2633 1.9881
-8.8273 6.4506 1.9741
-9.2974 5.5956 1.9594
-9.6830 4.7070 1.9440
-9.9482 3.7806 1.9216
-10.1575 2.8536 1.9051
-10.3226 1.9273 1.8961
-10.3643 0.9905 1.8800
-10.3190 0.0617 1.8633
-10.1658 -0.8490 1.8420
-7.0968 -1.2374 1.3008
-6.0853 -1.6314 1.1376
-6.0879 -2.2307 1.1707
-6.0906 -2.8712 1.2158
-6.0935 -3.5688 1.2751
-6.0968 -4.3445 1.3518
-6.1005 -5.2268 1.4505
-6.5506 -6.7140 1.6937
-5.8778 -7.2126 1.6800
-1.0348 -1.5306 0.3336
-0.8897 -1.6088 0.3320
-0.7396 -1.6747 0.3306
-0.5853 -1.7281 0.3294
-0.4277 -1.7688 0.3286
-0.2678 -1.7966 0.3280
-0.1064 -1.8116 0.3277
0.0555 -1.8136 0.3276
0.2172 -1.8026 0.3278
0.3777 -1.7788 0.3283
0.5361 -1.7421 0.3291
0.6914 -1.6926 0.3301
0.8429 -1.6306 0.3314
0.9896 -1.5562 0.3330
5.6601 -7.3578 1.6762
6.3433 -6.8775 1.6894
2.2904 -2.0766 0.5582
2.2939 -1.7337 0.5192
2.2970 -1.4334 0.4889
2.2998 -1.1641 0.4654
2.3024 -0.9177 0.4475
2.3047 -0.6877 0.4343
2.3070 -0.4693 0.4251
2.3092 -0.2583 0.4196
2.3113 -0.0511 0.4174
2.3134 0.1557 0.4187
2.3156 0.3654 0.4233
2.3178 0.5815 0.4315
2.3202 0.8080 0.4436
2.3227 1.0496 0.4602
2.3254 1.3121 0.4821
2.3284 1.6033 0.5105
2.3318 1.9336 0.5470
2.3358 2.3182 0.5942
7.1692 8.5135 2.0097
6.3968 9.1410 2.0145
5.5633 9.6874 2.0171
0.9480 2.0563 0.4089
0.7642 2.1421 0.4107
0.5721 2.2093 0.4121
0.3737 2.2571 0.4131
0.1712 2.2846 0.4137
-0.0333 2.2917 0.4138
-0.2373 2.2780 0.4136
-0.4388 2.2439 0.4128
-0.6354 2.1898 0.4117
-0.8251 2.1165 0.4102
-1.0058 2.0250 0.4083
-5.8343 9.5095 2.0145
-6.6495 8.9383 2.0116
-7.3987 8.2857 2.0058
-8.0565 7.5445 1.9930
-8.6373 6.7492 1.9793
-9.1374 5.9084 1.9648
-9.5537 5.0309 1.9496
-9.8845 4.1256 1.9340
-10.0902 3.1888 1.9107
-10.2867 2.2657 1.9019
-10.3590 1.3279 1.8858
-10.3472 0.3954 1.8697
-10.2301 -0.5232 1.8496
-10.0280 -1.4173 1.8287
-6.0845 -1.4227 1.1283
-6.0250 -1.9900 1.1457
-6.0896 -2.6344 1.1980
-6.0924 -3.3093 1.2519
-6.0956 -4.0540 1.3218
-5.8044 -4.6574 1.3438
-6.7847 -6.5199 1.6991
-6.1244 -7.0394 1.6848
-1.0857 -1.4994 0.3343
-0.9427 -1.5820 0.3325
-0.7943 -1.6523 0.3310
-0.6414 -1.7103 0.3298
-0.4849 -1.7555 0.3289
-0.3257 -1.7880 0.3282
-0.1648 -1.8077 0.3278
-0.0029 -1.8144 0.3276
0.1590 -1.8081 0.3277
0.3200 -1.7889 0.3281
0.4792 -1.7568 0.3288
0.6358 -1.7119 0.3297
0.7888 -1.6544 0.3309
0.9373 -1.5845 0.3324
1.0805 -1.5023 0.3341
6.1005 -7.0575 1.6844
2.2890 -2.2138 0.5750
2.2927 -1.8518 0.5322
2.2960 -1.5376 0.4990
2.2988 -1.2583 0.4732
2.3015 -1.0044 0.4534
2.3039 -0.7691 0.4386
2.3062 -0.5471 0.4280
2.3084 -0.3338 0.4211
2.3105 -0.1256 0.4178
2.3127 0.0810 0.4178
2.3148 0.2892 0.4212
2.3170 0.5026 0.4281
2.3193 0.7248 0.4388
2.3217 0.9603 0.4537
2.3244 1.2145 0.4735
2.3273 1.4943 0.4994
2.3305 1.8091 0.5327
2.3343 2.1720 0.5757
7.4258 8.2627 2.0059
6.6844 8.9254 2.0135
5.8699 9.4991 2.0163
1.0119 2.0211 0.4081
0.8316 2.1133 0.4101
0.6423 2.1873 0.4116
0.4459 2.2421 0.4128
0.2446 2.2770 0.4135
0.0406 2.2915 0.4138
-0.1639 2.2853 0.4137
-0.3665 2.2585 0.4131
-0.5652 2.2116 0.4122
-0.7576 2.1451 0.4108
-0.9418 2.0601 0.4090
-5.5276 9.6971 2.0154
-6.3615 9.1528 2.0127
-7.1412 8.5357 2.0095
-7.8278 7.8186 1.9977
-8.4369 7.0418 1.9843
-8.9665 6.2164 1.9701
-9.4133 5.3512 1.9552
-9.7751 4.4549 1.9397
-10.0117 3.5225 1.9164
-10.2397 2.6039 1.9078
-10.3427 1.6661 1.8916
-10.3610 0.7308 1.8755
-10.2842 -0.1942 1.8573
-10.1096 -1.0980 1.8362
-6.1850 -1.2376 1.1389
-6.0860 -1.7948 1.1457
-6.0886 -2.4042 1.1820
-6.0914 -3.0589 1.2308
-6.0944 -3.7759 1.2945
-5.9135 -4.4396 1.3352
-7.0140 -6.3185 1.7046
-6.3667 -6.8586 1.6897
-5.6847 -7.3411 1.6765
-0.9950 -1.5536 0.3331
-0.8484 -1.6284 0.3315
-0.6970 -1.6908 0.3302
-0.5417 -1.7407 0.3292
-0.3834 -1.7778 0.3284
-0.2230 -1.8021 0.3279
-0.0614 -1.8134 0.3276
0.1006 -1.8118 0.3277
0.2620 -1.7973 0.3280
0.4220 -1.7698 0.3285
0.5797 -1.7296 0.3294
0.7340 -1.6766 0.3305
0.8843 -1.6111 0.3318
1.0295 -1.5333 0.3335
5.8535 -7.2300 1.6797
6.5276 -6.7334 1.6933
2.2915 -1.9760 0.5464
2.2948 -1.6464 0.5100
2.2978 -1.3557 0.4817
2.3005 -1.0935 0.4599
2.3030 -0.8522 0.4434
2.3054 -0.6259 0.4313
2.3076 -0.4100 0.4232
2.3098 -0.2004 0.4186
2.3119 0.0064 0.4174
2.3140 0.2137 0.4196
2.3162 0.4248 0.4252
2.3185 0.6433 0.4345
2.3208 0.8735 0.4478
2.3234 1.1202 0.4657
2.3262 1.3899 0.4893
2.3293 1.6907 0.5197
2.3329 2.0344 0.5589
2.3370 2.4377 0.6098
6.9638 8.6996 2.0121
6.1700 9.3007 2.0153
1.0744 1.9836 0.4073
0.8978 2.0820 0.4094
0.7115 2.1627 0.4111
0.5174 2.2246 0.4124
0.3177 2.2668 0.4133
0.1144 2.2887 0.4138
-0.0902 2.2899 0.4138
-0.2938 2.2706 0.4134
-0.4941 2.2308 0.4126
-0.6890 2.1713 0.4113
-0.8764 2.0928 0.4097
-1.0543 1.9964 0.4077
-6.0666 9.3579 2.0137
-6.8666 8.7664 2.0107
-7.5893 8.0853 2.0023
-8.2261 7.3282 1.9893
-8.7848 6.5193 1.9753
-9.2618 5.6674 1.9606
-9.6545 4.7813 1.9453
-9.9484 3.8648 1.9271
-10.1431 2.9303 1.9064
-10.3154 2.0046 1.8974
-10.3641 1.0675 1.8813
-10.3281 0.1378 1.8651
-10.1814 -0.7749 1.8437
-7.4188 -1.2373 1.3581
-6.0851 -1.5834 1.1353
-6.0877 -2.1799 1.1676
-6.0903 -2.8165 1.2116
-6.0933 -3.5087 1.2696
-6.0965 -4.2770 1.3447
-6.1002 -5.1492 1.4414
-6.6045 -6.6703 1.6949
-5.9345 -7.1737 1.6811
-1.0465 -1.5236 0.3337
-0.9019 -1.6028 0.3321
-0.7521 -1.6697 0.3307
-0.5982 -1.7241 0.3295
-0.4408 -1.7659 0.3286
-0.2811 -1.7948 0.3280
-0.1198 -1.8108 0.3277
0.0422 -1.8139 0.3276
0.2039 -1.8040 0.3278
0.3645 -1.7812 0.3283
0.5231 -1.7456 0.3290
0.6788 -1.6972 0.3300
0.8306 -1.6362 0.3313
0.9777 -1.5628 0.3329
5.6024 -7.3948 1.6752
6.2882 -6.9193 1.6882
2.2901 -2.1073 0.5619
2.2937 -1.7602 0.5220
2.2968 -1.4568 0.4911
2.2996 -1.1854 0.4671
2.3022 -0.9373 0.4488
2.3045 -0.7062 0.4352
2.3068 -0.4870 0.4257
2.3090 -0.2755 0.4199
2.3111 -0.0681 0.4175
2.3133 0.1386 0.4184
2.3154 0.3479 0.4228
2.3176 0.5634 0.4307
2.3200 0.7888 0.4425
2.3225 1.0289 0.4587
2.3252 1.2895 0.4801
2.3281 1.5779 0.5078
2.3315 1.9046 0.5436
2.3354 2.2840 0.5898
7.2288 8.4572 2.0089
6.4631 9.0926 2.0143
5.6338 9.6453 2.0169
0.9628 2.0485 0.4087
0.7797 2.1357 0.4105
0.5882 2.2045 0.4120
0.3903 2.2539 0.4130
0.1880 2.2831 0.4136
-0.0164 2.2919 0.4138
-0.2206 2.2799 0.4136
-0.4223 2.2475 0.4129
-0.6194 2.1950 0.4118
-0.8098 2.1233 0.4103
-0.9913 2.0332 0.4084
-5.7648 9.5532 2.0147
-6.5844 8.9881 2.0118
-7.3412 8.3442 2.0068
-8.0051 7.6077 1.9941
-8.5925 6.8166 1.9804
-9.0993 5.9792 1.9660
-9.5226 5.1044 1.9509
-9.8605 4.2010 1.9353
-10.0732 3.2652 1.9120
-10.2770 2.3430 1.9033
-10.3562 1.4051 1.8871
-10.3513 0.4719 1.8710
-10.2433 -0.4484 1.8514
-10.0475 -1.3447 1.8304
-6.0843 -1.3755 1.1263
-6.0401 -1.9458 1.1458
-6.0894 -2.5813 1.1942
-6.0922 -3.2514 1.2469
-6.0953 -3.9895 1.3154
-5.8167 -4.5973 1.3387
-6.8375 -6.4746 1.7003
-6.1801 -6.9988 1.6859
-1.0972 -1.4920 0.3344
-0.9547 -1.5756 0.3327
-0.8067 -1.6470 0.3311
-0.6542 -1.7060 0.3299
-0.4979 -1.7523 0.3289
-0.3389 -1.7859 0.3282
-0.1781 -1.8065 0.3278
-0.0163 -1.8143 0.3276
0.1457 -1.8091 0.3277
0.3068 -1.7910 0.3281
0.4662 -1.7599 0.3287
0.6230 -1.7161 0.3297
0.7763 -1.6596 0.3308
0.9253 -1.5907 0.3323
1.0689 -1.5095 0.3340
6.0445 -7.0976 1.6833
2.2887 -2.2463 0.5790
2.2924 -1.8796 0.5353
2.2957 -1.5621 0.5014
2.2986 -1.2802 0.4751
2.3013 -1.0245 0.4548
2.3037 -0.7880 0.4396
2.3060 -0.5650 0.4287
2.3082 -0.3511 0.4216
2.3104 -0.1427 0.4180
2.3125 0.0639 0.4177
2.3146 0.2719 0.4208
2.3168 0.4847 0.4274
2.3191 0.7061 0.4377
2.3215 0.9403 0.4523
2.3241 1.1927 0.4717
2.3270 1.4701 0.4970
2.3302 1.7815 0.5296
2.3340 2.1398 0.5717
7.4831 8.2041 2.0050
6.7491 8.8749 2.0132
5.9390 9.4547 2.0160
1.0263 2.0127 0.4079
0.8468 2.1063 0.4099
0.6582 2.1819 0.4115
0.4623 2.2384 0.4127
0.2613 2.2749 0.4135
0.0575 2.2911 0.4138
-0.1471 2.2866 0.4137
-0.3500 2.2615 0.4132
-0.5490 2.2162 0.4123
-0.7420 2.1513 0.4109
-0.9269 2.0677 0.4092
-5.4566 9.7385 2.0157
-6.2948 9.2005 2.0129
-7.0792 8.5892 2.0098
-7.7742 7.8802 1.9988
-8.3897 7.1078 1.9854
-8.9260 6.2861 1.9713
-9.3797 5.4238 1.9564
-9.7486 4.5297 1.9410
-9.9922 3.5985 1.9177
-10.2274 2.6811 1.9091
-10.3375 1.7434 1.8929
-10.3626 0.8076 1.8768
-10.2951 -0.1187 1.8591
-10.1268 -1.0245 1.8379
-6.4303 -1.2375 1.1824
-6.0858 -1.7462 1.1432
-6.0884 -2.3525 1.1786
-6.0911 -3.0028 1.2262
-6.0941 -3.7139 1.2886
-5.9573 -4.4042 1.3377
-7.0656 -6.2715 1.7059
-6.4214 -6.8163 1.6909
-5.7421 -7.3035 1.6775
-1.0068 -1.5469 0.3333
-0.8607 -1.6227 0.3317
-0.7097 -1.6861 0.3303
-0.5547 -1.7370 0.3292
-0.3966 -1.7752 0.3284
-0.2363 -1.8006 0.3279
-0.0747 -1.8130 0.3276
0.0873 -1.8125 0.3276
0.2488 -1.7990 0.3279
0.4089 -1.7726 0.3285
0.5668 -1.7334 0.3293
0.7215 -1.6815 0.3304
0.8721 -1.6170 0.3317
1.0177 -1.5402 0.3333
5.7965 -7.2683 1.6786
6.4733 -6.7765 1.6922
2.2912 -2.0054 0.5498
2.2946 -1.6719 0.5126
2.2976 -1.3785 0.4838
2.3003 -1.1143 0.4615
2.3028 -0.8715 0.4446
2.3052 -0.6441 0.4322
2.3074 -0.4275 0.4237
2.3096 -0.2175 0.4189
2.3117 -0.0106 0.4174
2.3139 0.1965 0.4193
2.3160 0.4071 0.4246
2.3183 0.6249 0.4335
2.3206 0.8540 0.4465
2.3232 1.0991 0.4641
2.3259 1.3666 0.4871
2.3290 1.6645 0.5169
2.3325 2.0041 0.5553
2.3367 2.4016 0.6050
7.0251 8.6451 2.0114
6.2375 9.2540 2.0151
1.0885 1.9747 0.4071
0.9128 2.0746 0.4092
0.7272 2.1568 0.4110
0.5337 2.2203 0.4123
0.3343 2.2641 0.4132
0.1312 2.2876 0.4137
-0.0733 2.2906 0.4138
-0.2771 2.2729 0.4134
-0.4778 2.2349 0.4127
-0.6732 2.1769 0.4114
-0.8613 2.1000 0.4098
-1.0400 2.0050 0.4078
-5.9982 9.4034 2.0139
-6.8028 8.8179 2.0109
-7.5335 8.1451 2.0033
-8.1765 7.3926 1.9904
-8.7418 6.5877 1.9765
-9.2256 5.7391 1.9618
-9.6254 4.8554 1.9466
-9.9392 3.9456 1.9309
-10.1281 3.0069 1.9077
-10.3076 2.0819 1.8988
-10.3632 1.1445 1.8826
-10.3352 0.2139 1.8666
-10.1964 -0.7006 1.8455
-9.9797 -1.5890 1.8247
-6.0849 -1.5356 1.1332
-6.0435 -2.1141 1.1561
-6.0901 -2.7622 1.2075
-6.0930 -3.4491 1.2642
-6.0962 -4.2102 1.3378
-5.8406 -4.8569 1.3716
-6.6581 -6.6263 1.6961
-5.9910 -7.1344 1.6822
-1.0581 -1.5165 0.3339
-0.9140 -1.5967 0.3322
-0.7647 -1.6647 0.3308
-0.6110 -1.7201 0.3296
-0.4539 -1.7629 0.3287
-0.2943 -1.7929 0.3281
-0.1331 -1.8100 0.3277
0.0288 -1.8142 0.3276
0.1906 -1.8053 0.3278
0.3514 -1.7836 0.3282
0.5101 -1.7490 0.3290
0.6661 -1.7016 0.3300
0.8183 -1.6417 0.3312
0.9658 -1.5693 0.3327
5.5445 -7.4313 1.6742
6.2329 -6.9607 1.6871
2.2898 -2.1383 0.5657
2.2934 -1.7869 0.5250
2.2966 -1.4805 0.4934
2.2994 -1.2068 0.4689
2.3020 -0.9570 0.4501
2.3043 -0.7247 0.4362
2.3066 -0.5047 0.4263
2.3088 -0.2927 0.4202
2.3109 -0.0851 0.4176
2.3131 0.1215 0.4182
2.3152 0.3305 0.4223
2.3175 0.5453 0.4299
2.3198 0.7698 0.4413
2.3222 1.0085 0.4571
2.3249 1.2671 0.4781
2.3279 1.5529 0.5053
2.3312 1.8759 0.5403
2.3351 2.2502 0.5855
7.2877 8.4001 2.0080
6.5291 9.0437 2.0141
5.7041 9.6027 2.0167
0.9774 2.0405 0.4085
0.7952 2.1292 0.4104
0.6043 2.1996 0.4119
0.4068 2.2506 0.4130
0.2048 2.2815 0.4136
0.0005 2.2919 0.4138
-0.2038 2.2817 0.4136
-0.4059 2.2509 0.4130
-0.6034 2.2001 0.4119
-0.7944 2.1299 0.4105
-0.9767 2.0413 0.4086
-5.6950 9.5964 2.0149
-6.5189 9.0375 2.0121
-7.2833 8.4021 2.0078
-7.9533 7.6706 1.9952
-8.5471 6.8836 1.9816
-9.0607 6.0497 1.9672
-9.4910 5.1777 1.9522
-9.8359 4.2763 1.9366
-10.0557 3.3415 1.9133
-10.2667 2.4203 1.9046
-10.3529 1.4823 1.8884
-10.3548 0.5484 1.8723
-10.2561 -0.3733 1.8531
-10.0665 -1.2719 1.8321
-6.0841 -1.3285 1.1245
-6.0672 -1.9053 1.1483
-6.0891 -2.5285 1.1905
-6.0919 -3.1939 1.2420
-6.0950 -3.9255 1.3090
-5.8372 -4.5442 1.3357
-6.8901 -6.4288 1.7016
-6.2356 -6.9578 1.6870
-5.5474 -7.4287 1.6741
-0.9667 -1.5692 0.3328
-0.8191 -1.6416 0.3313
-0.6669 -1.7016 0.3300
-0.5109 -1.7490 0.3290
-0.3521 -1.7836 0.3283
-0.1914 -1.8053 0.3278
-0.0296 -1.8142 0.3276
0.1323 -1.8100 0.3277
0.2935 -1.7929 0.3280
0.4531 -1.7630 0.3287
0.6102 -1.7202 0.3296
0.7639 -1.6648 0.3307
0.9132 -1.5968 0.3321
1.0573 -1.5167 0.3338
5.9882 -7.1372 1.6822
2.3000 -1.1431 0.4801
2.3026 -0.8982 0.4620
2.3049 -0.6694 0.4487
2.3072 -0.4517 0.4395
2.3093 -0.2411 0.4340
2.3115 -0.0340 0.4321
2.3136 0.1729 0.4337
2.3158 0.3829 0.4388
2.3180 0.5997 0.4476
2.3204 0.8273 0.4605
2.3229 1.0703 0.4781
2.3256 1.3349 0.5013
2.3287 1.6288 0.5312
2.3321 1.9630 0.5698
2.3362 2.3529 0.6198
6.8512 8.2585 2.0059
6.1076 8.8659 2.0125
1.0660 1.8882 0.4053
0.8978 1.9858 0.4074
0.7202 2.0665 0.4091
0.5347 2.1294 0.4104
0.3435 2.1735 0.4113
0.1485 2.1983 0.4119
-0.0482 2.2034 0.4120
-0.2443 2.1887 0.4117
-0.4378 2.1544 0.4110
-0.6265 2.1011 0.4098
-0.8084 2.0294 0.4083
-0.9816 1.9403 0.4065
-5.6976 9.1351 2.0126
-6.4804 8.5785 2.0097
-7.1831 7.9261 1.9996
-7.8127 7.2091 1.9872
-8.3683 6.4403 1.9739
-8.8461 5.6282 1.9599
-9.2433 4.7809 1.9453
-9.5582 3.9070 1.9302
-9.7899 3.0148 1.9149
-9.9383 2.1124 1.8993
-10.0043 1.2077 1.8837
-9.9892 0.3081 1.8682
-9.8708 -0.5777 1.8483
-9.6733 -1.4398 1.8282
-6.0847 -1.4701 1.1701
-5.9615 -2.0177 1.1765
-6.0898 -2.6879 1.2443
-6.0927 -3.3678 1.3013
-6.0958 -4.1192 1.3753
-5.7983 -4.7230 1.3980
-6.5237 -6.3621 1.7034
-5.8825 -6.8627 1.6896
-1.0406 -1.4596 0.3351
-0.9018 -1.5389 0.3334
-0.7577 -1.6063 0.3320
-0.6093 -1.6616 0.3308
-0.4574 -1.7047 0.3299
-0.3030 -1.7352 0.3293
-0.1468 -1.7533 0.3289
0.0101 -1.7588 0.3288
0.1670 -1.7516 0.3289
0.3230 -1.7319 0.3293
0.4771 -1.6997 0.3300
0.6285 -1.6550 0.3309
0.7764 -1.5981 0.3321
0.9198 -1.5291 0.3336
1.0579 -1.4483 0.3353
5.9675 -6.8018 1.6915
2.2893 -2.1818 0.5912
2.2930 -1.8243 0.5477
2.2962 -1.5134 0.5141
2.2991 -1.2365 0.4880
2.3017 -0.9844 0.4680
2.3041 -0.7504 0.4530
2.3064 -0.5292 0.4423
2.3086 -0.3165 0.4356
2.3107 -0.1086 0.4324
2.3128 0.0980 0.4327
2.3150 0.3065 0.4365
2.3172 0.5205 0.4440
2.3195 0.7436 0.4553
2.3220 0.9805 0.4712
2.3246 1.2365 0.4922
2.3275 1.5188 0.5195
2.3308 1.8369 0.5548
2.3346 2.2045 0.6002
7.1008 8.0189 2.0022
6.3868 8.6602 2.0115
5.5964 9.2074 2.0141
0.9597 1.9524 0.4067
0.7853 2.0394 0.4085
0.6024 2.1088 0.4100
0.4130 2.1598 0.4111
0.2191 2.1916 0.4117
0.0228 2.2038 0.4120
-0.1737 2.1963 0.4118
-0.3684 2.1690 0.4113
-0.5591 2.1225 0.4103
-0.7436 2.0573 0.4089
-0.9202 1.9744 0.4072
-5.4029 9.3183 2.0135
-6.2040 8.7874 2.0108
-6.9387 8.1706 2.0038
-7.5939 7.4742 1.9918
-8.1766 6.7231 1.9788
-8.6829 5.9257 1.9651
-9.1094 5.0901 1.9507
-9.4542 4.2249 1.9357
-9.7159 3.3383 1.9204
-9.8944 2.4387 1.9049
-9.9899 1.5339 1.8893
-10.0038 0.6317 1.8738
-9.9240 -0.2605 1.8557
-9.7529 -1.1319 1.8354
-6.0838 -1.2639 1.1615
-6.0562 -1.8346 1.1829
-6.0888 -2.4563 1.2273
-6.0916 -3.1153 1.2790
-6.0947 -3.8384 1.3464
-5.8714 -4.4759 1.3801
-6.7463 -6.1679 1.7087
-6.1178 -6.6885 1.6944
-1.0892 -1.4282 0.3358
-0.9525 -1.5117 0.3340
-0.8102 -1.5834 0.3325
-0.6633 -1.6431 0.3312
-0.5125 -1.6906 0.3302
-0.3589 -1.7256 0.3295
-0.2033 -1.7482 0.3290
-0.0465 -1.7583 0.3288
0.1105 -1.7557 0.3288
0.2669 -1.7405 0.3292
0.4217 -1.7127 0.3297
0.5743 -1.6726 0.3306
0.7235 -1.6200 0.3317
0.8687 -1.5554 0.3330
1.0087 -1.4788 0.3346
5.7295 -6.9713 1.6868
2.2879 -2.3255 0.6098
2.2918 -1.9471 0.5621
2.2951 -1.6211 0.5253
2.2981 -1.3331 0.4966
2.3008 -1.0730 0.4746
2.3032 -0.8331 0.4578
2.3056 -0.6078 0.4457
2.3078 -0.3925 0.4376
2.3099 -0.1833 0.4332
2.3121 0.0234 0.4322
2.3142 0.2309 0.4347
2.3164 0.4424 0.4408
2.3187 0.6618 0.4507
2.3211 0.8931 0.4649
2.3236 1.1415 0.4839
2.3264 1.4134 0.5089
2.3296 1.7173 0.5410
2.3332 2.0651 0.5825
2.3374 2.4743 0.6363
6.6528 8.4377 2.0086
5.8875 9.0183 2.0133
1.0202 1.9170 0.4059
0.8493 2.0100 0.4079
0.6692 2.0859 0.4095
0.4820 2.1436 0.4107
0.2895 2.1824 0.4115
0.0938 2.2017 0.4119
-0.1029 2.2013 0.4119
-0.2985 2.1811 0.4115
-0.4909 2.1415 0.4107
-0.6779 2.0830 0.4095
-0.8575 2.0063 0.4079
-1.0281 1.9126 0.4059
-5.9207 8.9873 2.0118
-6.6854 8.4070 2.0079
-7.3656 7.7321 1.9962
-7.9750 6.9999 1.9836
-8.5093 6.2182 1.9701
-8.9649 5.3954 1.9559
-9.3393 4.5399 1.9412
-9.6311 3.6601 1.9260
-9.8396 2.7643 1.9105
-9.9649 1.8605 1.8950
-10.0081 0.9564 1.8794
-9.9672 0.0596 1.8632
-9.8231 -0.8204 1.8427
-7.1028 -1.2384 1.3478
-6.0853 -1.6314 1.1777
-6.0696 -2.2240 1.2084
-6.0906 -2.8712 1.2587
-6.0935 -3.5688 1.3201
-6.0950 -4.3431 1.3990
-6.1005 -5.2268 1.5017
-6.3486 -6.5071 1.6994
-5.6980 -6.9921 1.6861
-1.0025 -1.4829 0.3346
-0.8621 -1.5589 0.3330
-0.7168 -1.6229 0.3316
-0.5673 -1.6749 0.3306
-0.4146 -1.7144 0.3297
-0.2596 -1.7415 0.3291
-0.1032 -1.7561 0.3288
0.0538 -1.7580 0.3288
0.2106 -1.7474 0.3290
0.3661 -1.7242 0.3295
0.5196 -1.6885 0.3302
0.6701 -1.6404 0.3312
0.8168 -1.5801 0.3325
0.9588 -1.5078 0.3340
5.4874 -7.1333 1.6823
6.1483 -6.6660 1.6952
2.2904 -2.0766 0.5779
2.2940 -1.7337 0.5375
2.2970 -1.4334 0.5061
2.2998 -1.1641 0.4819
2.3024 -0.9177 0.4633
2.3047 -0.6877 0.4496
2.3070 -0.4693 0.4401
2.3092 -0.2583 0.4343
2.3113 -0.0511 0.4322
2.3134 0.1557 0.4334
2.3156 0.3654 0.4382
2.3178 0.5815 0.4467
2.3202 0.8080 0.4593
2.3227 1.0496 0.4765
2.3254 1.3121 0.4991
2.3284 1.6033 0.5285
2.3318 1.9336 0.5663
2.3358 2.3182 0.6152
6.9090 8.2045 2.0050
6.1720 8.8198 2.0123
1.0793 1.8795 0.4051
0.9121 1.9783 0.4072
0.7351 2.0605 0.4090
0.5503 2.1249 0.4103
0.3594 2.1706 0.4113
0.1646 2.1970 0.4118
-0.0320 2.2037 0.4120
-0.2282 2.1906 0.4117
-0.4220 2.1580 0.4110
-0.6111 2.1062 0.4100
-0.7937 2.0360 0.4085
-0.9677 1.9483 0.4067
-5.6308 9.1778 2.0128
-6.4179 8.6270 2.0100
-7.1281 7.9826 2.0005
-7.7636 7.2702 1.9883
-8.3254 6.5054 1.9751
-8.8097 5.6965 1.9611
-9.2137 4.8518 1.9465
-9.5354 3.9798 1.9315
-9.7740 3.0888 1.9161
-9.9292 2.1870 1.9006
-10.0019 1.2822 1.8850
-9.9934 0.3819 1.8695
-9.8838 -0.5055 1.8500
-9.6923 -1.3698 1.8298
-6.0845 -1.4227 1.1681
-5.9677 -1.9710 1.1748
-6.0896 -2.6344 1.2403
-6.0924 -3.3093 1.2960
-6.0956 -4.0540 1.3685
-5.7991 -4.6532 1.3899
-6.5750 -6.3184 1.7046
-5.9366 -6.8235 1.6907
-1.0518 -1.4526 0.3352
-0.9134 -1.5328 0.3335
-0.7697 -1.6012 0.3321
-0.6216 -1.6575 0.3309
-0.4700 -1.7016 0.3300
-0.3157 -1.7332 0.3293
-0.1597 -1.7523 0.3289
-0.0028 -1.7588 0.3288
0.1541 -1.7527 0.3289
0.3102 -1.7340 0.3293
0.4645 -1.7028 0.3299
0.6162 -1.6592 0.3308
0.7644 -1.6033 0.3320
0.9082 -1.5352 0.3334
1.0467 -1.4554 0.3351
5.9135 -6.8411 1.6904
2.2890 -2.2138 0.5953
2.2927 -1.8518 0.5509
2.2960 -1.5376 0.5165
2.2988 -1.2583 0.4899
2.3015 -1.0044 0.4694
2.3039 -0.7691 0.4540
2.3062 -0.5471 0.4431
2.3084 -0.3338 0.4360
2.3105 -0.1256 0.4326
2.3127 0.0810 0.4326
2.3148 0.2892 0.4361
2.3170 0.5026 0.4432
2.3193 0.7248 0.4542
2.3218 0.9603 0.4697
2.3244 1.2145 0.4902
2.3273 1.4943 0.5170
2.3305 1.8091 0.5515
2.3343 2.1720 0.5960
7.1566 7.9631 2.0014
6.4486 8.6106 2.0109
5.6635 9.1650 2.0140
0.9736 1.9445 0.4065
0.8000 2.0329 0.4084
0.6177 2.1038 0.4099
0.4288 2.1563 0.4110
0.2352 2.1897 0.4117
0.0390 2.2036 0.4120
-0.1576 2.1976 0.4119
-0.3525 2.1720 0.4113
-0.5436 2.1271 0.4104
-0.7287 2.0634 0.4091
-0.9060 1.9819 0.4074
-5.3347 9.3587 2.0137
-6.1399 8.8339 2.0110
-6.8816 8.2253 2.0047
-7.5425 7.5337 1.9928
-8.1315 6.7869 1.9799
-8.6441 5.9929 1.9662
-9.0773 5.1602 1.9519
-9.4289 4.2971 1.9370
-9.6975 3.4120 1.9217
-9.8828 2.5131 1.9062
-9.9852 1.6085 1.8906
-10.0057 0.7057 1.8750
-9.9347 -0.1876 1.8575
-9.7698 -1.0611 1.8370
-6.1895 -1.2385 1.1800
-6.0860 -1.7948 1.1861
-6.0886 -2.4042 1.2237
-6.0914 -3.0589 1.2742
-6.0944 -3.7759 1.3402
-5.9080 -4.4354 1.3810
-6.7965 -6.1225 1.7100
-6.1709 -6.6477 1.6955
-1.1002 -1.4208 0.3359
-0.9640 -1.5052 0.3341
-0.8221 -1.5779 0.3326
-0.6755 -1.6386 0.3313
-0.5251 -1.6871 0.3303
-0.3717 -1.7232 0.3295
-0.2162 -1.7468 0.3290
-0.0595 -1.7579 0.3288
0.0975 -1.7564 0.3288
0.2540 -1.7422 0.3291
0.4091 -1.7155 0.3297
0.5618 -1.6763 0.3305
0.7114 -1.6248 0.3316
0.8569 -1.5612 0.3329
0.9974 -1.4856 0.3345
5.6745 -7.0089 1.6858
6.3264 -6.5259 1.6990
2.2915 -1.9761 0.5656
2.2949 -1.6464 0.5280
2.2979 -1.3557 0.4987
2.3005 -1.0935 0.4762
2.3030 -0.8522 0.4590
2.3054 -0.6260 0.4466
2.3076 -0.4100 0.4381
2.3098 -0.2004 0.4334
2.3119 0.0064 0.4322
2.3140 0.2137 0.4344
2.3162 0.4248 0.4402
2.3185 0.6433 0.4498
2.3208 0.8735 0.4636
2.3234 1.1202 0.4822
2.3262 1.3899 0.5065
2.3293 1.6908 0.5380
2.3329 2.0344 0.5786
2.3370 2.4377 0.6313
6.7121 8.3852 2.0078
5.9531 8.9738 2.0130
1.0338 1.9086 0.4058
0.8637 2.0029 0.4077
0.6844 2.0803 0.4094
0.4976 2.1395 0.4106
0.3055 2.1799 0.4115
0.1100 2.2008 0.4119
-0.0867 2.2021 0.4120
-0.2825 2.1835 0.4116
-0.4752 2.1455 0.4108
-0.6627 2.0885 0.4096
-0.8431 2.0133 0.4080
-1.0144 1.9209 0.4061
-5.8550 9.0316 2.0120
-6.6264 8.4597 2.0088
-7.3121 7.7900 1.9972
-7.9276 7.0622 1.9847
-8.4682 6.2843 1.9712
-8.9303 5.4646 1.9571
-9.3116 4.6115 1.9424
-9.6102 3.7334 1.9273
-9.8256 2.8385 1.9118
-9.9577 1.9351 1.8962
-10.0076 1.0308 1.8807
-9.9757 0.1331 1.8650
-9.8378 -0.7487 1.8443
-7.4253 -1.2384 1.4072
-6.0851 -1.5834 1.1754
-5.9941 -2.1464 1.1902
-6.0903 -2.8165 1.2543
-6.0933 -3.5087 1.3144
-6.0965 -4.2769 1.3921
-6.1002 -5.1492 1.4923
-6.4008 -6.4646 1.7006
-5.7529 -6.9542 1.6871
-1.0138 -1.4761 0.3347
-0.8739 -1.5531 0.3331
-0.7289 -1.6181 0.3318
-0.5797 -1.6710 0.3306
-0.4273 -1.7116 0.3298
-0.2725 -1.7398 0.3292
-0.1161 -1.7554 0.3289
0.0409 -1.7584 0.3288
0.1977 -1.7488 0.3290
0.3533 -1.7266 0.3294
0.5070 -1.6919 0.3302
0.6578 -1.6448 0.3311
0.8049 -1.5855 0.3324
0.9473 -1.5142 0.3339
5.4315 -7.1693 1.6814
6.0950 -6.7067 1.6941
2.2901 -2.1073 0.5818
2.2937 -1.7602 0.5405
2.2968 -1.4568 0.5084
2.2996 -1.1854 0.4836
2.3022 -0.9373 0.4646
2.3045 -0.7062 0.4506
2.3068 -0.4870 0.4407
2.3090 -0.2755 0.4347
2.3111 -0.0681 0.4322
2.3133 0.1386 0.4332
2.3154 0.3479 0.4377
2.3176 0.5634 0.4459
2.3200 0.7888 0.4581
2.3225 1.0289 0.4748
2.3252 1.2895 0.4970
2.3281 1.5779 0.5257
2.3315 1.9046 0.5628
2.3354 2.2840 0.6106
6.9663 8.1501 2.0042
6.2361 8.7731 2.0121
1.0926 1.8706 0.4050
0.9262 1.9708 0.4071
0.7500 2.0544 0.4088
0.5657 2.1203 0.4102
0.3753 2.1676 0.4112
0.1808 2.1956 0.4118
-0.0158 2.2039 0.4120
-0.2121 2.1925 0.4118
-0.4062 2.1614 0.4111
-0.5958 2.1112 0.4101
-0.7789 2.0424 0.4086
-0.9537 1.9562 0.4068
-5.5637 9.2200 2.0130
-6.3550 8.6750 2.0102
-7.0726 8.0388 2.0015
-7.7139 7.3310 1.9893
-8.2820 6.5702 1.9762
-8.7728 5.7647 1.9623
-9.1835 4.9226 1.9478
-9.5120 4.0526 1.9328
-9.7575 3.1628 1.9174
-9.9196 2.2615 1.9019
-9.9990 1.3566 1.8863
-9.9972 0.4557 1.8707
-9.8963 -0.4332 1.8517
-9.7108 -1.2996 1.8314
-6.0843 -1.3755 1.1661
-5.9825 -1.9272 1.1749
-6.0894 -2.5813 1.2363
-6.0922 -3.2514 1.2909
-6.0953 -3.9895 1.3618
-5.8113 -4.5931 1.3847
-6.6260 -6.2743 1.7058
-5.9905 -6.7840 1.6918
-1.0629 -1.4454 0.3354
-0.9250 -1.5266 0.3337
-0.7818 -1.5960 0.3322
-0.6340 -1.6534 0.3310
-0.4826 -1.6984 0.3301
-0.3285 -1.7311 0.3294
-0.1726 -1.7512 0.3289
-0.0158 -1.7587 0.3288
0.1412 -1.7537 0.3289
0.2974 -1.7360 0.3292
0.4518 -1.7058 0.3299
0.6038 -1.6632 0.3308
0.7523 -1.6083 0.3319
0.8965 -1.5413 0.3333
1.0355 -1.4624 0.3350
5.8593 -6.8801 1.6893
2.2887 -2.2463 0.5995
2.2925 -1.8796 0.5542
2.2957 -1.5621 0.5191
2.2986 -1.2802 0.4918
2.3013 -1.0245 0.4709
2.3037 -0.7880 0.4551
2.3060 -0.5650 0.4438
2.3082 -0.3511 0.4364
2.3104 -0.1427 0.4327
2.3125 0.0639 0.4324
2.3146 0.2719 0.4357
2.3168 0.4847 0.4425
2.3191 0.7061 0.4532
2.3215 0.9403 0.4682
2.3242 1.1927 0.4883
2.3270 1.4701 0.5145
2.3302 1.7815 0.5483
2.3340 2.1398 0.5919
7.2119 7.9068 2.0005
6.5096 8.5601 2.0103
5.7302 9.1222 2.0137
0.9875 1.9365 0.4063
0.8146 2.0262 0.4082
0.6330 2.0986 0.4098
0.4446 2.1527 0.4109
0.2513 2.1877 0.4116
0.0553 2.2032 0.4120
-0.1414 2.1989 0.4119
-0.3366 2.1749 0.4114
-0.5280 2.1315 0.4105
-0.7137 2.0693 0.4092
-0.8917 1.9892 0.4075
-1.0603 1.8923 0.4055
-6.0754 8.8799 2.0113
-6.8240 8.2796 2.0057
-7.4907 7.5929 1.9938
-8.0858 6.8503 1.9810
-8.6048 6.0599 1.9674
-9.0447 5.2301 1.9531
-9.4031 4.3692 1.9382
-9.6785 3.4856 1.9230
-9.8707 2.5875 1.9075
-9.9798 1.6831 1.8919
-10.0071 0.7799 1.8763
-9.9450 -0.1146 1.8592
-9.7862 -0.9901 1.8387
-6.4353 -1.2385 1.2250
-6.0858 -1.7462 1.1835
-6.0884 -2.3525 1.2201
-6.0911 -3.0028 1.2695
-6.0941 -3.7139 1.3341
-5.9518 -4.4001 1.3836
-6.8464 -6.0768 1.7112
-6.2238 -6.6065 1.6967
-5.5668 -7.0805 1.6837
-0.9754 -1.4987 0.3343
-0.8340 -1.5724 0.3327
-0.6878 -1.6341 0.3314
-0.5376 -1.6836 0.3304
-0.3844 -1.7207 0.3296
-0.2290 -1.7454 0.3291
-0.0724 -1.7575 0.3288
0.0846 -1.7570 0.3288
0.2412 -1.7438 0.3291
0.3964 -1.7182 0.3296
0.5493 -1.6800 0.3304
0.6992 -1.6295 0.3315
0.8451 -1.5669 0.3328
0.9860 -1.4922 0.3343
5.6194 -7.0462 1.6847
6.2739 -6.5679 1.6979
2.2912 -2.0054 0.5692
2.2946 -1.6719 0.5307
2.2976 -1.3785 0.5009
2.3003 -1.1143 0.4778
2.3028 -0.8715 0.4603
2.3052 -0.6441 0.4474
2.3074 -0.4275 0.4387
2.3096 -0.2175 0.4336
2.3117 -0.0106 0.4321
2.3139 0.1965 0.4341
2.3160 0.4071 0.4396
2.3183 0.6249 0.4488
2.3206 0.8540 0.4622
2.3232 1.0991 0.4804
2.3260 1.3666 0.5043
2.3290 1.6645 0.5351
2.3326 2.0041 0.5749
2.3367 2.4016 0.6264
6.7709 8.3322 2.0070
6.0183 8.9288 2.0128
1.0474 1.9001 0.4056
0.8781 1.9958 0.4076
0.6995 2.0746 0.4093
0.5133 2.1354 0.4105
0.3215 2.1773 0.4114
0.1262 2.1999 0.4119
-0.0705 2.2027 0.4120
-0.2665 2.1858 0.4116
-0.4595 2.1493 0.4109
-0.6475 2.0939 0.4097
-0.8285 2.0201 0.4082
-1.0007 1.9292 0.4063
-5.7891 9.0755 2.0123
-6.5659 8.5108 2.0094
-7.2582 7.8475 1.9982
-7.8796 7.1242 1.9857
-8.4265 6.3501 1.9724
-8.8953 5.5336 1.9583
-9.2833 4.6828 1.9436
-9.5887 3.8064 1.9285
-9.8110 2.9127 1.9131
-9.9500 2.0096 1.8975
-10.0066 1.1051 1.8819
-9.9824 0.2066 1.8664
-9.8520 -0.6769 1.8460
-9.6463 -1.5360 1.8259
-6.0849 -1.5356 1.1731
-5.9696 -2.0882 1.1822
-6.0901 -2.7622 1.2501
-6.0930 -3.4491 1.3088
-6.0962 -4.2102 1.3849
-5.8367 -4.8536 1.4190
-6.4526 -6.4217 1.7018
-5.8075 -6.9160 1.6882
-1.0251 -1.4692 0.3349
-0.8856 -1.5472 0.3332
-0.7410 -1.6132 0.3319
-0.5922 -1.6671 0.3307
-0.4400 -1.7088 0.3298
-0.2853 -1.7379 0.3292
-0.1290 -1.7546 0.3289
0.0280 -1.7586 0.3288
0.1848 -1.7500 0.3290
0.3406 -1.7289 0.3294
0.4944 -1.6952 0.3301
0.6455 -1.6492 0.3311
0.7929 -1.5909 0.3323
0.9358 -1.5205 0.3338
1.0732 -1.4384 0.3355
6.0415 -6.7469 1.6930
2.2898 -2.1383 0.5857
2.2934 -1.7869 0.5435
2.2966 -1.4805 0.5108
2.2994 -1.2068 0.4854
2.3020 -0.9570 0.4660
2.3043 -0.7247 0.4516
2.3066 -0.5047 0.4414
2.3088 -0.2927 0.4350
2.3109 -0.0851 0.4323
2.3131 0.1215 0.4330
2.3152 0.3305 0.4372
2.3175 0.5453 0.4450
2.3198 0.7698 0.4569
2.3222 1.0085 0.4733
2.3249 1.2671 0.4950
2.3279 1.5529 0.5231
2.3312 1.8759 0.5593
2.3351 2.2502 0.6062
7.0232 8.0952 2.0034
6.2997 8.7260 2.0118
1.1058 1.8617 0.4048
0.9404 1.9632 0.4069
0.7649 2.0482 0.4087
0.5812 2.1156 0.4101
0.3912 2.1644 0.4111
0.1969 2.1940 0.4118
0.0005 2.2040 0.4120
-0.1960 2.1942 0.4118
-0.3903 2.1647 0.4112
-0.5804 2.1160 0.4102
-0.7641 2.0488 0.4088
-0.9397 1.9639 0.4070
-5.4963 9.2617 2.0132
-6.2917 8.7226 2.0105
-7.0166 8.0945 2.0025
-7.6638 7.3914 1.9903
-8.2381 6.6347 1.9773
-8.7354 5.8325 1.9635
-9.1527 4.9932 1.9490
-9.4881 4.1251 1.9340
-9.7404 3.2367 1.9187
-9.9094 2.3360 1.9032
-9.9956 1.4312 1.8876
-10.0003 0.5296 1.8720
-9.9083 -0.3607 1.8534
-9.7288 -1.2292 1.8331
-6.0841 -1.3285 1.1641
-6.0061 -1.8861 1.1768
-6.0891 -2.5285 1.2325
-6.0919 -3.1939 1.2858
-6.0950 -3.9255 1.3552
-5.8318 -4.5399 1.3815
-6.6768 -6.2298 1.7070
-6.0441 -6.7441 1.6929
-1.0740 -1.4382 0.3355
-0.9366 -1.5204 0.3338
-0.7937 -1.5908 0.3323
-0.6463 -1.6491 0.3311
-0.4952 -1.6952 0.3301
-0.3413 -1.7288 0.3294
-0.1855 -1.7500 0.3290
-0.0287 -1.7586 0.3288
0.1283 -1.7546 0.3289
0.2845 -1.7380 0.3292
0.4392 -1.7088 0.3298
0.5914 -1.6672 0.3307
0.7402 -1.6133 0.3318
0.8848 -1.5473 0.3332
1.0243 -1.4694 0.3348
5.8048 -6.9187 1.6882
2.3000 -1.1431 0.4965
2.3026 -0.8982 0.4778
2.3049 -0.6694 0.4640
2.3072 -0.4517 0.4545
2.3093 -0.2411 0.4489
2.3115 -0.0340 0.4469
2.3136 0.1729 0.4485
2.3158 0.3829 0.4538
2.3180 0.5997 0.4629
2.3204 0.8273 0.4762
2.3229 1.0703 0.4944
2.3256 1.3349 0.5184
2.3287 1.6288 0.5494
2.3321 1.9630 0.5893
2.3362 2.3529 0.6410
6.6104 7.9683 2.0015
5.8995 8.5639 2.0103
1.0271 1.8194 0.4039
0.8649 1.9130 0.4059
0.6937 1.9905 0.4075
0.5150 2.0508 0.4088
0.3308 2.0931 0.4097
0.1430 2.1169 0.4102
-0.0464 2.1218 0.4103
-0.2353 2.1077 0.4100
-0.4216 2.0748 0.4093
-0.6034 2.0237 0.4082
-0.7787 1.9549 0.4068
-0.9457 1.8694 0.4050
-5.5052 8.8266 2.0110
-6.2537 8.2784 2.0057
-6.9292 7.6459 1.9947
-7.5382 6.9557 1.9828
-8.0761 6.2155 1.9701
-8.5393 5.4330 1.9566
-8.9251 4.6163 1.9425
-9.2316 3.7735 1.9280
-9.4580 2.9126 1.9131
-9.6040 2.0414 1.8981
-9.6704 1.1674 1.8830
-9.6585 0.2979 1.8680
-9.5472 -0.5588 1.8488
-9.3595 -1.3931 1.8293
-6.0847 -1.4701 1.2101
-5.9185 -2.0032 1.2079
-6.0898 -2.6879 1.2868
-6.0927 -3.3678 1.3458
-6.0958 -4.1192 1.4222
-5.8001 -4.7246 1.4462
-6.3278 -6.1710 1.7086
-5.7072 -6.6582 1.6953
-1.0090 -1.4153 0.3360
-0.8745 -1.4924 0.3344
-0.7349 -1.5580 0.3330
-0.5910 -1.6118 0.3319
-0.4437 -1.6537 0.3310
-0.2939 -1.6835 0.3304
-0.1424 -1.7011 0.3300
0.0098 -1.7064 0.3299
0.1620 -1.6994 0.3300
0.3133 -1.6802 0.3304
0.4628 -1.6489 0.3311
0.6097 -1.6054 0.3320
0.7531 -1.5500 0.3331
0.8920 -1.4829 0.3345
1.0258 -1.4043 0.3362
5.7895 -6.5989 1.6970
2.2894 -2.1818 0.6114
2.2930 -1.8243 0.5665
2.2962 -1.5134 0.5316
2.2991 -1.2365 0.5046
2.3017 -0.9844 0.4839
2.3041 -0.7504 0.4684
2.3064 -0.5292 0.4574
2.3086 -0.3165 0.4505
2.3107 -0.1086 0.4472
2.3128 0.0980 0.4475
2.3150 0.3065 0.4514
2.3172 0.5205 0.4591
2.3195 0.7436 0.4709
2.3220 0.9805 0.4872
2.3246 1.2365 0.5090
2.3275 1.5188 0.5373
2.3308 1.8369 0.5737
2.3346 2.2046 0.6207
6.8517 7.7376 1.9979
6.1632 8.3570 2.0074
1.0830 1.7818 0.4031
0.9246 1.8810 0.4052
0.7564 1.9645 0.4069
0.5802 2.0311 0.4083
0.3978 2.0800 0.4094
0.2110 2.1105 0.4100
0.0220 2.1222 0.4103
-0.1673 2.1149 0.4101
-0.3548 2.0888 0.4096
-0.5384 2.0442 0.4087
-0.7163 1.9817 0.4073
-0.8865 1.9021 0.4057
-1.0474 1.8065 0.4037
-5.9946 8.4909 2.0093
-6.6929 7.8811 1.9988
-7.3264 7.2109 1.9872
-7.8905 6.4878 1.9748
-8.3810 5.7197 1.9615
-8.7950 4.9144 1.9476
-9.1302 4.0801 1.9332
-9.3856 3.2248 1.9185
-9.5606 2.3564 1.9035
