ply
format ascii 1.0
element vertex 1952
property float32 x
property float32 y
property float32 z
end_header
-20.8378 -5.6879 -3.2168
-20.7528 -7.7138 -3.2972
-20.8279 -9.9400 -3.4370
-20.8224 -12.3315 -3.6040
-20.8163 -14.9896 -3.8202
-20.7292 -17.9434 -4.0830
-28.5839 -29.6018 -6.1283
-17.7853 -22.0610 -4.2202
-26.1839 -39.1830 -7.0184
-23.4217 -42.9043 -7.2797
15.4322 -37.0839 -5.9819
17.6997 -33.6892 -5.6675
21.7378 -33.6799 -5.9698
10.2623 -13.1534 -2.4846
11.3957 -12.1846 -2.4846
12.0953 -10.8121 -2.4161
12.0912 -9.0030 -2.2450
11.9914 -7.3624 -2.0956
11.6562 -12.9443 -2.4846
12.0963 -11.2307 -2.3543
11.9958 -9.2890 -2.1640
12.0882 -7.7397 -2.0473
10.1464 -5.2836 -1.6317
11.9146 -4.9072 -1.8379
11.9118 -3.7016 -1.7792
11.9092 -2.5619 -1.7375
11.9066 -1.4657 -1.7111
11.9042 -0.3939 -1.6989
11.9017 0.6711 -1.7003
11.8992 1.7464 -1.7154
11.8967 2.8500 -1.7449
11.8941 4.0015 -1.7900
37.9479 16.6714 -5.9120
9.1914 6.1908 -1.5807
28.6476 23.2682 -5.2642
28.4847 27.7067 -5.6679
-20.8891 16.5961 -3.8054
-20.8825 13.7403 -3.5655
-20.8766 11.2042 -3.3795
-20.8713 8.9021 -3.2365
-20.7861 6.7445 -3.1170
-20.8618 4.7606 -3.0521
-20.8573 2.8319 -3.0023
-23.9213 1.0903 -3.4156
-26.7751 -1.1750 -3.8227
-26.7695 -3.5886 -3.8524
-23.1375 -5.2388 -3.3838
-20.8354 -6.7217 -3.1227
-20.8305 -8.8431 -3.2278
-20.8252 -11.1313 -3.3681
-20.8194 -13.6485 -3.5508
-20.8129 -16.4783 -3.7865
-20.7252 -19.6623 -4.0748
-28.7497 -39.1914 -6.9329
-23.3548 -38.6543 -6.4417
15.4367 -42.2187 -6.4118
15.8598 -33.6935 -5.3117
19.7068 -33.6846 -5.5665
10.1033 -14.1896 -2.4846
10.3614 -12.0999 -2.2722
12.0976 -11.8070 -2.4112
11.9969 -9.7779 -2.2076
12.0892 -8.1723 -2.0814
11.9184 -6.5891 -1.9425
11.9154 -5.2587 -1.8577
11.9125 -4.0301 -1.7938
11.9099 -2.8744 -1.7475
11.9073 -1.7682 -1.7170
11.9049 -0.6914 -1.7009
11.9024 0.3737 -1.6985
11.8999 1.4445 -1.7098
11.8974 2.5383 -1.7352
11.8948 3.6743 -1.7757
38.7450 15.8813 -5.9726
31.5735 20.1404 -5.3417
30.0937 23.2219 -5.4218
9.2402 8.5500 -1.7956
-17.6829 17.6938 -3.5680
-20.8833 17.4583 -3.8825
-20.8842 14.5003 -3.6264
-20.8782 11.8848 -3.4267
-20.8728 9.5246 -3.2725
-20.8678 7.3510 -3.1558
-20.8631 5.3114 -3.0707
-20.8586 3.3637 -3.0136
-20.8542 1.4722 -2.9819
-26.7766 -0.5068 -3.8200
-26.7711 -2.9114 -3.8410
-26.1832 -5.2458 -3.8089
-20.8367 -6.1530 -3.0989
-20.7516 -8.2053 -3.1829
-20.7465 -10.4328 -3.3123
-20.8211 -12.9192 -3.4951
-20.8148 -15.6517 -3.7146
-20.8076 -18.7773 -3.9977
-29.7479 -32.1093 -6.2434
-24.5389 -38.4165 -6.5020
15.7791 -35.8130 -5.5820
18.5968 -33.6872 -5.4885
9.2789 -13.7446 -2.3654
10.9964 -13.5092 -2.4846
12.0990 -12.4122 -2.4724
12.0943 -10.3696 -2.2723
12.0903 -8.6198 -2.1179
12.0867 -7.0813 -1.9981
11.8922 -5.6068 -1.8753
11.9133 -4.3643 -1.8097
11.9106 -3.1909 -1.7588
11.9080 -2.0729 -1.7240
11.9055 -0.9898 -1.7040
11.9031 0.0769 -1.6978
11.9006 1.1443 -1.7053
11.8981 2.2299 -1.7266
11.8956 3.3521 -1.7628
37.6166 14.3341 -5.7418
36.7308 22.1615 -6.1188
29.8001 21.8321 -5.2692
27.9178 24.5692 -5.3045
-20.8861 15.2871 -3.6918
-20.8798 12.5851 -3.4774
-20.8174 10.1338 -3.3024
-20.8691 7.9417 -3.1849
-20.8643 5.8693 -3.0915
-20.8598 3.8998 -3.0269
-20.8554 1.9960 -2.9883
-26.7781 0.1609 -3.8196
-26.7726 -2.2378 -3.8320
-25.9222 -4.5244 -3.7533
-20.8380 -5.5925 -3.0774
-20.8332 -7.6426 -3.1652
-20.8282 -9.8311 -3.2852
-20.7425 -12.1648 -3.4299
-20.7704 -14.8224 -3.6396
-20.8097 -17.8583 -3.9113
-28.6534 -29.4214 -5.8578
-25.9119 -38.4196 -6.6099
-22.9324 -41.5848 -6.7736
15.4846 -37.6628 -5.8084
17.5167 -33.6897 -5.4161
21.5349 -33.6804 -5.7021
10.6562 -13.7792 -2.4846
11.8439 -12.7727 -2.4846
12.0955 -10.9055 -2.3230
12.0913 -9.0836 -2.1571
12.0877 -7.4927 -2.0285
10.7976 -5.4238 -1.7235
11.9141 -4.7047 -1.8271
11.9114 -3.5116 -1.7713
11.9087 -2.3804 -1.7322
11.9062 -1.2895 -1.7082
11.9038 -0.2200 -1.6982
11.9013 0.8456 -1.7018
11.8988 1.9243 -1.7192
11.8963 3.0343 -1.7512
11.8936 4.1957 -1.7989
40.1476 18.3417 -6.2958
30.8634 21.4494 -5.3609
29.1417 24.3843 -5.4198
29.4051 29.4496 -5.9360
15.4481 44.0036 -6.6520
-20.8282 16.0573 -3.7512
-20.8815 13.3069 -3.5318
-20.7953 10.7725 -3.3405
-20.8705 8.5437 -3.2166
-20.8657 6.4352 -3.1145
-20.8611 4.4409 -3.0422
-20.8566 2.5222 -2.9966
-25.2831 0.7826 -3.6080
-26.7742 -1.5670 -3.8255
-26.7686 -3.9872 -3.8603
-21.6496 -5.2353 -3.1770
-20.8346 -7.0589 -3.1377
-20.8296 -9.2040 -3.2482
-20.8243 -11.5249 -3.3948
-20.8184 -14.0868 -3.5853
-20.8117 -16.9776 -3.8309
-21.3928 -20.8976 -4.2656
-27.8767 -39.1885 -6.8596
-22.8912 -39.1679 -6.4709
15.4921 -40.5254 -6.1883
16.4643 -33.6921 -5.3488
20.3717 -33.6831 -5.6148
10.3093 -14.0405 -2.4846
11.5218 -13.0640 -2.4846
12.0968 -11.4662 -2.3774
11.9963 -9.4892 -2.1817
10.3494 -6.7781 -1.7646
10.0262 -5.3533 -1.6212
11.9149 -5.0519 -1.8459
11.9121 -3.8371 -1.7851
11.9095 -2.6909 -1.7415
11.9069 -1.5908 -1.7134
11.9045 -0.5171 -1.6996
11.9020 0.5478 -1.6994
11.8995 1.6211 -1.7130
11.8970 2.7204 -1.7407
11.8944 3.8653 -1.7839
37.5983 16.0564 -5.8314
9.2059 6.0632 -1.5723
28.2069 22.4306 -5.1403
9.1136 8.6832 -1.7955
-20.8899 16.9518 -3.8373
-20.8832 14.0521 -3.5902
-20.8773 11.4840 -3.3986
-20.8719 9.1584 -3.2511
-20.8670 7.0099 -3.1398
-20.8623 4.9880 -3.0596
-20.8579 3.0518 -3.0067
-20.7732 1.1620 -2.9676
-26.7757 -0.8980 -3.8213
-17.6637 -2.1824 -2.5386
-24.3131 -5.2415 -3.5476
-20.8359 -6.4849 -3.1126
-20.8311 -8.5905 -3.2140
-20.7456 -10.8147 -3.3370
-20.8201 -13.3435 -3.5272
-20.8137 -16.1320 -3.7561
-20.7589 -19.2907 -4.0420
-29.3788 -39.1934 -6.9866
-23.7968 -38.4819 -6.4536
15.4766 -33.7808 -5.3000
19.2430 -33.6857 -5.5335
10.0470 -14.4237 -2.5073
11.1925 -13.3472 -2.4846
12.0928 -12.0488 -2.4349
11.9974 -9.9863 -2.2265
12.0897 -8.3558 -2.0962
11.9725 -6.7815 -1.9626
11.9157 -5.4066 -1.8664
11.9129 -4.1679 -1.8002
11.9102 -3.0051 -1.7521
11.9076 -1.8942 -1.7198
11.9051 -0.8149 -1.7021
11.9027 0.2507 -1.6981
11.9002 1.3199 -1.7078
11.8977 2.4101 -1.7315
11.8951 3.5402 -1.7702
37.5789 14.9517 -5.7688
31.6524 19.7336 -5.3203
28.6544 21.6426 -5.1219
27.5357 24.9558 -5.3006
-20.8045 14.7658 -3.6389
-20.7985 12.1256 -3.4340
-20.8734 9.7867 -3.2883
-20.8683 7.5944 -3.1675
-20.8636 5.5417 -3.0791
-20.8591 3.5853 -3.0189
-20.8547 1.6890 -2.9844
-26.7772 -0.2300 -3.8195
-26.7717 -2.6319 -3.8370
-23.8348 -4.5196 -3.4603
-20.8372 -5.9198 -3.0897
-20.8324 -7.9894 -3.1825
-20.7471 -10.1659 -3.2954
-20.8218 -12.6235 -3.4731
-20.8156 -15.3182 -3.6863
-20.8085 -18.3916 -3.9612
-29.9810 -31.6976 -6.2232
-25.1025 -38.4178 -6.5458
-17.7874 -42.0758 -6.5157
15.7029 -36.6624 -5.6888
18.1458 -33.6882 -5.4579
22.2334 -33.6788 -5.7562
10.8563 -13.6221 -2.4846
12.0292 -12.5984 -2.4846
12.0948 -10.5888 -2.2929
12.0907 -8.8099 -2.1338
12.0871 -7.2503 -2.0104
11.4575 -5.5472 -1.8157
11.9136 -4.5046 -1.8167
11.9109 -3.3232 -1.7638
11.9083 -2.2000 -1.7273
11.9058 -1.1138 -1.7056
11.9034 -0.0461 -1.6979
11.9009 1.0204 -1.7037
11.8984 2.1029 -1.7234
11.8959 3.2198 -1.7578
37.6747 13.9123 -5.7284
40.6954 19.3150 -6.4252
15.2923 9.0124 -2.5318
29.3351 21.0290 -5.1483
28.1886 24.2953 -5.3080
-17.7760 27.6712 -4.6911
-29.0542 31.1986 -6.0808
-20.8868 15.6216 -3.7203
-20.8805 12.8816 -3.4994
-20.7945 10.3898 -3.3156
-20.8697 8.1897 -3.1977
-20.8649 6.1028 -3.1008
-20.8603 4.1233 -3.0330
-20.8559 2.2137 -2.9915
-26.7788 0.4376 -3.8201
-26.7733 -1.9595 -3.8290
-26.7677 -4.3875 -3.8690
-20.7582 -5.3417 -3.0573
-20.8338 -7.3995 -3.1535
-20.7486 -9.5326 -3.2569
-20.8234 -11.9248 -3.4227
-20.8174 -14.5337 -3.6213
-20.8106 -17.4889 -3.8773
-29.0132 -29.1816 -5.8695
-26.4944 -38.4210 -6.6568
-22.6697 -40.1225 -6.5732
15.4471 -38.7036 -5.9439
17.0774 -33.6907 -5.3876
21.0486 -33.6815 -5.6651
10.5132 -13.8885 -2.4846
11.7113 -12.8944 -2.4846
12.0961 -11.1347 -2.3450
11.9956 -9.2072 -2.1569
12.0881 -7.6670 -2.0418
10.3293 -5.3229 -1.6574
11.9144 -4.8477 -1.8347
11.9117 -3.6459 -1.7768
11.9090 -2.5087 -1.7359
11.9065 -1.4141 -1.7102
11.9041 -0.3430 -1.6986
11.9016 0.7221 -1.7007
11.8991 1.7984 -1.7165
11.8966 2.9038 -1.7467
11.8939 4.0581 -1.7925
31.1444 21.1710 -5.3715
28.8359 23.6262 -5.3173
28.2442 27.7085 -5.6436
-20.8887 16.4509 -3.7925
-20.8822 13.6127 -3.5555
-20.7960 11.0468 -3.3588
-20.8711 8.7969 -3.2306
-20.8230 6.6583 -3.1182
-20.8616 4.6669 -3.0491
-20.7768 2.7306 -2.9890
-26.2678 1.0849 -3.7499
-26.7748 -1.2896 -3.8235
-26.7692 -3.7050 -3.8546
-22.6826 -5.2377 -3.3205
-20.7549 -6.7937 -3.1149
-20.8302 -8.9482 -3.2337
-20.8249 -11.2457 -3.3758
-20.8191 -13.7758 -3.5608
-20.8125 -16.6232 -3.7993
-20.7248 -19.8307 -4.0914
-28.4925 -39.1905 -6.9112
-23.1986 -38.7689 -6.4442
15.4355 -41.6630 -6.3373
16.0357 -33.6931 -5.3224
19.8999 -33.6842 -5.5804
10.1638 -14.1463 -2.4846
11.3862 -13.1824 -2.4846
12.0974 -11.7063 -2.4011
11.9967 -9.6927 -2.1999
10.2922 -6.8937 -1.7669
11.9183 -6.5227 -1.9379
11.9152 -5.1980 -1.8542
11.9124 -3.9735 -1.7912
11.9098 -2.8207 -1.7457
11.9072 -1.7162 -1.7159
11.9047 -0.6404 -1.7005
11.9023 0.4246 -1.6988
11.8998 1.4960 -1.7107
11.8973 2.5914 -1.7368
11.8947 3.7300 -1.7781
38.8075 16.1008 -5.9928
9.3153 5.9982 -1.5803
29.7507 23.1606 -5.3778
9.1831 8.5702 -1.7916
-17.8436 17.7028 -3.5852
-20.8907 17.3134 -3.8701
-20.8839 14.3683 -3.6157
-20.8779 11.7669 -3.4183
-20.7921 9.3808 -3.2536
-20.8675 7.2509 -3.1510
-20.8628 5.2166 -3.0674
-20.8584 3.2723 -3.0115
-20.8540 1.3827 -2.9810
-26.7764 -0.6211 -3.8203
-26.7708 -3.0272 -3.8428
-25.6086 -5.2445 -3.7285
-20.8365 -6.2498 -3.1028
-20.8316 -8.3399 -3.2006
-20.7462 -10.5439 -3.3194
-20.8208 -13.0424 -3.5043
-20.8145 -15.7910 -3.7266
-20.7271 -18.8659 -3.9977
-29.6511 -32.2802 -6.2519
-30.0177 -39.1955 -7.0418
-24.3083 -38.4159 -6.4843
15.7876 -35.4218 -5.5315
18.7847 -33.6867 -5.5015
9.3456 -13.7168 -2.3674
11.0540 -13.4621 -2.4846
12.0988 -12.3065 -2.4616
12.0941 -10.2801 -2.2640
11.9939 -8.4741 -2.0947
12.0866 -7.0120 -1.9931
11.9161 -5.5559 -1.8753
11.9132 -4.3067 -1.8069
11.9105 -3.1364 -1.7568
11.9079 -2.0206 -1.7228
11.9054 -0.9386 -1.7034
11.9030 0.1277 -1.6979
11.9005 1.1956 -1.7060
11.8980 2.2825 -1.7280
11.8954 3.4069 -1.7649
37.5924 14.5091 -5.7475
36.6842 22.3476 -6.1269
29.4584 21.7756 -5.2252
27.8060 24.6823 -5.3032
-20.8857 15.1503 -3.6803
-20.8795 12.4638 -3.4684
-20.8605 10.0448 -3.3024
-20.8689 7.8398 -3.1798
-20.8641 5.7732 -3.0878
-20.8596 3.8077 -3.0245
-20.8552 1.9061 -2.9871
-26.7779 0.0466 -3.8195
-26.7724 -2.3530 -3.8334
-25.2759 -4.5229 -3.6625
-20.8378 -5.6879 -3.0809
-20.8330 -7.7436 -3.1702
-20.8014 -9.9273 -3.2876
-20.8224 -12.3315 -3.4518
-20.8163 -14.9896 -3.6588
-20.8093 -18.0128 -3.9257
-17.7848 -22.0605 -4.0418
-25.6734 -38.4191 -6.5908
-23.4217 -42.9043 -6.9722
15.5195 -37.2939 -5.7616
17.6997 -33.6892 -5.4281
21.7378 -33.6799 -5.7177
10.7149 -13.7335 -2.4846
11.8983 -12.7220 -2.4846
12.0953 -10.8121 -2.3140
12.0912 -9.0030 -2.1502
11.9914 -7.3624 -2.0070
12.1014 -13.4387 -2.4659
12.0263 -11.1657 -2.2377
12.0920 -9.3634 -2.0854
12.0882 -7.7397 -1.9572
10.0258 -5.2208 -1.5413
11.9146 -4.9072 -1.7570
11.9118 -3.7016 -1.7009
11.9092 -2.5618 -1.6610
11.9066 -1.4657 -1.6358
11.9044 -0.3939 -1.6241
11.9017 0.6711 -1.6254
11.8992 1.7464 -1.6399
11.8967 2.8500 -1.6681
11.8941 4.0015 -1.7111
38.0696 16.7248 -5.6698
9.1910 6.1905 -1.5110
28.6880 23.3010 -5.0395
28.4851 27.7070 -5.4184
-20.8891 16.5961 -3.6379
-20.8825 13.7404 -3.4085
-20.8766 11.2042 -3.2307
-20.8713 8.9021 -3.0940
-20.7861 6.7446 -2.9798
-20.8618 4.7606 -2.9177
-20.8574 2.8319 -2.8701
-23.9213 1.0903 -3.2652
-26.7751 -1.1750 -3.6544
-26.7695 -3.5886 -3.6828
-23.1374 -5.2388 -3.2348
-20.8354 -6.7217 -2.9852
-20.8305 -8.8431 -3.0857
-20.8252 -11.1313 -3.2198
-20.8194 -13.6485 -3.3945
-20.8129 -16.4783 -3.6197
-20.8054 -19.7383 -3.9105
-28.1874 -38.4249 -6.4980
-23.3548 -38.6543 -6.1581
15.4964 -42.3818 -6.1532
15.8598 -33.6935 -5.0778
19.7068 -33.6846 -5.3214
10.5686 -14.8431 -2.4846
10.3614 -12.0999 -2.1722
12.0976 -11.8070 -2.3050
12.0590 -9.8284 -2.1213
12.0892 -8.1723 -1.9897
11.9184 -6.5891 -1.8570
11.9154 -5.2587 -1.7759
11.9125 -4.0301 -1.7148
11.9099 -2.8744 -1.6706
11.9073 -1.7682 -1.6414
11.9051 -0.6914 -1.6261
11.9024 0.3737 -1.6238
11.8999 1.4445 -1.6345
11.8974 2.5383 -1.6588
11.8948 3.6743 -1.6975
36.4811 14.9533 -5.3761
31.5998 20.1571 -5.1108
30.1792 23.2879 -5.1978
9.2402 8.5500 -1.7166
12.7947 43.2296 -6.1473
-17.6824 17.6934 -3.4109
-20.8833 17.4583 -3.7115
-20.8842 14.5003 -3.4668
-20.8782 11.8848 -3.2758
-20.8728 9.5246 -3.1284
-20.8678 7.3510 -3.0168
-20.8631 5.3114 -2.9355
-20.8586 3.3637 -2.8809
-20.8542 1.4722 -2.8507
-26.7766 -0.5068 -3.6518
-26.7711 -2.9115 -3.6719
-26.1832 -5.2458 -3.6412
-20.8367 -6.1530 -2.9625
-20.7516 -8.2053 -3.0428
-20.8267 -10.4731 -3.1787
-20.7409 -12.8694 -3.3283
-20.8148 -15.6517 -3.5511
-20.8076 -18.7773 -3.8217
-28.7128 -30.9921 -5.7608
-29.6915 -38.4283 -6.6218
-24.5389 -38.4165 -6.2158
15.7885 -35.8345 -5.3395
18.5968 -33.6872 -5.2469
9.2786 -13.7442 -2.2612
11.5029 -14.1314 -2.4846
12.0990 -12.4122 -2.3635
12.0943 -10.3696 -2.1723
12.0903 -8.6198 -2.0247
12.0867 -7.0813 -1.9101
11.5176 -5.4302 -1.7363
11.9133 -4.3643 -1.7300
11.9106 -3.1909 -1.6813
11.9080 -2.0729 -1.6481
11.9057 -0.9898 -1.6290
11.9031 0.0769 -1.6231
11.9006 1.1443 -1.6302
11.8981 2.2299 -1.6506
11.8956 3.3521 -1.6852
35.8165 13.6482 -5.2263
36.7361 22.1647 -5.8503
29.7831 21.8196 -5.0343
27.9094 24.5618 -5.0695
-20.8861 15.2871 -3.5293
-20.7994 12.5366 -3.3115
-20.8742 10.1615 -3.1656
-20.8691 7.9417 -3.0447
-20.8643 5.8693 -2.9554
-20.8598 3.8998 -2.8936
-20.8554 1.9960 -2.8567
-26.7781 0.1609 -3.6514
-26.7726 -2.2378 -3.6633
-25.9222 -4.5244 -3.5881
-20.8380 -5.5925 -2.9419
-20.8332 -7.6426 -3.0258
-20.8282 -9.8312 -3.1405
-20.7425 -12.1648 -3.2789
-20.7704 -14.8224 -3.4794
-20.8097 -17.8583 -3.7391
-20.7215 -21.2769 -4.0498
-25.9119 -38.4196 -6.3189
-22.6606 -41.0919 -6.3986
15.7518 -38.3125 -5.6484
17.5167 -33.6897 -5.1776
10.0500 -15.7182 -2.5439
11.1470 -14.4137 -2.4846
12.1005 -13.0493 -2.4266
12.0255 -10.8424 -2.2078
12.0913 -9.0836 -2.0621
12.0877 -7.4927 -1.9392
10.3696 -5.2088 -1.5823
11.9141 -4.7047 -1.7466
11.9114 -3.5116 -1.6933
11.9087 -2.3804 -1.6559
11.9062 -1.2895 -1.6330
11.9040 -0.2200 -1.6235
11.9013 0.8456 -1.6269
11.8988 1.9243 -1.6436
11.8963 3.0343 -1.6741
11.8936 4.1957 -1.7197
30.9832 21.5327 -5.1448
29.1859 24.4212 -5.1891
29.4175 29.4620 -5.6770
15.4376 43.9738 -6.3548
-20.8282 16.0573 -3.5860
-20.8011 13.2557 -3.3633
-20.7953 10.7725 -3.1934
-20.8705 8.5438 -3.0750
-20.8657 6.4352 -2.9774
-20.8611 4.4409 -2.9083
-20.8566 2.5222 -2.8646
-25.2832 0.7826 -3.4491
-26.7742 -1.5670 -3.6570
-26.7686 -3.9872 -3.6903
-21.6496 -5.2353 -3.0371
-20.8346 -7.0589 -2.9995
-20.8296 -9.2040 -3.1052
-20.8243 -11.5249 -3.2454
-20.8184 -14.0868 -3.4275
-20.8117 -16.9776 -3.6623
-20.7239 -20.2441 -3.9503
-27.3320 -38.4229 -6.4295
-22.8912 -39.1679 -6.1860
15.4627 -40.4485 -5.9047
16.4643 -33.6921 -5.1133
20.3717 -33.6831 -5.3676
10.7841 -14.6872 -2.4846
12.0524 -13.6657 -2.4846
12.0968 -11.4662 -2.2727
12.0924 -9.5653 -2.1024
10.3494 -6.7781 -1.6869
11.9179 -6.3634 -1.8422
11.9149 -5.0519 -1.7647
11.9121 -3.8371 -1.7065
11.9095 -2.6910 -1.6649
11.9069 -1.5908 -1.6380
11.9047 -0.5171 -1.6248
11.9020 0.5478 -1.6246
11.8995 1.6211 -1.6376
11.8970 2.7204 -1.6641
11.8944 3.8653 -1.7054
37.6629 16.0840 -5.5842
9.2057 6.0631 -1.5030
28.2457 22.4614 -4.9208
9.1136 8.6832 -1.7164
-20.8899 16.9518 -3.6683
-20.8832 14.0522 -3.4322
-20.8773 11.4840 -3.2490
-20.8719 9.1584 -3.1079
-20.8670 7.0099 -3.0016
-20.8623 4.9880 -2.9249
-20.8579 3.0518 -2.8744
-20.7732 1.1620 -2.8370
-26.7757 -0.8980 -3.6531
-17.6633 -2.1823 -2.4268
-24.3131 -5.2415 -3.3914
-20.8359 -6.4849 -2.9755
-20.8311 -8.5905 -3.0725
-20.7456 -10.8147 -3.1901
-20.8201 -13.3435 -3.3719
-20.8137 -16.1320 -3.5907
-20.8063 -19.3347 -3.8729
-28.8037 -38.4263 -6.5482
-23.7968 -38.4819 -6.1695
15.4766 -33.7808 -5.0666
19.2430 -33.6857 -5.2899
10.4146 -14.9515 -2.4846
11.7080 -13.9619 -2.4846
12.0928 -12.0488 -2.3277
11.9974 -9.9863 -2.1285
12.0897 -8.3558 -2.0039
11.9725 -6.7815 -1.8762
11.9157 -5.4066 -1.7842
11.9129 -4.1679 -1.7209
11.9102 -3.0051 -1.6749
11.9076 -1.8942 -1.6441
11.9053 -0.8149 -1.6272
11.9027 0.2507 -1.6234
11.9002 1.3199 -1.6326
11.8977 2.4101 -1.6553
11.8951 3.5402 -1.6923
36.2014 14.4036 -5.3126
31.6786 19.7499 -5.0903
28.6384 21.6306 -4.8937
27.5275 24.9483 -5.0657
-20.8045 14.7658 -3.4787
-20.7985 12.1256 -3.2828
-20.8734 9.7867 -3.1435
-20.8683 7.5944 -3.0281
-20.8636 5.5417 -2.9435
-20.8591 3.5853 -2.8860
-20.8547 1.6890 -2.8530
-26.7772 -0.2300 -3.6514
-26.7717 -2.6319 -3.6681
-26.7661 -5.0754 -3.7147
-20.8372 -5.9198 -2.9537
-20.8324 -7.9894 -3.0423
-20.8273 -10.2052 -3.1625
-20.7416 -12.5749 -3.3074
-20.8156 -15.3182 -3.5240
-20.8085 -18.3916 -3.7868
-29.9791 -31.6956 -5.9489
-25.1025 -38.4178 -6.2576
-22.6572 -42.5434 -6.5724
-17.7869 -42.0748 -6.2287
15.7029 -36.6624 -5.4384
18.1458 -33.6882 -5.2176
10.0489 -15.2219 -2.4871
11.3562 -14.2495 -2.4846
12.0996 -12.6721 -2.3891
12.0948 -10.5888 -2.1919
12.0907 -8.8099 -2.0399
12.0871 -7.2503 -1.9219
11.0458 -5.3479 -1.6734
11.9136 -4.5046 -1.7367
11.9109 -3.3232 -1.6861
11.9083 -2.2000 -1.6512
11.9059 -1.1138 -1.6305
11.9036 -0.0461 -1.6231
11.9009 1.0204 -1.6287
11.8984 2.1029 -1.6476
11.8959 3.2198 -1.6804
36.8320 13.6011 -5.3537
15.2919 9.0122 -2.4203
29.4400 21.1042 -4.9392
28.1801 24.2880 -5.0728
-17.7756 27.6705 -4.4845
-29.0522 31.1965 -5.8127
-20.8868 15.6216 -3.5565
-20.8001 12.8319 -3.3325
-20.8749 10.4299 -3.1819
-20.8697 8.1897 -3.0570
-20.8649 6.1028 -2.9642
-20.8603 4.1233 -2.8995
-20.8559 2.2137 -2.8598
-26.7788 0.4376 -3.6519
-26.7733 -1.9595 -3.6604
-26.7677 -4.3875 -3.6986
-20.7582 -5.3417 -2.9227
-20.8338 -7.3995 -3.0147
-20.7486 -9.5326 -3.1135
-20.8234 -11.9248 -3.2720
-20.8174 -14.5337 -3.4619
-20.8106 -17.4889 -3.7066
-20.8026 -20.9233 -4.0231
-26.4943 -38.4210 -6.3638
-22.6697 -40.1225 -6.2838
15.7092 -39.3602 -5.7787
17.0774 -33.6907 -5.1504
21.0486 -33.6815 -5.4157
10.9974 -14.5282 -2.4846
12.1011 -13.3235 -2.4542
12.0260 -11.0702 -2.2288
11.9956 -9.2072 -2.0619
12.0881 -7.6670 -1.9519
10.0257 -5.1664 -1.5379
11.9144 -4.8477 -1.7539
11.9117 -3.6459 -1.6986
11.9090 -2.5087 -1.6595
11.9065 -1.4141 -1.6349
11.9043 -0.3430 -1.6239
11.9016 0.7221 -1.6258
11.8991 1.7984 -1.6409
11.8966 2.9038 -1.6698
11.8939 4.0581 -1.7136
38.2180 16.9851 -5.7027
31.1718 21.1896 -5.1395
28.8769 23.6598 -5.0904
28.2445 27.7088 -5.3951
-20.8887 16.4509 -3.6255
-20.8822 13.6127 -3.3990
-20.8764 11.0896 -3.2233
-20.8711 8.7969 -3.0883
-20.8230 6.6583 -2.9809
-20.8616 4.6669 -2.9149
-20.7768 2.7306 -2.8574
-26.2678 1.0849 -3.5848
-26.7748 -1.2896 -3.6551
-26.7692 -3.7050 -3.6849
-22.6826 -5.2377 -3.1743
-20.7549 -6.7937 -2.9778
-20.8302 -8.9482 -3.0913
-20.8249 -11.2457 -3.2272
-20.8191 -13.7758 -3.4040
-20.8125 -16.6232 -3.6320
-20.8050 -19.9074 -3.9264
-27.9354 -38.4243 -6.4777
-23.1986 -38.7689 -6.1605
15.4951 -41.8239 -6.0817
16.0357 -33.6931 -5.0880
19.8999 -33.6842 -5.3347
10.6318 -14.7978 -2.4846
11.9106 -13.7895 -2.4846
12.0974 -11.7063 -2.2954
12.0929 -9.7704 -2.1199
10.2922 -6.8937 -1.6891
11.9183 -6.5228 -1.8526
11.9152 -5.1980 -1.7726
11.9124 -3.9735 -1.7123
11.9098 -2.8207 -1.6689
11.9072 -1.7162 -1.6404
11.9049 -0.6404 -1.6257
11.9023 0.4246 -1.6240
11.8998 1.4960 -1.6354
11.8973 2.5914 -1.6603
11.8947 3.7300 -1.6998
36.5986 15.1843 -5.4029
9.3150 5.9980 -1.5107
29.8344 23.2258 -5.1555
9.1831 8.5702 -1.7128
-17.8424 17.7017 -3.4271
-20.8907 17.3134 -3.6997
-20.8839 14.3683 -3.4565
-20.8779 11.7669 -3.2678
-20.7921 9.3808 -3.1103
-20.8675 7.2509 -3.0123
-20.8628 5.2166 -2.9323
-20.8584 3.2723 -2.8789
-20.8540 1.3827 -2.8498
-26.7763 -0.6211 -3.6521
-26.7708 -3.0272 -3.6736
-25.6086 -5.2445 -3.5643
-20.8365 -6.2498 -2.9662
-20.8316 -8.3399 -3.0597
-20.8265 -10.5847 -3.1855
-20.7406 -12.9921 -3.3371
-20.8145 -15.7910 -3.5625
-20.7271 -18.8659 -3.8217
-29.6492 -32.2781 -5.9763
-29.4297 -38.4277 -6.5999
-24.3083 -38.4159 -6.1988
15.7876 -35.4218 -5.2880
18.7847 -33.6867 -5.2593
9.3454 -13.7164 -2.2632
11.5631 -14.0821 -2.4846
12.0988 -12.3065 -2.3532
12.0941 -10.2801 -2.1644
11.9939 -8.4741 -2.0025
12.0866 -7.0120 -1.9053
11.6951 -5.4529 -1.7595
11.9132 -4.3067 -1.7273
11.9105 -3.1364 -1.6794
11.9079 -2.0206 -1.6469
11.9056 -0.9386 -1.6284
11.9030 0.1277 -1.6231
11.9005 1.1956 -1.6309
11.8980 2.2825 -1.6519
11.8954 3.4069 -1.6872
35.9279 13.8666 -5.2512
36.6895 22.3509 -5.8580
29.4416 21.7632 -4.9923
27.7976 24.6749 -5.0682
-20.8857 15.1503 -3.5183
-20.7991 12.4157 -3.3029
-20.8740 10.0513 -3.1591
-20.8689 7.8398 -3.0398
-20.8641 5.7732 -2.9518
-20.8596 3.8077 -2.8913
-20.8552 1.9061 -2.8556
-26.7779 0.0466 -3.6513
-26.7724 -2.3530 -3.6646
-25.2759 -4.5229 -3.5013
-20.8378 -5.6879 -2.9453
-20.8330 -7.7436 -3.0306
-20.8279 -9.9400 -3.1468
-20.7453 -12.2859 -3.2876
-20.8163 -14.9896 -3.4977
-20.8093 -18.0128 -3.7528
-20.7211 -21.4590 -4.0675
-17.7844 -22.0599 -3.8638
-25.6734 -38.4191 -6.3007
-22.6596 -41.5083 -6.4483
15.7054 -37.7406 -5.5740
17.6997 -33.6892 -5.1891
10.0497 -15.5707 -2.5270
11.2084 -14.3660 -2.4846
12.1002 -12.9378 -2.4155
12.0253 -10.7495 -2.1993
12.0912 -9.0030 -2.0555
11.9914 -7.3624 -1.9187
12.1014 -13.4387 -2.3525
12.1067 -11.2403 -2.1490
12.0920 -9.3634 -1.9895
12.0882 -7.7397 -1.8672
11.9176 -6.2059 -1.7479
11.9146 -4.9072 -1.6762
11.9118 -3.7016 -1.6227
11.9092 -2.5618 -1.5847
11.9066 -1.4657 -1.5606
11.9057 -0.3940 -1.5496
11.9017 0.6711 -1.5507
11.8992 1.7464 -1.5645
11.8967 2.8500 -1.5914
11.8941 4.0015 -1.6325
38.1918 16.7785 -5.4265
9.1906 6.1903 -1.4415
28.7283 23.3338 -4.8146
28.4854 27.7073 -5.1694
-20.8891 16.5961 -3.4706
-20.8825 13.7404 -3.2518
-20.8766 11.2042 -3.0822
-20.8713 8.9021 -2.9517
-20.7861 6.7445 -2.8428
-20.8618 4.7606 -2.7836
-20.8574 2.8319 -2.7381
-23.9213 1.0903 -3.1151
-26.7751 -1.1750 -3.4864
-26.7695 -3.5886 -3.5135
-23.1374 -5.2388 -3.0860
-20.8354 -6.7217 -2.8479
-20.8305 -8.8431 -2.9438
-20.8252 -11.1313 -3.0718
-20.8194 -13.6485 -3.2384
-20.8129 -16.4783 -3.4533
-20.8054 -19.7383 -3.7307
-28.1874 -38.4249 -6.1993
-23.3548 -38.6543 -5.8749
15.4791 -42.3346 -5.8637
15.8598 -33.6935 -4.8444
19.7068 -33.6846 -5.0767
11.0779 -15.5584 -2.4846
10.3614 -12.0999 -2.0723
12.0976 -11.8070 -2.1990
12.0931 -9.8562 -2.0295
12.0892 -8.1723 -1.8983
11.9184 -6.5891 -1.7716
11.9154 -5.2587 -1.6943
11.9125 -4.0301 -1.6359
11.9099 -2.8744 -1.5938
11.9073 -1.7682 -1.5660
11.9064 -0.6915 -1.5515
11.9024 0.3737 -1.5491
11.8999 1.4445 -1.5594
11.8974 2.5383 -1.5825
11.8948 3.6743 -1.6195
36.3931 14.9172 -5.1165
31.6261 20.1739 -4.8799
30.2650 23.3541 -4.9729
9.2402 8.5500 -1.6377
-17.6820 17.6929 -3.2539
-20.8833 17.4583 -3.5409
-20.8530 14.4786 -3.3024
-20.8782 11.8848 -3.1252
-20.8728 9.5246 -2.9846
-20.8678 7.3510 -2.8781
-20.8631 5.3114 -2.8006
-20.8586 3.3637 -2.7485
-20.8542 1.4722 -2.7196
-26.7766 -0.5068 -3.4839
-26.7711 -2.9114 -3.5031
-26.1832 -5.2458 -3.4738
-20.8367 -6.1530 -2.8263
-20.7516 -8.2053 -2.9029
-20.8267 -10.4731 -3.0325
-20.8211 -12.9192 -3.1876
-20.8148 -15.6517 -3.3878
-20.8076 -18.7773 -3.6460
-29.7441 -32.1052 -5.6933
-29.6915 -38.4283 -6.3173
-24.5389 -38.4165 -5.9300
-22.6548 -43.6190 -6.3939
15.7885 -35.8344 -5.0940
18.5968 -33.6872 -5.0056
9.2784 -13.7439 -2.1572
12.0572 -14.8124 -2.4846
12.0990 -12.4122 -2.2548
12.0943 -10.3696 -2.0724
12.0903 -8.6198 -1.9316
12.0867 -7.0813 -1.8223
11.0907 -5.2289 -1.5951
11.9133 -4.3643 -1.6505
11.9106 -3.1909 -1.6040
11.9080 -2.0729 -1.5724
11.9070 -0.9899 -1.5543
11.9031 0.0769 -1.5485
11.9006 1.1443 -1.5552
11.8981 2.2299 -1.5747
11.8956 3.3521 -1.6077
35.9206 13.6878 -5.0005
36.7414 22.1679 -5.5821
29.7660 21.8071 -4.8001
27.9011 24.5545 -4.8349
-20.8056 15.2282 -3.3540
-20.8798 12.5851 -3.1714
-20.8742 10.1615 -3.0201
-20.8691 7.9417 -2.9047
-20.8643 5.8693 -2.8195
-20.8598 3.8998 -2.7606
-20.8554 1.9960 -2.7254
-26.7782 0.1609 -3.4835
-26.7726 -2.2378 -3.4949
-25.9222 -4.5244 -3.4231
-20.8380 -5.5925 -2.8067
-20.8332 -7.6426 -2.8867
-20.8282 -9.8312 -2.9961
-20.7425 -12.1648 -3.1281
-20.7364 -14.7981 -3.3140
-20.8097 -17.8583 -3.5672
-20.8016 -21.3592 -3.8785
-31.2514 -38.4276 -6.4433
-25.9119 -38.4196 -6.0283
-22.6606 -41.0919 -6.1044
15.7945 -38.4164 -5.4033
17.5167 -33.6897 -4.9396
10.2886 -16.0913 -2.4846
11.6842 -15.1084 -2.4846
12.1005 -13.0493 -2.3150
12.1574 -10.9613 -2.1294
12.0913 -9.0836 -1.9673
12.0877 -7.4927 -1.8500
10.0254 -5.0359 -1.4595
11.9141 -4.7047 -1.6663
11.9114 -3.5116 -1.6154
11.9087 -2.3804 -1.5798
11.9062 -1.2895 -1.5579
11.9054 -0.2200 -1.5490
11.9013 0.8456 -1.5521
11.8988 1.9243 -1.5680
11.8963 3.0343 -1.5971
11.8936 4.1957 -1.6406
41.6255 19.0169 -5.9532
31.0105 21.5516 -4.9126
29.2301 24.4582 -4.9580
29.4298 29.4744 -5.4183
15.4485 44.0047 -6.0669
-20.8282 16.0573 -3.4212
-20.8815 13.3069 -3.2211
-20.7953 10.7725 -3.0466
-20.8705 8.5438 -2.9336
-20.8657 6.4352 -2.8405
-20.8611 4.4409 -2.7745
-20.8566 2.5222 -2.7329
-26.7790 0.8289 -3.4852
-26.7742 -1.5670 -3.4889
-26.7686 -3.9872 -3.5206
-21.6496 -5.2353 -2.8975
-20.8346 -7.0589 -2.8616
-20.8296 -9.2040 -2.9624
-20.8243 -11.5249 -3.0961
-20.8184 -14.0868 -3.2699
-20.8117 -16.9776 -3.4939
-20.7239 -20.2441 -3.7687
-27.3320 -38.4229 -6.1339
-22.8912 -39.1679 -5.9016
15.7343 -41.1590 -5.7321
16.4643 -33.6921 -4.8782
20.3717 -33.6831 -5.1208
11.3039 -15.3950 -2.4846
12.1020 -13.7219 -2.3801
12.0268 -11.3998 -2.1557
12.0924 -9.5653 -2.0057
10.3494 -6.7781 -1.6094
11.9179 -6.3634 -1.7575
11.9149 -5.0519 -1.6835
11.9121 -3.8371 -1.6280
11.9095 -2.6909 -1.5883
11.9069 -1.5908 -1.5627
11.9060 -0.5172 -1.5503
11.9020 0.5478 -1.5499
11.8995 1.6211 -1.5623
11.8970 2.7204 -1.5876
11.8944 3.8653 -1.6269
37.3641 15.9564 -5.2852
9.2055 6.0630 -1.4339
28.2845 22.4923 -4.7010
9.1136 8.6832 -1.6375
-20.8899 16.9518 -3.4996
-20.8832 14.0521 -3.2744
-20.8773 11.4840 -3.0996
-20.8719 9.1584 -2.9650
-20.8670 7.0099 -2.8636
-20.8623 4.9880 -2.7904
-20.8579 3.0518 -2.7422
-20.7732 1.1620 -2.7065
-26.7757 -0.8980 -3.4851
-17.6628 -2.1823 -2.3152
-24.3131 -5.2415 -3.2355
-20.8359 -6.4850 -2.8387
-20.8311 -8.5905 -2.9312
-20.7456 -10.8147 -3.0434
-20.8201 -13.3435 -3.2169
-20.8137 -16.1320 -3.4256
-20.8063 -19.3347 -3.6948
-28.2407 -31.3897 -5.4927
-28.8037 -38.4263 -6.2472
-23.7968 -38.4819 -5.8858
15.4766 -33.7808 -4.8337
19.2430 -33.6857 -5.0466
10.9166 -15.6721 -2.4846
12.1037 -14.4338 -2.4504
12.0928 -12.0488 -2.2207
11.9974 -9.9863 -2.0306
12.0897 -8.3558 -1.9118
11.9725 -6.7815 -1.7899
11.7580 -5.3350 -1.6796
11.9129 -4.1679 -1.6418
11.9102 -3.0051 -1.5979
11.9076 -1.8942 -1.5685
11.9067 -0.8150 -1.5525
11.9027 0.2507 -1.5487
11.9002 1.3199 -1.5575
11.8977 2.4101 -1.5792
11.8951 3.5402 -1.6145
36.3083 14.4462 -5.0833
35.9576 22.4176 -5.5122
30.8373 23.2914 -5.0272
27.5192 24.9408 -4.8313
-20.8045 14.7658 -3.3187
-20.7985 12.1256 -3.1318
-20.8734 9.7867 -2.9990
-20.8683 7.5944 -2.8889
-20.8636 5.5417 -2.8082
-20.8591 3.5853 -2.7533
-20.8547 1.6890 -2.7218
-26.7772 -0.2300 -3.4835
-26.7717 -2.6319 -3.4994
-26.7661 -5.0754 -3.5439
-20.8372 -5.9198 -2.8179
-20.8324 -7.9894 -2.9025
-20.8273 -10.2052 -3.0171
-20.8218 -12.6235 -3.1675
-20.7354 -15.2592 -3.3490
-20.8085 -18.3916 -3.6127
-29.9772 -31.6936 -5.6750
-30.3317 -38.4298 -6.3687
-25.1025 -38.4178 -5.9699
-22.6572 -42.5434 -6.2702
-17.7865 -42.0738 -5.9422
15.7029 -36.6624 -5.1883
18.1458 -33.6882 -4.9777
10.5225 -15.9393 -2.4846
11.9035 -14.9362 -2.4846
12.0996 -12.6721 -2.2792
12.0948 -10.5888 -2.0911
12.0907 -8.8100 -1.9461
12.0871 -7.2503 -1.8335
10.6020 -5.1330 -1.5323
11.9136 -4.5046 -1.6569
11.9109 -3.3232 -1.6086
11.9083 -2.2000 -1.5753
11.9073 -1.1139 -1.5557
11.9040 -0.0461 -1.5486
11.9009 1.0204 -1.5538
11.8984 2.1029 -1.5718
11.8959 3.2198 -1.6032
36.8271 13.5992 -5.1069
15.2915 9.0120 -2.3090
29.5456 21.1799 -4.7290
28.1717 24.2808 -4.8381
-17.7752 27.6698 -4.2782
-29.0502 31.1943 -5.5451
-20.8868 15.6216 -3.3930
-20.8805 12.8816 -3.1916
-20.8749 10.4299 -3.0356
-20.8697 8.1897 -2.9164
-20.8649 6.1028 -2.8279
-20.8603 4.1233 -2.7661
-20.8559 2.2137 -2.7283
-26.7788 0.4376 -3.4840
-26.7733 -1.9595 -3.4921
-26.7677 -4.3875 -3.5286
-20.7582 -5.3417 -2.7883
-20.8338 -7.3995 -2.8760
-20.7486 -9.5326 -2.9703
-20.8234 -11.9248 -3.1216
-20.7372 -14.4777 -3.2900
-20.8106 -17.4889 -3.5362
-20.8026 -20.9234 -3.8382
-26.4943 -38.4210 -6.0712
-22.6697 -40.1225 -5.9949
15.7092 -39.3602 -5.5130
17.0774 -33.6907 -4.9136
10.1218 -16.1967 -2.4846
11.5274 -15.2283 -2.4846
12.1011 -13.3235 -2.3414
12.1520 -11.1862 -2.1486
11.9956 -9.2072 -1.9671
12.0881 -7.6670 -1.8621
11.9174 -6.1413 -1.7440
11.9144 -4.8477 -1.6733
11.9117 -3.6459 -1.6205
11.9090 -2.5087 -1.5832
11.9065 -1.4141 -1.5598
11.9056 -0.3431 -1.5494
11.9016 0.7221 -1.5511
11.8991 1.7984 -1.5655
11.8966 2.9038 -1.5930
11.8939 4.0581 -1.6348
38.3414 17.0400 -5.4581
31.1992 21.2082 -4.9075
28.9180 23.6934 -4.8632
28.2449 27.7091 -5.1471
-20.8887 16.4509 -3.4588
-20.8822 13.6127 -3.2427
-20.8764 11.0896 -3.0751
-20.8711 8.7969 -2.9463
-20.8229 6.6583 -2.8439
-20.8616 4.6669 -2.7809
-20.7768 2.7306 -2.7260
-26.2679 1.0849 -3.4200
-26.7748 -1.2896 -3.4871
-26.7692 -3.7050 -3.5155
-22.6826 -5.2377 -3.0283
-20.7549 -6.7937 -2.8409
-20.8302 -8.9482 -2.9492
-20.8249 -11.2457 -3.0788
-20.8191 -13.7758 -3.2475
-20.8125 -16.6232 -3.4650
-20.8050 -19.9074 -3.7458
-27.9354 -38.4243 -6.1799
-23.1986 -38.7689 -5.8773
15.5039 -41.8478 -5.8054
16.0357 -33.6931 -4.8541
19.8999 -33.6842 -5.0894
11.1442 -15.5110 -2.4846
12.1027 -14.0119 -2.4086
12.0274 -11.6386 -2.1772
12.0929 -9.7704 -2.0224
10.2922 -6.8937 -1.6115
11.9183 -6.5227 -1.7674
11.9152 -5.1980 -1.6911
11.9124 -3.9735 -1.6336
11.9098 -2.8207 -1.5922
11.9072 -1.7162 -1.5650
11.9063 -0.6405 -1.5511
11.9023 0.4246 -1.5493
11.8998 1.4960 -1.5602
11.8973 2.5914 -1.5840
11.8947 3.7300 -1.6216
36.3912 15.0982 -5.1252
9.3148 5.9979 -1.4412
29.9186 23.2913 -4.9323
9.1831 8.5702 -1.6340
12.8292 44.0366 -5.9667
-17.8413 17.7006 -3.2693
-20.8907 17.3134 -3.5296
-20.8839 14.3684 -3.2976
-20.8779 11.7669 -3.1176
-20.7921 9.3808 -2.9673
-20.8675 7.2509 -2.8738
-20.8628 5.2166 -2.7975
-20.8584 3.2723 -2.7466
-20.8540 1.3827 -2.7188
-26.7763 -0.6211 -3.4842
-26.7708 -3.0272 -3.5047
-25.6086 -5.2445 -3.4005
-20.8365 -6.2498 -2.8298
-20.8316 -8.3399 -2.9190
-20.8265 -10.5847 -3.0391
-20.8208 -13.0424 -3.1960
-20.8145 -15.7910 -3.3987
-20.7271 -18.8659 -3.6460
-29.6473 -32.2761 -5.7011
-29.4297 -38.4277 -6.2965
-24.3083 -38.4159 -5.9138
-22.6537 -44.0762 -6.4467
15.7876 -35.4218 -5.0448
18.7847 -33.6867 -5.0175
9.3451 -13.7161 -2.1590
12.1044 -14.7413 -2.4813
12.0988 -12.3065 -2.2450
12.0941 -10.2802 -2.0648
11.9939 -8.4741 -1.9104
12.0866 -7.0120 -1.8177
11.3049 -5.2710 -1.6226
11.9132 -4.3067 -1.6479
11.9105 -3.1364 -1.6022
11.9079 -2.0206 -1.5712
11.9069 -0.9387 -1.5537
11.9030 0.1277 -1.5485
11.9005 1.1956 -1.5559
11.8980 2.2825 -1.5760
11.8954 3.4069 -1.6096
36.0327 13.9071 -5.0244
36.6947 22.3541 -5.5895
29.4250 21.7509 -4.7600
27.7893 24.6675 -4.8338
-20.8053 15.0920 -3.3436
-20.8795 12.4638 -3.1633
-20.8740 10.0513 -3.0138
-20.8689 7.8398 -2.9000
-20.8641 5.7732 -2.8161
-20.8596 3.8077 -2.7584
-20.8552 1.9061 -2.7243
-26.7779 0.0466 -3.4834
-26.7724 -2.3530 -3.4961
-25.2759 -4.5229 -3.3403
-20.8378 -5.6879 -2.8099
-20.8330 -7.7436 -2.8912
-20.8279 -9.9400 -3.0022
-20.8224 -12.3315 -3.1481
-20.7361 -14.9319 -3.3241
-20.8093 -18.0128 -3.5803
-20.8012 -21.5419 -3.8955
-17.7840 -22.0594 -3.6860
-25.6734 -38.4191 -6.0110
-22.6596 -41.5083 -6.1518
15.7054 -37.7406 -5.3177
17.6997 -33.6892 -4.9505
10.3572 -16.0472 -2.4846
11.7486 -15.0584 -2.4846
12.1002 -12.9378 -2.3044
12.0253 -10.7495 -2.0982
12.0912 -9.0030 -1.9610
11.9914 -7.3624 -1.8305
12.0295 -13.3589 -2.2260
12.1582 -11.2881 -2.0543
12.0920 -9.3634 -1.8937
12.0882 -7.7397 -1.7774
11.9176 -6.2059 -1.6638
11.9153 -4.9075 -1.5957
11.9118 -3.7016 -1.5446
11.9092 -2.5618 -1.5084
11.9066 -1.4657 -1.4855
12.0194 -0.3977 -1.4891
11.9017 0.6711 -1.4761
11.8992 1.7464 -1.4892
11.8968 2.8500 -1.5148
11.8943 4.0016 -1.5539
37.9201 16.6592 -5.1287
9.1903 6.1900 -1.3721
28.7688 23.3667 -4.5894
27.8944 27.1325 -4.8186
-20.8816 16.5902 -3.3024
-20.8825 13.7404 -3.0954
-20.8766 11.2042 -2.9339
-20.8713 8.9021 -2.8097
-20.7861 6.7445 -2.7060
-20.8618 4.7606 -2.6497
-20.8574 2.8319 -2.6064
-23.9213 1.0903 -2.9652
-33.3026 -1.4615 -4.1277
-26.7695 -3.5886 -3.3444
-23.1374 -5.2388 -2.9376
-20.8354 -6.7217 -2.7109
-20.8305 -8.8431 -2.8022
-20.8252 -11.1313 -2.9240
-20.8194 -13.6485 -3.0826
-20.8129 -16.4783 -3.2872
-20.8054 -19.7383 -3.5512
-28.1874 -38.4249 -5.9010
-23.3548 -38.6543 -5.5923
15.6879 -42.9057 -5.6569
15.8598 -33.6935 -4.6113
19.7068 -33.6846 -4.8324
11.6379 -16.3449 -2.4846
10.3614 -12.0999 -1.9726
12.0976 -11.8070 -2.0932
12.0931 -9.8562 -1.9318
12.0892 -8.1723 -1.8069
11.9184 -6.5891 -1.6863
11.8224 -5.2177 -1.6002
11.9125 -4.0301 -1.5572
11.9099 -2.8744 -1.5171
11.9073 -1.7682 -1.4906
12.0201 -0.6981 -1.4909
11.9024 0.3737 -1.4746
11.8999 1.4445 -1.4843
11.8975 2.5383 -1.5064
11.8950 3.6744 -1.5416
36.5283 14.9727 -4.8884
31.6524 20.1907 -4.6489
31.0948 23.9944 -4.8634
9.2402 8.5500 -1.5589
-17.6815 17.6925 -3.0973
-20.8106 17.3975 -3.3588
-20.8842 14.5003 -3.1482
-20.8782 11.8848 -2.9748
-20.8728 9.5246 -2.8410
-20.8678 7.3510 -2.7396
-20.8631 5.3114 -2.6658
-20.8586 3.3637 -2.6162
-20.8542 1.4722 -2.5887
-33.3045 -0.6303 -4.1247
-26.7711 -2.9114 -3.3345
-26.1832 -5.2458 -3.3066
-20.8367 -6.1530 -2.6903
-20.7516 -8.2053 -2.7632
-20.8267 -10.4731 -2.8866
-20.8211 -12.9192 -3.0342
-20.8148 -15.6517 -3.2248
-20.8076 -18.7773 -3.4706
-28.6736 -30.9498 -5.2244
-29.6915 -38.4283 -6.0134
-24.5389 -38.4165 -5.6446
-22.6548 -43.6191 -6.0863
15.7885 -35.8344 -4.8489
18.5968 -33.6872 -4.7648
9.2782 -13.7436 -2.0533
12.1047 -14.8707 -2.3743
12.0990 -12.4122 -2.1463
12.0943 -10.3696 -1.9727
12.0903 -8.6198 -1.8386
12.0867 -7.0813 -1.7346
10.6462 -5.0193 -1.4575
11.9145 -4.3648 -1.5712
11.9106 -3.1909 -1.5269
11.9080 -2.0729 -1.4967
12.0208 -0.9994 -1.4936
11.9031 0.0769 -1.4740
11.9006 1.1443 -1.4804
11.8982 2.2299 -1.4990
11.8957 3.3521 -1.5304
36.0251 13.7277 -4.7738
34.6601 20.9121 -5.0125
30.5443 22.3772 -4.6886
27.8927 24.5471 -4.6009
-24.6865 21.7059 -4.0704
-20.8861 15.2871 -3.2050
-20.8798 12.5851 -3.0188
-20.8742 10.1615 -2.8748
-20.8691 7.9417 -2.7649
-20.8643 5.8693 -2.6838
-20.8598 3.8998 -2.6278
-20.8554 1.9960 -2.5943
-33.3064 0.2002 -4.1243
-33.2995 -2.7834 -4.1378
-26.7670 -4.6719 -3.3646
-20.8380 -5.5925 -2.6716
-20.8332 -7.6426 -2.7478
-20.8282 -9.8312 -2.8520
-20.7425 -12.1648 -2.9776
-20.7704 -14.8224 -3.1597
-20.8097 -17.8583 -3.3956
-20.8016 -21.3592 -3.6919
-31.2514 -38.4276 -6.1333
-25.9119 -38.4196 -5.7383
-22.6606 -41.0919 -5.8107
15.7945 -38.4164 -5.1433
17.5167 -33.6897 -4.7019
21.5349 -33.6804 -4.9502
12.1065 -15.6544 -2.4505
12.0286 -12.9718 -2.1906
12.1574 -10.9613 -2.0270
12.0913 -9.0836 -1.8727
12.0877 -7.4927 -1.7610
10.0254 -5.0359 -1.3892
11.9150 -4.7051 -1.5863
11.9114 -3.5116 -1.5377
11.9087 -2.3804 -1.5038
11.9062 -1.2895 -1.4829
12.0190 -0.2221 -1.4885
11.9013 0.8456 -1.4774
11.8988 1.9243 -1.4925
11.8964 3.0343 -1.5203
11.8938 4.1958 -1.5617
40.9935 18.7281 -5.5807
31.3445 21.7838 -4.7266
29.1985 24.4318 -4.7143
27.6006 27.6423 -4.8370
15.4481 44.0036 -5.7748
-20.8282 16.0573 -3.2565
-20.8815 13.3069 -3.0661
-20.7953 10.7725 -2.9000
-20.8705 8.5438 -2.7925
-20.8657 6.4352 -2.7038
-20.8611 4.4409 -2.6410
-20.8566 2.5222 -2.6014
-33.3083 1.0310 -4.1264
-33.3015 -1.9490 -4.1307
-26.7686 -3.9872 -3.3512
-21.6496 -5.2353 -2.7581
-20.8346 -7.0589 -2.7239
-20.8297 -9.2040 -2.8198
-20.8243 -11.5249 -2.9472
-20.8184 -14.0868 -3.1126
-20.7316 -16.9122 -3.3130
-20.7239 -20.2441 -3.5874
-27.3320 -38.4229 -5.8387
-22.8912 -39.1679 -5.6176
15.8012 -41.3340 -5.4795
16.4643 -33.6921 -4.6435
20.3717 -33.6831 -4.8744
11.8753 -16.1732 -2.4846
12.1020 -13.7219 -2.2656
12.1587 -11.5248 -2.0744
12.0924 -9.5652 -1.9092
10.3494 -6.7781 -1.5319
11.9179 -6.3634 -1.6729
11.9155 -5.0522 -1.6026
11.9121 -3.8371 -1.5497
11.9095 -2.6909 -1.5119
11.9069 -1.5908 -1.4875
12.0197 -0.5221 -1.4898
11.9020 0.5478 -1.4753
11.8995 1.6211 -1.4871
11.8971 2.7205 -1.5112
11.8946 3.8654 -1.5487
37.0704 15.8310 -4.9914
9.2052 6.0628 -1.3649
28.3234 22.5232 -4.4809
9.1136 8.6832 -1.5587
12.8015 45.6943 -5.8760
-20.8094 16.8865 -3.3184
-20.8832 14.0521 -3.1168
-20.8773 11.4840 -2.9505
-20.8719 9.1584 -2.8224
-20.8670 7.0099 -2.7258
-20.8623 4.9880 -2.6561
-20.8579 3.0518 -2.6103
-20.7732 1.1620 -2.5763
-33.3034 -1.1169 -4.1262
-17.6624 -2.1822 -2.2037
-24.3131 -5.2415 -3.0798
-20.8359 -6.4850 -2.7021
-20.8311 -8.5905 -2.7902
-20.7456 -10.8147 -2.8970
-20.8201 -13.3435 -3.0621
-20.8137 -16.1320 -3.2608
-20.8063 -19.3347 -3.5171
-28.0851 -31.2168 -5.1997
-28.8037 -38.4263 -5.9466
-23.7968 -38.4819 -5.6026
15.4766 -33.7808 -4.6011
19.2430 -33.6857 -4.8038
11.4684 -16.4642 -2.4846
12.1037 -14.4338 -2.3325
12.0928 -12.0488 -2.1138
11.9974 -9.9863 -1.9329
12.0897 -8.3558 -1.8198
11.9725 -6.7815 -1.7038
11.3526 -5.1511 -1.5437
11.9142 -4.1684 -1.5630
11.9102 -3.0051 -1.5210
11.9076 -1.8942 -1.4930
12.0204 -0.8228 -1.4919
11.9027 0.2507 -1.4742
11.9002 1.3199 -1.4826
11.8978 2.4101 -1.5032
11.8953 3.5403 -1.5368
36.2872 14.4378 -4.8359
34.7382 21.6574 -5.0690
31.0118 23.4232 -4.8124
27.5110 24.9334 -4.5975
-24.6850 21.0735 -4.0190
-20.8045 14.7658 -3.1591
-20.7985 12.1256 -2.9811
-20.8734 9.7867 -2.8547
-20.8683 7.5944 -2.7499
-20.8636 5.5417 -2.6731
-20.8591 3.5853 -2.6208
-20.8547 1.6890 -2.5908
-33.3053 -0.2861 -4.1242
-26.7717 -2.6319 -3.3310
-26.7661 -5.0754 -3.3734
-20.8372 -5.9198 -2.6823
-20.8324 -7.9894 -2.7628
-20.8273 -10.2052 -2.8719
-20.8218 -12.6235 -3.0151
-20.8156 -15.3182 -3.2002
-20.8085 -18.3916 -3.4388
-30.3317 -38.4298 -6.0623
-25.1025 -38.4178 -5.6826
-22.6572 -42.5434 -5.9685
-17.7861 -42.0728 -5.6561
15.7029 -36.6624 -4.9387
18.1458 -33.6882 -4.7382
22.2334 -33.6788 -4.9971
12.1054 -15.1895 -2.4051
12.0278 -12.5969 -2.1567
12.0948 -10.5888 -1.9905
12.0907 -8.8100 -1.8524
12.0871 -7.2503 -1.7453
10.1932 -4.9351 -1.4023
11.9147 -4.5050 -1.5773
11.9109 -3.3232 -1.5312
11.9083 -2.2000 -1.4995
11.9076 -1.1140 -1.4809
11.9040 -0.0461 -1.4741
11.9009 1.0204 -1.4791
11.8985 2.1029 -1.4962
11.8960 3.2199 -1.5260
36.5674 13.5034 -4.8269
15.2912 9.0118 -2.1978
29.6517 21.2560 -4.5176
28.1633 24.2735 -4.6039
18.7971 27.9994 -4.1759
-17.7748 27.6692 -4.0722
-29.0482 31.1922 -5.2779
-24.6875 22.1633 -4.1081
-20.8868 15.6216 -3.2297
-20.8805 12.8816 -3.0380
-20.8749 10.4299 -2.8895
-20.8697 8.1897 -2.7761
-20.8649 6.1028 -2.6919
-20.8603 4.1233 -2.6330
-20.8559 2.2137 -2.5970
-33.3072 0.5443 -4.1249
-33.3003 -2.4373 -4.1345
-26.7677 -4.3875 -3.3588
-20.7582 -5.3417 -2.6542
-20.8338 -7.3995 -2.7377
-20.7486 -9.5326 -2.8274
-20.8234 -11.9249 -2.9714
-20.8174 -14.5337 -3.1438
-20.8106 -17.4889 -3.3660
-20.8026 -20.9234 -3.6535
-26.4943 -38.4210 -5.7790
-22.6697 -40.1224 -5.7064
15.7092 -39.3602 -5.2477
17.0774 -33.6907 -4.6772
10.3143 -16.5048 -2.4100
12.1072 -15.9943 -2.4840
12.0292 -13.2444 -2.2155
12.1579 -11.1916 -2.0462
11.9956 -9.2072 -1.8725
12.0881 -7.6670 -1.7725
11.9174 -6.1413 -1.6601
11.9152 -4.8481 -1.5929
11.9117 -3.6459 -1.5425
11.9090 -2.5087 -1.5070
11.9065 -1.4141 -1.4847
12.0193 -0.3464 -1.4889
11.9016 0.7221 -1.4764
11.8991 1.7984 -1.4902
11.8967 2.9038 -1.5164
11.8941 4.0582 -1.5562
38.4654 17.0951 -5.2123
31.4261 21.3624 -4.7053
28.9591 23.7271 -4.6358
27.8087 27.2812 -4.8238
-20.8887 16.4509 -3.2924
-20.8822 13.6127 -3.0867
-20.8764 11.0896 -2.9271
-20.8711 8.7969 -2.8046
-20.8230 6.6583 -2.7070
-20.8616 4.6669 -2.6471
-20.7768 2.7306 -2.5948
-26.2678 1.0849 -3.2554
-33.3023 -1.6040 -4.1285
-26.7692 -3.7050 -3.3463
-22.6826 -5.2377 -2.8826
-20.7549 -6.7937 -2.7042
-20.8302 -8.9482 -2.8073
-20.8249 -11.2457 -2.9307
-20.8191 -13.7758 -3.0912
-20.7450 -16.5692 -3.2876
-20.8050 -19.9074 -3.5656
-27.9354 -38.4243 -5.8825
-23.1986 -38.7689 -5.5945
15.7162 -42.4207 -5.6017
16.0357 -33.6931 -4.6205
19.8999 -33.6842 -4.8445
11.7076 -16.2950 -2.4846
12.1027 -14.0119 -2.2927
12.0274 -11.6386 -2.0724
12.0929 -9.7704 -1.9251
10.2922 -6.8937 -1.5339
11.9183 -6.5227 -1.6824
11.9152 -5.1980 -1.6097
11.9124 -3.9735 -1.5550
11.9098 -2.8207 -1.5155
11.9072 -1.7162 -1.4897
12.0200 -0.6466 -1.4906
11.9023 0.4246 -1.4748
11.8998 1.4960 -1.4851
11.8974 2.5915 -1.5078
11.8949 3.7301 -1.5436
36.5266 15.1545 -4.8968
9.3145 5.9977 -1.3718
31.1285 24.2332 -4.8849
9.1831 8.5702 -1.5554
-17.8402 17.6995 -3.1118
-20.8103 17.2467 -3.3468
-20.8839 14.3683 -3.1389
-20.8779 11.7669 -2.9676
-20.7921 9.3808 -2.8245
-20.8675 7.2509 -2.7355
-20.8628 5.2166 -2.6629
-20.8584 3.2723 -2.6144
-20.8540 1.3827 -2.5880
-33.3042 -0.7726 -4.1251
-26.7708 -3.0272 -3.3361
-25.6086 -5.2445 -3.2368
-20.8365 -6.2498 -2.6937
-20.8316 -8.3399 -2.7786
-20.8265 -10.5847 -2.8928
-20.8208 -13.0424 -3.0422
-20.8145 -15.7910 -3.2352
-20.7271 -18.8659 -3.4705
-28.5393 -31.0698 -5.2240
-29.4297 -38.4277 -5.9935
-24.3083 -38.4159 -5.6293
-22.6537 -44.0762 -6.1365
15.7876 -35.4217 -4.8021
18.7847 -33.6867 -4.7760
9.3449 -13.7158 -2.0551
12.1044 -14.7413 -2.3619
12.0988 -12.3065 -2.1370
12.0941 -10.2801 -1.9655
11.9939 -8.4741 -1.8185
12.0866 -7.0120 -1.7303
10.8443 -5.0562 -1.4816
11.9144 -4.3071 -1.5688
11.9105 -3.1364 -1.5251
11.9079 -2.0206 -1.4956
12.0207 -0.9477 -1.4931
11.9030 0.1277 -1.4740
11.9005 1.1956 -1.4810
11.8981 2.2825 -1.5002
11.8956 3.4070 -1.5322
36.1381 13.9478 -4.7966
34.8372 21.2225 -5.0512
30.1820 22.3105 -4.6476
27.7810 24.6602 -4.5998
-24.6861 21.5194 -4.0552
-20.8857 15.1503 -3.1950
-20.8795 12.4638 -3.0111
-20.8740 10.0513 -2.8688
-20.8689 7.8398 -2.7605
-20.8641 5.7732 -2.6806
-20.8596 3.8077 -2.6257
-20.8552 1.9061 -2.5932
-33.3061 0.0579 -4.1242
-33.2992 -2.9266 -4.1392
-26.7667 -4.7897 -3.3671
-20.8378 -5.6879 -2.6747
-20.8330 -7.7436 -2.7521
-20.8279 -9.9400 -2.8577
-20.8224 -12.3315 -2.9966
-20.8163 -14.9896 -3.1764
-20.8093 -18.0128 -3.4080
-20.8012 -21.5419 -3.7081
-17.7835 -22.0589 -3.5086
-25.6734 -38.4191 -5.7218
-22.6596 -41.5083 -5.8558
15.7054 -37.7406 -5.0618
17.6997 -33.6892 -4.7123
21.7378 -33.6799 -4.9637
12.1062 -15.5167 -2.4370
12.0284 -12.8610 -2.1805
12.0253 -10.7495 -1.9973
12.0912 -9.0030 -1.8667
11.9914 -7.3624 -1.7424
12.1014 -13.4387 -2.1263
12.1582 -11.2881 -1.9507
12.0920 -9.3634 -1.7982
12.0882 -7.7397 -1.6877
11.9176 -6.2059 -1.5798
11.9167 -4.9081 -1.5153
11.9118 -3.7016 -1.4666
11.9092 -2.5618 -1.4323
11.9066 -1.4657 -1.4105
12.0194 -0.3977 -1.4140
11.9017 0.6711 -1.4016
12.0265 1.7651 -1.4292
12.0209 2.8798 -1.4534
11.9062 4.0056 -1.4770
38.4380 16.8867 -4.9363
9.1899 6.1897 -1.3028
28.8093 23.3996 -4.3639
27.9368 27.1738 -4.5823
19.9855 27.9687 -4.0417
-24.6906 23.5037 -4.0081
-20.8891 16.5961 -3.1369
-20.8825 13.7404 -2.9391
-20.8766 11.2042 -2.7858
-20.8713 8.9021 -2.6679
-20.7861 6.7445 -2.5694
-20.8618 4.7606 -2.5159
-20.7770 2.8210 -2.4653
-23.9213 1.0903 -2.8155
-33.3026 -1.4615 -3.9194
-33.2957 -4.4635 -3.9498
-23.1375 -5.2388 -2.7893
-20.8354 -6.7217 -2.5741
-20.8305 -8.8431 -2.6608
-20.8252 -11.1313 -2.7764
-20.8194 -13.6485 -2.9270
-20.8129 -16.4783 -3.1212
-20.8054 -19.7383 -3.3720
-28.1874 -38.4249 -5.6031
-23.3548 -38.6543 -5.3100
15.6879 -42.9057 -5.3714
15.8598 -33.6935 -4.3785
19.7068 -33.6846 -4.5885
16.2387 -22.8065 -3.2918
10.3614 -12.0999 -1.8730
12.0976 -11.8070 -1.9876
12.0931 -9.8562 -1.8343
12.0892 -8.1723 -1.7157
11.9184 -6.5891 -1.6012
11.4020 -5.0322 -1.4654
11.9125 -4.0301 -1.4786
11.9099 -2.8744 -1.4405
11.9073 -1.7682 -1.4154
12.0201 -0.6981 -1.4157
11.9024 0.3737 -1.4001
11.8999 1.4445 -1.4094
12.0225 2.5650 -1.4454
12.0021 3.7074 -1.4770
36.5263 14.9719 -4.6414
31.6787 20.2075 -4.4180
31.1262 24.0187 -4.6226
9.2402 8.5500 -1.4802
-17.6810 17.6920 -2.9409
-20.8833 17.4583 -3.2004
-20.8842 14.5003 -2.9893
-20.8782 11.8848 -2.8247
-20.8728 9.5246 -2.6976
-20.8678 7.3510 -2.6013
-20.8631 5.3114 -2.5313
-20.7782 3.3507 -2.4746
-20.7739 1.4666 -2.4486
-33.3045 -0.6303 -3.9165
-33.2976 -3.6212 -3.9381
-26.1832 -5.2458 -3.1397
-20.8367 -6.1530 -2.5545
-20.7516 -8.2053 -2.6237
-20.8267 -10.4731 -2.7409
-20.8211 -12.9192 -2.8811
-20.8148 -15.6517 -3.0620
-20.7583 -18.7327 -3.2876
-28.6745 -30.9508 -4.9608
-29.6915 -38.4283 -5.7098
-24.5389 -38.4165 -5.3597
-22.6548 -43.6191 -5.7791
15.7885 -35.8344 -4.6041
18.5968 -33.6872 -4.5243
9.2780 -13.7432 -1.9496
12.0640 -14.8208 -2.2469
12.0990 -12.4122 -2.0380
12.0943 -10.3696 -1.8731
12.0903 -8.6198 -1.7458
12.0867 -7.0813 -1.6471
10.2366 -4.8262 -1.3306
12.0286 -4.4066 -1.5062
11.9106 -3.1909 -1.4498
11.9080 -2.0729 -1.4212
12.0208 -0.9994 -1.4182
11.9031 0.0769 -1.3996
11.9006 1.1443 -1.4057
12.0240 2.2535 -1.4384
12.0183 3.3867 -1.4681
36.1300 13.7676 -4.5460
34.5801 20.8639 -4.7486
30.6317 22.4412 -4.4647
27.8844 24.5398 -4.3674
24.9813 26.2990 -4.2648
18.5845 28.3103 -3.9818
-24.6865 21.7059 -3.8650
-20.8861 15.2871 -3.0432
-20.8798 12.5851 -2.8664
-20.8742 10.1615 -2.7297
-20.8691 7.9417 -2.6254
-20.8643 5.8693 -2.5484
-20.7795 3.8847 -2.4855
-20.7751 1.9883 -2.4538
-33.3064 0.2002 -3.9161
-33.2995 -2.7834 -3.9289
-30.1070 -5.2548 -3.5934
-20.8380 -5.5925 -2.5368
-20.8332 -7.6426 -2.6091
-20.8282 -9.8312 -2.7080
-20.7425 -12.1648 -2.8273
-20.7704 -14.8224 -3.0002
-20.8097 -17.8583 -3.2242
-20.8016 -21.3592 -3.5055
-31.2514 -38.4276 -5.8237
-25.9119 -38.4196 -5.4487
-22.6606 -41.0919 -5.5174
15.7945 -38.4164 -4.8838
17.5168 -33.6897 -4.4646
21.5349 -33.6804 -4.7003
12.1065 -15.6544 -2.3268
12.1005 -13.0493 -2.0924
12.1574 -10.9613 -1.9247
12.0913 -9.0836 -1.7782
12.0877 -7.4927 -1.6721
11.9170 -5.9861 -1.5680
11.9213 -4.7076 -1.5070
11.9114 -3.5116 -1.4601
11.9087 -2.3804 -1.4279
11.9062 -1.2895 -1.4081
12.0190 -0.2221 -1.4134
11.9013 0.8456 -1.4028
12.0256 1.9448 -1.4323
12.0200 3.0658 -1.4585
11.8941 4.1958 -1.4829
41.4354 18.9300 -5.3562
36.7835 20.9606 -4.9778
31.3710 21.8022 -4.4918
29.3187 24.5324 -4.4948
27.6427 27.6845 -4.5999
15.4477 44.0026 -5.4832
-24.6891 22.8244 -3.9533
-20.8282 16.0573 -3.0922
-20.8815 13.3069 -2.9113
-20.7953 10.7725 -2.7536
-20.8705 8.5438 -2.6515
-20.8657 6.4352 -2.5673
-20.8611 4.4409 -2.5077
-20.7763 2.5125 -2.4606
-33.3083 1.0310 -3.9182
-33.3015 -1.9490 -3.9222
-30.4454 -4.5348 -3.6192
-21.6496 -5.2353 -2.6189
-20.8346 -7.0589 -2.5865
-20.8296 -9.2040 -2.6775
-20.8243 -11.5249 -2.7984
-20.8184 -14.0868 -2.9555
-20.8117 -16.9776 -3.1579
-20.7239 -20.2441 -3.4063
-27.3320 -38.4229 -5.5441
-22.8912 -39.1679 -5.3341
15.8012 -41.3340 -5.2030
16.4643 -33.6921 -4.4091
20.3717 -33.6831 -4.6284
12.0273 -16.3802 -2.3894
12.1020 -13.7219 -2.1512
12.1587 -11.5248 -1.9697
12.0924 -9.5652 -1.8128
10.3494 -6.7781 -1.4546
11.9179 -6.3634 -1.5885
11.9157 -5.0523 -1.5217
11.9121 -3.8371 -1.4715
11.9095 -2.6909 -1.4356
11.9069 -1.5908 -1.4124
12.0197 -0.5221 -1.4146
11.9020 0.5478 -1.4009
11.8995 1.6211 -1.4120
12.0215 2.7489 -1.4499
11.9468 3.8824 -1.4770
37.7164 16.1069 -4.8220
9.2050 6.0627 -1.2960
28.3623 22.5542 -4.2606
9.1136 8.6832 -1.4800
12.8015 45.6943 -5.5795
-20.8899 16.9518 -3.1631
-20.8832 14.0521 -2.9595
-20.8773 11.4840 -2.8015
-20.8719 9.1584 -2.6799
-20.8670 7.0099 -2.5882
-20.8623 4.9880 -2.5221
-20.7775 3.0400 -2.4690
-20.7732 1.1620 -2.4463
-33.3034 -1.1169 -3.9179
-17.6620 -2.1822 -2.0924
-24.3131 -5.2415 -2.9243
-20.8359 -6.4849 -2.5657
-20.8311 -8.5905 -2.6493
-20.7456 -10.8147 -2.7507
-20.8201 -13.3435 -2.9076
-20.8137 -16.1320 -3.0962
-20.7262 -19.2603 -3.3267
-28.2151 -31.3612 -4.9601
-28.8037 -38.4263 -5.6464
-23.7968 -38.4819 -5.3198
15.4766 -33.7808 -4.3689
19.2430 -33.6857 -4.5614
16.2366 -23.3096 -3.3400
12.1037 -14.4338 -2.2148
12.0928 -12.0488 -2.0071
11.9974 -9.9863 -1.8354
12.0897 -8.3558 -1.7279
11.9725 -6.7815 -1.6178
10.8910 -4.9417 -1.4062
11.9151 -4.1687 -1.4842
11.9102 -3.0051 -1.4443
11.9076 -1.8942 -1.4177
12.0204 -0.8228 -1.4166
11.9027 0.2507 -1.3998
11.9002 1.3199 -1.4078
12.0231 2.4355 -1.4424
12.0174 3.5766 -1.4742
36.5235 14.5318 -4.6217
34.6697 21.6147 -4.8037
31.0453 23.4485 -4.5744
27.5028 24.9259 -4.3642
18.2040 28.6335 -3.9894
-24.6850 21.0735 -3.8162
-20.8045 14.7658 -2.9996
-20.7985 12.1256 -2.8307
-20.8734 9.7867 -2.7106
-20.8683 7.5944 -2.6111
-20.8636 5.5417 -2.5381
-20.7787 3.5714 -2.4789
-20.7744 1.6825 -2.4506
-33.3053 -0.2861 -3.9161
