ply
format ascii 1.0
element vertex 2176
property float32 x
property float32 y
property float32 z
end_header
0.6723 0.3289 0.3727
0.6425 0.3890 0.3740
0.6071 0.4462 0.3752
0.5666 0.5002 0.3764
0.5212 0.5504 0.3774
0.4712 0.5963 0.3784
0.4170 0.6374 0.3793
0.3592 0.6735 0.3801
0.2981 0.7041 0.3807
0.2344 0.7289 0.3813
0.1685 0.7477 0.3817
0.1012 0.7603 0.3819
0.0329 0.7666 0.3821
-0.0357 0.7665 0.3821
-0.1040 0.7600 0.3819
-0.1713 0.7471 0.3817
-0.2371 0.7281 0.3813
-0.3007 0.7030 0.3807
-0.3617 0.6722 0.3801
-0.4194 0.6359 0.3793
-0.4734 0.5945 0.3784
-0.5232 0.5485 0.3774
-0.5685 0.4981 0.3764
-0.6088 0.4440 0.3752
-0.6439 0.3866 0.3740
-0.6736 0.3265 0.3727
-0.6975 0.2641 0.3714
-0.7157 0.2000 0.3700
-0.7279 0.1348 0.3686
-0.7342 0.0690 0.3672
-0.7346 0.0031 0.3658
-0.7292 -0.0622 0.3644
-0.7180 -0.1266 0.3630
-0.7012 -0.1895 0.3617
-0.6790 -0.2505 0.3604
-0.6517 -0.3090 0.3591
-0.6194 -0.3648 0.3579
-0.5825 -0.4173 0.3568
-0.5414 -0.4663 0.3558
-0.4962 -0.5114 0.3548
-0.4474 -0.5523 0.3539
-0.3955 -0.5887 0.3531
-0.3407 -0.6205 0.3525
-0.2834 -0.6473 0.3519
-0.2242 -0.6692 0.3514
-0.1634 -0.6858 0.3511
-0.1014 -0.6972 0.3508
-0.0388 -0.7032 0.3507
0.0242 -0.7038 0.3507
0.0869 -0.6990 0.3508
0.1491 -0.6889 0.3510
0.2102 -0.6734 0.3513
0.2699 -0.6528 0.3517
0.3276 -0.6271 0.3523
0.3830 -0.5964 0.3529
0.4356 -0.5610 0.3537
0.4851 -0.5211 0.3545
0.5311 -0.4770 0.3555
0.5733 -0.4289 0.3565
0.6111 -0.3772 0.3576
0.6445 -0.3221 0.3588
0.6730 -0.2642 0.3600
0.6964 -0.2038 0.3613
0.7144 -0.1413 0.3626
0.7269 -0.0773 0.3640
0.7337 -0.0121 0.3654
0.7347 0.0537 0.3668
0.7297 0.1195 0.3682
0.7189 0.1849 0.3696
0.7021 0.2493 0.3710
0.6795 0.3121 0.3723
0.6512 0.3728 0.3736
0.6173 0.4309 0.3749
0.5782 0.4858 0.3760
0.5340 0.5371 0.3771
0.4852 0.5842 0.3782
0.4322 0.6267 0.3791
0.3753 0.6642 0.3799
0.3151 0.6963 0.3806
0.2520 0.7227 0.3811
0.1867 0.7432 0.3816
0.1197 0.7575 0.3819
0.0516 0.7655 0.3821
-0.0170 0.7672 0.3821
-0.0854 0.7624 0.3820
-0.1530 0.7512 0.3818
-0.2193 0.7339 0.3814
-0.2836 0.7104 0.3809
-0.3453 0.6812 0.3803
-0.4040 0.6463 0.3795
-0.4590 0.6063 0.3787
-0.5101 0.5615 0.3777
-0.5566 0.5123 0.3767
-0.5983 0.4592 0.3755
-0.6349 0.4026 0.3743
-0.6660 0.3431 0.3731
-0.6916 0.2813 0.3717
-0.7113 0.2176 0.3704
-0.7252 0.1527 0.3690
-0.7331 0.0870 0.3676
-0.7351 0.0211 0.3662
-0.7312 -0.0445 0.3648
-0.7216 -0.1092 0.3634
-0.7063 -0.1725 0.3621
-0.6856 -0.2340 0.3607
-0.6597 -0.2933 0.3595
-0.6287 -0.3498 0.3583
-0.5931 -0.4033 0.3571
-0.5530 -0.4533 0.3560
-0.5089 -0.4995 0.3551
-0.4611 -0.5415 0.3542
-0.4100 -0.5792 0.3533
-0.3559 -0.6123 0.3526
-0.2993 -0.6405 0.3520
-0.2406 -0.6637 0.3515
-0.1801 -0.6818 0.3511
-0.1184 -0.6946 0.3509
-0.0559 -0.7021 0.3507
0.0070 -0.7042 0.3507
0.0699 -0.7009 0.3507
0.1322 -0.6922 0.3509
0.1937 -0.6782 0.3512
0.2537 -0.6589 0.3516
0.3120 -0.6346 0.3521
0.3681 -0.6053 0.3527
0.4215 -0.5712 0.3535
0.4719 -0.5325 0.3543
0.5189 -0.4895 0.3552
0.5622 -0.4424 0.3562
0.6012 -0.3916 0.3573
0.6359 -0.3375 0.3584
0.6657 -0.2803 0.3597
0.6905 -0.2205 0.3609
0.7100 -0.1586 0.3623
0.7241 -0.0949 0.3636
0.7324 -0.0300 0.3650
0.7350 0.0357 0.3664
0.7317 0.1016 0.3678
0.7224 0.1671 0.3692
0.7073 0.2318 0.3706
0.6862 0.2951 0.3720
0.6595 0.3565 0.3733
0.6271 0.4153 0.3745
0.5894 0.4712 0.3757
0.5466 0.5235 0.3768
0.4990 0.5718 0.3779
0.4471 0.6156 0.3788
0.3912 0.6545 0.3797
0.3318 0.6881 0.3804
0.2695 0.7161 0.3810
0.2047 0.7382 0.3815
0.1381 0.7542 0.3818
0.0703 0.7640 0.3820
0.0018 0.7673 0.3821
-0.0668 0.7643 0.3820
-0.1347 0.7549 0.3818
-0.2014 0.7392 0.3815
-0.2662 0.7174 0.3810
-0.3287 0.6897 0.3805
-0.3883 0.6564 0.3797
-0.4444 0.6178 0.3789
-0.4965 0.5742 0.3780
-0.5444 0.5261 0.3770
-0.5874 0.4740 0.3759
-0.6254 0.4184 0.3747
-0.6581 0.3596 0.3734
-0.6851 0.2984 0.3721
-0.7065 0.2352 0.3708
-0.7220 0.1705 0.3694
-0.7315 0.1050 0.3680
-0.7352 0.0391 0.3666
-0.7329 -0.0266 0.3652
-0.7248 -0.0916 0.3638
-0.7111 -0.1554 0.3624
-0.6918 -0.2175 0.3611
-0.6672 -0.2774 0.3598
-0.6376 -0.3347 0.3586
-0.6032 -0.3890 0.3574
-0.5644 -0.4400 0.3563
-0.5213 -0.4872 0.3553
-0.4745 -0.5305 0.3544
-0.4242 -0.5694 0.3536
-0.3709 -0.6037 0.3528
-0.3150 -0.6333 0.3522
-0.2568 -0.6579 0.3517
-0.1968 -0.6774 0.3512
-0.1354 -0.6916 0.3509
-0.0731 -0.7006 0.3507
-0.0102 -0.7041 0.3507
0.0527 -0.7023 0.3507
0.1153 -0.6951 0.3508
0.1770 -0.6825 0.3511
0.2375 -0.6647 0.3515
0.2963 -0.6417 0.3520
0.3530 -0.6138 0.3526
0.4072 -0.5809 0.3533
0.4585 -0.5435 0.3541
0.5065 -0.5016 0.3549
0.5507 -0.4556 0.3559
0.5910 -0.4059 0.3570
0.6269 -0.3526 0.3581
0.6580 -0.2962 0.3593
0.6843 -0.2371 0.3606
0.7052 -0.1757 0.3619
0.7208 -0.1124 0.3633
0.7307 -0.0478 0.3646
0.7349 0.0177 0.3660
0.7332 0.0836 0.3674
0.7255 0.1493 0.3688
0.7120 0.2143 0.3702
0.6925 0.2780 0.3716
0.6673 0.3400 0.3729
0.6365 0.3995 0.3742
0.6002 0.4563 0.3754
0.5588 0.5096 0.3766
0.5125 0.5590 0.3776
0.4617 0.6041 0.3786
0.4068 0.6443 0.3794
0.3484 0.6794 0.3802
0.2868 0.7090 0.3808
0.2226 0.7328 0.3813
0.1564 0.7505 0.3817
0.0889 0.7619 0.3820
0.0205 0.7671 0.3821
-0.0481 0.7658 0.3821
-0.1162 0.7581 0.3819
-0.1833 0.7441 0.3816
-0.2487 0.7240 0.3812
-0.3119 0.6979 0.3806
-0.3723 0.6660 0.3800
-0.4294 0.6288 0.3792
-0.4827 0.5866 0.3783
-0.5318 0.5397 0.3773
-0.5761 0.4886 0.3762
-0.6156 0.4339 0.3750
-0.6497 0.3759 0.3738
-0.6783 0.3153 0.3725
-0.7012 0.2526 0.3711
-0.7183 0.1883 0.3698
-0.7295 0.1229 0.3684
-0.7347 0.0571 0.3670
-0.7341 -0.0087 0.3656
-0.7276 -0.0740 0.3642
-0.7154 -0.1381 0.3628
-0.6976 -0.2007 0.3615
-0.6745 -0.2612 0.3602
-0.6462 -0.3193 0.3589
-0.6131 -0.3745 0.3577
-0.5754 -0.4264 0.3566
-0.5335 -0.4747 0.3556
-0.4877 -0.5191 0.3546
-0.4383 -0.5592 0.3538
-0.3858 -0.5948 0.3530
-0.3305 -0.6257 0.3523
-0.2729 -0.6517 0.3518
-0.2133 -0.6726 0.3513
-0.1523 -0.6883 0.3510
-0.0902 -0.6987 0.3508
-0.0274 -0.7037 0.3507
0.0355 -0.7033 0.3507
0.0982 -0.6976 0.3508
0.1602 -0.6865 0.3510
0.2211 -0.6701 0.3514
0.2804 -0.6485 0.3518
0.3378 -0.6219 0.3524
0.3927 -0.5904 0.3531
0.4448 -0.5542 0.3538
0.4937 -0.5135 0.3547
0.5390 -0.4686 0.3557
0.5804 -0.4198 0.3567
0.6175 -0.3675 0.3578
0.6500 -0.3119 0.3590
0.6776 -0.2535 0.3602
0.7000 -0.1927 0.3615
0.7171 -0.1299 0.3629
0.7286 -0.0656 0.3643
0.7343 -0.0002 0.3656
0.7342 0.0656 0.3671
0.7282 0.1314 0.3685
0.7163 0.1966 0.3699
0.6984 0.2608 0.3712
0.6748 0.3232 0.3726
0.6455 0.3835 0.3739
0.6106 0.4411 0.3751
0.5706 0.4954 0.3762
0.5256 0.5459 0.3773
0.4760 0.5922 0.3783
0.4222 0.6338 0.3792
0.3647 0.6704 0.3800
0.3039 0.7015 0.3807
0.2404 0.7269 0.3812
0.1747 0.7462 0.3816
0.1074 0.7594 0.3819
0.0392 0.7663 0.3821
-0.0294 0.7668 0.3821
-0.0977 0.7608 0.3820
-0.1651 0.7486 0.3817
-0.2311 0.7301 0.3813
-0.2949 0.7056 0.3808
-0.3561 0.6753 0.3801
-0.4142 0.6395 0.3794
-0.4686 0.5986 0.3785
-0.5188 0.5529 0.3775
-0.5645 0.5030 0.3765
-0.6053 0.4492 0.3753
-0.6409 0.3921 0.3741
-0.6711 0.3321 0.3728
-0.6956 0.2699 0.3715
-0.7142 0.2060 0.3701
-0.7270 0.1408 0.3687
-0.7339 0.0751 0.3673
-0.7348 0.0092 0.3659
-0.7299 -0.0562 0.3645
-0.7193 -0.1207 0.3632
-0.7030 -0.1838 0.3618
-0.6813 -0.2449 0.3605
-0.6544 -0.3037 0.3592
-0.6226 -0.3597 0.3580
-0.5861 -0.4126 0.3569
-0.5453 -0.4619 0.3559
-0.5005 -0.5074 0.3549
-0.4521 -0.5487 0.3540
-0.4004 -0.5855 0.3532
-0.3458 -0.6177 0.3525
-0.2888 -0.6451 0.3519
-0.2298 -0.6674 0.3515
-0.1691 -0.6845 0.3511
-0.1072 -0.6963 0.3508
-0.0446 -0.7029 0.3507
0.0184 -0.7040 0.3507
0.0812 -0.6997 0.3507
0.1434 -0.6900 0.3509
0.2046 -0.6751 0.3513
0.2644 -0.6549 0.3517
0.3223 -0.6297 0.3522
0.3780 -0.5994 0.3529
0.4309 -0.5645 0.3536
0.4807 -0.5250 0.3545
0.5270 -0.4813 0.3554
0.5695 -0.4335 0.3564
0.6078 -0.3821 0.3575
0.6416 -0.3274 0.3587
0.6706 -0.2697 0.3599
0.6944 -0.2095 0.3612
0.7130 -0.1472 0.3625
0.7260 -0.0832 0.3639
0.7333 -0.0181 0.3653
0.7348 0.0476 0.3667
0.7304 0.1135 0.3681
0.7201 0.1789 0.3695
0.7039 0.2434 0.3709
0.6818 0.3064 0.3722
0.6540 0.3673 0.3735
0.6207 0.4257 0.3748
0.5820 0.4809 0.3759
0.5383 0.5325 0.3770
0.4899 0.5800 0.3781
0.4373 0.6230 0.3790
0.3807 0.6609 0.3798
0.3208 0.6936 0.3805
0.2579 0.7205 0.3811
0.1928 0.7416 0.3815
0.1259 0.7565 0.3819
0.0579 0.7651 0.3820
-0.0106 0.7673 0.3821
-0.0791 0.7631 0.3820
-0.1468 0.7525 0.3818
-0.2132 0.7357 0.3814
-0.2777 0.7129 0.3809
-0.3397 0.6841 0.3803
-0.3987 0.6498 0.3796
-0.4541 0.6102 0.3788
-0.5055 0.5658 0.3778
-0.5525 0.5170 0.3768
-0.5947 0.4642 0.3757
-0.6317 0.4080 0.3745
-0.6634 0.3487 0.3732
-0.6894 0.2871 0.3719
-0.7097 0.2236 0.3705
-0.7241 0.1587 0.3691
-0.7326 0.0931 0.3677
-0.7352 0.0272 0.3663
-0.7319 -0.0384 0.3649
-0.7227 -0.1032 0.3635
-0.7080 -0.1667 0.3622
-0.6878 -0.2284 0.3609
-0.6623 -0.2879 0.3596
-0.6318 -0.3447 0.3584
-0.5965 -0.3985 0.3572
-0.5569 -0.4488 0.3561
-0.5132 -0.4953 0.3551
-0.4657 -0.5378 0.3542
-0.4148 -0.5759 0.3534
-0.3610 -0.6094 0.3527
-0.3046 -0.6381 0.3521
-0.2461 -0.6618 0.3516
-0.1858 -0.6803 0.3512
-0.1242 -0.6936 0.3509
-0.0617 -0.7016 0.3507
0.0012 -0.7042 0.3507
0.0640 -0.7014 0.3507
0.1265 -0.6932 0.3509
0.1880 -0.6797 0.3512
0.2483 -0.6609 0.3516
0.3067 -0.6371 0.3521
0.3630 -0.6082 0.3527
0.4167 -0.5745 0.3534
0.4674 -0.5362 0.3542
0.5147 -0.4936 0.3551
0.5583 -0.4469 0.3561
0.5978 -0.3965 0.3572
0.6328 -0.3426 0.3583
0.6632 -0.2857 0.3596
0.6884 -0.2261 0.3608
0.7085 -0.1644 0.3621
0.7230 -0.1008 0.3635
0.7319 -0.0360 0.3649
0.7350 0.0296 0.3663
0.7322 0.0955 0.3677
0.7235 0.1611 0.3691
0.7089 0.2259 0.3705
0.6884 0.2894 0.3718
0.6622 0.3509 0.3732
0.6303 0.4100 0.3744
0.5931 0.4661 0.3756
0.5507 0.5188 0.3767
0.5036 0.5675 0.3778
0.4521 0.6117 0.3787
0.3965 0.6511 0.3796
0.3374 0.6852 0.3803
0.2754 0.7137 0.3809
0.2108 0.7364 0.3814
0.1443 0.7530 0.3818
0.0766 0.7633 0.3820
0.0081 0.7673 0.3821
-0.0604 0.7649 0.3820
-0.1284 0.7560 0.3819
-0.1953 0.7409 0.3815
-0.2603 0.7197 0.3811
-0.3231 0.6925 0.3805
-0.3829 0.6597 0.3798
-0.4393 0.6215 0.3790
-0.4919 0.5784 0.3781
-0.5401 0.5308 0.3771
-0.5836 0.4790 0.3760
-0.6221 0.4236 0.3748
-0.6553 0.3652 0.3735
-0.6829 0.3041 0.3722
-0.7048 0.2411 0.3709
-0.7208 0.1765 0.3695
-0.7309 0.1110 0.3681
-0.7351 0.0452 0.3667
-0.7333 -0.0206 0.3653
-0.7258 -0.0856 0.3639
-0.7126 -0.1495 0.3625
-0.6938 -0.2118 0.3612
-0.6697 -0.2719 0.3599
-0.6406 -0.3295 0.3587
-0.6066 -0.3841 0.3575
-0.5681 -0.4354 0.3564
-0.5255 -0.4830 0.3554
-0.4790 -0.5266 0.3545
-0.4290 -0.5660 0.3536
-0.3760 -0.6007 0.3529
-0.3203 -0.6307 0.3522
-0.2623 -0.6558 0.3517
-0.2024 -0.6758 0.3513
-0.1411 -0.6905 0.3510
-0.0788 -0.7000 0.3507
-0.0160 -0.7040 0.3507
0.0469 -0.7027 0.3507
0.1095 -0.6960 0.3508
0.1713 -0.6839 0.3511
0.2320 -0.6666 0.3514
0.2910 -0.6441 0.3519
0.3479 -0.6166 0.3525
0.4023 -0.5842 0.3532
0.4539 -0.5471 0.3540
0.5022 -0.5057 0.3549
0.5468 -0.4601 0.3558
0.5874 -0.4106 0.3569
0.6237 -0.3576 0.3580
0.6554 -0.3015 0.3592
0.6820 -0.2427 0.3605
0.7035 -0.1814 0.3618
0.7196 -0.1183 0.3631
0.7300 -0.0538 0.3645
0.7347 0.0116 0.3659
0.7336 0.0775 0.3673
0.7265 0.1432 0.3687
0.7135 0.2083 0.3701
0.6946 0.2722 0.3715
0.6699 0.3343 0.3728
0.6396 0.3941 0.3741
0.6038 0.4511 0.3753
0.5628 0.5048 0.3764
0.5169 0.5546 0.3775
0.4666 0.6001 0.3785
0.4121 0.6408 0.3794
0.3539 0.6764 0.3801
0.2926 0.7065 0.3808
0.2286 0.7308 0.3813
0.1626 0.7491 0.3817
0.0952 0.7611 0.3820
0.0268 0.7669 0.3821
-0.0417 0.7662 0.3821
-0.1099 0.7591 0.3819
-0.1772 0.7457 0.3816
-0.2428 0.7261 0.3812
-0.3062 0.7005 0.3807
-0.3669 0.6692 0.3800
-0.4243 0.6325 0.3792
-0.4780 0.5907 0.3783
-0.5274 0.5442 0.3774
-0.5722 0.4935 0.3763
-0.6121 0.4391 0.3751
-0.6468 0.3814 0.3739
-0.6759 0.3210 0.3726
-0.6994 0.2585 0.3713
-0.7170 0.1943 0.3699
-0.7287 0.1290 0.3685
-0.7345 0.0632 0.3671
-0.7344 -0.0027 0.3657
-0.7284 -0.0680 0.3643
-0.7167 -0.1322 0.3629
-0.6995 -0.1950 0.3616
-0.6768 -0.2557 0.3603
-0.6490 -0.3141 0.3590
-0.6163 -0.3695 0.3578
-0.5791 -0.4218 0.3567
-0.5375 -0.4704 0.3557
-0.4921 -0.5151 0.3547
-0.4430 -0.5556 0.3539
-0.3908 -0.5917 0.3531
-0.3357 -0.6230 0.3524
-0.2783 -0.6495 0.3518
-0.2189 -0.6708 0.3514
-0.1580 -0.6870 0.3510
-0.0959 -0.6979 0.3508
-0.0332 -0.7035 0.3507
0.0297 -0.7036 0.3507
0.0925 -0.6983 0.3508
0.1545 -0.6877 0.3510
0.2155 -0.6718 0.3513
0.2750 -0.6507 0.3518
0.3326 -0.6246 0.3523
0.3877 -0.5935 0.3530
0.4401 -0.5577 0.3538
0.4893 -0.5174 0.3546
0.5350 -0.4729 0.3556
0.5768 -0.4245 0.3566
0.6143 -0.3724 0.3577
0.6472 -0.3172 0.3589
0.6753 -0.2590 0.3601
0.6982 -0.1984 0.3614
0.7157 -0.1357 0.3628
0.7278 -0.0715 0.3641
0.7340 -0.0063 0.3655
0.7345 0.0595 0.3669
0.7290 0.1253 0.3683
0.7176 0.1906 0.3697
0.7003 0.2549 0.3711
0.6772 0.3175 0.3724
0.6484 0.3781 0.3737
0.6141 0.4359 0.3750
0.5745 0.4905 0.3761
0.5299 0.5414 0.3772
0.4807 0.5881 0.3782
0.4273 0.6302 0.3791
0.3701 0.6672 0.3799
0.3096 0.6989 0.3806
0.2463 0.7248 0.3812
0.1808 0.7447 0.3816
0.1137 0.7585 0.3819
0.0455 0.7659 0.3821
-0.0230 0.7670 0.3821
-0.0914 0.7616 0.3820
-0.1589 0.7500 0.3817
-0.2250 0.7321 0.3814
-0.2891 0.7081 0.3808
-0.3506 0.6783 0.3802
-0.4090 0.6430 0.3795
-0.4637 0.6026 0.3786
-0.5143 0.5573 0.3776
-0.5605 0.5078 0.3766
-0.6017 0.4543 0.3754
-0.6378 0.3975 0.3742
-0.6685 0.3378 0.3730
-0.6935 0.2758 0.3716
-0.7128 0.2119 0.3703
-0.7261 0.1469 0.3689
-0.7335 0.0812 0.3675
-0.7350 0.0153 0.3661
-0.7306 -0.0502 0.3647
-0.7205 -0.1148 0.3633
-0.7047 -0.1780 0.3619
-0.6835 -0.2394 0.3606
-0.6571 -0.2984 0.3594
-0.6257 -0.3547 0.3582
-0.5897 -0.4078 0.3570
-0.5493 -0.4575 0.3560
-0.5048 -0.5033 0.3550
-0.4567 -0.5450 0.3541
-0.4053 -0.5823 0.3533
-0.3510 -0.6149 0.3526
-0.2942 -0.6427 0.3520
-0.2353 -0.6655 0.3515
-0.1747 -0.6831 0.3511
-0.1130 -0.6955 0.3508
-0.0504 -0.7025 0.3507
0.0125 -0.7041 0.3507
0.0754 -0.7003 0.3507
0.1377 -0.6912 0.3509
0.1990 -0.6767 0.3512
0.2590 -0.6570 0.3516
0.3171 -0.6322 0.3522
0.3729 -0.6024 0.3528
0.4261 -0.5679 0.3535
0.4060 -0.5691 0.3535
0.4562 -0.5318 0.3543
0.5032 -0.4902 0.3552
0.5464 -0.4445 0.3562
0.5856 -0.3951 0.3572
0.6205 -0.3423 0.3583
0.6508 -0.2865 0.3595
0.6761 -0.2280 0.3608
0.6962 -0.1673 0.3621
0.7110 -0.1049 0.3634
0.7202 -0.0411 0.3648
0.7237 0.0234 0.3662
0.7215 0.0883 0.3675
0.7134 0.1529 0.3689
0.6995 0.2168 0.3703
0.6798 0.2794 0.3716
0.6544 0.3402 0.3729
0.6235 0.3986 0.3742
0.5872 0.4541 0.3754
0.5460 0.5062 0.3765
0.4999 0.5545 0.3775
0.4496 0.5984 0.3785
0.3952 0.6376 0.3793
0.3373 0.6716 0.3800
0.2765 0.7002 0.3806
0.2131 0.7230 0.3811
0.1479 0.7398 0.3815
0.0813 0.7505 0.3817
0.0139 0.7550 0.3818
-0.0536 0.7531 0.3818
-0.1205 0.7450 0.3816
-0.1864 0.7307 0.3813
-0.2506 0.7103 0.3809
-0.3126 0.6841 0.3803
-0.3718 0.6523 0.3797
-0.4277 0.6152 0.3789
-0.4798 0.5732 0.3780
-0.5276 0.5267 0.3770
-0.5709 0.4761 0.3759
-0.6093 0.4220 0.3747
-0.6424 0.3647 0.3735
-0.6701 0.3048 0.3723
-0.6922 0.2429 0.3709
-0.7085 0.1795 0.3696
-0.7190 0.1150 0.3682
-0.7237 0.0502 0.3668
-0.7225 -0.0146 0.3654
-0.7157 -0.0787 0.3641
-0.7032 -0.1418 0.3627
-0.6852 -0.2033 0.3614
-0.6620 -0.2627 0.3601
-0.6337 -0.3197 0.3589
-0.6007 -0.3738 0.3577
-0.5632 -0.4246 0.3567
-0.5215 -0.4719 0.3556
-0.4761 -0.5152 0.3547
-0.4272 -0.5544 0.3539
-0.3752 -0.5890 0.3531
-0.3205 -0.6191 0.3525
-0.2635 -0.6442 0.3519
-0.2047 -0.6644 0.3515
-0.1444 -0.6793 0.3512
-0.0831 -0.6891 0.3510
-0.0213 -0.6936 0.3509
0.0408 -0.6927 0.3509
0.1025 -0.6866 0.3510
0.1635 -0.6752 0.3513
0.2234 -0.6585 0.3516
0.2816 -0.6368 0.3521
0.3379 -0.6101 0.3526
0.3918 -0.5786 0.3533
0.4428 -0.5424 0.3541
0.4907 -0.5020 0.3549
0.5350 -0.4574 0.3559
0.5753 -0.4089 0.3569
0.6115 -0.3570 0.3580
0.6430 -0.3020 0.3592
0.6697 -0.2442 0.3604
0.6913 -0.1841 0.3617
0.7075 -0.1221 0.3630
0.7183 -0.0586 0.3644
0.7234 0.0058 0.3658
0.7227 0.0706 0.3672
0.7162 0.1353 0.3685
0.7038 0.1995 0.3699
0.6857 0.2625 0.3713
0.6619 0.3238 0.3726
0.6324 0.3829 0.3738
0.5976 0.4393 0.3750
0.5577 0.4924 0.3762
0.5130 0.5417 0.3772
0.4637 0.5869 0.3782
0.4104 0.6274 0.3791
0.3535 0.6628 0.3798
0.2934 0.6929 0.3805
0.2306 0.7173 0.3810
0.1658 0.7358 0.3814
0.0995 0.7482 0.3817
0.0323 0.7544 0.3818
-0.0351 0.7543 0.3818
-0.1023 0.7479 0.3817
-0.1686 0.7352 0.3814
-0.2333 0.7165 0.3810
-0.2959 0.6919 0.3805
-0.3559 0.6615 0.3799
-0.4128 0.6259 0.3791
-0.4659 0.5852 0.3782
-0.5150 0.5398 0.3773
-0.5596 0.4903 0.3762
-0.5993 0.4371 0.3751
-0.6339 0.3806 0.3739
-0.6631 0.3214 0.3726
-0.6867 0.2600 0.3713
-0.7046 0.1969 0.3699
-0.7167 0.1327 0.3686
-0.7230 0.0679 0.3672
-0.7234 0.0031 0.3658
-0.7181 -0.0613 0.3644
-0.7071 -0.1247 0.3631
-0.6906 -0.1867 0.3617
-0.6688 -0.2467 0.3605
-0.6419 -0.3044 0.3592
-0.6102 -0.3593 0.3581
-0.5739 -0.4111 0.3569
-0.5333 -0.4594 0.3559
-0.4889 -0.5038 0.3550
-0.4408 -0.5441 0.3541
-0.3897 -0.5800 0.3533
-0.3357 -0.6113 0.3527
-0.2793 -0.6378 0.3521
-0.2209 -0.6594 0.3516
-0.1610 -0.6758 0.3513
-0.0999 -0.6870 0.3510
-0.0382 -0.6929 0.3509
0.0238 -0.6935 0.3509
0.0857 -0.6888 0.3510
0.1469 -0.6788 0.3512
0.2071 -0.6636 0.3515
0.2659 -0.6432 0.3519
0.3228 -0.6178 0.3525
0.3773 -0.5876 0.3531
0.4292 -0.5528 0.3539
0.4780 -0.5134 0.3547
0.5233 -0.4699 0.3556
0.5647 -0.4225 0.3566
0.6020 -0.3715 0.3577
0.6348 -0.3173 0.3589
0.6629 -0.2602 0.3601
0.6859 -0.2007 0.3614
0.7036 -0.1392 0.3627
0.7159 -0.0761 0.3640
0.7225 -0.0119 0.3654
0.7234 0.0529 0.3668
0.7185 0.1177 0.3682
0.7078 0.1821 0.3695
0.6912 0.2454 0.3709
0.6689 0.3073 0.3722
0.6410 0.3670 0.3735
0.6077 0.4242 0.3747
0.5691 0.4782 0.3759
0.5257 0.5286 0.3770
0.4776 0.5750 0.3780
0.4254 0.6168 0.3789
0.3694 0.6537 0.3796
0.3101 0.6853 0.3803
0.2480 0.7112 0.3809
0.1837 0.7314 0.3813
0.1178 0.7455 0.3816
0.0508 0.7533 0.3818
-0.0167 0.7549 0.3818
-0.0840 0.7502 0.3817
-0.1506 0.7393 0.3815
-0.2158 0.7222 0.3811
-0.2791 0.6992 0.3807
-0.3398 0.6704 0.3800
-0.3976 0.6361 0.3793
-0.4518 0.5968 0.3785
-0.5020 0.5527 0.3775
-0.5479 0.5042 0.3765
-0.5889 0.4520 0.3754
-0.6250 0.3963 0.3742
-0.6557 0.3378 0.3730
-0.6808 0.2769 0.3717
-0.7003 0.2143 0.3703
-0.7140 0.1503 0.3690
-0.7219 0.0856 0.3676
-0.7239 0.0208 0.3662
-0.7201 -0.0438 0.3648
-0.7107 -0.1075 0.3634
-0.6957 -0.1699 0.3621
-0.6753 -0.2305 0.3608
-0.6498 -0.2889 0.3596
-0.6193 -0.3446 0.3584
-0.5842 -0.3973 0.3572
-0.5448 -0.4465 0.3562
-0.5014 -0.4921 0.3552
-0.4543 -0.5335 0.3543
-0.4039 -0.5707 0.3535
-0.3507 -0.6033 0.3528
-0.2949 -0.6311 0.3522
-0.2370 -0.6540 0.3517
-0.1775 -0.6718 0.3514
-0.1167 -0.6844 0.3511
-0.0551 -0.6918 0.3509
0.0069 -0.6939 0.3509
0.0688 -0.6906 0.3509
0.1303 -0.6821 0.3511
0.1908 -0.6682 0.3514
0.2500 -0.6493 0.3518
0.3074 -0.6253 0.3523
0.3627 -0.5964 0.3529
0.4153 -0.5627 0.3536
0.4650 -0.5246 0.3545
0.5113 -0.4822 0.3554
0.5538 -0.4358 0.3564
0.5923 -0.3858 0.3574
0.6264 -0.3324 0.3586
0.6557 -0.2761 0.3598
0.6801 -0.2172 0.3610
0.6993 -0.1562 0.3623
0.7131 -0.0934 0.3637
0.7213 -0.0295 0.3650
0.7238 0.0351 0.3664
0.7204 0.1000 0.3678
0.7113 0.1646 0.3692
0.6963 0.2283 0.3705
0.6756 0.2906 0.3719
0.6492 0.3509 0.3732
0.6173 0.4089 0.3744
0.5802 0.4638 0.3756
0.5380 0.5153 0.3767
0.4912 0.5627 0.3777
0.4400 0.6058 0.3786
0.3850 0.6441 0.3794
0.3266 0.6772 0.3801
0.2652 0.7047 0.3807
0.2015 0.7265 0.3812
0.1359 0.7422 0.3815
0.0691 0.7518 0.3818
0.0017 0.7551 0.3818
-0.0657 0.7521 0.3818
-0.1325 0.7429 0.3816
-0.1982 0.7275 0.3813
-0.2620 0.7060 0.3808
-0.3235 0.6788 0.3802
-0.3821 0.6460 0.3795
-0.4374 0.6080 0.3787
-0.4887 0.5652 0.3778
-0.5358 0.5179 0.3768
-0.5782 0.4666 0.3757
-0.6157 0.4118 0.3745
-0.6478 0.3540 0.3733
-0.6745 0.2938 0.3720
-0.6956 0.2315 0.3707
-0.7108 0.1679 0.3693
-0.7203 0.1033 0.3679
-0.7239 0.0385 0.3666
-0.7217 -0.0262 0.3652
-0.7138 -0.0902 0.3638
-0.7003 -0.1530 0.3625
-0.6814 -0.2142 0.3612
-0.6572 -0.2732 0.3599
-0.6281 -0.3297 0.3587
-0.5942 -0.3832 0.3575
-0.5560 -0.4334 0.3565
-0.5136 -0.4800 0.3555
-0.4675 -0.5226 0.3546
-0.4180 -0.5610 0.3537
-0.3655 -0.5948 0.3530
-0.3103 -0.6240 0.3524
-0.2530 -0.6482 0.3519
-0.1939 -0.6674 0.3514
-0.1334 -0.6815 0.3511
-0.0720 -0.6903 0.3510
-0.0101 -0.6938 0.3509
0.0519 -0.6920 0.3509
0.1136 -0.6849 0.3511
0.1744 -0.6725 0.3513
0.2340 -0.6550 0.3517
0.2920 -0.6323 0.3522
0.3478 -0.6047 0.3528
0.4012 -0.5724 0.3534
0.4517 -0.5354 0.3542
0.4990 -0.4942 0.3551
0.5426 -0.4489 0.3561
0.5822 -0.3998 0.3571
0.6175 -0.3473 0.3582
0.6482 -0.2918 0.3594
0.6740 -0.2335 0.3607
0.6946 -0.1730 0.3620
0.7099 -0.1107 0.3633
0.7196 -0.0471 0.3646
0.7237 0.0174 0.3660
0.7219 0.0823 0.3674
0.7144 0.1470 0.3688
0.7010 0.2110 0.3702
0.6818 0.2737 0.3715
0.6569 0.3347 0.3728
0.6265 0.3933 0.3741
0.5908 0.4491 0.3753
0.5500 0.5016 0.3764
0.5044 0.5502 0.3774
0.4544 0.5945 0.3784
0.4004 0.6341 0.3792
0.3428 0.6687 0.3800
0.2822 0.6978 0.3806
0.2191 0.7211 0.3811
0.1540 0.7385 0.3815
0.0875 0.7498 0.3817
0.0202 0.7548 0.3818
-0.0473 0.7536 0.3818
-0.1144 0.7460 0.3816
-0.1804 0.7323 0.3814
-0.2448 0.7125 0.3809
-0.3070 0.6868 0.3804
-0.3664 0.6555 0.3797
-0.4226 0.6189 0.3789
-0.4751 0.5773 0.3781
-0.5234 0.5312 0.3771
-0.5671 0.4810 0.3760
-0.6059 0.4271 0.3749
-0.6396 0.3701 0.3736
-0.6678 0.3104 0.3724
-0.6904 0.2487 0.3711
-0.7072 0.1854 0.3697
-0.7183 0.1210 0.3683
-0.7235 0.0562 0.3669
-0.7229 -0.0086 0.3656
-0.7165 -0.0728 0.3642
-0.7046 -0.1360 0.3628
-0.6871 -0.1977 0.3615
-0.6643 -0.2573 0.3602
-0.6365 -0.3145 0.3590
-0.6039 -0.3689 0.3579
-0.5668 -0.4201 0.3568
-0.5256 -0.4677 0.3557
-0.4804 -0.5114 0.3548
-0.4318 -0.5509 0.3540
-0.3801 -0.5860 0.3532
-0.3256 -0.6165 0.3525
-0.2689 -0.6421 0.3520
-0.2102 -0.6627 0.3515
-0.1500 -0.6782 0.3512
-0.0888 -0.6884 0.3510
-0.0270 -0.6934 0.3509
0.0350 -0.6930 0.3509
0.0968 -0.6874 0.3510
0.1579 -0.6764 0.3512
0.2179 -0.6603 0.3516
0.2763 -0.6390 0.3520
0.3328 -0.6127 0.3526
0.3869 -0.5817 0.3532
0.4382 -0.5460 0.3540
0.4864 -0.5059 0.3549
0.5310 -0.4616 0.3558
0.5718 -0.4136 0.3568
0.6083 -0.3620 0.3579
0.6403 -0.3072 0.3591
0.6674 -0.2497 0.3603
0.6895 -0.1897 0.3616
0.7063 -0.1279 0.3629
0.7175 -0.0646 0.3643
0.7231 -0.0002 0.3656
0.7230 0.0646 0.3670
0.7170 0.1294 0.3684
0.7052 0.1936 0.3698
0.6876 0.2567 0.3711
0.6643 0.3182 0.3725
0.6354 0.3776 0.3737
0.6011 0.4342 0.3749
0.5616 0.4876 0.3761
0.5173 0.5373 0.3771
0.4685 0.5829 0.3781
0.4155 0.6238 0.3790
0.3589 0.6598 0.3798
0.2990 0.6904 0.3804
0.2365 0.7153 0.3810
0.1719 0.7344 0.3814
0.1057 0.7473 0.3817
0.0386 0.7541 0.3818
-0.0289 0.7546 0.3818
-0.0961 0.7487 0.3817
-0.1625 0.7367 0.3814
-0.2274 0.7185 0.3811
-0.2902 0.6944 0.3806
-0.3505 0.6646 0.3799
-0.4076 0.6294 0.3792
-0.4612 0.5891 0.3783
-0.5106 0.5442 0.3774
-0.5556 0.4951 0.3763
-0.5958 0.4422 0.3752
-0.6309 0.3859 0.3740
-0.6606 0.3270 0.3727
-0.6848 0.2657 0.3714
-0.7032 0.2028 0.3701
-0.7159 0.1387 0.3687
-0.7227 0.0739 0.3673
-0.7236 0.0091 0.3659
-0.7188 -0.0554 0.3646
-0.7084 -0.1189 0.3632
-0.6924 -0.1810 0.3619
-0.6711 -0.2412 0.3606
-0.6446 -0.2992 0.3593
-0.6133 -0.3544 0.3582
-0.5774 -0.4064 0.3570
-0.5372 -0.4550 0.3560
-0.4931 -0.4999 0.3550
-0.4454 -0.5406 0.3542
-0.3945 -0.5769 0.3534
-0.3408 -0.6086 0.3527
-0.2846 -0.6356 0.3521
-0.2264 -0.6576 0.3517
-0.1666 -0.6745 0.3513
-0.1056 -0.6862 0.3510
-0.0439 -0.6926 0.3509
0.0181 -0.6937 0.3509
0.0800 -0.6895 0.3510
0.1413 -0.6799 0.3512
0.2016 -0.6652 0.3515
0.2605 -0.6453 0.3519
0.3176 -0.6204 0.3524
0.3724 -0.5906 0.3531
0.4245 -0.5562 0.3538
0.4736 -0.5172 0.3546
0.5192 -0.4741 0.3555
0.5611 -0.4271 0.3565
0.5988 -0.3764 0.3576
0.6320 -0.3225 0.3588
0.6605 -0.2656 0.3600
0.6840 -0.2063 0.3612
0.7022 -0.1449 0.3626
0.7150 -0.0820 0.3639
0.7222 -0.0179 0.3653
0.7236 0.0469 0.3667
0.7192 0.1117 0.3680
0.7090 0.1761 0.3694
0.6930 0.2396 0.3708
0.6712 0.3016 0.3721
0.6438 0.3616 0.3734
0.6110 0.4190 0.3746
0.5729 0.4734 0.3758
0.5299 0.5241 0.3769
0.4822 0.5709 0.3779
0.4304 0.6131 0.3788
0.3747 0.6505 0.3796
0.3157 0.6826 0.3803
0.2539 0.7091 0.3808
0.1897 0.7298 0.3813
0.1239 0.7444 0.3816
0.0570 0.7529 0.3818
-0.0105 0.7551 0.3818
-0.0778 0.7509 0.3817
-0.1445 0.7406 0.3815
-0.2098 0.7240 0.3812
-0.2733 0.7015 0.3807
-0.3343 0.6733 0.3801
-0.3924 0.6395 0.3794
-0.4469 0.6006 0.3786
-0.4976 0.5569 0.3776
-0.5438 0.5089 0.3766
-0.5854 0.4570 0.3755
-0.6219 0.4016 0.3743
-0.6531 0.3433 0.3731
-0.6787 0.2827 0.3718
-0.6987 0.2201 0.3704
-0.7130 0.1563 0.3691
-0.7214 0.0916 0.3677
-0.7239 0.0268 0.3663
-0.7207 -0.0378 0.3649
-0.7118 -0.1017 0.3636
-0.6973 -0.1642 0.3622
-0.6774 -0.2250 0.3609
-0.6523 -0.2836 0.3597
-0.6223 -0.3396 0.3585
-0.5876 -0.3926 0.3573
-0.5486 -0.4421 0.3563
-0.5055 -0.4880 0.3553
-0.4588 -0.5299 0.3544
-0.4087 -0.5674 0.3536
-0.3557 -0.6004 0.3529
-0.3001 -0.6287 0.3523
-0.2425 -0.6521 0.3518
-0.1831 -0.6704 0.3514
-0.1224 -0.6835 0.3511
-0.0608 -0.6913 0.3509
0.0012 -0.6939 0.3509
0.0631 -0.6911 0.3509
0.1246 -0.6831 0.3511
0.1853 -0.6697 0.3514
0.2446 -0.6512 0.3518
0.3022 -0.6277 0.3523
0.3577 -0.5992 0.3529
0.4106 -0.5660 0.3536
0.4605 -0.5283 0.3544
0.5071 -0.4863 0.3553
0.5500 -0.4403 0.3563
0.5889 -0.3906 0.3573
0.6234 -0.3375 0.3584
0.6532 -0.2814 0.3596
0.6781 -0.2227 0.3609
0.6978 -0.1619 0.3622
0.7120 -0.0993 0.3635
0.7208 -0.0355 0.3649
0.7238 0.0292 0.3663
0.7210 0.0940 0.3677
0.7124 0.1586 0.3690
0.6980 0.2224 0.3704
0.6777 0.2849 0.3717
0.6519 0.3454 0.3730
0.6205 0.4036 0.3743
0.5838 0.4589 0.3755
0.5421 0.5107 0.3766
0.4957 0.5585 0.3776
0.4449 0.6020 0.3785
0.3902 0.6408 0.3794
0.3321 0.6743 0.3801
0.2710 0.7024 0.3807
0.2075 0.7247 0.3812
0.1420 0.7410 0.3815
0.0753 0.7512 0.3817
0.0080 0.7551 0.3818
-0.0595 0.7527 0.3818
-0.1264 0.7440 0.3816
-0.1922 0.7292 0.3813
-0.2562 0.7083 0.3808
-0.3179 0.6815 0.3803
-0.3768 0.6493 0.3796
-0.4324 0.6117 0.3788
-0.4841 0.5693 0.3779
-0.5316 0.5224 0.3769
-0.5745 0.4715 0.3758
-0.6124 0.4170 0.3746
-0.6451 0.3595 0.3734
-0.6723 0.2994 0.3721
-0.6939 0.2374 0.3708
-0.7097 0.1738 0.3695
-0.7197 0.1093 0.3681
-0.7238 0.0445 0.3667
-0.7222 -0.0203 0.3653
-0.7148 -0.0843 0.3639
-0.7018 -0.1473 0.3626
-0.6834 -0.2086 0.3613
-0.6597 -0.2678 0.3600
-0.6310 -0.3246 0.3588
-0.5976 -0.3784 0.3576
-0.5597 -0.4289 0.3566
-0.5177 -0.4759 0.3556
-0.4719 -0.5188 0.3546
-0.4227 -0.5576 0.3538
-0.3705 -0.5919 0.3531
-0.3156 -0.6215 0.3524
-0.2584 -0.6462 0.3519
-0.1994 -0.6659 0.3515
-0.1391 -0.6804 0.3512
-0.0777 -0.6897 0.3510
-0.0158 -0.6937 0.3509
0.0462 -0.6924 0.3509
0.1079 -0.6858 0.3510
0.1688 -0.6739 0.3513
0.2286 -0.6568 0.3516
0.2867 -0.6346 0.3521
0.3428 -0.6075 0.3527
0.3964 -0.5756 0.3534
0.4472 -0.5390 0.3542
0.4947 -0.4982 0.3550
0.5387 -0.4532 0.3560
0.5787 -0.4045 0.3570
0.6144 -0.3523 0.3581
0.6455 -0.2970 0.3593
0.6718 -0.2390 0.3605
0.6929 -0.1787 0.3618
0.7087 -0.1165 0.3632
0.7189 -0.0530 0.3645
0.7235 0.0115 0.3659
0.7223 0.0763 0.3673
0.7153 0.1410 0.3687
0.7025 0.2051 0.3700
0.6838 0.2680 0.3714
0.6595 0.3291 0.3727
0.6296 0.3880 0.3739
0.5943 0.4441 0.3752
0.5540 0.4969 0.3763
0.5088 0.5459 0.3773
0.4592 0.5906 0.3783
0.4055 0.6307 0.3791
0.3483 0.6657 0.3799
0.2879 0.6953 0.3805
0.2250 0.7192 0.3811
0.1601 0.7372 0.3814
0.0937 0.7490 0.3817
0.0264 0.7546 0.3818
-0.0411 0.7540 0.3818
-0.1082 0.7470 0.3817
-0.1743 0.7338 0.3814
-0.2389 0.7146 0.3810
-0.3013 0.6894 0.3804
-0.3611 0.6586 0.3798
-0.4176 0.6225 0.3790
-0.4704 0.5814 0.3781
-0.5191 0.5356 0.3772
-0.5633 0.4858 0.3761
-0.6026 0.4322 0.3750
-0.6367 0.3755 0.3738
-0.6654 0.3161 0.3725
-0.6885 0.2545 0.3712
-0.7059 0.1913 0.3698
-0.7175 0.1270 0.3685
-0.7233 0.0622 0.3671
-0.7232 -0.0026 0.3657
-0.7174 -0.0669 0.3643
-0.7059 -0.1302 0.3630
-0.6889 -0.1920 0.3616
-0.6667 -0.2519 0.3604
-0.6393 -0.3094 0.3591
-0.6071 -0.3640 0.3580
-0.5705 -0.4155 0.3569
-0.5296 -0.4634 0.3558
-0.4848 -0.5075 0.3549
-0.4365 -0.5474 0.3540
-0.3850 -0.5830 0.3533
-0.3308 -0.6139 0.3526
-0.2742 -0.6399 0.3520
-0.2157 -0.6610 0.3516
-0.1557 -0.6770 0.3512
-0.0945 -0.6877 0.3510
-0.0327 -0.6932 0.3509
0.0293 -0.6933 0.3509
0.0911 -0.6881 0.3510
0.1523 -0.6777 0.3512
0.2124 -0.6620 0.3515
0.2710 -0.6412 0.3520
0.3277 -0.6154 0.3525
0.3820 -0.5847 0.3532
0.4336 -0.5495 0.3539
0.4821 -0.5098 0.3548
0.5271 -0.4659 0.3557
0.5682 -0.4182 0.3567
0.6051 -0.3669 0.3578
0.6375 -0.3124 0.3590
0.6651 -0.2551 0.3602
0.6877 -0.1954 0.3615
0.7049 -0.1337 0.3628
0.7167 -0.0705 0.3641
0.7228 -0.0062 0.3655
0.7232 0.0586 0.3669
0.7178 0.1234 0.3683
0.7066 0.1877 0.3697
0.6895 0.2509 0.3710
0.6667 0.3126 0.3723
0.6383 0.3722 0.3736
0.6045 0.4291 0.3748
0.5655 0.4828 0.3760
0.5216 0.5329 0.3771
0.4732 0.5788 0.3780
0.4206 0.6202 0.3789
0.3643 0.6567 0.3797
0.3047 0.6878 0.3804
0.2424 0.7133 0.3809
0.1780 0.7329 0.3813
0.1119 0.7464 0.3816
0.0448 0.7537 0.3818
-0.0227 0.7548 0.3818
-0.0899 0.7495 0.3817
-0.1564 0.7380 0.3815
-0.2215 0.7204 0.3811
-0.2845 0.6968 0.3806
-0.3451 0.6676 0.3800
-0.4025 0.6329 0.3792
-0.4564 0.5931 0.3784
-0.5062 0.5486 0.3774
-0.5517 0.4998 0.3764
-0.5923 0.4472 0.3753
-0.6279 0.3913 0.3741
-0.6581 0.3325 0.3728
-0.6828 0.2715 0.3715
-0.7017 0.2087 0.3702
-0.7149 0.1446 0.3688
-0.7223 0.0799 0.3674
-0.7238 0.0151 0.3661
-0.7195 -0.0494 0.3647
-0.7096 -0.1131 0.3633
-0.6941 -0.1753 0.3620
-0.6732 -0.2358 0.3607
-0.6473 -0.2939 0.3595
-0.6164 -0.3494 0.3583
-0.5809 -0.4018 0.3571
-0.5411 -0.4507 0.3561
-0.4974 -0.4959 0.3551
-0.4500 -0.5370 0.3543
-0.3994 -0.5737 0.3535
-0.3458 -0.6059 0.3528
-0.2899 -0.6333 0.3522
-0.2318 -0.6558 0.3517
-0.1722 -0.6731 0.3513
-0.1113 -0.6853 0.3511
-0.0497 -0.6922 0.3509
0.0124 -0.6938 0.3509
0.0743 -0.6901 0.3509
0.1357 -0.6810 0.3511
0.1961 -0.6668 0.3514
0.2552 -0.6474 0.3518
0.3124 -0.6229 0.3524
0.3674 -0.5936 0.3530
0.4198 -0.5595 0.3537
0.4001 -0.5608 0.3537
0.4496 -0.5240 0.3545
0.4958 -0.4830 0.3553
0.5384 -0.4380 0.3563
0.5770 -0.3893 0.3573
0.6113 -0.3372 0.3585
0.6411 -0.2822 0.3596
0.6660 -0.2246 0.3609
0.6858 -0.1648 0.3621
0.7003 -0.1033 0.3634
0.7094 -0.0405 0.3648
0.7128 0.0231 0.3661
0.7105 0.0870 0.3675
0.7025 0.1506 0.3689
0.6888 0.2135 0.3702
0.6693 0.2751 0.3715
0.6443 0.3350 0.3728
0.6138 0.3924 0.3740
0.5781 0.4471 0.3752
0.5375 0.4984 0.3763
0.4921 0.5458 0.3773
0.4425 0.5890 0.3783
0.3890 0.6276 0.3791
0.3320 0.6611 0.3798
0.2721 0.6892 0.3804
0.2098 0.7116 0.3809
0.1455 0.7282 0.3812
0.0800 0.7387 0.3815
0.0137 0.7431 0.3816
-0.0527 0.7413 0.3815
-0.1186 0.7333 0.3814
-0.1835 0.7192 0.3811
-0.2467 0.6992 0.3807
-0.3077 0.6734 0.3801
-0.3660 0.6421 0.3794
-0.4210 0.6056 0.3787
-0.4723 0.5643 0.3778
-0.5194 0.5185 0.3768
-0.5621 0.4687 0.3757
-0.5998 0.4154 0.3746
-0.6325 0.3590 0.3734
-0.6598 0.3001 0.3721
-0.6816 0.2392 0.3708
-0.6977 0.1767 0.3695
-0.7081 0.1133 0.3682
-0.7127 0.0494 0.3668
-0.7116 -0.0144 0.3654
-0.7049 -0.0776 0.3641
-0.6926 -0.1397 0.3628
-0.6750 -0.2002 0.3615
-0.6521 -0.2588 0.3602
-0.6243 -0.3149 0.3590
-0.5918 -0.3683 0.3579
-0.5549 -0.4184 0.3568
-0.5139 -0.4650 0.3558
-0.4691 -0.5077 0.3549
-0.4209 -0.5463 0.3541
-0.3697 -0.5804 0.3533
-0.3158 -0.6100 0.3527
-0.2597 -0.6348 0.3521
-0.2017 -0.6547 0.3517
-0.1423 -0.6695 0.3514
-0.0819 -0.6791 0.3512
-0.0210 -0.6835 0.3511
0.0402 -0.6827 0.3511
0.1010 -0.6766 0.3512
0.1611 -0.6653 0.3515
0.2201 -0.6489 0.3518
0.2775 -0.6275 0.3523
0.3330 -0.6012 0.3528
0.3861 -0.5701 0.3535
0.4363 -0.5345 0.3542
0.4835 -0.4946 0.3551
0.5271 -0.4506 0.3560
0.5669 -0.4029 0.3571
0.6024 -0.3518 0.3581
0.6334 -0.2975 0.3593
0.6597 -0.2406 0.3605
0.6809 -0.1813 0.3618
0.6969 -0.1202 0.3631
0.7074 -0.0578 0.3644
0.7124 0.0057 0.3658
0.7117 0.0695 0.3671
0.7053 0.1333 0.3685
0.6931 0.1964 0.3699
0.6752 0.2585 0.3712
0.6517 0.3188 0.3725
0.6227 0.3770 0.3737
0.5884 0.4325 0.3749
0.5491 0.4847 0.3760
0.5050 0.5333 0.3771
0.4565 0.5777 0.3780
0.4040 0.6175 0.3789
0.3479 0.6524 0.3796
0.2888 0.6820 0.3803
0.2270 0.7060 0.3808
0.1632 0.7242 0.3812
0.0980 0.7364 0.3814
0.0318 0.7425 0.3816
-0.0346 0.7424 0.3816
-0.1007 0.7361 0.3814
-0.1659 0.7236 0.3812
-0.2296 0.7052 0.3808
-0.2913 0.6810 0.3803
-0.3503 0.6512 0.3796
-0.4063 0.6161 0.3789
-0.4586 0.5760 0.3780
-0.5070 0.5314 0.3771
-0.5509 0.4827 0.3760
-0.5900 0.4303 0.3749
-0.6241 0.3747 0.3737
-0.6529 0.3164 0.3725
-0.6762 0.2560 0.3712
-0.6939 0.1939 0.3699
-0.7058 0.1307 0.3685
-0.7120 0.0669 0.3672
-0.7125 0.0030 0.3658
-0.7073 -0.0604 0.3644
-0.6965 -0.1228 0.3631
-0.6803 -0.1839 0.3618
-0.6589 -0.2430 0.3605
-0.6324 -0.2999 0.3593
-0.6011 -0.3540 0.3582
-0.5654 -0.4050 0.3571
-0.5255 -0.4526 0.3561
-0.4817 -0.4964 0.3551
-0.4344 -0.5361 0.3543
-0.3840 -0.5716 0.3535
-0.3308 -0.6024 0.3528
-0.2752 -0.6285 0.3523
-0.2177 -0.6498 0.3518
-0.1587 -0.6660 0.3515
-0.0985 -0.6770 0.3512
-0.0376 -0.6828 0.3511
0.0235 -0.6834 0.3511
0.0844 -0.6788 0.3512
0.1448 -0.6689 0.3514
0.2041 -0.6539 0.3517
0.2620 -0.6339 0.3521
0.3181 -0.6088 0.3527
0.3718 -0.5790 0.3533
0.4229 -0.5447 0.3540
0.4709 -0.5059 0.3549
0.5156 -0.4630 0.3558
0.5564 -0.4163 0.3568
0.5931 -0.3660 0.3578
0.6254 -0.3126 0.3590
0.6530 -0.2564 0.3602
0.6756 -0.1977 0.3614
0.6931 -0.1371 0.3627
0.7051 -0.0749 0.3641
0.7116 -0.0117 0.3654
0.7125 0.0521 0.3668
0.7076 0.1159 0.3681
0.6970 0.1793 0.3695
0.6806 0.2417 0.3708
0.6586 0.3025 0.3721
0.6311 0.3614 0.3734
0.5983 0.4176 0.3746
0.5603 0.4708 0.3757
0.5175 0.5204 0.3768
0.4701 0.5660 0.3778
0.4187 0.6071 0.3786
0.3636 0.6434 0.3794
0.3052 0.6745 0.3801
0.2441 0.7001 0.3806
0.1808 0.7199 0.3811
0.1159 0.7337 0.3814
0.0500 0.7415 0.3815
-0.0164 0.7430 0.3816
-0.0827 0.7384 0.3815
-0.1482 0.7276 0.3813
-0.2124 0.7108 0.3809
-0.2747 0.6882 0.3804
-0.3345 0.6598 0.3798
-0.3914 0.6262 0.3791
-0.4447 0.5874 0.3783
-0.4942 0.5440 0.3774
-0.5393 0.4964 0.3763
-0.5798 0.4450 0.3752
-0.6153 0.3902 0.3741
-0.6456 0.3326 0.3728
-0.6704 0.2727 0.3716
-0.6896 0.2110 0.3702
-0.7031 0.1480 0.3689
-0.7109 0.0843 0.3675
-0.7129 0.0205 0.3662
-0.7093 -0.0431 0.3648
-0.7000 -0.1059 0.3635
-0.6853 -0.1674 0.3622
-0.6652 -0.2271 0.3609
-0.6401 -0.2846 0.3597
-0.6101 -0.3395 0.3585
-0.5756 -0.3914 0.3574
-0.5368 -0.4400 0.3563
-0.4940 -0.4848 0.3554
-0.4476 -0.5257 0.3545
-0.3980 -0.5623 0.3537
-0.3455 -0.5945 0.3530
-0.2906 -0.6219 0.3524
-0.2336 -0.6445 0.3519
-0.1749 -0.6620 0.3516
-0.1150 -0.6745 0.3513
-0.0543 -0.6818 0.3511
0.0068 -0.6838 0.3511
0.0678 -0.6806 0.3512
0.1284 -0.6721 0.3513
0.1880 -0.6585 0.3516
0.2464 -0.6398 0.3520
0.3030 -0.6162 0.3525
0.3574 -0.5877 0.3531
0.4092 -0.5545 0.3538
0.4582 -0.5169 0.3546
0.5037 -0.4751 0.3555
0.5456 -0.4294 0.3565
0.5835 -0.3801 0.3575
0.6171 -0.3275 0.3587
0.6460 -0.2720 0.3598
0.6700 -0.2140 0.3611
0.6888 -0.1538 0.3624
0.7024 -0.0920 0.3637
0.7104 -0.0291 0.3650
0.7128 0.0346 0.3664
0.7095 0.0985 0.3678
0.7005 0.1620 0.3691
0.6857 0.2248 0.3705
0.6652 0.2861 0.3718
0.6392 0.3455 0.3730
0.6078 0.4025 0.3743
0.5712 0.4566 0.3754
0.5296 0.5072 0.3765
0.4835 0.5540 0.3775
0.4331 0.5964 0.3784
0.3790 0.6340 0.3792
0.3214 0.6665 0.3799
0.2610 0.6936 0.3805
0.1983 0.7150 0.3810
0.1338 0.7305 0.3813
0.0680 0.7400 0.3815
0.0017 0.7432 0.3816
-0.0647 0.7403 0.3815
-0.1304 0.7312 0.3813
-0.1950 0.7160 0.3810
-0.2579 0.6949 0.3806
-0.3184 0.6681 0.3800
-0.3761 0.6359 0.3793
-0.4305 0.5985 0.3785
-0.4811 0.5563 0.3776
-0.5275 0.5098 0.3766
-0.5692 0.4594 0.3755
-0.6061 0.4055 0.3744
-0.6378 0.3486 0.3732
-0.6642 0.2892 0.3719
-0.6849 0.2280 0.3706
-0.7000 0.1653 0.3693
-0.7093 0.1018 0.3679
-0.7129 0.0379 0.3665
-0.7108 -0.0258 0.3652
-0.7031 -0.0889 0.3638
-0.6898 -0.1507 0.3625
-0.6712 -0.2110 0.3612
-0.6475 -0.2691 0.3600
-0.6188 -0.3248 0.3588
-0.5855 -0.3776 0.3577
-0.5478 -0.4271 0.3566
-0.5061 -0.4730 0.3556
-0.4606 -0.5150 0.3547
-0.4119 -0.5528 0.3539
-0.3601 -0.5861 0.3532
-0.3058 -0.6149 0.3526
-0.2493 -0.6388 0.3521
-0.1911 -0.6577 0.3517
-0.1315 -0.6716 0.3514
-0.0709 -0.6803 0.3512
-0.0099 -0.6838 0.3511
0.0512 -0.6820 0.3511
0.1119 -0.6750 0.3513
0.1719 -0.6628 0.3515
0.2306 -0.6454 0.3519
0.2877 -0.6231 0.3524
0.3428 -0.5959 0.3529
0.3954 -0.5640 0.3536
0.4451 -0.5276 0.3544
0.4916 -0.4869 0.3553
0.5346 -0.4423 0.3562
0.5736 -0.3939 0.3572
0.6083 -0.3422 0.3583
0.6385 -0.2874 0.3595
0.6639 -0.2300 0.3607
0.6842 -0.1704 0.3620
0.6992 -0.1091 0.3633
0.7088 -0.0464 0.3647
0.7127 0.0172 0.3660
0.7110 0.0811 0.3674
0.7035 0.1447 0.3687
0.6903 0.2077 0.3701
0.6714 0.2695 0.3714
0.6468 0.3295 0.3727
0.6169 0.3872 0.3739
0.5816 0.4422 0.3751
0.5414 0.4938 0.3762
0.4965 0.5416 0.3772
0.4473 0.5852 0.3782
0.3941 0.6242 0.3790
0.3375 0.6582 0.3797
0.2778 0.6868 0.3804
0.2156 0.7098 0.3808
0.1515 0.7269 0.3812
0.0861 0.7380 0.3815
0.0198 0.7429 0.3816
-0.0466 0.7417 0.3815
-0.1126 0.7343 0.3814
-0.1775 0.7208 0.3811
-0.2409 0.7013 0.3807
-0.3022 0.6760 0.3802
-0.3607 0.6452 0.3795
-0.4160 0.6092 0.3787
-0.4677 0.5683 0.3779
-0.5152 0.5229 0.3769
-0.5583 0.4735 0.3758
-0.5966 0.4205 0.3747
-0.6297 0.3644 0.3735
-0.6575 0.3057 0.3723
-0.6798 0.2449 0.3710
-0.6964 0.1825 0.3696
-0.7074 0.1192 0.3683
-0.7125 0.0553 0.3669
-0.7120 -0.0085 0.3656
-0.7057 -0.0717 0.3642
-0.6940 -0.1340 0.3629
-0.6768 -0.1947 0.3616
-0.6544 -0.2535 0.3603
-0.6271 -0.3099 0.3591
-0.5950 -0.3635 0.3580
-0.5585 -0.4139 0.3569
-0.5178 -0.4608 0.3559
-0.4734 -0.5039 0.3550
-0.4255 -0.5429 0.3541
-0.3745 -0.5775 0.3534
-0.3209 -0.6075 0.3527
-0.2650 -0.6327 0.3522
-0.2071 -0.6531 0.3518
-0.1479 -0.6683 0.3514
-0.0875 -0.6784 0.3512
-0.0266 -0.6833 0.3511
0.0345 -0.6830 0.3511
0.0954 -0.6774 0.3512
0.1556 -0.6666 0.3514
0.2147 -0.6507 0.3518
0.2723 -0.6297 0.3522
0.3279 -0.6038 0.3528
0.3813 -0.5732 0.3534
0.4318 -0.5380 0.3542
0.4793 -0.4985 0.3550
0.5232 -0.4549 0.3559
0.5634 -0.4075 0.3570
0.5993 -0.3566 0.3580
0.6308 -0.3027 0.3592
0.6575 -0.2459 0.3604
0.6792 -0.1869 0.3617
0.6956 -0.1260 0.3630
0.7067 -0.0636 0.3643
0.7122 -0.0002 0.3656
0.7120 0.0636 0.3670
0.7061 0.1274 0.3684
0.6945 0.1906 0.3697
0.6771 0.2528 0.3711
0.6541 0.3133 0.3724
0.6256 0.3717 0.3736
0.5918 0.4275 0.3748
0.5529 0.4800 0.3759
0.5092 0.5290 0.3770
0.4611 0.5738 0.3779
0.4090 0.6141 0.3788
0.3532 0.6494 0.3796
0.2943 0.6795 0.3802
0.2328 0.7041 0.3807
0.1692 0.7228 0.3811
0.1041 0.7356 0.3814
0.0380 0.7422 0.3816
-0.0284 0.7427 0.3816
-0.0946 0.7369 0.3814
-0.1599 0.7251 0.3812
-0.2238 0.7072 0.3808
-0.2857 0.6835 0.3803
-0.3450 0.6541 0.3797
-0.4013 0.6195 0.3790
-0.4540 0.5799 0.3781
-0.5027 0.5357 0.3772
-0.5470 0.4874 0.3761
-0.5866 0.4353 0.3750
-0.6212 0.3800 0.3739
-0.6505 0.3219 0.3726
-0.6743 0.2617 0.3713
-0.6925 0.1997 0.3700
-0.7050 0.1366 0.3687
-0.7117 0.0728 0.3673
-0.7127 0.0089 0.3659
-0.7080 -0.0545 0.3646
-0.6977 -0.1171 0.3632
-0.6820 -0.1783 0.3619
-0.6611 -0.2377 0.3607
-0.6350 -0.2947 0.3594
-0.6042 -0.3491 0.3583
-0.5689 -0.4004 0.3572
-0.5293 -0.4484 0.3561
-0.4859 -0.4925 0.3552
-0.4389 -0.5326 0.3543
-0.3887 -0.5685 0.3536
-0.3358 -0.5998 0.3529
-0.2804 -0.6263 0.3523
-0.2231 -0.6480 0.3519
-0.1642 -0.6647 0.3515
-0.1041 -0.6762 0.3513
-0.0433 -0.6825 0.3511
0.0178 -0.6836 0.3511
0.0788 -0.6794 0.3512
0.1392 -0.6701 0.3514
0.1987 -0.6555 0.3517
0.2567 -0.6359 0.3521
0.3130 -0.6114 0.3526
0.3669 -0.5820 0.3532
0.4183 -0.5480 0.3540
0.4666 -0.5097 0.3548
0.5116 -0.4672 0.3557
0.5528 -0.4208 0.3567
0.5899 -0.3708 0.3577
0.6226 -0.3177 0.3589
0.6507 -0.2617 0.3601
0.6738 -0.2032 0.3613
0.6917 -0.1428 0.3626
0.7042 -0.0807 0.3639
0.7113 -0.0176 0.3653
0.7126 0.0462 0.3666
0.7083 0.1100 0.3680
0.6982 0.1735 0.3694
0.6824 0.2360 0.3707
0.6609 0.2970 0.3720
0.6339 0.3560 0.3733
0.6015 0.4125 0.3745
0.5640 0.4660 0.3756
0.5216 0.5160 0.3767
0.4747 0.5620 0.3777
0.4236 0.6035 0.3786
0.3688 0.6403 0.3794
0.3107 0.6718 0.3800
0.2499 0.6979 0.3806
0.1867 0.7183 0.3810
0.1220 0.7327 0.3813
0.0561 0.7410 0.3815
-0.0103 0.7431 0.3816
-0.0766 0.7391 0.3815
-0.1422 0.7289 0.3813
-0.2065 0.7126 0.3809
-0.2690 0.6905 0.3805
-0.3291 0.6627 0.3799
-0.3862 0.6295 0.3792
-0.4399 0.5912 0.3784
-0.4898 0.5482 0.3774
-0.5354 0.5010 0.3764
-0.5763 0.4499 0.3753
-0.6122 0.3954 0.3742
-0.6430 0.3380 0.3730
-0.6683 0.2783 0.3717
-0.6881 0.2168 0.3704
-0.7021 0.1539 0.3690
-0.7104 0.0902 0.3677
-0.7130 0.0264 0.3663
-0.7098 -0.0373 0.3649
-0.7011 -0.1001 0.3636
-0.6868 -0.1618 0.3623
-0.6673 -0.2217 0.3610
-0.6426 -0.2794 0.3598
-0.6131 -0.3346 0.3586
-0.5790 -0.3868 0.3575
-0.5405 -0.4356 0.3564
-0.4981 -0.4808 0.3555
-0.4521 -0.5221 0.3546
-0.4027 -0.5591 0.3538
-0.3505 -0.5917 0.3531
-0.2958 -0.6196 0.3525
-0.2389 -0.6426 0.3520
-0.1804 -0.6606 0.3516
-0.1206 -0.6736 0.3513
-0.0599 -0.6813 0.3511
0.0011 -0.6838 0.3511
0.0622 -0.6811 0.3511
0.1228 -0.6731 0.3513
0.1826 -0.6600 0.3516
0.2410 -0.6418 0.3520
0.2978 -0.6186 0.3525
0.3524 -0.5905 0.3531
0.4046 -0.5578 0.3538
0.4538 -0.5206 0.3545
0.4997 -0.4792 0.3554
0.5419 -0.4338 0.3564
0.5802 -0.3848 0.3574
0.6142 -0.3325 0.3586
0.6435 -0.2772 0.3597
0.6680 -0.2194 0.3610
0.6873 -0.1595 0.3622
0.7013 -0.0978 0.3636
0.7099 -0.0349 0.3649
0.7128 0.0287 0.3663
0.7101 0.0926 0.3676
0.7015 0.1562 0.3690
0.6873 0.2190 0.3703
0.6673 0.2805 0.3717
0.6418 0.3401 0.3729
0.6109 0.3974 0.3742
0.5748 0.4517 0.3753
0.5337 0.5027 0.3764
0.4879 0.5498 0.3774
0.4380 0.5926 0.3783
0.3841 0.6307 0.3792
0.3269 0.6638 0.3799
0.2667 0.6914 0.3805
0.2042 0.7133 0.3809
0.1398 0.7294 0.3813
0.0742 0.7393 0.3815
0.0078 0.7432 0.3816
-0.0585 0.7408 0.3815
-0.1244 0.7323 0.3814
-0.1891 0.7177 0.3810
-0.2522 0.6971 0.3806
-0.3130 0.6708 0.3800
-0.3709 0.6391 0.3794
-0.4256 0.6022 0.3786
-0.4766 0.5604 0.3777
-0.5234 0.5143 0.3767
-0.5656 0.4642 0.3756
-0.6029 0.4106 0.3745
-0.6351 0.3540 0.3733
-0.6620 0.2948 0.3720
-0.6832 0.2337 0.3707
-0.6988 0.1712 0.3694
-0.7087 0.1077 0.3680
-0.7129 0.0438 0.3667
-0.7113 -0.0199 0.3653
-0.7040 -0.0831 0.3640
-0.6913 -0.1451 0.3626
-0.6732 -0.2055 0.3613
-0.6499 -0.2639 0.3601
-0.6216 -0.3198 0.3589
-0.5887 -0.3728 0.3578
-0.5514 -0.4226 0.3567
-0.5101 -0.4689 0.3557
-0.4650 -0.5112 0.3548
-0.4165 -0.5494 0.3540
-0.3650 -0.5832 0.3533
-0.3110 -0.6124 0.3526
-0.2546 -0.6368 0.3521
-0.1965 -0.6562 0.3517
-0.1370 -0.6705 0.3514
-0.0766 -0.6797 0.3512
-0.0156 -0.6837 0.3511
0.0455 -0.6824 0.3511
0.1063 -0.6758 0.3512
0.1664 -0.6641 0.3515
0.2252 -0.6473 0.3519
0.2825 -0.6254 0.3523
0.3378 -0.5986 0.3529
0.3906 -0.5671 0.3536
0.4406 -0.5312 0.3543
0.4875 -0.4909 0.3552
0.5308 -0.4466 0.3561
0.5702 -0.3985 0.3571
0.6053 -0.3471 0.3582
0.6360 -0.2926 0.3594
0.6618 -0.2354 0.3606
0.6826 -0.1760 0.3619
0.6981 -0.1148 0.3632
0.7081 -0.0522 0.3645
0.7126 0.0113 0.3659
0.7114 0.0751 0.3673
0.7044 0.1389 0.3686
0.6917 0.2020 0.3700
0.6733 0.2639 0.3713
0.6493 0.3240 0.3726
0.6199 0.3820 0.3738
0.5851 0.4372 0.3750
0.5454 0.4891 0.3761
0.5009 0.5374 0.3771
0.4520 0.5814 0.3781
0.3992 0.6208 0.3789
0.3428 0.6553 0.3797
0.2834 0.6844 0.3803
0.2215 0.7079 0.3808
0.1575 0.7256 0.3812
0.0922 0.7372 0.3814
0.0260 0.7427 0.3816
-0.0404 0.7421 0.3816
-0.1065 0.7352 0.3814
-0.1716 0.7223 0.3811
-0.2352 0.7033 0.3807
-0.2966 0.6786 0.3802
-0.3554 0.6483 0.3796
-0.4111 0.6127 0.3788
-0.4631 0.5723 0.3780
-0.5110 0.5273 0.3770
-0.5545 0.4782 0.3759
-0.5932 0.4255 0.3748
-0.6269 0.3697 0.3736
-0.6552 0.3112 0.3724
-0.6780 0.2506 0.3711
-0.6951 0.1884 0.3698
-0.7066 0.1251 0.3684
-0.7123 0.0613 0.3670
-0.7123 -0.0026 0.3657
-0.7066 -0.0659 0.3643
-0.6953 -0.1283 0.3630
-0.6786 -0.1892 0.3617
-0.6567 -0.2481 0.3604
-0.6298 -0.3048 0.3592
-0.5982 -0.3586 0.3581
-0.5620 -0.4094 0.3570
-0.5218 -0.4566 0.3560
-0.4776 -0.5001 0.3550
-0.4301 -0.5394 0.3542
-0.3794 -0.5745 0.3534
-0.3260 -0.6049 0.3528
-0.2702 -0.6306 0.3522
-0.2126 -0.6514 0.3518
-0.1534 -0.6671 0.3515
-0.0932 -0.6777 0.3512
-0.0323 -0.6831 0.3511
0.0289 -0.6832 0.3511
0.0898 -0.6781 0.3512
0.1501 -0.6678 0.3514
0.2093 -0.6524 0.3517
0.2670 -0.6318 0.3522
0.3229 -0.6064 0.3527
0.3764 -0.5762 0.3534
0.4273 -0.5414 0.3541
0.4750 -0.5023 0.3549
0.5193 -0.4591 0.3559
0.5598 -0.4120 0.3569
0.5962 -0.3615 0.3579
0.6280 -0.3078 0.3591
0.6552 -0.2513 0.3603
0.6774 -0.1925 0.3615
0.6944 -0.1317 0.3628
0.7059 -0.0694 0.3642
0.7119 -0.0061 0.3655
0.7123 0.0577 0.3669
0.7069 0.1215 0.3683
0.6958 0.1848 0.3696
0.6789 0.2471 0.3709
0.6564 0.3078 0.3722
0.6284 0.3664 0.3735
0.5951 0.4224 0.3747
0.5567 0.4753 0.3758
0.5135 0.5246 0.3769
0.4658 0.5698 0.3778
0.4140 0.6105 0.3787
0.3585 0.6464 0.3795
0.2999 0.6770 0.3801
0.2386 0.7020 0.3807
0.1752 0.7213 0.3811
0.1101 0.7346 0.3814
0.0441 0.7418 0.3815
-0.0223 0.7429 0.3816
-0.0885 0.7377 0.3815
-0.1539 0.7264 0.3812
-0.2180 0.7091 0.3809
-0.2801 0.6859 0.3804
-0.3396 0.6571 0.3798
-0.3962 0.6229 0.3790
-0.4493 0.5838 0.3782
-0.4983 0.5400 0.3773
-0.5431 0.4920 0.3762
-0.5831 0.4403 0.3751
-0.6182 0.3852 0.3740
-0.6480 0.3274 0.3727
-0.6723 0.2673 0.3714
-0.6910 0.2055 0.3701
-0.7040 0.1424 0.3688
-0.7113 0.0787 0.3674
-0.7128 0.0148 0.3661
-0.7087 -0.0487 0.3647
-0.6989 -0.1114 0.3634
-0.6837 -0.1727 0.3620
-0.6632 -0.2322 0.3608
-0.6377 -0.2896 0.3595
-0.6073 -0.3442 0.3584
-0.5723 -0.3958 0.3573
-0.5332 -0.4441 0.3562
-0.4901 -0.4886 0.3553
-0.4434 -0.5291 0.3544
-0.3935 -0.5653 0.3536
-0.3408 -0.5971 0.3530
-0.2857 -0.6241 0.3524
-0.2285 -0.6462 0.3519
-0.1697 -0.6633 0.3515
-0.1097 -0.6753 0.3513
-0.0489 -0.6822 0.3511
0.0122 -0.6837 0.3511
0.0732 -0.6801 0.3512
0.1337 -0.6712 0.3513
0.1932 -0.6571 0.3516
0.2514 -0.6379 0.3521
0.3078 -0.6138 0.3526
0.3621 -0.5849 0.3532
0.4137 -0.5514 0.3539
0.3943 -0.5527 0.3539
0.4430 -0.5164 0.3546
0.4885 -0.4759 0.3555
0.5305 -0.4316 0.3564
0.5685 -0.3836 0.3575
0.6024 -0.3323 0.3586
0.6317 -0.2781 0.3597
0.6562 -0.2213 0.3609
0.6757 -0.1624 0.3622
0.6899 -0.1018 0.3635
0.6988 -0.0399 0.3648
0.7021 0.0227 0.3661
0.6998 0.0857 0.3675
0.6919 0.1483 0.3688
0.6783 0.2103 0.3701
0.6591 0.2710 0.3714
0.6344 0.3298 0.3727
0.6044 0.3864 0.3739
0.5693 0.4402 0.3751
0.5292 0.4907 0.3761
0.4845 0.5374 0.3772
0.4357 0.5799 0.3781
0.3830 0.6178 0.3789
0.3269 0.6508 0.3796
0.2679 0.6784 0.3802
0.2065 0.7005 0.3807
0.1433 0.7168 0.3810
0.0787 0.7272 0.3812
0.0135 0.7315 0.3813
-0.0519 0.7297 0.3813
-0.1168 0.7218 0.3811
-0.1806 0.7080 0.3808
-0.2429 0.6883 0.3804
-0.3029 0.6629 0.3799
-0.3603 0.6321 0.3792
-0.4144 0.5962 0.3785
-0.4650 0.5556 0.3776
-0.5114 0.5105 0.3766
-0.5534 0.4615 0.3756
-0.5906 0.4090 0.3745
-0.6228 0.3536 0.3733
-0.6498 0.2955 0.3721
-0.6712 0.2355 0.3708
-0.6871 0.1740 0.3695
-0.6974 0.1116 0.3681
-0.7020 0.0487 0.3668
-0.7010 -0.0141 0.3654
-0.6944 -0.0764 0.3641
-0.6823 -0.1376 0.3628
-0.6650 -0.1973 0.3615
-0.6425 -0.2550 0.3603
-0.6151 -0.3103 0.3591
-0.5831 -0.3629 0.3580
-0.5468 -0.4123 0.3569
-0.5064 -0.4582 0.3559
-0.4623 -0.5003 0.3550
-0.4148 -0.5383 0.3542
-0.3643 -0.5720 0.3535
-0.3112 -0.6012 0.3529
-0.2559 -0.6257 0.3523
-0.1988 -0.6453 0.3519
-0.1403 -0.6598 0.3516
-0.0807 -0.6693 0.3514
-0.0207 -0.6737 0.3513
0.0396 -0.6729 0.3513
0.0995 -0.6669 0.3514
0.1588 -0.6558 0.3517
0.2169 -0.6396 0.3520
0.2735 -0.6184 0.3525
0.3282 -0.5925 0.3530
0.3805 -0.5618 0.3537
0.4300 -0.5267 0.3544
0.4765 -0.4874 0.3553
0.5194 -0.4441 0.3562
0.5586 -0.3970 0.3572
0.5936 -0.3466 0.3583
0.6241 -0.2931 0.3594
0.6500 -0.2370 0.3606
0.6708 -0.1787 0.3618
0.6865 -0.1185 0.3631
0.6969 -0.0569 0.3644
0.7017 0.0056 0.3658
0.7010 0.0685 0.3671
0.6946 0.1313 0.3685
0.6826 0.1935 0.3698
0.6649 0.2545 0.3711
0.6417 0.3140 0.3724
0.6131 0.3712 0.3736
0.5794 0.4258 0.3748
0.5406 0.4773 0.3759
0.4972 0.5250 0.3769
0.4494 0.5687 0.3778
0.3977 0.6080 0.3787
0.3425 0.6423 0.3794
0.2843 0.6714 0.3800
0.2235 0.6950 0.3805
0.1607 0.7129 0.3809
0.0964 0.7249 0.3812
0.0313 0.7309 0.3813
-0.0340 0.7308 0.3813
-0.0991 0.7246 0.3812
-0.1633 0.7124 0.3809
-0.2261 0.6942 0.3805
-0.2868 0.6704 0.3800
-0.3449 0.6410 0.3794
-0.4000 0.6065 0.3787
-0.4515 0.5671 0.3778
-0.4991 0.5232 0.3769
-0.5424 0.4753 0.3759
-0.5810 0.4237 0.3748
-0.6146 0.3690 0.3736
-0.6429 0.3116 0.3724
-0.6659 0.2521 0.3711
-0.6834 0.1910 0.3698
-0.6952 0.1287 0.3685
-0.7013 0.0659 0.3671
-0.7018 0.0030 0.3658
-0.6967 -0.0595 0.3645
-0.6862 -0.1210 0.3632
-0.6702 -0.1812 0.3619
-0.6491 -0.2394 0.3606
-0.6231 -0.2955 0.3594
-0.5923 -0.3488 0.3583
-0.5571 -0.3991 0.3572
-0.5178 -0.4460 0.3562
-0.4747 -0.4892 0.3553
-0.4281 -0.5284 0.3544
-0.3784 -0.5633 0.3537
-0.3260 -0.5937 0.3530
-0.2712 -0.6195 0.3525
-0.2146 -0.6404 0.3520
-0.1564 -0.6564 0.3517
-0.0971 -0.6673 0.3514
-0.0371 -0.6730 0.3513
0.0231 -0.6736 0.3513
0.0832 -0.6690 0.3514
0.1427 -0.6593 0.3516
0.2012 -0.6445 0.3519
0.2582 -0.6247 0.3523
0.3135 -0.6000 0.3529
0.3664 -0.5707 0.3535
0.4168 -0.5368 0.3542
0.4641 -0.4985 0.3550
0.5080 -0.4563 0.3559
0.5483 -0.4102 0.3569
0.5844 -0.3607 0.3580
0.6162 -0.3080 0.3591
0.6434 -0.2526 0.3603
0.6656 -0.1948 0.3615
0.6828 -0.1351 0.3628
