ply
format ascii 1.0
element vertex 2176
property float32 x
property float32 y
property float32 z
end_header
0.1185 -1.0509 0.3436
0.2120 -1.0370 0.3439
0.3041 -1.0153 0.3444
0.3942 -0.9859 0.3450
0.4816 -0.9489 0.3458
0.5659 -0.9046 0.3467
0.6463 -0.8531 0.3478
0.7224 -0.7949 0.3490
0.7935 -0.7301 0.3504
0.8591 -0.6591 0.3518
0.9187 -0.5825 0.3534
0.9717 -0.5006 0.3552
1.0177 -0.4140 0.3570
1.0562 -0.3233 0.3589
1.0868 -0.2290 0.3609
2.3091 -0.2746 0.7555
2.3112 -0.0671 0.7513
2.3133 0.1397 0.7530
2.3155 0.3492 0.7609
2.3177 0.5648 0.7751
1.0880 0.3707 0.3735
1.0564 0.4688 0.3755
1.0157 0.5642 0.3775
0.9662 0.6559 0.3795
0.9082 0.7431 0.3813
0.8421 0.8249 0.3830
0.7683 0.9004 0.3846
0.6875 0.9690 0.3860
0.6002 1.0299 0.3873
0.5074 1.0824 0.3884
0.4098 1.1260 0.3893
0.3082 1.1603 0.3901
0.2038 1.1847 0.3906
0.0973 1.1991 0.3909
-0.0101 1.2033 0.3910
-0.1173 1.1972 0.3909
-0.2235 1.1809 0.3905
-0.3275 1.1546 0.3900
-0.4284 1.1187 0.3892
-0.5252 1.0733 0.3883
-0.6171 1.0192 0.3871
-0.7032 0.9568 0.3858
-0.7828 0.8869 0.3844
-0.8552 0.8101 0.3827
-0.9199 0.7273 0.3810
-0.9763 0.6392 0.3792
-1.0242 0.5467 0.3772
-1.0632 0.4507 0.3752
-5.5476 1.7870 1.8937
-5.6586 1.2790 1.8850
-5.7231 0.7654 1.8761
-5.7413 0.2505 1.8672
-5.7055 -0.2611 1.8558
-5.6236 -0.7643 1.8440
-1.0818 -0.2470 0.3606
-1.0497 -0.3406 0.3586
-1.0098 -0.4306 0.3567
-0.9625 -0.5164 0.3549
-0.9082 -0.5973 0.3532
-0.8474 -0.6729 0.3516
-0.7807 -0.7428 0.3501
-0.7086 -0.8064 0.3488
-0.6317 -0.8634 0.3476
-0.5504 -0.9135 0.3465
-0.4655 -0.9565 0.3456
-0.3775 -0.9921 0.3449
-0.2870 -1.0200 0.3443
-0.1946 -1.0403 0.3439
-0.1009 -1.0527 0.3436
-0.0066 -1.0572 0.3435
0.0878 -1.0538 0.3436
0.1816 -1.0425 0.3438
0.2742 -1.0233 0.3442
0.3650 -0.9964 0.3448
0.4534 -0.9618 0.3455
0.5388 -0.9199 0.3464
0.6205 -0.8707 0.3474
0.6981 -0.8146 0.3486
0.7709 -0.7519 0.3499
0.6291 -0.8397 0.3481
0.7039 -0.7829 0.3492
0.7738 -0.7197 0.3506
0.8384 -0.6504 0.3520
0.8971 -0.5756 0.3536
0.9494 -0.4956 0.3553
0.9947 -0.4110 0.3570
1.0328 -0.3222 0.3589
1.0631 -0.2300 0.3608
1.0854 -0.1350 0.3628
2.3111 -0.0795 0.7671
2.3132 0.1272 0.7686
2.3154 0.3364 0.7762
1.0883 0.2590 0.3711
1.0667 0.3570 0.3732
1.0362 0.4532 0.3752
0.9968 0.5467 0.3772
0.9488 0.6366 0.3790
0.8924 0.7222 0.3808
0.8281 0.8025 0.3825
0.7563 0.8767 0.3841
0.6775 0.9442 0.3855
0.5925 1.0041 0.3868
0.5020 1.0559 0.3879
0.4067 1.0991 0.3888
0.3076 1.1331 0.3895
0.2055 1.1575 0.3900
0.1015 1.1722 0.3903
-0.0035 1.1769 0.3904
-0.1085 1.1715 0.3903
-0.2124 1.1563 0.3900
-0.3143 1.1312 0.3895
-0.4132 1.0966 0.3887
-0.5082 1.0529 0.3878
-0.5984 1.0005 0.3867
-0.6830 0.9400 0.3855
-0.7614 0.8721 0.3840
-0.8327 0.7974 0.3825
-0.8966 0.7167 0.3808
-0.9524 0.6309 0.3790
-0.9999 0.5407 0.3771
-1.0387 0.4470 0.3751
-1.0686 0.3506 0.3731
-5.5355 1.2826 1.8850
-5.6020 0.7799 1.8764
-5.6231 0.2757 1.8677
-5.5919 -0.2258 1.8566
-1.0843 -0.1414 0.3628
-1.0615 -0.2363 0.3608
-1.0307 -0.3283 0.3588
-0.9921 -0.4168 0.3570
-0.9462 -0.5011 0.3552
-0.8935 -0.5808 0.3535
-0.8344 -0.6553 0.3520
-0.7694 -0.7242 0.3505
-0.6991 -0.7869 0.3492
-0.6240 -0.8433 0.3480
-0.5446 -0.8929 0.3470
-0.4616 -0.9355 0.3461
-0.3755 -0.9709 0.3453
-0.2868 -0.9988 0.3447
-0.1963 -1.0192 0.3443
-0.1045 -1.0318 0.3440
-0.0120 -1.0367 0.3439
0.0805 -1.0338 0.3440
0.1725 -1.0232 0.3442
0.2634 -1.0048 0.3446
0.3526 -0.9788 0.3451
0.4394 -0.9454 0.3458
0.5233 -0.9046 0.3467
0.6037 -0.8568 0.3477
0.6799 -0.8021 0.3488
0.7516 -0.7410 0.3501
0.8179 -0.6737 0.3515
0.8786 -0.6006 0.3531
0.9330 -0.5223 0.3547
0.9807 -0.4391 0.3565
1.0212 -0.3516 0.3583
1.0541 -0.2605 0.3602
1.0790 -0.1663 0.3622
1.0957 -0.0698 0.3642
2.3125 0.0596 0.7674
2.3147 0.2676 0.7730
1.0934 0.2267 0.3704
1.0748 0.3252 0.3725
1.0472 0.4221 0.3745
1.0107 0.5165 0.3765
0.9654 0.6077 0.3784
0.9117 0.6948 0.3803
0.8499 0.7769 0.3820
0.7805 0.8532 0.3836
0.7040 0.9229 0.3851
0.6209 0.9854 0.3864
0.5321 1.0399 0.3875
0.4383 1.0860 0.3885
0.3403 1.1230 0.3893
0.2391 1.1506 0.3899
0.1356 1.1685 0.3902
0.0308 1.1764 0.3904
-0.0742 1.1744 0.3904
-0.1786 1.1623 0.3901
-0.2813 1.1404 0.3897
-0.3813 1.1089 0.3890
-0.4776 1.0681 0.3882
-0.5695 1.0185 0.3871
-0.6560 0.9606 0.3859
-0.7365 0.8950 0.3845
-0.8102 0.8225 0.3830
-0.8766 0.7437 0.3814
-0.9351 0.6594 0.3796
-0.9853 0.5706 0.3777
-1.0270 0.4779 0.3758
-1.0598 0.3823 0.3738
-1.0837 0.2847 0.3717
-5.5853 0.9445 1.8792
-5.6212 0.4403 1.8705
-5.6076 -0.0626 1.8604
-5.5449 -0.5592 1.8488
-1.0699 -0.2056 0.3614
-1.0416 -0.2986 0.3595
-1.0055 -0.3883 0.3576
-0.9620 -0.4741 0.3558
-0.9115 -0.5553 0.3541
-0.8544 -0.6316 0.3525
-0.7913 -0.7023 0.3510
-0.7226 -0.7671 0.3496
-0.6490 -0.8256 0.3484
-0.5710 -0.8775 0.3473
-0.4891 -0.9224 0.3464
-0.4039 -0.9602 0.3456
-0.3160 -0.9905 0.3449
-0.2261 -1.0134 0.3444
-0.1346 -1.0285 0.3441
-0.0423 -1.0360 0.3440
0.0503 -1.0356 0.3440
0.1426 -1.0275 0.3441
0.2339 -1.0116 0.3445
0.3237 -0.9881 0.3449
0.4114 -0.9571 0.3456
0.4963 -0.9187 0.3464
0.5778 -0.8732 0.3474
0.6555 -0.8207 0.3485
0.7287 -0.7617 0.3497
0.7969 -0.6963 0.3511
0.8595 -0.6251 0.3526
0.9160 -0.5484 0.3542
0.9659 -0.4667 0.3559
1.0088 -0.3806 0.3577
1.0442 -0.2906 0.3596
1.0718 -0.1974 0.3615
1.0912 -0.1015 0.3635
2.3118 -0.0079 0.7669
2.3140 0.1993 0.7705
1.0975 0.1943 0.3698
1.0818 0.2931 0.3718
1.0572 0.3906 0.3739
1.0235 0.4860 0.3759
0.9811 0.5783 0.3778
0.9302 0.6668 0.3797
0.8710 0.7506 0.3814
0.8040 0.8289 0.3831
0.7297 0.9009 0.3846
0.6487 0.9658 0.3860
0.5617 1.0230 0.3872
0.4694 1.0719 0.3882
0.3727 1.1119 0.3890
0.2725 1.1427 0.3897
0.1696 1.1637 0.3901
0.0651 1.1750 0.3904
-0.0400 1.1762 0.3904
-0.1447 1.1674 0.3902
-0.2480 1.1487 0.3898
-0.3490 1.1202 0.3892
-0.4466 1.0824 0.3885
-0.5400 1.0356 0.3875
-0.6284 0.9804 0.3863
-0.7109 0.9173 0.3850
-0.7869 0.8469 0.3835
-0.8557 0.7701 0.3819
-0.9168 0.6875 0.3802
-0.9698 0.6001 0.3783
-1.0143 0.5085 0.3764
-1.0501 0.4138 0.3744
-1.0769 0.3167 0.3724
-5.5637 1.1087 1.8820
-5.6144 0.6051 1.8733
-5.6186 0.1012 1.8642
-5.5702 -0.3980 1.8526
-1.0774 -0.1746 0.3621
-1.0517 -0.2686 0.3601
-1.0182 -0.3594 0.3582
-0.9770 -0.4465 0.3564
-0.9287 -0.5293 0.3546
-0.8737 -0.6073 0.3530
-0.8125 -0.6798 0.3515
-0.7456 -0.7466 0.3501
-0.6736 -0.8072 0.3488
-0.5969 -0.8613 0.3476
-0.5162 -0.9085 0.3466
-0.4320 -0.9486 0.3458
-0.3450 -0.9814 0.3451
-0.2556 -1.0067 0.3446
-0.1646 -1.0244 0.3442
-0.0725 -1.0344 0.3440
0.0201 -1.0366 0.3439
0.1125 -1.0310 0.3441
0.2042 -1.0177 0.3443
0.2946 -0.9966 0.3448
0.3830 -0.9681 0.3454
0.4689 -0.9321 0.3461
0.5516 -0.8888 0.3470
0.6306 -0.8386 0.3481
0.7053 -0.7817 0.3493
0.7752 -0.7183 0.3506
0.8397 -0.6490 0.3521
0.8982 -0.5740 0.3536
0.9503 -0.4939 0.3553
0.9956 -0.4092 0.3571
1.0335 -0.3204 0.3589
1.0637 -0.2281 0.3609
1.0857 -0.1331 0.3629
2.3111 -0.0754 0.7671
2.3133 0.1314 0.7686
2.3154 0.3407 0.7764
1.0879 0.2610 0.3712
1.0662 0.3590 0.3732
1.0355 0.4551 0.3752
0.9959 0.5486 0.3772
0.9477 0.6384 0.3791
0.8912 0.7238 0.3809
0.8267 0.8040 0.3826
0.7547 0.8781 0.3841
0.6759 0.9454 0.3855
0.5907 1.0052 0.3868
0.5001 1.0569 0.3879
0.4047 1.0999 0.3888
0.3055 1.1337 0.3895
0.2034 1.1579 0.3900
0.0994 1.1724 0.3903
-0.0056 1.1769 0.3904
-0.1106 1.1713 0.3903
-0.2145 1.1558 0.3900
-0.3163 1.1306 0.3895
-0.4151 1.0958 0.3887
-0.5100 1.0519 0.3878
-0.6002 0.9993 0.3867
-0.6847 0.9387 0.3854
-0.7629 0.8706 0.3840
-0.8341 0.7958 0.3824
-0.8978 0.7151 0.3808
-0.9534 0.6291 0.3789
-1.0007 0.5388 0.3771
-1.0394 0.4450 0.3751
-1.0691 0.3486 0.3731
-5.5373 1.2725 1.8849
-5.6029 0.7698 1.8762
-5.6230 0.2656 1.8675
-5.5908 -0.2358 1.8564
-1.0840 -0.1434 0.3627
-1.0610 -0.2382 0.3607
-1.0300 -0.3301 0.3588
-0.9912 -0.4185 0.3569
-0.9452 -0.5028 0.3552
-0.8924 -0.5824 0.3535
-0.8332 -0.6568 0.3519
-0.7681 -0.7255 0.3505
-0.6977 -0.7881 0.3492
-0.6224 -0.8444 0.3480
-0.5430 -0.8939 0.3470
-0.4599 -0.9363 0.3461
-0.3737 -0.9715 0.3453
-0.2850 -0.9993 0.3447
-0.1945 -1.0195 0.3443
-0.1027 -1.0320 0.3440
-0.0102 -1.0367 0.3439
0.0824 -1.0337 0.3440
0.1744 -1.0229 0.3442
0.2653 -1.0044 0.3446
0.3544 -0.9782 0.3452
0.4411 -0.9446 0.3459
0.5250 -0.9037 0.3467
0.6052 -0.8558 0.3477
0.6814 -0.8010 0.3489
0.7529 -0.7397 0.3502
0.8192 -0.6723 0.3516
0.8798 -0.5991 0.3531
0.9340 -0.5206 0.3547
0.9816 -0.4374 0.3565
1.0219 -0.3498 0.3583
1.0547 -0.2586 0.3602
1.0794 -0.1644 0.3622
1.0959 -0.0678 0.3643
2.3126 0.0637 0.7675
2.3147 0.2718 0.7732
1.0931 0.2287 0.3705
1.0743 0.3271 0.3725
1.0465 0.4240 0.3746
1.0098 0.5184 0.3766
0.9644 0.6095 0.3785
0.9106 0.6965 0.3803
0.8486 0.7785 0.3820
0.7790 0.8546 0.3836
0.7023 0.9242 0.3851
0.6192 0.9866 0.3864
0.5303 1.0410 0.3876
0.4363 1.0868 0.3885
0.3383 1.1237 0.3893
0.2370 1.1511 0.3899
0.1335 1.1688 0.3902
0.0287 1.1765 0.3904
-0.0764 1.1742 0.3904
-0.1807 1.1620 0.3901
-0.2833 1.1399 0.3897
-0.3832 1.1082 0.3890
-0.4795 1.0672 0.3881
-0.5713 1.0174 0.3871
-0.6577 0.9594 0.3859
-0.7381 0.8936 0.3845
-0.8116 0.8210 0.3830
-0.8778 0.7420 0.3813
-0.9362 0.6577 0.3795
-0.9862 0.5687 0.3777
-1.0277 0.4760 0.3757
-1.0604 0.3804 0.3737
-1.0841 0.2827 0.3717
-5.5865 0.9344 1.8790
-5.6214 0.4302 1.8703
-5.6068 -0.0727 1.8602
-5.5432 -0.5691 1.8486
-1.0694 -0.2075 0.3614
-1.0410 -0.3005 0.3594
-1.0047 -0.3901 0.3575
-0.9610 -0.4758 0.3557
-0.9104 -0.5569 0.3540
-0.8532 -0.6331 0.3524
-0.7899 -0.7037 0.3510
-0.7212 -0.7684 0.3496
-0.6475 -0.8267 0.3484
-0.5694 -0.8785 0.3473
-0.4874 -0.9232 0.3463
-0.4021 -0.9608 0.3455
-0.3142 -0.9911 0.3449
-0.2242 -1.0137 0.3444
-0.1328 -1.0287 0.3441
-0.0404 -1.0360 0.3440
0.0522 -1.0355 0.3440
0.1444 -1.0272 0.3441
0.2357 -1.0112 0.3445
0.3255 -0.9876 0.3450
0.4131 -0.9564 0.3456
0.4979 -0.9179 0.3464
0.5794 -0.8722 0.3474
0.6570 -0.8196 0.3485
0.7301 -0.7604 0.3497
0.7982 -0.6950 0.3511
0.8607 -0.6236 0.3526
0.9170 -0.5468 0.3542
0.9668 -0.4651 0.3559
1.0096 -0.3789 0.3577
1.0448 -0.2888 0.3596
1.0722 -0.1955 0.3616
1.0915 -0.0996 0.3636
2.3119 -0.0038 0.7669
2.3140 0.2035 0.7706
1.0973 0.1963 0.3698
1.0814 0.2951 0.3719
1.0566 0.3926 0.3739
1.0228 0.4879 0.3759
0.9802 0.5802 0.3779
0.9291 0.6686 0.3797
0.8697 0.7523 0.3815
0.8026 0.8304 0.3831
0.7281 0.9023 0.3846
0.6470 0.9671 0.3860
0.5599 1.0241 0.3872
0.4675 1.0728 0.3882
0.3707 1.1126 0.3891
0.2704 1.1432 0.3897
0.1675 1.1641 0.3901
0.0630 1.1751 0.3904
-0.0421 1.1761 0.3904
-0.1468 1.1671 0.3902
-0.2501 1.1482 0.3898
-0.3510 1.1196 0.3892
-0.4485 1.0816 0.3884
-0.5419 1.0346 0.3875
-0.6301 0.9792 0.3863
-0.7125 0.9159 0.3850
-0.7884 0.8454 0.3835
-0.8570 0.7685 0.3819
-0.9180 0.6858 0.3801
-0.9708 0.5983 0.3783
-1.0151 0.5067 0.3764
-1.0507 0.4119 0.3744
-1.0774 0.3148 0.3724
-5.5652 1.0986 1.8819
-5.6150 0.5950 1.8732
-5.6181 0.0911 1.8640
-5.5687 -0.4079 1.8523
-1.0769 -0.1765 0.3620
-1.0511 -0.2704 0.3601
-1.0174 -0.3612 0.3582
-0.9761 -0.4482 0.3563
-0.9277 -0.5309 0.3546
-0.8725 -0.6088 0.3530
-0.8112 -0.6812 0.3514
-0.7442 -0.7479 0.3500
-0.6721 -0.8084 0.3488
-0.5953 -0.8623 0.3476
-0.5145 -0.9094 0.3466
-0.4303 -0.9494 0.3458
-0.3432 -0.9820 0.3451
-0.2538 -1.0072 0.3446
-0.1628 -1.0247 0.3442
-0.0706 -1.0345 0.3440
0.0219 -1.0365 0.3439
0.1144 -1.0308 0.3441
0.2061 -1.0173 0.3443
0.2964 -0.9961 0.3448
0.3847 -0.9674 0.3454
0.4706 -0.9313 0.3461
0.5532 -0.8879 0.3470
0.6322 -0.8375 0.3481
0.7068 -0.7805 0.3493
0.7765 -0.7170 0.3506
0.8409 -0.6475 0.3521
0.8993 -0.5725 0.3537
0.9513 -0.4923 0.3553
0.9964 -0.4075 0.3571
1.0342 -0.3186 0.3590
1.0642 -0.2263 0.3609
1.0861 -0.1311 0.3629
2.3112 -0.0712 0.7671
2.3133 0.1356 0.7687
2.3155 0.3449 0.7766
1.0876 0.2629 0.3712
1.0657 0.3609 0.3733
1.0348 0.4570 0.3753
0.9951 0.5504 0.3772
0.9467 0.6402 0.3791
0.8900 0.7255 0.3809
0.8253 0.8056 0.3826
0.7532 0.8796 0.3842
0.6742 0.9467 0.3856
0.5890 1.0064 0.3868
0.4982 1.0579 0.3879
0.4028 1.1006 0.3888
0.3035 1.1343 0.3895
0.2014 1.1583 0.3900
0.0973 1.1726 0.3903
-0.0077 1.1769 0.3904
-0.1127 1.1711 0.3903
-0.2165 1.1554 0.3900
-0.3183 1.1300 0.3894
-0.4171 1.0950 0.3887
-0.5119 1.0509 0.3878
-0.6019 0.9982 0.3867
-0.6863 0.9374 0.3854
-0.7644 0.8692 0.3840
-0.8354 0.7943 0.3824
-0.8990 0.7134 0.3807
-0.9545 0.6273 0.3789
-1.0016 0.5370 0.3770
-1.0401 0.4431 0.3750
-1.0696 0.3467 0.3730
-5.5391 1.2624 1.8847
-5.6037 0.7597 1.8760
-5.6230 0.2555 1.8673
-5.5897 -0.2458 1.8561
-1.0836 -0.1453 0.3627
-1.0605 -0.2401 0.3607
-1.0293 -0.3319 0.3588
-0.9904 -0.4203 0.3569
-0.9442 -0.5044 0.3551
-0.8913 -0.5839 0.3535
-0.8319 -0.6582 0.3519
-0.7667 -0.7268 0.3505
-0.6962 -0.7893 0.3492
-0.6209 -0.8454 0.3480
-0.5413 -0.8948 0.3469
-0.4582 -0.9371 0.3460
-0.3719 -0.9722 0.3453
-0.2832 -0.9998 0.3447
-0.1927 -1.0198 0.3443
-0.1008 -1.0321 0.3440
-0.0083 -1.0367 0.3439
0.0842 -1.0335 0.3440
0.1762 -1.0226 0.3442
0.2671 -1.0039 0.3446
0.3561 -0.9776 0.3452
0.4428 -0.9439 0.3459
0.5266 -0.9028 0.3467
0.6068 -0.8547 0.3477
0.6829 -0.7998 0.3489
0.7543 -0.7384 0.3502
0.8205 -0.6709 0.3516
0.8809 -0.5976 0.3531
0.9351 -0.5190 0.3548
0.9825 -0.4356 0.3565
1.0227 -0.3480 0.3584
1.0553 -0.2568 0.3603
1.0798 -0.1625 0.3623
1.0961 -0.0658 0.3643
2.3126 0.0679 0.7675
2.3148 0.2761 0.7733
1.0928 0.2307 0.3705
1.0738 0.3291 0.3726
1.0459 0.4259 0.3746
1.0090 0.5203 0.3766
0.9634 0.6113 0.3785
0.9094 0.6982 0.3803
0.8473 0.7800 0.3821
0.7776 0.8561 0.3837
0.7007 0.9256 0.3851
0.6174 0.9878 0.3864
0.5284 1.0420 0.3876
0.4344 1.0877 0.3885
0.3363 1.1243 0.3893
0.2350 1.1515 0.3899
0.1314 1.1690 0.3903
0.0266 1.1766 0.3904
-0.0785 1.1741 0.3904
-0.1828 1.1616 0.3901
-0.2854 1.1393 0.3896
-0.3852 1.1074 0.3890
-0.4814 1.0663 0.3881
-0.5731 1.0163 0.3871
-0.6594 0.9581 0.3858
-0.7396 0.8923 0.3845
-0.8130 0.8194 0.3829
-0.8791 0.7404 0.3813
-0.9373 0.6560 0.3795
-0.9872 0.5669 0.3776
-1.0285 0.4741 0.3757
-1.0610 0.3784 0.3737
-5.5081 1.4256 1.8875
-5.5876 0.9243 1.8788
-5.6217 0.4200 1.8702
-5.6060 -0.0827 1.8599
-5.5414 -0.5790 1.8483
-1.0689 -0.2094 0.3613
-1.0403 -0.3023 0.3594
-1.0039 -0.3918 0.3575
-0.9601 -0.4774 0.3557
-0.9093 -0.5585 0.3540
-0.8520 -0.6345 0.3524
-0.7886 -0.7050 0.3509
-0.7198 -0.7696 0.3496
-0.6460 -0.8278 0.3483
-0.5677 -0.8794 0.3473
-0.4857 -0.9241 0.3463
-0.4004 -0.9615 0.3455
-0.3124 -0.9916 0.3449
-0.2224 -1.0141 0.3444
-0.1309 -1.0290 0.3441
-0.0386 -1.0361 0.3440
0.0540 -1.0354 0.3440
0.1463 -1.0270 0.3441
0.2376 -1.0108 0.3445
0.3273 -0.9870 0.3450
0.4148 -0.9557 0.3456
0.4996 -0.9170 0.3464
0.5810 -0.8712 0.3474
0.6585 -0.8185 0.3485
0.7315 -0.7592 0.3497
0.7995 -0.6936 0.3511
0.8619 -0.6221 0.3526
0.9181 -0.5452 0.3542
0.9678 -0.4634 0.3559
1.0104 -0.3771 0.3578
1.0455 -0.2869 0.3597
1.0727 -0.1936 0.3616
1.0918 -0.0976 0.3636
2.3119 0.0004 0.7670
2.3140 0.2077 0.7708
1.0971 0.1983 0.3698
1.0810 0.2971 0.3719
1.0560 0.3945 0.3740
1.0220 0.4898 0.3760
0.9792 0.5820 0.3779
0.9280 0.6703 0.3798
0.8684 0.7539 0.3815
0.8011 0.8319 0.3832
0.7266 0.9037 0.3847
0.6453 0.9683 0.3860
0.5581 1.0252 0.3872
0.4656 1.0737 0.3882
0.3687 1.1134 0.3891
0.2684 1.1437 0.3897
0.1654 1.1644 0.3902
0.0609 1.1752 0.3904
-0.0442 1.1760 0.3904
-0.1489 1.1668 0.3902
-0.2521 1.1477 0.3898
-0.3530 1.1189 0.3892
-0.4505 1.0807 0.3884
-0.5437 1.0336 0.3874
-0.6319 0.9780 0.3863
-0.7141 0.9146 0.3849
-0.7898 0.8439 0.3835
-0.8583 0.7669 0.3818
-0.9191 0.6841 0.3801
-0.9718 0.5964 0.3783
-1.0159 0.5048 0.3763
-1.0513 0.4099 0.3743
-1.0778 0.3128 0.3723
-5.5667 1.0885 1.8817
-5.6155 0.5848 1.8730
-5.6175 0.0810 1.8638
-5.5673 -0.4179 1.8521
-1.0765 -0.1784 0.3620
-1.0505 -0.2723 0.3600
-1.0166 -0.3630 0.3581
-0.9752 -0.4500 0.3563
-0.9266 -0.5326 0.3546
-0.8714 -0.6103 0.3529
-0.8099 -0.6826 0.3514
-0.7428 -0.7492 0.3500
-0.6706 -0.8095 0.3487
-0.5937 -0.8633 0.3476
-0.5129 -0.9103 0.3466
-0.4286 -0.9501 0.3458
-0.3414 -0.9826 0.3451
-0.2520 -1.0076 0.3446
-0.1609 -1.0250 0.3442
-0.0688 -1.0346 0.3440
0.0238 -1.0365 0.3439
0.1162 -1.0306 0.3441
0.2079 -1.0170 0.3443
0.2982 -0.9956 0.3448
0.3865 -0.9668 0.3454
0.4722 -0.9305 0.3462
0.5548 -0.8869 0.3471
0.6337 -0.8364 0.3481
0.7082 -0.7792 0.3493
0.7779 -0.7157 0.3507
0.8421 -0.6461 0.3521
0.9004 -0.5709 0.3537
0.9523 -0.4906 0.3554
0.9972 -0.4057 0.3572
1.0348 -0.3168 0.3590
1.0647 -0.2244 0.3610
1.0865 -0.1292 0.3630
2.3112 -0.0671 0.7671
2.3134 0.1397 0.7688
2.3155 0.3492 0.7768
1.0872 0.2649 0.3712
1.0651 0.3629 0.3733
1.0341 0.4589 0.3753
0.9942 0.5522 0.3773
0.9456 0.6419 0.3792
0.8888 0.7272 0.3810
0.8240 0.8071 0.3826
0.7517 0.8810 0.3842
0.6725 0.9480 0.3856
0.5872 1.0075 0.3868
0.4963 1.0588 0.3879
0.4008 1.1014 0.3888
0.3015 1.1348 0.3895
0.1993 1.1587 0.3900
0.0952 1.1728 0.3903
-0.0098 1.1768 0.3904
-0.1148 1.1709 0.3903
-0.2186 1.1550 0.3900
-0.3203 1.1293 0.3894
-0.4190 1.0942 0.3887
-0.5138 1.0499 0.3878
-0.6037 0.9970 0.3867
-0.6879 0.9361 0.3854
-0.7659 0.8678 0.3840
-0.8368 0.7927 0.3824
-0.9002 0.7117 0.3807
-0.9555 0.6256 0.3789
-1.0025 0.5351 0.3770
-1.0407 0.4412 0.3750
-1.0702 0.3447 0.3730
-5.5408 1.2524 1.8845
-5.6046 0.7495 1.8758
-5.6229 0.2453 1.8671
-5.5885 -0.2558 1.8559
-1.0832 -0.1472 0.3626
-1.0599 -0.2419 0.3607
-1.0286 -0.3338 0.3587
-0.9895 -0.4220 0.3569
-0.9432 -0.5061 0.3551
-0.8901 -0.5855 0.3534
-0.8307 -0.6596 0.3519
-0.7653 -0.7281 0.3504
-0.6947 -0.7905 0.3491
-0.6193 -0.8465 0.3480
-0.5397 -0.8957 0.3469
-0.4565 -0.9379 0.3460
-0.3702 -0.9728 0.3453
-0.2814 -1.0003 0.3447
-0.1908 -1.0201 0.3443
-0.0990 -1.0323 0.3440
-0.0065 -1.0367 0.3439
0.0861 -1.0334 0.3440
0.1781 -1.0223 0.3442
0.2689 -1.0034 0.3446
0.3579 -0.9770 0.3452
0.4446 -0.9431 0.3459
0.5282 -0.9019 0.3468
0.6084 -0.8537 0.3478
0.6844 -0.7986 0.3489
0.7557 -0.7371 0.3502
0.6169 -0.8235 0.3484
0.6903 -0.7677 0.3496
0.7588 -0.7057 0.3509
0.8221 -0.6378 0.3523
0.8795 -0.5643 0.3538
0.9307 -0.4858 0.3555
0.9751 -0.4028 0.3572
1.0123 -0.3158 0.3590
1.0419 -0.2254 0.3609
1.0636 -0.1323 0.3629
1.0770 -0.0371 0.3649
1.0820 0.0595 0.3669
1.0784 0.1567 0.3690
1.0660 0.2537 0.3710
1.0447 0.3497 0.3730
1.0147 0.4438 0.3750
0.9760 0.5353 0.3769
0.9289 0.6233 0.3788
0.8736 0.7070 0.3805
0.8106 0.7855 0.3822
0.7402 0.8581 0.3837
0.6631 0.9240 0.3851
0.5798 0.9827 0.3863
0.4912 1.0333 0.3874
0.3979 1.0755 0.3883
0.3009 1.1087 0.3890
0.2011 1.1326 0.3895
0.0993 1.1469 0.3898
-0.0034 1.1515 0.3899
-0.1061 1.1463 0.3898
-0.2078 1.1313 0.3895
-0.3075 1.1068 0.3890
-0.4043 1.0730 0.3883
-0.4973 1.0303 0.3874
-0.5856 0.9791 0.3863
-0.6685 0.9200 0.3850
-0.7452 0.8536 0.3837
-0.8151 0.7805 0.3821
-0.8777 0.7016 0.3805
-0.9324 0.6177 0.3787
-0.9790 0.5294 0.3769
-1.0171 0.4377 0.3749
-1.0466 0.3434 0.3730
-1.0672 0.2473 0.3709
-1.0791 0.1502 0.3689
-1.0822 0.0531 0.3669
-1.0766 -0.0435 0.3648
-1.0626 -0.1386 0.3628
-1.0403 -0.2316 0.3609
-1.0102 -0.3218 0.3590
-0.9725 -0.4086 0.3572
-0.9276 -0.4913 0.3554
-0.8760 -0.5695 0.3538
-0.8182 -0.6425 0.3522
-0.7545 -0.7101 0.3508
-0.6856 -0.7717 0.3495
-0.6120 -0.8271 0.3484
-0.5341 -0.8758 0.3473
-0.4527 -0.9176 0.3465
-0.3683 -0.9523 0.3457
-0.2814 -0.9797 0.3451
-0.1926 -0.9997 0.3447
-0.1025 -1.0121 0.3445
-0.0118 -1.0169 0.3444
0.0790 -1.0141 0.3444
0.1693 -1.0036 0.3446
0.2584 -0.9856 0.3450
0.3459 -0.9601 0.3455
0.4310 -0.9273 0.3462
0.5132 -0.8872 0.3471
0.5920 -0.8403 0.3480
0.6668 -0.7866 0.3492
0.7370 -0.7266 0.3504
0.8020 -0.6606 0.3518
0.8614 -0.5889 0.3533
0.9147 -0.5120 0.3549
0.9613 -0.4304 0.3566
1.0009 -0.3447 0.3584
1.0331 -0.2553 0.3603
1.0574 -0.1630 0.3623
1.0736 -0.0684 0.3642
1.0814 0.0279 0.3663
1.0805 0.1249 0.3683
1.0710 0.2221 0.3703
1.0526 0.3185 0.3724
1.0255 0.4133 0.3744
0.9896 0.5058 0.3763
0.9452 0.5950 0.3782
0.8926 0.6802 0.3800
0.8320 0.7605 0.3817
0.7640 0.8351 0.3832
0.6890 0.9033 0.3847
0.6077 0.9644 0.3859
0.5207 1.0177 0.3871
0.4289 1.0627 0.3880
0.3330 1.0989 0.3888
0.2340 1.1258 0.3893
0.1327 1.1433 0.3897
0.0302 1.1511 0.3899
-0.0726 1.1491 0.3898
-0.1748 1.1373 0.3896
-0.2752 1.1159 0.3891
-0.3731 1.0851 0.3885
-0.4674 1.0452 0.3877
-0.5573 0.9967 0.3867
-0.6420 0.9401 0.3855
-0.7208 0.8760 0.3841
-0.7931 0.8051 0.3826
-0.8581 0.7280 0.3810
-0.9154 0.6456 0.3793
-0.9647 0.5587 0.3775
-1.0056 0.4680 0.3756
-1.0379 0.3744 0.3736
-1.0615 0.2788 0.3716
-1.0762 0.1820 0.3696
-1.0821 0.0848 0.3675
-1.0794 -0.0121 0.3655
-1.0681 -0.1077 0.3635
-1.0485 -0.2015 0.3615
-1.0209 -0.2927 0.3596
-0.9856 -0.3806 0.3577
-0.9430 -0.4647 0.3560
-0.8936 -0.5445 0.3543
-0.8377 -0.6193 0.3527
-0.7759 -0.6887 0.3513
-0.7086 -0.7523 0.3499
-0.6365 -0.8097 0.3487
-0.5600 -0.8606 0.3477
-0.4797 -0.9047 0.3467
-0.3962 -0.9418 0.3459
-0.3100 -0.9716 0.3453
-0.2217 -0.9940 0.3448
-0.1321 -1.0089 0.3445
-0.0415 -1.0162 0.3444
0.0493 -1.0159 0.3444
0.1399 -1.0079 0.3445
0.2295 -0.9923 0.3449
0.3175 -0.9693 0.3453
0.4035 -0.9388 0.3460
0.4867 -0.9011 0.3468
0.5667 -0.8564 0.3477
0.6429 -0.8049 0.3488
0.7146 -0.7469 0.3500
0.7814 -0.6828 0.3513
0.8427 -0.6129 0.3528
0.8980 -0.5377 0.3544
0.9469 -0.4575 0.3561
0.9888 -0.3731 0.3578
1.0234 -0.2848 0.3597
1.0503 -0.1934 0.3616
1.0692 -0.0995 0.3636
1.0797 -0.0037 0.3656
1.0818 0.0932 0.3676
1.0751 0.1904 0.3697
1.0596 0.2871 0.3717
1.0353 0.3825 0.3737
1.0023 0.4759 0.3757
0.9606 0.5663 0.3776
0.9106 0.6528 0.3794
0.8526 0.7348 0.3811
0.7870 0.8114 0.3827
0.7142 0.8817 0.3842
0.6349 0.9452 0.3855
0.5497 1.0011 0.3867
0.4593 1.0489 0.3877
0.3647 1.0880 0.3885
0.2666 1.1180 0.3892
0.1660 1.1386 0.3896
0.0637 1.1496 0.3898
-0.0391 1.1508 0.3899
-0.1415 1.1422 0.3897
-0.2427 1.1239 0.3893
-0.3415 1.0961 0.3887
-0.4370 1.0592 0.3880
-0.5285 1.0135 0.3870
-0.6150 0.9595 0.3859
-0.6958 0.8977 0.3846
-0.7702 0.8290 0.3831
-0.8377 0.7538 0.3816
-0.8976 0.6731 0.3799
-0.9495 0.5875 0.3781
-0.9932 0.4980 0.3762
-1.0283 0.4052 0.3742
-1.0547 0.3102 0.3723
-1.0723 0.2137 0.3702
-1.0811 0.1165 0.3682
-1.0812 0.0195 0.3662
-1.0727 -0.0766 0.3641
-1.0558 -0.1711 0.3621
-1.0308 -0.2632 0.3602
-0.9980 -0.3523 0.3583
-0.9577 -0.4377 0.3565
-0.9105 -0.5189 0.3548
-0.8566 -0.5954 0.3532
-0.7967 -0.6666 0.3517
-0.7312 -0.7322 0.3504
-0.6606 -0.7916 0.3491
-0.5854 -0.8447 0.3480
-0.5063 -0.8911 0.3470
-0.4237 -0.9305 0.3462
-0.3384 -0.9627 0.3455
-0.2508 -0.9875 0.3450
-0.1615 -1.0049 0.3446
-0.0711 -1.0147 0.3444
0.0197 -1.0168 0.3444
0.1104 -1.0113 0.3445
0.2003 -0.9982 0.3447
0.2890 -0.9776 0.3452
0.3757 -0.9495 0.3458
0.4599 -0.9142 0.3465
0.5410 -0.8717 0.3474
0.6184 -0.8224 0.3484
0.6917 -0.7665 0.3496
0.7601 -0.7044 0.3509
0.8233 -0.6363 0.3523
0.8806 -0.5628 0.3539
0.9316 -0.4842 0.3555
0.9759 -0.4011 0.3573
1.0129 -0.3140 0.3591
1.0424 -0.2236 0.3610
1.0639 -0.1304 0.3629
1.0772 -0.0351 0.3649
1.0820 0.0615 0.3670
1.0782 0.1586 0.3690
1.0656 0.2556 0.3710
1.0442 0.3516 0.3731
1.0140 0.4457 0.3750
0.9752 0.5371 0.3770
0.9279 0.6250 0.3788
0.8724 0.7086 0.3806
0.8092 0.7870 0.3822
0.7387 0.8595 0.3837
0.6615 0.9253 0.3851
0.5781 0.9838 0.3863
0.4894 1.0342 0.3874
0.3960 1.0762 0.3883
0.2990 1.1093 0.3890
0.1991 1.1330 0.3895
0.0972 1.1471 0.3898
-0.0055 1.1515 0.3899
-0.1082 1.1461 0.3898
-0.2098 1.1309 0.3895
-0.3095 1.1062 0.3889
-0.4062 1.0722 0.3882
-0.4991 1.0293 0.3873
-0.5873 0.9780 0.3863
-0.6701 0.9187 0.3850
-0.7467 0.8522 0.3836
-0.8164 0.7790 0.3821
-0.8789 0.7000 0.3804
-0.9335 0.6159 0.3787
-0.9799 0.5276 0.3768
-1.0178 0.4358 0.3749
-1.0471 0.3415 0.3729
-1.0676 0.2453 0.3709
-1.0792 0.1483 0.3689
-1.0821 0.0511 0.3668
-1.0764 -0.0454 0.3648
-1.0622 -0.1405 0.3628
-1.0398 -0.2334 0.3608
-1.0095 -0.3236 0.3589
-0.9717 -0.4103 0.3571
-0.9267 -0.4929 0.3554
-0.8749 -0.5710 0.3537
-0.8169 -0.6440 0.3522
-0.7532 -0.7114 0.3508
-0.6842 -0.7729 0.3495
-0.6104 -0.8281 0.3483
-0.5325 -0.8767 0.3473
-0.4511 -0.9184 0.3464
-0.3665 -0.9529 0.3457
-0.2796 -0.9802 0.3451
-0.1908 -1.0000 0.3447
-0.1007 -1.0123 0.3445
-0.0100 -1.0170 0.3444
0.0808 -1.0140 0.3444
0.1711 -1.0034 0.3446
0.2602 -0.9852 0.3450
0.3476 -0.9595 0.3455
0.4327 -0.9265 0.3462
0.5149 -0.8864 0.3471
0.5936 -0.8393 0.3481
0.6683 -0.7855 0.3492
0.7383 -0.7254 0.3505
0.8033 -0.6592 0.3518
0.8626 -0.5874 0.3533
0.9157 -0.5104 0.3550
0.9622 -0.4287 0.3567
1.0017 -0.3429 0.3585
1.0336 -0.2535 0.3604
1.0578 -0.1611 0.3623
1.0738 -0.0664 0.3643
1.0814 0.0298 0.3663
1.0804 0.1269 0.3683
1.0707 0.2240 0.3704
1.0522 0.3204 0.3724
1.0248 0.4152 0.3744
0.9888 0.5076 0.3763
0.9442 0.5968 0.3782
0.8914 0.6818 0.3800
0.8307 0.7620 0.3817
0.7625 0.8365 0.3833
0.6874 0.9046 0.3847
0.6060 0.9655 0.3860
0.5189 1.0187 0.3871
0.4270 1.0635 0.3880
0.3310 1.0995 0.3888
0.2319 1.1263 0.3894
0.1307 1.1435 0.3897
0.0281 1.1511 0.3899
-0.0747 1.1489 0.3898
-0.1768 1.1369 0.3896
-0.2772 1.1153 0.3891
-0.3750 1.0843 0.3885
-0.4692 1.0443 0.3877
-0.5591 0.9956 0.3866
-0.6437 0.9389 0.3854
-0.7224 0.8747 0.3841
-0.7944 0.8036 0.3826
-0.8593 0.7264 0.3810
-0.9165 0.6439 0.3793
-0.9656 0.5569 0.3774
-1.0064 0.4661 0.3755
-1.0385 0.3725 0.3736
-1.0618 0.2769 0.3716
-1.0764 0.1800 0.3695
-1.0821 0.0828 0.3675
-1.0792 -0.0140 0.3654
-1.0678 -0.1096 0.3634
-1.0480 -0.2033 0.3615
-1.0203 -0.2945 0.3596
-0.9848 -0.3824 0.3577
-0.9421 -0.4664 0.3559
-0.8925 -0.5460 0.3543
-0.8365 -0.6207 0.3527
-0.7746 -0.6900 0.3512
-0.7072 -0.7535 0.3499
-0.6350 -0.8108 0.3487
-0.5584 -0.8616 0.3476
-0.4780 -0.9055 0.3467
-0.3944 -0.9425 0.3459
-0.3082 -0.9721 0.3453
-0.2199 -0.9944 0.3448
-0.1302 -1.0091 0.3445
-0.0397 -1.0163 0.3444
0.0512 -1.0158 0.3444
0.1417 -1.0077 0.3445
0.2312 -0.9919 0.3449
0.3193 -0.9687 0.3454
0.4052 -0.9381 0.3460
0.4884 -0.9003 0.3468
0.5683 -0.8554 0.3477
0.6443 -0.8038 0.3488
0.7160 -0.7457 0.3500
0.7827 -0.6814 0.3514
0.8439 -0.6114 0.3528
0.8990 -0.5361 0.3544
0.9478 -0.4559 0.3561
0.9896 -0.3713 0.3579
1.0240 -0.2830 0.3597
1.0508 -0.1916 0.3617
1.0695 -0.0976 0.3636
1.0799 -0.0018 0.3656
1.0817 0.0951 0.3677
1.0748 0.1923 0.3697
1.0592 0.2890 0.3717
1.0347 0.3844 0.3738
1.0015 0.4777 0.3757
0.9597 0.5680 0.3776
0.9096 0.6545 0.3794
0.8514 0.7364 0.3811
0.7856 0.8128 0.3828
0.7127 0.8831 0.3842
0.6332 0.9464 0.3856
0.5479 1.0022 0.3867
0.4575 1.0498 0.3877
0.3628 1.0887 0.3886
0.2646 1.1186 0.3892
0.1639 1.1390 0.3896
0.0617 1.1497 0.3899
-0.0412 1.1507 0.3899
-0.1436 1.1419 0.3897
-0.2447 1.1234 0.3893
-0.3434 1.0955 0.3887
-0.4389 1.0584 0.3879
-0.5303 1.0125 0.3870
-0.6167 0.9583 0.3859
-0.6974 0.8964 0.3846
-0.7717 0.8275 0.3831
-0.8389 0.7522 0.3815
-0.8987 0.6714 0.3798
-0.9505 0.5857 0.3780
-0.9940 0.4961 0.3762
-1.0289 0.4034 0.3742
-1.0552 0.3083 0.3722
-1.0726 0.2117 0.3702
-1.0812 0.1146 0.3681
-1.0811 0.0175 0.3661
-1.0724 -0.0786 0.3641
-1.0554 -0.1730 0.3621
-1.0302 -0.2650 0.3602
-0.9972 -0.3540 0.3583
-0.9568 -0.4394 0.3565
-0.9094 -0.5205 0.3548
-0.8555 -0.5969 0.3532
-0.7954 -0.6680 0.3517
-0.7298 -0.7334 0.3503
-0.6591 -0.7928 0.3491
-0.5839 -0.8457 0.3480
-0.5047 -0.8919 0.3470
-0.4221 -0.9312 0.3462
-0.3366 -0.9632 0.3455
-0.2490 -0.9879 0.3450
-0.1597 -1.0052 0.3446
-0.0693 -1.0148 0.3444
0.0215 -1.0168 0.3444
0.1122 -1.0112 0.3445
0.2021 -0.9979 0.3447
0.2907 -0.9771 0.3452
0.3774 -0.9489 0.3458
0.4615 -0.9134 0.3465
0.5426 -0.8708 0.3474
0.6200 -0.8214 0.3484
0.6931 -0.7654 0.3496
0.7615 -0.7031 0.3509
0.8245 -0.6349 0.3524
0.8817 -0.5613 0.3539
0.9326 -0.4826 0.3555
0.9767 -0.3994 0.3573
1.0136 -0.3123 0.3591
1.0429 -0.2217 0.3610
1.0643 -0.1285 0.3630
1.0774 -0.0332 0.3650
1.0821 0.0634 0.3670
1.0781 0.1606 0.3690
1.0653 0.2575 0.3711
1.0437 0.3535 0.3731
1.0133 0.4475 0.3751
0.9743 0.5389 0.3770
0.9268 0.6268 0.3788
0.8712 0.7102 0.3806
0.8079 0.7885 0.3822
0.7372 0.8609 0.3838
0.6598 0.9265 0.3851
0.5764 0.9848 0.3864
0.4875 1.0352 0.3874
0.3941 1.0770 0.3883
0.2970 1.1098 0.3890
0.1970 1.1334 0.3895
0.0952 1.1473 0.3898
-0.0076 1.1515 0.3899
-0.1102 1.1459 0.3898
-0.2119 1.1305 0.3895
-0.3115 1.1056 0.3889
-0.4081 1.0715 0.3882
-0.5009 1.0284 0.3873
-0.5890 0.9769 0.3862
-0.6717 0.9174 0.3850
-0.7481 0.8507 0.3836
-0.8178 0.7775 0.3821
-0.8800 0.6984 0.3804
-0.9345 0.6142 0.3786
-0.9807 0.5258 0.3768
-1.0185 0.4339 0.3749
-1.0476 0.3395 0.3729
-1.0679 0.2434 0.3709
-1.0794 0.1463 0.3688
-1.0821 0.0492 0.3668
-1.0762 -0.0473 0.3647
-1.0618 -0.1424 0.3628
-1.0393 -0.2353 0.3608
-1.0088 -0.3253 0.3589
-0.9708 -0.4120 0.3571
-0.9257 -0.4945 0.3554
-0.8738 -0.5725 0.3537
-0.8157 -0.6454 0.3522
-0.7518 -0.7127 0.3508
-0.6827 -0.7741 0.3495
-0.6089 -0.8291 0.3483
-0.5309 -0.8776 0.3473
-0.4494 -0.9191 0.3464
-0.3648 -0.9536 0.3457
-0.2778 -0.9807 0.3451
-0.1890 -1.0004 0.3447
-0.0989 -1.0125 0.3445
-0.0082 -1.0170 0.3444
0.0826 -1.0138 0.3444
0.1729 -1.0031 0.3446
0.2620 -0.9847 0.3450
0.3493 -0.9589 0.3456
0.4344 -0.9258 0.3463
0.5165 -0.8855 0.3471
0.5951 -0.8383 0.3481
0.6697 -0.7844 0.3492
0.7397 -0.7241 0.3505
0.8045 -0.6578 0.3519
0.8637 -0.5859 0.3534
0.9167 -0.5088 0.3550
0.9631 -0.4270 0.3567
1.0024 -0.3411 0.3585
1.0342 -0.2516 0.3604
1.0582 -0.1592 0.3623
1.0740 -0.0645 0.3643
1.0815 0.0318 0.3663
1.0803 0.1288 0.3684
1.0704 0.2260 0.3704
1.0517 0.3223 0.3724
1.0242 0.4171 0.3744
0.9880 0.5094 0.3764
0.9433 0.5985 0.3782
0.8903 0.6835 0.3800
0.8294 0.7636 0.3817
0.7611 0.8379 0.3833
0.6858 0.9059 0.3847
0.6043 0.9667 0.3860
0.5171 1.0196 0.3871
0.4251 1.0643 0.3880
0.3291 1.1001 0.3888
0.2299 1.1267 0.3894
0.1286 1.1438 0.3897
0.0260 1.1512 0.3899
-0.0768 1.1488 0.3898
-0.1788 1.1366 0.3896
-0.2792 1.1148 0.3891
-0.3769 1.0836 0.3885
-0.4711 1.0434 0.3876
-0.5608 0.9946 0.3866
-0.6453 0.9377 0.3854
-0.7239 0.8733 0.3841
-0.7958 0.8021 0.3826
-0.8605 0.7248 0.3810
-0.9176 0.6422 0.3792
-0.9665 0.5551 0.3774
-1.0071 0.4643 0.3755
-1.0390 0.3706 0.3735
-1.0622 0.2749 0.3715
-1.0766 0.1781 0.3695
-1.0822 0.0809 0.3674
-1.0791 -0.0159 0.3654
-1.0675 -0.1115 0.3634
-1.0475 -0.2052 0.3614
-1.0196 -0.2963 0.3595
-0.9840 -0.3841 0.3577
-0.9412 -0.4680 0.3559
-0.8915 -0.5476 0.3542
-0.8353 -0.6222 0.3527
-0.7733 -0.6913 0.3512
-0.7058 -0.7547 0.3499
-0.6335 -0.8119 0.3487
-0.5568 -0.8625 0.3476
-0.4764 -0.9063 0.3467
-0.3927 -0.9431 0.3459
-0.3065 -0.9726 0.3453
-0.2182 -0.9948 0.3448
-0.1284 -1.0094 0.3445
-0.0378 -1.0163 0.3444
0.0530 -1.0157 0.3444
0.1435 -1.0074 0.3445
0.2330 -0.9915 0.3449
0.3210 -0.9682 0.3454
0.4069 -0.9374 0.3460
0.4900 -0.8994 0.3468
0.5699 -0.8544 0.3477
0.6458 -0.8027 0.3488
0.7174 -0.7445 0.3501
0.7839 -0.6801 0.3514
0.8450 -0.6100 0.3529
0.9001 -0.5345 0.3545
0.9487 -0.4542 0.3561
0.9903 -0.3696 0.3579
1.0247 -0.2812 0.3598
1.0512 -0.1897 0.3617
1.0698 -0.0957 0.3637
1.0800 0.0002 0.3657
1.0817 0.0971 0.3677
1.0746 0.1943 0.3698
1.0588 0.2910 0.3718
1.0341 0.3864 0.3738
1.0008 0.4796 0.3757
0.9588 0.5698 0.3776
0.9085 0.6562 0.3795
0.8501 0.7380 0.3812
0.7842 0.8143 0.3828
0.7111 0.8844 0.3843
0.6316 0.9476 0.3856
0.5461 1.0032 0.3868
0.4556 1.0507 0.3878
0.3608 1.0894 0.3886
0.2626 1.1191 0.3892
0.1619 1.1393 0.3896
0.0596 1.1498 0.3899
-0.0432 1.1506 0.3899
-0.1456 1.1416 0.3897
-0.2467 1.1230 0.3893
-0.3454 1.0948 0.3887
-0.4408 1.0575 0.3879
-0.5321 1.0114 0.3870
-0.6184 0.9571 0.3858
-0.6989 0.8951 0.3845
-0.7731 0.8260 0.3831
-0.8402 0.7507 0.3815
-0.8998 0.6697 0.3798
-0.9515 0.5840 0.3780
-0.9948 0.4943 0.3761
-1.0296 0.4015 0.3742
-1.0556 0.3063 0.3722
-1.0729 0.2098 0.3701
-1.0813 0.1126 0.3681
-1.0810 0.0156 0.3661
-1.0722 -0.0805 0.3641
-1.0549 -0.1749 0.3621
-1.0296 -0.2669 0.3601
-0.9965 -0.3558 0.3583
-0.9560 -0.4411 0.3565
-0.9084 -0.5221 0.3548
-0.8543 -0.5984 0.3532
-0.7942 -0.6694 0.3517
-0.7284 -0.7347 0.3503
-0.6576 -0.7939 0.3491
-0.5823 -0.8467 0.3479
-0.5030 -0.8928 0.3470
-0.4204 -0.9319 0.3462
-0.3349 -0.9638 0.3455
-0.2472 -0.9884 0.3450
-0.1579 -1.0054 0.3446
-0.0675 -1.0149 0.3444
0.0233 -1.0167 0.3444
0.1140 -1.0110 0.3445
0.2039 -0.9976 0.3448
0.2925 -0.9766 0.3452
0.3791 -0.9483 0.3458
0.4632 -0.9126 0.3465
0.5442 -0.8699 0.3474
0.6215 -0.8203 0.3485
0.6945 -0.7642 0.3496
0.7628 -0.7018 0.3509
0.8257 -0.6335 0.3524
0.8828 -0.5597 0.3539
0.9336 -0.4810 0.3556
0.9775 -0.3977 0.3573
1.0143 -0.3105 0.3592
1.0434 -0.2199 0.3611
1.0646 -0.1266 0.3630
1.0776 -0.0313 0.3650
1.0821 0.0654 0.3670
1.0779 0.1625 0.3691
1.0649 0.2595 0.3711
1.0431 0.3554 0.3731
1.0126 0.4494 0.3751
0.9734 0.5407 0.3770
0.9258 0.6285 0.3789
0.8700 0.7119 0.3806
0.8065 0.7900 0.3823
0.7357 0.8623 0.3838
0.6582 0.9278 0.3852
0.5746 0.9859 0.3864
0.4857 1.0361 0.3875
0.3922 1.0777 0.3883
0.2950 1.1104 0.3890
0.1950 1.1337 0.3895
0.0931 1.1475 0.3898
-0.0096 1.1515 0.3899
-0.1123 1.1457 0.3898
-0.2139 1.1301 0.3894
-0.3135 1.1050 0.3889
-0.4100 1.0707 0.3882
-0.5028 1.0274 0.3873
-0.5908 0.9757 0.3862
-0.6733 0.9162 0.3850
-0.7496 0.8493 0.3836
-0.8191 0.7759 0.3820
-0.8812 0.6967 0.3804
-0.9355 0.6125 0.3786
-0.9816 0.5240 0.3767
-1.0192 0.4321 0.3748
-1.0481 0.3376 0.3728
-1.0682 0.2414 0.3708
-1.0795 0.1444 0.3688
-1.0821 0.0472 0.3667
-1.0760 -0.0492 0.3647
-1.0615 -0.1443 0.3627
-1.0387 -0.2371 0.3608
-1.0081 -0.3271 0.3589
-0.9700 -0.4137 0.3571
-0.9247 -0.4961 0.3553
-0.8727 -0.5740 0.3537
-0.8145 -0.6468 0.3522
-0.7505 -0.7140 0.3507
-0.6813 -0.7752 0.3494
-0.6074 -0.8302 0.3483
-0.5293 -0.8785 0.3473
-0.4477 -0.9199 0.3464
-0.3631 -0.9542 0.3457
-0.2760 -0.9812 0.3451
-0.1872 -1.0007 0.3447
-0.0971 -1.0126 0.3444
-0.0063 -1.0170 0.3444
0.0845 -1.0137 0.3444
0.1747 -1.0028 0.3446
0.2637 -0.9843 0.3450
0.3511 -0.9583 0.3456
0.4360 -0.9250 0.3463
0.5181 -0.8846 0.3471
0.5967 -0.8372 0.3481
0.6712 -0.7832 0.3492
0.7410 -0.7228 0.3505
0.6052 -0.8079 0.3487
0.6771 -0.7531 0.3499
0.7443 -0.6922 0.3512
0.8063 -0.6255 0.3525
0.8626 -0.5534 0.3541
0.9127 -0.4764 0.3557
0.9561 -0.3950 0.3574
0.9925 -0.3097 0.3592
1.0214 -0.2210 0.3610
1.0426 -0.1297 0.3630
1.0556 -0.0363 0.3649
1.0604 0.0583 0.3669
1.0567 0.1535 0.3689
1.0444 0.2485 0.3709
1.0235 0.3426 0.3729
0.9940 0.4348 0.3748
0.9560 0.5243 0.3767
0.9098 0.6105 0.3785
0.8555 0.6923 0.3802
0.7937 0.7691 0.3818
0.7247 0.8402 0.3833
0.6492 0.9047 0.3847
0.5677 0.9620 0.3859
0.4808 1.0115 0.3869
0.3895 1.0528 0.3878
0.2946 1.0852 0.3885
0.1968 1.1086 0.3890
0.0972 1.1226 0.3893
-0.0034 1.1271 0.3894
-0.1039 1.1220 0.3893
-0.2034 1.1074 0.3890
-0.3010 1.0834 0.3885
-0.3958 1.0504 0.3878
-0.4868 1.0086 0.3869
-0.5733 0.9585 0.3859
-0.6545 0.9007 0.3846
-0.7296 0.8357 0.3833
-0.7982 0.7643 0.3818
-0.8595 0.6871 0.3802
-0.9132 0.6049 0.3784
-0.9589 0.5185 0.3766
-0.9964 0.4288 0.3747
-1.0253 0.3364 0.3728
-1.0457 0.2423 0.3708
-1.0574 0.1472 0.3688
-1.0605 0.0520 0.3668
-1.0552 -0.0426 0.3648
-1.0416 -0.1358 0.3629
-1.0199 -0.2270 0.3610
-0.9904 -0.3155 0.3591
-0.9536 -0.4006 0.3573
-0.9097 -0.4818 0.3556
-0.8591 -0.5585 0.3540
-0.8024 -0.6302 0.3525
-0.7401 -0.6965 0.3511
-0.6725 -0.7570 0.3498
-0.6003 -0.8113 0.3487
-0.5240 -0.8592 0.3477
-0.4442 -0.9003 0.3468
-0.3613 -0.9344 0.3461
-0.2761 -0.9613 0.3455
-0.1890 -0.9809 0.3451
-0.1006 -0.9931 0.3449
-0.0116 -0.9978 0.3448
0.0775 -0.9951 0.3448
0.1661 -0.9848 0.3450
0.2536 -0.9671 0.3454
0.3393 -0.9420 0.3459
0.4229 -0.9098 0.3466
0.5035 -0.8705 0.3474
0.5808 -0.8243 0.3484
0.6541 -0.7717 0.3495
0.7229 -0.7127 0.3507
0.7866 -0.6479 0.3521
0.8448 -0.5775 0.3536
0.8970 -0.5021 0.3551
0.9427 -0.4220 0.3568
0.9814 -0.3379 0.3586
1.0128 -0.2503 0.3604
1.0365 -0.1598 0.3623
1.0523 -0.0670 0.3643
1.0598 0.0273 0.3663
1.0589 0.1224 0.3682
1.0494 0.2176 0.3702
1.0313 0.3120 0.3722
1.0046 0.4049 0.3742
0.9693 0.4954 0.3761
0.9258 0.5827 0.3779
0.8741 0.6661 0.3797
0.8147 0.7447 0.3813
0.7480 0.8177 0.3829
0.6745 0.8844 0.3843
0.5949 0.9441 0.3855
0.5097 0.9962 0.3866
0.4198 1.0402 0.3875
0.3260 1.0756 0.3883
0.2290 1.1020 0.3888
0.1299 1.1191 0.3892
0.0295 1.1267 0.3894
-0.0711 1.1247 0.3893
-0.1711 1.1132 0.3891
-0.2694 1.0922 0.3887
-0.3652 1.0621 0.3880
-0.4575 1.0232 0.3872
-0.5456 0.9757 0.3862
-0.6286 0.9204 0.3851
-0.7058 0.8577 0.3837
-0.7765 0.7883 0.3823
-0.8403 0.7129 0.3807
-0.8965 0.6323 0.3790
-0.9449 0.5472 0.3772
-0.9851 0.4584 0.3754
-1.0168 0.3668 0.3734
-1.0400 0.2732 0.3715
-1.0545 0.1783 0.3695
-1.0605 0.0831 0.3675
-1.0579 -0.0118 0.3655
-1.0469 -0.1056 0.3635
-1.0278 -0.1975 0.3616
-1.0009 -0.2869 0.3597
-0.9664 -0.3732 0.3579
-0.9248 -0.4557 0.3562
-0.8763 -0.5339 0.3545
-0.8216 -0.6074 0.3530
-0.7610 -0.6755 0.3515
-0.6951 -0.7379 0.3502
-0.6244 -0.7943 0.3490
-0.5494 -0.8443 0.3480
-0.4706 -0.8876 0.3471
-0.3887 -0.9240 0.3463
-0.3041 -0.9533 0.3457
-0.2176 -0.9753 0.3452
-0.1296 -0.9900 0.3449
-0.0407 -0.9971 0.3448
0.0484 -0.9968 0.3448
0.1372 -0.9890 0.3449
0.2251 -0.9737 0.3453
0.3115 -0.9510 0.3457
0.3959 -0.9211 0.3464
0.4775 -0.8841 0.3471
0.5560 -0.8401 0.3480
0.6306 -0.7896 0.3491
0.7010 -0.7327 0.3503
0.7664 -0.6697 0.3516
0.8265 -0.6011 0.3531
0.8807 -0.5273 0.3546
0.9285 -0.4487 0.3563
0.9695 -0.3658 0.3580
1.0034 -0.2793 0.3598
1.0296 -0.1896 0.3617
1.0480 -0.0975 0.3636
1.0582 -0.0036 0.3656
1.0601 0.0913 0.3676
1.0534 0.1865 0.3696
1.0381 0.2813 0.3716
1.0142 0.3748 0.3735
0.9818 0.4661 0.3755
0.9409 0.5546 0.3773
0.8919 0.6394 0.3791
0.8349 0.7196 0.3808
0.7706 0.7945 0.3824
0.6993 0.8633 0.3838
0.6216 0.9254 0.3851
0.5381 0.9801 0.3863
0.4497 1.0268 0.3873
0.3570 1.0650 0.3881
0.2609 1.0944 0.3887
0.1624 1.1145 0.3891
0.0624 1.1252 0.3893
-0.0383 1.1264 0.3894
-0.1385 1.1180 0.3892
-0.2375 1.1001 0.3888
-0.3342 1.0730 0.3883
-0.4278 1.0368 0.3875
-0.5174 0.9921 0.3866
-0.6021 0.9393 0.3855
-0.6813 0.8790 0.3842
-0.7542 0.8117 0.3828
-0.8203 0.7382 0.3812
-0.8790 0.6591 0.3796
-0.9300 0.5754 0.3778
-0.9729 0.4878 0.3760
-1.0074 0.3970 0.3741
-1.0334 0.3039 0.3721
-1.0507 0.2094 0.3701
-1.0595 0.1142 0.3681
-1.0596 0.0191 0.3661
-1.0514 -0.0751 0.3642
-1.0350 -0.1677 0.3622
-1.0105 -0.2580 0.3603
-0.9785 -0.3454 0.3585
-0.9391 -0.4292 0.3567
-0.8929 -0.5089 0.3550
-0.8402 -0.5839 0.3535
-0.7814 -0.6538 0.3520
-0.7172 -0.7182 0.3506
-0.6480 -0.7766 0.3494
-0.5743 -0.8287 0.3483
-0.4967 -0.8742 0.3474
-0.4158 -0.9129 0.3466
-0.3320 -0.9445 0.3459
-0.2460 -0.9689 0.3454
-0.1584 -0.9860 0.3450
-0.0698 -0.9956 0.3448
0.0193 -0.9977 0.3448
0.1083 -0.9923 0.3449
0.1966 -0.9795 0.3451
0.2835 -0.9592 0.3456
0.3686 -0.9316 0.3461
0.4512 -0.8969 0.3469
0.5307 -0.8552 0.3477
0.6067 -0.8068 0.3487
0.6785 -0.7519 0.3499
0.7456 -0.6909 0.3512
0.8075 -0.6241 0.3526
0.8636 -0.5519 0.3541
0.9136 -0.4748 0.3557
0.9569 -0.3933 0.3574
0.9931 -0.3079 0.3592
1.0219 -0.2192 0.3611
1.0429 -0.1278 0.3630
1.0558 -0.0344 0.3650
1.0604 0.0602 0.3669
1.0565 0.1554 0.3689
1.0441 0.2504 0.3709
1.0230 0.3444 0.3729
0.9933 0.4366 0.3748
0.9552 0.5261 0.3767
0.9088 0.6121 0.3785
0.8544 0.6939 0.3803
0.7924 0.7706 0.3819
0.7233 0.8415 0.3834
0.6476 0.9059 0.3847
0.5659 0.9631 0.3859
0.4790 1.0125 0.3870
0.3877 1.0535 0.3878
0.2926 1.0858 0.3885
0.1948 1.1090 0.3890
0.0952 1.1228 0.3893
-0.0054 1.1271 0.3894
-0.1059 1.1218 0.3893
-0.2054 1.1070 0.3890
-0.3030 1.0828 0.3885
-0.3976 1.0496 0.3878
-0.4886 1.0076 0.3869
-0.5750 0.9574 0.3858
-0.6560 0.8995 0.3846
-0.7311 0.8344 0.3833
-0.7995 0.7628 0.3818
-0.8607 0.6855 0.3801
-0.9142 0.6032 0.3784
-0.9598 0.5168 0.3766
-0.9970 0.4269 0.3747
-1.0258 0.3345 0.3728
-1.0460 0.2404 0.3708
-1.0576 0.1453 0.3688
-1.0605 0.0501 0.3668
-1.0550 -0.0445 0.3648
-1.0412 -0.1377 0.3628
-1.0194 -0.2288 0.3609
-0.9898 -0.3172 0.3591
-0.9528 -0.4023 0.3573
-0.9087 -0.4834 0.3556
-0.8580 -0.5600 0.3540
-0.8012 -0.6316 0.3525
-0.7388 -0.6978 0.3511
-0.6711 -0.7582 0.3498
-0.5988 -0.8124 0.3487
-0.5225 -0.8601 0.3477
-0.4425 -0.9010 0.3468
-0.3596 -0.9350 0.3461
-0.2743 -0.9618 0.3455
-0.1872 -0.9812 0.3451
-0.0988 -0.9933 0.3449
-0.0098 -0.9979 0.3448
0.0793 -0.9949 0.3448
0.1678 -0.9845 0.3450
0.2553 -0.9666 0.3454
0.3410 -0.9414 0.3459
0.4245 -0.9090 0.3466
0.5051 -0.8696 0.3474
0.5823 -0.8234 0.3484
0.6555 -0.7706 0.3495
0.7242 -0.7115 0.3507
0.7879 -0.6465 0.3521
0.8460 -0.5761 0.3536
0.8980 -0.5005 0.3552
0.9435 -0.4204 0.3569
0.9821 -0.3362 0.3586
1.0133 -0.2485 0.3605
1.0369 -0.1579 0.3624
1.0525 -0.0651 0.3643
1.0598 0.0292 0.3663
1.0588 0.1243 0.3683
1.0491 0.2195 0.3703
1.0308 0.3139 0.3723
1.0039 0.4067 0.3742
0.9685 0.4972 0.3761
0.9248 0.5845 0.3780
0.8730 0.6677 0.3797
0.8135 0.7462 0.3814
0.7466 0.8191 0.3829
0.6730 0.8856 0.3843
0.5932 0.9452 0.3855
0.5080 0.9972 0.3866
0.4180 1.0410 0.3876
0.3240 1.0762 0.3883
0.2270 1.1024 0.3889
0.1279 1.1193 0.3892
0.0275 1.1267 0.3894
-0.0731 1.1246 0.3893
-0.1731 1.1128 0.3891
-0.2714 1.0917 0.3886
-0.3671 1.0614 0.3880
-0.4594 1.0223 0.3872
-0.5473 0.9747 0.3862
-0.6302 0.9192 0.3850
-0.7073 0.8564 0.3837
-0.7779 0.7869 0.3823
-0.8415 0.7113 0.3807
-0.8976 0.6306 0.3790
-0.9458 0.5454 0.3772
-0.9858 0.4566 0.3753
-1.0174 0.3649 0.3734
-1.0404 0.2713 0.3714
-1.0547 0.1764 0.3694
-1.0605 0.0812 0.3674
-1.0577 -0.0137 0.3655
-1.0466 -0.1074 0.3635
-1.0274 -0.1993 0.3616
-1.0003 -0.2887 0.3597
-0.9656 -0.3749 0.3579
-0.9238 -0.4573 0.3561
-0.8753 -0.5355 0.3545
-0.8204 -0.6088 0.3529
-0.7598 -0.6768 0.3515
-0.6938 -0.7391 0.3502
-0.6229 -0.7954 0.3490
-0.5478 -0.8452 0.3480
-0.4690 -0.8884 0.3471
-0.3870 -0.9247 0.3463
-0.3024 -0.9538 0.3457
-0.2158 -0.9757 0.3452
-0.1278 -0.9902 0.3449
-0.0389 -0.9972 0.3448
0.0502 -0.9967 0.3448
0.1390 -0.9887 0.3449
0.2269 -0.9733 0.3453
0.3133 -0.9505 0.3457
0.3975 -0.9204 0.3464
0.4791 -0.8832 0.3471
0.5575 -0.8392 0.3481
0.6321 -0.7885 0.3491
0.7023 -0.7315 0.3503
0.7677 -0.6684 0.3516
0.8276 -0.5997 0.3531
0.8817 -0.5257 0.3546
0.9294 -0.4470 0.3563
0.9703 -0.3641 0.3580
1.0040 -0.2775 0.3599
1.0301 -0.1878 0.3617
1.0483 -0.0956 0.3637
1.0584 -0.0017 0.3656
1.0601 0.0932 0.3676
1.0532 0.1885 0.3696
1.0377 0.2832 0.3716
1.0137 0.3766 0.3736
0.9810 0.4680 0.3755
0.9400 0.5564 0.3774
0.8908 0.6410 0.3791
0.8337 0.7211 0.3808
0.7692 0.7959 0.3824
0.6978 0.8646 0.3838
0.6199 0.9266 0.3851
0.5364 0.9811 0.3863
0.4478 1.0277 0.3873
0.3551 1.0657 0.3881
0.2590 1.0949 0.3887
0.1604 1.1148 0.3891
0.0604 1.1253 0.3893
-0.0403 1.1263 0.3894
-0.1406 1.1177 0.3892
-0.2395 1.0997 0.3888
-0.3361 1.0723 0.3882
-0.4297 1.0360 0.3875
-0.5191 0.9911 0.3865
-0.6037 0.9382 0.3854
-0.6828 0.8777 0.3842
-0.7556 0.8103 0.3827
-0.8215 0.7366 0.3812
-0.8801 0.6575 0.3795
-0.9310 0.5737 0.3778
-0.9736 0.4860 0.3759
-1.0080 0.3951 0.3740
-1.0338 0.3020 0.3721
-1.0510 0.2075 0.3701
-1.0595 0.1123 0.3681
-1.0596 0.0172 0.3661
-1.0512 -0.0770 0.3641
-1.0345 -0.1696 0.3622
-1.0100 -0.2598 0.3603
-0.9778 -0.3471 0.3584
-0.9383 -0.4309 0.3567
-0.8919 -0.5105 0.3550
-0.8390 -0.5854 0.3534
-0.7802 -0.6552 0.3520
-0.7159 -0.7194 0.3506
-0.6466 -0.7777 0.3494
-0.5728 -0.8297 0.3483
-0.4951 -0.8751 0.3473
-0.4141 -0.9136 0.3465
-0.3303 -0.9451 0.3459
-0.2443 -0.9694 0.3454
-0.1567 -0.9863 0.3450
-0.0680 -0.9957 0.3448
0.0211 -0.9977 0.3448
0.1101 -0.9922 0.3449
0.1983 -0.9791 0.3451
0.2852 -0.9587 0.3456
0.3703 -0.9310 0.3461
0.4528 -0.8962 0.3469
0.5323 -0.8543 0.3478
0.6082 -0.8058 0.3488
0.6799 -0.7508 0.3499
0.7469 -0.6896 0.3512
0.8087 -0.6227 0.3526
0.8647 -0.5504 0.3541
0.9145 -0.4732 0.3557
0.9577 -0.3916 0.3575
0.9938 -0.3061 0.3592
1.0224 -0.2174 0.3611
1.0432 -0.1260 0.3630
1.0560 -0.0325 0.3650
1.0604 0.0621 0.3670
1.0564 0.1574 0.3690
1.0437 0.2523 0.3710
1.0225 0.3463 0.3730
0.9926 0.4384 0.3749
0.9543 0.5279 0.3768
0.9077 0.6138 0.3786
0.8532 0.6955 0.3803
0.7911 0.7721 0.3819
0.7218 0.8429 0.3834
0.6460 0.9071 0.3847
0.5642 0.9641 0.3859
0.4773 1.0134 0.3870
0.3858 1.0542 0.3878
0.2907 1.0864 0.3885
0.1928 1.1093 0.3890
0.0932 1.1230 0.3893
-0.0074 1.1270 0.3894
-0.1079 1.1216 0.3893
-0.2074 1.1066 0.3890
-0.3049 1.0823 0.3884
-0.3995 1.0488 0.3877
-0.4904 1.0067 0.3869
-0.5767 0.9563 0.3858
-0.6576 0.8982 0.3846
-0.7325 0.8330 0.3832
-0.8008 0.7613 0.3817
-0.8618 0.6839 0.3801
-0.9152 0.6015 0.3784
-0.9606 0.5150 0.3766
-0.9977 0.4251 0.3747
-1.0263 0.3326 0.3727
-1.0463 0.2385 0.3707
-1.0577 0.1434 0.3688
-1.0605 0.0482 0.3668
-1.0548 -0.0464 0.3648
-1.0409 -0.1396 0.3628
-1.0189 -0.2306 0.3609
-0.9891 -0.3190 0.3590
-0.9519 -0.4039 0.3573
-0.9078 -0.4849 0.3556
-0.8570 -0.5615 0.3539
-0.8000 -0.6330 0.3524
-0.7375 -0.6991 0.3511
-0.6697 -0.7593 0.3498
-0.5973 -0.8134 0.3486
-0.5209 -0.8610 0.3476
-0.4409 -0.9018 0.3468
-0.3579 -0.9356 0.3461
-0.2726 -0.9622 0.3455
-0.1854 -0.9816 0.3451
-0.0970 -0.9935 0.3448
-0.0080 -0.9979 0.3448
0.0811 -0.9948 0.3448
0.1696 -0.9842 0.3450
0.2570 -0.9662 0.3454
0.3427 -0.9409 0.3459
0.4262 -0.9083 0.3466
0.5067 -0.8687 0.3475
0.5838 -0.8224 0.3484
0.6570 -0.7694 0.3495
0.7256 -0.7103 0.3508
0.7891 -0.6452 0.3521
0.8471 -0.5746 0.3536
0.8990 -0.4990 0.3552
0.9444 -0.4187 0.3569
0.9828 -0.3345 0.3587
1.0139 -0.2467 0.3605
1.0373 -0.1561 0.3624
1.0527 -0.0632 0.3643
1.0599 0.0311 0.3663
1.0586 0.1263 0.3683
1.0488 0.2214 0.3703
1.0304 0.3158 0.3723
1.0033 0.4086 0.3743
0.9677 0.4990 0.3762
0.9238 0.5862 0.3780
0.8719 0.6694 0.3797
0.8122 0.7477 0.3814
0.7452 0.8205 0.3829
0.6715 0.8869 0.3843
0.5916 0.9464 0.3856
0.5062 0.9982 0.3867
0.4161 1.0418 0.3876
0.3221 1.0769 0.3883
0.2251 1.1029 0.3889
0.1259 1.1196 0.3892
0.0255 1.1268 0.3894
-0.0751 1.1244 0.3893
-0.1751 1.1125 0.3891
-0.2733 1.0912 0.3886
-0.3690 1.0607 0.3880
-0.4612 1.0214 0.3872
-0.5490 0.9737 0.3862
-0.6318 0.9180 0.3850
-0.7088 0.8550 0.3837
-0.7792 0.7854 0.3822
-0.8427 0.7098 0.3806
-0.8986 0.6289 0.3789
-0.9467 0.5437 0.3772
-0.9865 0.4548 0.3753
-1.0179 0.3631 0.3734
-1.0407 0.2694 0.3714
-1.0549 0.1745 0.3694
-1.0605 0.0792 0.3674
-1.0576 -0.0156 0.3654
-1.0463 -0.1093 0.3634
-1.0269 -0.2012 0.3615
-0.9996 -0.2905 0.3596
-0.9649 -0.3766 0.3578
-0.9229 -0.4590 0.3561
-0.8743 -0.5370 0.3545
-0.8193 -0.6102 0.3529
-0.7585 -0.6781 0.3515
-0.6924 -0.7403 0.3502
-0.6215 -0.7964 0.3490
-0.5463 -0.8462 0.3480
-0.4674 -0.8892 0.3470
-0.3853 -0.9253 0.3463
-0.3007 -0.9543 0.3457
-0.2141 -0.9761 0.3452
-0.1260 -0.9904 0.3449
-0.0371 -0.9973 0.3448
0.0520 -0.9966 0.3448
0.1408 -0.9885 0.3449
0.2286 -0.9729 0.3453
0.3150 -0.9499 0.3458
0.3992 -0.9197 0.3464
0.4808 -0.8824 0.3472
0.5591 -0.8382 0.3481
0.6336 -0.7874 0.3492
0.7037 -0.7302 0.3504
0.7689 -0.6671 0.3517
0.8288 -0.5982 0.3531
0.8827 -0.5242 0.3547
0.9303 -0.4454 0.3563
0.9710 -0.3624 0.3581
1.0046 -0.2757 0.3599
1.0305 -0.1859 0.3618
1.0486 -0.0938 0.3637
1.0585 0.0002 0.3657
1.0600 0.0951 0.3677
1.0530 0.1904 0.3697
1.0373 0.2851 0.3717
1.0131 0.3785 0.3736
0.9803 0.4698 0.3755
0.9391 0.5581 0.3774
0.8897 0.6427 0.3792
0.8325 0.7227 0.3809
0.7678 0.7974 0.3824
0.6963 0.8659 0.3839
0.6183 0.9277 0.3852
0.5346 0.9821 0.3863
0.4460 1.0285 0.3873
0.3532 1.0664 0.3881
0.2570 1.0954 0.3887
0.1584 1.1151 0.3891
0.0583 1.1255 0.3893
-0.0423 1.1262 0.3894
-0.1426 1.1174 0.3892
-0.2415 1.0992 0.3888
-0.3381 1.0717 0.3882
-0.4315 1.0352 0.3875
-0.5209 0.9902 0.3865
-0.6054 0.9370 0.3854
-0.6843 0.8764 0.3841
-0.7570 0.8088 0.3827
-0.8228 0.7351 0.3812
-0.8812 0.6559 0.3795
-0.9319 0.5720 0.3777
-0.9744 0.4842 0.3759
-1.0086 0.3933 0.3740
-1.0342 0.3001 0.3720
-1.0512 0.2056 0.3701
-1.0596 0.1104 0.3681
-1.0595 0.0153 0.3661
-1.0509 -0.0789 0.3641
-1.0341 -0.1714 0.3621
-1.0094 -0.2616 0.3602
-0.9770 -0.3489 0.3584
-0.9374 -0.4325 0.3567
-0.8909 -0.5120 0.3550
-0.8379 -0.5868 0.3534
-0.7790 -0.6565 0.3519
-0.7145 -0.7206 0.3506
-0.6451 -0.7788 0.3494
-0.5713 -0.8306 0.3483
-0.4935 -0.8759 0.3473
-0.4124 -0.9143 0.3465
-0.3286 -0.9457 0.3459
-0.2425 -0.9698 0.3454
-0.1549 -0.9865 0.3450
-0.0662 -0.9958 0.3448
0.0229 -0.9977 0.3448
0.1119 -0.9920 0.3449
0.2001 -0.9788 0.3451
0.2870 -0.9582 0.3456
0.3720 -0.9304 0.3462
0.4544 -0.8954 0.3469
0.5339 -0.8534 0.3478
0.6097 -0.8047 0.3488
0.6813 -0.7496 0.3499
0.7482 -0.6883 0.3512
0.8098 -0.6213 0.3526
0.8658 -0.5489 0.3542
0.9155 -0.4716 0.3558
0.9585 -0.3899 0.3575
0.9944 -0.3044 0.3593
1.0229 -0.2156 0.3612
1.0436 -0.1241 0.3631
1.0562 -0.0307 0.3650
1.0604 0.0641 0.3670
1.0562 0.1593 0.3690
1.0434 0.2542 0.3710
1.0220 0.3482 0.3730
0.9919 0.4402 0.3749
0.9535 0.5296 0.3768
0.9067 0.6155 0.3786
0.8520 0.6971 0.3803
0.7898 0.7736 0.3819
0.7204 0.8443 0.3834
0.6444 0.9084 0.3848
0.5625 0.9652 0.3860
0.4755 1.0143 0.3870
0.3839 1.0550 0.3879
0.2888 1.0869 0.3885
0.1909 1.1097 0.3890
0.0912 1.1231 0.3893
-0.0094 1.1270 0.3894
-0.1099 1.1214 0.3893
-0.2094 1.1062 0.3889
-0.3068 1.0817 0.3884
-0.4014 1.0481 0.3877
-0.4922 1.0058 0.3868
-0.5784 0.9552 0.3858
-0.6592 0.8970 0.3846
-0.7340 0.8316 0.3832
-0.8021 0.7598 0.3817
-0.8630 0.6823 0.3801
-0.9162 0.5998 0.3783
-0.9614 0.5132 0.3765
-0.9984 0.4233 0.3746
-1.0268 0.3308 0.3727
-1.0466 0.2366 0.3707
-1.0578 0.1415 0.3687
-1.0605 0.0463 0.3667
-1.0546 -0.0483 0.3647
-1.0405 -0.1414 0.3628
-1.0183 -0.2325 0.3609
-0.9884 -0.3207 0.3590
-0.9511 -0.4056 0.3572
-0.9068 -0.4865 0.3555
