ply
format ascii 1.0
element vertex 2080
property float32 x
property float32 y
property float32 z
end_header
-22.3752 2.6347 1.6684
-23.5387 0.6555 1.7438
-23.0014 -1.4170 1.7066
-9.3891 -1.4276 0.7033
-6.8863 -1.6871 0.5250
-6.5475 -2.2400 0.5125
-6.1779 -2.7514 0.5008
-6.0929 -3.3950 0.5165
-6.0960 -4.1503 0.5461
-6.0997 -5.0046 0.5843
-14.3124 -14.0590 1.4857
-12.7776 -15.0183 1.4602
-11.2164 -15.8586 1.4385
-9.6504 -16.6141 1.4229
-8.0542 -17.2487 1.4097
-6.4337 -17.7637 1.3991
-4.7945 -18.1602 1.3909
-3.1415 -18.4390 1.3852
-1.4797 -18.6010 1.3818
0.1862 -18.6463 1.3809
1.8516 -18.5752 1.3824
3.5119 -18.3875 1.3863
5.1624 -18.0827 1.3926
6.7981 -17.6601 1.4014
8.1903 -16.6640 1.3750
9.1645 -15.0761 1.3066
10.2830 -13.9399 1.2828
10.2776 -11.6023 1.1478
10.2732 -9.6960 1.0461
10.2695 -8.0882 0.9681
3.5866 -2.3384 0.3171
3.8531 -2.0473 0.3231
4.1026 -1.7298 0.3297
4.3324 -1.3862 0.3369
11.9094 -2.6668 0.9038
11.9069 -1.5679 0.8894
11.9044 -0.4950 0.8823
11.9020 0.5695 0.8824
11.8995 1.6427 0.8896
11.8970 2.7423 0.9041
11.8943 3.8878 0.9267
26.0241 11.1652 2.0971
24.9237 13.4433 2.0971
9.1913 6.0748 0.8159
22.1366 17.6602 2.0971
9.1091 8.7057 0.9331
13.3762 15.2919 1.5045
12.2957 16.8885 1.5470
10.8574 18.1154 1.5640
12.3203 25.4679 2.0951
9.9779 26.4120 2.0909
7.5798 27.1935 2.0906
2.9333 15.8971 1.1971
2.6297 28.1651 2.0948
0.0487 13.0577 0.9670
-2.4221 28.2143 2.0971
-4.9306 27.8855 2.0971
-7.3996 27.3342 2.0971
-9.8084 26.5613 2.0968
-6.8731 14.4823 1.1871
-9.3895 15.9347 1.3697
-9.4069 13.1254 1.1959
-11.3162 13.1333 1.2838
-17.9945 17.4562 1.8566
-20.2353 16.3919 1.9285
-21.4720 14.4228 1.9155
-21.4660 11.7858 1.8135
-21.4605 9.3975 1.7349
-21.4554 7.1906 1.6757
-20.7819 4.9539 1.5821
-22.3767 3.2593 1.6746
-20.7732 1.1494 1.5407
-23.2465 -0.7929 1.7225
-10.5092 -1.3041 0.7842
-6.9834 -1.5091 0.5291
-6.6549 -2.0747 0.5162
-6.2943 -2.5989 0.5043
-6.0919 -3.1788 0.5089
-6.0950 -3.9093 0.5362
-6.0985 -4.7299 0.5715
-14.7766 -13.7393 1.4942
-13.2521 -14.7371 1.4677
-11.6961 -15.6104 1.4445
-10.1346 -16.3951 1.4274
-8.5470 -17.0667 1.4135
-6.9334 -17.6183 1.4021
-5.2993 -18.0510 1.3932
-3.6500 -18.3659 1.3867
-1.9904 -18.5637 1.3826
-0.3253 -18.6448 1.3809
1.3408 -18.6095 1.3817
3.0031 -18.4576 1.3848
4.6571 -18.1888 1.3904
6.2979 -17.8024 1.3984
7.9204 -17.2977 1.4089
8.7141 -15.2634 1.3016
9.4408 -13.5617 1.2237
10.2791 -12.2660 1.1851
10.2745 -10.2444 1.0745
10.2706 -8.5558 0.9899
10.2672 -7.1028 0.9245
3.7731 -2.1395 0.3212
4.0280 -1.8301 0.3276
4.2641 -1.4944 0.3346
4.4789 -1.1328 0.3421
11.9076 -1.9016 0.8930
11.9052 -0.8226 0.8837
11.9027 0.2426 0.8816
11.9002 1.3113 0.8866
11.8977 2.4008 0.8988
11.8951 3.5300 0.9189
26.3205 10.4473 2.0971
25.2831 12.7546 2.0971
24.0438 14.9602 2.0971
22.6127 17.0464 2.0971
21.0010 18.9965 2.0971
14.0019 15.1479 1.5276
12.7007 16.4753 1.5405
11.3664 17.8364 1.5663
13.0165 25.1249 2.0955
10.7095 26.1552 2.0930
8.3195 26.9649 2.0898
3.1401 14.7396 1.1160
3.4004 28.0753 2.0943
0.4069 13.0545 0.9672
-0.7613 13.0650 0.9692
-4.1638 28.0103 2.0971
-6.6471 27.5268 2.0971
-9.0772 26.8234 2.0971
-6.4457 14.6031 1.1821
-9.3490 16.9098 1.4309
-9.3988 13.9043 1.2429
-10.7007 13.1308 1.2544
-17.4477 17.8805 1.8501
-19.8086 16.9669 1.9315
-21.1290 15.0494 1.9210
-21.4678 12.5652 1.8421
-21.4621 10.1085 1.7568
-21.4569 7.8520 1.6920
-20.7833 5.5609 1.5932
-22.3781 3.8891 1.6821
-22.3734 1.8546 1.6625
-23.4774 -0.1565 1.7387
-22.6738 -2.1841 1.6869
-7.0771 -1.3273 0.5332
-6.7594 -1.9055 0.5201
-6.4082 -2.4424 0.5079
-6.0911 -2.9687 0.5018
-6.0940 -3.6768 0.5271
-6.0974 -4.4666 0.5597
-15.2017 -13.3762 1.4995
-13.7237 -14.4443 1.4755
-12.1767 -15.3554 1.4513
-10.6157 -16.1647 1.4321
-9.0373 -16.8734 1.4175
-7.4311 -17.4617 1.4053
-5.8027 -17.9308 1.3957
-4.1576 -18.2817 1.3884
-2.5006 -18.5154 1.3836
-0.8367 -18.6323 1.3812
0.8295 -18.6327 1.3812
2.4935 -18.5166 1.3836
4.1506 -18.2838 1.3884
5.7959 -17.9336 1.3957
7.4246 -17.4652 1.4054
8.2622 -15.4406 1.2969
9.0732 -13.8276 1.2248
10.2807 -12.9748 1.2259
10.2758 -10.8238 1.1052
10.2717 -9.0453 1.0136
10.2682 -7.5281 0.9429
3.6914 -2.2291 0.3193
3.9516 -1.9278 0.3256
4.1938 -1.6002 0.3324
4.4154 -1.2465 0.3398
11.9084 -2.2382 0.8973
11.9059 -1.1515 0.8858
11.9035 -0.0839 0.8815
11.9010 0.9819 0.8843
11.8985 2.0631 0.8943
11.8960 3.1780 0.9118
11.9585 4.3709 0.9429
25.6234 12.0564 2.0971
15.2462 8.9157 1.3079
23.0716 16.4199 2.0971
21.5142 18.4134 2.0971
19.7850 20.2600 2.0971
13.1025 16.0653 1.5352
11.7809 17.4136 1.5570
10.2469 18.5170 1.5672
11.4316 25.8715 2.0946
9.0523 26.7156 2.0889
3.5653 14.7394 1.1230
4.1680 27.9638 2.0937
0.7656 13.0512 0.9682
-0.4021 13.0618 0.9677
-3.3940 28.1139 2.0971
-5.8896 27.6988 2.0971
-8.3382 27.0626 2.0971
-6.2597 15.3047 1.2245
-7.4920 14.4750 1.2070
-9.3949 14.7552 1.2954
-10.1124 13.1283 1.2272
-17.7727 19.2423 1.9398
-19.3651 17.5304 1.9344
-20.7611 15.6632 1.9259
-21.4696 13.3701 1.8730
-21.4638 10.8383 1.7807
-21.4585 8.5270 1.7100
-21.4535 6.3756 1.6574
-22.3796 4.5250 1.6909
-22.3749 2.4743 1.6671
-23.5108 0.4883 1.7415
-22.9360 -1.5759 1.7025
-7.6493 -1.2185 0.5736
-6.8607 -1.7324 0.5240
-6.5193 -2.2820 0.5115
-6.1474 -2.7902 0.4999
-6.0931 -3.4519 0.5186
-6.0963 -4.2139 0.5488
-6.1000 -5.0775 0.5877
-14.1921 -14.1396 1.4836
-12.6547 -15.0889 1.4584
-11.0937 -15.9228 1.4371
-9.5250 -16.6687 1.4217
-7.9267 -17.2938 1.4088
-6.3045 -17.7994 1.3984
-4.6640 -18.1865 1.3904
-3.0102 -18.4561 1.3848
-1.3479 -18.6088 1.3817
0.3181 -18.6449 1.3809
1.9833 -18.5646 1.3826
3.6430 -18.3677 1.3867
5.2925 -18.0536 1.3932
6.9268 -17.6216 1.4022
8.1950 -16.3797 1.3563
9.2803 -15.0262 1.3079
10.2825 -13.7348 1.2706
10.2772 -11.4378 1.1387
10.2729 -9.5592 1.0392
10.2692 -7.9710 0.9627
3.6083 -2.3163 0.3175
3.8736 -2.0231 0.3236
4.1215 -1.7036 0.3303
4.3497 -1.3579 0.3374
11.9092 -2.5785 0.9024
11.9067 -1.4822 0.8886
11.9042 -0.4107 0.8821
11.9018 0.6539 0.8827
11.8993 1.7285 0.8904
11.8968 2.8310 0.9056
11.8941 3.9811 0.9288
25.9444 11.3491 2.0971
24.8280 13.6193 2.0971
9.1653 6.1512 0.8174
22.0112 17.8164 2.0971
20.3332 19.7097 2.0971
13.2620 15.3795 1.5039
12.1906 16.9956 1.5489
10.6842 18.1158 1.5575
12.1393 25.5532 2.0950
9.7842 26.4643 2.0895
7.3879 27.2491 2.0908
2.8458 16.0587 1.2078
2.4306 28.1848 2.0950
-0.0436 13.0585 0.9671
-2.6225 28.1962 2.0971
-5.1276 27.8499 2.0971
-7.5928 27.2811 2.0971
-6.2757 16.6317 1.3164
-6.9983 14.4808 1.1910
-9.3906 15.6819 1.3536
-9.5486 13.1259 1.2020
-17.2466 19.7320 1.9407
-18.9051 18.0818 1.9373
-20.3425 16.2418 1.9277
-21.4715 14.2031 1.9065
-21.4655 11.5888 1.8065
-21.4600 9.2169 1.7296
-21.4550 7.0220 1.6718
-20.7816 4.7987 1.5795
-22.3763 3.0979 1.6729
-22.6347 1.0919 1.6782
-23.1847 -0.9551 1.7184
-9.8939 -1.2989 0.7390
-6.9587 -1.5554 0.5280
-6.6275 -2.1177 0.5152
-6.2646 -2.6386 0.5034
-6.0922 -3.2339 0.5108
-6.0953 -3.9706 0.5387
-6.0988 -4.7996 0.5747
-14.6572 -13.8229 1.4920
-13.1300 -14.8107 1.4658
-11.5718 -15.6744 1.4428
-10.0100 -16.4527 1.4262
-8.4201 -17.1147 1.4125
-6.8047 -17.6569 1.4013
-5.1693 -18.0802 1.3926
-3.5190 -18.3858 1.3863
-1.8587 -18.5743 1.3824
-0.1934 -18.6462 1.3809
1.4725 -18.6017 1.3819
3.1344 -18.4406 1.3852
4.7875 -18.1625 1.3910
6.4270 -17.7668 1.3992
8.0479 -17.2526 1.4098
8.8305 -15.2161 1.3028
9.5780 -13.5533 1.2290
10.2787 -12.0908 1.1752
10.2741 -10.1001 1.0669
10.2703 -8.4332 0.9841
10.2670 -6.9957 0.9200
3.7939 -2.1159 0.3217
4.0474 -1.8045 0.3282
4.2819 -1.4668 0.3352
11.9100 -2.9228 0.9082
11.9074 -1.8152 0.8920
11.9050 -0.7380 0.8833
11.9025 0.3269 0.8818
11.9001 1.3965 0.8873
11.8975 2.4885 0.9001
11.8949 3.6217 0.9208
26.2459 10.6332 2.0971
25.1922 12.9332 2.0971
23.9374 15.1299 2.0971
22.4916 17.2059 2.0971
9.3263 8.5569 0.9373
13.8996 15.2523 1.5282
12.5965 16.5816 1.5421
11.2588 17.9462 1.5689
12.8379 25.2152 2.0954
10.5209 26.2221 2.0923
8.1295 27.0258 2.0900
3.0401 14.7827 1.1176
3.2019 28.1006 2.0945
0.3145 13.0553 0.9671
-0.8541 13.0658 0.9697
-4.3619 27.9801 2.0971
-6.8416 27.4791 2.0971
-9.2665 26.7578 2.0970
-6.5525 14.5652 1.1827
-9.3860 16.6967 1.4185
-9.3998 13.6959 1.2301
-10.8567 13.1314 1.2618
-17.4501 17.6316 1.8371
-19.9203 16.8197 1.9307
-21.2208 14.8897 1.9198
-21.4673 12.3618 1.8345
-21.4617 9.9235 1.7510
-21.4565 7.6803 1.6877
-20.7830 5.4035 1.5902
-22.3778 3.7261 1.6800
-20.7741 1.5741 1.5428
-23.4193 -0.3217 1.7345
-22.6041 -2.3389 1.6829
-7.0533 -1.3746 0.5322
-6.7327 -1.9495 0.5191
-6.3791 -2.4831 0.5069
-6.0913 -3.0223 0.5036
-6.0943 -3.7360 0.5294
-6.0977 -4.5335 0.5627
-15.1188 -13.4942 1.5007
-13.6023 -14.5209 1.4734
-12.0530 -15.4223 1.4495
-10.4920 -16.2252 1.4309
-8.9111 -16.9243 1.4164
-7.3030 -17.5031 1.4045
-5.6730 -17.9629 1.3950
-4.0268 -18.3045 1.3879
-2.3691 -18.5289 1.3833
-0.7049 -18.6366 1.3811
0.9614 -18.6277 1.3813
2.6249 -18.5024 1.3839
4.2813 -18.2603 1.3889
5.9256 -17.9008 1.3964
7.5527 -17.4231 1.4063
8.3789 -15.3958 1.2980
9.0487 -13.5799 1.2085
10.2803 -12.7875 1.2150
10.2754 -10.6712 1.0971
10.2714 -8.9168 1.0073
10.2680 -7.4168 0.9380
3.7126 -2.2062 0.3198
3.9715 -1.9029 0.3261
4.2121 -1.5732 0.3330
4.4320 -1.2174 0.3404
11.9082 -2.1511 0.8961
11.9057 -1.0666 0.8852
11.9033 0.0002 0.8815
11.9008 1.0666 0.8848
11.8983 2.1499 0.8954
11.8957 3.2683 0.9136
26.5277 9.9093 2.0971
25.5375 12.2373 2.0971
15.1550 9.0069 1.3056
22.9551 16.5825 2.0971
21.3834 18.5651 2.0971
19.6411 20.3994 2.0971
12.9992 16.1708 1.5365
11.6745 17.5222 1.5592
13.5270 24.8577 2.0957
11.2421 25.9376 2.0935
8.8640 26.7818 2.0891
3.4551 14.7395 1.1211
3.9704 27.9946 2.0939
0.6730 13.0521 0.9679
-0.4946 13.0626 0.9680
-3.5929 28.0892 2.0971
-6.0854 27.6564 2.0971
-8.5294 27.0030 2.0971
-6.2559 14.9920 1.2030
-9.3808 17.8145 1.4910
-9.3960 14.5290 1.2813
-10.2617 13.1289 1.2340
-17.9062 19.1136 1.9396
-19.4811 17.3862 1.9337
-20.8577 15.5058 1.9247
-21.4691 13.1600 1.8648
-21.4633 10.6482 1.7743
-21.4580 8.3515 1.7052
-21.4531 6.2107 1.6539
-22.3792 4.3604 1.6885
-22.3745 2.3142 1.6658
-23.5136 0.3220 1.7415
-22.8696 -1.7340 1.6985
-7.3208 -1.2193 0.5496
-6.8349 -1.7774 0.5230
-6.4909 -2.3237 0.5106
-6.1168 -2.8286 0.4991
-6.0933 -3.5092 0.5207
-6.0966 -4.2781 0.5515
-6.1003 -5.1512 0.5913
-14.0716 -14.2193 1.4815
-12.5317 -15.1587 1.4565
-10.9708 -15.9863 1.4358
-9.3995 -16.7226 1.4206
-7.7991 -17.3382 1.4079
-6.1753 -17.8343 1.3976
-4.5336 -18.2121 1.3899
-2.8789 -18.4724 1.3845
-1.2162 -18.6159 1.3815
0.4500 -18.6428 1.3810
2.1149 -18.5533 1.3829
3.7740 -18.3471 1.3871
5.4224 -18.0237 1.3938
7.0553 -17.5824 1.4030
8.1996 -16.1032 1.3382
9.3961 -14.9756 1.3092
10.2820 -13.5335 1.2587
10.2768 -11.2759 1.1298
10.2726 -9.4242 1.0324
10.2690 -7.8550 0.9574
3.6299 -2.2941 0.3180
3.8938 -1.9988 0.3241
4.1403 -1.6772 0.3308
4.3669 -1.3294 0.3380
11.9090 -2.4904 0.9010
11.9065 -1.3968 0.8878
11.9040 -0.3263 0.8819
11.9016 0.7384 0.8831
11.8991 1.8145 0.8914
11.8965 2.9200 0.9071
11.8939 4.0748 0.9311
25.8635 11.5322 2.0971
24.7310 13.7946 2.0971
23.4011 15.9468 2.0971
21.8846 17.9716 2.0971
20.1933 19.8530 2.0971
13.1732 15.4969 1.5062
12.0854 17.1029 1.5509
10.5387 18.1615 1.5550
11.9576 25.6372 2.0949
9.5912 26.5173 2.0882
3.8845 14.7392 1.1288
4.7354 27.8671 2.0933
1.0323 13.0488 0.9693
-0.1361 13.0594 0.9672
-2.8210 28.1772 2.0971
-5.3246 27.8129 2.0971
-7.7856 27.2267 2.0971
-6.2713 16.2709 1.2913
-7.1244 14.4793 1.1950
-9.3918 15.4350 1.3380
-9.6918 13.1266 1.2083
-17.3836 19.6072 1.9405
-19.0252 17.9408 1.9365
-20.4486 16.0910 1.9269
-21.4710 13.9854 1.8976
-21.4651 11.3931 1.7996
-21.4596 9.0375 1.7244
-21.4546 6.8543 1.6679
-21.1319 4.7224 1.6035
-22.3759 2.9365 1.6713
-23.6137 0.9716 1.7502
-23.1219 -1.1163 1.7143
-9.3901 -1.3004 0.7020
-6.9337 -1.6014 0.5270
-6.5999 -2.1604 0.5143
-6.2346 -2.6780 0.5025
-6.0924 -3.2895 0.5127
-6.0955 -4.0325 0.5412
-6.0991 -4.8700 0.5780
-14.5376 -13.9057 1.4898
-13.0077 -14.8836 1.4638
-11.4473 -15.7375 1.4411
-9.8852 -16.5095 1.4250
-8.2931 -17.1620 1.4115
-6.6759 -17.6947 1.4005
-5.0391 -18.1087 1.3920
-3.3878 -18.4050 1.3859
-1.7271 -18.5843 1.3822
-0.0615 -18.6470 1.3809
1.6043 -18.5932 1.3820
3.2656 -18.4228 1.3856
4.9179 -18.1355 1.3915
6.5561 -17.7304 1.3999
8.1752 -17.2068 1.4108
8.9466 -15.1681 1.3041
10.2839 -14.3359 1.3065
10.2783 -11.9184 1.1655
10.2738 -9.9579 1.0596
10.2700 -8.3120 0.9784
10.2667 -6.8897 0.9156
3.8146 -2.0922 0.3222
4.0667 -1.7787 0.3287
4.2996 -1.4389 0.3358
11.9098 -2.8336 0.9066
11.9073 -1.7291 0.8910
11.9048 -0.6535 0.8829
11.9023 0.4111 0.8819
11.8999 1.4819 0.8880
11.8973 2.5764 0.9015
11.8947 3.7138 0.9228
26.1701 10.8186 2.0971
25.1001 13.1111 2.0971
9.3283 5.9888 0.8209
22.3693 17.3646 2.0971
9.1989 8.5605 0.9306
13.6746 15.2203 1.5152
12.4922 16.6880 1.5437
12.0604 19.5296 1.6998
12.6587 25.3042 2.0953
10.3330 26.2903 2.0919
7.9389 27.0854 2.0902
3.0402 15.3320 1.1575
3.0033 28.1244 2.0946
0.2222 13.0562 0.9670
-0.9471 13.0667 0.9702
-4.5597 27.9485 2.0971
-7.0359 27.4300 2.0971
-9.4553 26.6908 2.0969
-6.6591 14.5266 1.1834
-9.3872 16.4259 1.4010
-9.4007 13.4917 1.2177
-11.0145 13.1321 1.2693
-17.5705 17.5039 1.8367
-20.0308 16.6717 1.9300
-21.3114 14.7295 1.9185
-21.4668 12.1602 1.8271
-21.4612 9.7396 1.7453
-21.4561 7.5093 1.6834
-20.7826 5.2467 1.5873
-22.3774 3.5636 1.6780
-20.7738 1.4264 1.5420
-23.3601 -0.4862 1.7303
-17.5788 -1.9447 1.3097
-7.0292 -1.4216 0.5311
-6.7059 -1.9932 0.5181
-6.3498 -2.5236 0.5060
-6.0915 -3.0763 0.5054
-6.0946 -3.7957 0.5317
-6.0980 -4.6010 0.5657
-15.0001 -13.5801 1.4984
-13.4808 -14.5968 1.4714
-11.9292 -15.4884 1.4478
-10.3680 -16.2850 1.4296
-8.7848 -16.9745 1.4154
-7.1747 -17.5438 1.4036
-5.5432 -17.9942 1.3944
-3.8959 -18.3265 1.3875
-2.2376 -18.5417 1.3831
-0.5730 -18.6401 1.3810
1.0932 -18.6221 1.3814
2.7565 -18.4875 1.3842
4.4120 -18.2362 1.3894
6.0550 -17.8673 1.3971
7.6806 -17.3802 1.4072
8.4955 -15.3504 1.2993
9.1772 -13.5638 1.2128
10.2799 -12.6032 1.2044
10.2751 -10.5208 1.0890
10.2711 -8.7899 1.0011
10.2677 -7.3067 0.9332
3.7337 -2.1832 0.3203
3.9912 -1.8777 0.3266
4.2303 -1.5460 0.3335
4.4484 -1.1882 0.3410
11.9080 -2.0642 0.8950
11.9055 -0.9817 0.8847
11.9031 0.0845 0.8815
10.2795 -12.4442 1.2953
10.2748 -10.3907 1.1727
10.2709 -8.6798 1.0792
3.2459 -2.2796 0.3183
3.4957 -2.0150 0.3238
3.7294 -1.7264 0.3298
3.9448 -1.4139 0.3363
4.1394 -1.0781 0.3433
4.3107 -0.7197 0.3507
4.4559 -0.3396 0.3586
11.9029 0.1584 0.9553
11.9004 1.2262 0.9601
11.8979 2.3134 0.9727
11.8954 3.4387 0.9937
24.3558 9.4685 2.0971
23.4135 11.6044 2.0971
22.2844 13.6478 2.0971
20.9774 15.5822 2.0971
19.5030 17.3922 2.0971
17.8729 19.0634 2.0971
16.0980 20.5796 2.0968
13.7906 21.3064 2.0368
12.1575 23.0658 2.0924
10.0246 23.9968 2.0871
7.8360 24.7743 2.0853
3.1827 14.4380 1.1865
3.3134 25.8252 2.0895
0.4993 13.0528 1.0483
-0.6685 13.0634 1.0497
-3.6514 25.8176 2.0925
-5.9413 25.3896 2.0926
-8.1820 24.7534 2.0922
-6.2741 14.4907 1.2672
-9.2345 16.9855 1.5515
-9.3756 14.0836 1.3578
-10.5459 13.1294 1.3515
-16.7097 17.3683 1.9342
-18.1150 15.7398 1.9259
-19.3123 13.9624 1.9125
-20.3341 12.0955 1.8987
-21.0799 10.1113 1.8762
-21.4573 8.0247 1.8385
-20.7837 5.7188 1.7299
-22.1140 4.0046 1.8035
-21.8863 1.9702 1.7635
-21.5855 0.0088 1.7323
-20.9108 -1.8651 1.6848
-6.7782 -1.2217 0.5527
-6.2984 -1.7275 0.5241
-6.0881 -2.2712 0.5215
-6.0908 -2.9154 0.5419
-6.0938 -3.6181 0.5687
-6.0971 -4.4005 0.6034
-14.3812 -12.4749 1.5278
-12.9817 -13.4712 1.5014
-11.5453 -14.3496 1.4780
-10.0785 -15.1126 1.4578
-8.5866 -15.7629 1.4405
-7.0870 -16.3316 1.4287
-5.5643 -16.7876 1.4193
-4.0236 -17.1312 1.4122
-2.4702 -17.3630 1.4074
-0.9091 -17.4833 1.4050
0.6548 -17.4925 1.4048
2.2167 -17.3905 1.4069
3.7718 -17.1771 1.4113
5.3150 -16.8520 1.4181
6.8413 -16.4146 1.4271
8.1885 -15.5665 1.4115
9.0072 -13.9410 1.3320
10.2812 -13.1657 1.3405
10.2762 -10.9786 1.2068
10.2720 -9.1754 1.1053
10.2685 -7.6405 1.0272
3.4206 -2.0988 0.3221
3.6595 -1.8175 0.3279
3.8808 -1.5123 0.3342
4.0820 -1.1837 0.3411
4.2607 -0.8321 0.3484
4.4142 -0.4585 0.3562
11.9037 -0.1682 0.9554
11.9012 0.8972 0.9578
11.8987 1.9765 0.9680
11.8962 3.0881 0.9863
11.8935 4.2520 1.0136
23.7230 10.9579 2.0971
15.3249 8.8169 1.4189
21.3969 15.0009 2.0971
19.9727 16.8507 2.0971
18.3890 18.5660 2.0971
13.1172 15.8530 1.6513
14.7930 21.5362 2.0968
10.3336 18.3658 1.6912
10.6913 23.7404 2.0895
8.5093 24.5406 2.0845
3.6019 14.4429 1.1946
4.0194 25.7179 2.0890
0.8582 13.0496 1.0495
-0.3096 13.0601 1.0484
-2.9418 25.9066 2.0924
-5.2427 25.5434 2.0926
-7.5007 24.9706 2.0924
-6.2635 15.6285 1.3512
-7.3642 14.4780 1.3035
-9.3937 14.9862 1.4194
-9.9642 13.1269 1.3226
-16.2468 17.8418 1.9365
-17.7010 16.2532 1.9285
-18.9661 14.5206 1.9169
-20.0310 12.6717 1.9022
-20.8718 10.7254 1.8832
-21.4589 8.7034 1.8584
-21.4539 6.5412 1.8000
-22.0459 4.6201 1.8076
-21.9752 2.5876 1.7757
-21.6265 0.6022 1.7362
-21.1329 -1.3019 1.6992
-9.3891 -1.4276 0.7621
-6.3882 -1.5651 0.5278
-6.0873 -2.0825 0.5163
-6.0900 -2.7123 0.5350
-6.0929 -3.3950 0.5597
-6.0960 -4.1503 0.5918
-6.0996 -5.0046 0.6332
-13.4155 -13.1780 1.5091
-11.9897 -14.0923 1.4849
-10.5316 -14.8905 1.4637
-9.0469 -15.5751 1.4455
-7.5500 -16.1690 1.4321
-6.0338 -16.6596 1.4219
-4.4981 -17.0376 1.4141
-2.9481 -17.3037 1.4087
-1.3888 -17.4582 1.4055
0.1748 -17.5015 1.4046
1.7378 -17.4337 1.4060
3.2955 -17.2545 1.4097
4.8429 -16.9637 1.4157
6.3749 -16.5608 1.4241
7.8862 -16.0452 1.4348
8.6129 -14.1688 1.3307
9.9712 -13.5173 1.3480
10.2776 -11.6023 1.2439
10.2732 -9.6960 1.1336
10.2695 -8.0882 1.0491
3.3441 -2.1803 0.3204
3.5880 -1.9064 0.3261
3.8149 -1.6085 0.3322
4.0225 -1.2870 0.3389
4.2084 -0.9424 0.3461
4.3700 -0.5754 0.3537
11.9044 -0.4950 0.9562
11.9020 0.5695 0.9562
11.8995 1.6427 0.9640
11.8970 2.7423 0.9798
11.8943 3.8878 1.0042
24.0147 10.3031 2.0971
22.9992 12.4053 2.0971
9.1911 6.0746 0.8841
20.4274 16.2966 2.0971
9.1091 8.7057 1.0112
13.3770 15.2928 1.6305
15.3783 21.1225 2.0968
10.8714 18.1388 1.6971
11.3521 23.4665 2.0920
9.1755 24.2882 2.0836
4.0271 14.4479 1.2037
2.8529 15.4612 1.2617
2.4212 25.9318 2.0901
0.0487 13.0569 1.0478
-2.2299 25.9755 2.0922
-4.5401 25.6774 2.0926
-6.8133 25.1685 2.0925
-9.0299 24.4532 2.0919
-6.8737 14.4837 1.2866
-9.3893 15.9344 1.4843
-9.4064 13.1246 1.2958
-11.3155 13.1325 1.3912
-17.2717 16.7550 1.9311
-18.6032 15.0698 1.9213
-19.7235 13.2483 1.9068
-20.6452 11.3352 1.8901
-21.3156 9.3340 1.8674
-21.4554 7.1906 1.8160
-20.7819 4.9539 1.7145
-22.0474 3.2114 1.7880
-20.7732 1.1494 1.6696
-21.3419 -0.7280 1.7137
-10.5181 -1.3052 0.8506
-6.4747 -1.3992 0.5316
-6.1811 -1.9269 0.5196
-6.0891 -2.5141 0.5287
-6.0919 -3.1788 0.5514
-6.0950 -3.9093 0.5811
-6.0985 -4.7299 0.6194
-13.8456 -12.8737 1.5172
-12.4311 -13.8241 1.4920
-10.9823 -14.6577 1.4698
-9.5052 -15.3769 1.4507
-8.0106 -15.9957 1.4357
-6.5016 -16.5210 1.4248
-4.9712 -16.9335 1.4163
-3.4250 -17.2339 1.4101
-1.8681 -17.4226 1.4062
-0.3054 -17.5001 1.4046
1.2584 -17.4663 1.4053
2.8182 -17.3213 1.4083
4.3693 -17.0649 1.4137
5.9066 -16.6965 1.4213
7.4249 -16.2155 1.4312
8.2178 -14.3940 1.3301
9.3947 -13.4954 1.3196
10.2791 -12.2660 1.2843
10.2745 -10.2444 1.1644
10.2706 -8.5558 1.0727
3.2662 -2.2595 0.3187
3.5148 -1.9930 0.3243
3.7472 -1.7025 0.3303
3.9610 -1.3882 0.3368
4.1538 -1.0506 0.3438
4.3231 -0.6904 0.3513
4.4662 -0.3086 0.3593
11.9027 0.2426 0.9554
11.9002 1.3113 0.9608
11.8977 2.4008 0.9741
11.8951 3.5300 0.9957
24.2882 9.6406 2.0971
23.3309 11.7698 2.0971
22.1873 13.8051 2.0971
20.8667 15.7301 2.0971
19.3795 17.5297 2.0971
17.7376 19.1894 2.0971
15.9520 20.6929 2.0968
14.0398 22.0314 2.0965
11.9935 23.1503 2.0924
9.8493 24.0544 2.0860
7.6613 24.8315 2.0855
3.0755 14.4367 1.1846
3.1308 25.8496 2.0896
0.4069 13.0537 1.0481
-0.7613 13.0642 1.0502
-3.8340 25.7915 2.0925
-6.1207 25.3469 2.0926
-8.3567 24.6944 2.0922
-6.3955 14.4893 1.2710
-9.3125 16.8438 1.5446
-9.3987 13.9041 1.3468
-10.7001 13.1300 1.3593
-16.8268 17.2441 1.9335
-18.2214 15.6074 1.9254
-19.3988 13.8171 1.9113
-20.4002 11.9403 1.8970
-21.1306 9.9524 1.8744
-21.4569 7.8520 1.8336
-20.7833 5.5609 1.7266
-22.1026 3.8412 1.8004
-21.8608 1.8121 1.7604
-21.5374 -0.1435 1.7284
-20.8515 -2.0086 1.6811
-6.5578 -1.2299 0.5354
-6.2748 -1.7688 0.5232
-6.0883 -2.3204 0.5229
-6.0911 -2.9687 0.5438
-6.0940 -3.6768 0.5712
-6.0974 -4.4666 0.6066
-14.2719 -12.5581 1.5256
-12.8692 -13.5450 1.4994
-11.4303 -14.4141 1.4763
-9.9612 -15.1682 1.4563
-8.4687 -15.8117 1.4395
-6.9673 -16.3718 1.4279
-5.4429 -16.8189 1.4187
-3.9010 -17.1536 1.4117
-2.3468 -17.3766 1.4071
-0.7853 -17.4881 1.4049
0.7786 -17.4885 1.4049
2.3402 -17.3777 1.4072
3.8945 -17.1555 1.4118
5.4365 -16.8215 1.4187
6.9612 -16.3751 1.4279
8.1932 -15.3115 1.3936
9.0067 -13.7262 1.3175
10.2807 -12.9748 1.3285
10.2758 -10.8238 1.1977
10.2717 -9.0453 1.0984
3.1869 -2.3365 0.3171
3.4401 -2.0774 0.3225
3.6777 -1.7942 0.3284
3.8975 -1.4872 0.3348
4.0970 -1.1567 0.3416
4.2738 -0.8033 0.3490
4.4252 -0.4280 0.3568
11.9035 -0.0839 0.9553
11.9010 0.9819 0.9583
11.8985 2.0631 0.9691
11.8960 3.1780 0.9881
11.9586 4.3710 1.0218
23.6449 11.1254 2.0971
15.2335 8.9083 1.4162
21.2902 15.1519 2.0971
19.8530 16.9916 2.0971
18.2573 18.6956 2.0971
16.5158 20.2505 2.0971
14.6403 21.6403 2.0968
10.2625 18.5453 1.7010
10.5179 23.8039 2.0885
8.3363 24.6027 2.0847
3.4932 14.4416 1.1924
3.8377 25.7475 2.0891
0.7656 13.0504 1.0491
-0.4021 13.0610 1.0487
-3.1250 25.8856 2.0924
-5.4233 25.5057 2.0926
-7.6770 24.9165 2.0923
-6.2596 15.3044 1.3270
-7.4928 14.4765 1.3082
-9.3948 14.7549 1.4038
-10.1118 13.1276 1.3298
-16.3675 17.7209 1.9359
-17.8092 16.1219 1.9278
-19.0570 14.3776 1.9158
-20.1075 12.5218 1.9010
-20.9272 10.5674 1.8814
-21.4585 8.5270 1.8531
-21.4535 6.3756 1.7961
-22.0788 4.4642 1.8077
-21.9539 2.4277 1.7726
-21.5917 0.4484 1.7331
-21.0769 -1.4482 1.6954
-9.3886 -1.4956 0.7629
-6.3653 -1.6073 0.5269
-6.0875 -2.1308 0.5176
-6.0902 -2.7642 0.5367
-6.0931 -3.4519 0.5620
-6.0963 -4.2139 0.5947
-6.1000 -5.0775 0.6369
-13.3039 -13.2547 1.5071
-11.8754 -14.1597 1.4831
-10.4150 -14.9488 1.4621
-8.9284 -15.6246 1.4442
-7.4309 -16.2120 1.4312
-5.9129 -16.6937 1.4212
-4.3758 -17.0628 1.4136
-2.8249 -17.3200 1.4083
-1.2651 -17.4657 1.4053
0.2986 -17.5002 1.4046
1.8614 -17.4235 1.4062
3.4184 -17.2356 1.4101
4.9648 -16.9359 1.4163
6.4954 -16.5242 1.4249
8.0048 -15.9995 1.4357
8.7212 -14.1210 1.3319
10.0777 -13.4613 1.3495
10.2772 -11.4378 1.2340
10.2729 -9.5592 1.1261
10.2692 -7.9710 1.0432
3.3640 -2.1595 0.3208
3.6066 -1.8837 0.3265
3.8320 -1.5839 0.3328
4.0380 -1.2606 0.3395
4.2221 -0.9141 0.3467
4.3816 -0.5455 0.3543
11.9042 -0.4107 0.9559
11.9018 0.6539 0.9566
11.8993 1.7285 0.9650
11.8968 2.8310 0.9814
11.8941 3.9811 1.0066
23.9412 10.4727 2.0971
22.9109 12.5677 2.0971
9.1649 6.1509 0.8858
20.3116 16.4407 2.0971
18.7632 18.1878 2.0971
13.2627 15.3803 1.6298
15.2285 21.2307 2.0968
10.6944 18.1331 1.6894
11.1768 23.5272 2.0903
9.0044 24.3551 2.0838
3.9168 14.4466 1.2012
2.8455 16.0569 1.3087
2.2378 25.9497 2.0902
-0.0436 13.0577 1.0479
-2.4137 25.9597 2.0923
-4.7217 25.6447 2.0926
-6.9911 25.1193 2.0925
-6.2756 16.6313 1.4265
-6.9990 14.4823 1.2908
-9.3905 15.6817 1.4669
-9.5481 13.1252 1.3025
-15.8912 18.1813 1.9379
-17.3840 16.6269 1.9305
-18.6984 14.9291 1.9202
-19.8045 13.1004 1.9056
-20.7054 11.1784 1.8883
-21.3603 9.1741 1.8656
-21.4550 7.0220 1.8117
-20.7816 4.7987 1.7116
-22.0304 3.0500 1.7848
-21.7207 1.0478 1.7451
-21.2893 -0.8770 1.7099
-9.9018 -1.2999 0.8015
-6.4527 -1.4423 0.5306
-6.1565 -1.9671 0.5187
-6.0893 -2.5648 0.5303
-6.0922 -3.2339 0.5535
-6.0953 -3.9706 0.5838
-6.0988 -4.7995 0.6228
-13.7351 -12.9533 1.5151
-12.3176 -13.8943 1.4901
-10.8663 -14.7188 1.4682
-9.3872 -15.4291 1.4494
-7.8921 -16.0415 1.4347
-6.3811 -16.5578 1.4240
-4.8494 -16.9614 1.4157
-3.3022 -17.2529 1.4097
-1.7445 -17.4328 1.4060
-0.1815 -17.5014 1.4046
1.3821 -17.4589 1.4055
2.9414 -17.3051 1.4087
4.4915 -17.0398 1.4142
6.0275 -16.6625 1.4220
7.5441 -16.1726 1.4321
8.3004 -14.3027 1.3271
9.5369 -13.4951 1.3261
10.2787 -12.0908 1.2735
10.2741 -10.1002 1.1562
10.2703 -8.4332 1.0665
3.2864 -2.2393 0.3191
3.5338 -1.9709 0.3247
3.7648 -1.6785 0.3308
3.9770 -1.3623 0.3374
4.1681 -1.0229 0.3444
4.3355 -0.6609 0.3519
4.4763 -0.2775 0.3599
11.9025 0.3269 0.9556
11.9001 1.3965 0.9615
11.8975 2.4885 0.9755
11.8949 3.6217 0.9979
24.2194 9.8122 2.0971
23.2470 11.9346 2.0971
22.0891 13.9617 2.0971
20.7549 15.8774 2.0971
9.3263 8.5569 1.0157
14.0083 15.3715 1.6690
15.8052 20.8053 2.0968
12.3023 19.6096 1.8578
11.8290 23.2336 2.0923
9.6709 24.1036 2.0842
7.4862 24.8874 2.0856
2.9687 14.4354 1.1827
2.9481 25.8727 2.0898
0.3145 13.0545 1.0479
-0.8541 13.0650 1.0507
-4.0164 25.7640 2.0926
-6.2998 25.3027 2.0926
-8.5310 24.6340 2.0921
-6.5178 14.4879 1.2749
-9.3858 16.6964 1.5371
-9.3996 13.6957 1.3331
-10.8560 13.1306 1.3673
-16.9429 17.1191 1.9329
-18.3231 15.4711 1.9245
-19.4842 13.6712 1.9101
-20.4652 11.7848 1.8952
-21.1801 9.7933 1.8726
-21.4565 7.6802 1.8289
-20.7830 5.4035 1.7233
-22.0900 3.6782 1.7972
-20.7741 1.5741 1.6719
-21.4883 -0.2952 1.7246
-20.7914 -2.1513 1.6774
-6.5367 -1.2739 0.5344
-6.2509 -1.8100 0.5222
-6.0885 -2.3700 0.5243
-6.0913 -3.0223 0.5457
-6.0943 -3.7360 0.5737
-6.0977 -4.5335 0.6098
-14.1624 -12.6406 1.5234
-12.7565 -13.6180 1.4975
-11.3150 -14.4780 1.4746
-9.8439 -15.2230 1.4548
-8.3509 -15.8602 1.4385
-6.8474 -16.4113 1.4271
-5.3214 -16.8495 1.4180
-3.7784 -17.1753 1.4113
-2.2234 -17.3894 1.4069
-0.6616 -17.4922 1.4048
0.9023 -17.4838 1.4050
2.4635 -17.3642 1.4074
4.0171 -17.1331 1.4122
5.5579 -16.7903 1.4193
7.0810 -16.3350 1.4288
8.1977 -15.0629 1.3762
9.0201 -13.5369 1.3054
10.2803 -12.7875 1.3167
10.2754 -10.6712 1.1889
10.2714 -8.9168 1.0916
3.2075 -2.3169 0.3175
3.4595 -2.0559 0.3230
3.6958 -1.7708 0.3289
3.9140 -1.4619 0.3353
4.1119 -1.1295 0.3422
4.2868 -0.7744 0.3496
4.4361 -0.3974 0.3574
11.9033 0.0002 0.9553
11.9008 1.0666 0.9589
11.8983 2.1499 0.9703
11.8957 3.2683 0.9900
24.4794 9.1442 2.0971
23.5656 11.2924 2.0971
15.1425 8.9994 1.4136
21.1826 15.3021 2.0971
19.7323 17.1316 2.0971
18.1246 18.8243 2.0971
16.3714 20.3658 2.0970
14.0408 21.0737 2.0322
12.4637 22.9039 2.0926
10.3483 23.8754 2.0883
8.1629 24.6635 2.0849
3.3850 14.4403 1.1903
3.6557 25.7757 2.0892
0.6730 13.0513 1.0488
-0.4946 13.0618 1.0490
-3.3081 25.8632 2.0925
-5.6036 25.4666 2.0926
-7.8529 24.8610 2.0923
-6.2558 14.9917 1.3037
-9.3807 17.8142 1.6157
-9.3958 14.5288 1.3885
-10.2611 13.1282 1.3372
-16.4873 17.5991 1.9353
-17.9164 15.9898 1.9272
-19.1468 14.2339 1.9146
-20.1844 12.3725 1.8999
-20.9815 10.4091 1.8796
-21.4581 8.3515 1.8479
-21.4531 6.2107 1.7923
-22.1108 4.3081 1.8078
-21.9314 2.2683 1.7694
-21.5879 0.2957 1.7326
-21.0199 -1.5938 1.6917
-7.3270 -1.2204 0.5961
-6.3423 -1.6493 0.5259
-6.0877 -2.1794 0.5189
-6.0904 -2.8164 0.5385
-6.0933 -3.5092 0.5643
-6.0966 -4.2781 0.5977
-6.1003 -5.1512 0.6407
-13.1922 -13.3306 1.5051
-11.7609 -14.2263 1.4813
-10.2983 -15.0064 1.4606
-8.8097 -15.6733 1.4429
-7.3115 -16.2542 1.4303
-5.7919 -16.7270 1.4206
-4.2535 -17.0872 1.4131
-2.7017 -17.3356 1.4080
-1.1415 -17.4725 1.4052
0.4224 -17.4982 1.4047
1.9849 -17.4127 1.4064
3.5413 -17.2159 1.4105
5.0866 -16.9074 1.4169
6.6157 -16.4867 1.4256
8.1232 -15.9532 1.4367
8.8295 -14.0725 1.3332
10.1841 -13.4046 1.3510
10.2768 -11.2759 1.2243
10.2726 -9.4242 1.1188
10.2690 -7.8550 1.0375
3.3838 -2.1385 0.3212
3.6251 -1.8608 0.3270
3.8491 -1.5592 0.3333
4.0535 -1.2340 0.3400
4.2357 -0.8858 0.3473
4.3931 -0.5154 0.3550
11.9040 -0.3263 0.9557
11.9016 0.7384 0.9570
11.8991 1.8145 0.9660
11.8965 2.9200 0.9831
11.8939 4.0748 1.0090
23.8665 10.6418 2.0971
22.8214 12.7294 2.0971
21.5943 14.7154 2.0971
20.1948 16.5839 2.0971
18.6341 18.3201 2.0971
13.1743 15.4982 1.6324
15.0779 21.3379 2.0968
10.5477 18.1770 1.6865
11.0071 23.5992 2.0897
8.8328 24.4207 2.0841
3.8070 14.4453 1.1988
4.3602 25.6588 2.0887
1.0323 13.0480 1.0504
-0.1361 13.0586 1.0480
-2.5973 25.9425 2.0923
-4.9029 25.6107 2.0926
-7.1685 25.0688 2.0924
-6.2712 16.2706 1.3994
-7.1251 14.4808 1.2952
-9.3916 15.4348 1.4499
-9.6912 13.1258 1.3094
-16.0176 18.0664 1.9376
-17.4951 16.4978 1.9298
-18.7924 14.7878 1.9191
-19.8843 12.9518 1.9044
-20.7644 11.0212 1.8866
-21.4129 9.0178 1.8646
-21.4546 6.8543 1.8075
-21.1319 4.7224 1.7377
-22.0123 2.8888 1.7817
-21.6889 0.8924 1.7420
-21.2358 -1.0253 1.7062
-9.3900 -1.3004 0.7608
-6.4305 -1.4852 0.5296
-6.1316 -2.0071 0.5178
-6.0896 -2.6158 0.5319
-6.0924 -3.2895 0.5556
-6.0955 -4.0325 0.5865
-6.0991 -4.8700 0.6264
-13.6243 -13.0321 1.5130
-12.2039 -13.9638 1.4883
-10.7502 -14.7791 1.4666
-9.2691 -15.4805 1.4480
-7.7734 -16.0864 1.4338
-6.2606 -16.5938 1.4233
-4.7274 -16.9885 1.4152
-3.1791 -17.2712 1.4093
-1.6209 -17.4423 1.4058
-0.0577 -17.5021 1.4046
1.5057 -17.4508 1.4056
3.0645 -17.2882 1.4090
4.6137 -17.0140 1.4147
6.1484 -16.6278 1.4227
7.6631 -16.1290 1.4330
8.4091 -14.2568 1.3283
9.7027 -13.5257 1.3359
10.2783 -11.9184 1.2630
10.2738 -9.9579 1.1482
10.2700 -8.3120 1.0603
3.3066 -2.2189 0.3196
3.5528 -1.9486 0.3252
3.7823 -1.6543 0.3313
3.9929 -1.3363 0.3379
4.1823 -0.9951 0.3450
4.3476 -0.6313 0.3526
4.4862 -0.2463 0.3606
11.9023 0.4111 0.9557
11.8999 1.4819 0.9624
11.8973 2.5764 0.9769
11.8947 3.7138 1.0000
24.1494 9.9832 2.0971
23.1620 12.0987 2.0971
9.3270 5.9880 0.8895
20.6421 16.0238 2.0971
9.1989 8.5605 1.0084
13.6783 15.2244 1.6425
15.6576 20.9165 2.0968
12.0975 19.5896 1.8477
11.6638 23.3157 2.0922
9.4955 24.1594 2.0832
7.3107 24.9420 2.0858
2.8654 14.4508 1.1823
2.7651 25.8945 2.0899
0.2222 13.0553 1.0479
-0.9470 13.0658 1.0513
-4.1985 25.7351 2.0926
-6.4786 25.2573 2.0926
-8.7048 24.5724 2.0921
-6.6407 14.4864 1.2789
-9.3871 16.4256 1.5183
-9.4006 13.4915 1.3196
-11.0139 13.1313 1.3754
-17.0581 16.9934 1.9323
-18.4215 15.3322 1.9234
-19.5684 13.5248 1.9090
-20.5289 11.6289 1.8934
-21.2283 9.6339 1.8708
-21.4561 7.5093 1.8243
-20.7826 5.2467 1.7202
-22.0763 3.5156 1.7940
-20.7738 1.4264 1.6711
-21.4383 -0.4462 1.7208
-17.5636 -1.9430 1.4181
-6.5153 -1.3177 0.5335
-6.2268 -1.8508 0.5213
-6.0887 -2.4198 0.5258
-6.0915 -3.0763 0.5477
-6.0945 -3.7957 0.5762
-6.0979 -4.6010 0.6130
-14.0525 -12.7223 1.5212
-12.6437 -13.6903 1.4955
-11.1996 -14.5411 1.4729
-9.7263 -15.2772 1.4534
-8.2328 -15.9080 1.4375
-6.7274 -16.4501 1.4263
-5.1998 -16.8793 1.4174
-3.6557 -17.1963 1.4109
-2.1000 -17.4016 1.4066
-0.5378 -17.4956 1.4047
1.0261 -17.4784 1.4051
2.5868 -17.3499 1.4077
4.1396 -17.1101 1.4127
5.6792 -16.7583 1.4200
7.2006 -16.2941 1.4296
8.2021 -14.8204 1.3594
9.1313 -13.4960 1.3077
10.2799 -12.6032 1.3052
10.2751 -10.5209 1.1802
10.2711 -8.7899 1.0849
3.2280 -2.2971 0.3179
3.4788 -2.0342 0.3234
3.7137 -1.7472 0.3294
3.9305 -1.4364 0.3358
4.1266 -1.1022 0.3428
4.2996 -0.7453 0.3502
4.4467 -0.3667 0.3581
11.9031 0.0845 0.9553
10.1668 -12.3077 1.3801
10.2748 -10.3907 1.2633
10.2709 -8.6798 1.1626
3.0413 -2.1359 0.3213
3.2719 -1.8860 0.3265
3.4865 -1.6139 0.3321
3.6831 -1.3201 0.3383
3.8595 -1.0052 0.3448
4.0133 -0.6700 0.3518
4.1420 -0.3157 0.3591
4.2432 0.0565 0.3669
4.3140 0.4445 0.3749
4.3520 0.8462 0.3833
4.3545 1.2588 0.3919
4.3190 1.6791 0.4006
4.2434 2.1032 0.4094
20.6855 12.6686 2.0971
19.4723 14.4642 2.0971
18.1037 16.1444 2.0971
16.5906 17.6957 2.0971
14.9412 19.1008 2.0965
13.1404 20.3017 2.0907
11.2689 21.3799 2.0894
9.2696 22.1897 2.0791
7.2610 22.9563 2.0816
3.1822 14.4356 1.2780
3.0698 23.9265 2.0855
0.4993 13.0520 1.1292
-0.6685 13.0625 1.1308
-3.3826 23.9170 2.0883
-5.5040 23.5206 2.0884
-7.5798 22.9315 2.0880
-6.2747 14.4921 1.3653
-9.2188 16.9565 1.6686
-9.3018 13.9727 1.4512
-10.5453 13.1286 1.4558
-15.4590 16.0683 1.9277
-16.7396 14.5447 1.9172
-17.8484 12.9041 1.9041
-18.7654 11.1624 1.8877
-19.4716 9.3399 1.8670
-19.9698 7.4684 1.8433
-20.2369 5.5684 1.8146
-20.3915 3.6926 1.7916
-20.2165 1.8199 1.7549
-19.9330 0.0082 1.7233
-19.3506 -1.7259 1.6796
-6.7835 -1.2227 0.5959
-6.0856 -1.6691 0.5456
-6.0881 -2.2712 0.5618
-6.0908 -2.9154 0.5838
-6.0938 -3.6181 0.6127
-6.0971 -4.4005 0.6501
-13.5285 -11.7352 1.5483
-12.2191 -12.6799 1.5224
-10.8771 -13.5190 1.5001
-9.5027 -14.2492 1.4807
-8.1015 -14.8724 1.4642
-6.6785 -15.3902 1.4504
-5.2389 -15.8060 1.4396
-3.7894 -16.1342 1.4328
-2.3269 -16.3557 1.4283
-0.8565 -16.4708 1.4259
0.6169 -16.4796 1.4257
2.0882 -16.3820 1.4278
3.5524 -16.1781 1.4320
5.0045 -15.8674 1.4384
6.4458 -15.4658 1.4486
7.8722 -14.9652 1.4619
8.5172 -13.1826 1.3569
9.7836 -12.5284 1.3743
10.2762 -10.9786 1.3001
10.2720 -9.1754 1.1908
2.9677 -2.2082 0.3198
3.2027 -1.9651 0.3249
3.4224 -1.6997 0.3304
3.6248 -1.4126 0.3363
3.8076 -1.1041 0.3427
3.9686 -0.7750 0.3496
4.1053 -0.4264 0.3568
4.2152 -0.0595 0.3645
4.2957 0.3238 0.3724
4.3440 0.7216 0.3807
4.3577 1.1312 0.3892
4.3341 1.5495 0.3979
4.2710 1.9728 0.4067
4.1664 2.3971 0.4156
19.8617 13.9247 2.0971
18.5397 15.6417 2.0971
17.0697 17.2340 2.0971
13.1806 15.9296 1.7875
13.7271 19.9844 2.0961
10.3664 18.4241 1.8277
9.8933 21.9683 2.0830
7.8851 22.7405 2.0808
3.6013 14.4405 1.2867
3.7240 23.8276 2.0850
0.8581 13.0488 1.1306
-0.3096 13.0593 1.1294
-2.7253 23.9996 2.0882
-4.8568 23.6629 2.0884
-6.9485 23.1325 2.0882
-6.2634 15.6282 1.4556
-7.3649 14.4795 1.4044
-9.3936 14.9860 1.5291
-9.9636 13.1262 1.4247
-15.2121 16.7054 1.9533
-16.3672 15.0285 1.9210
-17.5254 13.4176 1.9082
-18.5129 11.7113 1.8939
-19.2739 9.9042 1.8734
-19.8515 8.0515 1.8520
-20.1740 6.1510 1.8234
-20.4079 4.2768 1.8027
-20.2879 2.3889 1.7661
-20.0001 0.5570 1.7298
-19.5437 -1.2040 1.6928
-9.3891 -1.4276 0.8211
-6.0848 -1.4908 0.5416
-6.0873 -2.0825 0.5562
-6.0900 -2.7123 0.5764
-6.0928 -3.3950 0.6030
-6.0960 -4.1503 0.6376
-6.0996 -5.0046 0.6821
-12.6236 -12.4002 1.5298
-11.2927 -13.2731 1.5066
-9.9277 -14.0365 1.4864
-8.5341 -14.6924 1.4689
-7.1173 -15.2424 1.4543
-5.6820 -15.6881 1.4425
-4.2360 -16.0448 1.4347
-2.7769 -16.2990 1.4294
-1.3083 -16.4468 1.4264
0.1647 -16.4882 1.4255
1.6371 -16.4233 1.4269
3.1040 -16.2520 1.4305
4.5604 -15.9742 1.4362
6.0045 -15.5986 1.4450
7.4364 -15.1299 1.4575
8.2079 -13.5025 1.3661
9.3977 -12.7398 1.3686
10.2776 -11.6023 1.3400
10.2732 -9.6960 1.2213
2.8928 -2.2783 0.3183
3.1321 -2.0421 0.3233
3.3567 -1.7835 0.3286
3.5646 -1.5030 0.3345
3.7537 -1.2010 0.3407
3.9216 -0.8782 0.3474
4.0661 -0.5354 0.3546
4.1845 -0.1740 0.3621
4.2743 0.2045 0.3699
4.3327 0.5981 0.3781
4.3573 1.0044 0.3866
4.3454 1.4204 0.3952
4.2947 1.8426 0.4040
4.2030 2.2670 0.4129
9.1909 6.0745 0.9525
18.9618 15.1273 2.0971
9.1091 8.7057 1.0893
13.3990 15.3180 1.7595
14.2732 19.6047 2.0965
10.9165 18.2141 1.8358
10.5057 21.7169 2.0857
8.5027 22.5073 2.0801
4.0264 14.4455 1.2965
2.8526 15.4596 1.3591
2.2432 24.0248 2.0861
0.0487 13.0561 1.1288
-2.0658 24.0635 2.0881
-4.2059 23.7870 2.0884
-6.3118 23.3157 2.0883
-8.3654 22.6536 2.0878
-6.8744 14.4852 1.3862
-9.3892 15.9341 1.5989
-9.4058 13.1239 1.3959
-11.3148 13.1317 1.4986
-15.9801 15.5021 1.9248
-17.1869 13.9225 1.9122
-18.2325 12.2468 1.8989
-19.0593 10.4645 1.8798
-19.7158 8.6335 1.8608
-20.0943 6.7344 1.8322
-20.2924 4.8372 1.8035
-20.3438 2.9632 1.7774
-20.1052 1.1124 1.7408
-19.7243 -0.6728 1.7062
-10.5270 -1.3063 0.9171
-6.0841 -1.3148 0.5381
-6.0865 -1.8975 0.5512
-6.0891 -2.5141 0.5695
-6.0919 -3.1788 0.5941
-6.0950 -3.9093 0.6260
-6.0985 -4.7298 0.6672
-13.0243 -12.1100 1.5375
-11.7052 -13.0169 1.5134
-10.3500 -13.8137 1.4923
-8.9646 -14.5024 1.4740
-7.5544 -15.0847 1.4585
-6.1243 -15.5623 1.4459
-4.6811 -15.9454 1.4367
-3.2260 -16.2324 1.4308
-1.7598 -16.4128 1.4271
-0.2877 -16.4868 1.4256
1.1855 -16.4545 1.4262
2.6546 -16.3159 1.4291
4.1148 -16.0708 1.4342
5.5618 -15.7217 1.4418
6.9987 -15.2849 1.4534
8.1919 -14.3486 1.4284
9.0092 -12.9417 1.3633
10.2651 -12.2493 1.3817
10.2745 -10.2444 1.2544
10.2706 -8.5558 1.1557
3.0601 -2.1170 0.3217
3.2895 -1.8652 0.3269
3.5027 -1.5914 0.3326
3.6978 -1.2960 0.3388
3.8725 -0.9794 0.3453
4.0244 -0.6427 0.3523
4.1511 -0.2868 0.3597
4.2499 0.0866 0.3675
4.3183 0.4758 0.3756
4.3535 0.8785 0.3840
4.3531 1.2918 0.3926
4.3145 1.7125 0.4013
4.2356 2.1368 0.4101
20.5954 12.8146 2.0971
19.3696 14.6016 2.0971
17.9890 16.2720 2.0971
16.4650 17.8126 2.0971
14.8057 19.2059 2.0965
12.9952 20.3922 2.0905
11.1093 21.4435 2.0879
9.1133 22.2570 2.0793
7.0990 23.0092 2.0818
3.0750 14.4344 1.2759
2.9007 23.9491 2.0856
0.4069 13.0529 1.1290
-0.7612 13.0634 1.1313
-3.5518 23.8928 2.0883
-5.6701 23.4808 2.0884
-7.7417 22.8768 2.0880
-6.3962 14.4907 1.3694
-9.2993 16.8199 1.6616
-9.3736 13.8669 1.4471
-10.6994 13.1292 1.4643
-15.5677 15.9538 1.9271
-16.8332 14.4184 1.9162
-17.9292 12.7703 1.9030
-18.8278 11.0200 1.8861
-19.5198 9.1937 1.8654
-19.9975 7.3180 1.8410
-20.2504 5.4183 1.8123
-20.3838 3.5425 1.7887
-20.1956 1.6741 1.7520
-19.8919 -0.1326 1.7198
-19.2988 -1.8590 1.6762
-6.5222 -1.2233 0.5737
-6.0858 -1.7156 0.5466
-6.0883 -2.3204 0.5633
-6.0910 -2.9687 0.5858
-6.0940 -3.6768 0.6153
-6.0974 -4.4666 0.6535
-13.4252 -11.8131 1.5460
-12.1142 -12.7503 1.5205
-10.7694 -13.5807 1.4985
-9.3927 -14.3024 1.4793
-7.9896 -14.9172 1.4630
-6.5651 -15.4268 1.4495
-5.1248 -15.8359 1.4390
-3.6741 -16.1556 1.4324
-2.2107 -16.3687 1.4280
-0.7399 -16.4754 1.4258
0.7335 -16.4757 1.4258
2.2044 -16.3698 1.4280
3.6679 -16.1574 1.4324
5.1188 -15.8383 1.4390
6.5594 -15.4300 1.4495
7.9842 -14.9211 1.4631
8.6183 -13.1344 1.3582
9.8827 -12.4724 1.3758
10.2758 -10.8238 1.2903
10.2717 -9.0453 1.1833
2.9868 -2.1898 0.3202
3.2207 -1.9449 0.3253
3.4391 -1.6778 0.3308
3.6400 -1.3889 0.3368
3.8212 -1.0788 0.3433
3.9803 -0.7481 0.3501
4.1150 -0.3980 0.3574
4.2227 -0.0298 0.3651
4.3007 0.3548 0.3731
4.3464 0.7536 0.3814
4.3572 1.1640 0.3899
4.3306 1.5828 0.3986
4.2643 2.0064 0.4074
4.1563 2.4305 0.4163
19.7627 14.0648 2.0971
18.4286 15.7725 2.0971
16.9474 17.3543 2.0971
15.3269 18.7927 2.0965
13.5795 20.0722 2.0951
10.3161 18.6421 1.8420
9.7316 22.0243 2.0817
7.7248 22.7978 2.0810
3.4927 14.4393 1.2843
3.5556 23.8549 2.0851
0.7655 13.0496 1.1301
-0.4021 13.0601 1.1296
-2.8950 23.9801 2.0882
-5.0240 23.6279 2.0884
-7.1119 23.0823 2.0881
-6.2595 15.3041 1.4295
-7.4935 14.4780 1.4094
-9.3946 14.7547 1.5122
-10.1112 13.1268 1.4325
-15.2193 16.4777 1.9392
-16.4646 14.9047 1.9201
-17.6101 13.2860 1.9072
-18.5796 11.5703 1.8923
-19.3265 9.7591 1.8718
-19.8836 7.9012 1.8498
-20.1918 6.0007 1.8211
-20.4075 4.1263 1.8000
-20.2709 2.2416 1.7632
-19.9706 0.4148 1.7269
-19.4951 -1.3395 1.6894
-9.3886 -1.4956 0.8219
-6.0850 -1.5365 0.5426
-6.0875 -2.1308 0.5576
-6.0902 -2.7642 0.5782
-6.0931 -3.4519 0.6054
-6.0963 -4.2139 0.6407
-6.1000 -5.0775 0.6862
-12.5197 -12.4733 1.5279
-11.1859 -13.3375 1.5049
-9.8183 -14.0923 1.4849
-8.4228 -14.7397 1.4677
-7.0043 -15.2814 1.4533
-5.5677 -15.7190 1.4417
-4.1209 -16.0688 1.4342
-2.6609 -16.3146 1.4291
-1.1918 -16.4539 1.4262
0.2813 -16.4869 1.4256
1.7535 -16.4136 1.4271
3.2198 -16.2339 1.4308
4.6751 -15.9476 1.4368
6.1185 -15.5653 1.4459
7.5489 -15.0884 1.4586
8.2252 -13.3178 1.3533
9.4974 -12.6862 1.3701
10.2772 -11.4378 1.3294
10.2729 -9.5592 1.2132
2.9122 -2.2604 0.3187
3.1505 -2.0224 0.3237
3.3738 -1.7621 0.3291
3.5803 -1.4799 0.3349
3.7678 -1.1762 0.3412
3.9340 -0.8517 0.3480
4.0764 -0.5075 0.3551
4.1927 -0.1446 0.3627
4.2801 0.2351 0.3706
4.3360 0.6299 0.3788
4.3577 1.0370 0.3873
4.3429 1.4536 0.3959
4.2890 1.8761 0.4047
4.1940 2.3006 0.4136
9.1645 6.1507 0.9542
18.8543 15.2611 2.0971
17.4170 16.8829 2.0971
13.2840 15.4050 1.7586
14.1342 19.7051 2.0965
10.7261 18.1869 1.8254
10.3482 21.7829 2.0849
8.3441 22.5691 2.0803
3.9162 14.4442 1.2938
2.8452 16.0551 1.4097
2.0732 24.0413 2.0862
-0.0436 13.0569 1.1288
-2.2360 24.0488 2.0881
-4.3741 23.7568 2.0884
-6.4764 23.2701 2.0883
-6.2754 16.6310 1.5368
-6.9997 14.4837 1.3907
-9.3903 15.6815 1.5802
-9.5475 13.1244 1.4031
-15.2043 17.3954 1.9974
-16.0813 15.3810 1.9238
-17.2757 13.7931 1.9112
-18.3100 12.1118 1.8980
-19.1162 10.3204 1.8782
-19.7524 8.4835 1.8585
-20.1164 6.5839 1.8299
-20.3183 4.6918 1.8028
-20.3309 2.8147 1.7745
-20.0795 0.9686 1.7380
-19.6789 -0.8106 1.7028
-9.9097 -1.3010 0.8641
-6.0843 -1.3599 0.5390
-6.0867 -1.9449 0.5524
-6.0893 -2.5648 0.5712
-6.0922 -3.2339 0.5963
-6.0953 -3.9706 0.6289
-6.0988 -4.7995 0.6710
-12.9213 -12.1858 1.5355
-11.5992 -13.0839 1.5117
-10.2413 -13.8722 1.4907
-8.8538 -14.5524 1.4727
-7.4418 -15.1263 1.4574
-6.0103 -15.5957 1.4450
-4.5665 -15.9720 1.4362
-3.1103 -16.2505 1.4304
-1.6434 -16.4225 1.4269
-0.1710 -16.4881 1.4255
1.3020 -16.4474 1.4264
2.7706 -16.3004 1.4294
4.2298 -16.0468 1.4347
5.6761 -15.6909 1.4426
7.1118 -15.2458 1.4544
8.1962 -14.1231 1.4117
9.1096 -12.8905 1.3646
10.2787 -12.0908 1.3720
10.2741 -10.1001 1.2456
2.8364 -2.3290 0.3173
3.0788 -2.0978 0.3221
3.3070 -1.8444 0.3274
3.5189 -1.5688 0.3331
3.7124 -1.2717 0.3393
3.8854 -0.9535 0.3459
4.0354 -0.6152 0.3529
4.1599 -0.2579 0.3603
4.2565 0.1169 0.3681
4.3223 0.5072 0.3762
4.3548 0.9109 0.3846
4.3515 1.3249 0.3933
4.3098 1.7461 0.4020
4.2276 2.1704 0.4108
20.5042 12.9600 2.0971
19.2658 14.7382 2.0971
9.3264 8.5569 1.0943
16.3386 17.9286 2.0971
14.6694 19.3102 2.0965
12.8503 20.4830 2.0905
10.9507 21.5086 2.0866
8.9566 22.3231 2.0795
6.9368 23.0608 2.0820
2.9682 14.4331 1.2739
2.7313 23.9704 2.0858
0.3145 13.0537 1.1289
-0.8540 13.0642 1.1319
-3.7207 23.8673 2.0884
-5.8360 23.4400 2.0884
-7.9031 22.8209 2.0879
-6.5184 14.4893 1.3736
-9.3857 16.6961 1.6559
-9.3995 13.6955 1.4361
-10.8554 13.1299 1.4729
-15.6755 15.8386 1.9266
-16.9259 14.2914 1.9152
-18.0089 12.6361 1.9020
-18.8891 10.8772 1.8845
-19.5670 9.0474 1.8637
-20.0241 7.1675 1.8387
-20.2628 5.2683 1.8101
-20.3750 3.3926 1.7858
-20.1737 1.5286 1.7491
-19.8500 -0.2727 1.7163
-18.0372 -1.8663 1.5677
-6.2797 -1.2238 0.5531
-6.0860 -1.7622 0.5478
-6.0885 -2.3700 0.5649
-6.0913 -3.0223 0.5879
-6.0943 -3.7360 0.6180
-6.0977 -4.5334 0.6569
-13.3217 -11.8902 1.5437
-12.0091 -12.8201 1.5187
-10.6615 -13.6418 1.4968
-9.2825 -14.3549 1.4779
-7.8776 -14.9613 1.4618
-6.4516 -15.4626 1.4485
-5.0105 -15.8651 1.4384
-3.5586 -16.1764 1.4320
-2.0945 -16.3810 1.4277
-0.6233 -16.4793 1.4257
0.8501 -16.4712 1.4259
2.3206 -16.3568 1.4283
3.7833 -16.1360 1.4329
5.2330 -15.8085 1.4396
6.6728 -15.3935 1.4505
8.0962 -14.8763 1.4642
8.7194 -13.0856 1.3594
9.9815 -12.4158 1.3773
10.2754 -10.6712 1.2807
10.2714 -8.9168 1.1759
3.0058 -2.1712 0.3206
3.2386 -1.9245 0.3257
3.4557 -1.6557 0.3313
3.6551 -1.3651 0.3373
3.8346 -1.0533 0.3438
3.9919 -0.7211 0.3507
4.1246 -0.3695 0.3580
4.2300 0.0001 0.3657
4.3055 0.3859 0.3737
4.3486 0.7857 0.3820
4.3565 1.1969 0.3906
4.3268 1.6163 0.3993
4.2573 2.0400 0.4081
4.1459 2.4640 0.4170
19.6628 14.2042 2.0971
18.3165 15.9025 2.0971
16.8242 17.4737 2.0971
15.1936 18.9007 2.0965
13.4291 20.1557 2.0939
11.5546 21.2332 2.0899
9.5660 22.0704 2.0796
7.5640 22.8540 2.0812
3.3844 14.4380 1.2821
3.3870 23.8809 2.0853
0.6730 13.0505 1.1298
-0.4946 13.0610 1.1300
-3.0646 23.9593 2.0883
-5.1910 23.5917 2.0884
-7.2748 23.0310 2.0881
-6.2557 14.9914 1.4044
-9.3805 17.8139 1.7406
-9.3957 14.5286 1.4958
-10.2605 13.1274 1.4405
-15.2526 16.2811 1.9288
-16.5611 14.7802 1.9191
-17.6939 13.1538 1.9061
-18.6452 11.4290 1.8907
-19.3780 9.6136 1.8701
-19.9147 7.7508 1.8475
-20.2085 5.8504 1.8189
-20.4030 3.9753 1.7971
-20.2530 2.0947 1.7603
-19.9522 0.2733 1.7251
-19.4456 -1.4744 1.6860
-7.3332 -1.2214 0.6427
-6.0852 -1.5824 0.5436
-6.0877 -2.1794 0.5590
-6.0904 -2.8164 0.5801
-6.0933 -3.5092 0.6079
-6.0966 -4.2781 0.6439
-6.1003 -5.1512 0.6903
-12.4155 -12.5458 1.5260
-11.0788 -13.4012 1.5032
-9.7088 -14.1475 1.4834
-8.3112 -14.7865 1.4665
-6.8912 -15.3198 1.4523
-5.4533 -15.7492 1.4409
-4.0058 -16.0922 1.4337
-2.5449 -16.3295 1.4288
-1.0754 -16.4604 1.4261
0.3979 -16.4850 1.4256
1.8698 -16.4032 1.4273
3.3354 -16.2151 1.4312
4.7897 -15.9204 1.4373
6.2323 -15.5313 1.4468
7.6613 -15.0462 1.4597
8.3268 -13.2714 1.3545
9.5971 -12.6319 1.3715
10.2768 -11.2759 1.3190
10.2726 -9.4242 1.2052
2.9316 -2.2424 0.3191
3.1687 -2.0026 0.3241
3.3908 -1.7406 0.3295
3.5959 -1.4566 0.3354
3.7818 -1.1513 0.3418
3.9461 -0.8252 0.3485
4.0866 -0.4794 0.3557
4.2007 -0.1152 0.3633
4.2857 0.2659 0.3712
4.3390 0.6617 0.3795
4.3579 1.0697 0.3879
4.3400 1.4869 0.3966
4.2830 1.9097 0.4054
4.1846 2.3341 0.4143
20.0449 13.6596 2.0971
18.7459 15.3941 2.0971
17.2972 17.0057 2.0971
13.1975 15.5255 1.7617
13.9944 19.8045 2.0965
10.5759 18.2257 1.8218
10.1903 21.8481 2.0842
8.1850 22.6297 2.0805
3.8064 14.4429 1.2913
4.0397 23.7731 2.0848
1.0322 13.0472 1.1315
-0.1360 13.0578 1.1290
-2.4061 24.0329 2.0881
-4.5420 23.7253 2.0884
-6.6408 23.2234 2.0882
-6.2711 16.2702 1.5075
-7.1258 14.4822 1.3954
-9.3915 15.4345 1.5620
-9.6907 13.1250 1.4105
-15.2071 17.1522 1.9818
-16.1815 15.2592 1.9229
-17.3634 13.6632 1.9102
-18.3846 11.9750 1.8969
-19.1721 10.1760 1.8765
-19.7879 8.3335 1.8563
-20.1375 6.4335 1.8277
-20.3482 4.5473 1.8026
-20.3169 2.6663 1.7715
-20.0528 0.8251 1.7351
-19.6327 -0.9479 1.6993
-9.3900 -1.3004 0.8196
-6.0844 -1.4052 0.5399
-6.0869 -1.9925 0.5537
-6.0896 -2.6158 0.5730
-6.0924 -3.2895 0.5986
-6.0955 -4.0325 0.6319
-6.0991 -4.8700 0.6748
-12.8181 -12.2610 1.5335
-11.4929 -13.1503 1.5099
-10.1325 -13.9299 1.4892
-8.7428 -14.6016 1.4714
-7.3292 -15.1673 1.4563
-5.8963 -15.6284 1.4441
-4.4518 -15.9979 1.4356
-2.9945 -16.2680 1.4301
-1.5270 -16.4316 1.4267
-0.0544 -16.4887 1.4255
1.4185 -16.4397 1.4266
2.8865 -16.2842 1.4298
4.3448 -16.0222 1.4352
5.7903 -15.6594 1.4434
7.2247 -15.2062 1.4555
8.2003 -13.9029 1.3955
9.2099 -12.8387 1.3660
10.2783 -11.9184 1.3606
10.2738 -9.9579 1.2370
2.8560 -2.3115 0.3177
3.0974 -2.0786 0.3225
3.3243 -1.8234 0.3278
3.5349 -1.5461 0.3336
3.7269 -1.2472 0.3398
3.8981 -0.9274 0.3464
4.0462 -0.5876 0.3535
4.1686 -0.2288 0.3609
4.2628 0.1472 0.3688
4.3261 0.5387 0.3769
4.3559 0.9433 0.3853
4.3496 1.3581 0.3939
4.3048 1.7796 0.4027
4.2193 2.2040 0.4115
9.3258 5.9872 0.9581
19.1611 14.8741 2.0971
9.1989 8.5605 1.0864
13.7151 15.2654 1.7742
14.5324 19.4134 2.0965
12.1893 19.7383 2.0056
10.7977 21.5843 2.0865
8.7993 22.3882 2.0797
6.7741 23.1113 2.0821
2.8651 14.4493 1.2735
2.5618 23.9904 2.0859
0.2221 13.0545 1.1288
-0.9469 13.0650 1.1325
-3.8895 23.8405 2.0884
-6.0017 23.3979 2.0883
-8.0642 22.7638 2.0879
-6.6414 14.4879 1.3779
-9.3869 16.4253 1.6356
-9.4005 13.4913 1.4216
-11.0132 13.1305 1.4816
-15.7824 15.7226 1.9260
-17.0176 14.1638 1.9142
-18.0876 12.5013 1.9009
-18.9493 10.7341 1.8828
-19.6129 8.9008 1.8621
-20.0495 7.0170 1.8365
-20.2741 5.1184 1.8078
-20.3651 3.2431 1.7828
-20.1508 1.3836 1.7462
-19.8071 -0.4123 1.7128
-17.4917 -1.9350 1.5215
-6.0837 -1.2304 0.5366
-6.0862 -1.8090 0.5489
-6.0887 -2.4198 0.5664
-6.0915 -3.0763 0.5900
-6.0945 -3.7957 0.6207
-6.0979 -4.6010 0.6604
-13.2179 -11.9667 1.5415
-11.9037 -12.8891 1.5168
-10.5534 -13.7022 1.4952
-9.1722 -14.4068 1.4765
-7.7654 -15.0048 1.4607
-6.3380 -15.4979 1.4476
-4.8961 -15.8936 1.4378
-3.4431 -16.1965 1.4315
-1.9782 -16.3927 1.4275
-0.5067 -16.4825 1.4257
0.9666 -16.4660 1.4260
2.4367 -16.3432 1.4286
3.8986 -16.1140 1.4333
5.3469 -15.7778 1.4403
6.7862 -15.3563 1.4515
8.1835 -14.7867 1.4611
8.8202 -13.0362 1.3608
10.0803 -12.3585 1.3788
10.2751 -10.5208 1.2714
10.2711 -8.7899 1.1688
3.0248 -2.1525 0.3210
3.2563 -1.9041 0.3261
3.4721 -1.6335 0.3317
3.6700 -1.3412 0.3378
3.8479 -1.0278 0.3443
4.0034 -0.6940 0.3513
4.1339 -0.3409 0.3586
4.2371 0.0301 0.3663
9.6152 -11.6401 1.3990
10.2748 -10.3907 1.3541
2.6331 -2.2252 0.3195
2.8609 -2.0092 0.3239
3.0748 -1.7724 0.3289
3.2730 -1.5151 0.3342
3.4537 -1.2379 0.3400
3.6148 -0.9415 0.3461
3.7540 -0.6268 0.3527
3.8692 -0.2949 0.3596
3.9581 0.0527 0.3668
4.0182 0.4140 0.3743
4.0474 0.7870 0.3821
4.0434 1.1689 0.3900
4.0041 1.5566 0.3981
3.9277 1.9467 0.4062
3.8126 2.3350 0.4143
18.1675 13.4949 2.0971
16.8905 15.0625 2.0971
15.4789 16.5099 2.0971
13.9385 17.8189 2.0963
12.2450 18.9184 2.0882
10.4824 19.8877 2.0832
8.6360 20.6729 2.0761
6.7641 21.3854 2.0784
3.1817 14.4333 1.3696
2.8593 22.2863 2.0821
0.4993 13.0512 1.2103
-0.6685 13.0617 1.2119
-3.1505 22.2755 2.0847
-5.1261 21.9061 2.0847
-7.0596 21.3577 2.0844
-6.2753 14.4936 1.4635
-9.2286 16.9747 1.7904
-9.2691 13.9237 1.5500
-10.5446 13.1278 1.5603
-15.1972 15.7962 2.0312
-15.5510 13.5119 1.9090
-16.5887 11.9933 1.8968
-17.4202 10.3622 1.8782
-18.0898 8.6771 1.8591
-18.5383 6.9331 1.8340
-18.8073 5.1750 1.8075
-18.9164 3.4255 1.7814
-18.7820 1.6907 1.7474
-18.5142 0.0076 1.7156
-18.0057 -1.6060 1.6751
-6.7889 -1.2236 0.6392
-6.0856 -1.6691 0.5847
-6.0881 -2.2712 0.6021
-6.0908 -2.9154 0.6257
-6.0938 -3.6181 0.6567
