ply
format ascii 1.0
element vertex 2177
property float32 x
property float32 y
property float32 z
end_header
0.1257 -0.7502 0.3500
0.1924 -0.7366 0.3502
0.2577 -0.7173 0.3506
0.3212 -0.6924 0.3512
0.3824 -0.6621 0.3518
0.4410 -0.6267 0.3525
0.4963 -0.5862 0.3534
0.5482 -0.5410 0.3543
0.5960 -0.4913 0.3554
0.6396 -0.4375 0.3565
0.6784 -0.3799 0.3577
0.7121 -0.3189 0.3590
0.7405 -0.2550 0.3603
0.7633 -0.1886 0.3617
0.7802 -0.1202 0.3632
0.7910 -0.0502 0.3646
0.7955 0.0207 0.3661
0.7937 0.0921 0.3676
0.7855 0.1632 0.3691
0.7709 0.2337 0.3706
0.7499 0.3028 0.3720
0.7225 0.3699 0.3735
0.6891 0.4345 0.3748
0.6498 0.4960 0.3761
0.6049 0.5539 0.3773
0.5546 0.6075 0.3784
0.4995 0.6564 0.3795
0.4400 0.7000 0.3804
0.3765 0.7381 0.3812
0.3096 0.7701 0.3819
0.2399 0.7958 0.3824
0.1681 0.8149 0.3828
0.0947 0.8272 0.3831
0.0204 0.8326 0.3832
-0.0540 0.8311 0.3832
-0.1279 0.8226 0.3830
-0.2007 0.8072 0.3827
-0.2717 0.7851 0.3822
-0.3402 0.7565 0.3816
-0.4056 0.7217 0.3809
-0.4674 0.6811 0.3800
-0.5250 0.6350 0.3791
-0.5780 0.5839 0.3780
-0.6259 0.5283 0.3768
-0.6683 0.4688 0.3756
-0.7050 0.4058 0.3743
-0.7357 0.3399 0.3729
-0.7602 0.2718 0.3714
-0.7784 0.2021 0.3700
-0.7901 0.1312 0.3685
-0.7954 0.0599 0.3670
-0.7944 -0.0114 0.3655
-0.7870 -0.0819 0.3640
-0.7734 -0.1513 0.3626
-0.7538 -0.2189 0.3611
-0.7285 -0.2842 0.3598
-0.6976 -0.3469 0.3584
-0.6615 -0.4064 0.3572
-0.6206 -0.4623 0.3560
-0.5750 -0.5143 0.3549
-0.5253 -0.5620 0.3539
-0.4718 -0.6051 0.3530
-0.4149 -0.6434 0.3522
-0.3551 -0.6765 0.3515
-0.2928 -0.7043 0.3509
-0.2284 -0.7267 0.3505
-0.1625 -0.7434 0.3501
-0.0953 -0.7545 0.3499
-0.0276 -0.7597 0.3498
0.0404 -0.7592 0.3498
0.1081 -0.7528 0.3499
0.1750 -0.7407 0.3501
0.2407 -0.7229 0.3505
0.3047 -0.6995 0.3510
0.3666 -0.6706 0.3516
0.4259 -0.6365 0.3523
0.4821 -0.5973 0.3532
0.5349 -0.5533 0.3541
0.5839 -0.5048 0.3551
0.6286 -0.4520 0.3562
0.6687 -0.3954 0.3574
0.7038 -0.3353 0.3586
0.7336 -0.2721 0.3600
0.7579 -0.2063 0.3614
0.7763 -0.1383 0.3628
0.7887 -0.0687 0.3642
0.7949 0.0020 0.3657
0.7948 0.0733 0.3672
0.7883 0.1446 0.3687
0.7753 0.2153 0.3702
0.7560 0.2848 0.3717
0.7303 0.3525 0.3731
0.6985 0.4178 0.3745
0.6607 0.4802 0.3758
0.6172 0.5391 0.3770
0.5683 0.5939 0.3782
0.5144 0.6440 0.3792
0.4560 0.6891 0.3802
0.3935 0.7287 0.3810
0.3275 0.7623 0.3817
0.2585 0.7897 0.3823
0.1871 0.8106 0.3827
0.1141 0.8247 0.3830
0.0400 0.8319 0.3832
-0.0345 0.8322 0.3832
-0.1086 0.8255 0.3830
-0.1818 0.8119 0.3828
-0.2533 0.7915 0.3823
-0.3225 0.7646 0.3818
-0.3887 0.7314 0.3811
-0.4515 0.6923 0.3803
-0.5103 0.6476 0.3793
-0.5645 0.5978 0.3783
-0.6138 0.5433 0.3771
-0.6577 0.4848 0.3759
-0.6960 0.4226 0.3746
-0.7283 0.3575 0.3732
-0.7544 0.2899 0.3718
-0.7742 0.2205 0.3704
-0.7877 0.1499 0.3689
-0.7947 0.0786 0.3674
-0.7952 0.0073 0.3659
-0.7895 -0.0635 0.3644
-0.7775 -0.1332 0.3629
-0.7595 -0.2013 0.3615
-0.7357 -0.2673 0.3601
-0.7063 -0.3307 0.3588
-0.6715 -0.3911 0.3575
-0.6318 -0.4480 0.3563
-0.5874 -0.5010 0.3552
-0.5387 -0.5499 0.3542
-0.4862 -0.5942 0.3532
-0.4302 -0.6338 0.3524
-0.3711 -0.6683 0.3517
-0.3094 -0.6975 0.3511
-0.2455 -0.7214 0.3506
-0.1799 -0.7396 0.3502
-0.1130 -0.7521 0.3499
-0.0454 -0.7589 0.3498
0.0225 -0.7599 0.3498
0.0903 -0.7550 0.3499
0.1575 -0.7444 0.3501
0.2236 -0.7281 0.3504
0.2881 -0.7061 0.3509
0.3506 -0.6787 0.3514
0.4106 -0.6459 0.3521
0.4677 -0.6081 0.3529
0.5214 -0.5653 0.3538
0.5714 -0.5179 0.3548
0.6173 -0.4662 0.3559
0.6586 -0.4106 0.3571
0.6951 -0.3514 0.3583
0.7263 -0.2889 0.3596
0.7520 -0.2238 0.3610
0.7720 -0.1563 0.3624
0.7861 -0.0871 0.3639
0.7939 -0.0166 0.3653
0.7955 0.0546 0.3668
0.7906 0.1259 0.3683
0.7794 0.1968 0.3698
0.7617 0.2667 0.3713
0.7377 0.3349 0.3727
0.7074 0.4009 0.3741
0.6712 0.4642 0.3754
0.6291 0.5240 0.3767
0.5816 0.5799 0.3779
0.5290 0.6313 0.3790
0.4718 0.6778 0.3799
0.4103 0.7188 0.3808
0.3451 0.7541 0.3815
0.2768 0.7831 0.3821
0.2060 0.8057 0.3826
0.1334 0.8216 0.3830
0.0595 0.8307 0.3832
-0.0149 0.8328 0.3832
-0.0892 0.8279 0.3831
-0.1627 0.8161 0.3829
-0.2347 0.7975 0.3825
-0.3046 0.7723 0.3819
-0.3717 0.7407 0.3813
-0.4354 0.7031 0.3805
-0.4953 0.6598 0.3796
-0.5508 0.6113 0.3786
-0.6014 0.5580 0.3774
-0.6467 0.5005 0.3762
-0.6865 0.4392 0.3750
-0.7204 0.3748 0.3736
-0.7481 0.3078 0.3722
-0.7696 0.2389 0.3707
-0.7848 0.1685 0.3693
-0.7934 0.0973 0.3678
-0.7957 0.0260 0.3663
-0.7916 -0.0450 0.3648
-0.7813 -0.1150 0.3633
-0.7648 -0.1836 0.3619
-0.7425 -0.2502 0.3605
-0.7145 -0.3143 0.3591
-0.6811 -0.3756 0.3578
-0.6427 -0.4334 0.3566
-0.5995 -0.4875 0.3555
-0.5519 -0.5375 0.3544
-0.5003 -0.5831 0.3535
-0.4452 -0.6239 0.3526
-0.3869 -0.6597 0.3519
-0.3258 -0.6904 0.3512
-0.2625 -0.7156 0.3507
-0.1973 -0.7353 0.3503
-0.1307 -0.7494 0.3500
-0.0632 -0.7577 0.3498
0.0047 -0.7602 0.3497
0.0726 -0.7569 0.3498
0.1400 -0.7478 0.3500
0.2064 -0.7329 0.3503
0.2713 -0.7124 0.3507
0.3344 -0.6864 0.3513
0.3951 -0.6550 0.3519
0.4530 -0.6185 0.3527
0.5077 -0.5770 0.3536
0.5587 -0.5308 0.3545
0.6057 -0.4802 0.3556
0.6482 -0.4256 0.3568
0.6860 -0.3672 0.3580
0.7186 -0.3056 0.3593
0.7458 -0.2411 0.3606
0.7674 -0.1742 0.3620
0.7830 -0.1054 0.3635
0.7925 -0.0352 0.3649
0.7957 0.0359 0.3664
0.7925 0.1072 0.3679
0.7829 0.1783 0.3694
0.7669 0.2485 0.3709
0.7446 0.3172 0.3723
0.7160 0.3839 0.3737
0.6813 0.4479 0.3751
0.6407 0.5087 0.3764
0.5946 0.5656 0.3776
0.5433 0.6183 0.3787
0.4872 0.6661 0.3797
0.4268 0.7086 0.3806
0.3625 0.7454 0.3814
0.2950 0.7761 0.3820
0.2248 0.8004 0.3825
0.1526 0.8181 0.3829
0.0790 0.8290 0.3831
0.0046 0.8329 0.3832
-0.0698 0.8298 0.3831
-0.1435 0.8199 0.3829
-0.2160 0.8030 0.3826
-0.2865 0.7795 0.3821
-0.3543 0.7496 0.3815
-0.4190 0.7135 0.3807
-0.4800 0.6717 0.3798
-0.5366 0.6245 0.3788
-0.5886 0.5725 0.3777
-0.6353 0.5160 0.3766
-0.6766 0.4557 0.3753
-0.7121 0.3920 0.3740
-0.7414 0.3256 0.3726
-0.7646 0.2571 0.3711
-0.7814 0.1871 0.3697
-0.7918 0.1161 0.3682
-0.7957 0.0447 0.3667
-0.7933 -0.0264 0.3652
-0.7846 -0.0968 0.3637
-0.7697 -0.1658 0.3623
-0.7489 -0.2330 0.3608
-0.7224 -0.2978 0.3595
-0.6904 -0.3598 0.3582
-0.6532 -0.4186 0.3569
-0.6113 -0.4737 0.3558
-0.5648 -0.5248 0.3547
-0.5143 -0.5715 0.3537
-0.4600 -0.6136 0.3528
-0.4025 -0.6508 0.3521
-0.3421 -0.6829 0.3514
-0.2793 -0.7095 0.3508
-0.2145 -0.7307 0.3504
-0.1483 -0.7463 0.3500
-0.0810 -0.7561 0.3498
-0.0131 -0.7601 0.3497
0.0548 -0.7583 0.3498
0.1224 -0.7507 0.3499
0.1891 -0.7374 0.3502
0.2544 -0.7184 0.3506
0.3180 -0.6938 0.3511
0.3794 -0.6638 0.3518
0.4381 -0.6286 0.3525
0.4936 -0.5883 0.3533
0.5457 -0.5434 0.3543
0.5938 -0.4939 0.3553
0.6375 -0.4403 0.3564
0.6765 -0.3829 0.3576
0.7106 -0.3221 0.3589
0.7392 -0.2583 0.3603
0.7623 -0.1920 0.3617
0.7795 -0.1236 0.3631
0.7906 -0.0537 0.3646
0.7954 0.0171 0.3660
0.7940 0.0885 0.3675
0.7861 0.1597 0.3690
0.7718 0.2302 0.3705
0.7511 0.2993 0.3720
0.7241 0.3666 0.3734
0.6909 0.4314 0.3747
0.6519 0.4930 0.3760
0.6072 0.5511 0.3773
0.5573 0.6049 0.3784
0.5024 0.6540 0.3794
0.4430 0.6980 0.3804
0.3797 0.7363 0.3812
0.3130 0.7687 0.3818
0.2435 0.7947 0.3824
0.1717 0.8141 0.3828
0.0984 0.8268 0.3831
0.0242 0.8325 0.3832
-0.0503 0.8313 0.3832
-0.1243 0.8231 0.3830
-0.1971 0.8081 0.3827
-0.2682 0.7863 0.3822
-0.3368 0.7581 0.3816
-0.4024 0.7236 0.3809
-0.4644 0.6832 0.3801
-0.5222 0.6374 0.3791
-0.5754 0.5866 0.3780
-0.6236 0.5312 0.3769
-0.6663 0.4718 0.3756
-0.7033 0.4090 0.3743
-0.7343 0.3433 0.3729
-0.7591 0.2753 0.3715
-0.7776 0.2056 0.3700
-0.7897 0.1348 0.3686
-0.7953 0.0634 0.3671
-0.7946 -0.0078 0.3656
-0.7875 -0.0784 0.3641
-0.7742 -0.1478 0.3626
-0.7549 -0.2155 0.3612
-0.7299 -0.2810 0.3598
-0.6993 -0.3438 0.3585
-0.6635 -0.4035 0.3573
-0.6227 -0.4596 0.3561
-0.5774 -0.5118 0.3550
-0.5279 -0.5597 0.3540
-0.4746 -0.6031 0.3531
-0.4179 -0.6416 0.3522
-0.3582 -0.6750 0.3515
-0.2960 -0.7031 0.3510
-0.2317 -0.7257 0.3505
-0.1658 -0.7427 0.3501
-0.0987 -0.7540 0.3499
-0.0310 -0.7596 0.3498
0.0370 -0.7593 0.3498
0.1047 -0.7533 0.3499
0.1717 -0.7414 0.3501
0.2374 -0.7239 0.3505
0.3015 -0.7008 0.3510
0.3635 -0.6722 0.3516
0.4230 -0.6383 0.3523
0.4794 -0.5994 0.3531
0.5324 -0.5556 0.3540
0.5815 -0.5073 0.3550
0.6264 -0.4547 0.3561
0.6668 -0.3983 0.3573
0.7021 -0.3383 0.3586
0.7322 -0.2753 0.3599
0.7568 -0.2096 0.3613
0.7755 -0.1417 0.3627
0.7882 -0.0722 0.3642
0.7948 -0.0015 0.3657
0.7950 0.0697 0.3671
0.7888 0.1410 0.3686
0.7761 0.2118 0.3701
0.7571 0.2813 0.3716
0.7317 0.3492 0.3730
0.7002 0.4146 0.3744
0.6627 0.4772 0.3757
0.6195 0.5362 0.3770
0.5709 0.5912 0.3781
0.5172 0.6416 0.3792
0.4590 0.6870 0.3801
0.3967 0.7268 0.3810
0.3308 0.7608 0.3817
0.2620 0.7885 0.3823
0.1907 0.8097 0.3827
0.1178 0.8241 0.3830
0.0437 0.8317 0.3832
-0.0307 0.8323 0.3832
-0.1049 0.8260 0.3831
-0.1781 0.8127 0.3828
-0.2497 0.7927 0.3824
-0.3191 0.7661 0.3818
-0.3855 0.7332 0.3811
-0.4485 0.6944 0.3803
-0.5075 0.6500 0.3794
-0.5619 0.6004 0.3783
-0.6115 0.5462 0.3772
-0.6557 0.4878 0.3760
-0.6942 0.4258 0.3747
-0.7268 0.3608 0.3733
-0.7532 0.2933 0.3719
-0.7734 0.2240 0.3704
-0.7871 0.1534 0.3690
-0.7945 0.0822 0.3675
-0.7954 0.0109 0.3660
-0.7899 -0.0600 0.3645
-0.7783 -0.1297 0.3630
-0.7606 -0.1979 0.3616
-0.7370 -0.2641 0.3602
-0.7079 -0.3276 0.3589
-0.6734 -0.3881 0.3576
-0.6339 -0.4452 0.3564
-0.5897 -0.4985 0.3553
-0.5413 -0.5476 0.3542
-0.4889 -0.5921 0.3533
-0.4331 -0.6319 0.3525
-0.3741 -0.6667 0.3517
-0.3125 -0.6962 0.3511
-0.2487 -0.7203 0.3506
-0.1832 -0.7388 0.3502
-0.1164 -0.7516 0.3499
-0.0488 -0.7587 0.3498
0.0191 -0.7600 0.3497
0.0870 -0.7554 0.3498
0.1542 -0.7451 0.3501
0.2203 -0.7290 0.3504
0.2849 -0.7074 0.3508
0.3475 -0.6802 0.3514
0.4076 -0.6477 0.3521
0.4649 -0.6101 0.3529
0.5188 -0.5675 0.3538
0.5690 -0.5204 0.3548
0.6151 -0.4689 0.3558
0.6566 -0.4135 0.3570
0.6933 -0.3544 0.3582
0.7249 -0.2921 0.3596
0.7509 -0.2271 0.3609
0.7712 -0.1597 0.3623
0.7855 -0.0906 0.3638
0.7937 -0.0202 0.3653
0.7955 0.0510 0.3668
0.7910 0.1223 0.3683
0.7801 0.1933 0.3697
0.7627 0.2632 0.3712
0.7390 0.3316 0.3726
0.7091 0.3977 0.3740
0.6731 0.4611 0.3754
0.6314 0.5211 0.3766
0.5841 0.5772 0.3778
0.5318 0.6289 0.3789
0.4747 0.6756 0.3799
0.4134 0.7169 0.3808
0.3484 0.7525 0.3815
0.2803 0.7818 0.3821
0.2096 0.8048 0.3826
0.1370 0.8210 0.3829
0.0632 0.8304 0.3831
-0.0112 0.8328 0.3832
-0.0855 0.8283 0.3831
-0.1590 0.8169 0.3829
-0.2311 0.7986 0.3825
-0.3011 0.7737 0.3820
-0.3684 0.7424 0.3813
-0.4323 0.7051 0.3805
-0.4924 0.6621 0.3796
-0.5481 0.6139 0.3786
-0.5990 0.5608 0.3775
-0.6446 0.5035 0.3763
-0.6846 0.4424 0.3750
-0.7188 0.3781 0.3737
-0.7469 0.3112 0.3723
-0.7687 0.2424 0.3708
-0.7841 0.1720 0.3693
-0.7932 0.1009 0.3679
-0.7957 0.0296 0.3664
-0.7920 -0.0415 0.3649
-0.7819 -0.1116 0.3634
-0.7658 -0.1802 0.3619
-0.7438 -0.2469 0.3605
-0.7160 -0.3112 0.3592
-0.6829 -0.3726 0.3579
-0.6447 -0.4306 0.3567
-0.6018 -0.4849 0.3555
-0.5544 -0.5351 0.3545
-0.5030 -0.5809 0.3535
-0.4480 -0.6220 0.3527
-0.3899 -0.6581 0.3519
-0.3289 -0.6890 0.3513
-0.2657 -0.7145 0.3507
-0.2006 -0.7345 0.3503
-0.1340 -0.7488 0.3500
-0.0666 -0.7574 0.3498
0.0013 -0.7602 0.3497
0.0692 -0.7572 0.3498
0.1366 -0.7484 0.3500
0.2031 -0.7338 0.3503
0.2681 -0.7136 0.3507
0.3313 -0.6879 0.3513
0.3921 -0.6567 0.3519
0.4502 -0.6204 0.3527
0.5050 -0.5792 0.3535
0.5562 -0.5332 0.3545
0.7819 0.0757 0.3673
0.7751 0.1458 0.3687
0.7620 0.2152 0.3702
0.7426 0.2835 0.3716
0.7170 0.3500 0.3730
0.6853 0.4141 0.3744
0.6478 0.4753 0.3757
0.6047 0.5330 0.3769
0.5564 0.5866 0.3780
0.5031 0.6357 0.3790
0.4454 0.6797 0.3800
0.3838 0.7183 0.3808
0.3187 0.7511 0.3815
0.2507 0.7777 0.3820
0.1804 0.7978 0.3825
0.1085 0.8114 0.3827
0.0356 0.8181 0.3829
-0.0376 0.8181 0.3829
-0.1104 0.8111 0.3827
-0.1823 0.7974 0.3825
-0.2525 0.7771 0.3820
-0.3204 0.7503 0.3815
-0.3854 0.7174 0.3808
-0.4470 0.6787 0.3800
-0.5046 0.6345 0.3790
-0.5577 0.5853 0.3780
-0.6060 0.5316 0.3769
-0.6489 0.4738 0.3757
-0.6863 0.4125 0.3744
-0.7178 0.3484 0.3730
-0.7432 0.2818 0.3716
-0.7625 0.2135 0.3702
-0.7754 0.1440 0.3688
-0.7821 0.0738 0.3673
-0.7824 0.0037 0.3658
-0.7765 -0.0659 0.3643
-0.7644 -0.1345 0.3629
-0.7465 -0.2014 0.3615
-0.7228 -0.2663 0.3601
-0.6936 -0.3286 0.3588
-0.6592 -0.3878 0.3576
-0.6198 -0.4437 0.3564
-0.5760 -0.4958 0.3553
-0.5279 -0.5437 0.3543
-0.4760 -0.5871 0.3534
-0.4207 -0.6258 0.3526
-0.3624 -0.6596 0.3519
-0.3015 -0.6881 0.3513
-0.2385 -0.7113 0.3508
-0.1739 -0.7290 0.3504
-0.1080 -0.7411 0.3502
-0.0414 -0.7475 0.3500
0.0255 -0.7481 0.3500
0.0923 -0.7431 0.3501
0.1584 -0.7323 0.3503
0.2234 -0.7160 0.3507
0.2868 -0.6941 0.3511
0.3482 -0.6668 0.3517
0.4071 -0.6342 0.3524
0.4632 -0.5967 0.3532
0.5159 -0.5543 0.3541
0.5649 -0.5074 0.3550
0.6098 -0.4563 0.3561
0.6502 -0.4013 0.3573
0.6858 -0.3428 0.3585
0.7163 -0.2812 0.3598
0.7413 -0.2169 0.3611
0.7606 -0.1505 0.3625
0.7741 -0.0823 0.3640
0.7814 -0.0128 0.3654
0.7826 0.0572 0.3669
0.7775 0.1274 0.3684
0.7660 0.1971 0.3698
0.7483 0.2658 0.3713
0.7243 0.3328 0.3727
0.6942 0.3976 0.3740
0.6582 0.4596 0.3753
0.6165 0.5182 0.3766
0.5695 0.5730 0.3777
0.5175 0.6233 0.3788
0.4610 0.6687 0.3797
0.4003 0.7087 0.3806
0.3360 0.7431 0.3813
0.2688 0.7713 0.3819
0.1990 0.7932 0.3824
0.1275 0.8085 0.3827
0.0548 0.8170 0.3829
-0.0183 0.8187 0.3829
-0.0914 0.8136 0.3828
-0.1636 0.8017 0.3825
-0.2343 0.7831 0.3822
-0.3028 0.7580 0.3816
-0.3687 0.7267 0.3810
-0.4312 0.6894 0.3802
-0.4899 0.6466 0.3793
-0.5442 0.5987 0.3783
-0.5938 0.5461 0.3772
-0.6382 0.4893 0.3760
-0.6770 0.4289 0.3747
-0.7101 0.3655 0.3734
-0.7372 0.2995 0.3720
-0.7580 0.2315 0.3706
-0.7727 0.1623 0.3691
-0.7809 0.0923 0.3677
-0.7829 0.0221 0.3662
-0.7786 -0.0477 0.3647
-0.7682 -0.1166 0.3633
-0.7518 -0.1840 0.3619
-0.7295 -0.2495 0.3605
-0.7017 -0.3125 0.3592
-0.6687 -0.3726 0.3579
-0.6306 -0.4294 0.3567
-0.5879 -0.4825 0.3556
-0.5409 -0.5315 0.3546
-0.4900 -0.5762 0.3536
-0.4355 -0.6161 0.3528
-0.3780 -0.6512 0.3520
-0.3177 -0.6811 0.3514
-0.2553 -0.7058 0.3509
-0.1910 -0.7249 0.3505
-0.1254 -0.7384 0.3502
-0.0589 -0.7463 0.3500
0.0080 -0.7485 0.3500
0.0748 -0.7450 0.3501
0.1411 -0.7357 0.3503
0.2064 -0.7208 0.3506
0.2703 -0.7003 0.3510
0.3323 -0.6744 0.3515
0.3919 -0.6433 0.3522
0.4488 -0.6070 0.3529
0.5024 -0.5659 0.3538
0.5524 -0.5201 0.3548
0.5984 -0.4701 0.3558
0.6401 -0.4161 0.3570
0.6769 -0.3585 0.3582
0.7088 -0.2977 0.3594
0.7353 -0.2341 0.3608
0.7561 -0.1681 0.3622
0.7711 -0.1003 0.3636
0.7801 -0.0312 0.3650
0.7829 0.0388 0.3665
0.7794 0.1090 0.3680
0.7696 0.1789 0.3694
0.7535 0.2479 0.3709
0.7312 0.3154 0.3723
0.7027 0.3808 0.3737
0.6682 0.4436 0.3750
0.6280 0.5032 0.3763
0.5824 0.5590 0.3774
0.5317 0.6105 0.3785
0.4762 0.6573 0.3795
0.4166 0.6988 0.3804
0.3532 0.7346 0.3811
0.2867 0.7645 0.3818
0.2176 0.7881 0.3823
0.1464 0.8051 0.3826
0.0740 0.8154 0.3828
0.0009 0.8189 0.3829
-0.0722 0.8156 0.3828
-0.1447 0.8055 0.3826
-0.2159 0.7886 0.3823
-0.2851 0.7652 0.3818
-0.3517 0.7355 0.3812
-0.4152 0.6997 0.3804
-0.4749 0.6584 0.3795
-0.5304 0.6117 0.3786
-0.5813 0.5603 0.3775
-0.6271 0.5046 0.3763
-0.6674 0.4451 0.3751
-0.7020 0.3824 0.3738
-0.7307 0.3170 0.3724
-0.7532 0.2495 0.3710
-0.7694 0.1806 0.3695
-0.7794 0.1107 0.3681
-0.7830 0.0405 0.3666
-0.7803 -0.0295 0.3651
-0.7715 -0.0987 0.3637
-0.7566 -0.1665 0.3622
-0.7359 -0.2325 0.3608
-0.7096 -0.2962 0.3595
-0.6779 -0.3571 0.3582
-0.6411 -0.4148 0.3570
-0.5995 -0.4689 0.3559
-0.5536 -0.5190 0.3548
-0.5037 -0.5649 0.3539
-0.4501 -0.6061 0.3530
-0.3933 -0.6425 0.3522
-0.3338 -0.6738 0.3516
-0.2718 -0.6998 0.3510
-0.2080 -0.7204 0.3506
-0.1427 -0.7354 0.3503
-0.0764 -0.7448 0.3501
-0.0096 -0.7485 0.3500
0.0573 -0.7464 0.3500
0.1238 -0.7387 0.3502
0.1894 -0.7253 0.3505
0.2537 -0.7062 0.3509
0.3162 -0.6818 0.3514
0.3765 -0.6519 0.3520
0.4341 -0.6170 0.3527
0.4887 -0.5771 0.3536
0.5397 -0.5326 0.3545
0.5868 -0.4837 0.3555
0.6296 -0.4307 0.3566
0.6677 -0.3740 0.3578
0.7009 -0.3139 0.3591
0.7288 -0.2510 0.3604
0.7512 -0.1856 0.3618
0.7678 -0.1182 0.3632
0.7783 -0.0494 0.3646
0.7828 0.0204 0.3661
0.7810 0.0906 0.3676
0.7728 0.1606 0.3691
0.7584 0.2299 0.3705
0.7376 0.2978 0.3719
0.7107 0.3639 0.3733
0.6778 0.4274 0.3747
0.6391 0.4879 0.3759
0.5949 0.5447 0.3771
0.5454 0.5974 0.3782
0.4912 0.6455 0.3792
0.4326 0.6884 0.3802
0.3702 0.7258 0.3809
0.3044 0.7573 0.3816
0.2359 0.7825 0.3821
0.1653 0.8013 0.3825
0.0931 0.8134 0.3828
0.0201 0.8187 0.3829
-0.0531 0.8172 0.3829
-0.1258 0.8088 0.3827
-0.1974 0.7937 0.3824
-0.2671 0.7719 0.3819
-0.3345 0.7439 0.3813
-0.3988 0.7097 0.3806
-0.4596 0.6698 0.3798
-0.5163 0.6245 0.3788
-0.5684 0.5743 0.3778
-0.6155 0.5196 0.3766
-0.6573 0.4611 0.3754
-0.6935 0.3991 0.3741
-0.7237 0.3344 0.3728
-0.7479 0.2674 0.3713
-0.7658 0.1988 0.3699
-0.7774 0.1291 0.3684
-0.7827 0.0589 0.3670
-0.7816 -0.0112 0.3655
-0.7744 -0.0806 0.3640
-0.7611 -0.1489 0.3626
-0.7419 -0.2154 0.3612
-0.7170 -0.2797 0.3599
-0.6867 -0.3414 0.3586
-0.6512 -0.4000 0.3573
-0.6109 -0.4551 0.3562
-0.5661 -0.5063 0.3551
-0.5172 -0.5533 0.3541
-0.4645 -0.5957 0.3532
-0.4085 -0.6334 0.3524
-0.3497 -0.6661 0.3517
-0.2883 -0.6935 0.3512
-0.2249 -0.7155 0.3507
-0.1600 -0.7320 0.3503
-0.0939 -0.7429 0.3501
-0.0272 -0.7481 0.3500
0.0398 -0.7475 0.3500
0.1064 -0.7413 0.3501
0.1723 -0.7293 0.3504
0.2370 -0.7118 0.3508
0.3000 -0.6887 0.3512
0.3609 -0.6603 0.3518
0.4193 -0.6267 0.3525
0.4747 -0.5881 0.3533
0.5266 -0.5447 0.3543
0.5748 -0.4969 0.3553
0.6188 -0.4449 0.3563
0.6582 -0.3892 0.3575
0.6927 -0.3300 0.3588
0.7220 -0.2678 0.3601
0.7459 -0.2030 0.3614
0.7640 -0.1361 0.3628
0.7761 -0.0676 0.3643
0.7822 0.0020 0.3657
0.7820 0.0721 0.3672
0.7756 0.1423 0.3687
0.7628 0.2118 0.3701
0.7437 0.2801 0.3716
0.7184 0.3467 0.3730
0.6870 0.4110 0.3743
0.6498 0.4723 0.3756
0.6070 0.5302 0.3768
0.5589 0.5840 0.3780
0.5059 0.6333 0.3790
0.4484 0.6776 0.3799
0.3869 0.7165 0.3807
0.3220 0.7496 0.3814
0.2541 0.7765 0.3820
0.1840 0.7970 0.3824
0.1122 0.8109 0.3827
0.0393 0.8180 0.3829
-0.0339 0.8182 0.3829
-0.1068 0.8116 0.3828
-0.1787 0.7983 0.3825
-0.2490 0.7783 0.3821
-0.3171 0.7518 0.3815
-0.3823 0.7192 0.3808
-0.4440 0.6808 0.3800
-0.5018 0.6368 0.3791
-0.5552 0.5879 0.3781
-0.6037 0.5344 0.3769
-0.6469 0.4768 0.3757
-0.6846 0.4157 0.3745
-0.7164 0.3516 0.3731
-0.7421 0.2852 0.3717
-0.7617 0.2169 0.3703
-0.7749 0.1475 0.3688
-0.7819 0.0773 0.3674
-0.7825 0.0072 0.3659
-0.7769 -0.0625 0.3644
-0.7652 -0.1311 0.3630
-0.7475 -0.1981 0.3616
-0.7241 -0.2631 0.3602
-0.6952 -0.3255 0.3589
-0.6610 -0.3850 0.3576
-0.6219 -0.4410 0.3565
-0.5783 -0.4932 0.3554
-0.5304 -0.5414 0.3544
-0.4787 -0.5851 0.3534
-0.4235 -0.6240 0.3526
-0.3654 -0.6580 0.3519
-0.3046 -0.6868 0.3513
-0.2417 -0.7103 0.3508
-0.1771 -0.7282 0.3504
-0.1113 -0.7406 0.3502
-0.0447 -0.7473 0.3500
0.0222 -0.7482 0.3500
0.0890 -0.7435 0.3501
0.1551 -0.7330 0.3503
0.2201 -0.7169 0.3506
0.2837 -0.6953 0.3511
0.3452 -0.6683 0.3517
0.4042 -0.6360 0.3523
0.4605 -0.5987 0.3531
0.5134 -0.5565 0.3540
0.5626 -0.5099 0.3550
0.6077 -0.4590 0.3561
0.6483 -0.4042 0.3572
0.6841 -0.3458 0.3584
0.7149 -0.2844 0.3597
0.7402 -0.2202 0.3611
0.7598 -0.1538 0.3625
0.7735 -0.0857 0.3639
0.7812 -0.0163 0.3653
0.7827 0.0537 0.3668
0.7779 0.1239 0.3683
0.7667 0.1936 0.3698
0.7493 0.2623 0.3712
0.7256 0.3295 0.3726
0.6958 0.3944 0.3740
0.6601 0.4565 0.3753
0.6188 0.5154 0.3765
0.5720 0.5703 0.3777
0.5203 0.6209 0.3787
0.4639 0.6665 0.3797
0.4034 0.7069 0.3805
0.3393 0.7415 0.3813
0.2722 0.7700 0.3819
0.2026 0.7922 0.3823
0.1311 0.8079 0.3827
0.0585 0.8168 0.3829
-0.0147 0.8188 0.3829
-0.0877 0.8140 0.3828
-0.1600 0.8024 0.3826
-0.2308 0.7842 0.3822
-0.2995 0.7594 0.3817
-0.3655 0.7284 0.3810
-0.4282 0.6914 0.3802
-0.4871 0.6489 0.3793
-0.5416 0.6012 0.3784
-0.5914 0.5488 0.3773
-0.6361 0.4923 0.3761
-0.6752 0.4320 0.3748
-0.7086 0.3687 0.3735
-0.7360 0.3028 0.3721
-0.7571 0.2350 0.3707
-0.7721 0.1658 0.3692
-0.7807 0.0958 0.3677
-0.7830 0.0256 0.3663
-0.7790 -0.0443 0.3648
-0.7688 -0.1132 0.3634
-0.7527 -0.1807 0.3619
-0.7308 -0.2463 0.3606
-0.7033 -0.3094 0.3592
-0.6705 -0.3697 0.3580
-0.6326 -0.4266 0.3568
-0.5901 -0.4799 0.3556
-0.5433 -0.5292 0.3546
-0.4926 -0.5740 0.3537
-0.4383 -0.6143 0.3528
-0.3809 -0.6496 0.3521
-0.3208 -0.6798 0.3514
-0.2584 -0.7046 0.3509
-0.1942 -0.7241 0.3505
-0.1287 -0.7379 0.3502
-0.0622 -0.7461 0.3500
0.0046 -0.7485 0.3500
0.0715 -0.7453 0.3501
0.1378 -0.7363 0.3502
0.2032 -0.7217 0.3505
0.2672 -0.7015 0.3510
0.3292 -0.6759 0.3515
0.3890 -0.6449 0.3522
0.4460 -0.6089 0.3529
0.4998 -0.5680 0.3538
0.5500 -0.5225 0.3547
0.5962 -0.4727 0.3558
0.6381 -0.4189 0.3569
0.6752 -0.3615 0.3581
0.7073 -0.3008 0.3594
0.7341 -0.2373 0.3607
0.7552 -0.1715 0.3621
0.7705 -0.1037 0.3635
0.7798 -0.0346 0.3650
0.7829 0.0353 0.3664
0.7798 0.1055 0.3679
0.7703 0.1754 0.3694
0.7545 0.2444 0.3708
0.7324 0.3120 0.3722
0.7043 0.3776 0.3736
0.6701 0.4405 0.3749
0.6302 0.5003 0.3762
0.5848 0.5563 0.3774
0.5343 0.6080 0.3785
0.4791 0.6550 0.3794
0.4197 0.6968 0.3803
0.3565 0.7330 0.3811
0.2901 0.7632 0.3817
0.2211 0.7870 0.3822
0.1500 0.8044 0.3826
0.0776 0.8151 0.3828
0.0045 0.8189 0.3829
-0.0686 0.8159 0.3828
-0.1411 0.8061 0.3826
-0.2124 0.7896 0.3823
-0.2817 0.7665 0.3818
-0.3484 0.7371 0.3812
-0.4121 0.7017 0.3805
-0.4720 0.6606 0.3796
-0.5278 0.6142 0.3786
-0.5789 0.5630 0.3775
-0.6249 0.5075 0.3764
-0.6655 0.4482 0.3751
-0.7004 0.3856 0.3738
-0.7294 0.3203 0.3725
-0.7522 0.2529 0.3710
-0.7688 0.1840 0.3696
-0.7790 0.1142 0.3681
-0.7830 0.0440 0.3667
-0.7806 -0.0260 0.3652
-0.7721 -0.0952 0.3637
-0.7575 -0.1632 0.3623
-0.7371 -0.2293 0.3609
-0.7110 -0.2931 0.3596
-0.6796 -0.3541 0.3583
-0.6430 -0.4120 0.3571
-0.6017 -0.4663 0.3559
-0.5560 -0.5166 0.3549
-0.5063 -0.5627 0.3539
-0.4529 -0.6042 0.3530
-0.3963 -0.6408 0.3523
-0.3368 -0.6723 0.3516
-0.2750 -0.6986 0.3510
-0.2112 -0.7195 0.3506
-0.1460 -0.7348 0.3503
-0.0798 -0.7445 0.3501
-0.0129 -0.7484 0.3500
0.0540 -0.7467 0.3500
0.1205 -0.7392 0.3502
0.1862 -0.7261 0.3505
0.2505 -0.7073 0.3508
0.3132 -0.6831 0.3514
0.3736 -0.6536 0.3520
0.4313 -0.6189 0.3527
0.4860 -0.5792 0.3535
0.5372 -0.5349 0.3545
0.5845 -0.4862 0.3555
0.6276 -0.4334 0.3566
0.6659 -0.3769 0.3578
0.6994 -0.3170 0.3590
0.7276 -0.2542 0.3603
0.7502 -0.1889 0.3617
0.7671 -0.1217 0.3631
0.7779 -0.0529 0.3646
0.7827 0.0169 0.3660
0.7812 0.0871 0.3675
0.7734 0.1571 0.3690
0.7592 0.2264 0.3704
0.7388 0.2945 0.3719
0.7122 0.3606 0.3733
0.6796 0.4243 0.3746
0.6412 0.4849 0.3759
0.5972 0.5420 0.3771
0.5480 0.5949 0.3782
0.4940 0.6432 0.3792
0.4357 0.6864 0.3801
0.3734 0.7240 0.3809
0.3078 0.7558 0.3816
0.2394 0.7814 0.3821
0.1688 0.8005 0.3825
0.0967 0.8129 0.3828
0.0238 0.8186 0.3829
-0.0494 0.8174 0.3829
-0.1222 0.8094 0.3827
-0.1938 0.7946 0.3824
-0.2637 0.7732 0.3820
-0.3312 0.7454 0.3814
-0.3957 0.7115 0.3807
-0.4567 0.6719 0.3798
-0.5136 0.6269 0.3789
-0.5659 0.5769 0.3778
-0.6133 0.5225 0.3767
-0.6554 0.4641 0.3755
-0.6918 0.4023 0.3742
-0.7224 0.3377 0.3728
-0.7468 0.2708 0.3714
-0.7650 0.2022 0.3700
-0.7769 0.1326 0.3685
-0.7825 0.0624 0.3670
-0.7818 -0.0077 0.3656
-0.7749 -0.0772 0.3641
-0.7619 -0.1455 0.3627
-0.7430 -0.2121 0.3613
-0.7184 -0.2766 0.3599
-0.6883 -0.3384 0.3586
-0.6531 -0.3972 0.3574
-0.6130 -0.4524 0.3562
-0.5684 -0.5038 0.3551
-0.5197 -0.5510 0.3542
-0.4672 -0.5937 0.3533
-0.4114 -0.6317 0.3525
-0.3527 -0.6646 0.3518
-0.2914 -0.6923 0.3512
-0.2281 -0.7146 0.3507
-0.1632 -0.7313 0.3504
-0.0972 -0.7425 0.3501
-0.0305 -0.7480 0.3500
0.0364 -0.7477 0.3500
0.1031 -0.7417 0.3501
0.1690 -0.7301 0.3504
0.2338 -0.7128 0.3507
0.2969 -0.6900 0.3512
0.3579 -0.6618 0.3518
0.4164 -0.6285 0.3525
0.4720 -0.5901 0.3533
0.5241 -0.5470 0.3542
0.5725 -0.4994 0.3552
0.6167 -0.4476 0.3563
0.6563 -0.3921 0.3575
0.6911 -0.3330 0.3587
0.7207 -0.2710 0.3600
0.7448 -0.2063 0.3614
0.7632 -0.1395 0.3628
0.7757 -0.0711 0.3642
0.7820 -0.0015 0.3657
0.7822 0.0686 0.3671
0.7760 0.1388 0.3686
0.7636 0.2083 0.3701
0.7448 0.2768 0.3715
0.7198 0.3435 0.3729
0.6888 0.4078 0.3743
0.6518 0.4693 0.3755
0.6093 0.5274 0.3768
0.5614 0.5814 0.3779
0.5087 0.6310 0.3789
0.4514 0.6756 0.3799
0.3901 0.7147 0.3807
0.3253 0.7481 0.3814
0.2576 0.7753 0.3820
0.1875 0.7961 0.3824
0.1158 0.8103 0.3827
0.0430 0.8178 0.3829
-0.0302 0.8184 0.3829
-0.1032 0.8121 0.3828
-0.1751 0.7991 0.3825
-0.2456 0.7794 0.3821
-0.3137 0.7533 0.3815
-0.3791 0.7210 0.3809
-0.4410 0.6828 0.3801
-0.4990 0.6392 0.3791
-0.5526 0.5905 0.3781
-0.6014 0.5372 0.3770
-0.6449 0.4798 0.3758
-0.6828 0.4188 0.3745
-0.7149 0.3549 0.3732
-0.7410 0.2886 0.3718
-0.7608 0.2204 0.3704
-0.7744 0.1510 0.3689
-0.7817 0.0809 0.3674
-0.7826 0.0107 0.3660
-0.7773 -0.0590 0.3645
-0.7659 -0.1277 0.3631
-0.7485 -0.1948 0.3616
-0.7254 -0.2599 0.3603
-0.6967 -0.3225 0.3590
-0.6628 -0.3821 0.3577
-0.6240 -0.4383 0.3565
-0.5806 -0.4907 0.3554
-0.5329 -0.5391 0.3544
-0.4814 -0.5830 0.3535
-0.4264 -0.6222 0.3527
-0.3684 -0.6564 0.3519
-0.3077 -0.6855 0.3513
-0.2449 -0.7092 0.3508
-0.1804 -0.7275 0.3504
-0.1146 -0.7401 0.3502
-0.0481 -0.7471 0.3500
0.0189 -0.7483 0.3500
0.0856 -0.7438 0.3501
0.1518 -0.7337 0.3503
0.2169 -0.7179 0.3506
0.2805 -0.6965 0.3511
0.3421 -0.6697 0.3516
0.4014 -0.6377 0.3523
0.4577 -0.6006 0.3531
0.5108 -0.5588 0.3540
0.5602 -0.5123 0.3549
0.6055 -0.4616 0.3560
0.6464 -0.4070 0.3571
0.6825 -0.3488 0.3584
0.7135 -0.2875 0.3596
0.7390 -0.2235 0.3610
0.7589 -0.1572 0.3624
0.7730 -0.0891 0.3638
0.7810 -0.0198 0.3653
0.7828 0.0502 0.3667
0.7783 0.1204 0.3682
0.7675 0.1901 0.3697
0.7503 0.2589 0.3711
0.7270 0.3261 0.3725
0.6975 0.3912 0.3739
0.6621 0.4535 0.3752
0.6210 0.5125 0.3765
0.5745 0.5677 0.3776
0.5230 0.6184 0.3787
0.4668 0.6644 0.3796
0.4066 0.7050 0.3805
0.3426 0.7399 0.3812
0.2756 0.7688 0.3818
0.2061 0.7913 0.3823
0.1348 0.8072 0.3827
0.0622 0.8165 0.3829
-0.0110 0.8189 0.3829
-0.0841 0.8144 0.3828
-0.1564 0.8032 0.3826
-0.2273 0.7852 0.3822
-0.2961 0.7608 0.3817
-0.3622 0.7301 0.3811
-0.4251 0.6934 0.3803
-0.4842 0.6511 0.3794
-0.5390 0.6037 0.3784
-0.5891 0.5516 0.3773
-0.6340 0.4952 0.3761
-0.6734 0.4351 0.3749
-0.7071 0.3719 0.3735
-0.7347 0.3062 0.3722
-0.7562 0.2384 0.3707
-0.7715 0.1693 0.3693
-0.7804 0.0993 0.3678
-0.7830 0.0291 0.3663
-0.7793 -0.0408 0.3649
-0.7695 -0.1098 0.3634
-0.7537 -0.1774 0.3620
-0.7320 -0.2430 0.3606
-0.7048 -0.3063 0.3593
-0.6722 -0.3667 0.3580
-0.6346 -0.4239 0.3568
-0.5924 -0.4773 0.3557
-0.5458 -0.5268 0.3547
-0.4952 -0.5719 0.3537
-0.4411 -0.6124 0.3529
-0.3839 -0.6479 0.3521
-0.3239 -0.6784 0.3515
-0.2616 -0.7035 0.3509
-0.1975 -0.7232 0.3505
-0.1320 -0.7373 0.3502
-0.0656 -0.7458 0.3500
0.0013 -0.7485 0.3500
0.0681 -0.7456 0.3501
0.1345 -0.7369 0.3502
0.2000 -0.7225 0.3505
0.2640 -0.7026 0.3509
0.3262 -0.6773 0.3515
0.3861 -0.6466 0.3521
0.4432 -0.6109 0.3529
0.4972 -0.5702 0.3537
0.5476 -0.5249 0.3547
0.7694 0.0745 0.3672
0.7627 0.1434 0.3687
0.7497 0.2118 0.3701
0.7306 0.2790 0.3715
0.7054 0.3444 0.3729
0.6742 0.4074 0.3742
0.6373 0.4676 0.3755
0.5948 0.5243 0.3767
0.5472 0.5770 0.3778
0.4949 0.6252 0.3788
0.4381 0.6685 0.3797
0.3774 0.7065 0.3805
0.3134 0.7387 0.3812
0.2465 0.7648 0.3818
0.1774 0.7846 0.3822
0.1067 0.7979 0.3825
0.0351 0.8046 0.3826
-0.0369 0.8045 0.3826
-0.1086 0.7977 0.3825
-0.1793 0.7842 0.3822
-0.2483 0.7642 0.3818
-0.3151 0.7379 0.3812
-0.3791 0.7056 0.3805
-0.4397 0.6675 0.3797
-0.4963 0.6241 0.3788
-0.5486 0.5757 0.3778
-0.5961 0.5229 0.3767
-0.6384 0.4661 0.3755
-0.6752 0.4059 0.3743
-0.7062 0.3427 0.3729
-0.7313 0.2773 0.3716
-0.7503 0.2100 0.3701
-0.7631 0.1417 0.3687
-0.7696 0.0727 0.3673
-0.7700 0.0036 0.3658
-0.7642 -0.0649 0.3644
-0.7524 -0.1324 0.3630
-0.7348 -0.1983 0.3616
-0.7115 -0.2621 0.3602
-0.6828 -0.3235 0.3589
-0.6489 -0.3818 0.3577
-0.6103 -0.4368 0.3566
-0.5671 -0.4881 0.3555
-0.5198 -0.5353 0.3545
-0.4687 -0.5781 0.3536
-0.4143 -0.6163 0.3528
-0.3569 -0.6495 0.3521
-0.2969 -0.6776 0.3515
-0.2349 -0.7005 0.3510
-0.1712 -0.7179 0.3506
-0.1063 -0.7298 0.3504
-0.0407 -0.7361 0.3503
0.0252 -0.7368 0.3502
0.0909 -0.7318 0.3503
0.1560 -0.7212 0.3506
0.2200 -0.7051 0.3509
0.2824 -0.6835 0.3513
0.3429 -0.6566 0.3519
0.4009 -0.6245 0.3526
0.4561 -0.5875 0.3534
0.5080 -0.5458 0.3542
0.5562 -0.4996 0.3552
0.6004 -0.4493 0.3563
0.6401 -0.3951 0.3574
0.6752 -0.3375 0.3586
0.7051 -0.2768 0.3599
0.7297 -0.2136 0.3612
0.7487 -0.1481 0.3626
0.7619 -0.0810 0.3640
0.7691 -0.0126 0.3654
0.7702 0.0563 0.3669
0.7651 0.1254 0.3683
0.7537 0.1939 0.3698
0.7362 0.2615 0.3712
0.7126 0.3274 0.3726
0.6829 0.3911 0.3739
0.6475 0.4521 0.3752
0.6065 0.5098 0.3764
0.5602 0.5636 0.3775
0.5090 0.6130 0.3786
0.4534 0.6577 0.3795
0.3937 0.6971 0.3803
0.3305 0.7308 0.3810
0.2643 0.7586 0.3816
0.1958 0.7801 0.3821
0.1254 0.7951 0.3824
0.0539 0.8035 0.3826
-0.0180 0.8052 0.3826
-0.0898 0.8001 0.3825
-0.1608 0.7884 0.3823
-0.2304 0.7701 0.3819
-0.2978 0.7454 0.3814
-0.3626 0.7147 0.3807
-0.4241 0.6781 0.3800
-0.4819 0.6360 0.3791
-0.5353 0.5889 0.3781
-0.5841 0.5372 0.3770
-0.6278 0.4814 0.3758
-0.6661 0.4220 0.3746
-0.6986 0.3595 0.3733
-0.7253 0.2946 0.3719
-0.7459 0.2278 0.3705
-0.7603 0.1597 0.3691
-0.7685 0.0908 0.3676
-0.7705 0.0217 0.3662
-0.7663 -0.0470 0.3647
-0.7561 -0.1148 0.3633
-0.7400 -0.1812 0.3619
-0.7181 -0.2456 0.3606
-0.6908 -0.3076 0.3593
-0.6583 -0.3668 0.3580
-0.6209 -0.4228 0.3569
-0.5788 -0.4750 0.3558
-0.5326 -0.5233 0.3547
-0.4825 -0.5673 0.3538
-0.4289 -0.6067 0.3530
-0.3722 -0.6413 0.3523
-0.3129 -0.6708 0.3516
-0.2514 -0.6950 0.3511
-0.1881 -0.7139 0.3507
-0.1235 -0.7272 0.3504
-0.0580 -0.7350 0.3503
0.0079 -0.7371 0.3502
0.0737 -0.7337 0.3503
0.1390 -0.7245 0.3505
0.2033 -0.7098 0.3508
0.2662 -0.6897 0.3512
0.3272 -0.6642 0.3518
0.3859 -0.6334 0.3524
0.4419 -0.5977 0.3531
0.4947 -0.5572 0.3540
0.5439 -0.5121 0.3549
0.5892 -0.4629 0.3560
0.6302 -0.4097 0.3571
0.6664 -0.3529 0.3583
0.6977 -0.2930 0.3595
0.7238 -0.2304 0.3608
0.7442 -0.1655 0.3622
0.7590 -0.0987 0.3636
0.7678 -0.0307 0.3650
0.7705 0.0382 0.3665
0.7670 0.1073 0.3679
0.7573 0.1760 0.3694
0.7414 0.2439 0.3708
0.7194 0.3103 0.3722
0.6913 0.3746 0.3736
0.6574 0.4364 0.3749
0.6178 0.4950 0.3761
0.5729 0.5498 0.3772
0.5229 0.6005 0.3783
0.4684 0.6465 0.3793
0.4097 0.6873 0.3801
0.3474 0.7225 0.3809
0.2819 0.7519 0.3815
0.2139 0.7750 0.3820
0.1440 0.7918 0.3823
0.0728 0.8019 0.3825
0.0009 0.8054 0.3826
-0.0711 0.8021 0.3826
-0.1423 0.7921 0.3823
-0.2123 0.7755 0.3820
-0.2804 0.7525 0.3815
-0.3459 0.7233 0.3809
-0.4083 0.6882 0.3802
-0.4671 0.6475 0.3793
-0.5217 0.6017 0.3784
-0.5718 0.5512 0.3773
-0.6168 0.4964 0.3762
-0.6565 0.4379 0.3749
-0.6906 0.3762 0.3736
-0.7189 0.3119 0.3723
-0.7411 0.2455 0.3709
-0.7571 0.1777 0.3695
-0.7669 0.1089 0.3680
-0.7706 0.0398 0.3666
-0.7680 -0.0290 0.3651
-0.7593 -0.0971 0.3637
-0.7448 -0.1639 0.3623
-0.7244 -0.2289 0.3609
-0.6985 -0.2916 0.3596
-0.6673 -0.3516 0.3583
-0.6312 -0.4084 0.3572
-0.5903 -0.4617 0.3560
-0.5451 -0.5111 0.3550
-0.4960 -0.5562 0.3540
-0.4432 -0.5968 0.3532
-0.3873 -0.6327 0.3524
-0.3287 -0.6635 0.3518
-0.2677 -0.6892 0.3512
-0.2048 -0.7095 0.3508
-0.1405 -0.7243 0.3505
-0.0753 -0.7335 0.3503
-0.0094 -0.7371 0.3502
0.0564 -0.7351 0.3503
0.1219 -0.7275 0.3504
0.1865 -0.7142 0.3507
0.2499 -0.6955 0.3511
0.3114 -0.6714 0.3516
0.3708 -0.6420 0.3522
0.4275 -0.6076 0.3529
0.4812 -0.5683 0.3538
0.5314 -0.5244 0.3547
0.5777 -0.4762 0.3557
0.6199 -0.4240 0.3568
0.6574 -0.3682 0.3580
0.6900 -0.3090 0.3592
0.7175 -0.2471 0.3605
0.7394 -0.1827 0.3618
0.7557 -0.1164 0.3632
0.7660 -0.0486 0.3647
0.7704 0.0201 0.3661
0.7685 0.0891 0.3676
0.7605 0.1580 0.3690
0.7462 0.2262 0.3704
0.7258 0.2930 0.3718
0.6992 0.3580 0.3732
0.6668 0.4205 0.3745
0.6287 0.4799 0.3758
0.5852 0.5358 0.3769
0.5365 0.5876 0.3780
0.4832 0.6349 0.3790
0.4255 0.6771 0.3799
0.3641 0.7138 0.3807
0.2994 0.7447 0.3813
0.2320 0.7696 0.3819
0.1625 0.7880 0.3823
0.0916 0.7999 0.3825
0.0198 0.8051 0.3826
-0.0522 0.8036 0.3826
-0.1237 0.7954 0.3824
-0.1941 0.7805 0.3821
-0.2627 0.7592 0.3817
-0.3290 0.7316 0.3811
-0.3923 0.6980 0.3804
-0.4520 0.6587 0.3796
-0.5078 0.6142 0.3786
-0.5591 0.5649 0.3776
-0.6055 0.5111 0.3765
-0.6467 0.4536 0.3753
-0.6822 0.3927 0.3740
-0.7120 0.3290 0.3726
-0.7358 0.2631 0.3713
-0.7535 0.1956 0.3698
-0.7650 0.1270 0.3684
-0.7702 0.0580 0.3669
-0.7693 -0.0110 0.3655
-0.7622 -0.0793 0.3641
-0.7492 -0.1465 0.3627
-0.7303 -0.2120 0.3613
-0.7058 -0.2754 0.3599
-0.6760 -0.3361 0.3587
-0.6411 -0.3938 0.3575
-0.6015 -0.4481 0.3563
-0.5574 -0.4985 0.3553
-0.5092 -0.5448 0.3543
-0.4574 -0.5866 0.3534
-0.4023 -0.6237 0.3526
-0.3443 -0.6559 0.3519
-0.2839 -0.6829 0.3514
-0.2215 -0.7046 0.3509
-0.1575 -0.7209 0.3506
-0.0925 -0.7316 0.3503
-0.0267 -0.7367 0.3502
0.0392 -0.7362 0.3502
0.1048 -0.7300 0.3504
0.1697 -0.7182 0.3506
0.2334 -0.7009 0.3510
0.2954 -0.6782 0.3515
0.3554 -0.6502 0.3520
0.4129 -0.6171 0.3527
0.4674 -0.5790 0.3535
0.5186 -0.5363 0.3544
0.5660 -0.4893 0.3554
0.6092 -0.4381 0.3565
0.6480 -0.3832 0.3576
0.6820 -0.3249 0.3589
0.7108 -0.2636 0.3602
0.7342 -0.1998 0.3615
0.7520 -0.1340 0.3629
0.7639 -0.0665 0.3643
0.7698 0.0020 0.3657
0.7696 0.0710 0.3672
0.7632 0.1400 0.3686
0.7505 0.2084 0.3701
0.7317 0.2756 0.3715
0.7068 0.3411 0.3729
0.6759 0.4043 0.3742
0.6392 0.4646 0.3754
0.5971 0.5215 0.3766
0.5498 0.5745 0.3778
0.4976 0.6229 0.3788
0.4410 0.6665 0.3797
0.3806 0.7047 0.3805
0.3167 0.7372 0.3812
0.2499 0.7637 0.3817
0.1809 0.7838 0.3822
0.1103 0.7974 0.3825
0.0387 0.8044 0.3826
-0.0333 0.8047 0.3826
-0.1050 0.7982 0.3825
-0.1758 0.7851 0.3822
-0.2449 0.7654 0.3818
-0.3118 0.7394 0.3812
-0.3760 0.7074 0.3806
-0.4367 0.6696 0.3798
-0.4936 0.6264 0.3789
-0.5461 0.5783 0.3779
-0.5938 0.5256 0.3768
-0.6364 0.4690 0.3756
-0.6735 0.4089 0.3743
-0.7048 0.3459 0.3730
-0.7302 0.2806 0.3716
-0.7495 0.2134 0.3702
-0.7626 0.1451 0.3688
-0.7694 0.0761 0.3673
-0.7701 0.0071 0.3659
-0.7646 -0.0615 0.3644
-0.7532 -0.1290 0.3630
-0.7358 -0.1950 0.3616
-0.7128 -0.2590 0.3603
-0.6843 -0.3205 0.3590
-0.6508 -0.3790 0.3578
-0.6123 -0.4342 0.3566
-0.5694 -0.4856 0.3555
-0.5222 -0.5331 0.3545
-0.4714 -0.5761 0.3536
-0.4171 -0.6145 0.3528
-0.3598 -0.6480 0.3521
-0.3000 -0.6764 0.3515
-0.2380 -0.6995 0.3510
-0.1744 -0.7172 0.3507
-0.1096 -0.7294 0.3504
-0.0440 -0.7359 0.3503
0.0219 -0.7369 0.3502
0.0876 -0.7322 0.3503
0.1527 -0.7219 0.3505
0.2168 -0.7060 0.3509
0.2793 -0.6847 0.3513
0.3399 -0.6581 0.3519
0.3981 -0.6263 0.3525
0.4534 -0.5895 0.3533
0.5055 -0.5480 0.3542
0.5539 -0.5020 0.3551
0.5983 -0.4519 0.3562
0.6383 -0.3979 0.3573
0.6735 -0.3405 0.3585
0.7037 -0.2799 0.3598
0.7286 -0.2168 0.3611
0.7479 -0.1514 0.3625
0.7613 -0.0843 0.3639
0.7688 -0.0161 0.3653
0.7703 0.0529 0.3668
0.7655 0.1219 0.3682
0.7545 0.1905 0.3697
0.7373 0.2581 0.3711
0.7139 0.3241 0.3725
0.6846 0.3880 0.3738
0.6494 0.4491 0.3751
0.6087 0.5070 0.3763
0.5627 0.5610 0.3775
0.5117 0.6107 0.3785
0.4563 0.6556 0.3795
0.3968 0.6952 0.3803
0.3337 0.7292 0.3810
0.2677 0.7573 0.3816
0.1992 0.7791 0.3821
0.1290 0.7945 0.3824
0.0575 0.8032 0.3826
-0.0144 0.8052 0.3826
-0.0863 0.8005 0.3825
-0.1573 0.7891 0.3823
-0.2269 0.7712 0.3819
-0.2945 0.7468 0.3814
-0.3594 0.7163 0.3808
-0.4211 0.6800 0.3800
-0.4791 0.6382 0.3791
-0.5328 0.5914 0.3781
-0.5818 0.5399 0.3771
-0.6257 0.4843 0.3759
-0.6643 0.4250 0.3747
-0.6971 0.3627 0.3733
-0.7241 0.2979 0.3720
-0.7450 0.2312 0.3706
-0.7597 0.1631 0.3692
-0.7682 0.0943 0.3677
-0.7705 0.0252 0.3663
-0.7667 -0.0436 0.3648
-0.7567 -0.1114 0.3634
-0.7409 -0.1779 0.3620
-0.7194 -0.2424 0.3606
-0.6923 -0.3046 0.3593
-0.6601 -0.3639 0.3581
-0.6229 -0.4200 0.3569
-0.5811 -0.4725 0.3558
-0.5350 -0.5210 0.3548
-0.4850 -0.5652 0.3539
-0.4316 -0.6049 0.3530
-0.3751 -0.6397 0.3523
-0.3159 -0.6694 0.3517
-0.2545 -0.6939 0.3511
-0.1913 -0.7131 0.3507
-0.1267 -0.7267 0.3505
-0.0613 -0.7347 0.3503
0.0046 -0.7372 0.3502
0.0704 -0.7340 0.3503
0.1357 -0.7251 0.3505
0.2001 -0.7107 0.3508
0.2631 -0.6908 0.3512
0.3242 -0.6656 0.3517
0.3831 -0.6351 0.3524
0.4392 -0.5996 0.3531
0.4921 -0.5593 0.3539
0.5416 -0.5145 0.3549
0.5870 -0.4654 0.3559
0.6282 -0.4124 0.3570
0.6647 -0.3559 0.3582
0.6963 -0.2961 0.3595
0.7226 -0.2336 0.3608
0.7433 -0.1688 0.3621
0.7584 -0.1021 0.3635
0.7675 -0.0341 0.3650
0.7705 0.0347 0.3664
0.7673 0.1038 0.3679
0.7580 0.1726 0.3693
0.7424 0.2405 0.3707
0.7206 0.3070 0.3721
0.6928 0.3715 0.3735
0.6592 0.4334 0.3748
0.6199 0.4921 0.3760
0.5752 0.5472 0.3772
0.5255 0.5981 0.3783
0.4712 0.6443 0.3792
0.4128 0.6853 0.3801
0.3506 0.7209 0.3808
0.2853 0.7505 0.3815
0.2174 0.7740 0.3820
0.1476 0.7911 0.3823
0.0764 0.8016 0.3825
0.0045 0.8054 0.3826
-0.0675 0.8024 0.3826
-0.1388 0.7928 0.3824
-0.2088 0.7765 0.3820
-0.2770 0.7538 0.3815
-0.3427 0.7249 0.3809
-0.4053 0.6901 0.3802
-0.4642 0.6497 0.3794
-0.5191 0.6041 0.3784
-0.5694 0.5538 0.3774
-0.6147 0.4992 0.3762
-0.6547 0.4409 0.3750
-0.6891 0.3794 0.3737
-0.7176 0.3152 0.3723
-0.7401 0.2489 0.3710
-0.7565 0.1811 0.3695
-0.7666 0.1124 0.3681
-0.7705 0.0433 0.3666
-0.7683 -0.0256 0.3652
-0.7599 -0.0937 0.3638
-0.7456 -0.1606 0.3624
-0.7256 -0.2257 0.3610
-0.6999 -0.2885 0.3597
-0.6690 -0.3486 0.3584
-0.6331 -0.4056 0.3572
-0.5925 -0.4591 0.3561
-0.5475 -0.5087 0.3550
-0.4985 -0.5541 0.3541
-0.4460 -0.5949 0.3532
-0.3902 -0.6310 0.3525
-0.3317 -0.6621 0.3518
-0.2708 -0.6880 0.3513
-0.2080 -0.7086 0.3508
-0.1438 -0.7237 0.3505
-0.0785 -0.7332 0.3503
-0.0127 -0.7371 0.3502
0.0531 -0.7354 0.3503
0.1186 -0.7280 0.3504
0.1833 -0.7150 0.3507
0.2467 -0.6966 0.3511
0.3084 -0.6727 0.3516
0.3679 -0.6436 0.3522
0.4247 -0.6094 0.3529
0.4786 -0.5704 0.3537
0.5290 -0.5267 0.3546
0.5755 -0.4787 0.3556
0.6178 -0.4267 0.3567
0.6556 -0.3710 0.3579
0.6885 -0.3121 0.3591
0.7162 -0.2502 0.3604
0.7384 -0.1860 0.3618
0.7550 -0.1197 0.3632
0.7657 -0.0520 0.3646
0.7703 0.0166 0.3660
0.7688 0.0857 0.3675
0.7610 0.1546 0.3689
0.7471 0.2228 0.3704
0.7269 0.2897 0.3718
0.7007 0.3548 0.3731
0.6686 0.4174 0.3745
0.6307 0.4770 0.3757
0.5875 0.5331 0.3769
0.5391 0.5852 0.3780
0.4859 0.6326 0.3790
0.4285 0.6751 0.3799
0.3672 0.7121 0.3807
0.3027 0.7433 0.3813
0.2354 0.7685 0.3818
0.1661 0.7872 0.3822
0.0951 0.7995 0.3825
0.0234 0.8050 0.3826
-0.0486 0.8038 0.3826
-0.1202 0.7959 0.3824
-0.1906 0.7814 0.3821
-0.2593 0.7604 0.3817
-0.3257 0.7331 0.3811
-0.3892 0.6998 0.3804
-0.4491 0.6608 0.3796
-0.5051 0.6166 0.3787
-0.5566 0.5674 0.3776
-0.6033 0.5139 0.3765
-0.6447 0.4565 0.3753
-0.6806 0.3958 0.3740
-0.7107 0.3322 0.3727
-0.7348 0.2665 0.3713
-0.7528 0.1990 0.3699
-0.7645 0.1305 0.3685
-0.7701 0.0614 0.3670
-0.7695 -0.0076 0.3656
-0.7627 -0.0759 0.3641
-0.7499 -0.1432 0.3627
-0.7314 -0.2088 0.3613
-0.7072 -0.2723 0.3600
-0.6776 -0.3331 0.3587
-0.6430 -0.3910 0.3575
-0.6036 -0.4454 0.3564
-0.5597 -0.4961 0.3553
-0.5117 -0.5426 0.3543
-0.4601 -0.5846 0.3534
-0.4051 -0.6220 0.3527
-0.3473 -0.6544 0.3520
-0.2870 -0.6817 0.3514
-0.2247 -0.7037 0.3509
-0.1608 -0.7202 0.3506
-0.0957 -0.7312 0.3504
-0.0300 -0.7366 0.3502
0.0359 -0.7364 0.3502
0.1015 -0.7305 0.3504
0.1665 -0.7190 0.3506
0.2302 -0.7019 0.3510
0.2924 -0.6795 0.3514
0.3525 -0.6517 0.3520
0.4101 -0.6189 0.3527
0.4647 -0.5811 0.3535
0.5161 -0.5386 0.3544
0.5637 -0.4917 0.3554
0.6072 -0.4407 0.3564
0.6462 -0.3860 0.3576
0.6804 -0.3279 0.3588
0.7095 -0.2667 0.3601
0.7332 -0.2031 0.3614
0.7512 -0.1373 0.3628
0.7634 -0.0699 0.3642
0.7697 -0.0015 0.3657
0.7698 0.0675 0.3671
0.7637 0.1365 0.3686
0.7513 0.2050 0.3700
0.7328 0.2723 0.3714
0.7082 0.3379 0.3728
0.6776 0.4012 0.3741
0.6412 0.4617 0.3754
0.5993 0.5188 0.3766
0.5522 0.5719 0.3777
0.5003 0.6206 0.3787
0.4440 0.6644 0.3796
0.3837 0.7029 0.3805
0.3199 0.7357 0.3811
0.2533 0.7625 0.3817
0.1844 0.7829 0.3821
0.1139 0.7969 0.3824
0.0423 0.8042 0.3826
-0.0297 0.8048 0.3826
-0.1014 0.7987 0.3825
-0.1722 0.7859 0.3822
-0.2415 0.7665 0.3818
-0.3085 0.7409 0.3813
-0.3728 0.7091 0.3806
-0.4338 0.6716 0.3798
-0.4908 0.6287 0.3789
-0.5436 0.5808 0.3779
-0.5915 0.5284 0.3768
-0.6344 0.4720 0.3756
-0.6717 0.4120 0.3744
-0.7034 0.3492 0.3731
-0.7290 0.2839 0.3717
-0.7486 0.2168 0.3703
-0.7620 0.1485 0.3689
-0.7692 0.0796 0.3674
-0.7702 0.0105 0.3660
-0.7651 -0.0581 0.3645
-0.7539 -0.1257 0.3631
-0.7368 -0.1918 0.3617
-0.7141 -0.2558 0.3604
-0.6859 -0.3174 0.3591
-0.6526 -0.3761 0.3578
-0.6144 -0.4315 0.3567
-0.5716 -0.4832 0.3556
-0.5247 -0.5308 0.3546
-0.4740 -0.5740 0.3537
-0.4199 -0.6127 0.3529
-0.3627 -0.6464 0.3521
-0.3030 -0.6751 0.3515
-0.2412 -0.6984 0.3510
-0.1777 -0.7164 0.3507
-0.1129 -0.7289 0.3504
-0.0473 -0.7357 0.3503
0.0186 -0.7370 0.3502
0.0843 -0.7326 0.3503
0.1495 -0.7225 0.3505
0.2136 -0.7069 0.3509
0.2762 -0.6859 0.3513
0.3369 -0.6595 0.3518
0.3952 -0.6280 0.3525
0.4507 -0.5914 0.3533
0.5029 -0.5502 0.3541
0.5516 -0.5044 0.3551
0.5962 -0.4545 0.3561
0.6364 -0.4007 0.3573
0.6719 -0.3434 0.3585
0.7023 -0.2830 0.3597
0.7275 -0.2200 0.3611
0.7470 -0.1547 0.3624
0.7608 -0.0877 0.3638
0.7686 -0.0195 0.3653
0.7703 0.0494 0.3667
0.7659 0.1185 0.3682
0.7552 0.1871 0.3696
0.7383 0.2548 0.3710
0.7152 0.3209 0.3724
0.6862 0.3849 0.3738
0.6513 0.4461 0.3751
0.6108 0.5042 0.3763
0.5651 0.5584 0.3774
0.5144 0.6083 0.3785
0.4592 0.6534 0.3794
0.3999 0.6934 0.3803
0.3370 0.7277 0.3810
0.2711 0.7561 0.3816
0.2027 0.7782 0.3820
0.1325 0.7939 0.3824
0.0611 0.8029 0.3826
-0.0108 0.8053 0.3826
-0.0827 0.8009 0.3825
-0.1538 0.7899 0.3823
-0.2235 0.7722 0.3819
-0.2912 0.7482 0.3814
-0.3563 0.7180 0.3808
-0.4181 0.6820 0.3800
-0.4763 0.6404 0.3792
-0.5302 0.5938 0.3782
-0.5794 0.5425 0.3771
-0.6237 0.4871 0.3760
-0.6625 0.4281 0.3747
-0.6956 0.3659 0.3734
-0.7229 0.3012 0.3721
-0.7441 0.2346 0.3707
-0.7591 0.1666 0.3692
-0.7680 0.0977 0.3678
-0.7706 0.0286 0.3663
-0.7670 -0.0401 0.3649
-0.7574 -0.1081 0.3635
-0.7418 -0.1746 0.3621
-0.7206 -0.2392 0.3607
-0.6938 -0.3015 0.3594
-0.6618 -0.3610 0.3581
-0.6248 -0.4173 0.3570
-0.5832 -0.4700 0.3559
-0.5374 -0.5187 0.3548
-0.4876 -0.5631 0.3539
-0.4344 -0.6030 0.3531
-0.3780 -0.6380 0.3523
-0.3189 -0.6680 0.3517
-0.2576 -0.6928 0.3512
-0.1945 -0.7122 0.3508
-0.1300 -0.7261 0.3505
-0.0646 -0.7345 0.3503
0.0013 -0.7372 0.3502
0.0671 -0.7343 0.3503
0.1325 -0.7257 0.3505
0.1969 -0.7116 0.3508
0.2600 -0.6919 0.3512
0.3212 -0.6670 0.3517
0.3802 -0.6367 0.3523
0.4364 -0.6015 0.3531
0.4896 -0.5615 0.3539
0.5392 -0.5169 0.3548
0.7573 0.0733 0.3672
0.7506 0.1412 0.3687
0.7378 0.2084 0.3701
0.7190 0.2745 0.3715
0.6941 0.3389 0.3728
0.6634 0.4009 0.3741
0.6270 0.4600 0.3754
0.5852 0.5158 0.3765
0.5384 0.5677 0.3776
0.4868 0.6151 0.3786
0.4310 0.6577 0.3795
0.3713 0.6950 0.3803
0.3083 0.7266 0.3810
0.2425 0.7523 0.3815
0.1745 0.7718 0.3819
0.1050 0.7848 0.3822
0.0345 0.7914 0.3823
-0.0363 0.7913 0.3823
-0.1068 0.7846 0.3822
-0.1763 0.7714 0.3819
-0.2442 0.7517 0.3815
-0.3100 0.7259 0.3810
-0.3729 0.6941 0.3803
-0.4325 0.6567 0.3795
-0.4883 0.6140 0.3786
-0.5397 0.5664 0.3776
-0.5864 0.5145 0.3765
-0.6281 0.4586 0.3754
-0.6643 0.3993 0.3741
-0.6949 0.3372 0.3728
-0.7196 0.2728 0.3715
-0.7383 0.2067 0.3701
-0.7510 0.1394 0.3687
-0.7575 0.0715 0.3672
-0.7579 0.0036 0.3658
-0.7523 -0.0639 0.3644
-0.7407 -0.1303 0.3630
-0.7234 -0.1952 0.3616
-0.7005 -0.2581 0.3603
-0.6723 -0.3185 0.3590
-0.6390 -0.3760 0.3578
-0.6009 -0.4302 0.3567
-0.5584 -0.4807 0.3556
-0.5119 -0.5272 0.3547
-0.4616 -0.5693 0.3538
-0.4080 -0.6069 0.3530
-0.3515 -0.6397 0.3523
-0.2924 -0.6674 0.3517
-0.2314 -0.6899 0.3512
-0.1686 -0.7071 0.3509
-0.1048 -0.7188 0.3506
-0.0401 -0.7250 0.3505
0.0248 -0.7257 0.3505
0.0895 -0.7208 0.3506
0.1536 -0.7104 0.3508
0.2167 -0.6945 0.3511
0.2782 -0.6732 0.3516
0.3377 -0.6467 0.3521
0.3948 -0.6151 0.3528
0.4492 -0.5786 0.3535
0.5003 -0.5375 0.3544
0.5477 -0.4920 0.3554
0.5912 -0.4424 0.3564
0.6303 -0.3891 0.3575
0.6648 -0.3323 0.3587
0.6942 -0.2726 0.3600
0.7184 -0.2102 0.3613
0.7370 -0.1458 0.3626
0.7500 -0.0797 0.3640
0.7570 -0.0124 0.3654
0.7580 0.0554 0.3668
0.7530 0.1234 0.3683
0.7418 0.1909 0.3697
0.7245 0.2573 0.3711
0.7012 0.3222 0.3725
0.6720 0.3849 0.3738
0.6371 0.4448 0.3750
0.5967 0.5015 0.3762
0.5512 0.5545 0.3773
0.5008 0.6031 0.3784
0.4460 0.6470 0.3793
0.3873 0.6857 0.3801
0.3251 0.7189 0.3808
0.2600 0.7461 0.3814
0.1925 0.7673 0.3818
0.1234 0.7820 0.3821
0.0530 0.7903 0.3823
-0.0177 0.7920 0.3823
-0.0884 0.7870 0.3822
-0.1582 0.7755 0.3820
-0.2266 0.7575 0.3816
-0.2930 0.7333 0.3811
-0.3567 0.7030 0.3805
-0.4172 0.6670 0.3797
-0.4740 0.6257 0.3789
-0.5266 0.5793 0.3779
-0.5747 0.5285 0.3768
-0.6177 0.4736 0.3757
-0.6554 0.4152 0.3744
-0.6874 0.3538 0.3732
-0.7137 0.2899 0.3718
-0.7340 0.2242 0.3704
-0.7483 0.1572 0.3690
-0.7564 0.0894 0.3676
-0.7584 0.0214 0.3662
-0.7543 -0.0463 0.3648
-0.7443 -0.1130 0.3634
-0.7285 -0.1783 0.3620
-0.7070 -0.2418 0.3607
-0.6802 -0.3029 0.3594
-0.6482 -0.3612 0.3581
-0.6114 -0.4163 0.3570
-0.5700 -0.4678 0.3559
-0.5245 -0.5154 0.3549
-0.4751 -0.5587 0.3540
-0.4224 -0.5975 0.3532
-0.3666 -0.6316 0.3525
-0.3082 -0.6606 0.3518
-0.2476 -0.6845 0.3513
-0.1852 -0.7031 0.3509
-0.1216 -0.7163 0.3507
-0.0571 -0.7240 0.3505
0.0077 -0.7261 0.3505
0.0726 -0.7226 0.3505
0.1369 -0.7136 0.3507
0.2002 -0.6992 0.3510
0.2622 -0.6793 0.3514
0.3223 -0.6541 0.3520
0.3801 -0.6239 0.3526
0.4352 -0.5886 0.3533
0.4872 -0.5487 0.3542
0.5356 -0.5043 0.3551
0.5802 -0.4558 0.3561
0.6205 -0.4034 0.3572
0.6562 -0.3475 0.3584
0.6870 -0.2885 0.3596
0.7126 -0.2268 0.3609
0.7327 -0.1629 0.3623
0.7471 -0.0972 0.3636
0.7557 -0.0302 0.3651
0.7584 0.0376 0.3665
0.7549 0.1056 0.3679
0.7453 0.1732 0.3693
0.7296 0.2400 0.3707
0.7079 0.3053 0.3721
0.6802 0.3686 0.3734
0.6468 0.4294 0.3747
0.6078 0.4870 0.3759
0.5636 0.5410 0.3771
0.5145 0.5908 0.3781
0.4608 0.6359 0.3790
0.4031 0.6761 0.3799
0.3417 0.7107 0.3806
0.2773 0.7396 0.3812
0.2104 0.7623 0.3817
0.1417 0.7788 0.3821
0.0716 0.7888 0.3823
0.0008 0.7922 0.3823
-0.0699 0.7889 0.3823
-0.1400 0.7791 0.3821
-0.2088 0.7628 0.3817
-0.2758 0.7402 0.3813
-0.3402 0.7115 0.3807
-0.4017 0.6770 0.3799
-0.4595 0.6370 0.3791
-0.5133 0.5920 0.3782
-0.5625 0.5422 0.3771
-0.6069 0.4884 0.3760
-0.6460 0.4308 0.3748
-0.6796 0.3702 0.3735
-0.7074 0.3069 0.3722
-0.7293 0.2416 0.3708
-0.7451 0.1749 0.3694
-0.7548 0.1072 0.3680
-0.7584 0.0392 0.3666
-0.7560 -0.0286 0.3651
-0.7475 -0.0956 0.3637
-0.7332 -0.1614 0.3623
-0.7132 -0.2253 0.3610
-0.6877 -0.2871 0.3597
-0.6571 -0.3462 0.3585
-0.6215 -0.4021 0.3573
-0.5813 -0.4546 0.3562
-0.5368 -0.5033 0.3552
-0.4884 -0.5478 0.3542
-0.4365 -0.5878 0.3534
-0.3815 -0.6231 0.3526
-0.3237 -0.6535 0.3520
-0.2637 -0.6788 0.3515
-0.2018 -0.6988 0.3510
-0.1384 -0.7134 0.3507
-0.0741 -0.7225 0.3505
-0.0093 -0.7260 0.3505
0.0556 -0.7241 0.3505
0.1201 -0.7165 0.3507
0.1837 -0.7035 0.3509
0.2461 -0.6850 0.3513
0.3067 -0.6612 0.3518
0.3652 -0.6323 0.3524
0.4210 -0.5984 0.3531
0.4739 -0.5596 0.3539
0.5233 -0.5164 0.3548
0.5689 -0.4689 0.3558
0.6104 -0.4175 0.3569
0.6473 -0.3625 0.3581
0.6794 -0.3043 0.3593
0.7064 -0.2433 0.3606
0.7279 -0.1799 0.3619
0.7439 -0.1146 0.3633
0.7540 -0.0479 0.3647
0.7583 0.0197 0.3661
0.7564 0.0877 0.3675
0.7484 0.1555 0.3690
0.7343 0.2226 0.3704
0.7142 0.2884 0.3717
0.6881 0.3522 0.3731
0.6561 0.4137 0.3744
0.6186 0.4722 0.3756
0.5757 0.5272 0.3768
0.5278 0.5781 0.3778
0.4753 0.6246 0.3788
0.4186 0.6660 0.3797
0.3582 0.7022 0.3804
0.2945 0.7326 0.3811
0.2282 0.7570 0.3816
0.1599 0.7751 0.3820
0.0901 0.7868 0.3822
0.0194 0.7919 0.3823
-0.0513 0.7904 0.3823
-0.1217 0.7823 0.3821
-0.1909 0.7677 0.3818
-0.2584 0.7468 0.3814
-0.3236 0.7196 0.3808
-0.3859 0.6866 0.3801
-0.4447 0.6480 0.3793
-0.4996 0.6042 0.3784
-0.5500 0.5557 0.3774
-0.5957 0.5029 0.3763
-0.6362 0.4463 0.3751
-0.6713 0.3864 0.3738
-0.7006 0.3237 0.3725
-0.7241 0.2589 0.3712
-0.7415 0.1925 0.3698
-0.7529 0.1250 0.3684
-0.7581 0.0571 0.3669
-0.7572 -0.0108 0.3655
-0.7503 -0.0781 0.3641
-0.7375 -0.1442 0.3627
-0.7190 -0.2087 0.3613
-0.6949 -0.2711 0.3600
-0.6656 -0.3309 0.3588
-0.6313 -0.3878 0.3576
-0.5923 -0.4412 0.3565
-0.5489 -0.4909 0.3554
-0.5015 -0.5365 0.3545
-0.4505 -0.5777 0.3536
-0.3962 -0.6143 0.3528
-0.3391 -0.6460 0.3522
-0.2796 -0.6726 0.3516
-0.2182 -0.6940 0.3511
-0.1552 -0.7101 0.3508
-0.0911 -0.7206 0.3506
-0.0263 -0.7257 0.3505
0.0386 -0.7251 0.3505
0.1032 -0.7190 0.3506
0.1671 -0.7074 0.3508
0.2299 -0.6904 0.3512
0.2910 -0.6680 0.3517
0.3501 -0.6404 0.3523
0.4066 -0.6077 0.3529
0.4603 -0.5703 0.3537
0.5107 -0.5282 0.3546
0.5573 -0.4818 0.3556
0.5999 -0.4314 0.3566
0.6380 -0.3773 0.3578
0.6715 -0.3199 0.3590
0.6998 -0.2595 0.3602
0.7228 -0.1967 0.3616
0.7403 -0.1319 0.3629
0.7520 -0.0655 0.3643
0.7577 0.0019 0.3657
0.7575 0.0699 0.3672
0.7511 0.1378 0.3686
0.7386 0.2051 0.3700
0.7201 0.2712 0.3714
0.6955 0.3357 0.3727
0.6651 0.3978 0.3740
0.6289 0.4572 0.3753
0.5874 0.5131 0.3765
