ply
format ascii 1.0
element vertex 2177
property float32 x
property float32 y
property float32 z
end_header
0.7078 0.4294 0.3747
0.6690 0.4925 0.3760
0.6245 0.5521 0.3773
0.5745 0.6075 0.3784
0.5195 0.6581 0.3795
0.4599 0.7036 0.3805
0.3962 0.7435 0.3813
0.3289 0.7773 0.3820
0.2586 0.8047 0.3826
0.1860 0.8256 0.3830
0.1117 0.8395 0.3833
0.0364 0.8465 0.3835
-0.0392 0.8463 0.3835
-0.1145 0.8391 0.3833
-0.1888 0.8249 0.3830
-0.2613 0.8039 0.3826
-0.3315 0.7762 0.3820
-0.3986 0.7421 0.3813
-0.4622 0.7021 0.3805
-0.5217 0.6564 0.3795
-0.5765 0.6055 0.3784
-0.6263 0.5500 0.3773
-0.6707 0.4903 0.3760
-0.7092 0.4270 0.3747
-0.7417 0.3607 0.3733
-0.7679 0.2920 0.3719
-0.7878 0.2214 0.3704
-0.8011 0.1497 0.3689
-0.8079 0.0773 0.3674
-0.8082 0.0049 0.3658
-0.8021 -0.0669 0.3643
-0.7897 -0.1377 0.3628
-0.7712 -0.2067 0.3614
-0.7468 -0.2736 0.3600
-0.7167 -0.3379 0.3586
-0.6812 -0.3990 0.3574
-0.6408 -0.4566 0.3561
-0.5956 -0.5104 0.3550
-0.5461 -0.5598 0.3540
-0.4926 -0.6047 0.3530
-0.4357 -0.6447 0.3522
-0.3757 -0.6795 0.3515
-0.3130 -0.7091 0.3508
-0.2482 -0.7331 0.3503
-0.1816 -0.7515 0.3499
-0.1137 -0.7641 0.3497
-0.0451 -0.7709 0.3495
0.0238 -0.7718 0.3495
0.0926 -0.7668 0.3496
0.1607 -0.7560 0.3498
0.2278 -0.7394 0.3502
0.2932 -0.7171 0.3506
0.3566 -0.6892 0.3512
0.4175 -0.6559 0.3519
0.4754 -0.6175 0.3527
0.5299 -0.5741 0.3536
0.5807 -0.5260 0.3546
0.6272 -0.4736 0.3557
0.6692 -0.4172 0.3569
0.7062 -0.3571 0.3582
0.7380 -0.2937 0.3595
0.7642 -0.2276 0.3609
0.7845 -0.1592 0.3623
0.7989 -0.0889 0.3638
0.8069 -0.0174 0.3653
0.8086 0.0549 0.3668
0.8038 0.1273 0.3684
0.7925 0.1994 0.3699
0.7746 0.2703 0.3714
0.7504 0.3397 0.3728
0.7198 0.4068 0.3742
0.6831 0.4711 0.3756
0.6405 0.5319 0.3769
0.5924 0.5888 0.3781
0.5391 0.6412 0.3792
0.4810 0.6885 0.3802
0.4186 0.7303 0.3810
0.3525 0.7663 0.3818
0.2832 0.7960 0.3824
0.2114 0.8191 0.3829
0.1376 0.8355 0.3832
0.0625 0.8448 0.3834
-0.0131 0.8472 0.3835
-0.0886 0.8424 0.3834
-0.1632 0.8306 0.3832
-0.2364 0.8119 0.3828
-0.3075 0.7865 0.3822
-0.3758 0.7546 0.3816
-0.4407 0.7166 0.3808
-0.5016 0.6728 0.3799
-0.5581 0.6237 0.3788
-0.6097 0.5697 0.3777
-0.6559 0.5114 0.3765
-0.6965 0.4493 0.3752
-0.7311 0.3840 0.3738
-0.7596 0.3160 0.3724
-0.7816 0.2460 0.3709
-0.7972 0.1746 0.3694
-0.8063 0.1024 0.3679
-0.8089 0.0299 0.3664
-0.8050 -0.0422 0.3648
-0.7947 -0.1133 0.3634
-0.7783 -0.1830 0.3619
-0.7559 -0.2508 0.3605
-0.7277 -0.3160 0.3591
-0.6941 -0.3782 0.3578
-0.6553 -0.4371 0.3565
-0.6117 -0.4922 0.3554
-0.5637 -0.5432 0.3543
-0.5116 -0.5897 0.3533
-0.4558 -0.6314 0.3525
-0.3968 -0.6681 0.3517
-0.3350 -0.6995 0.3510
-0.2708 -0.7254 0.3505
-0.2048 -0.7458 0.3501
-0.1373 -0.7604 0.3497
-0.0689 -0.7692 0.3496
-0.0000 -0.7721 0.3495
0.0689 -0.7692 0.3496
0.1373 -0.7604 0.3497
0.2047 -0.7458 0.3500
0.2708 -0.7254 0.3505
0.3349 -0.6994 0.3510
0.3967 -0.6680 0.3517
0.4557 -0.6314 0.3524
0.5115 -0.5897 0.3533
0.5636 -0.5432 0.3543
0.6116 -0.4922 0.3554
0.6552 -0.4371 0.3565
0.6940 -0.3782 0.3577
0.7276 -0.3160 0.3591
0.7558 -0.2508 0.3604
0.7782 -0.1831 0.3618
0.7946 -0.1134 0.3633
0.8048 -0.0422 0.3648
0.8088 0.0299 0.3663
0.8062 0.1023 0.3678
0.7971 0.1745 0.3693
0.7815 0.2459 0.3708
0.7595 0.3159 0.3723
0.7311 0.3839 0.3737
0.6965 0.4492 0.3751
0.6559 0.5113 0.3764
0.6097 0.5696 0.3777
0.5581 0.6236 0.3788
0.5016 0.6727 0.3798
0.4407 0.7165 0.3807
0.3758 0.7545 0.3815
0.3075 0.7864 0.3822
0.2365 0.8119 0.3828
0.1633 0.8306 0.3831
0.0886 0.8424 0.3834
0.0131 0.8472 0.3835
-0.0625 0.8449 0.3835
-0.1375 0.8355 0.3833
-0.2113 0.8192 0.3829
-0.2832 0.7960 0.3824
-0.3525 0.7664 0.3818
-0.4186 0.7304 0.3811
-0.4810 0.6886 0.3802
-0.5391 0.6413 0.3792
-0.5924 0.5889 0.3781
-0.6406 0.5320 0.3769
-0.6831 0.4712 0.3756
-0.7199 0.4069 0.3743
-0.7504 0.3398 0.3729
-0.7747 0.2704 0.3714
-0.7926 0.1994 0.3699
-0.8039 0.1274 0.3684
-0.8087 0.0550 0.3669
-0.8070 -0.0173 0.3654
-0.7990 -0.0889 0.3639
-0.7847 -0.1591 0.3624
-0.7643 -0.2276 0.3610
-0.7381 -0.2937 0.3596
-0.7063 -0.3571 0.3582
-0.6693 -0.4172 0.3570
-0.6273 -0.4736 0.3558
-0.5808 -0.5260 0.3547
-0.5300 -0.5741 0.3537
-0.4755 -0.6175 0.3528
-0.4175 -0.6560 0.3519
-0.3566 -0.6892 0.3512
-0.2933 -0.7171 0.3507
-0.2278 -0.7394 0.3502
-0.1608 -0.7560 0.3498
-0.0927 -0.7668 0.3496
-0.0239 -0.7718 0.3495
0.0451 -0.7709 0.3495
0.1137 -0.7641 0.3497
0.1815 -0.7515 0.3499
0.2481 -0.7331 0.3503
0.3130 -0.7091 0.3508
0.3756 -0.6795 0.3514
0.4356 -0.6446 0.3522
0.4926 -0.6046 0.3530
0.5460 -0.5598 0.3539
0.5955 -0.5103 0.3550
0.6407 -0.4566 0.3561
0.6811 -0.3990 0.3573
0.7166 -0.3379 0.3586
0.7467 -0.2736 0.3599
0.7711 -0.2067 0.3613
0.7896 -0.1377 0.3628
0.8020 -0.0670 0.3643
0.8081 0.0048 0.3658
0.8078 0.0772 0.3673
0.8010 0.1496 0.3688
0.7877 0.2213 0.3703
0.7678 0.2919 0.3718
0.7416 0.3606 0.3733
0.7091 0.4269 0.3747
0.6706 0.4902 0.3760
0.6263 0.5499 0.3772
0.5765 0.6054 0.3784
0.5217 0.6563 0.3795
0.4622 0.7020 0.3804
0.3987 0.7421 0.3813
0.3315 0.7761 0.3820
0.2613 0.8038 0.3826
0.1888 0.8249 0.3830
0.1146 0.8391 0.3833
0.0393 0.8463 0.3835
-0.0364 0.8465 0.3835
-0.1117 0.8395 0.3833
-0.1860 0.8256 0.3831
-0.2586 0.8048 0.3826
-0.3288 0.7774 0.3820
-0.3961 0.7435 0.3813
-0.4599 0.7037 0.3805
-0.5195 0.6582 0.3795
-0.5745 0.6076 0.3785
-0.6245 0.5522 0.3773
-0.6691 0.4926 0.3761
-0.7078 0.4295 0.3747
-0.7406 0.3633 0.3734
-0.7670 0.2946 0.3719
-0.7871 0.2241 0.3704
-0.8007 0.1524 0.3689
-0.8078 0.0800 0.3674
-0.8083 0.0076 0.3659
-0.8025 -0.0642 0.3644
-0.7903 -0.1350 0.3629
-0.7720 -0.2041 0.3614
-0.7478 -0.2711 0.3600
-0.7179 -0.3355 0.3587
-0.6827 -0.3968 0.3574
-0.6424 -0.4545 0.3562
-0.5974 -0.5084 0.3551
-0.5480 -0.5580 0.3540
-0.4947 -0.6030 0.3531
-0.4379 -0.6432 0.3522
-0.3780 -0.6783 0.3515
-0.3154 -0.7080 0.3508
-0.2507 -0.7323 0.3503
-0.1841 -0.7509 0.3499
-0.1163 -0.7637 0.3497
-0.0477 -0.7707 0.3495
0.0212 -0.7719 0.3495
0.0900 -0.7671 0.3496
0.1582 -0.7565 0.3498
0.2252 -0.7401 0.3502
0.2907 -0.7180 0.3506
0.3542 -0.6903 0.3512
0.4152 -0.6573 0.3519
0.4732 -0.6190 0.3527
0.5279 -0.5758 0.3536
0.5788 -0.5279 0.3546
0.6255 -0.4757 0.3557
0.6677 -0.4194 0.3569
0.7049 -0.3594 0.3581
0.7369 -0.2962 0.3595
0.7633 -0.2302 0.3609
0.7839 -0.1618 0.3623
0.7984 -0.0916 0.3638
0.8067 -0.0201 0.3653
0.8087 0.0522 0.3668
0.8041 0.1246 0.3683
0.7930 0.1966 0.3698
0.7754 0.2677 0.3713
0.7514 0.3371 0.3728
0.7211 0.4043 0.3742
0.6846 0.4687 0.3755
0.6422 0.5297 0.3768
0.5943 0.5867 0.3780
0.5412 0.6393 0.3791
0.4833 0.6868 0.3801
0.4211 0.7289 0.3810
0.3551 0.7650 0.3818
0.2859 0.7950 0.3824
0.2141 0.8184 0.3829
0.1404 0.8350 0.3832
0.0654 0.8446 0.3834
-0.0102 0.8472 0.3835
-0.0857 0.8427 0.3834
-0.1604 0.8312 0.3832
-0.2337 0.8128 0.3828
-0.3048 0.7876 0.3823
-0.3732 0.7559 0.3816
-0.4383 0.7181 0.3808
-0.4994 0.6746 0.3799
-0.5561 0.6256 0.3789
-0.6078 0.5718 0.3777
-0.6543 0.5137 0.3765
-0.6951 0.4517 0.3752
-0.7299 0.3865 0.3738
-0.7586 0.3186 0.3724
-0.7809 0.2487 0.3710
-0.7967 0.1773 0.3695
-0.8061 0.1051 0.3679
-0.8089 0.0327 0.3664
-0.8052 -0.0395 0.3649
-0.7952 -0.1107 0.3634
-0.7790 -0.1804 0.3619
-0.7568 -0.2482 0.3605
-0.7289 -0.3135 0.3591
-0.6955 -0.3759 0.3578
-0.6569 -0.4349 0.3566
-0.6135 -0.4902 0.3554
-0.5656 -0.5413 0.3544
-0.5136 -0.5880 0.3534
-0.4580 -0.6299 0.3525
-0.3991 -0.6668 0.3517
-0.3374 -0.6984 0.3511
-0.2733 -0.7245 0.3505
-0.2073 -0.7451 0.3501
-0.1399 -0.7599 0.3498
-0.0715 -0.7690 0.3496
-0.0026 -0.7721 0.3495
0.0662 -0.7694 0.3495
0.1347 -0.7608 0.3497
0.2022 -0.7464 0.3500
0.2683 -0.7263 0.3504
0.3325 -0.7005 0.3510
0.3944 -0.6693 0.3516
0.4535 -0.6329 0.3524
0.5094 -0.5913 0.3533
0.5617 -0.5450 0.3542
0.6099 -0.4942 0.3553
0.6536 -0.4393 0.3565
0.6926 -0.3805 0.3577
0.7264 -0.3184 0.3590
0.7548 -0.2533 0.3604
0.7774 -0.1857 0.3618
0.7941 -0.1161 0.3632
0.8046 -0.0450 0.3647
0.8087 0.0271 0.3663
0.8064 0.0995 0.3678
0.7976 0.1718 0.3693
0.7823 0.2432 0.3708
0.7605 0.3133 0.3723
0.7323 0.3813 0.3737
0.6979 0.4468 0.3751
0.6576 0.5090 0.3764
0.6115 0.5675 0.3776
0.5602 0.6216 0.3787
0.5038 0.6709 0.3798
0.4431 0.7149 0.3807
0.3783 0.7532 0.3815
0.3102 0.7853 0.3822
0.2392 0.8110 0.3827
0.1661 0.8300 0.3831
0.0915 0.8421 0.3834
0.0160 0.8471 0.3835
-0.0596 0.8451 0.3835
-0.1347 0.8360 0.3833
-0.2085 0.8199 0.3829
-0.2805 0.7970 0.3825
-0.3499 0.7676 0.3818
-0.4162 0.7319 0.3811
-0.4787 0.6903 0.3802
-0.5370 0.6432 0.3792
-0.5905 0.5910 0.3781
-0.6388 0.5343 0.3769
-0.6816 0.4736 0.3757
-0.7186 0.4094 0.3743
-0.7494 0.3424 0.3729
-0.7739 0.2731 0.3715
-0.7920 0.2022 0.3700
-0.8036 0.1302 0.3685
-0.8086 0.0577 0.3669
-0.8072 -0.0146 0.3654
-0.7994 -0.0862 0.3639
-0.7853 -0.1565 0.3624
-0.7652 -0.2250 0.3610
-0.7392 -0.2912 0.3596
-0.7076 -0.3547 0.3583
-0.6708 -0.4149 0.3570
-0.6290 -0.4715 0.3558
-0.5826 -0.5241 0.3547
-0.5320 -0.5724 0.3537
-0.4776 -0.6159 0.3528
-0.4198 -0.6546 0.3520
-0.3590 -0.6880 0.3513
-0.2957 -0.7161 0.3507
-0.2303 -0.7386 0.3502
-0.1634 -0.7555 0.3498
-0.0953 -0.7665 0.3496
-0.0265 -0.7717 0.3495
0.0424 -0.7710 0.3495
0.1111 -0.7645 0.3497
0.1790 -0.7521 0.3499
0.2456 -0.7339 0.3503
0.3105 -0.7101 0.3508
0.3733 -0.6807 0.3514
0.4334 -0.6461 0.3521
0.4905 -0.6063 0.3530
0.5440 -0.5616 0.3539
0.5937 -0.5123 0.3549
0.6390 -0.4588 0.3561
0.6797 -0.4013 0.3573
0.7153 -0.3403 0.3585
0.7456 -0.2761 0.3599
0.7703 -0.2093 0.3613
0.7890 -0.1404 0.3627
0.8017 -0.0697 0.3642
0.8080 0.0021 0.3657
0.8079 0.0745 0.3672
0.8014 0.1468 0.3688
0.7883 0.2186 0.3703
0.7687 0.2892 0.3718
0.7427 0.3580 0.3732
0.7105 0.4244 0.3746
0.6722 0.4879 0.3759
0.6281 0.5477 0.3772
0.5785 0.6034 0.3784
0.5239 0.6545 0.3794
0.4646 0.7003 0.3804
0.4011 0.7406 0.3812
0.3341 0.7749 0.3820
0.2641 0.8029 0.3826
0.1916 0.8242 0.3830
0.1174 0.8387 0.3833
0.0422 0.8462 0.3835
-0.0335 0.8466 0.3835
-0.1088 0.8399 0.3834
-0.1832 0.8263 0.3831
-0.2559 0.8057 0.3826
-0.3262 0.7785 0.3821
-0.3936 0.7449 0.3814
-0.4575 0.7053 0.3805
-0.5173 0.6601 0.3796
-0.5725 0.6096 0.3785
-0.6227 0.5544 0.3774
-0.6675 0.4950 0.3761
-0.7065 0.4319 0.3748
-0.7394 0.3658 0.3734
-0.7662 0.2973 0.3720
-0.7865 0.2269 0.3705
-0.8003 0.1552 0.3690
-0.8076 0.0828 0.3675
-0.8084 0.0104 0.3660
-0.8028 -0.0615 0.3644
-0.7909 -0.1323 0.3630
-0.7728 -0.2015 0.3615
-0.7488 -0.2686 0.3601
-0.7192 -0.3331 0.3587
-0.6841 -0.3945 0.3574
-0.6440 -0.4524 0.3562
-0.5992 -0.5064 0.3551
-0.5500 -0.5562 0.3540
-0.4969 -0.6014 0.3531
-0.4402 -0.6418 0.3522
-0.3804 -0.6771 0.3515
-0.3179 -0.7070 0.3509
-0.2532 -0.7315 0.3504
-0.1867 -0.7503 0.3500
-0.1189 -0.7633 0.3497
-0.0503 -0.7706 0.3495
0.0186 -0.7719 0.3495
0.0874 -0.7674 0.3496
0.1556 -0.7570 0.3498
0.2227 -0.7408 0.3501
0.2883 -0.7190 0.3506
0.3518 -0.6915 0.3512
0.4129 -0.6586 0.3519
0.4711 -0.6206 0.3527
0.5259 -0.5776 0.3536
0.5770 -0.5299 0.3546
0.6238 -0.4777 0.3557
0.6662 -0.4216 0.3568
0.7036 -0.3617 0.3581
0.7358 -0.2986 0.3594
0.7624 -0.2327 0.3608
0.7832 -0.1644 0.3622
0.7980 -0.0943 0.3637
0.8065 -0.0228 0.3652
0.8087 0.0494 0.3667
0.8044 0.1218 0.3682
0.7936 0.1939 0.3698
0.7762 0.2650 0.3712
0.7524 0.3345 0.3727
0.7223 0.4018 0.3741
0.6861 0.4663 0.3755
0.6440 0.5274 0.3768
0.5963 0.5846 0.3780
0.5433 0.6373 0.3791
0.4856 0.6851 0.3801
0.4235 0.7274 0.3810
0.3577 0.7638 0.3817
0.2886 0.7940 0.3824
0.2169 0.8176 0.3829
0.1433 0.8345 0.3832
0.0683 0.8444 0.3834
-0.0073 0.8472 0.3835
-0.0828 0.8430 0.3834
-0.1576 0.8318 0.3832
-0.2309 0.8136 0.3828
-0.3022 0.7887 0.3823
-0.3707 0.7573 0.3816
-0.4358 0.7197 0.3808
-0.4971 0.6763 0.3799
-0.5540 0.6276 0.3789
-0.6059 0.5740 0.3778
-0.6526 0.5160 0.3766
-0.6936 0.4541 0.3753
-0.7287 0.3890 0.3739
-0.7576 0.3213 0.3725
-0.7802 0.2514 0.3710
-0.7963 0.1801 0.3695
-0.8058 0.1079 0.3680
-0.8089 0.0354 0.3665
-0.8055 -0.0367 0.3650
-0.7957 -0.1080 0.3635
-0.7798 -0.1778 0.3620
-0.7578 -0.2457 0.3606
-0.7301 -0.3111 0.3592
-0.6968 -0.3736 0.3579
-0.6584 -0.4328 0.3566
-0.6152 -0.4882 0.3555
-0.5675 -0.5395 0.3544
-0.5157 -0.5863 0.3534
-0.4601 -0.6284 0.3525
-0.4014 -0.6654 0.3517
-0.3398 -0.6973 0.3511
-0.2758 -0.7236 0.3505
-0.2099 -0.7444 0.3501
-0.1425 -0.7595 0.3498
-0.0741 -0.7687 0.3496
-0.0053 -0.7721 0.3495
0.0636 -0.7696 0.3495
0.1321 -0.7613 0.3497
0.1996 -0.7471 0.3500
0.2658 -0.7272 0.3504
0.3301 -0.7016 0.3510
0.3921 -0.6706 0.3516
0.4513 -0.6343 0.3524
0.5074 -0.5930 0.3532
0.5598 -0.5469 0.3542
0.6081 -0.4963 0.3553
0.6521 -0.4415 0.3564
0.6912 -0.3828 0.3576
0.7252 -0.3208 0.3589
0.7538 -0.2558 0.3603
0.7767 -0.1883 0.3617
0.7936 -0.1188 0.3632
0.8043 -0.0477 0.3647
0.8087 0.0243 0.3662
0.8066 0.0968 0.3677
0.7981 0.1690 0.3692
0.7830 0.2405 0.3707
0.7614 0.3106 0.3722
0.7335 0.3788 0.3736
0.6993 0.4443 0.3750
0.6592 0.5067 0.3763
0.6134 0.5653 0.3776
0.5622 0.6196 0.3787
0.5061 0.6692 0.3797
0.4455 0.7134 0.3807
0.3809 0.7519 0.3815
0.3128 0.7842 0.3822
0.2420 0.8102 0.3827
0.1689 0.8294 0.3831
0.0943 0.8417 0.3834
0.0189 0.8471 0.3835
-0.0567 0.8453 0.3835
-0.1319 0.8365 0.3833
-0.2058 0.8206 0.3829
-0.2778 0.7980 0.3825
-0.3473 0.7688 0.3819
-0.4137 0.7334 0.3811
-0.4764 0.6920 0.3803
-0.5348 0.6450 0.3793
-0.5885 0.5931 0.3782
-0.6371 0.5365 0.3770
-0.6801 0.4759 0.3757
-0.7173 0.4119 0.3744
-0.7483 0.3450 0.3730
-0.7731 0.2758 0.3715
-0.7914 0.2049 0.3700
-0.8033 0.1329 0.3685
-0.8086 0.0605 0.3670
-0.8074 -0.0118 0.3655
-0.7998 -0.0834 0.3640
-0.7860 -0.1538 0.3625
-0.7661 -0.2224 0.3611
-0.7403 -0.2888 0.3597
-0.7089 -0.3523 0.3583
-0.6723 -0.4127 0.3571
-0.6307 -0.4695 0.3559
-0.5845 -0.5222 0.3548
-0.5340 -0.5706 0.3537
-0.4797 -0.6144 0.3528
-0.4221 -0.6532 0.3520
-0.3614 -0.6869 0.3513
-0.2982 -0.7151 0.3507
-0.2329 -0.7379 0.3502
-0.1659 -0.7549 0.3499
-0.0979 -0.7662 0.3496
-0.0291 -0.7716 0.3495
0.0398 -0.7712 0.3495
0.1085 -0.7648 0.3496
0.1764 -0.7526 0.3499
0.2431 -0.7347 0.3503
0.3081 -0.7111 0.3508
0.3709 -0.6820 0.3514
0.4312 -0.6475 0.3521
0.4884 -0.6079 0.3529
0.5420 -0.5634 0.3539
0.5919 -0.5143 0.3549
0.6374 -0.4609 0.3560
0.6782 -0.4035 0.3572
0.7141 -0.3426 0.3585
0.7446 -0.2786 0.3598
0.7694 -0.2119 0.3612
0.7884 -0.1430 0.3627
0.8013 -0.0724 0.3642
0.8079 -0.0007 0.3657
0.8081 0.0717 0.3672
0.8018 0.1441 0.3687
0.7889 0.2159 0.3702
0.7696 0.2866 0.3717
0.7438 0.3555 0.3732
0.7118 0.4220 0.3745
0.6737 0.4855 0.3759
0.6299 0.5455 0.3771
0.5805 0.6014 0.3783
0.5260 0.6526 0.3794
0.4669 0.6987 0.3804
0.4036 0.7392 0.3812
0.3367 0.7737 0.3819
0.2668 0.8019 0.3825
0.1944 0.8235 0.3830
0.1203 0.8383 0.3833
0.0450 0.8460 0.3835
-0.0306 0.8467 0.3835
-0.1060 0.8403 0.3834
-0.1804 0.8269 0.3831
-0.2531 0.8066 0.3827
-0.3236 0.7797 0.3821
-0.3911 0.7463 0.3814
-0.4552 0.7069 0.3806
-0.5151 0.6619 0.3796
-0.5705 0.6116 0.3786
-0.6209 0.5566 0.3774
-0.6659 0.4973 0.3762
-0.7051 0.4344 0.3749
-0.7383 0.3684 0.3735
-0.7653 0.2999 0.3720
-0.7858 0.2296 0.3706
-0.7999 0.1579 0.3690
-0.8075 0.0856 0.3675
-0.8085 0.0132 0.3660
-0.8031 -0.0588 0.3645
-0.7915 -0.1297 0.3630
-0.7736 -0.1989 0.3616
-0.7499 -0.2661 0.3601
-0.7204 -0.3307 0.3588
-0.6856 -0.3922 0.3575
-0.6456 -0.4502 0.3563
-0.6010 -0.5044 0.3551
-0.5519 -0.5544 0.3541
-0.4989 -0.5998 0.3531
-0.4424 -0.6403 0.3523
-0.3827 -0.6758 0.3515
-0.3203 -0.7060 0.3509
-0.2557 -0.7306 0.3504
-0.1893 -0.7497 0.3500
-0.1215 -0.7630 0.3497
-0.0530 -0.7704 0.3495
0.0160 -0.7720 0.3495
0.0848 -0.7677 0.3496
0.1530 -0.7575 0.3498
0.2202 -0.7416 0.3501
0.2858 -0.7199 0.3506
0.3495 -0.6926 0.3512
0.4107 -0.6600 0.3518
0.4689 -0.6221 0.3526
0.5239 -0.5793 0.3535
0.7064 -0.3302 0.3588
0.7358 -0.2668 0.3601
0.7596 -0.2009 0.3615
0.7775 -0.1329 0.3629
0.7894 -0.0632 0.3644
0.7952 0.0075 0.3658
0.7945 0.0787 0.3673
0.7875 0.1499 0.3688
0.7741 0.2204 0.3703
0.7544 0.2897 0.3718
0.7283 0.3572 0.3732
0.6961 0.4223 0.3746
0.6579 0.4844 0.3759
0.6141 0.5429 0.3771
0.5649 0.5973 0.3782
0.5108 0.6471 0.3793
0.4521 0.6918 0.3802
0.3895 0.7309 0.3810
0.3233 0.7642 0.3817
0.2542 0.7911 0.3823
0.1829 0.8116 0.3827
0.1098 0.8253 0.3830
0.0358 0.8321 0.3832
-0.0386 0.8320 0.3832
-0.1126 0.8249 0.3830
-0.1856 0.8110 0.3827
-0.2569 0.7903 0.3823
-0.3259 0.7631 0.3817
-0.3919 0.7296 0.3810
-0.4545 0.6903 0.3802
-0.5129 0.6454 0.3793
-0.5669 0.5954 0.3782
-0.6159 0.5408 0.3771
-0.6595 0.4821 0.3759
-0.6974 0.4199 0.3745
-0.7295 0.3547 0.3732
-0.7553 0.2872 0.3718
-0.7749 0.2178 0.3703
-0.7880 0.1472 0.3688
-0.7948 0.0760 0.3673
-0.7951 0.0048 0.3658
-0.7892 -0.0659 0.3643
-0.7770 -0.1355 0.3629
-0.7589 -0.2034 0.3615
-0.7349 -0.2693 0.3601
-0.7053 -0.3325 0.3587
-0.6705 -0.3927 0.3575
-0.6307 -0.4494 0.3563
-0.5862 -0.5023 0.3552
-0.5375 -0.5510 0.3542
-0.4850 -0.5952 0.3532
-0.4289 -0.6346 0.3524
-0.3698 -0.6690 0.3517
-0.3082 -0.6981 0.3511
-0.2443 -0.7217 0.3506
-0.1788 -0.7398 0.3502
-0.1120 -0.7523 0.3499
-0.0444 -0.7590 0.3498
0.0235 -0.7598 0.3498
0.0912 -0.7549 0.3499
0.1583 -0.7443 0.3501
0.2242 -0.7279 0.3504
0.2886 -0.7059 0.3509
0.3510 -0.6785 0.3515
0.4110 -0.6457 0.3521
0.4680 -0.6078 0.3529
0.5216 -0.5651 0.3538
0.5716 -0.5178 0.3548
0.6174 -0.4661 0.3559
0.6586 -0.4106 0.3571
0.6950 -0.3514 0.3583
0.7262 -0.2890 0.3596
0.7520 -0.2240 0.3610
0.7720 -0.1566 0.3624
0.7860 -0.0875 0.3638
0.7939 -0.0171 0.3653
0.7955 0.0540 0.3668
0.7907 0.1253 0.3683
0.7795 0.1961 0.3698
0.7619 0.2659 0.3713
0.7380 0.3341 0.3727
0.7079 0.4001 0.3741
0.6717 0.4632 0.3754
0.6299 0.5231 0.3767
0.5825 0.5790 0.3778
0.5300 0.6304 0.3789
0.4729 0.6769 0.3799
0.4116 0.7180 0.3808
0.3466 0.7534 0.3815
0.2784 0.7825 0.3821
0.2078 0.8053 0.3826
0.1352 0.8213 0.3830
0.0615 0.8305 0.3831
-0.0128 0.8328 0.3832
-0.0871 0.8281 0.3831
-0.1605 0.8166 0.3829
-0.2324 0.7982 0.3825
-0.3023 0.7732 0.3820
-0.3694 0.7419 0.3813
-0.4332 0.7045 0.3805
-0.4932 0.6615 0.3796
-0.5488 0.6132 0.3786
-0.5995 0.5602 0.3775
-0.6450 0.5029 0.3763
-0.6850 0.4418 0.3750
-0.7191 0.3776 0.3737
-0.7471 0.3108 0.3723
-0.7688 0.2420 0.3708
-0.7842 0.1717 0.3693
-0.7932 0.1007 0.3678
-0.7957 0.0294 0.3664
-0.7920 -0.0415 0.3649
-0.7819 -0.1115 0.3634
-0.7658 -0.1801 0.3619
-0.7438 -0.2468 0.3605
-0.7162 -0.3109 0.3592
-0.6831 -0.3722 0.3579
-0.6450 -0.4302 0.3567
-0.6021 -0.4845 0.3556
-0.5548 -0.5347 0.3545
-0.5035 -0.5805 0.3535
-0.4487 -0.6215 0.3527
-0.3906 -0.6577 0.3519
-0.3298 -0.6886 0.3513
-0.2666 -0.7142 0.3507
-0.2016 -0.7342 0.3503
-0.1352 -0.7486 0.3500
-0.0678 -0.7573 0.3498
-0.0000 -0.7602 0.3497
0.0678 -0.7573 0.3498
0.1352 -0.7486 0.3500
0.2016 -0.7342 0.3503
0.2666 -0.7142 0.3507
0.3297 -0.6886 0.3512
0.3905 -0.6576 0.3519
0.4486 -0.6215 0.3526
0.5035 -0.5804 0.3535
0.5547 -0.5347 0.3545
0.6020 -0.4845 0.3555
0.6449 -0.4302 0.3567
0.6830 -0.3722 0.3579
0.7160 -0.3110 0.3592
0.7437 -0.2468 0.3605
0.7657 -0.1801 0.3619
0.7818 -0.1116 0.3633
0.7919 -0.0415 0.3648
0.7956 0.0294 0.3663
0.7931 0.1006 0.3678
0.7841 0.1717 0.3693
0.7687 0.2419 0.3708
0.7470 0.3107 0.3722
0.7190 0.3775 0.3736
0.6849 0.4417 0.3750
0.6450 0.5028 0.3762
0.5995 0.5601 0.3775
0.5487 0.6131 0.3786
0.4932 0.6614 0.3796
0.4333 0.7045 0.3805
0.3695 0.7418 0.3813
0.3023 0.7732 0.3819
0.2325 0.7981 0.3825
0.1605 0.8165 0.3829
0.0871 0.8281 0.3831
0.0129 0.8328 0.3832
-0.0614 0.8305 0.3832
-0.1352 0.8213 0.3830
-0.2078 0.8053 0.3826
-0.2784 0.7826 0.3822
-0.3465 0.7534 0.3815
-0.4116 0.7181 0.3808
-0.4729 0.6770 0.3799
-0.5301 0.6305 0.3790
-0.5825 0.5791 0.3779
-0.6299 0.5232 0.3767
-0.6718 0.4633 0.3755
-0.7079 0.4001 0.3741
-0.7381 0.3342 0.3727
-0.7620 0.2660 0.3713
-0.7796 0.1962 0.3699
-0.7908 0.1253 0.3684
-0.7956 0.0541 0.3669
-0.7940 -0.0170 0.3654
-0.7861 -0.0874 0.3639
-0.7721 -0.1566 0.3624
-0.7521 -0.2239 0.3610
-0.7264 -0.2890 0.3597
-0.6951 -0.3514 0.3584
-0.6587 -0.4106 0.3571
-0.6175 -0.4662 0.3559
-0.5717 -0.5178 0.3549
-0.5217 -0.5651 0.3539
-0.4680 -0.6079 0.3530
-0.4110 -0.6457 0.3522
-0.3511 -0.6785 0.3515
-0.2887 -0.7059 0.3509
-0.2243 -0.7279 0.3504
-0.1583 -0.7443 0.3501
-0.0912 -0.7550 0.3499
-0.0235 -0.7599 0.3498
0.0444 -0.7590 0.3498
0.1119 -0.7523 0.3499
0.1787 -0.7398 0.3502
0.2443 -0.7217 0.3505
0.3081 -0.6980 0.3510
0.3698 -0.6689 0.3517
0.4288 -0.6346 0.3524
0.4849 -0.5952 0.3532
0.5374 -0.5510 0.3541
0.5861 -0.5023 0.3551
0.6306 -0.4494 0.3563
0.6704 -0.3927 0.3574
0.7052 -0.3325 0.3587
0.7348 -0.2693 0.3600
0.7588 -0.2034 0.3614
0.7769 -0.1355 0.3628
0.7891 -0.0659 0.3643
0.7950 0.0048 0.3658
0.7947 0.0760 0.3673
0.7879 0.1472 0.3688
0.7748 0.2177 0.3703
0.7552 0.2871 0.3717
0.7294 0.3547 0.3731
0.6974 0.4198 0.3745
0.6594 0.4821 0.3758
0.6158 0.5407 0.3770
0.5669 0.5953 0.3782
0.5129 0.6453 0.3792
0.4545 0.6902 0.3802
0.3919 0.7296 0.3810
0.3259 0.7630 0.3817
0.2569 0.7902 0.3823
0.1856 0.8109 0.3827
0.1126 0.8249 0.3830
0.0386 0.8320 0.3832
-0.0357 0.8321 0.3832
-0.1098 0.8253 0.3830
-0.1828 0.8116 0.3828
-0.2542 0.7912 0.3823
-0.3233 0.7642 0.3818
-0.3895 0.7310 0.3811
-0.4521 0.6919 0.3803
-0.5108 0.6472 0.3793
-0.5649 0.5974 0.3783
-0.6141 0.5430 0.3771
-0.6579 0.4844 0.3759
-0.6961 0.4224 0.3746
-0.7283 0.3573 0.3732
-0.7544 0.2898 0.3718
-0.7742 0.2205 0.3704
-0.7877 0.1499 0.3689
-0.7946 0.0787 0.3674
-0.7953 0.0075 0.3659
-0.7895 -0.0632 0.3644
-0.7776 -0.1328 0.3629
-0.7597 -0.2009 0.3615
-0.7359 -0.2668 0.3601
-0.7065 -0.3302 0.3588
-0.6719 -0.3905 0.3575
-0.6323 -0.4474 0.3563
-0.5880 -0.5004 0.3552
-0.5395 -0.5493 0.3542
-0.4870 -0.5936 0.3533
-0.4311 -0.6332 0.3524
-0.3721 -0.6677 0.3517
-0.3105 -0.6971 0.3511
-0.2468 -0.7209 0.3506
-0.1813 -0.7393 0.3502
-0.1145 -0.7519 0.3499
-0.0470 -0.7588 0.3498
0.0209 -0.7599 0.3498
0.0886 -0.7552 0.3498
0.1557 -0.7448 0.3501
0.2217 -0.7286 0.3504
0.2862 -0.7069 0.3509
0.3487 -0.6796 0.3514
0.4087 -0.6471 0.3521
0.4659 -0.6094 0.3529
0.5197 -0.5668 0.3538
0.5697 -0.5197 0.3548
0.6157 -0.4682 0.3559
0.6571 -0.4127 0.3570
0.6937 -0.3537 0.3583
0.7252 -0.2915 0.3596
0.7511 -0.2265 0.3609
0.7713 -0.1592 0.3623
0.7856 -0.0901 0.3638
0.7937 -0.0198 0.3653
0.7955 0.0513 0.3668
0.7910 0.1226 0.3683
0.7801 0.1934 0.3697
0.7627 0.2633 0.3712
0.7390 0.3315 0.3726
0.7091 0.3976 0.3740
0.6732 0.4609 0.3754
0.6316 0.5209 0.3766
0.5844 0.5769 0.3778
0.5321 0.6285 0.3789
0.4752 0.6753 0.3799
0.4140 0.7166 0.3807
0.3491 0.7521 0.3815
0.2811 0.7815 0.3821
0.2105 0.8045 0.3826
0.1380 0.8208 0.3829
0.0643 0.8303 0.3831
-0.0100 0.8329 0.3832
-0.0842 0.8284 0.3831
-0.1577 0.8171 0.3829
-0.2297 0.7990 0.3825
-0.2997 0.7743 0.3820
-0.3669 0.7432 0.3813
-0.4309 0.7061 0.3805
-0.4910 0.6632 0.3797
-0.5467 0.6152 0.3786
-0.5977 0.5623 0.3775
-0.6434 0.5051 0.3763
-0.6836 0.4442 0.3751
-0.7179 0.3801 0.3737
-0.7461 0.3134 0.3723
-0.7681 0.2446 0.3709
-0.7837 0.1744 0.3694
-0.7930 0.1034 0.3679
-0.7958 0.0321 0.3664
-0.7922 -0.0388 0.3649
-0.7824 -0.1089 0.3634
-0.7666 -0.1775 0.3620
-0.7448 -0.2443 0.3606
-0.7173 -0.3086 0.3593
-0.6845 -0.3700 0.3580
-0.6465 -0.4281 0.3567
-0.6038 -0.4825 0.3556
-0.5567 -0.5328 0.3545
-0.5056 -0.5788 0.3536
-0.4508 -0.6201 0.3527
-0.3929 -0.6564 0.3519
-0.3321 -0.6875 0.3513
-0.2691 -0.7133 0.3507
-0.2041 -0.7336 0.3503
-0.1377 -0.7482 0.3500
-0.0704 -0.7571 0.3498
-0.0026 -0.7602 0.3497
0.0652 -0.7575 0.3498
0.1326 -0.7491 0.3500
0.1991 -0.7349 0.3503
0.2641 -0.7150 0.3507
0.3273 -0.6897 0.3512
0.3883 -0.6589 0.3519
0.4464 -0.6230 0.3526
0.5014 -0.5821 0.3535
0.5529 -0.5365 0.3544
0.6003 -0.4865 0.3555
0.6433 -0.4324 0.3566
0.6816 -0.3745 0.3578
0.7149 -0.3133 0.3591
0.7428 -0.2493 0.3605
0.7650 -0.1827 0.3618
0.7813 -0.1142 0.3633
0.7916 -0.0442 0.3648
0.7956 0.0267 0.3662
0.7933 0.0979 0.3677
0.7846 0.1690 0.3692
0.7694 0.2392 0.3707
0.7479 0.3081 0.3722
0.7202 0.3750 0.3736
0.6863 0.4393 0.3749
0.6466 0.5005 0.3762
0.6013 0.5580 0.3774
0.5508 0.6112 0.3785
0.4954 0.6597 0.3795
0.4356 0.7029 0.3805
0.3719 0.7405 0.3812
0.3049 0.7721 0.3819
0.2352 0.7973 0.3824
0.1633 0.8159 0.3828
0.0899 0.8278 0.3831
0.0157 0.8328 0.3832
-0.0586 0.8308 0.3832
-0.1324 0.8218 0.3830
-0.2050 0.8060 0.3826
-0.2758 0.7836 0.3822
-0.3440 0.7547 0.3816
-0.4092 0.7196 0.3808
-0.4707 0.6787 0.3800
-0.5280 0.6324 0.3790
-0.5806 0.5811 0.3779
-0.6282 0.5254 0.3768
-0.6703 0.4657 0.3755
-0.7067 0.4026 0.3742
-0.7370 0.3367 0.3728
-0.7612 0.2686 0.3714
-0.7790 0.1989 0.3699
-0.7905 0.1280 0.3684
-0.7955 0.0568 0.3669
-0.7942 -0.0143 0.3654
-0.7865 -0.0848 0.3640
-0.7727 -0.1540 0.3625
-0.7530 -0.2214 0.3611
-0.7274 -0.2866 0.3597
-0.6964 -0.3491 0.3584
-0.6602 -0.4084 0.3572
-0.6191 -0.4641 0.3560
-0.5735 -0.5159 0.3549
-0.5237 -0.5634 0.3539
-0.4701 -0.6063 0.3530
-0.4133 -0.6444 0.3522
-0.3534 -0.6773 0.3515
-0.2911 -0.7050 0.3509
-0.2268 -0.7272 0.3504
-0.1608 -0.7438 0.3501
-0.0938 -0.7546 0.3499
-0.0261 -0.7598 0.3498
0.0418 -0.7591 0.3498
0.1094 -0.7526 0.3499
0.1762 -0.7404 0.3502
0.2418 -0.7225 0.3505
0.3057 -0.6990 0.3510
0.3675 -0.6701 0.3516
0.4266 -0.6360 0.3523
0.4828 -0.5968 0.3532
0.5355 -0.5528 0.3541
0.5843 -0.5043 0.3551
0.6290 -0.4515 0.3562
0.6689 -0.3949 0.3574
0.7040 -0.3349 0.3587
0.7337 -0.2717 0.3600
0.7579 -0.2060 0.3614
0.7764 -0.1381 0.3628
0.7887 -0.0686 0.3642
0.7949 0.0021 0.3657
0.7948 0.0733 0.3672
0.7883 0.1445 0.3687
0.7754 0.2151 0.3702
0.7561 0.2845 0.3717
0.7305 0.3521 0.3731
0.6987 0.4174 0.3745
0.6610 0.4797 0.3758
0.6176 0.5386 0.3770
0.5688 0.5933 0.3782
0.5151 0.6435 0.3792
0.4568 0.6886 0.3802
0.3944 0.7282 0.3810
0.3285 0.7619 0.3817
0.2596 0.7893 0.3823
0.1884 0.8103 0.3827
0.1154 0.8245 0.3830
0.0415 0.8318 0.3832
-0.0329 0.8322 0.3832
-0.1070 0.8257 0.3831
-0.1801 0.8123 0.3828
-0.2515 0.7921 0.3823
-0.3207 0.7654 0.3818
-0.3870 0.7324 0.3811
-0.4498 0.6935 0.3803
-0.5086 0.6490 0.3794
-0.5630 0.5994 0.3783
-0.6123 0.5451 0.3772
-0.6564 0.4867 0.3760
-0.6948 0.4248 0.3746
-0.7272 0.3598 0.3733
-0.7536 0.2924 0.3719
-0.7736 0.2231 0.3704
-0.7873 0.1526 0.3689
-0.7945 0.0815 0.3674
-0.7953 0.0102 0.3659
-0.7899 -0.0605 0.3645
-0.7782 -0.1302 0.3630
-0.7605 -0.1983 0.3616
-0.7369 -0.2643 0.3602
-0.7078 -0.3278 0.3588
-0.6733 -0.3882 0.3576
-0.6339 -0.4453 0.3564
-0.5898 -0.4984 0.3553
-0.5414 -0.5475 0.3542
-0.4891 -0.5920 0.3533
-0.4333 -0.6318 0.3525
-0.3744 -0.6665 0.3517
-0.3129 -0.6960 0.3511
-0.2492 -0.7201 0.3506
-0.1838 -0.7387 0.3502
-0.1171 -0.7515 0.3499
-0.0496 -0.7587 0.3498
0.0183 -0.7600 0.3497
0.0860 -0.7555 0.3498
0.1532 -0.7453 0.3501
0.2193 -0.7293 0.3504
0.2838 -0.7078 0.3508
0.3464 -0.6808 0.3514
0.4065 -0.6484 0.3521
0.4637 -0.6109 0.3529
0.5177 -0.5685 0.3538
0.5679 -0.5215 0.3547
0.6140 -0.4702 0.3558
0.6557 -0.4149 0.3570
0.6924 -0.3560 0.3582
0.7241 -0.2939 0.3595
0.7502 -0.2290 0.3609
0.7707 -0.1618 0.3623
0.7851 -0.0928 0.3637
0.7935 -0.0225 0.3652
0.7956 0.0486 0.3667
0.7913 0.1199 0.3682
0.7806 0.1907 0.3697
0.7635 0.2606 0.3712
0.7400 0.3290 0.3726
0.7104 0.3951 0.3740
0.6747 0.4585 0.3753
0.6332 0.5186 0.3766
0.5863 0.5749 0.3778
0.5342 0.6267 0.3789
0.4774 0.6736 0.3798
0.4164 0.7151 0.3807
0.3516 0.7509 0.3815
0.2837 0.7805 0.3821
0.2132 0.8038 0.3826
0.1408 0.8203 0.3829
0.0671 0.8301 0.3831
-0.0072 0.8329 0.3832
-0.0814 0.8287 0.3831
-0.1549 0.8177 0.3829
-0.2270 0.7998 0.3825
-0.2971 0.7753 0.3820
-0.3644 0.7445 0.3814
-0.4285 0.7076 0.3806
-0.4888 0.6650 0.3797
-0.5447 0.6171 0.3787
-0.5958 0.5644 0.3776
-0.6418 0.5074 0.3764
-0.6821 0.4466 0.3751
-0.7167 0.3826 0.3738
-0.7451 0.3160 0.3724
-0.7674 0.2473 0.3709
-0.7833 0.1771 0.3695
-0.7927 0.1061 0.3680
-0.7958 0.0349 0.3665
-0.7925 -0.0361 0.3650
-0.7829 -0.1062 0.3635
-0.7673 -0.1750 0.3621
-0.7457 -0.2418 0.3607
-0.7185 -0.3062 0.3593
-0.6858 -0.3677 0.3580
-0.6481 -0.4259 0.3568
-0.6055 -0.4805 0.3556
-0.5586 -0.5310 0.3546
-0.5076 -0.5771 0.3536
-0.4530 -0.6186 0.3527
-0.3951 -0.6551 0.3520
-0.3345 -0.6864 0.3513
-0.2715 -0.7124 0.3508
-0.2066 -0.7329 0.3503
-0.1403 -0.7477 0.3500
-0.0730 -0.7568 0.3498
-0.0052 -0.7602 0.3497
0.0626 -0.7577 0.3498
0.1300 -0.7495 0.3500
0.1965 -0.7355 0.3503
0.2617 -0.7159 0.3507
0.3250 -0.6907 0.3512
0.3860 -0.6602 0.3518
0.4443 -0.6244 0.3526
0.4994 -0.5837 0.3534
0.5510 -0.5383 0.3544
0.5986 -0.4884 0.3554
0.6418 -0.4345 0.3566
0.6803 -0.3768 0.3578
0.7137 -0.3157 0.3591
0.7418 -0.2517 0.3604
0.7642 -0.1853 0.3618
0.7808 -0.1168 0.3632
0.7913 -0.0469 0.3647
0.7956 0.0240 0.3662
0.7935 0.0952 0.3677
0.7850 0.1663 0.3692
0.7701 0.2366 0.3707
0.7489 0.3055 0.3721
0.7213 0.3725 0.3735
0.6877 0.4369 0.3749
0.6482 0.4983 0.3762
0.6031 0.5559 0.3774
0.5528 0.6093 0.3785
0.4976 0.6579 0.3795
0.4380 0.7014 0.3804
0.3744 0.7392 0.3812
0.3076 0.7710 0.3819
0.2379 0.7965 0.3824
0.1661 0.8154 0.3828
0.0927 0.8275 0.3831
0.0186 0.8327 0.3832
-0.0558 0.8310 0.3832
-0.1296 0.8223 0.3830
-0.2023 0.8068 0.3827
-0.2731 0.7845 0.3822
-0.3415 0.7559 0.3816
-0.4067 0.7210 0.3809
-0.4684 0.6803 0.3800
-0.5259 0.6342 0.3790
-0.5787 0.5831 0.3780
-0.6265 0.5276 0.3768
-0.6688 0.4680 0.3756
-0.7054 0.4051 0.3742
-0.7360 0.3393 0.3729
-0.7604 0.2712 0.3714
-0.7785 0.2015 0.3700
-0.7902 0.1308 0.3685
-0.7954 0.0595 0.3670
-0.7943 -0.0116 0.3655
-0.7869 -0.0821 0.3640
-0.7734 -0.1514 0.3626
-0.7538 -0.2189 0.3611
-0.7285 -0.2842 0.3598
-0.6977 -0.3467 0.3584
-0.6617 -0.4062 0.3572
-0.6208 -0.4621 0.3560
-0.5753 -0.5140 0.3549
-0.5257 -0.5617 0.3539
-0.4723 -0.6048 0.3530
-0.4155 -0.6430 0.3522
-0.3558 -0.6762 0.3515
-0.2935 -0.7040 0.3509
-0.2293 -0.7264 0.3505
-0.1634 -0.7432 0.3501
-0.0964 -0.7543 0.3499
-0.0287 -0.7597 0.3498
0.0392 -0.7592 0.3498
0.1068 -0.7530 0.3499
0.1737 -0.7410 0.3501
0.2393 -0.7233 0.3505
0.3033 -0.7000 0.3510
0.3652 -0.6713 0.3516
0.4244 -0.6374 0.3523
0.4807 -0.5984 0.3531
0.5336 -0.5545 0.3540
0.5826 -0.5062 0.3551
0.6273 -0.4536 0.3562
0.6675 -0.3972 0.3573
0.7027 -0.3372 0.3586
0.7327 -0.2742 0.3599
0.7571 -0.2085 0.3613
0.7758 -0.1407 0.3627
0.7884 -0.0713 0.3642
0.7948 -0.0006 0.3657
0.7949 0.0705 0.3672
0.7887 0.1417 0.3687
0.7760 0.2124 0.3701
0.7569 0.2819 0.3716
0.7316 0.3496 0.3730
0.7000 0.4150 0.3744
0.6625 0.4774 0.3757
0.6194 0.5364 0.3770
0.5708 0.5913 0.3781
0.5172 0.6417 0.3792
0.4591 0.6870 0.3801
0.3968 0.7268 0.3810
0.3310 0.7607 0.3817
0.2623 0.7884 0.3823
0.1911 0.8096 0.3827
0.1182 0.8241 0.3830
0.0443 0.8317 0.3832
-0.0301 0.8323 0.3832
-0.1042 0.8261 0.3831
-0.1773 0.8129 0.3828
-0.2488 0.7930 0.3824
-0.3181 0.7665 0.3818
-0.3845 0.7338 0.3811
-0.4475 0.6950 0.3803
-0.5065 0.6508 0.3794
-0.5610 0.6014 0.3784
-0.6105 0.5473 0.3772
-0.6548 0.4890 0.3760
-0.6934 0.4272 0.3747
-0.7261 0.3623 0.3733
-0.7527 0.2950 0.3719
-0.7729 0.2258 0.3705
-0.7869 0.1553 0.3690
-0.7943 0.0842 0.3675
-0.7954 0.0129 0.3660
-0.7902 -0.0578 0.3645
-0.7787 -0.1276 0.3631
-0.7612 -0.1958 0.3616
-0.7379 -0.2619 0.3602
-0.7090 -0.3254 0.3589
-0.6747 -0.3860 0.3576
-0.6354 -0.4431 0.3564
-0.5915 -0.4965 0.3553
-0.5433 -0.5457 0.3543
-0.4911 -0.5904 0.3533
-0.4355 -0.6304 0.3525
-0.3767 -0.6653 0.3517
-0.3153 -0.6950 0.3511
-0.2517 -0.7193 0.3506
-0.1863 -0.7381 0.3502
-0.1196 -0.7511 0.3499
-0.0522 -0.7585 0.3498
0.0157 -0.7600 0.3497
0.0835 -0.7558 0.3498
0.1506 -0.7458 0.3500
0.2168 -0.7301 0.3504
0.2814 -0.7087 0.3508
0.3440 -0.6819 0.3514
0.4042 -0.6497 0.3521
0.4616 -0.6124 0.3528
0.5157 -0.5702 0.3537
0.6953 -0.3250 0.3589
0.7242 -0.2626 0.3602
0.7475 -0.1977 0.3615
0.7652 -0.1307 0.3629
0.7768 -0.0622 0.3644
0.7824 0.0074 0.3658
0.7818 0.0774 0.3673
0.7748 0.1474 0.3688
0.7616 0.2168 0.3702
0.7421 0.2850 0.3717
0.7164 0.3514 0.3731
0.6846 0.4154 0.3744
0.6471 0.4764 0.3757
0.6039 0.5339 0.3769
0.5556 0.5874 0.3780
0.5023 0.6364 0.3791
0.4446 0.6803 0.3800
0.3830 0.7188 0.3808
0.3179 0.7514 0.3815
0.2500 0.7779 0.3820
0.1798 0.7980 0.3825
0.1080 0.8115 0.3827
0.0352 0.8182 0.3829
-0.0379 0.8180 0.3829
-0.1107 0.8111 0.3827
-0.1825 0.7974 0.3825
-0.2526 0.7771 0.3820
-0.3204 0.7503 0.3815
-0.3854 0.7175 0.3808
-0.4469 0.6788 0.3800
-0.5044 0.6347 0.3791
-0.5575 0.5855 0.3780
-0.6057 0.5319 0.3769
-0.6487 0.4742 0.3757
-0.6860 0.4131 0.3744
-0.7175 0.3490 0.3731
-0.7430 0.2825 0.3717
-0.7623 0.2143 0.3702
-0.7753 0.1448 0.3688
-0.7820 0.0748 0.3673
-0.7824 0.0047 0.3658
-0.7766 -0.0648 0.3644
-0.7647 -0.1333 0.3629
-0.7469 -0.2002 0.3615
-0.7233 -0.2650 0.3602
-0.6942 -0.3273 0.3589
-0.6600 -0.3866 0.3576
-0.6208 -0.4424 0.3564
-0.5771 -0.4945 0.3553
-0.5292 -0.5425 0.3543
-0.4774 -0.5860 0.3534
-0.4223 -0.6248 0.3526
-0.3641 -0.6587 0.3519
-0.3034 -0.6873 0.3513
-0.2406 -0.7107 0.3508
-0.1760 -0.7285 0.3504
-0.1103 -0.7407 0.3502
-0.0437 -0.7473 0.3500
0.0231 -0.7482 0.3500
0.0898 -0.7434 0.3501
0.1558 -0.7329 0.3503
0.2208 -0.7167 0.3507
0.2842 -0.6951 0.3511
0.3456 -0.6680 0.3517
0.4046 -0.6358 0.3523
0.4607 -0.5985 0.3531
0.5136 -0.5564 0.3540
0.5627 -0.5097 0.3550
0.6077 -0.4589 0.3561
0.6483 -0.4041 0.3572
0.6841 -0.3459 0.3584
0.7148 -0.2845 0.3597
0.7401 -0.2204 0.3611
0.7597 -0.1541 0.3624
0.7735 -0.0861 0.3639
0.7812 -0.0168 0.3653
0.7827 0.0532 0.3668
0.7780 0.1233 0.3683
0.7669 0.1929 0.3697
0.7495 0.2616 0.3712
0.7260 0.3286 0.3726
0.6963 0.3935 0.3740
0.6607 0.4556 0.3753
0.6195 0.5144 0.3765
0.5729 0.5694 0.3776
0.5213 0.6200 0.3787
0.4651 0.6657 0.3797
0.4047 0.7061 0.3805
0.3408 0.7408 0.3813
0.2738 0.7695 0.3819
0.2043 0.7918 0.3823
0.1330 0.8076 0.3827
0.0605 0.8166 0.3829
-0.0126 0.8189 0.3829
-0.0856 0.8143 0.3828
-0.1578 0.8029 0.3826
-0.2286 0.7848 0.3822
-0.2972 0.7603 0.3817
-0.3633 0.7295 0.3810
-0.4260 0.6928 0.3803
-0.4850 0.6505 0.3794
-0.5397 0.6031 0.3784
-0.5896 0.5509 0.3773
-0.6344 0.4946 0.3761
-0.6737 0.4346 0.3749
-0.7073 0.3714 0.3735
-0.7349 0.3057 0.3722
-0.7563 0.2380 0.3707
-0.7715 0.1690 0.3693
-0.7804 0.0991 0.3678
-0.7830 0.0290 0.3663
-0.7793 -0.0408 0.3649
-0.7695 -0.1098 0.3634
-0.7537 -0.1773 0.3620
-0.7321 -0.2429 0.3606
-0.7049 -0.3061 0.3593
-0.6724 -0.3664 0.3580
-0.6349 -0.4235 0.3568
-0.5927 -0.4769 0.3557
-0.5462 -0.5264 0.3547
-0.4958 -0.5715 0.3537
-0.4417 -0.6119 0.3529
-0.3846 -0.6475 0.3521
-0.3247 -0.6780 0.3515
-0.2625 -0.7032 0.3510
-0.1985 -0.7230 0.3505
-0.1331 -0.7371 0.3502
-0.0668 -0.7457 0.3501
-0.0000 -0.7485 0.3500
0.0668 -0.7457 0.3500
0.1331 -0.7371 0.3502
0.1985 -0.7229 0.3505
0.2625 -0.7032 0.3509
0.3246 -0.6780 0.3515
0.3845 -0.6475 0.3521
0.4417 -0.6119 0.3528
0.4957 -0.5714 0.3537
0.5461 -0.5264 0.3546
0.5926 -0.4769 0.3557
0.6348 -0.4235 0.3568
0.6723 -0.3664 0.3580
0.7048 -0.3061 0.3593
0.7320 -0.2429 0.3606
0.7536 -0.1773 0.3620
0.7694 -0.1098 0.3634
0.7792 -0.0409 0.3648
0.7829 0.0289 0.3663
0.7803 0.0990 0.3678
0.7714 0.1689 0.3692
0.7563 0.2380 0.3707
0.7348 0.3056 0.3721
0.7072 0.3713 0.3735
0.6737 0.4345 0.3748
0.6344 0.4945 0.3761
0.5896 0.5509 0.3773
0.5397 0.6030 0.3784
0.4850 0.6504 0.3794
0.4260 0.6927 0.3802
0.3633 0.7294 0.3810
0.2973 0.7602 0.3817
0.2286 0.7848 0.3822
0.1578 0.8029 0.3826
0.0856 0.8142 0.3828
0.0127 0.8188 0.3829
-0.0604 0.8166 0.3829
-0.1329 0.8076 0.3827
-0.2043 0.7918 0.3823
-0.2738 0.7695 0.3819
-0.3408 0.7409 0.3813
-0.4047 0.7062 0.3805
-0.4651 0.6658 0.3797
-0.5213 0.6200 0.3787
-0.5729 0.5695 0.3777
-0.6195 0.5145 0.3765
-0.6608 0.4557 0.3753
-0.6964 0.3936 0.3740
-0.7260 0.3287 0.3726
-0.7496 0.2617 0.3712
-0.7670 0.1930 0.3698
-0.7780 0.1233 0.3683
-0.7828 0.0532 0.3668
-0.7813 -0.0168 0.3654
-0.7736 -0.0860 0.3639
-0.7598 -0.1541 0.3625
-0.7402 -0.2204 0.3611
-0.7149 -0.2845 0.3598
-0.6842 -0.3459 0.3585
-0.6484 -0.4041 0.3572
-0.6078 -0.4589 0.3561
-0.5628 -0.5097 0.3550
-0.5136 -0.5564 0.3540
-0.4608 -0.5985 0.3532
-0.4047 -0.6358 0.3524
-0.3457 -0.6680 0.3517
-0.2843 -0.6951 0.3511
-0.2208 -0.7167 0.3507
-0.1559 -0.7329 0.3503
-0.0898 -0.7434 0.3501
-0.0232 -0.7482 0.3500
0.0437 -0.7473 0.3500
0.1102 -0.7407 0.3502
0.1760 -0.7285 0.3504
0.2405 -0.7106 0.3508
0.3034 -0.6873 0.3513
0.3641 -0.6586 0.3519
0.4222 -0.6248 0.3526
0.4774 -0.5860 0.3534
0.5291 -0.5425 0.3543
0.5770 -0.4945 0.3553
0.6207 -0.4424 0.3564
0.6599 -0.3866 0.3576
0.6941 -0.3273 0.3588
0.7232 -0.2650 0.3601
0.7468 -0.2002 0.3615
0.7646 -0.1333 0.3629
0.7765 -0.0649 0.3643
0.7823 0.0047 0.3658
0.7819 0.0748 0.3673
0.7752 0.1448 0.3687
0.7622 0.2142 0.3702
0.7429 0.2824 0.3716
0.7175 0.3489 0.3730
0.6860 0.4130 0.3744
0.6486 0.4741 0.3756
0.6057 0.5318 0.3769
0.5575 0.5855 0.3780
0.5044 0.6346 0.3790
0.4469 0.6787 0.3799
0.3854 0.7174 0.3808
0.3205 0.7503 0.3815
0.2526 0.7770 0.3820
0.1825 0.7973 0.3824
0.1108 0.8111 0.3827
0.0380 0.8180 0.3829
-0.0351 0.8182 0.3829
-0.1079 0.8115 0.3828
-0.1798 0.7980 0.3825
-0.2500 0.7780 0.3821
-0.3179 0.7515 0.3815
-0.3830 0.7188 0.3808
-0.4446 0.6804 0.3800
-0.5023 0.6364 0.3791
-0.5556 0.5875 0.3781
-0.6040 0.5340 0.3769
-0.6471 0.4765 0.3757
-0.6847 0.4154 0.3745
-0.7164 0.3514 0.3731
-0.7422 0.2851 0.3717
-0.7617 0.2169 0.3703
-0.7749 0.1475 0.3688
-0.7819 0.0775 0.3674
-0.7825 0.0074 0.3659
-0.7769 -0.0622 0.3644
-0.7653 -0.1307 0.3630
-0.7476 -0.1977 0.3616
-0.7243 -0.2626 0.3602
-0.6954 -0.3250 0.3589
-0.6614 -0.3844 0.3577
-0.6224 -0.4404 0.3565
-0.5788 -0.4926 0.3554
-0.5311 -0.5407 0.3544
-0.4795 -0.5844 0.3535
-0.4245 -0.6234 0.3526
-0.3664 -0.6575 0.3519
-0.3058 -0.6863 0.3513
-0.2430 -0.7099 0.3508
-0.1785 -0.7279 0.3504
-0.1128 -0.7404 0.3502
-0.0463 -0.7472 0.3500
0.0206 -0.7483 0.3500
0.0872 -0.7437 0.3501
0.1533 -0.7334 0.3503
0.2183 -0.7174 0.3506
0.2818 -0.6960 0.3511
0.3433 -0.6692 0.3516
0.4024 -0.6371 0.3523
0.4587 -0.6000 0.3531
0.5116 -0.5580 0.3540
0.5609 -0.5116 0.3549
0.6061 -0.4609 0.3560
0.6469 -0.4063 0.3572
0.6829 -0.3482 0.3584
0.7137 -0.2869 0.3597
0.7392 -0.2229 0.3610
0.7591 -0.1567 0.3624
0.7731 -0.0887 0.3638
0.7810 -0.0195 0.3653
0.7828 0.0505 0.3667
0.7783 0.1206 0.3682
0.7674 0.1903 0.3697
0.7503 0.2590 0.3711
0.7270 0.3261 0.3725
0.6975 0.3911 0.3739
0.6622 0.4533 0.3752
0.6211 0.5123 0.3764
0.5747 0.5674 0.3776
0.5233 0.6181 0.3787
0.4673 0.6640 0.3796
0.4071 0.7046 0.3805
0.3433 0.7396 0.3812
0.2764 0.7685 0.3818
0.2070 0.7910 0.3823
0.1357 0.8071 0.3827
0.0632 0.8164 0.3829
-0.0098 0.8189 0.3829
-0.0828 0.8146 0.3828
-0.1551 0.8034 0.3826
-0.2259 0.7856 0.3822
-0.2947 0.7613 0.3817
-0.3608 0.7308 0.3811
-0.4237 0.6943 0.3803
-0.4828 0.6522 0.3794
-0.5377 0.6050 0.3784
-0.5878 0.5530 0.3773
-0.6328 0.4968 0.3762
-0.6723 0.4369 0.3749
-0.7061 0.3739 0.3736
-0.7340 0.3083 0.3722
-0.7556 0.2406 0.3708
-0.7711 0.1716 0.3693
-0.7802 0.1017 0.3679
-0.7830 0.0316 0.3664
-0.7796 -0.0382 0.3649
-0.7700 -0.1072 0.3635
-0.7544 -0.1747 0.3621
-0.7330 -0.2404 0.3607
-0.7060 -0.3037 0.3594
-0.6737 -0.3642 0.3581
-0.6364 -0.4214 0.3569
-0.5944 -0.4750 0.3558
-0.5481 -0.5246 0.3547
-0.4977 -0.5698 0.3538
-0.4439 -0.6105 0.3529
-0.3868 -0.6463 0.3521
-0.3270 -0.6769 0.3515
-0.2649 -0.7023 0.3510
-0.2010 -0.7223 0.3505
-0.1356 -0.7367 0.3502
-0.0693 -0.7455 0.3501
-0.0026 -0.7485 0.3500
0.0642 -0.7459 0.3500
0.1306 -0.7376 0.3502
0.1960 -0.7236 0.3505
0.2601 -0.7040 0.3509
0.3223 -0.6790 0.3514
0.3823 -0.6488 0.3521
0.4395 -0.6134 0.3528
0.4937 -0.5731 0.3537
0.5443 -0.5282 0.3546
0.5909 -0.4789 0.3556
0.6333 -0.4256 0.3568
0.6710 -0.3687 0.3579
0.7037 -0.3084 0.3592
0.7310 -0.2453 0.3605
0.7529 -0.1798 0.3619
0.7689 -0.1124 0.3633
0.7789 -0.0435 0.3648
0.7829 0.0262 0.3662
0.7805 0.0963 0.3677
0.7719 0.1662 0.3692
0.7570 0.2354 0.3706
0.7357 0.3031 0.3721
0.7084 0.3689 0.3734
0.6751 0.4321 0.3748
0.6360 0.4923 0.3760
0.5914 0.5488 0.3772
0.5417 0.6011 0.3783
0.4872 0.6487 0.3793
0.4284 0.6912 0.3802
0.3657 0.7282 0.3810
0.2998 0.7592 0.3816
0.2313 0.7840 0.3822
0.1606 0.8023 0.3826
0.0884 0.8139 0.3828
0.0155 0.8188 0.3829
-0.0576 0.8168 0.3829
-0.1302 0.8080 0.3827
-0.2016 0.7925 0.3824
-0.2711 0.7705 0.3819
-0.3383 0.7421 0.3813
-0.4023 0.7076 0.3806
-0.4628 0.6674 0.3797
-0.5192 0.6219 0.3788
-0.5710 0.5715 0.3777
-0.6178 0.5167 0.3766
-0.6593 0.4580 0.3753
-0.6951 0.3960 0.3740
-0.7250 0.3312 0.3727
-0.7488 0.2642 0.3713
-0.7664 0.1956 0.3698
-0.7777 0.1260 0.3684
-0.7827 0.0559 0.3669
-0.7815 -0.0141 0.3654
-0.7740 -0.0834 0.3640
-0.7605 -0.1515 0.3625
-0.7411 -0.2179 0.3612
-0.7160 -0.2821 0.3598
-0.6855 -0.3436 0.3585
-0.6499 -0.4020 0.3573
-0.6095 -0.4569 0.3561
-0.5646 -0.5079 0.3551
-0.5156 -0.5547 0.3541
-0.4629 -0.5970 0.3532
-0.4069 -0.6344 0.3524
-0.3480 -0.6669 0.3517
-0.2866 -0.6942 0.3511
-0.2233 -0.7160 0.3507
-0.1584 -0.7324 0.3503
-0.0924 -0.7431 0.3501
-0.0257 -0.7481 0.3500
0.0411 -0.7475 0.3500
0.1077 -0.7411 0.3501
0.1735 -0.7291 0.3504
0.2381 -0.7114 0.3508
0.3010 -0.6883 0.3512
0.3618 -0.6598 0.3518
0.4201 -0.6262 0.3525
0.4753 -0.5876 0.3534
0.5272 -0.5442 0.3543
0.5753 -0.4964 0.3553
0.6191 -0.4445 0.3564
0.6585 -0.3888 0.3575
0.6929 -0.3296 0.3588
0.7222 -0.2675 0.3601
0.7460 -0.2027 0.3614
0.7640 -0.1359 0.3628
0.7762 -0.0675 0.3643
0.7822 0.0020 0.3657
0.7820 0.0721 0.3672
0.7756 0.1421 0.3687
0.7628 0.2116 0.3701
0.7438 0.2799 0.3716
0.7186 0.3464 0.3730
0.6873 0.4106 0.3743
0.6501 0.4719 0.3756
0.6074 0.5297 0.3768
0.5594 0.5835 0.3779
0.5065 0.6328 0.3790
0.4492 0.6771 0.3799
0.3878 0.7160 0.3807
0.3230 0.7491 0.3814
0.2553 0.7761 0.3820
0.1852 0.7967 0.3824
0.1135 0.8107 0.3827
0.0408 0.8179 0.3829
-0.0324 0.8183 0.3829
-0.1052 0.8119 0.3828
-0.1771 0.7987 0.3825
-0.2473 0.7788 0.3821
-0.3154 0.7526 0.3815
-0.3806 0.7202 0.3808
-0.4423 0.6819 0.3800
-0.5002 0.6382 0.3791
-0.5536 0.5895 0.3781
-0.6022 0.5361 0.3770
-0.6456 0.4787 0.3758
-0.6834 0.4178 0.3745
-0.7153 0.3539 0.3732
-0.7413 0.2876 0.3718
-0.7611 0.2195 0.3703
-0.7745 0.1502 0.3689
-0.7817 0.0802 0.3674
-0.7826 0.0101 0.3659
-0.7773 -0.0595 0.3645
-0.7658 -0.1281 0.3630
-0.7484 -0.1952 0.3616
-0.7253 -0.2602 0.3603
-0.6966 -0.3226 0.3590
-0.6628 -0.3822 0.3577
-0.6240 -0.4383 0.3565
-0.5806 -0.4907 0.3554
-0.5330 -0.5390 0.3544
-0.4815 -0.5829 0.3535
-0.4266 -0.6220 0.3527
-0.3687 -0.6563 0.3519
-0.3081 -0.6853 0.3513
-0.2454 -0.7091 0.3508
-0.1810 -0.7273 0.3504
-0.1153 -0.7400 0.3502
-0.0488 -0.7470 0.3500
0.0180 -0.7483 0.3500
0.0847 -0.7439 0.3501
0.1508 -0.7339 0.3503
0.2159 -0.7182 0.3506
0.2794 -0.6969 0.3511
0.3410 -0.6703 0.3516
0.4002 -0.6384 0.3523
0.4566 -0.6015 0.3531
0.5097 -0.5597 0.3539
0.5591 -0.5134 0.3549
0.6045 -0.4629 0.3560
0.6454 -0.4084 0.3571
0.6816 -0.3504 0.3583
0.7127 -0.2893 0.3596
0.7384 -0.2254 0.3610
0.7584 -0.1592 0.3623
0.7726 -0.0913 0.3638
0.7808 -0.0221 0.3652
0.7828 0.0478 0.3667
0.7785 0.1179 0.3682
0.7680 0.1876 0.3696
0.7511 0.2564 0.3711
0.7280 0.3236 0.3725
0.6988 0.3887 0.3738
0.6636 0.4510 0.3752
0.6228 0.5101 0.3764
0.5766 0.5654 0.3776
0.5254 0.6163 0.3786
0.4695 0.6624 0.3796
0.4095 0.7032 0.3805
0.3458 0.7384 0.3812
0.2790 0.7675 0.3818
0.2097 0.7903 0.3823
0.1385 0.8066 0.3826
0.0660 0.8162 0.3828
-0.0071 0.8189 0.3829
-0.0801 0.8148 0.3828
-0.1523 0.8040 0.3826
-0.2232 0.7864 0.3822
-0.2921 0.7624 0.3817
-0.3583 0.7321 0.3811
-0.4214 0.6958 0.3803
-0.4806 0.6539 0.3795
-0.5357 0.6069 0.3785
-0.5860 0.5551 0.3774
-0.6312 0.4990 0.3762
-0.6709 0.4393 0.3750
-0.7049 0.3763 0.3736
-0.7330 0.3108 0.3723
-0.7549 0.2433 0.3708
-0.7706 0.1743 0.3694
-0.7799 0.1044 0.3679
-0.7830 0.0343 0.3665
-0.7798 -0.0355 0.3650
-0.7705 -0.1045 0.3635
-0.7551 -0.1722 0.3621
-0.7339 -0.2379 0.3607
-0.7072 -0.3013 0.3594
-0.6751 -0.3619 0.3581
-0.6379 -0.4193 0.3569
-0.5961 -0.4730 0.3558
-0.5499 -0.5228 0.3547
-0.4997 -0.5682 0.3538
-0.4460 -0.6090 0.3529
-0.3890 -0.6450 0.3522
-0.3293 -0.6759 0.3515
-0.2673 -0.7015 0.3510
-0.2034 -0.7216 0.3506
-0.1381 -0.7363 0.3503
-0.0719 -0.7452 0.3501
-0.0051 -0.7485 0.3500
0.0617 -0.7461 0.3500
0.1280 -0.7380 0.3502
0.1935 -0.7242 0.3505
0.2576 -0.7049 0.3509
0.3200 -0.6801 0.3514
0.3800 -0.6500 0.3520
0.4374 -0.6148 0.3528
0.4917 -0.5747 0.3536
0.5424 -0.5299 0.3546
0.5892 -0.4808 0.3556
0.6318 -0.4277 0.3567
0.6696 -0.3709 0.3579
0.7025 -0.3108 0.3592
0.7301 -0.2478 0.3605
0.7521 -0.1824 0.3619
0.7684 -0.1150 0.3633
0.7787 -0.0462 0.3647
0.7828 0.0236 0.3662
0.7807 0.0937 0.3677
0.7723 0.1636 0.3691
0.7576 0.2327 0.3706
0.7367 0.3005 0.3720
0.7096 0.3664 0.3734
0.6764 0.4298 0.3747
0.6376 0.4901 0.3760
0.5932 0.5467 0.3772
0.5436 0.5992 0.3783
0.4893 0.6470 0.3793
0.4307 0.6897 0.3802
0.3682 0.7269 0.3810
0.3024 0.7581 0.3816
0.2339 0.7831 0.3821
0.1633 0.8017 0.3825
0.0912 0.8136 0.3828
0.0183 0.8187 0.3829
-0.0548 0.8170 0.3829
-0.1274 0.8085 0.3827
-0.1989 0.7933 0.3824
-0.2685 0.7714 0.3819
-0.3358 0.7433 0.3813
-0.4000 0.7090 0.3806
-0.4606 0.6690 0.3798
-0.5171 0.6237 0.3788
-0.5691 0.5735 0.3778
-0.6161 0.5189 0.3766
-0.6578 0.4603 0.3754
-0.6938 0.3984 0.3741
-0.7240 0.3337 0.3727
-0.7480 0.2668 0.3713
-0.7659 0.1983 0.3699
-0.7774 0.1286 0.3684
-0.7827 0.0586 0.3670
-0.7816 -0.0114 0.3655
-0.7744 -0.0808 0.3640
-0.7611 -0.1490 0.3626
-0.7419 -0.2154 0.3612
-0.7170 -0.2797 0.3599
-0.6867 -0.3413 0.3586
-0.6513 -0.3998 0.3573
-0.6111 -0.4549 0.3562
-0.5664 -0.5060 0.3551
-0.5175 -0.5530 0.3541
-0.4649 -0.5954 0.3532
-0.4091 -0.6331 0.3524
-0.3503 -0.6658 0.3517
-0.2890 -0.6932 0.3512
-0.2257 -0.7153 0.3507
-0.1609 -0.7318 0.3503
-0.0949 -0.7428 0.3501
-0.0282 -0.7480 0.3500
0.0386 -0.7476 0.3500
0.1052 -0.7414 0.3501
0.1710 -0.7296 0.3504
0.2356 -0.7122 0.3507
0.2986 -0.6893 0.3512
0.3595 -0.6610 0.3518
0.4179 -0.6275 0.3525
0.4733 -0.5891 0.3533
0.5253 -0.5459 0.3542
0.5735 -0.4983 0.3552
0.6176 -0.4465 0.3563
0.6571 -0.3909 0.3575
0.6917 -0.3319 0.3587
0.7212 -0.2699 0.3600
0.7452 -0.2052 0.3614
0.7634 -0.1385 0.3628
0.7758 -0.0701 0.3642
0.7821 -0.0006 0.3657
0.7822 0.0694 0.3671
0.7760 0.1395 0.3686
0.7634 0.2089 0.3701
0.7446 0.2773 0.3715
0.7196 0.3439 0.3729
0.6886 0.4082 0.3743
0.6517 0.4696 0.3756
0.6091 0.5275 0.3768
0.5613 0.5815 0.3779
0.5086 0.6310 0.3789
0.4514 0.6755 0.3799
0.3902 0.7146 0.3807
0.3255 0.7480 0.3814
0.2579 0.7752 0.3820
0.1879 0.7960 0.3824
0.1163 0.8103 0.3827
0.0435 0.8177 0.3829
-0.0296 0.8184 0.3829
-0.1024 0.8122 0.3828
-0.1743 0.7993 0.3825
-0.2447 0.7797 0.3821
-0.3128 0.7537 0.3815
-0.3781 0.7215 0.3809
-0.4401 0.6835 0.3801
-0.4981 0.6400 0.3792
-0.5517 0.5914 0.3781
-0.6005 0.5382 0.3770
-0.6440 0.4810 0.3758
-0.6820 0.4202 0.3746
-0.7142 0.3564 0.3732
-0.7404 0.2902 0.3718
-0.7604 0.2221 0.3704
-0.7741 0.1528 0.3689
-0.7816 0.0828 0.3675
-0.7827 0.0127 0.3660
-0.7776 -0.0569 0.3645
-0.7664 -0.1255 0.3631
-0.7492 -0.1927 0.3617
-0.7263 -0.2577 0.3603
-0.6978 -0.3203 0.3590
-0.6641 -0.3799 0.3578
-0.6255 -0.4362 0.3566
-0.5823 -0.4888 0.3555
-0.5349 -0.5372 0.3544
-0.4835 -0.5813 0.3535
-0.4288 -0.6206 0.3527
-0.3709 -0.6550 0.3520
-0.3105 -0.6843 0.3513
-0.2478 -0.7083 0.3508
-0.1835 -0.7267 0.3505
-0.1178 -0.7396 0.3502
-0.0514 -0.7469 0.3500
0.0155 -0.7484 0.3500
0.0822 -0.7442 0.3501
0.1483 -0.7343 0.3503
0.2134 -0.7189 0.3506
0.2771 -0.6978 0.3510
0.3387 -0.6714 0.3516
0.3980 -0.6397 0.3523
0.4545 -0.6030 0.3530
0.5077 -0.5614 0.3539
0.6845 -0.3199 0.3590
0.7129 -0.2585 0.3603
0.7358 -0.1946 0.3616
0.7531 -0.1287 0.3630
0.7646 -0.0612 0.3644
0.7700 0.0072 0.3658
0.7693 0.0762 0.3673
0.7625 0.1451 0.3687
0.7494 0.2133 0.3702
0.7301 0.2804 0.3716
0.7048 0.3457 0.3729
0.6735 0.4086 0.3743
0.6365 0.4686 0.3755
0.5941 0.5252 0.3767
0.5465 0.5778 0.3778
0.4941 0.6259 0.3788
0.4373 0.6691 0.3797
0.3767 0.7069 0.3805
0.3127 0.7390 0.3812
0.2459 0.7650 0.3818
0.1768 0.7848 0.3822
0.1062 0.7980 0.3825
0.0346 0.8046 0.3826
-0.0373 0.8045 0.3826
-0.1089 0.7976 0.3825
-0.1795 0.7842 0.3822
-0.2484 0.7642 0.3818
-0.3151 0.7379 0.3812
-0.3790 0.7056 0.3805
-0.4395 0.6676 0.3797
-0.4961 0.6242 0.3788
-0.5484 0.5760 0.3778
-0.5958 0.5232 0.3767
-0.6381 0.4665 0.3755
-0.6749 0.4064 0.3743
-0.7059 0.3433 0.3729
-0.7311 0.2780 0.3716
-0.7501 0.2108 0.3702
-0.7629 0.1425 0.3687
-0.7696 0.0736 0.3673
-0.7700 0.0047 0.3658
-0.7643 -0.0638 0.3644
-0.7527 -0.1312 0.3630
-0.7352 -0.1971 0.3616
-0.7120 -0.2609 0.3603
-0.6834 -0.3222 0.3590
-0.6497 -0.3806 0.3577
-0.6112 -0.4356 0.3566
-0.5682 -0.4869 0.3555
-0.5211 -0.5341 0.3545
-0.4701 -0.5770 0.3536
-0.4158 -0.6153 0.3528
-0.3586 -0.6486 0.3521
-0.2988 -0.6769 0.3515
-0.2369 -0.6998 0.3510
-0.1733 -0.7174 0.3506
-0.1086 -0.7295 0.3504
-0.0431 -0.7360 0.3503
0.0228 -0.7369 0.3502
0.0884 -0.7321 0.3503
0.1535 -0.7217 0.3505
0.2174 -0.7058 0.3509
0.2799 -0.6845 0.3513
0.3404 -0.6578 0.3519
0.3984 -0.6260 0.3526
0.4537 -0.5893 0.3533
0.5057 -0.5478 0.3542
0.5540 -0.5019 0.3552
0.5984 -0.4518 0.3562
0.6383 -0.3979 0.3573
0.6735 -0.3405 0.3585
0.7037 -0.2801 0.3598
0.7285 -0.2170 0.3611
0.7478 -0.1517 0.3625
0.7613 -0.0847 0.3639
0.7688 -0.0165 0.3653
0.7703 0.0523 0.3668
0.7655 0.1213 0.3682
0.7546 0.1898 0.3697
0.7375 0.2574 0.3711
0.7142 0.3233 0.3725
0.6850 0.3871 0.3738
0.6500 0.4482 0.3751
0.6094 0.5061 0.3763
0.5635 0.5601 0.3775
0.5127 0.6098 0.3785
0.4574 0.6547 0.3794
0.3981 0.6944 0.3803
