11.157702445983887 -18.99384307861328 -6.1212592124938965
0.0 -25.04738426208496 -6.794180870056152
7.020298957824707 -25.810848236083984 -7.255623817443848
8.861000061035156 -23.970136642456055 -6.932014465332031
9.721158981323242 -20.50994873046875 -6.156660079956055
11.157715797424316 -18.99385643005371 -5.975339412689209
-2.441406195430318e-06 -25.044479370117188 -6.628042221069336
7.020297527313232 -25.810848236083984 -7.079023838043213
8.861001968383789 -23.970136642456055 -6.763289451599121
9.81712532043457 -20.71242904663086 -6.066110134124756
11.187142372131348 -19.04395294189453 -5.845276355743408
-2.441406195430318e-06 -25.04158592224121 -6.4624857902526855
7.020296096801758 -25.81085205078125 -6.903000354766846
8.208678245544434 -22.205522537231445 -6.109602928161621
9.81712532043457 -20.71242904663086 -5.915273189544678
11.187140464782715 -19.043954849243164 -5.699930191040039
-3.662109293145477e-06 -25.002391815185547 -6.28835391998291
7.020302772521973 -25.81084442138672 -6.727528095245361
8.239815711975098 -22.289751052856445 -5.976883888244629
9.817127227783203 -20.712427139282227 -5.764909744262695
11.187142372131348 -19.04395294189453 -5.55504035949707
2.441406195430318e-06 -25.04248809814453 -6.134671688079834
6.52815055847168 -24.00143051147461 -6.093246936798096
8.239819526672363 -22.28974723815918 -5.821479320526123
9.817127227783203 -20.712427139282227 -5.615016460418701
11.187140464782715 -19.043954849243164 -5.410603046417236
-3.662109293145477e-06 -25.002391815185547 -5.96183443069458
6.52815580368042 -24.00142478942871 -5.9310736656188965
8.23981761932373 -22.289751052856445 -5.666540622711182
9.721158027648926 -20.509950637817383 -5.412140846252441
11.187142372131348 -19.04395294189453 -5.266599178314209
-4.882812390860636e-06 -25.041147232055664 -5.808290481567383
4.63328742980957 -25.896303176879883 -6.102026462554932
6.528154373168945 -24.00142478942871 -5.7693772315979
8.239815711975098 -22.289751052856445 -5.512055397033691
9.817127227783203 -20.712427139282227 -5.316565036773682
11.187142372131348 -19.04395294189453 -5.1230149269104
-6.103515261202119e-06 -25.040477752685547 -5.645819664001465
4.633292198181152 -25.896297454833984 -5.931495189666748
6.52815055847168 -24.00143051147461 -5.608144283294678
8.235397338867188 -22.277790069580078 -5.355137825012207
9.817129135131836 -20.712427139282227 -5.167985916137695
11.187140464782715 -19.043954849243164 -4.979848384857178
-1.220703097715159e-06 -25.039819717407227 -5.4838056564331055
4.633289813995361 -25.89630126953125 -5.761436462402344
6.464334487915039 -23.766796112060547 -5.39410400390625
8.239819526672363 -22.28974723815918 -5.204395771026611
9.817127227783203 -20.712427139282227 -5.019816875457764
11.187142372131348 -19.04395294189453 -4.837072849273682
-1.220703097715159e-06 -25.039154052734375 -5.322237491607666
4.633289813995361 -25.89630126953125 -5.591835975646973
6.528148651123047 -24.00142478942871 -5.287001132965088
8.239813804626465 -22.289752960205078 -5.051192283630371
9.817127227783203 -20.712427139282227 -4.872048377990723
11.187142372131348 -19.04395294189453 -4.694682598114014
-3.662109293145477e-06 -25.038496017456055 -5.161101341247559
4.587993144989014 -25.64314842224121 -5.369673252105713
6.5281524658203125 -24.001428604125977 -5.127067565917969
8.239819526672363 -22.28974723815918 -4.8983941078186035
9.817127227783203 -20.712427139282227 -4.724668025970459
11.187142372131348 -19.04395294189453 -4.552666664123535
-2.441406195430318e-06 -25.0378360748291 -5.000380516052246
4.63328218460083 -25.89630889892578 -5.253954887390137
6.5281524658203125 -24.001428604125977 -4.967537879943848
8.239819526672363 -22.28974723815918 -4.745978832244873
9.721158027648926 -20.509950637817383 -4.532908916473389
11.187142372131348 -19.04395294189453 -4.4110107421875
-1.220703097715159e-06 -25.037179946899414 -4.84006404876709
4.633290767669678 -25.896297454833984 -5.085640907287598
6.5281524658203125 -24.001428604125977 -4.8084001541137695
8.239815711975098 -22.289751052856445 -4.593939304351807
9.81712532043457 -20.71242904663086 -4.4310102462768555
11.187140464782715 -19.043954849243164 -4.269702434539795
-1.220703097715159e-06 -25.036523818969727 -4.680139064788818
4.633292198181152 -25.896297454833984 -4.91772985458374
6.528154373168945 -24.00142478942871 -4.649643421173096
8.239815711975098 -22.289751052856445 -4.442263126373291
9.817129135131836 -20.712427139282227 -4.28471040725708
11.187142372131348 -19.04395294189453 -4.128730297088623
-2.441406195430318e-06 -25.03586769104004 -4.520586967468262
4.633285999298096 -25.896303176879883 -4.750203609466553
6.52815055847168 -24.00143051147461 -4.491249084472656
8.23981761932373 -22.289751052856445 -4.290933609008789
9.817127227783203 -20.712427139282227 -4.138751029968262
11.187140464782715 -19.043954849243164 -3.988079071044922
-3.662109293145477e-06 -25.035213470458984 -4.361400127410889
4.587986946105957 -25.64315414428711 -4.538247108459473
6.528154373168945 -24.00142478942871 -4.333206653594971
8.239815711975098 -22.289751052856445 -4.139941215515137
9.817127227783203 -20.712427139282227 -3.9931139945983887
10.869935989379883 -18.503971099853516 -3.7386462688446045
-2.441406195430318e-06 -25.034564971923828 -4.202563762664795
4.63328742980957 -25.896303176879883 -4.416256427764893
6.5281524658203125 -24.001428604125977 -4.175506591796875
8.239815711975098 -22.289751052856445 -3.9892735481262207
9.482040405273438 -20.005456924438477 -3.7164549827575684
10.869938850402832 -18.503971099853516 -3.602579355239868
-1.220703097715159e-06 -25.03391456604004 -4.044060707092285
4.633283615112305 -25.896305084228516 -4.249804973602295
6.5281524658203125 -24.001428604125977 -4.018128395080566
7.958565711975098 -21.52894401550293 -3.7078819274902344
9.482039451599121 -20.00545883178711 -3.576378107070923
10.869938850402832 -18.503971099853516 -3.4667956829071045
-1.220703097715159e-06 -25.033266067504883 -3.8858823776245117
4.633289813995361 -25.89630126953125 -4.083685398101807
6.30532693862915 -23.182193756103516 -3.729275941848755
7.958570957183838 -21.528940200805664 -3.5629453659057617
9.482040405273438 -20.005456924438477 -3.43658185005188
10.869935989379883 -18.503971099853516 -3.3312809467315674
-2.441406195430318e-06 -25.032617568969727 -3.7280168533325195
4.4579010009765625 -24.916046142578125 -3.7695798873901367
6.305328369140625 -23.182186126708984 -3.5778648853302
7.958565711975098 -21.52893829345703 -3.418287992477417
9.48204231262207 -20.005456924438477 -3.2970550060272217
10.869935989379883 -18.503971099853516 -3.1960301399230957
-1.220703097715159e-06 -25.031972885131836 -3.570446014404297
4.47514009475708 -25.012392044067383 -3.6243059635162354
6.305324554443359 -23.182191848754883 -3.426729679107666
7.958570957183838 -21.528940200805664 -3.2738921642303467
9.48204231262207 -20.005456924438477 -3.157780170440674
10.869935989379883 -18.503971099853516 -3.061022996902466
-2.441406195430318e-06 -25.03132438659668 -3.4131622314453125
2.403796434402466 -27.083749771118164 -3.7075390815734863
4.475132942199707 -25.012393951416016 -3.4647397994995117
6.305324554443359 -23.182191848754883 -3.275860548019409
7.958568572998047 -21.528934478759766 -3.1297521591186523
9.445516586303711 -19.928396224975586 -3.00712513923645
10.869935989379883 -18.503971099853516 -2.926255464553833
-2.441406195430318e-06 -25.030683517456055 -3.2561450004577637
2.403795003890991 -27.083749771118164 -3.5370702743530273
4.47514533996582 -25.012386322021484 -3.305433988571167
6.305328845977783 -23.182193756103516 -3.1252403259277344
7.9585723876953125 -21.52893829345703 -2.9858508110046387
9.482040405273438 -20.005456924438477 -2.8799548149108887
10.869935989379883 -18.503971099853516 -2.7917065620422363
2.441406195430318e-06 -25.03004264831543 -3.099393129348755
2.403796434402466 -27.083749771118164 -3.3668811321258545
4.475141525268555 -25.012386322021484 -3.146390199661255
6.305326461791992 -23.18218994140625 -2.9748668670654297
7.9585723876953125 -21.52893829345703 -2.8421831130981445
9.482040405273438 -20.005456924438477 -2.7413830757141113
10.869935989379883 -18.503971099853516 -2.657381534576416
-2.441406195430318e-06 -25.02939796447754 -2.942885637283325
2.403795003890991 -27.083749771118164 -3.196948289871216
4.47514009475708 -25.012386322021484 -2.98758602142334
6.305330753326416 -23.182191848754883 -2.824719190597534
7.958565711975098 -21.52893829345703 -2.698732852935791
9.48204231262207 -20.005456924438477 -2.603019952774048
10.869935989379883 -18.503971099853516 -2.5232629776000977
-3.662109293145477e-06 -25.028759002685547 -2.7866156101226807
2.3945324420928955 -26.979427337646484 -3.015604257583618
4.475136756896973 -25.012392044067383 -2.829014301300049
6.305328845977783 -23.182193756103516 -2.674792528152466
7.958565711975098 -21.52893829345703 -2.5554933547973633
9.482040405273438 -20.005456924438477 -2.4648594856262207
10.869935989379883 -18.503971099853516 -2.3893330097198486
-3.662109293145477e-06 -25.028114318847656 -2.630563974380493
2.4037938117980957 -27.083751678466797 -2.8578104972839355
4.47514009475708 -25.012386322021484 -2.6706573963165283
6.305328369140625 -23.182186126708984 -2.5250678062438965
7.958570957183838 -21.528940200805664 -2.4124464988708496
9.48204231262207 -20.005456924438477 -2.326887369155884
10.869938850402832 -18.503971099853516 -2.255593776702881
2.441406195430318e-06 -25.02747917175293 -2.4747231006622314
2.4037914276123047 -27.08375358581543 -2.688575267791748
4.475141525268555 -25.012386322021484 -2.512505054473877
6.30532693862915 -23.182193756103516 -2.3755369186401367
7.9585723876953125 -21.52893829345703 -2.2695844173431396
9.445516586303711 -19.928396224975586 -2.1806600093841553
10.869935989379883 -18.503971099853516 -2.1220178604125977
-1.220703097715159e-06 -25.026840209960938 -2.319082736968994
2.4037938117980957 -27.083751678466797 -2.5195491313934326
4.47514009475708 -25.012386322021484 -2.354548454284668
6.305328369140625 -23.182186126708984 -2.226191520690918
7.958569049835205 -21.528942108154297 -2.1269001960754395
9.482040405273438 -20.005456924438477 -2.0514676570892334
10.869938850402832 -18.503971099853516 -1.9886103868484497
1.220703097715159e-06 -25.02620506286621 -2.1636219024658203
2.4037938117980957 -27.083751678466797 -2.350710153579712
4.475139141082764 -25.012386322021484 -2.1967661380767822
6.305326461791992 -23.18218994140625 -2.0770106315612793
7.958570957183838 -21.528940200805664 -1.9843729734420776
9.48204231262207 -20.005456924438477 -1.9139955043792725
10.869935989379883 -18.503971099853516 -1.8553504943847656
-3.662109293145477e-06 -25.02556610107422 -2.008340358734131
2.3945324420928955 -26.979427337646484 -2.1736512184143066
4.475143909454346 -25.01239013671875 -2.039160966873169
6.305326461791992 -23.18218994140625 -1.927993893623352
7.958570957183838 -21.528940200805664 -1.8420026302337646
9.48204231262207 -20.005456924438477 -1.7766748666763306
10.869938850402832 -18.503971099853516 -1.7222400903701782
-1.220703097715159e-06 -25.024930953979492 -1.8532193899154663
2.403796434402466 -27.083749771118164 -2.0135698318481445
4.47514009475708 -25.012386322021484 -1.881704568862915
6.305328845977783 -23.182193756103516 -1.7791242599487305
7.9585723876953125 -21.52893829345703 -1.6997733116149902
9.48204231262207 -20.005456924438477 -1.6394895315170288
10.869935989379883 -18.503971099853516 -1.5892542600631714
-2.441406195430318e-06 -25.024295806884766 -1.698245644569397
2.4037938117980957 -27.083751678466797 -1.8452339172363281
4.47514009475708 -25.012386322021484 -1.7243927717208862
6.305326461791992 -23.18218994140625 -1.630388855934143
7.958570957183838 -21.528940200805664 -1.5576707124710083
9.48204231262207 -20.005456924438477 -1.502426266670227
10.869935989379883 -18.503971099853516 -1.4563899040222168
-2.441406195430318e-06 -25.02366065979004 -1.5434064865112305
2.403796434402466 -27.083749771118164 -1.6770349740982056
4.47514009475708 -25.012386322021484 -1.5672119855880737
6.305328845977783 -23.182193756103516 -1.481773853302002
7.92791223526001 -21.446012496948242 -1.4102317094802856
9.445516586303711 -19.928396224975586 -1.360216498374939
10.869935989379883 -18.503971099853516 -1.3236374855041504
-3.662109293145477e-06 -25.023027420043945 -1.388695240020752
2.4037938117980957 -27.083751678466797 -1.508967399597168
4.45790433883667 -24.916044235229492 -1.4047160148620605
6.281040668487549 -23.092897415161133 -1.3281385898590088
7.927916049957275 -21.446014404296875 -1.2689018249511719
9.445516586303711 -19.928396224975586 -1.223899006843567
10.869935989379883 -18.503971099853516 -1.1909857988357544
-4.882812390860636e-06 -25.02239227294922 -1.2341008186340332
2.3945348262786865 -26.97942352294922 -1.3358521461486816
4.4579010009765625 -24.916046142578125 -1.2483699321746826
6.281042575836182 -23.0928955078125 -1.1803150177001953
7.92791223526001 -21.446012496948242 -1.1276719570159912
9.445516586303711 -19.928396224975586 -1.0876777172088623
10.869935989379883 -18.503971099853516 -1.058428168296814
-4.882812390860636e-06 -25.021757125854492 -1.0796079635620117
2.394536018371582 -26.97942352294922 -1.1686509847640991
4.457902908325195 -24.916044235229492 -1.0921180248260498
6.281040668487549 -23.092897415161133 -1.0325819253921509
7.92791223526001 -21.446012496948242 -0.9865269064903259
9.445520401000977 -19.92839813232422 -0.9515397548675537
10.869935989379883 -18.503971099853516 -0.9259529113769531
2.441406195430318e-06 -25.021127700805664 -0.9251996874809265
2.39453125 -26.979427337646484 -1.001533031463623
4.45790433883667 -24.916044235229492 -0.9359440207481384
6.281040668487549 -23.092897415161133 -0.8849217295646667
7.92791223526001 -21.446012496948242 -0.8454527258872986
9.445516586303711 -19.928396224975586 -0.8154676556587219
10.869935989379883 -18.503971099853516 -0.7935383319854736
-4.882812390860636e-06 -25.020492553710938 -0.7708741426467896
2.3945348262786865 -26.97942352294922 -0.834496259689331
4.457902908325195 -24.916044235229492 -0.7798460125923157
6.281040668487549 -23.092897415161133 -0.7373344302177429
7.927917957305908 -21.446014404296875 -0.7044474482536316
9.445516586303711 -19.928396224975586 -0.6794636249542236
10.869935989379883 -18.503971099853516 -0.6611918210983276
-1.220703097715159e-06 -25.01986312866211 -0.61661297082901
2.3945324420928955 -26.979427337646484 -0.6675205826759338
4.45790433883667 -24.916044235229492 -0.6238057017326355
6.281040668487549 -23.092897415161133 -0.5897993445396423
7.92791223526001 -21.446012496948242 -0.5634931921958923
9.445520401000977 -19.92839813232422 -0.5435084700584412
10.869935989379883 -18.503971099853516 -0.5288926362991333
-2.441406195430318e-06 -25.019227981567383 -0.4624067544937134
2.394533634185791 -26.979427337646484 -0.500595211982727
4.457902908325195 -24.916044235229492 -0.46781203150749207
6.281040668487549 -23.092897415161133 -0.442309707403183
7.927914142608643 -21.44601058959961 -0.4225819408893585
9.445520401000977 -19.92839813232422 -0.4075947403907776
10.869935989379883 -18.503971099853516 -0.396634042263031
-1.220703097715159e-06 -25.018598556518555 -0.308245986700058
2.3945348262786865 -26.97942352294922 -0.33371108770370483
4.457906246185303 -24.91604232788086 -0.311857134103775
6.281040668487549 -23.092897415161133 -0.2948567271232605
7.92791223526001 -21.446012496948242 -0.28170546889305115
9.445516586303711 -19.928396224975586 -0.27171432971954346
10.869938850402832 -18.503971099853516 -0.2644081115722656
-2.441406195430318e-06 -25.017963409423828 -0.15411315858364105
2.394536018371582 -26.97942352294922 -0.16685011982917786
4.457906246185303 -24.91604232788086 -0.1559225469827652
6.281042575836182 -23.0928955078125 -0.14742247760295868
7.927914142608643 -21.44601058959961 -0.14084716141223907
9.445516586303711 -19.928396224975586 -0.13585205376148224
10.869938850402832 -18.503971099853516 -0.13219909369945526
0.0 -25.017333984375 -3.0517576306010596e-06
2.394533634185791 -26.97942543029785 -3.356933575560106e-06
4.45790433883667 -24.916044235229492 -3.0517576306010596e-06
6.281040668487549 -23.092897415161133 -2.7465819130156888e-06
7.92791223526001 -21.446012496948242 -2.7465819130156888e-06
9.445514678955078 -19.92839813232422 -2.593994167909841e-06
10.869938850402832 -18.503971099853516 -2.441406195430318e-06
-3.662109293145477e-06 -25.016698837280273 0.1541021764278412
2.394538402557373 -26.979427337646484 0.16684600710868835
4.601338863372803 -25.717714309692383 0.16093628108501434
6.483130931854248 -23.835912704467773 0.15216292440891266
8.18299388885498 -22.136037826538086 0.1453762799501419
9.749427795410156 -20.569589614868164 0.14022032916545868
10.869938850402832 -18.503971099853516 0.13219603896141052
-1.220703097715159e-06 -25.016069412231445 0.3082086145877838
2.3945348262786865 -26.97942352294922 0.33370453119277954
4.601337909698486 -25.717716217041016 0.32188475131988525
6.483130931854248 -23.835912704467773 0.30433744192123413
8.182991981506348 -22.13603973388672 0.2907635569572449
9.74942684173584 -20.569591522216797 0.28045135736465454
10.869935989379883 -18.503971099853516 0.2644025981426239
-2.441406195430318e-06 -25.01543617248535 0.4623333513736725
2.3945324420928955 -26.979427337646484 0.5005918741226196
4.601336479187012 -25.717723846435547 0.48286086320877075
6.483129501342773 -23.835912704467773 0.4565380811691284
8.182997703552246 -22.13603973388672 0.436175674200058
9.74942684173584 -20.569591522216797 0.4207061529159546
10.869935989379883 -18.503971099853516 0.3966335952281952
-1.220703097715159e-06 -25.01480484008789 0.6164857149124146
2.3945324420928955 -26.979427337646484 0.6675172448158264
4.601337909698486 -25.717716217041016 0.6438734531402588
6.483130931854248 -23.835912704467773 0.6087731719017029
8.182991981506348 -22.13603973388672 0.5816211104393005
9.749428749084473 -20.569597244262695 0.5609931945800781
10.869935989379883 -18.503971099853516 0.528890073299408
-2.441406195430318e-06 -25.014171600341797 0.7706770300865173
2.3945348262786865 -26.97942352294922 0.834493100643158
4.601335525512695 -25.71772003173828 0.8049351572990417
6.483130931854248 -23.835912704467773 0.7610546946525574
8.182994842529297 -22.13603401184082 0.7271102666854858
9.749428749084473 -20.569597244262695 0.7013229131698608
10.869935989379883 -18.503971099853516 0.6611895561218262
4.882812390860636e-06 -25.0135440826416 0.9249159097671509
2.3945324420928955 -26.979427337646484 1.0015292167663574
4.601337909698486 -25.717716217041016 0.9660546779632568
6.483130931854248 -23.835912704467773 0.9133908152580261
8.18299388885498 -22.136037826538086 0.8726524114608765
9.749428749084473 -20.569597244262695 0.8417029976844788
10.869938850402832 -18.503971099853516 0.7935351133346558
-6.103515261202119e-06 -25.01290512084961 1.0792170763015747
2.394536018371582 -26.97942352294922 1.1686409711837769
4.601335525512695 -25.71772003173828 1.12724769115448
6.483130931854248 -23.835912704467773 1.0657964944839478
8.182997703552246 -22.13603973388672 1.0182609558105469
9.74942684173584 -20.569591522216797 0.9821469187736511
10.869935989379883 -18.503971099853516 0.925943911075592
-3.662109293145477e-06 -25.01227569580078 1.2335987091064453
2.394536018371582 -26.97942352294922 1.3358485698699951
4.601337909698486 -25.717716217041016 1.2885327339172363
6.483132839202881 -23.83591079711914 1.2182891368865967
8.18299388885498 -22.136037826538086 1.1639517545700073
9.749428749084473 -20.569597244262695 1.122671127319336
10.869935989379883 -18.503971099853516 1.0584255456924438
-4.882812390860636e-06 -25.011640548706055 1.388060212135315
2.3945300579071045 -26.979427337646484 1.503151535987854
4.601335525512695 -25.71772003173828 1.4499093294143677
6.483130931854248 -23.835912704467773 1.3708683252334595
8.18299388885498 -22.136037826538086 1.3097256422042847
9.749428749084473 -20.569597244262695 1.2632752656936646
10.869935989379883 -18.503971099853516 1.1909843683242798
1.220703097715159e-06 -24.916873931884766 1.5368151664733887
2.394536018371582 -26.97942352294922 1.6705715656280518
4.601334095001221 -25.71772003173828 1.61139976978302
6.483130931854248 -23.835912704467773 1.5235552787780762
8.182991981506348 -22.13603973388672 1.4556026458740234
9.74942684173584 -20.569599151611328 1.4039785861968994
10.869935989379883 -18.503971099853516 1.3236348628997803
-1.220703097715159e-06 -24.88860321044922 1.6890294551849365
2.39453125 -26.979427337646484 1.8381179571151733
4.601335525512695 -25.71772003173828 1.7730093002319336
6.483130931854248 -23.835912704467773 1.6763546466827393
8.18299388885498 -22.136037826538086 1.6015868186950684
9.749428749084473 -20.569597244262695 1.5447851419448853
10.869935989379883 -18.503971099853516 1.4563857316970825
3.662109293145477e-06 -24.86038589477539 1.8410279750823975
2.394536018371582 -26.97942352294922 2.0058069229125977
4.601337909698486 -25.717716217041016 1.9347610473632812
6.483130931854248 -23.835912704467773 1.8292888402938843
8.182994842529297 -22.13603401184082 1.7476997375488281
9.74942684173584 -20.569591522216797 1.685715913772583
10.869935989379883 -18.503971099853516 1.5892504453659058
-2.441406195430318e-06 -24.832189559936523 1.9928125143051147
2.3945348262786865 -26.97942352294922 2.173645257949829
4.601338863372803 -25.717714309692383 2.0966503620147705
6.483132839202881 -23.83591079711914 1.98235285282135
8.18299388885498 -22.136037826538086 1.8939369916915894
9.749428749084473 -20.569597244262695 1.8267669677734375
10.869938850402832 -18.503971099853516 1.722229242324829
2.441406195430318e-06 -24.79522705078125 2.1436498165130615
2.283689022064209 -25.730485916137695 2.2332515716552734
4.526019096374512 -25.296743392944336 2.2217366695404053
6.483130931854248 -23.835912704467773 2.13557767868042
8.182991981506348 -22.13603973388672 2.040328025817871
9.749428749084473 -20.569597244262695 1.9679659605026245
10.869935989379883 -18.503971099853516 1.8553475141525269
-1.220703097715159e-06 -24.134584426879883 2.2363972663879395
2.1254734992980957 -23.947851181030273 2.2278175354003906
4.207269668579102 -23.51516342163086 2.2136011123657227
6.227550029754639 -22.896215438842773 2.1987242698669434
8.143898963928223 -22.030263900756836 2.176422595977783
9.749428749084473 -20.569597244262695 2.1093125343322754
10.869935989379883 -18.503971099853516 1.98860502243042
9.765624781721272e-06 -22.56148910522461 2.230879783630371
1.984631896018982 -22.361061096191406 2.219754457473755
3.930168390274048 -21.966398239135742 2.206528663635254
5.811368942260742 -21.36607551574707 2.1894304752349854
7.604809284210205 -20.571943283081055 2.1686930656433105
9.287715911865234 -19.595460891723633 2.144223928451538
10.836265563964844 -18.446643829345703 2.1154415607452393
0.0 -21.462812423706055 2.255826473236084
1.8611297607421875 -20.969518661499023 2.2126448154449463
3.6865649223327637 -20.604848861694336 2.2000415325164795
5.446910858154297 -20.02610969543457 2.1812918186187744
7.1355109214782715 -19.302444458007812 2.162946939468384
8.705644607543945 -18.367382049560547 2.1363508701324463
10.165701866149902 -17.30513572692871 2.1094489097595215
0.0 -21.356117248535156 2.377711057662964
1.7524511814117432 -19.74446678161621 2.206921339035034
3.4674017429351807 -19.379940032958984 2.191953659057617
5.125321388244629 -18.843774795532227 2.174215316772461
6.709228515625 -18.149301528930664 2.1543238162994385
8.191577911376953 -17.282793045043945 2.1293978691101074
9.572535514831543 -16.295392990112305 2.1041481494903564
0.0 -20.157426834106445 2.370051145553589
1.7485027313232422 -19.700485229492188 2.325430393218994
3.272589683532715 -18.29109764099121 2.1847641468048096
4.839564323425293 -17.793142318725586 2.16806960105896
6.332413673400879 -17.129974365234375 2.1473050117492676
7.735343933105469 -16.320220947265625 2.123512029647827
9.044440269470215 -15.396418571472168 2.0995078086853027
2.441406195430318e-06 -19.078670501708984 2.3624467849731445
1.6809368133544922 -18.939149856567383 2.35438871383667
3.256964683532715 -18.203763961791992 2.289904832839966
4.598186016082764 -16.905738830566406 2.1694295406341553
5.995643138885498 -16.21896743774414 2.141171455383301
7.328282356262207 -15.461383819580078 2.11869478225708
8.57185173034668 -14.591912269592285 2.0955634117126465
3.0517576306010596e-06 -18.108057022094727 2.355604887008667
1.5956908464431763 -17.978740692138672 2.347977638244629
3.1585404872894287 -17.653606414794922 2.3329548835754395
4.590134143829346 -16.876113891601562 2.2751011848449707
5.800644397735596 -15.691452026367188 2.1762473583221436
6.961362361907959 -14.687252044677734 2.1143524646759033
8.143584251403809 -13.862873077392578 2.091503858566284
5.4931638260313775e-06 -17.230091094970703 2.3494157791137695
1.5183428525924683 -17.107240676879883 2.3418338298797607
3.0060412883758545 -16.801300048828125 2.327327251434326
4.449600696563721 -16.359411239624023 2.3117339611053467
5.793426990509033 -15.671945571899414 2.2782928943634033
6.908999443054199 -14.576793670654297 2.199582815170288
7.956276893615723 -13.544017791748047 2.1418769359588623
2.441406195430318e-06 -16.432065963745117 2.3437905311584473
1.447886347770691 -16.31340980529785 2.336013078689575
2.867377758026123 -16.02627182006836 2.3222098350524902
4.242804050445557 -15.599108695983887 2.305814743041992
5.556031227111816 -15.029767990112305 2.285564661026001
6.800815105438232 -14.348522186279297 2.264852523803711
7.946966171264648 -13.528173446655273 2.2378995418548584
6.103515488575795e-07 -15.703441619873047 2.3386545181274414
1.3835723400115967 -15.58876895904541 2.3306992053985596
2.740723133087158 -15.318395614624023 2.317535877227783
4.054066181182861 -14.905179023742676 2.300412654876709
5.310948371887207 -14.36678409576416 2.2811009883880615
6.503416538238525 -13.7210693359375 2.261333465576172
7.612676620483398 -12.959113121032715 2.238313913345337
-1.8310546465727384e-06 -15.035533905029297 2.3339462280273438
1.324617862701416 -14.924577713012695 2.325828790664673
2.624586820602417 -14.669269561767578 2.3132495880126953
3.881089448928833 -14.2692232131958 2.295461416244507
5.086169719696045 -13.758724212646484 2.2770068645477295
6.228264808654785 -13.140544891357422 2.2573111057281494
7.287794589996338 -12.406058311462402 2.2334702014923096
6.713867151120212e-06 -14.420998573303223 2.3296141624450684
1.2703924179077148 -14.31356143951416 2.321348190307617
2.5162248611450195 -14.063647270202637 2.3079640865325928
3.721980094909668 -13.684240341186523 2.290907144546509
4.879275798797607 -13.19903564453125 2.2732386589050293
5.970250606536865 -12.596193313598633 2.2518227100372314
6.988946914672852 -11.897326469421387 2.2290148735046387
-1.220703097715159e-06 -13.85287094116211 2.325485944747925
1.2203277349472046 -13.74953556060791 2.3172123432159424
2.4162378311157227 -13.504789352416992 2.3030526638031006
3.575124502182007 -13.144318580627441 2.2867038249969482
4.684610843658447 -12.672403335571289 2.2680232524871826
5.732320308685303 -12.094196319580078 2.2467610836029053
6.71312952041626 -11.427801132202148 2.224902868270874
7.324218586290954e-06 -13.326260566711426 2.32157564163208
1.1739764213562012 -13.227240562438965 2.313382387161255
2.3237078189849854 -12.987611770629883 2.2985076904296875
3.438041925430298 -12.640311241149902 2.282076597213745
4.503056049346924 -12.181330680847168 2.262474298477173
5.512187480926514 -11.629740715026855 2.2420783042907715
6.459665775299072 -10.996325492858887 2.221756935119629
4.272460955689894e-06 -12.836820602416992 2.3178718090057373
1.130353331565857 -12.73576831817627 2.308666706085205
2.237543821334839 -12.50599193572998 2.2939953804016113
3.308448076248169 -12.163837432861328 2.276148796081543
4.334721565246582 -11.725954055786133 2.2573282718658447
5.291071891784668 -11.163236618041992 2.2306339740753174
6.226818084716797 -10.599950790405273 2.2197837829589844
3.0517576306010596e-06 -12.381227493286133 2.3144519329071045
1.0895568132400513 -12.27603816986084 2.3038077354431152
2.1554739475250244 -12.047298431396484 2.287790536880493
3.1880085468292236 -11.72103500366211 2.2706398963928223
4.179783344268799 -11.306830406188965 2.253406286239624
5.10522985458374 -10.771143913269043 2.2281880378723145
6.00971794128418 -10.230374336242676 2.217944383621216
-1.8310546465727384e-06 -11.962224960327148 2.3124780654907227
1.0509942770004272 -11.841619491577148 2.2981619834899902
2.079888343811035 -11.624862670898438 2.282946825027466
3.0664143562316895 -11.273995399475098 2.258610248565674
4.036466598510742 -10.91914176940918 2.2504444122314453
4.944308757781982 -10.431628227233887 2.231637716293335
5.806787014007568 -9.884931564331055 2.2162249088287354
1.8310546465727384e-06 -11.55416488647461 2.307516098022461
1.0153595209121704 -11.440092086791992 2.293715238571167
2.009812831878662 -11.233206748962402 2.279041290283203
2.9747979640960693 -10.937143325805664 2.263643503189087
3.888606548309326 -10.519173622131348 2.2397634983062744
4.785149097442627 -10.095826148986816 2.2312798500061035
5.6166815757751465 -9.561306953430176 2.214614152908325
5.4931638260313775e-06 -11.17211627960205 2.302870512008667
0.9819756746292114 -11.064003944396973 2.289550304412842
1.944150686264038 -10.866201400756836 2.275381565093994
2.8782460689544678 -10.582148551940918 2.260507345199585
3.7765450477600098 -10.216024398803711 2.245072841644287
4.616466045379639 -9.739938735961914 2.2217557430267334
5.438199520111084 -9.257478713989258 2.213101863861084
2.441406195430318e-06 -10.813650131225586 2.2985117435455322
0.9506466388702393 -10.710994720458984 2.2856409549713135
1.8824948072433472 -10.521589279174805 2.271944999694824
2.7875380516052246 -10.248661041259766 2.257561206817627
3.658315420150757 -9.896206855773926 2.242629289627075
4.4879679679870605 -9.46882438659668 2.2272891998291016
5.270301818847656 -8.971661567687988 2.211679220199585
4.272460955689894e-06 -10.476618766784668 2.2944135665893555
0.9211816191673279 -10.378965377807617 2.28196382522583
1.8244744539260864 -10.197322845458984 2.2687113285064697
2.702155113220215 -9.934749603271484 2.2547881603240967
3.546987533569336 -9.595037460327148 2.240328550338745
4.352274417877197 -9.182574272155762 2.2254674434661865
5.112057209014893 -8.702279090881348 2.210338592529297
9.155273232863692e-07 -10.1591215133667 2.290553092956543
0.8934066295623779 -10.066085815429688 2.278498888015747
1.7697842121124268 -9.891651153564453 2.2656631469726562
2.621641159057617 -9.638723373413086 2.2521729469299316
3.4419450759887695 -9.310908317565918 2.2381577491760254
4.2242536544799805 -8.912420272827148 2.223747968673706
4.96265172958374 -8.44795036315918 2.2090725898742676
1.220703097715159e-06 -9.859512329101562 2.286910057067871
0.8671963214874268 -9.770736694335938 2.275228261947632
1.7181377410888672 -9.603002548217773 2.262784719467163
2.545581817626953 -9.359087944030762 2.2497026920318604
3.342698335647583 -9.042418479919434 2.2361066341400146
4.103194236755371 -8.657013893127441 2.2221224308013916
4.821347713470459 -8.207403182983398 2.2078752517700195
1.220703097715159e-06 -9.576269149780273 2.28346586227417
0.8424081206321716 -9.49144172668457 2.272135019302368
1.6692965030670166 -9.329965591430664 2.2600619792938232
2.473606586456299 -9.094470024108887 2.2473649978637695
3.2487051486968994 -8.788250923156738 2.2341651916503906
3.988567352294922 -8.415166854858398 2.220583200454712
4.687496662139893 -7.979558944702148 2.2067410945892334
2.593994167909841e-06 -1.4819375276565552 0.3630297780036926
0.8189315795898438 -9.226910591125488 2.2692055702209473
1.6171627044677734 -9.038627624511719 2.249357223510742
2.4053988456726074 -8.8436918258667 2.2451493740081787
3.159667491912842 -8.547295570373535 2.2323241233825684
3.8798601627349854 -8.185809135437012 2.219123601913452
4.560514450073242 -7.763387203216553 2.205665111541748
9.155273232863692e-07 -1.4437114000320435 0.363107293844223
0.7966549396514893 -8.975990295410156 2.2664268016815186
1.5734450817108154 -8.79427433013916 2.246968984603882
2.340663433074951 -8.605683326721191 2.243046998977661
3.075106382369995 -8.318548202514648 2.230576515197754
3.7766172885894775 -7.96798849105835 2.2177369594573975
4.439871788024902 -7.558022499084473 2.2046430110931396
-2.593994167909841e-06 -1.407296061515808 0.3631809949874878
0.7755075097084045 -8.737648963928223 2.263787269592285
1.5373910665512085 -8.592620849609375 2.252708911895752
2.271270513534546 -8.350567817687988 2.2333197593688965
2.9947094917297363 -8.101062774658203 2.228914737701416
3.678424596786499 -7.760833740234375 2.216418504714966
4.325109958648682 -7.362658500671387 2.2036705017089844
9.155273232863692e-07 -1.372572660446167 0.3632514774799347
0.1214347779750824 -1.3681843280792236 0.36351272463798523
1.4976683855056763 -8.370720863342285 2.2504963874816895
2.2129547595977783 -8.136150360107422 2.2314634323120117
2.918159008026123 -7.8940043449401855 2.2273330688476562
3.5849215984344482 -7.563560485839844 2.215162992477417
4.2157883644104 -7.17655611038208 2.2027440071105957
2.670288040462765e-06 -1.3394114971160889 0.36331862211227417
0.11849658936262131 -1.3351043462753296 0.36357375979423523
1.4598424434661865 -8.15932559967041 2.2483885288238525
2.1573753356933594 -7.931819438934326 2.229694366455078
2.835793972015381 -7.671187400817871 2.218459367752075
3.4957737922668457 -7.375472068786621 2.213965892791748
4.11152458190918 -6.999074459075928 2.2018606662750244
-2.5177000679832418e-06 -1.3077071905136108 0.363383024930954
0.11568782478570938 -1.3034828901290894 0.36363205313682556
0.23064102232456207 -1.2890992164611816 0.36389997601509094
2.1115307807922363 -7.763253211975098 2.235605001449585
2.7755932807922363 -7.508318901062012 2.224386215209961
3.410684108734131 -7.195942401885986 2.2128231525421143
4.011970520019531 -6.829604148864746 2.201017141342163
-7.629394076502649e-07 -1.2773772478103638 0.36344435811042786
0.1130051389336586 -1.273227334022522 0.36368757486343384
0.22528423368930817 -1.2591559886932373 0.36394956707954407
2.0606765747070312 -7.576287746429443 2.2339532375335693
2.7090728282928467 -7.328373908996582 2.2230114936828613
3.329355478286743 -7.024356365203857 2.21173095703125
3.9168009757995605 -6.66759729385376 2.2002108097076416
9.91821252682712e-07 -1.2483179569244385 0.36350324749946594
0.11043113470077515 -1.244243860244751 0.3637409806251526
0.22015529870986938 -1.2304763793945312 0.36399704217910767
2.0120561122894287 -7.397508144378662 2.2323739528656006
2.6454503536224365 -7.15626859664917 2.221696615219116
3.2515580654144287 -6.860204219818115 2.210686206817627
3.82574200630188 -6.512584686279297 2.199439287185669
-2.441406195430318e-06 -1.2204513549804688 0.3635597229003906
0.10796428471803665 -1.2164515256881714 0.3637922704219818
0.21523185074329376 -1.202972412109375 0.3640424907207489
0.32097327709198 -1.1800950765609741 0.364308625459671
2.584531307220459 -6.991479873657227 2.220437526702881
3.1770410537719727 -6.702999114990234 2.2096855640411377
3.7385125160217285 -6.3640875816345215 2.198699951171875
-6.866454782539222e-07 -1.1937122344970703 0.363614022731781
0.10560096800327301 -1.1897848844528198 0.36384138464927673
0.21051025390625 -1.1765785217285156 0.3640861511230469
0.31392809748649597 -1.1541880369186401 0.36434662342071533
2.5261523723602295 -6.833549499511719 2.219231128692627
3.1056153774261475 -6.552300930023193 2.208726406097412
3.654876708984375 -6.221711158752441 2.197991371154785
1.0299681889591739e-06 -1.168022632598877 0.363665908575058
0.10332561284303665 -1.164162516593933 0.363888680934906
0.2059752643108368 -1.1512272357940674 0.3641282618045807
0.3071609139442444 -1.1293010711669922 0.3643830716609955
0.40609025955200195 -1.0985275506973267 0.36465102434158325
3.0370819568634033 -6.407708168029785 2.20780611038208
3.574592113494873 -6.0850510597229 2.1973111629486084
-2.403259259153856e-06 -1.143318772315979 0.3637159764766693
0.101140096783638 -1.1395277976989746 0.36393386125564575
0.20161277055740356 -1.12684965133667 0.36416855454444885
0.3006508946418762 -1.1053723096847534 0.3644178807735443
0.3974793255329132 -1.0752357244491577 0.36468032002449036
0.49135053157806396 -1.0366625785827637 0.3649536073207855
3.497478485107422 -5.953782081604004 2.196657657623291
-2.365112322877394e-06 -1.1195505857467651 0.3637641966342926
0.09903224557638168 -1.11582350730896 0.3639778196811676
0.19741782546043396 -1.103395700454712 0.36420729756355286
0.2943860590457916 -1.0823447704315186 0.3644515872001648
0.3891998529434204 -1.052828073501587 0.36470839381217957
0.48109954595565796 -1.0150386095046997 0.36497604846954346
3.4233391284942627 -5.8275628089904785 2.1960294246673584
-6.484985419774603e-07 -1.096664547920227 0.36381056904792786
0.09701076149940491 -1.0929995775222778 0.36401960253715515
0.19337649643421173 -1.0808100700378418 0.364244669675827
0.2883543074131012 -1.0601751804351807 0.36448395252227783
0.3812173008918762 -1.0312418937683105 0.36473554372787476
0.4712318181991577 -0.9942189455032349 0.3649977147579193
0.5576937198638916 -0.9493687748908997 0.36526837944984436
2.822876012942288e-06 -1.0746054649353027 0.36385542154312134
0.09505309909582138 -1.070995807647705 0.3640601933002472
0.18948188424110413 -1.059044361114502 0.36428070068359375
0.28254860639572144 -1.0388152599334717 0.3645152151584625
0.37353163957595825 -1.010450005531311 0.3647617995738983
0.4617249071598053 -0.9741572141647339 0.3650186061859131
0.5464292764663696 -0.9301944375038147 0.3652839660644531
1.1062621751989354e-06 -1.0533249378204346 0.36389845609664917
0.09317485243082047 -1.0497825145721436 0.36409926414489746
0.18572714924812317 -1.0380504131317139 0.3643154799938202
0.2769432067871094 -1.0182080268859863 0.3645452857017517
0.36611875891685486 -0.990393340587616 0.36478713154792786
0.45255470275878906 -0.9548084139823914 0.3650389015674591
0.5355706810951233 -0.9117053747177124 0.3652985990047455
1.1444091114753974e-06 -1.0327885150909424 0.36394011974334717
0.09135356545448303 -1.0292996168136597 0.36413711309432983
0.18209834396839142 -1.0177867412567139 0.3643488883972168
0.2715311646461487 -0.9983189105987549 0.3645744323730469
0.35895973443984985 -0.971035897731781 0.36481139063835144
0.4437037706375122 -0.9361346960067749 0.3650582730770111
0.525088369846344 -0.8938620090484619 0.36531296372413635
2.86102294921875e-06 -1.012954592704773 0.363980233669281
0.08959964662790298 -1.0095226764678955 0.36417341232299805
0.17860084772109985 -0.9982204437255859 0.36438125371932983
0.2663072943687439 -0.9791116714477539 0.3646025061607361
0.35204917192459106 -0.9523414373397827 0.36483505368232727
0.43515321612358093 -0.9180996417999268 0.36507704854011536
0.5149703025817871 -0.8766348958015442 0.36532700061798096
2.86102294921875e-06 -0.9937853813171387 0.3640190064907074
0.08790264278650284 -0.9904069900512695 0.36420881748199463
0.1752137690782547 -0.979303240776062 0.36441269516944885
0.2612629532814026 -0.9605535864830017 0.3646296560764313
0.3453751802444458 -0.934280514717102 0.36485761404037476
0.4268927276134491 -0.9006722569465637 0.3650950491428375
0.5051872134208679 -0.8599843382835388 0.3653404116630554
-5.722045557376987e-07 -0.9752410650253296 0.36405670642852783
0.08626437932252884 -0.9719230532646179 0.3642428517341614
0.17194236814975739 -0.9610162377357483 0.3644428849220276
0.2563757002353668 -0.9425979256629944 0.3646557629108429
0.33891525864601135 -0.9168066382408142 0.3648796081542969
0.4189102053642273 -0.8838232755661011 0.3651127517223358
0.49572688341140747 -0.8438811302185059 0.36535337567329407
1.182556161438697e-06 -0.9572992324829102 0.364093154668808
0.08467269688844681 -0.9540278911590576 0.36427581310272217
0.1687745600938797 -0.9433160424232483 0.3644721806049347
0.2516559064388275 -0.9252344965934753 0.36468109488487244
0.33266937732696533 -0.8999057412147522 0.36490097641944885
0.4111762046813965 -0.8675128817558289 0.365129679441452
0.4865739345550537 -0.8282992243766785 0.3653658926486969
1.1444091114753974e-06 -0.9399254322052002 0.3641282618045807
0.08313976228237152 -0.9367093443870544 0.364307701587677
0.16570861637592316 -0.9261770248413086 0.36450058221817017
0.24708114564418793 -0.9084165096282959 0.3647056519985199
0.3266134262084961 -0.8835331797599792 0.3649214208126068
0.4036943018436432 -0.8517237901687622 0.3651460111141205
0.47771090269088745 -0.8132144808769226 0.36537811160087585
-5.340576194612368e-07 -0.9230919480323792 0.3641624450683594
0.08164474368095398 -0.919918954372406 0.3643385171890259
0.1627393364906311 -0.9095765352249146 0.36452803015708923
0.2426479309797287 -0.8921198844909668 0.36472946405410767
0.32075589895248413 -0.8676802515983582 0.3649415373802185
0.3964471220970154 -0.8364318609237671 0.365162193775177
0.4691309928894043 -0.7986062169075012 0.3653898537158966
-2.2888182229507947e-06 -0.9067694544792175 0.36419540643692017
0.08020500093698502 -0.9036534428596497 0.36436858773231506
0.1598598062992096 -0.8934801816940308 0.3645547330379486
0.23835109174251556 -0.8763222098350525 0.3647526502609253
0.31506940722465515 -0.85230553150177 0.36496078968048096
0.38941577076911926 -0.8216009140014648 0.3651774525642395
0.4608118236064911 -0.7844416499137878 0.3654012978076935
-2.250671286674333e-06 -0.8909424543380737 0.36422744393348694
0.07880493253469467 -0.8878730535507202 0.3643975853919983
0.15706488490104675 -0.8778655529022217 0.36458054184913635
0.23418372869491577 -0.8610028028488159 0.3647749125957489
0.30956241488456726 -0.8374003171920776 0.3649795353412628
0.38260534405708313 -0.80722576379776 0.3651924133300781
0.45274293422698975 -0.7707034945487976 0.3654124438762665
-4.95910626341356e-07 -0.8755831718444824 0.36425870656967163
0.07744117826223373 -0.8725535273551941 0.36442580819129944
0.1543545424938202 -0.8627186417579651 0.36460554599761963
0.23014235496520996 -0.846137285232544 0.3647967576980591
0.3042125105857849 -0.8229319453239441 0.3649977147579193
0.37598663568496704 -0.7932665944099426 0.3652070462703705
0.4449054002761841 -0.7573692202568054 0.3654231131076813
-4.95910626341356e-07 -0.8606677055358887 0.36428892612457275
0.07612396031618118 -0.8576846122741699 0.3644532561302185
0.15172190964221954 -0.8480051159858704 0.36462995409965515
0.2262115180492401 -0.8316999673843384 0.36481794714927673
0.2990196943283081 -0.8088864088058472 0.3650154173374176
0.36956465244293213 -0.779718279838562 0.365221232175827
0.43730780482292175 -0.7444303631782532 0.3654334843158722
1.220703097715159e-06 -0.8461785912513733 0.3643183708190918
0.07483955472707748 -0.8432386517524719 0.36447980999946594
0.14916346967220306 -0.833714485168457 0.364653617143631
0.22240151464939117 -0.8176803588867188 0.36483824253082275
0.2939770817756653 -0.7952432036399841 0.36503249406814575
0.3633309006690979 -0.7665619254112244 0.3652348220348358
0.42992255091667175 -0.7318592071533203 0.36544355750083923
-4.95910626341356e-07 -0.832093358039856 0.36434677243232727
0.07359317690134048 -0.8291966319084167 0.3645056188106537
0.14668269455432892 -0.819829523563385 0.36467665433883667
0.21869508922100067 -0.8040543794631958 0.3648582398891449
0.28906914591789246 -0.7819764018058777 0.36504927277565
0.35726800560951233 -0.7537732720375061 0.36524826288223267
0.42274099588394165 -0.7196367383003235 0.3654536306858063
2.9754637580481358e-06 -0.8184036016464233 0.3643745481967926
0.07238300144672394 -0.8155465722084045 0.3645307719707489
0.14426414668560028 -0.8063244223594666 0.36469894647598267
0.21508876979351044 -0.7907978892326355 0.3648776113986969
0.28430789709091187 -0.7690874934196472 0.36506545543670654
0.3513760268688202 -0.7413384914398193 0.3652610778808594
0.41576486825942993 -0.707761287689209 0.36546310782432556
1.2588500339916209e-06 -0.8050779700279236 0.3644016981124878
0.07120566815137863 -0.8022640943527222 0.36455535888671875
0.14191806316375732 -0.793188750743866 0.3647206127643585
0.21158429980278015 -0.7779091000556946 0.36489638686180115
0.27967098355293274 -0.7565439939498901 0.3650813102722168
0.3456428349018097 -0.7292420268058777 0.36527374386787415
0.408978670835495 -0.6962069272994995 0.3654722571372986
1.2588500339916209e-06 -0.7921097278594971 0.36442795395851135
0.07005935162305832 -0.7893372774124146 0.3645789921283722
0.13962721824645996 -0.7803983688354492 0.36474180221557617
0.2081678956747055 -0.7653602957725525 0.3649146854877472
0.2751566171646118 -0.7443336248397827 0.3650965690612793
0.34005993604660034 -0.7174649834632874 0.36528608202934265
0.40237030386924744 -0.6849581599235535 0.3654814064502716
1.2588500339916209e-06 -0.7794868350028992 0.36445343494415283
0.0689372643828392 -0.7767454385757446 0.36460235714912415
0.13739679753780365 -0.7679480314254761 0.36476242542266846
0.20484645664691925 -0.7531447410583496 0.36493268609046936
0.2707614004611969 -0.732446014881134 0.3651115298271179
0.3346289098262787 -0.7060055136680603 0.36529800295829773
0.3959414064884186 -0.6740131378173828 0.36549025774002075
-4.577636616431846e-07 -0.7671831846237183 0.36447829008102417
0.0678531602025032 -0.7644885182380676 0.36462491750717163
0.13522851467132568 -0.7558223009109497 0.36478254199028015
0.20160958170890808 -0.7412450909614563 0.3649500906467438
0.2664835453033447 -0.7208693027496338 0.36512619256973267
0.3293342590332031 -0.6948379278182983 0.36530959606170654
0.3896765410900116 -0.6633461117744446 0.365498811006546
-2.174377414121409e-06 -0.755197286605835 0.3645026981830597
0.06679145991802216 -0.7525404095649719 0.3646470606327057
0.1331137865781784 -0.7440020442008972 0.3648020923137665
0.1984555721282959 -0.7296493649482727 0.36496686935424805
0.2623109817504883 -0.7095876932144165 0.36514022946357727
0.32417938113212585 -0.6839584708213806 0.3653208911418915
0.38356703519821167 -0.6529518961906433 0.36550718545913696
-4.577636616431846e-07 -0.7435117363929749 0.36452651023864746
0.06575393676757812 -0.7408859729766846 0.36466842889785767
0.13105599582195282 -0.732483983039856 0.3648211658000946
0.19538269937038422 -0.7183453440666199 0.3649834990501404
0.25824373960494995 -0.6985874772071838 0.3651542663574219
0.319152295589447 -0.6733518838882446 0.36533185839653015
0.3776198625564575 -0.6428234577178955 0.3655152916908264
1.2969970839549205e-06 -0.7321162223815918 0.3645493984222412
0.06474921852350235 -0.7295301556587219 0.36468932032585144
0.12903966009616852 -0.7212420701980591 0.3648396134376526
0.19238580763339996 -0.7073243260383606 0.36499953269958496
0.25427836179733276 -0.6878582835197449 0.36516767740249634
0.31424951553344727 -0.6630077362060547 0.3653427064418793
0.37181419134140015 -0.6329401731491089 0.36552321910858154
3.0517576306010596e-06 -0.7209968566894531 0.3645719885826111
0.06376522034406662 -0.7184435725212097 0.3647097647190094
0.12708373367786407 -0.7102850079536438 0.364857941865921
0.18945790827274323 -0.6965658664703369 0.3650154173374176
0.2504148483276367 -0.6774001121520996 0.3651808202266693
0.30946585536003113 -0.6529173254966736 0.36535322666168213
0.36615005135536194 -0.6233020424842834 0.36553114652633667
1.3351440202313825e-06 -0.7101433873176575 0.3645939528942108
0.0628054067492485 -0.7076229453086853 0.36472976207733154
0.12516576051712036 -0.6995800137519836 0.3648756444454193
0.18660259246826172 -0.6860662698745728 0.3650306761264801
0.24663934111595154 -0.667185366153717 0.365193635225296
0.3047926723957062 -0.643061637878418 0.36536359786987305
0.36062583327293396 -0.6138969659805298 0.3655387759208679
-2.136230477844947e-06 -0.6995402574539185 0.36461547017097473
0.061866264790296555 -0.6970577836036682 0.36474913358688354
0.12329616397619247 -0.6891305446624756 0.36489272117614746
0.18381455540657043 -0.6758170127868652 0.36504560708999634
0.2429536134004593 -0.6572123765945435 0.3652063012123108
0.30023688077926636 -0.6334476470947266 0.36537352204322815
0.3552292585372925 -0.6047093868255615 0.36554595828056335
1.2969970839549205e-06 -0.6891925930976868 0.36463654041290283
