ply
format ascii 1.0
element vertex 2177
property float32 x
property float32 y
property float32 z
end_header
-0.7020 0.6028 0.3783
-0.7502 0.5358 0.3769
-0.7919 0.4649 0.3754
-0.8268 0.3907 0.3739
-0.8548 0.3141 0.3723
-0.8755 0.2355 0.3706
-0.8890 0.1557 0.3690
-0.8953 0.0755 0.3673
-0.8944 -0.0047 0.3656
-0.8864 -0.0841 0.3640
-0.8714 -0.1621 0.3624
-0.8498 -0.2382 0.3608
-0.8216 -0.3117 0.3593
-0.7873 -0.3822 0.3578
-0.7471 -0.4492 0.3564
-0.7015 -0.5122 0.3551
-0.6507 -0.5708 0.3539
-0.5953 -0.6246 0.3527
-0.5357 -0.6733 0.3517
-0.4723 -0.7165 0.3508
-0.4055 -0.7541 0.3500
-0.3360 -0.7858 0.3494
-0.2641 -0.8114 0.3488
-0.1905 -0.8308 0.3484
-0.1155 -0.8438 0.3482
-0.0397 -0.8504 0.3480
0.0363 -0.8505 0.3480
0.1121 -0.8442 0.3482
0.1871 -0.8315 0.3484
0.2608 -0.8124 0.3488
0.3328 -0.7870 0.3493
0.4024 -0.7556 0.3500
0.4693 -0.7183 0.3508
0.5329 -0.6753 0.3517
0.5927 -0.6268 0.3527
0.6483 -0.5732 0.3538
0.6992 -0.5149 0.3550
0.7451 -0.4521 0.3563
0.7855 -0.3853 0.3577
0.8201 -0.3149 0.3591
0.8485 -0.2415 0.3607
0.8705 -0.1656 0.3622
0.8857 -0.0876 0.3639
0.8941 -0.0083 0.3655
0.8953 0.0718 0.3672
0.8893 0.1521 0.3689
0.8762 0.2319 0.3705
0.8557 0.3105 0.3721
0.8282 0.3873 0.3737
0.7936 0.4615 0.3753
0.7522 0.5326 0.3768
0.7042 0.5998 0.3782
0.6502 0.6625 0.3795
0.5903 0.7202 0.3807
0.5252 0.7721 0.3818
0.4553 0.8180 0.3827
0.3814 0.8572 0.3835
0.3039 0.8893 0.3842
0.2236 0.9141 0.3847
0.1413 0.9313 0.3851
0.0577 0.9407 0.3853
-0.0265 0.9422 0.3853
-0.1104 0.9357 0.3852
-0.1933 0.9214 0.3849
-0.2744 0.8994 0.3844
-0.3530 0.8700 0.3838
-0.4284 0.8334 0.3831
-0.4999 0.7899 0.3822
-0.5668 0.7402 0.3811
-0.6287 0.6846 0.3800
-0.6850 0.6237 0.3787
-0.7352 0.5581 0.3773
-0.7791 0.4883 0.3759
-0.8162 0.4152 0.3744
-0.8464 0.3393 0.3728
-0.8695 0.2613 0.3712
-0.8854 0.1818 0.3695
-0.8941 0.1016 0.3679
-0.8955 0.0214 0.3662
-0.8898 -0.0584 0.3645
-0.8771 -0.1369 0.3629
-0.8576 -0.2137 0.3613
-0.8315 -0.2881 0.3597
-0.7992 -0.3596 0.3583
-0.7608 -0.4278 0.3568
-0.7169 -0.4921 0.3555
-0.6678 -0.5522 0.3542
-0.6139 -0.6076 0.3531
-0.5556 -0.6580 0.3520
-0.4933 -0.7030 0.3511
-0.4276 -0.7425 0.3503
-0.3589 -0.7761 0.3496
-0.2878 -0.8037 0.3490
-0.2146 -0.8252 0.3486
-0.1400 -0.8403 0.3482
-0.0645 -0.8489 0.3481
0.0115 -0.8512 0.3480
0.0875 -0.8470 0.3481
0.1628 -0.8363 0.3483
0.2370 -0.8193 0.3487
0.3096 -0.7960 0.3491
0.3800 -0.7665 0.3498
0.4478 -0.7311 0.3505
0.5125 -0.6899 0.3513
0.5736 -0.6432 0.3523
0.6307 -0.5912 0.3534
0.6832 -0.5344 0.3546
0.7307 -0.4730 0.3559
0.7730 -0.4075 0.3572
0.8095 -0.3382 0.3587
0.8400 -0.2658 0.3602
0.8641 -0.1906 0.3617
0.8815 -0.1132 0.3633
0.8921 -0.0343 0.3650
0.8957 0.0457 0.3666
0.8921 0.1260 0.3683
0.8812 0.2060 0.3700
0.8632 0.2851 0.3716
0.8379 0.3625 0.3732
0.8056 0.4377 0.3748
0.7664 0.5098 0.3763
0.7206 0.5784 0.3777
0.6684 0.6426 0.3791
0.6104 0.7020 0.3803
0.5470 0.7559 0.3814
0.4786 0.8037 0.3824
0.4059 0.8451 0.3833
0.3295 0.8796 0.3840
0.2500 0.9069 0.3846
0.1683 0.9266 0.3850
0.0850 0.9385 0.3852
0.0009 0.9425 0.3853
-0.0831 0.9387 0.3852
-0.1665 0.9269 0.3850
-0.2482 0.9074 0.3846
-0.3277 0.8804 0.3840
-0.4042 0.8461 0.3833
-0.4770 0.8048 0.3825
-0.5455 0.7571 0.3815
-0.6091 0.7033 0.3804
-0.6673 0.6441 0.3791
-0.7195 0.5799 0.3778
-0.7655 0.5115 0.3764
-0.8049 0.4394 0.3749
-0.8374 0.3643 0.3733
-0.8628 0.2869 0.3717
-0.8810 0.2078 0.3701
-0.8920 0.1278 0.3684
-0.8958 0.0475 0.3667
-0.8924 -0.0325 0.3651
-0.8820 -0.1115 0.3634
-0.8646 -0.1889 0.3618
-0.8407 -0.2641 0.3602
-0.8104 -0.3367 0.3587
-0.7740 -0.4060 0.3573
-0.7318 -0.4716 0.3559
-0.6844 -0.5331 0.3546
-0.6319 -0.5901 0.3535
-0.5750 -0.6421 0.3524
-0.5140 -0.6890 0.3514
-0.4494 -0.7303 0.3505
-0.3816 -0.7658 0.3498
-0.3112 -0.7954 0.3492
-0.2387 -0.8189 0.3487
-0.1645 -0.8360 0.3483
-0.0892 -0.8468 0.3481
-0.0132 -0.8512 0.3480
0.0628 -0.8491 0.3481
0.1383 -0.8405 0.3482
0.2130 -0.8255 0.3485
0.2861 -0.8043 0.3490
0.3573 -0.7768 0.3495
0.4261 -0.7433 0.3502
0.4918 -0.7039 0.3511
0.5541 -0.6590 0.3520
0.6125 -0.6087 0.3530
0.6666 -0.5534 0.3542
0.7158 -0.4935 0.3554
0.7598 -0.4292 0.3568
0.7982 -0.3612 0.3582
0.8307 -0.2897 0.3597
0.8569 -0.2153 0.3612
0.8766 -0.1386 0.3628
0.8894 -0.0601 0.3644
0.8953 0.0196 0.3661
0.8940 0.0998 0.3678
0.8856 0.1800 0.3694
0.8699 0.2594 0.3711
0.8469 0.3375 0.3727
0.8169 0.4135 0.3743
0.7799 0.4867 0.3758
0.7362 0.5565 0.3773
0.6861 0.6222 0.3786
0.6299 0.6832 0.3799
0.5682 0.7389 0.3811
0.5014 0.7888 0.3821
0.4300 0.8324 0.3830
0.3547 0.8692 0.3838
0.2762 0.8988 0.3844
0.1951 0.9210 0.3849
0.1123 0.9355 0.3852
0.0284 0.9421 0.3853
-0.0558 0.9408 0.3853
-0.1394 0.9316 0.3851
-0.2218 0.9146 0.3847
-0.3021 0.8900 0.3842
-0.3797 0.8580 0.3836
-0.4538 0.8190 0.3828
-0.5237 0.7733 0.3818
-0.5890 0.7215 0.3807
-0.6489 0.6639 0.3795
-0.7032 0.6013 0.3782
-0.7512 0.5342 0.3769
-0.7928 0.4632 0.3754
-0.8276 0.3890 0.3738
-0.8553 0.3123 0.3722
-0.8759 0.2337 0.3706
-0.8893 0.1539 0.3689
-0.8954 0.0736 0.3673
-0.8943 -0.0065 0.3656
-0.8861 -0.0859 0.3640
-0.8710 -0.1639 0.3623
-0.8492 -0.2399 0.3608
-0.8209 -0.3134 0.3592
-0.7865 -0.3838 0.3578
-0.7462 -0.4507 0.3564
-0.7004 -0.5136 0.3551
-0.6495 -0.5720 0.3538
-0.5940 -0.6257 0.3527
-0.5343 -0.6743 0.3517
-0.4708 -0.7174 0.3508
-0.4040 -0.7549 0.3500
-0.3344 -0.7864 0.3494
-0.2625 -0.8119 0.3488
-0.1888 -0.8311 0.3484
-0.1138 -0.8440 0.3482
-0.0380 -0.8505 0.3480
0.0380 -0.8505 0.3480
0.1138 -0.8440 0.3482
0.1888 -0.8311 0.3484
0.2625 -0.8119 0.3488
0.3344 -0.7864 0.3493
0.4040 -0.7548 0.3500
0.4708 -0.7174 0.3508
0.5342 -0.6742 0.3517
0.5940 -0.6257 0.3527
0.6495 -0.5720 0.3538
0.7003 -0.5135 0.3550
0.7461 -0.4506 0.3563
0.7864 -0.3837 0.3577
0.8208 -0.3133 0.3592
0.8491 -0.2399 0.3607
0.8709 -0.1639 0.3623
0.8860 -0.0859 0.3639
0.8942 -0.0065 0.3656
0.8952 0.0736 0.3672
0.8891 0.1539 0.3689
0.8758 0.2337 0.3705
0.8552 0.3123 0.3722
0.8274 0.3890 0.3738
0.7927 0.4632 0.3753
0.7512 0.5341 0.3768
0.7031 0.6013 0.3782
0.6489 0.6639 0.3795
0.5889 0.7214 0.3807
0.5237 0.7732 0.3818
0.4537 0.8189 0.3827
0.3797 0.8580 0.3836
0.3021 0.8900 0.3842
0.2218 0.9146 0.3847
0.1394 0.9316 0.3851
0.0558 0.9408 0.3853
-0.0284 0.9421 0.3853
-0.1123 0.9355 0.3852
-0.1952 0.9210 0.3849
-0.2762 0.8989 0.3844
-0.3548 0.8692 0.3838
-0.4300 0.8325 0.3830
-0.5014 0.7889 0.3821
-0.5683 0.7390 0.3811
-0.6300 0.6833 0.3799
-0.6862 0.6223 0.3787
-0.7363 0.5565 0.3773
-0.7800 0.4867 0.3759
-0.8170 0.4135 0.3743
-0.8470 0.3375 0.3728
-0.8700 0.2595 0.3711
-0.8857 0.1800 0.3695
-0.8942 0.0998 0.3678
-0.8954 0.0196 0.3661
-0.8896 -0.0601 0.3645
-0.8767 -0.1387 0.3629
-0.8570 -0.2154 0.3613
-0.8308 -0.2897 0.3597
-0.7983 -0.3612 0.3582
-0.7599 -0.4293 0.3568
-0.7159 -0.4935 0.3555
-0.6667 -0.5535 0.3542
-0.6126 -0.6088 0.3531
-0.5542 -0.6590 0.3520
-0.4919 -0.7040 0.3511
-0.4261 -0.7433 0.3503
-0.3574 -0.7768 0.3496
-0.2862 -0.8043 0.3490
-0.2130 -0.8256 0.3485
-0.1383 -0.8405 0.3482
-0.0628 -0.8491 0.3481
0.0132 -0.8512 0.3480
0.0892 -0.8468 0.3481
0.1645 -0.8360 0.3483
0.2386 -0.8188 0.3487
0.3112 -0.7954 0.3492
0.3816 -0.7658 0.3498
0.4493 -0.7302 0.3505
0.5140 -0.6889 0.3514
0.5750 -0.6421 0.3523
0.6319 -0.5900 0.3534
0.6843 -0.5331 0.3546
0.7318 -0.4716 0.3559
0.7739 -0.4059 0.3572
0.8103 -0.3366 0.3587
0.8406 -0.2641 0.3602
0.8645 -0.1889 0.3618
0.8818 -0.1115 0.3634
0.8923 -0.0325 0.3650
0.8957 0.0475 0.3667
0.8919 0.1278 0.3683
0.8809 0.2078 0.3700
0.8627 0.2868 0.3717
0.8373 0.3642 0.3733
0.8048 0.4393 0.3748
0.7654 0.5114 0.3763
0.7195 0.5798 0.3778
0.6672 0.6440 0.3791
0.6091 0.7032 0.3803
0.5455 0.7570 0.3814
0.4770 0.8047 0.3824
0.4042 0.8460 0.3833
0.3277 0.8803 0.3840
0.2482 0.9074 0.3846
0.1665 0.9269 0.3850
0.0831 0.9387 0.3852
-0.0009 0.9425 0.3853
-0.0850 0.9385 0.3852
-0.1683 0.9266 0.3850
-0.2501 0.9069 0.3846
-0.3295 0.8797 0.3840
-0.4059 0.8452 0.3833
-0.4786 0.8038 0.3825
-0.5470 0.7559 0.3815
-0.6105 0.7020 0.3803
-0.6685 0.6427 0.3791
-0.7206 0.5784 0.3778
-0.7665 0.5099 0.3763
-0.8057 0.4377 0.3748
-0.8380 0.3626 0.3733
-0.8633 0.2851 0.3717
-0.8814 0.2060 0.3700
-0.8922 0.1260 0.3684
-0.8958 0.0457 0.3667
-0.8922 -0.0343 0.3650
-0.8816 -0.1132 0.3634
-0.8642 -0.1906 0.3618
-0.8401 -0.2658 0.3602
-0.8096 -0.3383 0.3587
-0.7731 -0.4075 0.3573
-0.7308 -0.4730 0.3559
-0.6832 -0.5344 0.3546
-0.6307 -0.5913 0.3534
-0.5737 -0.6432 0.3524
-0.5126 -0.6899 0.3514
-0.4479 -0.7311 0.3505
-0.3801 -0.7666 0.3498
-0.3096 -0.7960 0.3492
-0.2370 -0.8193 0.3487
-0.1628 -0.8363 0.3483
-0.0875 -0.8470 0.3481
-0.0115 -0.8512 0.3480
0.0645 -0.8489 0.3481
0.1400 -0.8402 0.3482
0.2146 -0.8251 0.3485
0.2878 -0.8037 0.3490
0.3589 -0.7761 0.3496
0.4276 -0.7425 0.3503
0.4933 -0.7030 0.3511
0.5555 -0.6579 0.3520
0.6138 -0.6075 0.3531
0.6677 -0.5521 0.3542
0.7169 -0.4921 0.3555
0.7608 -0.4278 0.3568
0.7990 -0.3596 0.3582
0.8314 -0.2881 0.3597
0.8574 -0.2136 0.3612
0.8769 -0.1369 0.3628
0.8896 -0.0584 0.3645
0.8954 0.0213 0.3661
0.8939 0.1016 0.3678
0.8853 0.1818 0.3695
0.8694 0.2612 0.3711
0.8463 0.3392 0.3727
0.8161 0.4151 0.3743
0.7790 0.4883 0.3758
0.7351 0.5580 0.3773
0.6849 0.6236 0.3787
0.6286 0.6845 0.3799
0.5668 0.7401 0.3811
0.4998 0.7899 0.3821
0.4284 0.8333 0.3830
0.3530 0.8699 0.3838
0.2744 0.8994 0.3844
0.1933 0.9214 0.3849
0.1104 0.9357 0.3852
0.0265 0.9421 0.3853
-0.0577 0.9407 0.3853
-0.1413 0.9313 0.3851
-0.2236 0.9142 0.3847
-0.3039 0.8894 0.3842
-0.3814 0.8572 0.3836
-0.4554 0.8180 0.3827
-0.5252 0.7722 0.3818
-0.5904 0.7202 0.3807
-0.6502 0.6626 0.3795
-0.7043 0.5999 0.3782
-0.7523 0.5327 0.3768
-0.7937 0.4616 0.3753
-0.8283 0.3873 0.3738
-0.8558 0.3106 0.3722
-0.8763 0.2319 0.3706
-0.8895 0.1521 0.3689
-0.8954 0.0718 0.3672
-0.8942 -0.0083 0.3656
-0.8859 -0.0877 0.3639
-0.8706 -0.1656 0.3623
-0.8486 -0.2416 0.3607
-0.8202 -0.3150 0.3592
-0.7856 -0.3853 0.3577
-0.7452 -0.4521 0.3563
-0.6993 -0.5149 0.3550
-0.6484 -0.5733 0.3538
-0.5927 -0.6269 0.3527
-0.5329 -0.6753 0.3517
-0.4693 -0.7183 0.3508
-0.4025 -0.7557 0.3500
-0.3328 -0.7871 0.3494
-0.2609 -0.8124 0.3488
-0.1871 -0.8315 0.3484
-0.1121 -0.8442 0.3482
-0.0363 -0.8505 0.3480
0.0397 -0.8504 0.3480
0.1155 -0.8438 0.3482
0.1905 -0.8307 0.3484
0.2641 -0.8114 0.3488
0.3360 -0.7858 0.3494
0.4055 -0.7541 0.3500
0.4722 -0.7165 0.3508
0.5356 -0.6732 0.3517
0.5953 -0.6245 0.3527
0.6507 -0.5707 0.3538
0.7014 -0.5121 0.3550
0.7470 -0.4492 0.3563
0.7872 -0.3822 0.3577
0.8215 -0.3117 0.3592
0.8496 -0.2382 0.3607
0.8713 -0.1621 0.3623
0.8863 -0.0841 0.3639
0.8943 -0.0047 0.3656
0.8952 0.0754 0.3673
0.8889 0.1557 0.3689
0.8754 0.2355 0.3706
0.8546 0.3140 0.3722
0.8267 0.3907 0.3738
0.7918 0.4648 0.3754
0.7501 0.5357 0.3768
0.7019 0.6027 0.3782
0.6476 0.6652 0.3795
0.5875 0.7226 0.3807
0.5222 0.7743 0.3818
0.4521 0.8199 0.3828
0.3779 0.8588 0.3836
0.3003 0.8906 0.3842
0.8554 0.2514 0.3709
0.8331 0.3281 0.3725
0.8039 0.4028 0.3741
0.7678 0.4749 0.3756
0.7251 0.5435 0.3770
0.6761 0.6082 0.3783
0.6212 0.6683 0.3796
0.5608 0.7233 0.3807
0.4954 0.7725 0.3818
0.4255 0.8155 0.3827
0.3517 0.8519 0.3834
0.2747 0.8813 0.3840
0.1952 0.9034 0.3845
0.1139 0.9179 0.3848
0.0316 0.9248 0.3850
-0.0511 0.9239 0.3849
-0.1332 0.9152 0.3848
-0.2142 0.8989 0.3844
-0.2931 0.8751 0.3839
-0.3694 0.8440 0.3833
-0.4423 0.8060 0.3825
-0.5113 0.7615 0.3816
-0.5756 0.7109 0.3805
-0.6348 0.6547 0.3794
-0.6883 0.5934 0.3781
-0.7359 0.5277 0.3767
-0.7770 0.4582 0.3753
-0.8115 0.3855 0.3738
-0.8391 0.3102 0.3722
-0.8598 0.2331 0.3706
-0.8733 0.1548 0.3690
-0.8797 0.0759 0.3673
-0.8790 -0.0029 0.3657
-0.8714 -0.0809 0.3641
-0.8569 -0.1577 0.3625
-0.8358 -0.2325 0.3609
-0.8083 -0.3048 0.3594
-0.7748 -0.3742 0.3580
-0.7355 -0.4402 0.3566
-0.6907 -0.5022 0.3553
-0.6410 -0.5600 0.3541
-0.5866 -0.6130 0.3530
-0.5281 -0.6610 0.3520
-0.4658 -0.7037 0.3511
-0.4003 -0.7408 0.3503
-0.3320 -0.7722 0.3497
-0.2614 -0.7975 0.3491
-0.1890 -0.8167 0.3487
-0.1152 -0.8296 0.3485
-0.0408 -0.8363 0.3483
0.0340 -0.8366 0.3483
0.1086 -0.8305 0.3484
0.1824 -0.8181 0.3487
0.2549 -0.7994 0.3491
0.3257 -0.7746 0.3496
0.3943 -0.7438 0.3502
0.4600 -0.7072 0.3510
0.5226 -0.6650 0.3519
0.5815 -0.6175 0.3529
0.6362 -0.5649 0.3539
0.6864 -0.5075 0.3551
0.7316 -0.4459 0.3564
0.7714 -0.3803 0.3578
0.8054 -0.3112 0.3592
0.8335 -0.2391 0.3607
0.8551 -0.1644 0.3623
0.8702 -0.0879 0.3639
0.8785 -0.0099 0.3655
0.8798 0.0688 0.3671
0.8740 0.1477 0.3688
0.8611 0.2261 0.3704
0.8412 0.3033 0.3720
0.8142 0.3788 0.3736
0.7803 0.4517 0.3751
0.7397 0.5216 0.3765
0.6928 0.5876 0.3779
0.6397 0.6493 0.3792
0.5811 0.7060 0.3804
0.5172 0.7571 0.3814
0.4487 0.8022 0.3824
0.3761 0.8408 0.3832
0.3001 0.8725 0.3839
0.2214 0.8970 0.3844
0.1406 0.9140 0.3847
0.0585 0.9234 0.3849
-0.0241 0.9250 0.3850
-0.1065 0.9189 0.3848
-0.1880 0.9050 0.3845
-0.2677 0.8836 0.3841
-0.3449 0.8549 0.3835
-0.4190 0.8191 0.3828
-0.4893 0.7767 0.3819
-0.5552 0.7280 0.3809
-0.6161 0.6736 0.3797
-0.6715 0.6139 0.3785
-0.7210 0.5496 0.3772
-0.7643 0.4812 0.3757
-0.8010 0.4095 0.3743
-0.8309 0.3350 0.3727
-0.8538 0.2584 0.3711
-0.8697 0.1804 0.3695
-0.8784 0.1016 0.3679
-0.8800 0.0228 0.3662
-0.8746 -0.0556 0.3646
-0.8623 -0.1328 0.3630
-0.8434 -0.2083 0.3614
-0.8180 -0.2816 0.3599
-0.7864 -0.3520 0.3584
-0.7489 -0.4191 0.3570
-0.7059 -0.4825 0.3557
-0.6577 -0.5416 0.3545
-0.6048 -0.5962 0.3533
-0.5476 -0.6459 0.3523
-0.4865 -0.6904 0.3514
-0.4220 -0.7294 0.3506
-0.3545 -0.7626 0.3499
-0.2846 -0.7899 0.3493
-0.2127 -0.8111 0.3488
-0.1394 -0.8261 0.3485
-0.0651 -0.8348 0.3484
0.0097 -0.8372 0.3483
0.0843 -0.8332 0.3484
0.1584 -0.8228 0.3486
0.2314 -0.8062 0.3489
0.3029 -0.7834 0.3494
0.3722 -0.7545 0.3500
0.4389 -0.7198 0.3507
0.5026 -0.6794 0.3516
0.5627 -0.6335 0.3525
0.6189 -0.5825 0.3536
0.6706 -0.5267 0.3547
0.7174 -0.4664 0.3560
0.7590 -0.4021 0.3573
0.7950 -0.3340 0.3587
0.8250 -0.2629 0.3602
0.8488 -0.1890 0.3618
0.8660 -0.1130 0.3633
0.8765 -0.0354 0.3650
0.8801 0.0431 0.3666
0.8767 0.1220 0.3682
0.8661 0.2006 0.3699
0.8485 0.2783 0.3715
0.8237 0.3544 0.3731
0.7921 0.4283 0.3746
0.7537 0.4992 0.3761
0.7088 0.5665 0.3775
0.6577 0.6297 0.3788
0.6008 0.6881 0.3800
0.5385 0.7411 0.3811
0.4715 0.7882 0.3821
0.4002 0.8290 0.3829
0.3252 0.8630 0.3837
0.2473 0.8898 0.3842
0.1671 0.9093 0.3846
0.0853 0.9212 0.3849
0.0028 0.9254 0.3850
-0.0798 0.9217 0.3849
-0.1616 0.9104 0.3847
-0.2419 0.8914 0.3843
-0.3200 0.8651 0.3837
-0.3952 0.8315 0.3830
-0.4668 0.7912 0.3822
-0.5342 0.7445 0.3812
-0.5968 0.6919 0.3801
-0.6541 0.6339 0.3789
-0.7056 0.5710 0.3776
-0.7509 0.5039 0.3762
-0.7898 0.4332 0.3748
-0.8219 0.3595 0.3732
-0.8471 0.2835 0.3716
-0.8653 0.2059 0.3700
-0.8763 0.1273 0.3684
-0.8802 0.0484 0.3667
-0.8771 -0.0302 0.3651
-0.8671 -0.1078 0.3635
-0.8503 -0.1840 0.3619
-0.8269 -0.2580 0.3604
-0.7973 -0.3294 0.3589
-0.7617 -0.3976 0.3575
-0.7205 -0.4623 0.3561
-0.6740 -0.5228 0.3549
-0.6226 -0.5790 0.3537
-0.5667 -0.6303 0.3526
-0.5068 -0.6765 0.3517
-0.4434 -0.7173 0.3508
-0.3768 -0.7524 0.3501
-0.3076 -0.7817 0.3495
-0.2363 -0.8049 0.3490
-0.1634 -0.8219 0.3486
-0.0894 -0.8327 0.3484
-0.0147 -0.8371 0.3483
0.0600 -0.8352 0.3483
0.1344 -0.8269 0.3485
0.2078 -0.8123 0.3488
0.2798 -0.7915 0.3492
0.3499 -0.7646 0.3498
0.4175 -0.7317 0.3505
0.4822 -0.6931 0.3513
0.5436 -0.6490 0.3522
0.6010 -0.5997 0.3532
0.6542 -0.5454 0.3543
0.7027 -0.4865 0.3556
0.7461 -0.4234 0.3569
0.7839 -0.3566 0.3583
0.8159 -0.2864 0.3597
0.8417 -0.2133 0.3613
0.8611 -0.1380 0.3628
0.8739 -0.0608 0.3644
0.8797 0.0174 0.3661
0.8786 0.0963 0.3677
0.8703 0.1751 0.3693
0.8550 0.2531 0.3710
0.8326 0.3298 0.3726
0.8032 0.4045 0.3741
0.7669 0.4764 0.3756
0.7241 0.5450 0.3770
0.6750 0.6096 0.3784
0.6199 0.6696 0.3796
0.5594 0.7244 0.3808
0.4938 0.7735 0.3818
0.4238 0.8164 0.3827
0.3500 0.8527 0.3834
0.2730 0.8819 0.3841
0.1934 0.9038 0.3845
0.1121 0.9182 0.3848
0.0297 0.9249 0.3850
-0.0529 0.9238 0.3849
-0.1351 0.9149 0.3848
-0.2160 0.8984 0.3844
-0.2949 0.8744 0.3839
-0.3711 0.8432 0.3833
-0.4439 0.8051 0.3825
-0.5128 0.7604 0.3815
-0.5770 0.7097 0.3805
-0.6360 0.6533 0.3793
-0.6895 0.5920 0.3781
-0.7369 0.5262 0.3767
-0.7779 0.4566 0.3752
-0.8122 0.3838 0.3737
-0.8397 0.3085 0.3722
-0.8601 0.2314 0.3706
-0.8735 0.1530 0.3689
-0.8797 0.0741 0.3673
-0.8789 -0.0046 0.3656
-0.8711 -0.0827 0.3640
-0.8565 -0.1594 0.3624
-0.8352 -0.2341 0.3609
-0.8076 -0.3064 0.3594
-0.7740 -0.3758 0.3579
-0.7345 -0.4416 0.3566
-0.6897 -0.5036 0.3553
-0.6398 -0.5612 0.3541
-0.5854 -0.6141 0.3530
-0.5268 -0.6620 0.3520
-0.4644 -0.7046 0.3511
-0.3988 -0.7416 0.3503
-0.3304 -0.7728 0.3496
-0.2598 -0.7980 0.3491
-0.1873 -0.8170 0.3487
-0.1136 -0.8299 0.3485
-0.0391 -0.8364 0.3483
0.0357 -0.8365 0.3483
0.1102 -0.8303 0.3484
0.1840 -0.8177 0.3487
0.2565 -0.7989 0.3491
0.3273 -0.7740 0.3496
0.3958 -0.7431 0.3502
0.4615 -0.7063 0.3510
0.5240 -0.6640 0.3519
0.5828 -0.6163 0.3529
0.6374 -0.5636 0.3540
0.6875 -0.5062 0.3552
0.7325 -0.4444 0.3564
0.7722 -0.3788 0.3578
0.8061 -0.3096 0.3593
0.8340 -0.2374 0.3608
0.8555 -0.1627 0.3623
0.8705 -0.0861 0.3639
0.8786 -0.0082 0.3655
0.8797 0.0706 0.3672
0.8738 0.1495 0.3688
0.8608 0.2278 0.3704
0.8406 0.3050 0.3720
0.8135 0.3804 0.3736
0.7795 0.4533 0.3751
0.7388 0.5231 0.3766
0.6916 0.5891 0.3779
0.6385 0.6506 0.3792
0.5797 0.7072 0.3804
0.5157 0.7582 0.3815
0.4471 0.8032 0.3824
0.3744 0.8416 0.3832
0.2984 0.8732 0.3839
0.2196 0.8975 0.3844
0.1387 0.9143 0.3847
0.0566 0.9235 0.3849
-0.0260 0.9250 0.3850
-0.1084 0.9187 0.3848
-0.1898 0.9046 0.3845
-0.2694 0.8831 0.3841
-0.3466 0.8542 0.3835
-0.4206 0.8182 0.3827
-0.4908 0.7757 0.3819
-0.5566 0.7268 0.3809
-0.6174 0.6723 0.3797
-0.6727 0.6125 0.3785
-0.7221 0.5481 0.3771
-0.7652 0.4797 0.3757
-0.8018 0.4078 0.3742
-0.8315 0.3333 0.3727
-0.8543 0.2567 0.3711
-0.8699 0.1786 0.3695
-0.8785 0.0999 0.3678
-0.8799 0.0210 0.3662
-0.8744 -0.0574 0.3645
-0.8620 -0.1346 0.3629
-0.8429 -0.2100 0.3614
-0.8173 -0.2832 0.3598
-0.7856 -0.3535 0.3584
-0.7480 -0.4206 0.3570
-0.7049 -0.4838 0.3557
-0.6566 -0.5429 0.3544
-0.6036 -0.5974 0.3533
-0.5463 -0.6470 0.3523
-0.4851 -0.6913 0.3513
-0.4205 -0.7302 0.3505
-0.3530 -0.7633 0.3498
-0.2830 -0.7904 0.3493
-0.2111 -0.8115 0.3488
-0.1377 -0.8264 0.3485
-0.0634 -0.8349 0.3483
0.0113 -0.8371 0.3483
0.0860 -0.8330 0.3484
0.1601 -0.8225 0.3486
0.2331 -0.8057 0.3489
0.3045 -0.7828 0.3494
0.3737 -0.7538 0.3500
0.4404 -0.7189 0.3507
0.5040 -0.6784 0.3516
0.5641 -0.6324 0.3525
0.6201 -0.5813 0.3536
0.6717 -0.5254 0.3548
0.7184 -0.4650 0.3560
0.7599 -0.4006 0.3574
0.7957 -0.3325 0.3588
0.8256 -0.2612 0.3603
0.8492 -0.1873 0.3618
0.8663 -0.1113 0.3634
0.8767 -0.0337 0.3650
0.8801 0.0449 0.3666
0.8765 0.1238 0.3683
0.8658 0.2024 0.3699
0.8480 0.2800 0.3715
0.8231 0.3561 0.3731
0.7913 0.4299 0.3746
0.7527 0.5007 0.3761
0.7077 0.5680 0.3775
0.6564 0.6311 0.3788
0.5994 0.6893 0.3800
0.5371 0.7422 0.3811
0.4699 0.7892 0.3821
0.3985 0.8298 0.3830
0.3235 0.8637 0.3837
0.2455 0.8904 0.3842
0.1652 0.9097 0.3846
0.0835 0.9214 0.3849
0.0009 0.9254 0.3850
-0.0816 0.9216 0.3849
-0.1634 0.9100 0.3847
-0.2437 0.8909 0.3843
-0.3218 0.8644 0.3837
-0.3969 0.8307 0.3830
-0.4684 0.7902 0.3822
-0.5357 0.7434 0.3812
-0.5981 0.6907 0.3801
-0.6553 0.6325 0.3789
-0.7067 0.5695 0.3776
-0.7519 0.5024 0.3762
-0.7906 0.4316 0.3747
-0.8226 0.3578 0.3732
-0.8476 0.2818 0.3716
-0.8656 0.2042 0.3700
-0.8765 0.1256 0.3684
-0.8802 0.0467 0.3667
-0.8770 -0.0319 0.3651
-0.8668 -0.1096 0.3635
-0.8498 -0.1856 0.3619
-0.8263 -0.2596 0.3603
-0.7966 -0.3309 0.3589
-0.7609 -0.3991 0.3574
-0.7195 -0.4637 0.3561
-0.6729 -0.5241 0.3548
-0.6214 -0.5802 0.3537
-0.5654 -0.6314 0.3526
-0.5054 -0.6775 0.3516
-0.4419 -0.7181 0.3508
-0.3753 -0.7531 0.3501
-0.3060 -0.7823 0.3495
-0.2347 -0.8053 0.3490
-0.1618 -0.8222 0.3486
-0.0877 -0.8328 0.3484
-0.0130 -0.8371 0.3483
0.0617 -0.8350 0.3483
0.1361 -0.8266 0.3485
0.2094 -0.8119 0.3488
0.2814 -0.7909 0.3493
0.3514 -0.7639 0.3498
0.4190 -0.7309 0.3505
0.4836 -0.6922 0.3513
0.5449 -0.6480 0.3522
0.6023 -0.5985 0.3532
0.6554 -0.5441 0.3544
0.7037 -0.4852 0.3556
0.7470 -0.4220 0.3569
0.7847 -0.3550 0.3583
0.8166 -0.2848 0.3598
0.8423 -0.2117 0.3613
0.8615 -0.1362 0.3629
0.8741 -0.0591 0.3645
0.8798 0.0192 0.3661
0.8785 0.0981 0.3677
0.8701 0.1768 0.3694
0.8546 0.2549 0.3710
0.8320 0.3315 0.3726
0.8024 0.4061 0.3741
0.7660 0.4780 0.3756
0.7231 0.5465 0.3771
0.6738 0.6110 0.3784
0.6186 0.6709 0.3797
0.5580 0.7256 0.3808
0.4923 0.7746 0.3818
0.4222 0.8173 0.3827
0.3483 0.8534 0.3835
0.2712 0.8825 0.3841
0.1916 0.9042 0.3845
0.1102 0.9184 0.3848
0.0279 0.9249 0.3850
-0.0548 0.9237 0.3849
-0.1369 0.9146 0.3847
-0.2178 0.8980 0.3844
-0.2966 0.8738 0.3839
-0.3728 0.8424 0.3833
-0.4455 0.8042 0.3825
-0.5143 0.7593 0.3815
-0.5784 0.7085 0.3805
-0.6373 0.6520 0.3793
-0.6906 0.5906 0.3780
-0.7378 0.5247 0.3767
-0.7787 0.4550 0.3752
-0.8129 0.3821 0.3737
-0.8402 0.3068 0.3721
-0.8605 0.2296 0.3705
-0.8737 0.1512 0.3689
-0.8798 0.0724 0.3672
-0.8788 -0.0064 0.3656
-0.8708 -0.0844 0.3640
-0.8561 -0.1611 0.3624
-0.8347 -0.2358 0.3608
-0.8069 -0.3080 0.3593
-0.7731 -0.3773 0.3579
-0.7336 -0.4431 0.3565
-0.6886 -0.5049 0.3552
-0.6387 -0.5624 0.3540
-0.5841 -0.6153 0.3529
-0.5254 -0.6630 0.3519
-0.4630 -0.7055 0.3511
-0.3973 -0.7424 0.3503
-0.3289 -0.7734 0.3496
-0.2582 -0.7985 0.3491
-0.1857 -0.8174 0.3487
-0.1119 -0.8301 0.3485
-0.0374 -0.8364 0.3483
0.0374 -0.8364 0.3483
0.1119 -0.8301 0.3484
0.1857 -0.8174 0.3487
0.2581 -0.7984 0.3491
0.3288 -0.7734 0.3496
0.3973 -0.7423 0.3503
0.4629 -0.7054 0.3510
0.5253 -0.6630 0.3519
0.5840 -0.6152 0.3529
0.6386 -0.5624 0.3540
0.6885 -0.5049 0.3552
0.7335 -0.4430 0.3565
0.7730 -0.3772 0.3578
0.8068 -0.3080 0.3593
0.8346 -0.2358 0.3608
0.8560 -0.1610 0.3623
0.8707 -0.0844 0.3639
0.8787 -0.0064 0.3656
0.8797 0.0724 0.3672
0.8736 0.1512 0.3688
0.8604 0.2296 0.3705
0.8401 0.3068 0.3721
0.8128 0.3821 0.3736
0.7786 0.4549 0.3752
0.7378 0.5246 0.3766
0.6905 0.5905 0.3780
0.6372 0.6519 0.3793
0.5783 0.7084 0.3804
0.5142 0.7593 0.3815
0.4455 0.8041 0.3824
0.3728 0.8424 0.3832
0.2966 0.8738 0.3839
0.2178 0.8979 0.3844
0.1369 0.9146 0.3847
0.0548 0.9236 0.3849
-0.0279 0.9249 0.3850
-0.1102 0.9184 0.3848
-0.1916 0.9042 0.3845
-0.2712 0.8825 0.3841
-0.3483 0.8534 0.3835
-0.4222 0.8174 0.3827
-0.4924 0.7746 0.3818
-0.5580 0.7257 0.3808
-0.6187 0.6710 0.3797
-0.6739 0.6111 0.3784
-0.7231 0.5466 0.3771
-0.7661 0.4781 0.3757
-0.8025 0.4062 0.3742
-0.8321 0.3316 0.3726
-0.8547 0.2549 0.3710
-0.8702 0.1769 0.3694
-0.8786 0.0981 0.3678
-0.8799 0.0192 0.3661
-0.8742 -0.0591 0.3645
-0.8616 -0.1363 0.3629
-0.8424 -0.2117 0.3613
-0.8167 -0.2848 0.3598
-0.7848 -0.3551 0.3584
-0.7471 -0.4220 0.3570
-0.7038 -0.4852 0.3556
-0.6555 -0.5442 0.3544
-0.6024 -0.5986 0.3533
-0.5450 -0.6480 0.3523
-0.4837 -0.6923 0.3513
-0.4190 -0.7310 0.3505
-0.3514 -0.7640 0.3498
-0.2814 -0.7910 0.3493
-0.2095 -0.8119 0.3488
-0.1361 -0.8266 0.3485
-0.0617 -0.8351 0.3483
0.0130 -0.8371 0.3483
0.0877 -0.8328 0.3484
0.1617 -0.8222 0.3486
0.2347 -0.8053 0.3490
0.3060 -0.7822 0.3494
0.3753 -0.7531 0.3500
0.4419 -0.7181 0.3508
0.5054 -0.6774 0.3516
0.5654 -0.6313 0.3526
0.6213 -0.5801 0.3536
0.6728 -0.5241 0.3548
0.7194 -0.4636 0.3560
0.7608 -0.3991 0.3574
0.7965 -0.3309 0.3588
0.8262 -0.2596 0.3603
0.8497 -0.1856 0.3618
0.8666 -0.1095 0.3634
0.8768 -0.0319 0.3650
0.8801 0.0466 0.3667
0.8764 0.1256 0.3683
0.8655 0.2041 0.3699
0.8475 0.2818 0.3716
0.8225 0.3578 0.3731
0.7905 0.4315 0.3747
0.7518 0.5023 0.3761
0.7066 0.5695 0.3775
0.6552 0.6324 0.3789
0.5981 0.6906 0.3801
0.5356 0.7433 0.3812
0.4684 0.7902 0.3821
0.3969 0.8307 0.3830
0.3218 0.8643 0.3837
0.2437 0.8909 0.3842
0.1634 0.9100 0.3846
0.0816 0.9216 0.3849
-0.0009 0.9254 0.3850
-0.0835 0.9214 0.3849
-0.1652 0.9097 0.3846
-0.2455 0.8904 0.3842
-0.3235 0.8637 0.3837
-0.3985 0.8299 0.3830
-0.4700 0.7893 0.3821
-0.5371 0.7423 0.3812
-0.5995 0.6894 0.3801
-0.6565 0.6311 0.3789
-0.7078 0.5681 0.3776
-0.7528 0.5008 0.3762
-0.7914 0.4299 0.3747
-0.8232 0.3562 0.3731
-0.8481 0.2801 0.3716
-0.8659 0.2024 0.3700
-0.8766 0.1238 0.3683
-0.8803 0.0449 0.3667
-0.8768 -0.0337 0.3650
-0.8665 -0.1113 0.3634
-0.8494 -0.1873 0.3618
-0.8257 -0.2613 0.3603
-0.7958 -0.3325 0.3588
-0.7600 -0.4006 0.3574
-0.7185 -0.4651 0.3561
-0.6718 -0.5255 0.3548
-0.6202 -0.5814 0.3536
-0.5641 -0.6325 0.3526
-0.5040 -0.6785 0.3516
-0.4404 -0.7190 0.3508
-0.3738 -0.7539 0.3500
-0.3045 -0.7828 0.3494
-0.2331 -0.8058 0.3490
-0.1601 -0.8225 0.3486
-0.0860 -0.8330 0.3484
-0.0113 -0.8371 0.3483
0.0634 -0.8349 0.3483
0.1377 -0.8264 0.3485
0.2111 -0.8115 0.3488
0.2830 -0.7904 0.3493
0.3530 -0.7632 0.3498
0.4205 -0.7301 0.3505
0.4851 -0.6913 0.3513
0.5462 -0.6469 0.3522
0.6035 -0.5974 0.3533
0.6565 -0.5429 0.3544
0.7048 -0.4838 0.3556
0.7479 -0.4205 0.3569
0.7855 -0.3535 0.3583
0.8172 -0.2831 0.3598
0.8428 -0.2100 0.3613
0.8619 -0.1345 0.3629
0.8743 -0.0574 0.3645
0.8798 0.0210 0.3661
0.8784 0.0998 0.3678
0.8698 0.1786 0.3694
0.8541 0.2566 0.3710
0.8314 0.3332 0.3726
0.8017 0.4078 0.3742
0.7651 0.4796 0.3757
0.7220 0.5480 0.3771
0.6726 0.6124 0.3784
0.6173 0.6722 0.3797
0.5565 0.7268 0.3808
0.4908 0.7756 0.3818
0.4206 0.8182 0.3827
0.3466 0.8541 0.3835
0.2694 0.8830 0.3841
0.1898 0.9046 0.3845
0.1084 0.9186 0.3848
0.0260 0.9250 0.3850
-0.0566 0.9235 0.3849
-0.1387 0.9143 0.3847
-0.2196 0.8975 0.3844
-0.2984 0.8732 0.3839
-0.3745 0.8417 0.3832
-0.4471 0.8032 0.3824
-0.5158 0.7583 0.3815
-0.5797 0.7072 0.3804
-0.6385 0.6507 0.3793
-0.6917 0.5891 0.3780
-0.7388 0.5231 0.3766
-0.7796 0.4534 0.3752
-0.8136 0.3805 0.3737
-0.8408 0.3051 0.3721
-0.8609 0.2279 0.3705
-0.8739 0.1495 0.3689
-0.8799 0.0706 0.3672
-0.8787 -0.0082 0.3656
-0.8706 -0.0861 0.3639
-0.8557 -0.1628 0.3624
-0.8341 -0.2374 0.3608
-0.8062 -0.3096 0.3593
-0.7723 -0.3788 0.3579
-0.7326 -0.4445 0.3565
-0.6875 -0.5063 0.3552
-0.6375 -0.5637 0.3540
-0.5828 -0.6164 0.3529
-0.5240 -0.6641 0.3519
-0.4615 -0.7064 0.3510
-0.3958 -0.7431 0.3503
-0.3273 -0.7740 0.3496
-0.2565 -0.7990 0.3491
-0.1840 -0.8178 0.3487
-0.1102 -0.8303 0.3484
-0.0357 -0.8365 0.3483
0.0391 -0.8364 0.3483
0.1136 -0.8298 0.3484
0.1873 -0.8170 0.3487
0.2598 -0.7980 0.3491
0.3304 -0.7727 0.3496
0.3988 -0.7416 0.3503
0.4644 -0.7046 0.3510
0.5267 -0.6620 0.3519
0.5853 -0.6141 0.3529
0.6398 -0.5611 0.3540
0.6896 -0.5035 0.3552
0.7344 -0.4416 0.3565
0.7739 -0.3757 0.3579
0.8075 -0.3064 0.3593
0.8351 -0.2341 0.3608
0.8564 -0.1593 0.3624
0.8710 -0.0827 0.3640
0.8788 -0.0046 0.3656
0.8796 0.0741 0.3672
0.8734 0.1530 0.3689
0.8600 0.2313 0.3705
0.8396 0.3085 0.3721
0.8121 0.3838 0.3737
0.7778 0.4565 0.3752
0.7368 0.5261 0.3766
0.6894 0.5919 0.3780
0.6360 0.6533 0.3793
0.5769 0.7096 0.3805
0.5127 0.7603 0.3815
0.4439 0.8050 0.3824
0.3711 0.8432 0.3832
0.2949 0.8744 0.3839
0.8406 0.2470 0.3708
0.8186 0.3224 0.3724
0.7898 0.3958 0.3739
0.7543 0.4665 0.3754
0.7123 0.5339 0.3768
0.6642 0.5975 0.3781
0.6102 0.6565 0.3794
0.5508 0.7104 0.3805
0.4865 0.7587 0.3815
0.4178 0.8009 0.3824
0.3454 0.8366 0.3831
0.2698 0.8655 0.3837
0.1917 0.8871 0.3842
0.1119 0.9014 0.3845
0.0310 0.9081 0.3846
-0.0501 0.9072 0.3846
-0.1308 0.8987 0.3844
-0.2103 0.8827 0.3841
-0.2879 0.8594 0.3836
-0.3628 0.8289 0.3830
-0.4344 0.7916 0.3822
-0.5021 0.7479 0.3813
-0.5653 0.6982 0.3803
-0.6235 0.6430 0.3791
-0.6761 0.5829 0.3779
-0.7229 0.5184 0.3765
-0.7634 0.4502 0.3751
-0.7973 0.3787 0.3736
-0.8245 0.3048 0.3721
-0.8449 0.2291 0.3705
-0.8582 0.1521 0.3689
-0.8646 0.0746 0.3673
-0.8640 -0.0028 0.3657
-0.8565 -0.0795 0.3641
-0.8423 -0.1550 0.3625
-0.8217 -0.2285 0.3610
-0.7947 -0.2997 0.3595
-0.7618 -0.3680 0.3581
-0.7232 -0.4328 0.3567
-0.6792 -0.4939 0.3555
-0.6304 -0.5507 0.3543
-0.5769 -0.6029 0.3532
-0.5194 -0.6501 0.3522
-0.4582 -0.6921 0.3513
-0.3937 -0.7287 0.3506
-0.3266 -0.7595 0.3499
-0.2571 -0.7844 0.3494
-0.1859 -0.8033 0.3490
-0.1134 -0.8161 0.3487
-0.0401 -0.8226 0.3486
0.0335 -0.8229 0.3486
0.1068 -0.8169 0.3487
0.1794 -0.8047 0.3490
0.2508 -0.7864 0.3493
0.3204 -0.7620 0.3499
0.3878 -0.7316 0.3505
0.4525 -0.6956 0.3512
0.5140 -0.6541 0.3521
0.5719 -0.6073 0.3531
0.6257 -0.5555 0.3541
0.6750 -0.4991 0.3553
0.7194 -0.4384 0.3566
0.7585 -0.3739 0.3579
0.7919 -0.3059 0.3593
0.8194 -0.2350 0.3608
0.8406 -0.1617 0.3623
0.8554 -0.0864 0.3639
0.8634 -0.0098 0.3655
0.8647 0.0676 0.3671
0.8589 0.1451 0.3687
0.8462 0.2222 0.3703
0.8265 0.2980 0.3719
0.7999 0.3721 0.3734
0.7666 0.4438 0.3749
0.7267 0.5124 0.3764
0.6805 0.5772 0.3777
0.6284 0.6378 0.3790
0.5707 0.6934 0.3801
0.5080 0.7436 0.3812
0.4407 0.7879 0.3821
0.3694 0.8257 0.3829
0.2947 0.8569 0.3835
0.2174 0.8809 0.3840
0.1380 0.8976 0.3844
0.0574 0.9068 0.3846
-0.0237 0.9084 0.3846
-0.1046 0.9023 0.3845
-0.1846 0.8888 0.3842
-0.2629 0.8678 0.3838
-0.3387 0.8396 0.3832
-0.4115 0.8045 0.3825
-0.4805 0.7628 0.3816
-0.5453 0.7150 0.3806
-0.6051 0.6616 0.3795
-0.6596 0.6030 0.3783
-0.7083 0.5399 0.3770
-0.7509 0.4728 0.3756
-0.7870 0.4023 0.3741
-0.8164 0.3291 0.3726
-0.8390 0.2539 0.3710
-0.8546 0.1773 0.3694
-0.8632 0.0999 0.3678
-0.8649 0.0224 0.3662
-0.8597 -0.0547 0.3646
-0.8477 -0.1306 0.3630
-0.8291 -0.2048 0.3615
-0.8042 -0.2768 0.3600
-0.7732 -0.3461 0.3585
-0.7364 -0.4121 0.3572
-0.6941 -0.4744 0.3559
-0.6468 -0.5326 0.3547
-0.5948 -0.5864 0.3535
-0.5386 -0.6353 0.3525
-0.4785 -0.6790 0.3516
-0.4151 -0.7174 0.3508
-0.3487 -0.7501 0.3501
-0.2800 -0.7770 0.3496
-0.2092 -0.7979 0.3491
-0.1371 -0.8126 0.3488
-0.0640 -0.8212 0.3486
0.0095 -0.8235 0.3486
0.0830 -0.8196 0.3487
0.1558 -0.8094 0.3489
0.2277 -0.7930 0.3492
0.2979 -0.7706 0.3497
0.3661 -0.7422 0.3503
0.4317 -0.7080 0.3510
0.4943 -0.6682 0.3518
0.5535 -0.6231 0.3527
0.6086 -0.5729 0.3538
0.6594 -0.5180 0.3549
0.7055 -0.4586 0.3562
0.7463 -0.3953 0.3575
0.7816 -0.3284 0.3589
0.8111 -0.2584 0.3603
0.8344 -0.1858 0.3618
0.8513 -0.1111 0.3634
0.8616 -0.0348 0.3650
0.8650 0.0424 0.3666
0.8616 0.1199 0.3682
0.8511 0.1972 0.3698
0.8337 0.2735 0.3714
0.8094 0.3482 0.3729
0.7782 0.4208 0.3744
0.7404 0.4904 0.3759
0.6962 0.5565 0.3773
0.6460 0.6186 0.3786
0.5901 0.6758 0.3798
0.5289 0.7279 0.3808
0.4631 0.7741 0.3818
0.3930 0.8141 0.3826
0.3194 0.8475 0.3833
0.2428 0.8739 0.3839
0.1641 0.8930 0.3843
0.0838 0.9046 0.3845
0.0027 0.9087 0.3846
-0.0783 0.9051 0.3845
-0.1587 0.8940 0.3843
-0.2376 0.8754 0.3839
-0.3143 0.8495 0.3834
-0.3882 0.8166 0.3827
-0.4585 0.7771 0.3819
-0.5247 0.7312 0.3809
-0.5862 0.6796 0.3799
-0.6425 0.6226 0.3787
-0.6931 0.5609 0.3774
-0.7377 0.4950 0.3760
-0.7760 0.4256 0.3746
-0.8076 0.3532 0.3731
-0.8324 0.2786 0.3715
-0.8503 0.2024 0.3700
-0.8612 0.1251 0.3683
-0.8651 0.0476 0.3667
-0.8621 -0.0297 0.3651
-0.8523 -0.1060 0.3635
-0.8359 -0.1808 0.3620
-0.8130 -0.2536 0.3605
-0.7839 -0.3238 0.3590
-0.7490 -0.3910 0.3576
-0.7085 -0.4545 0.3563
-0.6628 -0.5142 0.3550
-0.6123 -0.5694 0.3539
-0.5573 -0.6199 0.3528
-0.4985 -0.6654 0.3519
-0.4361 -0.7055 0.3511
-0.3706 -0.7401 0.3503
-0.3026 -0.7689 0.3497
-0.2325 -0.7917 0.3493
-0.1607 -0.8085 0.3489
-0.0879 -0.8191 0.3487
-0.0145 -0.8234 0.3486
0.0591 -0.8215 0.3486
0.1322 -0.8134 0.3488
0.2044 -0.7990 0.3491
0.2752 -0.7785 0.3495
0.3441 -0.7521 0.3501
0.4106 -0.7197 0.3507
0.4743 -0.6817 0.3515
0.5346 -0.6383 0.3524
0.5911 -0.5898 0.3534
0.6434 -0.5364 0.3545
0.6910 -0.4784 0.3557
0.7336 -0.4164 0.3570
0.7708 -0.3506 0.3584
0.8022 -0.2815 0.3598
0.8275 -0.2097 0.3613
0.8465 -0.1356 0.3629
0.8590 -0.0598 0.3644
0.8647 0.0171 0.3660
0.8635 0.0946 0.3677
0.8553 0.1721 0.3693
0.8401 0.2488 0.3709
0.8181 0.3241 0.3724
0.7891 0.3974 0.3740
0.7534 0.4681 0.3754
0.7113 0.5354 0.3768
0.6630 0.5988 0.3782
0.6089 0.6577 0.3794
0.5494 0.7115 0.3805
0.4850 0.7597 0.3815
0.4162 0.8018 0.3824
0.3437 0.8374 0.3831
0.2680 0.8660 0.3837
0.1899 0.8875 0.3842
0.1101 0.9016 0.3845
0.0292 0.9082 0.3846
-0.0520 0.9071 0.3846
-0.1326 0.8985 0.3844
-0.2121 0.8823 0.3841
-0.2896 0.8587 0.3836
-0.3645 0.8281 0.3830
-0.4360 0.7907 0.3822
-0.5036 0.7468 0.3813
-0.5667 0.6970 0.3802
-0.6247 0.6417 0.3791
-0.6773 0.5815 0.3778
-0.7239 0.5169 0.3765
-0.7642 0.4486 0.3751
-0.7980 0.3771 0.3736
-0.8251 0.3031 0.3720
-0.8452 0.2274 0.3705
-0.8584 0.1504 0.3689
-0.8646 0.0729 0.3673
-0.8639 -0.0046 0.3656
-0.8563 -0.0813 0.3641
-0.8419 -0.1567 0.3625
-0.8211 -0.2302 0.3610
-0.7941 -0.3013 0.3595
-0.7610 -0.3695 0.3581
-0.7223 -0.4342 0.3567
-0.6782 -0.4952 0.3554
-0.6292 -0.5519 0.3543
-0.5757 -0.6040 0.3532
-0.5181 -0.6511 0.3522
-0.4568 -0.6930 0.3513
-0.3923 -0.7294 0.3506
-0.3250 -0.7601 0.3499
-0.2555 -0.7849 0.3494
-0.1843 -0.8037 0.3490
-0.1117 -0.8163 0.3487
-0.0384 -0.8227 0.3486
0.0351 -0.8228 0.3486
0.1084 -0.8167 0.3487
0.1810 -0.8044 0.3490
0.2523 -0.7859 0.3494
0.3219 -0.7613 0.3499
0.3893 -0.7309 0.3505
0.4539 -0.6947 0.3512
0.5153 -0.6531 0.3521
0.5731 -0.6061 0.3531
0.6268 -0.5543 0.3542
0.6760 -0.4978 0.3553
0.7203 -0.4370 0.3566
0.7593 -0.3724 0.3579
0.7926 -0.3044 0.3594
0.8199 -0.2334 0.3608
0.8410 -0.1600 0.3624
0.8556 -0.0847 0.3639
0.8635 -0.0080 0.3655
0.8646 0.0694 0.3671
0.8587 0.1469 0.3687
0.8459 0.2239 0.3703
0.8260 0.2997 0.3719
0.7993 0.3738 0.3735
0.7658 0.4454 0.3750
0.7257 0.5139 0.3764
0.6794 0.5786 0.3777
0.6272 0.6391 0.3790
0.5694 0.6946 0.3801
0.5065 0.7447 0.3812
0.4391 0.7888 0.3821
0.3677 0.8265 0.3829
0.2930 0.8575 0.3835
0.2156 0.8813 0.3840
0.1362 0.8979 0.3844
0.0556 0.9069 0.3846
-0.0255 0.9083 0.3846
-0.1064 0.9021 0.3845
-0.1864 0.8884 0.3842
-0.2646 0.8672 0.3838
-0.3404 0.8389 0.3832
-0.4131 0.8036 0.3824
-0.4821 0.7618 0.3816
-0.5467 0.7139 0.3806
-0.6064 0.6603 0.3795
-0.6608 0.6017 0.3783
-0.7094 0.5384 0.3769
-0.7518 0.4712 0.3755
-0.7877 0.4007 0.3741
-0.8170 0.3275 0.3726
-0.8394 0.2522 0.3710
-0.8549 0.1755 0.3694
-0.8634 0.0981 0.3678
-0.8649 0.0206 0.3662
-0.8595 -0.0564 0.3646
-0.8473 -0.1323 0.3630
-0.8286 -0.2065 0.3614
-0.8035 -0.2784 0.3599
-0.7724 -0.3476 0.3585
-0.7355 -0.4135 0.3571
-0.6931 -0.4758 0.3558
-0.6457 -0.5339 0.3546
-0.5936 -0.5875 0.3535
-0.5373 -0.6363 0.3525
-0.4771 -0.6800 0.3516
-0.4136 -0.7182 0.3508
-0.3472 -0.7508 0.3501
-0.2784 -0.7775 0.3495
-0.2076 -0.7983 0.3491
-0.1355 -0.8129 0.3488
-0.0624 -0.8213 0.3486
0.0112 -0.8235 0.3486
0.0846 -0.8194 0.3487
0.1575 -0.8091 0.3489
0.2293 -0.7926 0.3492
0.2995 -0.7700 0.3497
0.3676 -0.7414 0.3503
0.4332 -0.7071 0.3510
0.4957 -0.6672 0.3518
0.5547 -0.6220 0.3528
0.6098 -0.5717 0.3538
0.6605 -0.5167 0.3549
0.7064 -0.4573 0.3562
0.7472 -0.3939 0.3575
0.7824 -0.3269 0.3589
0.8117 -0.2568 0.3603
0.8349 -0.1841 0.3619
0.8516 -0.1094 0.3634
0.8617 -0.0331 0.3650
0.8650 0.0441 0.3666
0.8614 0.1216 0.3682
0.8508 0.1989 0.3698
0.8332 0.2752 0.3714
0.8087 0.3499 0.3730
0.7774 0.4224 0.3745
0.7395 0.4919 0.3759
0.6952 0.5580 0.3773
0.6448 0.6199 0.3786
0.5888 0.6771 0.3798
0.5275 0.7290 0.3809
0.4615 0.7751 0.3818
0.3914 0.8150 0.3827
0.3177 0.8482 0.3833
0.2411 0.8744 0.3839
0.1623 0.8933 0.3843
0.0820 0.9048 0.3845
0.0009 0.9087 0.3846
-0.0801 0.9050 0.3845
-0.1605 0.8937 0.3843
-0.2393 0.8749 0.3839
-0.3160 0.8489 0.3834
-0.3898 0.8158 0.3827
-0.4600 0.7761 0.3819
-0.5261 0.7301 0.3809
-0.5875 0.6784 0.3798
-0.6437 0.6213 0.3787
-0.6942 0.5595 0.3774
-0.7386 0.4935 0.3760
-0.7767 0.4240 0.3746
-0.8082 0.3516 0.3731
-0.8329 0.2769 0.3715
-0.8506 0.2006 0.3699
-0.8614 0.1234 0.3683
-0.8651 0.0459 0.3667
-0.8620 -0.0314 0.3651
-0.8520 -0.1077 0.3635
-0.8354 -0.1825 0.3619
-0.8124 -0.2552 0.3604
-0.7832 -0.3254 0.3590
-0.7481 -0.3924 0.3576
-0.7075 -0.4559 0.3563
-0.6617 -0.5154 0.3550
-0.6111 -0.5706 0.3539
-0.5561 -0.6210 0.3528
-0.4971 -0.6663 0.3519
-0.4346 -0.7063 0.3510
-0.3691 -0.7408 0.3503
-0.3010 -0.7694 0.3497
-0.2309 -0.7922 0.3492
-0.1591 -0.8088 0.3489
-0.0863 -0.8193 0.3487
-0.0128 -0.8235 0.3486
0.0607 -0.8214 0.3486
0.1338 -0.8131 0.3488
0.2060 -0.7986 0.3491
0.2768 -0.7780 0.3495
0.3457 -0.7514 0.3501
0.4121 -0.7189 0.3507
0.4757 -0.6808 0.3515
0.5359 -0.6373 0.3524
0.5923 -0.5886 0.3535
0.6445 -0.5351 0.3546
0.6920 -0.4771 0.3558
0.7345 -0.4149 0.3571
0.7715 -0.3491 0.3584
0.8028 -0.2800 0.3599
0.8280 -0.2081 0.3614
0.8469 -0.1339 0.3629
0.8592 -0.0581 0.3645
0.8647 0.0189 0.3661
0.8633 0.0964 0.3677
0.8550 0.1738 0.3693
0.8397 0.2505 0.3709
0.8175 0.3258 0.3725
0.7884 0.3990 0.3740
0.7526 0.4696 0.3755
0.7103 0.5369 0.3769
0.6619 0.6002 0.3782
0.6076 0.6590 0.3794
0.5480 0.7127 0.3805
0.4835 0.7607 0.3815
0.4147 0.8027 0.3824
0.3420 0.8381 0.3831
0.2663 0.8666 0.3837
0.1882 0.8879 0.3842
0.1083 0.9019 0.3845
0.0274 0.9083 0.3846
-0.0538 0.9070 0.3846
-0.1344 0.8982 0.3844
-0.2139 0.8818 0.3841
-0.2913 0.8581 0.3836
-0.3661 0.8273 0.3829
-0.4376 0.7898 0.3822
-0.5051 0.7458 0.3812
-0.5681 0.6959 0.3802
-0.6260 0.6404 0.3791
-0.6784 0.5801 0.3778
-0.7248 0.5154 0.3765
-0.7650 0.4470 0.3750
-0.7987 0.3755 0.3735
-0.8256 0.3015 0.3720
-0.8456 0.2256 0.3704
-0.8586 0.1486 0.3688
-0.8647 0.0711 0.3672
-0.8638 -0.0063 0.3656
-0.8560 -0.0830 0.3640
-0.8416 -0.1583 0.3624
-0.8206 -0.2318 0.3609
-0.7934 -0.3028 0.3594
-0.7602 -0.3710 0.3580
-0.7213 -0.4357 0.3567
-0.6772 -0.4965 0.3554
-0.6281 -0.5531 0.3542
-0.5745 -0.6051 0.3531
-0.5167 -0.6521 0.3522
-0.4554 -0.6939 0.3513
-0.3908 -0.7302 0.3505
-0.3235 -0.7608 0.3499
-0.2539 -0.7854 0.3494
-0.1826 -0.8041 0.3490
-0.1101 -0.8165 0.3487
-0.0368 -0.8228 0.3486
0.0368 -0.8228 0.3486
0.1101 -0.8165 0.3487
0.1826 -0.8040 0.3490
0.2539 -0.7854 0.3494
0.3235 -0.7607 0.3499
0.3908 -0.7301 0.3505
0.4553 -0.6938 0.3513
0.5167 -0.6521 0.3521
0.5744 -0.6050 0.3531
0.6280 -0.5531 0.3542
0.6771 -0.4965 0.3554
0.7212 -0.4356 0.3566
0.7601 -0.3709 0.3580
0.7933 -0.3028 0.3594
0.8205 -0.2318 0.3609
0.8414 -0.1583 0.3624
0.8559 -0.0830 0.3640
0.8636 -0.0063 0.3656
0.8646 0.0711 0.3672
0.8585 0.1486 0.3688
0.8455 0.2256 0.3704
0.8255 0.3014 0.3720
0.7986 0.3754 0.3735
0.7650 0.4469 0.3750
0.7248 0.5154 0.3764
0.6783 0.5800 0.3778
0.6259 0.6404 0.3790
0.5680 0.6958 0.3802
0.5050 0.7457 0.3812
0.4375 0.7897 0.3821
0.3661 0.8273 0.3829
0.2913 0.8581 0.3836
0.2138 0.8818 0.3841
0.1344 0.8982 0.3844
0.0538 0.9070 0.3846
-0.0274 0.9083 0.3846
-0.1083 0.9019 0.3845
-0.1882 0.8880 0.3842
-0.2663 0.8667 0.3838
-0.3421 0.8381 0.3832
-0.4147 0.8027 0.3824
-0.4836 0.7608 0.3816
-0.5481 0.7127 0.3806
-0.6077 0.6591 0.3794
-0.6619 0.6003 0.3782
-0.7104 0.5369 0.3769
-0.7527 0.4697 0.3755
-0.7885 0.3991 0.3740
-0.8176 0.3258 0.3725
-0.8399 0.2505 0.3710
-0.8552 0.1738 0.3694
-0.8635 0.0964 0.3677
-0.8648 0.0189 0.3661
-0.8593 -0.0581 0.3645
-0.8470 -0.1340 0.3630
-0.8281 -0.2081 0.3614
-0.8029 -0.2800 0.3599
-0.7716 -0.3491 0.3585
-0.7346 -0.4150 0.3571
-0.6921 -0.4771 0.3558
-0.6446 -0.5352 0.3546
-0.5924 -0.5887 0.3535
-0.5360 -0.6374 0.3525
-0.4757 -0.6809 0.3516
-0.4121 -0.7190 0.3508
-0.3457 -0.7514 0.3501
-0.2768 -0.7780 0.3495
-0.2060 -0.7987 0.3491
-0.1338 -0.8131 0.3488
-0.0607 -0.8214 0.3486
0.0128 -0.8235 0.3486
0.0863 -0.8192 0.3487
0.1591 -0.8088 0.3489
0.2309 -0.7921 0.3492
0.3010 -0.7694 0.3497
0.3691 -0.7407 0.3503
0.4346 -0.7063 0.3510
0.4971 -0.6663 0.3518
0.5560 -0.6209 0.3528
0.6110 -0.5705 0.3538
0.6616 -0.5154 0.3550
0.7074 -0.4559 0.3562
0.7480 -0.3924 0.3575
0.7831 -0.3253 0.3589
0.8123 -0.2552 0.3604
0.8353 -0.1825 0.3619
0.8519 -0.1077 0.3634
0.8619 -0.0314 0.3650
0.8650 0.0458 0.3666
0.8612 0.1234 0.3683
0.8505 0.2006 0.3699
0.8328 0.2769 0.3714
0.8081 0.3515 0.3730
0.7766 0.4240 0.3745
0.7386 0.4935 0.3760
0.6941 0.5594 0.3773
0.6436 0.6212 0.3786
0.5875 0.6783 0.3798
0.5261 0.7301 0.3809
0.4600 0.7761 0.3818
0.3898 0.8158 0.3827
0.3160 0.8488 0.3834
0.2393 0.8749 0.3839
0.1605 0.8937 0.3843
0.0802 0.9050 0.3845
-0.0009 0.9087 0.3846
-0.0820 0.9048 0.3845
-0.1623 0.8933 0.3843
-0.2411 0.8744 0.3839
-0.3177 0.8482 0.3834
-0.3914 0.8150 0.3827
-0.4616 0.7752 0.3819
-0.5276 0.7290 0.3809
-0.5888 0.6771 0.3798
-0.6449 0.6200 0.3786
-0.6953 0.5580 0.3773
-0.7396 0.4920 0.3760
-0.7775 0.4224 0.3745
-0.8088 0.3499 0.3730
-0.8334 0.2752 0.3715
-0.8509 0.1989 0.3699
-0.8615 0.1217 0.3683
-0.8651 0.0441 0.3667
-0.8618 -0.0331 0.3651
-0.8517 -0.1094 0.3635
-0.8350 -0.1842 0.3619
-0.8118 -0.2569 0.3604
-0.7825 -0.3269 0.3589
-0.7473 -0.3939 0.3575
-0.7065 -0.4573 0.3562
-0.6606 -0.5167 0.3550
-0.6099 -0.5718 0.3538
-0.5548 -0.6220 0.3528
-0.4957 -0.6673 0.3518
-0.4332 -0.7072 0.3510
-0.3676 -0.7415 0.3503
-0.2995 -0.7700 0.3497
-0.2293 -0.7926 0.3492
-0.1575 -0.8091 0.3489
-0.0846 -0.8194 0.3487
-0.0112 -0.8235 0.3486
0.0624 -0.8213 0.3486
0.1355 -0.8129 0.3488
0.2076 -0.7982 0.3491
0.2784 -0.7775 0.3495
0.3472 -0.7507 0.3501
0.4136 -0.7181 0.3508
0.4771 -0.6799 0.3516
0.5372 -0.6363 0.3525
0.5935 -0.5875 0.3535
0.6456 -0.5338 0.3546
0.6930 -0.4757 0.3558
0.7354 -0.4135 0.3571
0.7723 -0.3476 0.3585
0.8034 -0.2784 0.3599
0.8285 -0.2064 0.3614
0.8472 -0.1322 0.3629
0.8594 -0.0564 0.3645
0.8647 0.0206 0.3661
0.8632 0.0981 0.3677
0.8548 0.1755 0.3693
0.8393 0.2522 0.3709
0.8169 0.3274 0.3725
0.7876 0.4006 0.3740
0.7517 0.4712 0.3755
0.7093 0.5384 0.3769
0.6607 0.6016 0.3782
0.6063 0.6603 0.3794
0.5466 0.7138 0.3805
0.4820 0.7617 0.3815
0.4131 0.8035 0.3824
0.3404 0.8388 0.3832
0.2646 0.8672 0.3837
0.1864 0.8883 0.3842
0.1064 0.9021 0.3845
0.0255 0.9083 0.3846
-0.0556 0.9069 0.3846
-0.1362 0.8979 0.3844
-0.2156 0.8814 0.3841
-0.2930 0.8575 0.3836
-0.3677 0.8266 0.3829
-0.4391 0.7888 0.3821
-0.5066 0.7447 0.3812
-0.5694 0.6947 0.3802
-0.6272 0.6391 0.3790
-0.6795 0.5787 0.3778
-0.7258 0.5139 0.3764
-0.7659 0.4454 0.3750
-0.7994 0.3738 0.3735
-0.8261 0.2998 0.3720
-0.8460 0.2239 0.3704
-0.8588 0.1469 0.3688
-0.8647 0.0694 0.3672
-0.8637 -0.0080 0.3656
-0.8558 -0.0847 0.3640
-0.8412 -0.1600 0.3624
-0.8200 -0.2334 0.3609
-0.7927 -0.3044 0.3594
-0.7594 -0.3725 0.3580
-0.7204 -0.4371 0.3566
-0.6761 -0.4978 0.3554
-0.6269 -0.5543 0.3542
-0.5732 -0.6062 0.3531
-0.5154 -0.6531 0.3521
-0.4539 -0.6948 0.3513
-0.3893 -0.7309 0.3505
-0.3219 -0.7614 0.3499
-0.2524 -0.7859 0.3494
-0.1810 -0.8044 0.3490
-0.1085 -0.8167 0.3487
-0.0351 -0.8229 0.3486
0.0384 -0.8227 0.3486
0.1117 -0.8163 0.3487
0.1843 -0.8037 0.3490
0.2555 -0.7849 0.3494
0.3250 -0.7601 0.3499
0.3922 -0.7294 0.3505
0.4567 -0.6930 0.3513
0.5180 -0.6511 0.3522
0.5756 -0.6039 0.3531
0.6292 -0.5518 0.3542
0.6781 -0.4951 0.3554
0.7222 -0.4342 0.3567
0.7609 -0.3694 0.3580
0.7940 -0.3012 0.3594
0.8210 -0.2301 0.3609
0.8418 -0.1566 0.3624
0.8561 -0.0812 0.3640
0.8637 -0.0046 0.3656
0.8645 0.0728 0.3672
0.8583 0.1504 0.3688
0.8451 0.2273 0.3704
0.8250 0.3031 0.3720
0.7979 0.3770 0.3735
0.7641 0.4485 0.3750
0.7238 0.5169 0.3764
0.6772 0.5815 0.3778
0.6247 0.6417 0.3790
0.5666 0.6970 0.3802
0.5036 0.7468 0.3812
0.4360 0.7906 0.3821
0.3644 0.8281 0.3829
0.2896 0.8587 0.3836
0.8262 0.2428 0.3707
0.8045 0.3169 0.3723
0.7762 0.3889 0.3738
0.7412 0.4584 0.3752
0.6999 0.5246 0.3766
0.6526 0.5870 0.3779
0.5995 0.6450 0.3791
0.5411 0.6979 0.3802
0.4779 0.7453 0.3812
0.4105 0.7868 0.3821
0.3393 0.8218 0.3828
0.2650 0.8501 0.3834
0.1883 0.8714 0.3838
0.1099 0.8854 0.3841
0.0305 0.8920 0.3843
-0.0492 0.8911 0.3843
-0.1285 0.8828 0.3841
-0.2066 0.8671 0.3838
-0.2828 0.8441 0.3833
-0.3564 0.8142 0.3827
-0.4268 0.7776 0.3819
-0.4933 0.7347 0.3810
-0.5554 0.6859 0.3800
-0.6126 0.6318 0.3789
-0.6643 0.5727 0.3776
-0.7103 0.5094 0.3763
-0.7501 0.4423 0.3749
-0.7836 0.3722 0.3735
-0.8104 0.2996 0.3720
-0.8304 0.2251 0.3704
-0.8436 0.1495 0.3689
-0.8499 0.0733 0.3673
-0.8493 -0.0028 0.3657
-0.8421 -0.0782 0.3641
-0.8282 -0.1524 0.3626
-0.8079 -0.2247 0.3611
-0.7815 -0.2947 0.3596
-0.7492 -0.3619 0.3582
-0.7112 -0.4257 0.3569
-0.6681 -0.4857 0.3556
-0.6200 -0.5416 0.3545
-0.5675 -0.5930 0.3534
-0.5109 -0.6395 0.3524
-0.4507 -0.6809 0.3516
-0.3874 -0.7169 0.3508
-0.3213 -0.7472 0.3502
-0.2529 -0.7718 0.3497
-0.1829 -0.7904 0.3493
-0.1115 -0.8029 0.3490
-0.0394 -0.8094 0.3489
0.0329 -0.8096 0.3489
0.1051 -0.8037 0.3490
0.1765 -0.7917 0.3492
0.2467 -0.7736 0.3496
0.3152 -0.7496 0.3501
0.3815 -0.7198 0.3507
0.4451 -0.6843 0.3515
0.5056 -0.6434 0.3523
0.5625 -0.5973 0.3533
0.6154 -0.5464 0.3543
0.6639 -0.4909 0.3555
0.7075 -0.4312 0.3567
0.7459 -0.3677 0.3580
0.7787 -0.3009 0.3594
0.8057 -0.2311 0.3609
0.8265 -0.1589 0.3624
0.8410 -0.0849 0.3639
0.8488 -0.0096 0.3655
0.8500 0.0665 0.3671
0.8443 0.1427 0.3687
0.8317 0.2184 0.3702
0.8123 0.2929 0.3718
0.7861 0.3657 0.3733
0.7533 0.4361 0.3748
0.7141 0.5035 0.3762
0.6686 0.5672 0.3775
0.6174 0.6266 0.3787
0.5607 0.6812 0.3799
0.4990 0.7305 0.3809
0.4329 0.7740 0.3818
0.3628 0.8111 0.3826
0.2895 0.8417 0.3832
0.2135 0.8653 0.3837
0.1356 0.8816 0.3841
0.0564 0.8907 0.3842
-0.0233 0.8922 0.3843
-0.1028 0.8863 0.3842
-0.1813 0.8730 0.3839
-0.2582 0.8524 0.3835
-0.3327 0.8247 0.3829
-0.4042 0.7902 0.3822
-0.4721 0.7494 0.3813
-0.5357 0.7025 0.3803
-0.5945 0.6500 0.3793
-0.6481 0.5925 0.3781
-0.6960 0.5305 0.3768
-0.7378 0.4646 0.3754
-0.7734 0.3954 0.3740
-0.8024 0.3235 0.3725
-0.8246 0.2496 0.3709
-0.8400 0.1743 0.3694
-0.8486 0.0982 0.3678
-0.8503 0.0220 0.3662
-0.8452 -0.0537 0.3646
-0.8334 -0.1284 0.3631
-0.8152 -0.2014 0.3616
-0.7908 -0.2722 0.3601
-0.7603 -0.3403 0.3587
-0.7242 -0.4053 0.3573
-0.6827 -0.4666 0.3560
-0.6362 -0.5239 0.3548
-0.5851 -0.5768 0.3537
-0.5298 -0.6249 0.3527
-0.4707 -0.6680 0.3518
-0.4083 -0.7057 0.3510
-0.3431 -0.7379 0.3504
-0.2754 -0.7644 0.3498
-0.2059 -0.7850 0.3494
-0.1349 -0.7995 0.3491
-0.0630 -0.8079 0.3489
0.0094 -0.8102 0.3489
0.0816 -0.8063 0.3489
0.1533 -0.7963 0.3491
0.2240 -0.7802 0.3495
0.2931 -0.7581 0.3499
0.3602 -0.7301 0.3505
0.4247 -0.6965 0.3512
0.4863 -0.6573 0.3520
0.5444 -0.6129 0.3529
0.5987 -0.5635 0.3540
0.6486 -0.5095 0.3551
0.6938 -0.4511 0.3563
0.7340 -0.3888 0.3576
0.7687 -0.3230 0.3590
0.7976 -0.2541 0.3604
0.8204 -0.1827 0.3619
0.8370 -0.1092 0.3634
0.8470 -0.0342 0.3650
0.8504 0.0416 0.3666
0.8469 0.1179 0.3681
0.8366 0.1938 0.3697
0.8194 0.2688 0.3713
0.7954 0.3422 0.3728
0.7647 0.4135 0.3743
0.7275 0.4819 0.3757
0.6841 0.5468 0.3771
0.6347 0.6077 0.3783
0.5797 0.6640 0.3795
0.5196 0.7151 0.3806
0.4549 0.7605 0.3815
0.3860 0.7997 0.3823
0.3137 0.8325 0.3830
0.2385 0.8584 0.3836
0.1611 0.8771 0.3840
0.0823 0.8885 0.3842
0.0027 0.8925 0.3843
-0.0769 0.8891 0.3842
-0.1559 0.8781 0.3840
-0.2334 0.8599 0.3836
-0.3087 0.8345 0.3831
-0.3813 0.8022 0.3824
-0.4504 0.7634 0.3816
-0.5155 0.7184 0.3807
-0.5759 0.6677 0.3796
-0.6312 0.6117 0.3785
-0.6810 0.5511 0.3772
-0.7249 0.4864 0.3759
-0.7625 0.4182 0.3744
-0.7936 0.3472 0.3730
-0.8181 0.2738 0.3714
-0.8357 0.1989 0.3699
-0.8465 0.1230 0.3683
-0.8505 0.0468 0.3667
-0.8476 -0.0292 0.3651
-0.8380 -0.1042 0.3636
-0.8219 -0.1778 0.3620
-0.7994 -0.2494 0.3606
-0.7709 -0.3185 0.3591
-0.7366 -0.3845 0.3577
-0.6968 -0.4471 0.3564
-0.6519 -0.5057 0.3552
-0.6022 -0.5601 0.3541
-0.5483 -0.6098 0.3530
-0.4904 -0.6545 0.3521
-0.4290 -0.6940 0.3513
-0.3646 -0.7281 0.3506
-0.2977 -0.7564 0.3500
-0.2287 -0.7789 0.3495
-0.1581 -0.7954 0.3492
-0.0865 -0.8059 0.3490
-0.0142 -0.8102 0.3489
0.0581 -0.8083 0.3489
0.1301 -0.8002 0.3491
0.2011 -0.7861 0.3494
0.2708 -0.7659 0.3498
0.3386 -0.7399 0.3503
0.4040 -0.7080 0.3510
0.4666 -0.6707 0.3518
0.5259 -0.6279 0.3526
0.5814 -0.5801 0.3536
0.6328 -0.5276 0.3547
0.6796 -0.4706 0.3559
0.7215 -0.4095 0.3572
0.7580 -0.3448 0.3585
0.7888 -0.2769 0.3599
0.8137 -0.2062 0.3614
0.8323 -0.1333 0.3629
0.8445 -0.0588 0.3645
0.8500 0.0169 0.3660
0.8488 0.0930 0.3676
0.8407 0.1691 0.3692
0.8257 0.2445 0.3708
0.8040 0.3185 0.3723
0.7754 0.3905 0.3738
0.7404 0.4599 0.3753
0.6989 0.5261 0.3766
0.6514 0.5884 0.3779
0.5982 0.6462 0.3791
0.5398 0.6990 0.3802
0.4765 0.7463 0.3812
0.4089 0.7876 0.3821
0.3376 0.8225 0.3828
0.2633 0.8507 0.3834
0.1866 0.8718 0.3838
0.1081 0.8856 0.3841
0.0287 0.8921 0.3843
-0.0510 0.8910 0.3843
-0.1303 0.8825 0.3841
-0.2083 0.8666 0.3837
-0.2845 0.8435 0.3833
-0.3580 0.8135 0.3826
-0.4283 0.7767 0.3819
-0.4947 0.7337 0.3810
-0.5567 0.6848 0.3800
-0.6138 0.6305 0.3788
-0.6654 0.5714 0.3776
-0.7113 0.5079 0.3763
-0.7510 0.4408 0.3749
-0.7842 0.3706 0.3734
-0.8109 0.2979 0.3719
-0.8307 0.2235 0.3704
-0.8438 0.1478 0.3688
-0.8499 0.0716 0.3672
-0.8492 -0.0045 0.3656
-0.8418 -0.0799 0.3641
-0.8278 -0.1540 0.3625
-0.8074 -0.2263 0.3610
-0.7809 -0.2963 0.3596
-0.7484 -0.3633 0.3582
-0.7103 -0.4271 0.3569
-0.6671 -0.4870 0.3556
-0.6189 -0.5428 0.3544
-0.5663 -0.5941 0.3534
-0.5096 -0.6405 0.3524
-0.4493 -0.6818 0.3515
-0.3859 -0.7176 0.3508
-0.3198 -0.7478 0.3502
-0.2514 -0.7722 0.3497
-0.1813 -0.7907 0.3493
-0.1099 -0.8031 0.3490
-0.0378 -0.8094 0.3489
0.0346 -0.8096 0.3489
0.1067 -0.8035 0.3490
0.1781 -0.7914 0.3492
0.2483 -0.7732 0.3496
0.3167 -0.7490 0.3501
0.3830 -0.7190 0.3507
