ply
format ascii 1.0
element vertex 2002
property float32 x
property float32 y
property float32 z
end_header
8.6871 -7.4590 -2.2867
8.3364 -5.9535 -2.0459
8.5143 -4.9983 -1.9718
8.5121 -4.0232 -1.8803
8.5100 -3.1277 -1.8107
8.5081 -2.2897 -1.7596
8.5063 -1.4914 -1.7247
8.5045 -0.7182 -1.7045
8.5028 0.0432 -1.6981
8.5011 0.8049 -1.7054
8.4993 1.5793 -1.7265
8.4975 2.3795 -1.7623
8.4956 3.2206 -1.8145
8.4935 4.1204 -1.8853
30.3280 22.1271 -7.4976
25.5232 22.3690 -6.7779
5.7752 6.0539 -1.6710
5.7278 8.6817 -2.0772
-25.0228 15.2125 -5.8484
-25.0161 12.2984 -5.5671
-25.0100 9.6315 -5.3524
-25.0043 7.1436 -5.1935
-24.9989 4.7809 -5.0831
-24.9937 2.4987 -5.0165
-24.9886 0.2579 -4.9908
-24.9835 -1.9778 -5.0051
-24.9783 -4.2444 -5.0600
-24.9730 -6.5802 -5.1577
-24.7566 -8.9516 -5.2575
-24.7708 -11.5491 -5.4583
-24.7442 -14.3521 -5.7128
-24.9478 -17.6197 -6.0997
-24.7290 -21.0088 -6.4803
-26.9927 -39.5740 -9.5668
6.6406 -10.5320 -2.4866
7.5536 -9.8977 -2.4866
8.4064 -9.1844 -2.4866
8.6882 -7.9375 -2.3502
7.6235 -5.8069 -1.9139
8.5151 -5.3580 -2.0092
8.5128 -4.3491 -1.9091
8.5107 -3.4289 -1.8325
8.5088 -2.5732 -1.7753
8.5069 -1.7631 -1.7350
8.5051 -0.9828 -1.7099
8.5034 -0.2188 -1.6988
8.5044 -0.6395 -1.6487
8.5026 0.1213 -1.6439
8.5009 0.8837 -1.6522
8.4991 1.6601 -1.6741
8.4973 2.4639 -1.7103
8.4954 3.3101 -1.7625
8.5092 4.2250 -1.8366
11.9182 8.8643 -2.8714
25.0870 22.3975 -6.5013
24.8382 26.5204 -7.0242
-25.0220 14.8990 -5.6297
-25.0155 12.0140 -5.3647
-25.0094 9.3684 -5.1628
-25.0038 6.8957 -5.0141
-24.9984 4.5432 -4.9117
-24.7821 2.2478 -4.8104
-24.7771 0.0281 -4.7898
-24.7720 -2.1902 -4.8075
-24.9778 -4.4808 -4.9057
-24.9724 -6.8260 -5.0046
-24.9668 -9.2878 -5.1496
-24.9608 -11.9181 -5.3471
-24.9543 -14.7819 -5.6069
-24.9470 -17.9649 -5.9430
-26.8477 -40.1487 -9.3368
14.0110 -33.7867 -7.0708
6.9601 -10.8171 -2.4866
7.8972 -10.1531 -2.4866
8.6913 -9.3223 -2.4639
8.5916 -7.7057 -2.2310
7.6163 -5.6917 -1.8381
8.5149 -5.2493 -1.9337
8.5126 -4.2508 -1.8394
8.5105 -3.3383 -1.7673
8.5086 -2.4881 -1.7137
8.5067 -1.6817 -1.6763
8.5050 -0.9037 -1.6534
8.5032 -0.1406 -1.6440
8.5015 0.6199 -1.6478
8.4997 1.3901 -1.6650
8.4979 2.1828 -1.6961
8.4960 3.0125 -1.7426
8.4940 3.8962 -1.8065
30.0701 20.9587 -7.0857
25.8693 21.7023 -6.5277
5.8894 5.9124 -1.6132
5.8427 8.4527 -1.9864
-24.8131 15.8292 -5.6897
-25.0020 12.9696 -5.4449
-25.0114 10.2580 -5.2259
-24.7945 7.6668 -5.0171
-25.0002 5.3435 -4.9421
-24.7839 3.0199 -4.8265
-24.7788 0.7914 -4.7926
-24.7826 -1.4238 -4.7987
-24.7686 -3.6601 -4.8401
-24.9743 -6.0066 -4.9656
-24.9688 -8.4229 -5.0941
-24.7521 -10.8957 -5.2280
-24.9566 -13.7634 -5.5095
-24.9496 -16.8250 -5.8174
-24.9417 -20.2781 -6.2141
-28.0503 -39.2739 -9.3298
12.8077 -33.7895 -6.9855
16.3862 -33.7813 -7.2582
6.6387 -11.0511 -2.4922
7.5809 -10.3914 -2.4866
8.4776 -9.6738 -2.4866
8.6890 -8.2897 -2.3215
6.8849 -5.4834 -1.7015
8.5157 -5.6188 -1.9723
8.5134 -4.5839 -1.8692
8.5112 -3.6448 -1.7899
8.5092 -2.7754 -1.7303
8.5074 -1.9558 -1.6875
8.5056 -1.1696 -1.6597
8.5038 -0.4028 -1.6458
8.5021 0.3572 -1.6450
8.5003 1.1227 -1.6575
8.4986 1.9061 -1.6837
8.4967 2.7213 -1.7247
8.4947 3.5842 -1.7824
34.7717 18.4840 -7.6126
31.8857 20.7955 -7.3591
27.2935 21.5007 -6.7167
25.9939 24.5360 -6.9100
24.4596 27.6124 -7.1310
-25.0036 17.0561 -5.8511
-25.0199 13.9729 -5.5399
-25.0135 11.1704 -5.2958
-25.0076 8.5848 -5.1113
-25.0021 6.1546 -4.9776
-24.7857 3.7978 -4.8474
-24.7805 1.5564 -4.7999
-24.8147 -0.6601 -4.7987
-24.7704 -2.8842 -4.8208
-24.9762 -5.1992 -4.9318
-24.7907 -7.5210 -5.0081
-24.9650 -10.0837 -5.2049
-24.9589 -12.7787 -5.4206
-24.7414 -15.5985 -5.6541
-24.9446 -19.0353 -6.0658
-31.8401 -29.1404 -8.3439
12.0785 -35.0894 -7.1739
15.1210 -33.7842 -7.1553
8.7056 -15.5577 -3.4464
7.2573 -10.6199 -2.4866
8.1757 -9.9302 -2.4866
6.8919 -6.9930 -1.8980
8.6869 -7.3669 -2.2019
8.2679 -5.8284 -1.9555
8.5141 -4.9284 -1.9018
8.5119 -3.9595 -1.8148
8.5099 -3.0686 -1.7488
8.5080 -2.2338 -1.7005
8.5062 -1.4377 -1.6677
8.5044 -0.6657 -1.6491
8.5027 0.0952 -1.6438
8.5009 0.8574 -1.6517
8.4992 1.6331 -1.6731
8.4974 2.4357 -1.7088
8.4954 3.2802 -1.7605
8.4973 4.1867 -1.8312
11.9673 8.8441 -2.8767
25.2150 22.3735 -6.5167
23.8182 25.2758 -6.7138
-25.0223 15.0031 -5.6401
-25.0157 12.1085 -5.3726
-25.0096 9.4559 -5.1688
-25.0040 6.9782 -5.0184
-24.9986 4.6223 -4.9145
-24.7823 2.3244 -4.8118
-24.8233 0.1042 -4.7987
-24.7722 -2.1138 -4.8062
-24.9780 -4.4019 -4.9030
-24.7617 -6.6870 -4.9583
-24.9670 -9.2010 -5.1438
-24.9610 -11.8245 -5.3394
-24.9545 -14.6791 -5.5968
-24.9473 -17.8493 -5.9300
-26.3551 -39.1520 -9.1237
13.8900 -33.7870 -7.0619
6.9269 -10.8383 -2.4866
7.8661 -10.1773 -2.4866
8.6915 -9.3798 -2.4720
8.5917 -7.7534 -2.2372
7.5380 -5.6692 -1.8233
8.5150 -5.2854 -1.9374
8.5127 -4.2835 -1.8422
8.5106 -3.3684 -1.7694
8.5086 -2.5164 -1.7153
8.5068 -1.7088 -1.6773
8.5050 -0.9300 -1.6539
8.5033 -0.1666 -1.6441
8.5015 0.5937 -1.6475
8.4998 1.3634 -1.6641
8.4980 2.1551 -1.6948
8.4961 2.9833 -1.7407
8.4941 3.8648 -1.8040
30.0353 20.7982 -7.0624
26.0713 21.7360 -6.5618
5.9150 5.9018 -1.6153
5.8765 8.4463 -1.9891
-24.8134 15.9365 -5.7009
-24.8166 12.9700 -5.4131
-24.8591 10.2845 -5.2007
-25.0059 7.8161 -5.0647
-24.7893 5.3779 -4.9036
-24.7841 3.0969 -4.8284
-24.7790 0.8674 -4.7931
-24.7739 -1.3473 -4.7962
-24.7688 -3.5827 -4.8380
-24.9745 -5.9259 -4.9620
-24.9690 -8.3379 -5.0889
-24.7523 -10.8054 -5.2211
-24.9568 -13.6641 -5.5003
-24.9499 -16.7143 -5.8055
-24.9420 -20.1518 -6.1988
-32.0046 -30.9648 -8.6087
-28.2327 -39.2745 -9.3505
12.6896 -33.7897 -6.9775
16.2588 -33.7816 -7.2475
6.6388 -11.1285 -2.5050
7.5490 -10.4146 -2.4866
8.4479 -9.6997 -2.4866
8.6891 -8.3408 -2.3284
6.8184 -5.4646 -1.6892
8.5158 -5.6564 -1.9763
8.5134 -4.6177 -1.8723
8.5113 -3.6757 -1.7922
8.5093 -2.8043 -1.7320
8.5074 -1.9832 -1.6887
8.5056 -1.1961 -1.6604
8.5039 -0.4289 -1.6460
8.5021 0.3312 -1.6448
8.5004 1.0962 -1.6569
8.4986 1.8788 -1.6826
8.4968 2.6926 -1.7231
8.4948 3.5537 -1.7801
34.7669 18.3451 -7.5992
31.9314 20.6863 -7.3550
27.3456 21.4064 -6.7134
25.0443 23.4949 -6.6384
24.6099 27.6113 -7.1501
-24.8404 17.0565 -5.8251
-25.0202 14.0737 -5.5494
-25.0137 11.2625 -5.3031
-25.0078 8.6706 -5.1167
-25.0023 6.2359 -4.9814
-24.9970 3.9086 -4.8910
-24.7807 1.6326 -4.8009
-24.8166 -0.5841 -4.7987
-21.1151 -2.3931 -4.1080
-24.9763 -5.1195 -4.9287
-24.9709 -7.4923 -5.0399
-24.9652 -9.9949 -5.1985
-24.9591 -12.6825 -5.4121
-24.8195 -15.5416 -5.6610
-24.9449 -18.9149 -6.0518
-31.9076 -29.0231 -8.3382
12.0793 -35.4439 -7.2388
14.9972 -33.7845 -7.1456
8.7058 -15.6706 -3.4655
7.2248 -10.6421 -2.4866
8.1453 -9.9552 -2.4866
8.6903 -8.8719 -2.4008
8.6849 -7.4111 -2.2071
8.1936 -5.8137 -1.9422
8.5142 -4.9633 -1.9052
8.5120 -3.9913 -1.8174
8.5100 -3.0981 -1.7507
8.5081 -2.2617 -1.7019
8.5063 -1.4646 -1.6686
8.5045 -0.6919 -1.6495
8.5027 0.0692 -1.6438
8.5010 0.8311 -1.6512
8.4992 1.6062 -1.6721
8.4974 2.4076 -1.7073
8.4955 3.2504 -1.7584
8.4934 4.1525 -1.8276
12.0195 8.8259 -2.8827
25.3437 22.3494 -6.5322
5.8020 6.1194 -1.6302
-25.0225 15.1076 -5.6505
-25.0159 12.2033 -5.3807
-25.0098 9.5436 -5.1748
-25.0041 7.0608 -5.0227
-24.9988 4.7016 -4.9174
-24.7825 2.4010 -4.8133
-24.8228 0.1802 -4.7987
-24.7723 -2.0374 -4.8050
-24.9782 -4.3232 -4.9004
-24.9586 -6.6582 -4.9936
-24.9672 -9.1143 -5.1381
-24.7504 -11.6321 -5.2867
-24.9548 -14.5766 -5.5868
-24.9476 -17.7343 -5.9171
-24.7287 -21.1391 -6.2890
-26.4484 -39.0321 -9.1146
-18.7171 -42.2646 -8.9357
13.7693 -33.7873 -7.0532
6.8937 -10.8595 -2.4866
7.8349 -10.2013 -2.4866
8.6916 -9.4378 -2.4803
8.5919 -7.8014 -2.2435
7.4611 -5.6472 -1.8089
8.5150 -5.3217 -1.9411
8.5127 -4.3162 -1.8451
8.5107 -3.3986 -1.7716
8.5087 -2.5448 -1.7169
8.5069 -1.7359 -1.6784
8.5051 -0.9564 -1.6545
8.5033 -0.1927 -1.6442
8.5016 0.5676 -1.6471
8.4999 1.3367 -1.6633
8.4981 2.1275 -1.6935
8.4962 2.9541 -1.7389
8.4942 3.8335 -1.8015
35.6710 20.1059 -7.9157
30.0008 20.6385 -7.0394
26.2753 21.7701 -6.5963
5.9687 5.9191 -1.6250
5.9244 8.4597 -1.9965
22.1087 38.4697 -8.5774
-24.8136 16.0442 -5.7122
-24.8068 13.0617 -5.4197
-24.8006 10.3493 -5.1950
-25.0061 7.9003 -5.0696
-24.7894 5.4574 -4.9069
-24.7842 3.1740 -4.8303
-24.7791 0.9434 -4.7936
-24.7909 -1.2720 -4.7987
-24.7690 -3.5053 -4.8359
-24.9747 -5.8452 -4.9584
-24.9692 -8.2531 -5.0838
-24.7893 -10.7314 -5.2219
-24.9571 -13.5650 -5.4912
-24.9501 -16.6040 -5.7937
-24.9423 -20.0262 -6.1836
-31.1669 -29.9702 -8.3587
-28.4160 -39.2751 -9.3713
6.0732 -33.8465 -6.6475
12.5717 -33.7900 -6.9696
16.1317 -33.7819 -7.2369
6.6390 -11.2066 -2.5180
7.5171 -10.4377 -2.4866
8.4182 -9.7255 -2.4866
8.6892 -8.3921 -2.3353
6.7528 -5.4461 -1.6771
8.5159 -5.6941 -1.9803
8.5135 -4.6515 -1.8754
8.5114 -3.7067 -1.7946
8.5094 -2.8333 -1.7338
8.5075 -2.0108 -1.6899
8.5057 -1.2227 -1.6612
8.5039 -0.4550 -1.6463
8.5022 0.3051 -1.6447
8.5005 1.0698 -1.6562
8.4987 1.8515 -1.6815
8.4968 2.6641 -1.7214
8.4949 3.5232 -1.7778
34.8371 18.2460 -7.6023
31.9771 20.5771 -7.3509
27.3977 21.3122 -6.7101
25.1870 23.4843 -6.6572
24.7610 27.6102 -7.1694
-21.1301 17.5851 -5.3143
-24.8162 17.1519 -5.8317
-25.0204 14.1749 -5.5591
-25.0140 11.3549 -5.3105
-25.0080 8.7565 -5.1222
-24.7913 6.2639 -4.9431
-24.9288 3.9761 -4.8800
-24.7809 1.7088 -4.8019
-24.8183 -0.5082 -4.7987
-21.0787 -2.3236 -4.0995
-24.9765 -5.0399 -4.9256
-24.9711 -7.4091 -5.0353
-24.9654 -9.9065 -5.1923
-24.9593 -12.5866 -5.4038
-24.8670 -15.4656 -5.6610
-24.9451 -18.7951 -6.0379
-32.4025 -29.2925 -8.4441
14.8736 -33.7848 -7.1360
8.7061 -15.7848 -3.4848
7.1922 -10.6642 -2.4866
8.1147 -9.9801 -2.4866
8.6904 -8.9266 -2.4084
8.6315 -7.4112 -2.1993
8.1204 -5.7992 -1.9290
8.5143 -4.9983 -1.9086
8.5121 -4.0232 -1.8201
8.5100 -3.1277 -1.7527
8.5081 -2.2897 -1.7033
8.5063 -1.4914 -1.6695
8.5045 -0.7182 -1.6499
8.5028 0.0432 -1.6437
8.5011 0.8049 -1.6507
8.4993 1.5793 -1.6712
8.4975 2.3795 -1.7059
8.4956 3.2206 -1.7564
8.4935 4.1204 -1.8249
30.3221 22.1228 -7.2560
25.4731 22.3251 -6.5479
5.7748 6.0535 -1.6173
5.7278 8.6817 -2.0107
-25.0226 15.2124 -5.6610
-25.0161 12.2984 -5.3888
-25.0100 9.6315 -5.1809
-25.0043 7.1436 -5.0271
-24.9989 4.7809 -4.9202
-24.7826 2.4776 -4.8147
-24.8221 0.2562 -4.7987
-24.7725 -1.9611 -4.8039
-24.9783 -4.2444 -4.8979
-24.9730 -6.5802 -4.9924
-24.7566 -8.9516 -5.0891
-24.7708 -11.5491 -5.2835
-24.9550 -14.4743 -5.5769
-24.9478 -17.6197 -5.9043
-24.7290 -21.0088 -6.2727
-26.5448 -38.9174 -9.1067
-18.8551 -42.2262 -8.9398
13.6490 -33.7875 -7.0445
6.8604 -10.8806 -2.4866
7.8036 -10.2252 -2.4866
8.6846 -9.4884 -2.4866
8.6882 -7.9375 -2.2750
7.3854 -5.6256 -1.7947
8.5151 -5.3580 -1.9449
8.5128 -4.3491 -1.8480
8.5107 -3.4289 -1.7738
8.5088 -2.5732 -1.7184
8.5069 -1.7631 -1.6795
8.5051 -0.9828 -1.6551
8.5034 -0.2188 -1.6444
8.5052 -0.6396 -1.5944
8.5026 0.1213 -1.5896
8.5009 0.8837 -1.5977
8.4991 1.6601 -1.6188
8.4973 2.4639 -1.6538
8.4954 3.3101 -1.7043
8.5092 4.2250 -1.7759
11.9178 8.8641 -2.7765
25.3697 22.6500 -6.3575
25.0789 26.7774 -6.8581
-25.0220 14.8990 -5.4438
-25.0155 12.0140 -5.1875
-25.0094 9.3684 -4.9923
-24.7926 6.8374 -4.8076
-24.9984 4.5432 -4.7496
-24.7821 2.2478 -4.6516
-24.7771 0.0281 -4.6316
-24.9830 -2.2088 -4.6883
-24.9778 -4.4808 -4.7437
-24.7626 -6.7687 -4.7987
-24.9668 -9.2878 -4.9796
-24.9608 -11.9181 -5.1706
-24.9543 -14.7819 -5.4218
-24.7363 -17.8132 -5.6982
-26.2778 -39.2965 -8.8368
14.0110 -33.7867 -6.8374
17.6896 -33.7783 -7.1277
7.1977 -11.1864 -2.4866
8.1669 -10.4998 -2.4866
8.6913 -9.3223 -2.3825
8.5916 -7.7057 -2.1574
7.3808 -5.5157 -1.7224
8.5149 -5.2493 -1.8699
8.5126 -4.2508 -1.7786
8.5105 -3.3383 -1.7089
8.5086 -2.4881 -1.6571
8.5067 -1.6817 -1.6210
8.5057 -0.9037 -1.5989
8.5038 -0.1406 -1.5899
8.5015 0.6199 -1.5934
8.4997 1.3901 -1.6100
8.4979 2.1828 -1.6401
8.4960 3.0125 -1.6851
8.4940 3.8962 -1.7469
30.0643 20.9547 -6.8504
25.8559 21.6910 -6.3089
5.8892 5.9122 -1.5599
5.8427 8.4527 -1.9208
-25.0245 15.9641 -5.5487
-25.0021 12.9696 -5.2651
-25.0114 10.2580 -5.0534
-24.7945 7.6668 -4.8514
-25.0002 5.3435 -4.7789
-24.9950 3.0456 -4.7069
-24.7788 0.7914 -4.6343
-24.9847 -1.4355 -4.6782
-24.9796 -3.6913 -4.7202
-24.9593 -6.0030 -4.7987
-24.9688 -8.4229 -4.9259
-24.7521 -10.8957 -5.0554
-24.9566 -13.7634 -5.3276
-24.9496 -16.8250 -5.6253
-24.9417 -20.2781 -6.0089
-32.0310 -31.1808 -8.3562
-27.5118 -38.5199 -8.8486
-19.9567 -42.2188 -8.7294
12.8077 -33.7895 -6.7549
16.3862 -33.7813 -7.0185
6.8499 -11.4027 -2.4866
7.8397 -10.7463 -2.4866
8.6927 -9.9193 -2.4655
8.5928 -8.1979 -2.2200
6.6874 -5.3261 -1.5981
8.5157 -5.6188 -1.9072
8.5134 -4.5839 -1.8075
8.5112 -3.6448 -1.7308
8.5092 -2.7754 -1.6731
8.5074 -1.9558 -1.6318
8.5062 -1.1696 -1.6050
8.5047 -0.4028 -1.5916
8.5021 0.3572 -1.5907
8.5003 1.1227 -1.6028
8.4986 1.9061 -1.6281
8.4967 2.7213 -1.6678
8.4947 3.5842 -1.7235
34.9756 18.5924 -7.4044
27.3179 21.5199 -6.5008
25.5331 24.1010 -6.5634
24.4598 27.6127 -6.8956
-25.0036 17.0561 -5.6579
-25.0199 13.9729 -5.3570
-25.0135 11.1704 -5.1209
-25.0076 8.5848 -4.9425
-24.9269 6.1361 -4.7987
-24.9968 3.8302 -4.7272
-24.9916 1.5696 -4.6809
-24.9865 -0.6647 -4.6724
-24.9814 -2.9088 -4.7014
-24.9762 -5.1992 -4.7689
-24.7598 -7.5117 -4.8367
-24.9650 -10.0837 -5.0331
-24.9589 -12.7787 -5.2416
-24.7414 -15.5985 -5.4674
-24.9446 -19.0353 -5.8655
-31.9432 -29.2348 -8.0945
-29.3407 -38.5156 -9.0509
11.7644 -34.1768 -6.7567
15.1210 -33.7842 -6.9191
6.6405 -11.8673 -2.5421
7.5051 -10.9825 -2.4866
8.4549 -10.2693 -2.4866
6.8919 -6.9930 -1.8354
8.6869 -7.3669 -2.1292
8.0568 -5.6796 -1.8427
8.5141 -4.9284 -1.8390
8.5119 -3.9595 -1.7549
8.5099 -3.0686 -1.6910
8.5080 -2.2338 -1.6443
8.5062 -1.4377 -1.6126
8.5052 -0.6658 -1.5948
8.5027 0.0952 -1.5895
8.5009 0.8574 -1.5972
8.4992 1.6331 -1.6178
8.4974 2.4357 -1.6524
8.4954 3.2802 -1.7023
8.4973 4.1867 -1.7708
11.9670 8.8439 -2.7816
25.5643 22.6834 -6.3888
23.8110 25.2681 -6.4902
-25.0223 15.0031 -5.4538
-25.0157 12.1085 -5.1952
-25.0096 9.4559 -4.9981
-24.7928 6.9193 -4.8117
-24.9986 4.6223 -4.7523
-24.7823 2.3244 -4.6529
-24.9883 0.1049 -4.6712
-24.9832 -2.1318 -4.6871
-24.9780 -4.4019 -4.7411
-24.7617 -6.6870 -4.7946
-24.9670 -9.2010 -4.9740
-24.9610 -11.8245 -5.1631
-24.9545 -14.6791 -5.4120
-24.7366 -17.6986 -5.6857
-26.3551 -39.1520 -8.8225
13.8900 -33.7870 -6.8288
17.5582 -33.7786 -7.1164
7.1634 -11.2084 -2.4866
8.1347 -10.5247 -2.4866
8.6915 -9.3798 -2.3904
8.5917 -7.7534 -2.1634
7.3068 -5.4953 -1.7091
8.5150 -5.2854 -1.8734
8.5127 -4.2835 -1.7814
8.5106 -3.3684 -1.7110
8.5086 -2.5164 -1.6586
8.5068 -1.7088 -1.6220
8.5057 -0.9301 -1.5995
8.5042 -0.1667 -1.5900
8.5015 0.5937 -1.5931
8.4998 1.3634 -1.6092
8.4980 2.1551 -1.6388
8.4961 2.9833 -1.6833
8.4941 3.8648 -1.7445
30.0296 20.7942 -6.8280
26.0577 21.7247 -6.3418
5.9148 5.9017 -1.5619
5.8765 8.4463 -1.9234
-25.0247 16.0723 -5.5596
-24.8166 12.9700 -5.2344
-24.8591 10.2845 -5.0290
-25.0059 7.8161 -4.8974
-24.7893 5.3779 -4.7417
-24.9952 3.1233 -4.7087
-24.7790 0.8674 -4.6348
-24.7739 -1.3473 -4.6379
-24.9798 -3.6132 -4.7181
-24.9745 -5.9259 -4.7982
-24.9690 -8.3379 -4.9209
-24.7523 -10.8054 -5.0487
-24.9568 -13.6641 -5.3187
-24.9499 -16.7143 -5.6138
-24.9420 -20.1518 -5.9941
-31.9805 -30.9414 -8.3182
-27.6845 -38.5118 -8.8662
-20.1106 -42.2096 -8.7401
12.6896 -33.7897 -6.7471
16.2588 -33.7816 -7.0082
6.8149 -11.4237 -2.4866
7.8068 -10.7702 -2.4866
8.6928 -9.9809 -2.4742
8.5929 -8.2484 -2.2266
6.6256 -5.3101 -1.5872
8.5158 -5.6564 -1.9110
8.5134 -4.6177 -1.8105
8.5113 -3.6757 -1.7331
8.5093 -2.8043 -1.6748
8.5074 -1.9832 -1.6330
8.5062 -1.1962 -1.6057
8.5047 -0.4289 -1.5918
8.5021 0.3312 -1.5905
8.5004 1.0962 -1.6022
8.4986 1.8788 -1.6270
8.4968 2.6926 -1.6662
8.4948 3.5537 -1.7213
35.3166 18.6352 -7.4645
27.3701 21.4256 -6.4976
25.0553 23.5053 -6.4221
24.6102 27.6116 -6.9141
12.0926 41.8346 -8.1404
-24.8404 17.0565 -5.6327
-25.0202 14.0737 -5.3662
-25.0137 11.2625 -5.1280
-25.0078 8.6706 -4.9478
-24.9080 6.2124 -4.7987
-24.9970 3.9086 -4.7295
-24.9918 1.6465 -4.6819
-24.9867 -0.5881 -4.6721
-21.1133 -2.3929 -3.9720
-24.9763 -5.1195 -4.7660
-24.7600 -7.4290 -4.8323
-24.9652 -9.9949 -5.0269
-24.9591 -12.6825 -5.2334
-24.8768 -15.5775 -5.4868
-24.9449 -18.9149 -5.8520
-32.2670 -29.3500 -8.1537
-29.5278 -38.5160 -9.0722
-26.0617 -41.1341 -9.1027
11.7252 -34.4048 -6.7946
14.9971 -33.7845 -6.9097
6.6407 -11.9534 -2.5561
7.4715 -11.0055 -2.4866
8.4234 -10.2951 -2.4866
8.6903 -8.8719 -2.3215
8.6849 -7.4111 -2.1342
7.9857 -5.6662 -1.8304
8.5142 -4.9633 -1.8423
8.5120 -3.9913 -1.7574
8.5100 -3.0981 -1.6929
8.5081 -2.2617 -1.6457
8.5062 -1.4646 -1.6135
8.5053 -0.6920 -1.5952
8.5027 0.0692 -1.5895
8.5010 0.8311 -1.5967
8.4992 1.6062 -1.6169
8.4974 2.4076 -1.6510
8.4955 3.2504 -1.7003
8.4934 4.1525 -1.7673
12.0182 8.8250 -2.7872
25.7608 22.7172 -6.4205
5.8016 6.1190 -1.5762
-25.0225 15.1076 -5.4639
-25.0159 12.2033 -5.2030
-25.0098 9.5436 -5.0040
-24.7930 7.0011 -4.8158
-24.9988 4.7016 -4.7550
-24.9936 2.4214 -4.6940
-24.9884 0.1814 -4.6713
-24.9833 -2.0547 -4.6860
-24.9782 -4.3232 -4.7386
-24.8036 -6.6169 -4.7987
-24.9672 -9.1143 -4.9684
-24.7504 -11.6321 -5.1121
-24.9548 -14.5766 -5.4024
-24.7369 -17.5846 -5.6734
-24.7287 -21.1391 -6.0814
-26.4484 -39.0320 -8.8137
13.7693 -33.7873 -6.8203
17.4272 -33.7789 -7.1052
7.1291 -11.2303 -2.4866
8.1024 -10.5496 -2.4866
8.6916 -9.4378 -2.3984
8.5919 -7.8014 -2.1694
7.2340 -5.4753 -1.6959
8.5150 -5.3217 -1.8770
8.5127 -4.3162 -1.7842
8.5107 -3.3986 -1.7131
8.5087 -2.5448 -1.6602
8.5069 -1.7359 -1.6230
8.5058 -0.9565 -1.6000
8.5042 -0.1927 -1.5901
8.5016 0.5676 -1.5928
8.4999 1.3367 -1.6084
8.4981 2.1275 -1.6376
8.4962 2.9541 -1.6815
8.4942 3.8335 -1.7421
29.9951 20.6347 -6.8057
26.2615 21.7587 -6.3752
5.9683 5.9187 -1.5713
5.9244 8.4597 -1.9306
-25.0250 16.1809 -5.5707
-24.8068 13.0618 -5.2407
-24.8006 10.3493 -5.0235
-25.0061 7.9003 -4.9022
-24.7894 5.4574 -4.7449
-24.9953 3.2010 -4.7106
-24.7791 0.9434 -4.6354
-24.9851 -1.2820 -4.6767
-24.9800 -3.5351 -4.7161
-24.9747 -5.8452 -4.7947
-24.9692 -8.2531 -4.9159
-24.7893 -10.7314 -5.0495
-24.9571 -13.5650 -5.3099
-24.9501 -16.6040 -5.6024
-24.9423 -20.0262 -5.9794
-31.2659 -30.0655 -8.1084
-27.8641 -38.5122 -8.8859
6.0731 -33.8456 -6.4279
12.5717 -33.7900 -6.7395
16.1317 -33.7819 -6.9980
6.7799 -11.4445 -2.4866
7.7738 -10.7941 -2.4866
8.6930 -10.0430 -2.4830
8.5930 -8.2992 -2.2332
6.6256 -5.3435 -1.5912
8.5159 -5.6941 -1.9150
8.5135 -4.6515 -1.8135
8.5114 -3.7067 -1.7354
8.5094 -2.8333 -1.6765
8.5075 -2.0108 -1.6341
8.5063 -1.2228 -1.6064
8.5048 -0.4550 -1.5921
8.5022 0.3051 -1.5904
8.5005 1.0698 -1.6015
8.4987 1.8515 -1.6259
8.4968 2.6641 -1.6646
8.4949 3.5232 -1.7191
35.0496 18.3573 -7.3962
27.4222 21.3312 -6.4944
25.1981 23.4947 -6.4402
24.7613 27.6105 -6.9328
-21.1295 17.5847 -5.1387
-24.8162 17.1519 -5.6391
-25.0204 14.1749 -5.3756
-25.0140 11.3549 -5.1351
-25.0080 8.7565 -4.9531
-24.7913 6.2639 -4.7799
-24.9289 3.9761 -4.7189
-24.9920 1.7233 -4.6829
-24.9869 -0.5117 -4.6718
-21.0781 -2.3235 -3.9640
-24.9765 -5.0399 -4.7630
-24.7602 -7.3465 -4.8279
-24.9654 -9.9065 -5.0208
-24.9593 -12.5866 -5.2254
-24.9526 -15.5189 -5.4930
-24.9451 -18.7951 -5.8385
-32.4023 -29.2924 -8.1652
-29.7156 -38.5164 -9.0937
-26.0623 -40.8577 -9.0592
11.7091 -34.7057 -6.8469
14.8735 -33.7848 -6.9004
6.6409 -12.0405 -2.5704
7.4377 -11.0283 -2.4866
8.3918 -10.3209 -2.4866
8.6904 -8.9266 -2.3289
8.6315 -7.4112 -2.1267
7.9158 -5.6531 -1.8183
8.5143 -4.9983 -1.8456
8.5121 -4.0232 -1.7600
8.5100 -3.1277 -1.6948
8.5081 -2.2897 -1.6470
8.5063 -1.4914 -1.6144
8.5053 -0.7182 -1.5956
8.5028 0.0432 -1.5895
8.5011 0.8049 -1.5962
8.4993 1.5793 -1.6160
8.4975 2.3795 -1.6496
8.4956 3.2206 -1.6984
8.4935 4.1204 -1.7647
30.3162 22.1185 -7.0151
25.9593 22.7512 -6.4526
5.7744 6.0531 -1.5638
5.7278 8.6817 -1.9443
-25.0228 15.2125 -5.4741
-25.0161 12.2984 -5.2109
-25.0100 9.6315 -5.0099
-24.7932 7.0833 -4.8201
-24.9989 4.7809 -4.7578
-24.9937 2.4987 -4.6954
-24.9886 0.2579 -4.6714
-24.9835 -1.9778 -4.6848
-24.9783 -4.2444 -4.7362
-24.8238 -6.5409 -4.7987
-24.7566 -8.9516 -4.9210
-24.7708 -11.5491 -5.1090
-24.9550 -14.4743 -5.3928
-24.7371 -17.4709 -5.6612
-24.7290 -21.0088 -6.0656
-26.5448 -38.9174 -8.8061
13.6490 -33.7875 -6.8119
17.2965 -33.7792 -7.0941
7.0946 -11.2521 -2.4866
8.0701 -10.5744 -2.4866
8.6917 -9.4961 -2.4064
8.5920 -7.8496 -2.1755
7.1623 -5.4556 -1.6830
8.5151 -5.3580 -1.8806
8.5128 -4.3491 -1.7870
8.5107 -3.4289 -1.7152
8.5088 -2.5732 -1.6617
8.5069 -1.7631 -1.6240
8.5058 -0.9829 -1.6006
8.5043 -0.2188 -1.5903
8.5061 -0.6397 -1.5402
8.5026 0.1213 -1.5354
8.5009 0.8837 -1.5432
8.4991 1.6601 -1.5636
8.4973 2.4639 -1.5975
8.4954 3.3101 -1.6463
8.5092 4.2250 -1.7154
11.9175 8.8638 -2.6818
25.0988 22.4081 -6.0753
23.7290 25.3361 -6.2679
-25.0220 14.8990 -5.2584
-25.0155 12.0140 -5.0108
-24.8876 9.3227 -4.7987
-25.0038 6.8957 -4.6833
-24.9984 4.5432 -4.5878
-24.7821 2.2478 -4.4931
-24.7771 0.0281 -4.4739
-24.9830 -2.2088 -4.5286
-24.9778 -4.4808 -4.5821
-24.9724 -6.8260 -4.6746
-24.9087 -9.2662 -4.7987
-24.9608 -11.9181 -4.9944
-24.9543 -14.7819 -5.2371
-24.9470 -17.9649 -5.5510
-32.8456 -28.4278 -7.8436
-26.2778 -39.2965 -8.5358
14.0110 -33.7867 -6.6044
17.6896 -33.7783 -6.8849
7.4516 -11.5809 -2.4866
8.4549 -10.8701 -2.4866
8.6913 -9.3223 -2.3014
8.6878 -7.7920 -2.1072
7.1599 -5.3506 -1.6140
8.5149 -5.2493 -1.8062
8.5126 -4.2508 -1.7181
8.5105 -3.3383 -1.6507
8.5086 -2.4881 -1.6007
8.5067 -1.6817 -1.5657
8.5067 -0.9038 -1.5446
8.5038 -0.1406 -1.5357
8.5015 0.6199 -1.5391
8.4997 1.3901 -1.5551
8.4979 2.1828 -1.5842
8.4960 3.0125 -1.6277
8.4940 3.8962 -1.6874
30.0587 20.9508 -6.6158
25.8426 21.6798 -6.0908
5.8891 5.9121 -1.5068
5.8427 8.4527 -1.8554
-25.0245 15.9641 -5.3597
-25.0021 12.9696 -5.0857
-24.8002 10.1713 -4.8400
-24.7945 7.6668 -4.6862
-25.0002 5.3435 -4.6161
-24.9950 3.0456 -4.5466
-24.7788 0.7914 -4.4764
-24.9847 -1.4355 -4.5188
-24.9796 -3.6913 -4.5594
-24.9743 -6.0066 -4.6381
-24.9688 -8.4229 -4.7581
-24.7521 -10.8957 -4.8832
-24.9566 -13.7634 -5.1461
-24.9496 -16.8250 -5.4337
-24.9417 -20.2781 -5.8042
-31.9831 -31.1342 -8.0594
-27.5118 -38.5199 -8.5472
12.8077 -33.7895 -6.5248
16.3862 -33.7813 -6.7794
7.0915 -11.8049 -2.4866
8.1162 -11.1252 -2.4866
8.6927 -9.9193 -2.3815
8.5928 -8.1979 -2.1444
6.6255 -5.2768 -1.5294
8.5157 -5.6188 -1.8422
8.5134 -4.5839 -1.7459
8.5112 -3.6448 -1.6718
8.5092 -2.7754 -1.6161
8.5074 -1.9558 -1.5762
8.5072 -1.1698 -1.5505
8.5056 -0.4028 -1.5375
8.5021 0.3572 -1.5365
8.5003 1.1227 -1.5482
8.4986 1.9061 -1.5727
8.4967 2.7213 -1.6110
8.4947 3.5842 -1.6648
35.0952 18.6560 -7.1767
27.3424 21.5392 -6.2849
25.5707 24.1365 -6.3492
24.4601 27.6130 -6.6608
12.1494 42.5187 -7.9846
-25.0036 17.0561 -5.4651
-25.0199 13.9729 -5.1745
-25.0135 11.1704 -4.9465
-25.0076 8.5848 -4.7741
-25.0021 6.1546 -4.6493
-24.9968 3.8302 -4.5662
-24.9916 1.5696 -4.5215
-24.9865 -0.6647 -4.5133
-24.9814 -2.9088 -4.5412
-24.9762 -5.1992 -4.6065
-24.7907 -7.5210 -4.6778
-24.7542 -9.9985 -4.8206
-24.9589 -12.7787 -5.0630
-24.7414 -15.5985 -5.2812
-24.9239 -19.0195 -5.6610
-32.0469 -29.3296 -7.8441
-29.3407 -38.5156 -8.7426
-26.0611 -41.4131 -8.8352
11.8072 -34.3012 -6.5503
15.1210 -33.7842 -6.6834
6.7246 -12.0176 -2.4866
7.7698 -11.3699 -2.4866
8.6941 -10.5599 -2.4698
6.8919 -6.9930 -1.7729
8.6869 -7.3669 -2.0566
7.8508 -5.5344 -1.7344
8.5141 -4.9284 -1.7763
8.5119 -3.9595 -1.6951
8.5099 -3.0686 -1.6334
8.5080 -2.2338 -1.5883
8.5062 -1.4377 -1.5577
8.5062 -0.6659 -1.5406
8.5027 0.0952 -1.5354
8.5009 0.8574 -1.5428
8.4992 1.6331 -1.5627
8.4974 2.4357 -1.5961
8.4954 3.2802 -1.6443
8.4973 4.1867 -1.7104
11.9667 8.8436 -2.6868
25.6284 22.7402 -6.1866
23.8037 25.2604 -6.2672
-25.0223 15.0031 -5.2680
-25.0157 12.1085 -5.0183
-24.8589 9.3989 -4.7987
-25.0040 6.9782 -4.6874
-24.9986 4.6223 -4.5904
-24.7823 2.3244 -4.4944
-24.9883 0.1049 -4.5120
-24.9832 -2.1318 -4.5275
-24.9780 -4.4019 -4.5796
-24.7617 -6.6870 -4.6313
-24.9369 -9.1899 -4.7987
-24.9610 -11.8245 -4.9872
-24.9545 -14.6791 -5.2277
-24.9473 -17.8493 -5.5388
-32.9100 -28.3078 -7.8382
-26.3551 -39.1520 -8.5219
13.8900 -33.7870 -6.5962
17.5582 -33.7786 -6.8740
7.4161 -11.6037 -2.4866
8.4216 -10.8959 -2.4866
8.6915 -9.3798 -2.3090
8.6880 -7.8403 -2.1131
7.0898 -5.3321 -1.6018
8.5150 -5.2854 -1.8096
8.5127 -4.2835 -1.7207
8.5106 -3.3684 -1.6527
8.5086 -2.5164 -1.6021
8.5068 -1.7088 -1.5667
8.5067 -0.9302 -1.5452
8.5044 -0.1667 -1.5359
8.5015 0.5937 -1.5388
8.4998 1.3634 -1.5544
8.4980 2.1551 -1.5830
8.4961 2.9833 -1.6259
8.4941 3.8648 -1.6850
30.0240 20.7903 -6.5941
26.0442 21.7134 -6.1226
5.9147 5.9015 -1.5087
5.8765 8.4463 -1.8579
-25.0247 16.0723 -5.3702
-24.8166 12.9700 -5.0561
-24.8004 10.2602 -4.8462
-25.0059 7.8161 -4.7306
-24.7893 5.3779 -4.5802
-24.9952 3.1233 -4.5483
-24.7790 0.8674 -4.4769
-24.7739 -1.3473 -4.4799
-24.9798 -3.6132 -4.5574
-24.9745 -5.9259 -4.6347
-24.9690 -8.3379 -4.7532
-24.7523 -10.8055 -4.8767
-24.9568 -13.6641 -5.1375
-24.9499 -16.7143 -5.4225
-24.9420 -20.1518 -5.7899
-31.9438 -30.9059 -8.0256
-27.6845 -38.5118 -8.5641
12.6896 -33.7897 -6.5173
16.2588 -33.7816 -6.7695
7.0553 -11.8265 -2.4866
8.0821 -11.1501 -2.4866
8.6928 -9.9809 -2.3899
8.5929 -8.2484 -2.1507
6.6256 -5.3101 -1.5332
8.5158 -5.6564 -1.8459
8.5134 -4.6177 -1.7488
8.5113 -3.6757 -1.6740
8.5093 -2.8043 -1.6178
8.5074 -1.9832 -1.5773
8.5072 -1.1963 -1.5512
8.5057 -0.4290 -1.5378
8.5021 0.3312 -1.5364
8.5004 1.0962 -1.5476
8.4986 1.8788 -1.5716
8.4968 2.6926 -1.6094
8.4948 3.5537 -1.6627
34.9962 18.4661 -7.1448
27.3946 21.4447 -6.2818
25.0663 23.5156 -6.2060
24.6104 27.6119 -6.6787
-24.8404 17.0565 -5.4409
-25.0202 14.0737 -5.1834
-25.0137 11.2625 -4.9533
-25.0078 8.6706 -4.7792
-25.0023 6.2359 -4.6528
-24.9970 3.9086 -4.5684
-24.9918 1.6465 -4.5224
-24.9867 -0.5881 -4.5130
-21.1114 -2.3927 -3.8364
-24.9763 -5.1195 -4.6036
-24.9709 -7.4923 -4.7074
-24.7544 -9.9105 -4.8147
-24.9591 -12.6825 -5.0552
-24.8768 -15.5775 -5.2998
-24.9449 -18.9149 -5.6526
-32.2669 -29.3499 -7.8759
-29.5278 -38.5160 -8.7632
-26.0617 -41.1341 -8.7926
11.7891 -34.5924 -6.5989
14.9972 -33.7845 -6.6743
6.6878 -12.0381 -2.4866
7.7350 -11.3936 -2.4866
8.6943 -10.6262 -2.4791
8.6903 -8.8719 -2.2424
8.6849 -7.4111 -2.0615
7.7692 -5.5126 -1.7201
8.5142 -4.9633 -1.7795
8.5120 -3.9913 -1.6975
8.5100 -3.0981 -1.6353
8.5081 -2.2617 -1.5896
8.5062 -1.4646 -1.5585
8.5062 -0.6921 -1.5410
8.5027 0.0692 -1.5353
8.5010 0.8311 -1.5423
8.4992 1.6062 -1.5618
8.4974 2.4076 -1.5947
8.4955 3.2504 -1.6424
8.4934 4.1525 -1.7071
12.0170 8.8241 -2.6920
25.8256 22.7744 -6.2174
5.8012 6.1186 -1.5224
-25.0225 15.1076 -5.2778
-25.0159 12.2033 -5.0258
-24.8300 9.4749 -4.7987
-25.0041 7.0608 -4.6914
-24.9988 4.7016 -4.5930
-24.9936 2.4214 -4.5341
-24.9884 0.1814 -4.5121
-24.9833 -2.0547 -4.5263
-24.9782 -4.3232 -4.5772
-24.9586 -6.6582 -4.6642
-24.9649 -9.1135 -4.7987
-24.7504 -11.6321 -4.9380
-24.9548 -14.5766 -5.2183
-24.9476 -17.7343 -5.5268
-24.7287 -21.1391 -5.8742
-26.4484 -39.0320 -8.5134
13.7693 -33.7873 -6.5879
17.4272 -33.7789 -6.8632
7.3805 -11.6263 -2.4866
8.3882 -10.9216 -2.4866
8.6916 -9.4378 -2.3167
8.6881 -7.8887 -2.1190
7.0207 -5.3139 -1.5899
8.5150 -5.3217 -1.8131
8.5127 -4.3162 -1.7234
8.5107 -3.3986 -1.6547
8.5087 -2.5448 -1.6036
8.5069 -1.7359 -1.5677
8.5068 -0.9566 -1.5457
8.5049 -0.1927 -1.5361
8.5016 0.5676 -1.5385
8.4999 1.3367 -1.5536
8.4981 2.1275 -1.5818
8.4962 2.9541 -1.6242
8.4942 3.8335 -1.6827
31.1506 21.4295 -6.8271
26.2478 21.7473 -6.1548
5.9679 5.9183 -1.5176
5.9244 8.4597 -1.8648
-25.0250 16.1809 -5.3809
-24.8068 13.0618 -5.0622
-24.8006 10.3493 -4.8524
-25.0061 7.9003 -4.7352
-24.7894 5.4574 -4.5833
-24.9953 3.2010 -4.5501
-24.7791 0.9434 -4.4775
-24.9851 -1.2820 -4.5174
-24.9799 -3.5351 -4.5554
-24.9747 -5.8452 -4.6314
-24.9692 -8.2531 -4.7484
-24.7893 -10.7314 -4.8775
-24.9571 -13.5650 -5.1290
-24.9501 -16.6040 -5.4115
-24.9423 -20.0262 -5.7757
-31.4962 -30.2869 -7.8899
-27.8641 -38.5122 -8.5832
6.0729 -33.8446 -6.2087
12.5717 -33.7900 -6.5099
16.1317 -33.7819 -6.7596
7.0190 -11.8481 -2.4866
8.0479 -11.1747 -2.4866
8.6930 -10.0430 -2.3984
8.5930 -8.2992 -2.1571
6.6257 -5.3435 -1.5370
8.4405 -5.6437 -1.8334
8.5135 -4.6515 -1.7517
8.5114 -3.7067 -1.6763
8.5094 -2.8333 -1.6194
8.5075 -2.0108 -1.5785
8.5072 -1.2229 -1.5519
8.5058 -0.4551 -1.5380
8.5022 0.3051 -1.5362
8.5005 1.0698 -1.5470
8.4987 1.8515 -1.5706
8.4968 2.6641 -1.6079
8.4949 3.5232 -1.6606
35.0198 18.3416 -7.1381
27.4467 21.3503 -6.2788
25.2092 23.5050 -6.2236
24.7615 27.6108 -6.6967
-21.1290 17.5842 -4.9635
-24.8162 17.1519 -5.4470
-25.0204 14.1749 -5.1924
-25.0140 11.3549 -4.9602
-25.0080 8.7565 -4.7844
-24.7913 6.2639 -4.6171
-24.9289 3.9761 -4.5582
-24.9920 1.7233 -4.5234
-24.9869 -0.5117 -4.5127
-21.0775 -2.3234 -3.8289
-24.9765 -5.0399 -4.6008
-24.9711 -7.4091 -4.7032
-24.7546 -9.8228 -4.8088
-24.9593 -12.5866 -5.0474
-24.9526 -15.5189 -5.3059
-24.9451 -18.7951 -5.6396
-32.4022 -29.2923 -7.8871
-29.7156 -38.5164 -8.7839
-26.0623 -40.8577 -8.7506
11.7727 -34.8940 -6.6495
14.8735 -33.7848 -6.6653
6.6509 -12.0586 -2.4866
7.7000 -11.4172 -2.4866
8.6878 -10.6849 -2.4866
8.6904 -8.9266 -2.2495
8.6315 -7.4112 -2.0542
7.6891 -5.4912 -1.7061
8.5143 -4.9983 -1.7827
8.5121 -4.0232 -1.7000
8.5100 -3.1277 -1.6371
8.5081 -2.2897 -1.5909
8.5063 -1.4914 -1.5594
8.5063 -0.7183 -1.5414
8.5028 0.0432 -1.5353
8.5011 0.8049 -1.5419
8.4993 1.5793 -1.5609
8.4975 2.3795 -1.5934
8.4956 3.2206 -1.6405
8.4935 4.1204 -1.7046
30.3103 22.1143 -6.7748
26.0250 22.8088 -6.2485
5.7741 6.0527 -1.5104
5.7278 8.6817 -1.8780
-25.0228 15.2125 -5.2877
-25.0161 12.2984 -5.0334
-24.8009 9.5510 -4.7987
-25.0043 7.1436 -4.6955
-24.9989 4.7809 -4.5957
-24.9937 2.4987 -4.5355
-24.9886 0.2579 -4.5123
-24.9835 -1.9778 -4.5252
-24.9783 -4.2444 -4.5748
-24.9730 -6.5802 -4.6631
-24.7566 -8.9516 -4.7534
-24.7708 -11.5491 -4.9350
-24.9550 -14.4743 -5.2091
-24.9478 -17.6197 -5.5149
-24.7290 -21.0088 -5.8590
-26.5448 -38.9174 -8.5061
13.6490 -33.7875 -6.5798
17.2965 -33.7792 -6.8524
7.3448 -11.6489 -2.4866
8.3547 -10.9473 -2.4866
8.6917 -9.4961 -2.3245
8.6712 -7.9220 -2.1208
6.9527 -5.2960 -1.5781
8.5151 -5.3580 -1.8166
8.5128 -4.3491 -1.7261
8.5107 -3.4289 -1.6568
8.5088 -2.5732 -1.6051
8.5069 -1.7631 -1.5687
8.5068 -0.9830 -1.5462
8.5052 -0.2188 -1.5363
8.6196 -0.6482 -1.5059
8.5026 0.1213 -1.4814
8.5009 0.8837 -1.4889
8.4991 1.6601 -1.5086
8.4973 2.4639 -1.5413
8.4954 3.3101 -1.5884
8.5092 4.2250 -1.6551
11.9171 8.8636 -2.5874
25.2535 22.5462 -5.8977
23.7218 25.3283 -6.0455
-25.0220 14.8990 -5.0733
-24.8305 11.9252 -4.7987
-25.0094 9.3684 -4.6526
-25.0038 6.8957 -4.5185
-24.9984 4.5432 -4.4263
-24.7821 2.2478 -4.3350
-24.7771 0.0281 -4.3164
-24.9830 -2.2088 -4.3693
-24.9778 -4.4808 -4.4209
-24.9724 -6.8260 -4.5101
-24.9668 -9.2878 -4.6407
-24.8575 -11.8688 -4.7987
-24.9543 -14.7819 -5.0528
-24.9470 -17.9649 -5.3556
-32.8352 -28.4188 -7.5652
-26.2778 -39.2964 -8.2354
11.7218 -37.3913 -6.8266
14.0110 -33.7867 -6.3720
6.6424 -12.6837 -2.4943
7.7233 -12.0033 -2.4866
8.6956 -11.1795 -2.4674
8.5951 -9.2191 -2.1958
8.6878 -7.7920 -2.0331
6.9524 -5.1955 -1.5120
8.5149 -5.2493 -1.7426
8.5126 -4.2508 -1.6576
8.5105 -3.3383 -1.5926
8.5086 -2.4881 -1.5444
8.5067 -1.6817 -1.5106
8.6135 -0.9152 -1.5090
8.5038 -0.1406 -1.4817
8.5015 0.6199 -1.4850
8.4997 1.3901 -1.5004
8.4979 2.1828 -1.5285
8.4960 3.0125 -1.5704
8.4940 3.8962 -1.6280
31.1798 21.7322 -6.6211
25.8292 21.6687 -5.8735
5.8889 5.9119 -1.4537
5.8427 8.4527 -1.7901
-25.0245 15.9641 -5.1711
-25.0020 12.9696 -4.9068
-25.0114 10.2580 -4.7095
-24.7945 7.6668 -4.5212
-25.0002 5.3435 -4.4537
-24.9950 3.0456 -4.3866
-24.7788 0.7914 -4.3189
-24.9847 -1.4355 -4.3598
-24.9796 -3.6913 -4.3990
-24.9743 -6.0066 -4.4749
-24.9688 -8.4229 -4.5907
-24.7521 -10.8957 -4.7114
-24.9566 -13.7634 -4.9650
-24.9496 -16.8250 -5.2424
-24.9417 -20.2781 -5.6000
-31.9592 -31.1109 -7.7700
-27.5118 -38.5199 -8.2464
12.8077 -33.7895 -6.2952
16.3863 -33.7813 -6.5409
7.3501 -12.2354 -2.4866
8.4122 -11.5310 -2.4866
8.6927 -9.9193 -2.2977
8.6890 -8.2897 -2.0921
8.5184 -6.7844 -1.8971
8.3739 -5.5253 -1.7478
8.5134 -4.5839 -1.6844
8.5112 -3.6448 -1.6130
8.5092 -2.7754 -1.5593
8.5074 -1.9558 -1.5207
8.5695 -1.1783 -1.5070
8.6191 -0.4082 -1.5032
8.5021 0.3572 -1.4825
8.5003 1.1227 -1.4937
8.4986 1.9061 -1.5173
8.4967 2.7213 -1.5543
8.4947 3.5842 -1.6062
35.2154 18.7199 -6.9478
27.3668 21.5584 -6.0692
25.6084 24.1721 -6.1348
24.4603 27.6132 -6.4265
-32.4650 31.9423 -7.9343
-25.0036 17.0561 -5.2728
-25.0199 13.9729 -4.9924
-25.0135 11.1704 -4.7724
-25.0076 8.5848 -4.6062
-25.0021 6.1546 -4.4857
-24.9968 3.8302 -4.4055
-24.9916 1.5696 -4.3624
-24.9865 -0.6647 -4.3545
-24.9814 -2.9088 -4.3814
-24.9762 -5.1992 -4.4444
-24.7907 -7.5210 -4.5132
-24.9650 -10.0837 -4.6905
-24.7481 -12.6708 -4.8436
-24.7414 -15.5985 -5.0953
-24.9446 -19.0353 -5.4664
-32.2565 -29.5215 -7.6176
-29.3407 -38.5156 -8.4350
-26.0611 -41.4131 -8.5243
11.8813 -34.5166 -6.3594
15.1210 -33.7842 -6.4482
6.9699 -12.4559 -2.4866
8.0532 -11.7845 -2.4866
8.6941 -10.5599 -2.3829
6.8919 -6.9930 -1.7105
8.6869 -7.3669 -1.9843
7.6068 -5.3624 -1.6214
8.5141 -4.9284 -1.7138
8.5119 -3.9595 -1.6355
8.5099 -3.0686 -1.5760
8.5080 -2.2338 -1.5324
8.5062 -1.4377 -1.5029
8.6197 -0.6747 -1.5062
8.5027 0.0952 -1.4814
8.5009 0.8574 -1.4885
8.4992 1.6331 -1.5077
8.4974 2.4357 -1.5399
8.4954 3.2802 -1.5865
8.4973 4.1867 -1.6502
11.9663 8.8434 -2.5922
25.6926 22.7972 -5.9839
23.7965 25.2527 -6.0448
22.0838 41.6272 -8.2092
-25.0223 15.0031 -5.0827
-24.8044 12.0063 -4.8008
-25.0096 9.4559 -4.6580
-25.0040 6.9782 -4.5224
-24.9986 4.6223 -4.4288
-24.7823 2.3244 -4.3363
-24.9883 0.1049 -4.3533
-24.9832 -2.1318 -4.3681
-24.9780 -4.4019 -4.4185
-24.7617 -6.6870 -4.4683
-24.9670 -9.2010 -4.6355
-24.8937 -11.7926 -4.7987
-24.9545 -14.6791 -5.0437
-24.9473 -17.8493 -5.3439
-32.8996 -28.2988 -7.5600
-26.3551 -39.1521 -8.2221
11.7043 -37.7400 -6.8836
13.8900 -33.7870 -6.3640
6.6426 -12.7791 -2.5091
7.6865 -12.0269 -2.4866
8.6957 -11.2506 -2.4772
8.5952 -9.2760 -2.2031
8.6880 -7.8403 -2.0387
6.8857 -5.1786 -1.5010
8.5150 -5.2854 -1.7459
8.5127 -4.2835 -1.6602
8.5106 -3.3684 -1.5945
8.5086 -2.5164 -1.5458
8.5068 -1.7088 -1.5116
8.6107 -0.9416 -1.5090
8.5044 -0.1667 -1.4818
8.5015 0.5937 -1.4847
8.4998 1.3634 -1.4997
8.4980 2.1551 -1.5273
8.4961 2.9833 -1.5687
8.4941 3.8648 -1.6257
31.1875 21.5960 -6.6086
26.0307 21.7022 -5.9041
5.9145 5.9014 -1.4556
5.8765 8.4463 -1.7925
-25.0247 16.0723 -5.1813
-24.8166 12.9700 -4.8782
-24.8591 10.2845 -4.6867
-25.0059 7.8161 -4.5641
-24.7893 5.3779 -4.4190
-24.9952 3.1233 -4.3883
-24.7790 0.8674 -4.3194
-24.7739 -1.3473 -4.3223
-24.9798 -3.6132 -4.3970
-24.9745 -5.9259 -4.4716
-24.9690 -8.3379 -4.5860
-24.7523 -10.8055 -4.7051
-24.9568 -13.6641 -4.9567
-24.9499 -16.7143 -5.2317
-24.9420 -20.1518 -5.5862
-31.9201 -30.8830 -7.7375
-27.6845 -38.5118 -8.2628
12.6896 -33.7897 -6.2880
16.2588 -33.7816 -6.5313
7.3126 -12.2579 -2.4866
8.3769 -11.5567 -2.4866
8.6928 -9.9809 -2.3058
8.6891 -8.3408 -2.0983
8.5722 -6.8702 -1.9138
8.2989 -5.5123 -1.7356
8.5134 -4.6177 -1.6873
8.5113 -3.6757 -1.6151
8.5093 -2.8043 -1.5608
8.5074 -1.9832 -1.5218
8.5076 -1.1964 -1.4967
8.6191 -0.4347 -1.5035
8.5021 0.3312 -1.4823
8.5004 1.0962 -1.4931
8.4986 1.8788 -1.5163
8.4968 2.6926 -1.5528
8.4948 3.5537 -1.6042
35.1155 18.5291 -6.9169
27.4190 21.4639 -6.0662
25.0773 23.5259 -5.9903
24.6107 27.6122 -6.4437
-32.4767 32.1501 -7.9612
-24.8404 17.0565 -5.2494
-25.0202 14.0737 -5.0010
-25.0137 11.2625 -4.7790
-25.0078 8.6706 -4.6111
-25.0023 6.2359 -4.4891
-24.9970 3.9086 -4.4076
-24.9918 1.6465 -4.3633
-24.9867 -0.5881 -4.3541
-21.1096 -2.3925 -3.7011
-24.9763 -5.1195 -4.4416
-24.9709 -7.4923 -4.5418
-24.9652 -9.9949 -4.6848
-24.7483 -12.5754 -4.8361
-24.8768 -15.5775 -5.1134
-24.9449 -18.9149 -5.4537
-32.2668 -29.3498 -7.5988
-29.5278 -38.5160 -8.4548
-26.0617 -41.1341 -8.4832
12.0196 -35.2689 -6.4912
14.9972 -33.7845 -6.4395
6.9317 -12.4772 -2.4866
8.0171 -11.8091 -2.4866
8.6943 -10.6262 -2.3919
8.6903 -8.8719 -2.1635
8.6849 -7.4111 -1.9890
7.5296 -5.3426 -1.6084
8.5142 -4.9633 -1.7169
8.5120 -3.9913 -1.6378
8.5100 -3.0981 -1.5777
8.5081 -2.2617 -1.5337
8.5062 -1.4646 -1.5037
8.6197 -0.7013 -1.5066
8.5027 0.0692 -1.4813
8.5010 0.8311 -1.4880
8.4992 1.6062 -1.5069
8.4974 2.4076 -1.5386
8.4955 3.2504 -1.5846
8.4934 4.1525 -1.6470
12.0158 8.8232 -2.5970
25.8907 22.8317 -6.0137
5.8008 6.1182 -1.4688
-25.0225 15.1076 -5.0921
-24.8046 12.1002 -4.8080
-25.0098 9.5436 -4.6634
-25.0041 7.0608 -4.5263
-24.9988 4.7016 -4.4314
-24.9936 2.4214 -4.3745
-24.9884 0.1814 -4.3534
-24.9833 -2.0547 -4.3671
-24.9782 -4.3232 -4.4162
-24.9587 -6.6582 -4.5001
-24.9672 -9.1143 -4.6303
-24.7504 -11.6321 -4.7642
-24.9548 -14.5766 -5.0347
-24.9476 -17.7343 -5.3323
-24.7287 -21.1391 -5.6675
-26.4484 -39.0320 -8.2138
11.6865 -38.0947 -6.9418
13.7693 -33.7873 -6.3561
6.6428 -12.8758 -2.5240
7.6497 -12.0504 -2.4866
8.6941 -11.3200 -2.4866
8.5954 -9.3333 -2.2104
8.6881 -7.8887 -2.0444
6.8202 -5.1621 -1.4901
8.5150 -5.3217 -1.7493
8.5127 -4.3162 -1.6627
8.5107 -3.3986 -1.5965
8.5087 -2.5448 -1.5472
8.5069 -1.7359 -1.5125
8.6078 -0.9679 -1.5090
8.5049 -0.1927 -1.4820
8.5016 0.5676 -1.4844
8.4999 1.3367 -1.4990
8.4981 2.1275 -1.5261
8.4962 2.9541 -1.5670
8.4942 3.8335 -1.6235
31.1953 21.4603 -6.5963
26.2341 21.7360 -5.9351
5.9676 5.9179 -1.4641
5.9244 8.4597 -1.7992
-25.0250 16.1809 -5.1916
-24.8068 13.0618 -4.8841
-24.8006 10.3493 -4.6816
-25.0061 7.9003 -4.5686
-24.7894 5.4574 -4.4220
-24.9953 3.2010 -4.3900
-24.7791 0.9434 -4.3199
-24.9851 -1.2820 -4.3584
-24.9800 -3.5351 -4.3951
-24.9747 -5.8452 -4.4684
-24.9692 -8.2531 -4.5813
-24.7893 -10.7314 -4.7059
-24.9571 -13.5650 -4.9485
-24.9501 -16.6040 -5.2211
-24.9423 -20.0262 -5.5725
-31.8813 -30.6572 -7.7053
-27.8641 -38.5122 -8.2811
6.0727 -33.8436 -5.9901
12.5717 -33.7900 -6.2808
16.1317 -33.7819 -6.5217
7.2750 -12.2802 -2.4866
8.3414 -11.5823 -2.4866
8.6930 -10.0430 -2.3140
8.6892 -8.3921 -2.1045
8.5723 -6.9135 -1.9185
8.2251 -5.4997 -1.7237
8.5135 -4.6515 -1.6901
8.5114 -3.7067 -1.6173
8.5094 -2.8333 -1.5624
8.5075 -2.0108 -1.5229
8.5072 -1.2229 -1.4973
8.6192 -0.4611 -1.5037
8.5022 0.3051 -1.4821
8.5005 1.0698 -1.4926
8.4987 1.8515 -1.5153
8.4968 2.6641 -1.5513
8.4949 3.5232 -1.6021
34.4041 18.0192 -6.7659
27.4712 21.3694 -6.0632
25.2203 23.5153 -6.0072
24.7618 27.6110 -6.4611
-32.4871 32.3581 -7.9880
-21.1284 17.5837 -4.7887
-24.8162 17.1519 -5.2554
-25.0204 14.1749 -5.0097
-25.0140 11.3549 -4.7857
-25.0080 8.7565 -4.6160
-24.7913 6.2639 -4.4546
-24.9288 3.9761 -4.3978
-24.9920 1.7233 -4.3642
-24.9869 -0.5117 -4.3539
-21.0769 -2.3234 -3.6941
-24.9765 -5.0399 -4.4389
-24.9711 -7.4091 -4.5377
-24.9654 -9.9065 -4.6791
-24.7485 -12.4803 -4.8286
-24.9526 -15.5189 -5.1191
-24.9451 -18.7951 -5.4412
-32.4021 -29.2922 -7.6095
-29.7157 -38.5164 -8.4748
-26.0623 -40.8577 -8.4427
11.9646 -35.4630 -6.5202
14.8736 -33.7848 -6.4308
6.8935 -12.4984 -2.4866
7.9809 -11.8336 -2.4866
8.6945 -10.6931 -2.4009
8.6904 -8.9266 -2.1704
8.6315 -7.4112 -1.9819
7.4538 -5.3232 -1.5957
8.5143 -4.9983 -1.7200
8.5121 -4.0232 -1.6402
8.5100 -3.1277 -1.5795
8.5081 -2.2897 -1.5349
8.5063 -1.4914 -1.5045
8.6198 -0.7279 -1.5070
8.5028 0.0432 -1.4813
8.5011 0.8049 -1.4876
8.4993 1.5793 -1.5060
8.4975 2.3795 -1.5373
8.4956 3.2206 -1.5828
8.4935 4.1204 -1.6446
30.6524 22.3638 -6.6102
26.0909 22.8665 -6.0439
5.7737 6.0523 -1.4572
5.7278 8.6817 -1.8119
-25.0228 15.2125 -5.1016
-24.8048 12.1946 -4.8152
-25.0100 9.6315 -4.6689
-25.0043 7.1436 -4.5303
-24.9989 4.7809 -4.4340
-24.9937 2.4987 -4.3759
-24.9886 0.2579 -4.3535
-24.9835 -1.9778 -4.3660
-24.9783 -4.2444 -4.4139
-24.9730 -6.5802 -4.4991
-24.7566 -8.9516 -4.5861
-24.7708 -11.5491 -4.7613
-24.9550 -14.4743 -5.0258
-24.9478 -17.6197 -5.3208
-24.7290 -21.0088 -5.6528
-26.5448 -38.9174 -8.2068
12.0893 -39.8421 -7.2534
13.6490 -33.7875 -6.3483
6.6431 -12.9736 -2.5392
7.6127 -12.0738 -2.4866
8.6594 -11.3466 -2.4866
8.5955 -9.3910 -2.2178
8.6882 -7.9375 -2.0501
6.7555 -5.1458 -1.4794
8.5151 -5.3580 -1.7527
8.5128 -4.3491 -1.6654
8.5107 -3.4289 -1.5985
8.5088 -2.5732 -1.5486
8.5069 -1.7631 -1.5135
8.6048 -0.9943 -1.5090
8.5054 -0.2188 -1.4822
8.6196 -0.6482 -1.4511
8.5026 0.1213 -1.4275
8.5009 0.8837 -1.4347
8.6263 1.6850 -1.4755
8.4974 2.4639 -1.4852
8.4955 3.3102 -1.5306
8.5094 4.2251 -1.5949
11.9168 8.8633 -2.4931
25.4097 22.6857 -5.7182
23.7146 25.3207 -5.8237
-24.8107 14.7732 -4.8474
-25.0155 12.0140 -4.6585
-25.0094 9.3684 -4.4832
-25.0038 6.8957 -4.3541
-24.1809 4.3946 -4.1257
-24.1759 2.1928 -4.0751
-24.7771 0.0281 -4.1593
-24.9830 -2.2088 -4.2103
-24.9778 -4.4808 -4.2600
-24.9724 -6.8260 -4.3459
-24.9668 -9.2878 -4.4718
-24.9608 -11.9181 -4.6433
-24.7435 -14.6571 -4.8278
-24.9470 -17.9649 -5.1607
-32.8248 -28.4098 -7.2876
-26.2778 -39.2965 -7.9357
11.7895 -37.6075 -6.6161
14.0110 -33.7867 -6.1401
6.8719 -13.1220 -2.4866
8.0150 -12.4567 -2.4866
8.6956 -11.1795 -2.3776
8.5951 -9.2191 -2.1159
8.6878 -7.7920 -1.9591
6.7569 -5.0494 -1.4160
8.5149 -5.2493 -1.6792
8.5133 -4.2512 -1.5974
8.5105 -3.3383 -1.5346
8.5086 -2.4881 -1.4882
8.5067 -1.6817 -1.4557
8.6202 -0.9159 -1.4552
8.5038 -0.1406 -1.4277
8.5015 0.6199 -1.4309
8.4997 1.3901 -1.4458
8.5334 2.1919 -1.4790
8.4962 3.0126 -1.5133
8.4942 3.8963 -1.5688
31.2246 21.7634 -6.3893
25.8160 21.6575 -5.6568
5.8888 5.9118 -1.4008
5.8427 8.4527 -1.7249
-25.0245 15.9641 -4.9829
-25.0020 12.9696 -4.7282
-25.0114 10.2580 -4.5381
-24.7945 7.6668 -4.3567
-25.0002 5.3435 -4.2916
-24.1776 2.9460 -4.0887
-24.7788 0.7914 -4.1617
-24.9847 -1.4355 -4.2011
-24.9796 -3.6913 -4.2389
-24.9743 -6.0066 -4.3120
-24.9688 -8.4229 -4.4236
-24.7521 -10.8957 -4.5399
-24.9566 -13.7634 -4.7843
-24.9496 -16.8250 -5.0517
-24.9417 -20.2781 -5.3962
-31.9355 -31.0878 -7.4817
-27.5118 -38.5199 -7.9463
12.8077 -33.7895 -6.0661
6.6447 -13.6985 -2.5558
7.6277 -12.6975 -2.4866
8.6973 -11.9217 -2.4773
8.5964 -9.8094 -2.1896
8.6890 -8.2897 -2.0160
8.5184 -6.7844 -1.8281
8.1632 -5.3862 -1.6418
8.5136 -4.5841 -1.6232
8.5112 -3.6448 -1.5543
8.5092 -2.7754 -1.5025
8.5074 -1.9558 -1.4654
8.5696 -1.1783 -1.4521
8.6191 -0.4082 -1.4485
8.5021 0.3573 -1.4285
8.5003 1.1227 -1.4393
8.5966 1.9281 -1.4790
8.4969 2.7213 -1.4977
8.4949 3.5843 -1.5478
35.7833 19.0218 -6.8029
33.3900 21.7766 -6.6919
26.7302 21.0570 -5.7123
25.6461 24.2076 -5.9202
24.4605 27.6135 -6.1926
-25.0036 17.0561 -5.0809
-24.9578 13.9382 -4.7987
-25.0135 11.1704 -4.5987
-25.0076 8.5848 -4.4385
-25.0021 6.1546 -4.3224
-24.1793 3.7049 -4.1064
-24.1743 1.5183 -4.0661
-24.9865 -0.6647 -4.1960
-24.9814 -2.9088 -4.2220
-24.9762 -5.1992 -4.2826
-24.7907 -7.5210 -4.3489
-24.9650 -10.0837 -4.5198
-24.9589 -12.7787 -4.7071
-24.7414 -15.5985 -4.9099
-24.9446 -19.0353 -5.2674
-32.2522 -29.5175 -7.3394
-29.3407 -38.5156 -8.1280
-26.0611 -41.4131 -8.2140
11.9544 -34.7289 -6.1657
15.1210 -33.7842 -6.2135
7.2331 -12.9264 -2.4866
8.3574 -12.2296 -2.4866
8.6941 -10.5599 -2.2962
6.8919 -6.9930 -1.6482
8.6869 -7.3669 -1.9121
7.3779 -5.2010 -1.5153
8.5141 -4.9284 -1.6515
8.5119 -3.9595 -1.5759
8.5099 -3.0686 -1.5186
8.5080 -2.2338 -1.4766
8.5062 -1.4377 -1.4482
8.6197 -0.6747 -1.4514
8.5027 0.0952 -1.4274
8.5009 0.8574 -1.4343
8.6265 1.6576 -1.4746
8.4975 2.4358 -1.4839
8.4956 3.2803 -1.5288
8.4975 4.1868 -1.5902
11.9660 8.8431 -2.4977
25.7570 22.8544 -5.7806
23.7892 25.2450 -5.8230
-25.0223 15.0031 -4.8977
-25.0157 12.1085 -4.6655
-25.0096 9.4559 -4.4884
-25.0040 6.9782 -4.3578
-24.1811 4.4712 -4.1281
-24.1760 2.2675 -4.0763
-24.9883 0.1049 -4.1948
-24.9832 -2.1318 -4.2092
-24.9780 -4.4019 -4.2577
-24.7617 -6.6870 -4.3057
-24.9670 -9.2010 -4.4668
-24.9610 -11.8245 -4.6366
-24.7438 -14.5551 -4.8191
-24.9473 -17.8493 -5.1494
-32.8892 -28.2899 -7.2826
-26.3551 -39.1520 -7.9228
11.7725 -37.9600 -6.6718
13.8900 -33.7870 -6.1324
6.8317 -13.1429 -2.4866
7.9768 -12.4811 -2.4866
8.6957 -11.2506 -2.3870
8.5952 -9.2760 -2.1229
8.6880 -7.8403 -1.9645
6.6935 -5.0341 -1.4060
8.5150 -5.2854 -1.6824
8.5134 -4.2838 -1.5999
8.5106 -3.3684 -1.5365
8.5086 -2.5164 -1.4895
8.5068 -1.7088 -1.4566
8.6203 -0.9426 -1.4557
8.5044 -0.1667 -1.4279
8.5015 0.5937 -1.4306
8.4998 1.3634 -1.4451
8.5400 2.1657 -1.4790
8.4963 2.9833 -1.5116
8.4943 3.8649 -1.5666
31.2323 21.6270 -6.3773
26.0172 21.6909 -5.6863
5.9144 5.9012 -1.4025
5.8765 8.4463 -1.7273
-25.0247 16.0723 -4.9927
-24.8166 12.9700 -4.7006
-24.8591 10.2845 -4.5161
-25.0059 7.8161 -4.3980
-24.7893 5.3779 -4.2582
-24.1778 3.0212 -4.0903
-24.7790 0.8674 -4.1622
-24.7739 -1.3473 -4.1649
-24.9798 -3.6132 -4.2370
-24.9745 -5.9259 -4.3089
-24.9690 -8.3379 -4.4191
-24.7523 -10.8054 -4.5339
-24.9568 -13.6641 -4.7763
-24.9499 -16.7143 -5.0413
-24.9420 -20.1518 -5.3829
-31.8937 -30.8574 -7.4497
-27.6845 -38.5118 -7.9621
12.6896 -33.7897 -6.0591
6.6450 -13.8065 -2.5722
7.5888 -12.7208 -2.4866
8.6932 -11.9932 -2.4866
8.5966 -9.8704 -2.1973
8.6891 -8.3408 -2.0219
8.5722 -6.8702 -1.8441
8.0915 -5.3746 -1.6307
8.5137 -4.6178 -1.6259
8.5113 -3.6757 -1.5563
8.5093 -2.8043 -1.5040
8.5074 -1.9832 -1.4664
8.5076 -1.1964 -1.4422
8.6191 -0.4347 -1.4487
8.5021 0.3312 -1.4283
8.5004 1.0962 -1.4388
8.6024 1.9018 -1.4790
8.4969 2.6927 -1.4963
8.4950 3.5537 -1.5458
34.7410 18.3314 -6.5941
26.9886 21.1269 -5.7536
25.7579 24.1644 -5.9289
24.6109 27.6124 -6.2093
-24.8404 17.0565 -5.0584
-24.9149 14.0145 -4.7987
-25.0137 11.2625 -4.6051
-25.0078 8.6706 -4.4432
-25.0023 6.2359 -4.3257
-24.1795 3.7808 -4.1083
-24.1745 1.5927 -4.0670
-24.9867 -0.5881 -4.1957
-21.1078 -2.3923 -3.5661
-24.9763 -5.1195 -4.2800
-24.9709 -7.4923 -4.3765
-24.9652 -9.9949 -4.5143
-24.9591 -12.6825 -4.6998
-24.8768 -15.5775 -4.9273
-24.9449 -18.9149 -5.2552
-32.3433 -29.4194 -7.3396
-29.5278 -38.5160 -8.1471
-26.0617 -41.1341 -8.1745
12.0793 -35.4439 -6.2860
14.9972 -33.7845 -6.2051
7.1935 -12.9484 -2.4866
8.3199 -12.2551 -2.4866
8.6943 -10.6262 -2.3048
8.6903 -8.8719 -2.0848
8.6849 -7.4111 -1.9166
7.3048 -5.1831 -1.5036
8.5142 -4.9633 -1.6544
8.5120 -3.9913 -1.5782
8.5100 -3.0981 -1.5203
8.5081 -2.2617 -1.4779
8.5062 -1.4646 -1.4490
8.6197 -0.7013 -1.4518
8.5027 0.0692 -1.4274
8.5010 0.8311 -1.4339
8.6266 1.6302 -1.4738
8.4976 2.4076 -1.4826
8.4957 3.2504 -1.5270
8.4936 4.1526 -1.5871
12.0153 8.8228 -2.5024
25.9559 22.8892 -5.8094
5.8005 6.1178 -1.4152
-25.0225 15.1076 -4.9068
-25.0159 12.2033 -4.6725
-25.0098 9.5436 -4.4937
-25.0041 7.0608 -4.3616
-24.1812 4.5479 -4.1305
-24.1762 2.3423 -4.0775
-24.9884 0.1814 -4.1949
-24.9833 -2.0547 -4.2081
-24.9782 -4.3232 -4.2554
-24.9586 -6.6582 -4.3363
-24.9672 -9.1143 -4.4618
-24.7504 -11.6321 -4.5908
-24.7440 -14.4534 -4.8105
-24.9475 -17.7343 -5.1383
-24.7287 -21.1391 -5.4613
-26.4484 -39.0320 -7.9149
11.7552 -38.3187 -6.7285
13.7693 -33.7873 -6.1248
6.7914 -13.1638 -2.4866
7.9386 -12.5055 -2.4866
8.6959 -11.3223 -2.3966
8.5954 -9.3333 -2.1300
8.6881 -7.8887 -1.9700
6.6311 -5.0190 -1.3961
8.5150 -5.3217 -1.6856
8.5134 -4.3166 -1.6024
8.5107 -3.3986 -1.5384
8.5087 -2.5448 -1.4909
8.5069 -1.7359 -1.4575
8.6204 -0.9693 -1.4562
8.5049 -0.1927 -1.4281
8.5016 0.5676 -1.4303
8.4999 1.3367 -1.4444
8.5466 2.1396 -1.4790
8.4963 2.9541 -1.5100
8.4943 3.8336 -1.5644
31.2400 21.4911 -6.3654
26.1719 21.6844 -5.7056
5.9672 5.9175 -1.4108
5.9244 8.4597 -1.7337
-25.0250 16.1809 -5.0026
-24.8068 13.0618 -4.7063
-24.8006 10.3493 -4.5112
-25.0061 7.9003 -4.4023
-24.7894 5.4574 -4.2611
-24.1779 3.0964 -4.0919
-24.7791 0.9434 -4.1627
-24.9851 -1.2820 -4.1998
-24.9800 -3.5351 -4.2352
-24.9747 -5.8452 -4.3058
-24.9692 -8.2531 -4.4146
-24.7893 -10.7314 -4.5346
-24.9571 -13.5650 -4.7684
-24.9501 -16.6040 -5.0311
-24.9423 -20.0262 -5.3697
-31.8468 -30.6240 -7.4168
-27.8641 -38.5122 -7.9798
6.0726 -33.8427 -5.7719
12.5717 -33.7900 -6.0522
16.1317 -33.7819 -6.2844
7.5498 -12.7440 -2.4866
8.6565 -12.0197 -2.4866
8.5967 -9.9318 -2.2051
8.6892 -8.3921 -2.0279
8.5723 -6.9135 -1.8487
8.0133 -5.3580 -1.6182
8.5137 -4.6516 -1.6286
8.5114 -3.7067 -1.5584
8.5094 -2.8333 -1.5056
8.5075 -2.0108 -1.4675
8.5072 -1.2229 -1.4428
8.6192 -0.4611 -1.4490
8.5022 0.3051 -1.4282
8.5005 1.0698 -1.4382
8.6082 1.8754 -1.4790
8.4970 2.6641 -1.4949
8.4950 3.5233 -1.5439
34.7174 18.1833 -6.5790
27.2508 21.1979 -5.7957
25.5312 23.8052 -5.8599
24.7620 27.6113 -6.2260
-21.1278 17.5832 -4.6143
-24.8162 17.1519 -5.0641
-24.8719 14.0908 -4.7987
-25.0140 11.3549 -4.6115
-25.0080 8.7565 -4.4480
-24.7913 6.2639 -4.2925
-24.1797 3.8566 -4.1104
-24.1747 1.6670 -4.0678
