ply
format ascii 1.0
element vertex 2084
property float32 x
property float32 y
property float32 z
end_header
8.5020 0.3899 0.4723
8.5003 1.1558 0.4761
8.4985 1.9404 0.4838
8.4966 2.7573 0.4957
8.4946 3.6227 0.5125
27.8372 14.9353 1.7532
28.4635 18.7201 1.8906
27.4896 21.8272 1.9480
25.1019 23.8774 1.9226
19.5999 22.2987 1.6476
7.3617 30.6247 1.9427
4.9694 33.6573 2.0984
1.9482 33.9843 2.0995
-1.0912 34.0295 2.0999
-4.1219 33.7924 2.0997
-2.7713 12.9575 0.8173
-4.0120 12.9685 0.8373
-12.8936 31.4258 2.0951
-15.6455 30.1504 2.0951
-9.8508 15.4370 1.1295
-12.7861 16.5665 1.2907
-12.7987 13.8315 1.1623
-14.4260 13.0364 1.1992
-25.0874 18.8949 1.9371
-24.8745 15.4636 1.8065
-24.8678 12.5344 1.7176
-24.8617 9.8596 1.6496
-24.8560 7.3696 1.5990
-24.1820 4.8745 1.5215
-25.7760 2.8361 1.5994
-28.3159 0.5740 1.7468
-27.5213 -1.9035 1.7015
-9.4847 -1.5148 0.5924
-9.4884 -2.3995 0.6037
-9.4924 -3.3260 0.6204
-9.4965 -4.3133 0.6433
-4.4173 -2.5038 0.3132
-18.6235 -12.8778 1.3965
-18.1655 -15.1247 1.4579
-16.4041 -16.3462 1.4283
-14.6411 -17.4587 1.4053
-12.8396 -18.4286 1.3853
-10.8565 -18.9964 1.3495
-9.1589 -19.9769 1.3555
-7.2923 -20.5785 1.3466
-5.4001 -21.0401 1.3398
-3.4893 -21.3620 1.3350
-1.5667 -21.5446 1.3323
0.3612 -21.5883 1.3317
2.2880 -21.4929 1.3331
4.2070 -21.2584 1.3366
5.5611 -19.0028 1.2212
7.3237 -18.6594 1.2363
6.8819 -13.7745 0.9497
6.8759 -11.1482 0.8079
6.8715 -9.1910 0.7078
6.8680 -7.6543 0.6343
6.8682 -6.4006 0.5790
6.8971 -5.3622 0.5388
8.5154 -5.4764 0.6245
8.5131 -4.4559 0.5926
8.5110 -3.5272 0.5682
8.5090 -2.6654 0.5500
8.5071 -1.8509 0.5370
8.5053 -1.0680 0.5287
8.5036 -0.3028 0.5248
8.5019 0.4572 0.5251
8.5001 1.2243 0.5297
8.4983 2.0111 0.5386
8.4964 2.8316 0.5524
8.4945 3.7022 0.5715
27.6080 15.0944 1.9407
26.2501 17.5630 1.9480
23.8550 19.2505 1.8906
22.7115 21.9480 1.9480
19.4397 22.4721 1.8327
10.7355 14.9159 1.1335
9.5478 16.1276 1.1560
8.3018 17.3987 1.1890
6.9717 18.7556 1.2341
8.2968 30.3847 1.9427
5.9970 33.4807 2.0979
2.9884 33.9037 2.0992
-0.0206 14.6452 0.9033
-3.0846 33.9055 2.0999
-2.3579 12.9538 0.8121
-3.5793 12.9647 0.8296
-11.9282 31.8163 2.0957
-14.7141 30.6157 2.0951
-9.6720 16.2332 1.1655
-10.6423 14.6992 1.1193
-12.7946 14.7068 1.2023
-13.5622 13.0328 1.1601
-24.5152 19.6698 1.9386
-24.7569 16.4634 1.8338
-24.8700 13.5068 1.7456
-24.8637 10.7536 1.6708
-24.8579 8.2069 1.6146
-24.8524 5.8076 1.5741
-25.7778 3.6390 1.6057
-24.1737 1.2320 1.4929
-27.9162 -1.0726 1.7231
-10.2753 -1.3196 0.6390
-9.4871 -2.0921 0.5992
-9.4910 -3.0023 0.6140
-9.4951 -3.9663 0.6347
-9.4995 -5.0062 0.6623
-18.8333 -12.1871 1.3836
-18.6049 -14.5486 1.4567
-16.9988 -15.9309 1.4369
-15.2507 -17.0932 1.4129
-13.4617 -18.1116 1.3919
-11.6388 -18.9896 1.3737
-9.3466 -18.8398 1.2971
-7.9361 -20.3879 1.3494
-6.0519 -20.8974 1.3419
-4.1467 -21.2672 1.3364
-2.2274 -21.4976 1.3330
-0.3006 -21.5890 1.3317
1.6273 -21.5413 1.3324
3.5498 -21.3546 1.3352
4.9713 -19.1459 1.2200
6.6966 -18.7302 1.2269
6.8845 -14.9055 1.0127
6.8778 -11.9565 0.8508
6.8729 -9.8058 0.7386
6.8691 -8.1445 0.6571
6.8685 -6.8059 0.5964
7.5790 -6.2743 0.6069
8.5163 -5.8535 0.6374
8.5138 -4.7942 0.6026
8.5117 -3.8372 0.5759
8.5096 -2.9549 0.5556
8.5078 -2.1261 0.5409
8.5060 -1.3340 0.5310
8.5042 -0.5642 0.5257
8.5025 0.1962 0.5246
8.5007 0.9595 0.5276
8.4989 1.7381 0.5350
8.4971 2.5453 0.5471
8.4952 3.3967 0.5643
28.1635 14.2950 1.9480
26.7760 16.7503 1.9480
11.8662 8.9895 0.9182
23.3735 21.2417 1.9480
20.1310 21.8785 1.8337
18.2611 23.7981 1.8501
9.9038 15.6166 1.1406
8.7375 16.9543 1.1764
7.3793 18.1307 1.2073
9.2241 30.1162 1.9427
7.0111 33.2376 2.0951
4.0253 33.7901 2.0988
0.4284 14.6450 0.9037
-2.0441 33.9854 2.0999
-2.2977 15.2653 0.9521
-3.1542 12.9609 0.8227
-4.4149 12.9721 0.8452
-13.7689 31.0523 2.0951
-16.4840 29.7002 2.0951
-9.9701 14.6989 1.0955
-12.7903 15.6454 1.2464
-12.8021 13.0803 1.1289
-20.8759 17.8284 1.6932
-24.2101 17.1927 1.8315
-24.8723 14.5124 1.7761
-24.8658 11.6717 1.6942
-24.8598 9.0615 1.6320
-24.8543 6.6175 1.5864
-25.7797 4.4490 1.6135
-25.7743 2.1071 1.5950
-28.2926 -0.2193 1.7451
-14.4382 -1.4060 0.8947
-9.4858 -1.7889 0.5954
-9.4896 -2.6848 0.6083
-9.4936 -3.6281 0.6269
-9.4979 -4.6392 0.6520
-19.3869 -11.7183 1.3972
-18.6149 -13.6583 1.4240
-17.6082 -15.5162 1.4475
-15.8556 -16.7107 1.4208
-14.0798 -17.7782 1.3987
-12.2678 -18.7039 1.3796
-10.4260 -19.4912 1.3634
-8.5765 -20.1807 1.3524
-6.7012 -20.7384 1.3442
-4.8024 -21.1561 1.3381
-2.8872 -21.4343 1.3340
-0.9622 -21.5733 1.3319
0.9661 -21.5733 1.3319
2.8911 -21.4344 1.3340
4.7808 -21.0439 1.3310
6.1040 -18.8790 1.2238
5.8246 -13.6987 0.9181
6.8798 -12.8563 0.8993
6.8744 -10.4770 0.7729
6.8703 -8.6718 0.6824
6.8670 -7.2348 0.6152
7.1230 -6.2745 0.5855
6.8875 -5.0517 0.5268
8.5146 -5.1446 0.6136
8.5124 -4.1560 0.5843
8.5103 -3.2506 0.5619
8.5084 -2.4056 0.5454
8.5066 -1.6027 0.5339
8.5048 -0.8267 0.5270
8.5030 -0.0644 0.5245
8.5013 0.6965 0.5261
8.4996 1.4684 0.5320
8.4977 2.2641 0.5424
8.4958 3.0985 0.5578
8.4938 3.9887 0.5788
26.0580 15.2104 1.8610
25.7478 18.2915 1.9480
23.3063 19.9113 1.8906
5.8094 5.9377 0.5124
18.8524 23.0690 1.8375
5.7604 8.4958 0.6331
9.1643 16.5188 1.1651
7.8951 17.8137 1.2018
6.5321 19.2041 1.2511
7.4424 30.6052 1.9427
5.0579 33.6435 2.0984
2.0377 33.9787 2.0995
-1.0016 34.0322 2.0999
-4.0330 33.8034 2.0997
-2.7356 12.9572 0.8168
-3.9745 12.9682 0.8366
-12.8111 31.4596 2.0951
-15.5661 30.1915 2.0951
-9.8508 15.5269 1.1341
-12.7857 16.6565 1.2951
-12.7983 13.9045 1.1656
-14.3495 13.0361 1.1957
-25.0392 18.9621 1.9372
-24.8747 15.5547 1.8095
-24.8680 12.6168 1.7199
-24.8618 9.9356 1.6513
-24.8561 7.4409 1.6003
-24.1821 4.9409 1.5223
-25.7762 2.9049 1.5999
-28.3390 0.6491 1.7484
-27.5559 -1.8330 1.7034
-9.4846 -1.4892 0.5922
-9.4883 -2.3729 0.6032
-9.4922 -3.2979 0.6198
-9.4964 -4.2831 0.6425
-4.4268 -2.4938 0.3134
-18.6243 -12.8059 1.3941
-18.2178 -15.0871 1.4589
-16.4554 -16.3111 1.4291
-14.6936 -17.4280 1.4060
-12.8932 -18.4020 1.3859
-10.8920 -18.9425 1.3477
-9.2134 -19.9570 1.3557
-7.3477 -20.5628 1.3468
-5.4562 -21.0284 1.3399
-3.5459 -21.3545 1.3351
-1.6235 -21.5412 1.3324
0.3044 -21.5890 1.3317
2.2312 -21.4977 1.3331
4.1506 -21.2674 1.3365
5.5100 -19.0138 1.2210
7.2671 -18.6595 1.2351
6.8821 -13.8661 0.9548
6.8761 -11.2145 0.8114
6.8716 -9.2418 0.7103
6.8681 -7.6951 0.6362
6.8683 -6.4345 0.5805
6.8972 -5.3915 0.5400
8.5155 -5.5082 0.6255
8.5131 -4.4845 0.5935
8.5110 -3.5535 0.5689
8.5090 -2.6900 0.5504
8.5072 -1.8744 0.5373
8.5054 -1.0908 0.5289
8.5036 -0.3252 0.5249
8.5019 0.4348 0.5251
8.5002 1.2015 0.5295
8.4984 1.9875 0.5383
8.4965 2.8068 0.5519
8.4945 3.6757 0.5709
27.7028 15.0516 1.9446
26.2963 17.4938 1.9480
23.9056 19.1876 1.8906
22.7692 21.8881 1.9480
19.5370 22.4647 1.8363
10.7699 14.8809 1.1330
9.5835 16.0912 1.1552
8.3397 17.3601 1.1879
6.9402 18.5215 1.2199
8.3768 30.3628 1.9427
6.0850 33.4641 2.0978
3.0777 33.8953 2.0992
0.0180 14.6452 0.9033
-2.9953 33.9136 2.0999
-2.3226 12.9535 0.8117
-3.5425 12.9644 0.8289
-11.8448 31.8487 2.0958
-14.6335 30.6543 2.0951
-9.6732 16.3329 1.1708
-10.5835 14.6992 1.1172
-12.7943 14.7849 1.2059
-13.4906 13.0325 1.1569
-24.4649 19.7355 1.9387
-24.6165 16.4637 1.8266
-24.8702 13.5919 1.7481
-24.8639 10.8315 1.6728
-24.8581 8.2796 1.6160
-24.8526 5.8767 1.5751
-25.7780 3.7083 1.6063
-24.1738 1.2958 1.4931
-27.9493 -1.0002 1.7250
-10.4891 -1.3190 0.6520
-9.4870 -2.0659 0.5989
-9.4909 -2.9747 0.6135
-9.4950 -3.9369 0.6340
-9.4994 -4.9742 0.6614
-18.8800 -12.1468 1.3847
-18.6057 -14.4705 1.4538
-17.0497 -15.8944 1.4377
-15.3029 -17.0610 1.4136
-13.5150 -18.0836 1.3924
-11.6929 -18.9657 1.3742
-9.4004 -18.8235 1.2977
-7.9912 -20.3707 1.3496
-6.1078 -20.8844 1.3421
-4.2031 -21.2583 1.3366
-2.2841 -21.4928 1.3331
-0.3574 -21.5883 1.3317
1.5705 -21.5447 1.3324
3.4932 -21.3621 1.3351
4.9146 -19.1344 1.2185
6.6458 -18.7435 1.2266
6.8847 -15.0097 1.0185
6.8780 -12.0300 0.8547
6.8730 -9.8611 0.7414
6.8692 -8.1882 0.6592
6.8685 -6.8418 0.5979
7.5385 -6.2744 0.6049
8.5163 -5.8867 0.6385
8.5139 -4.8239 0.6035
8.5117 -3.8642 0.5766
8.5097 -2.9800 0.5561
8.5078 -2.1500 0.5412
8.5060 -1.3570 0.5313
8.5042 -0.5867 0.5258
8.5025 0.1738 0.5245
8.5008 0.9369 0.5275
8.4990 1.7148 0.5348
8.4972 2.5210 0.5467
8.4952 3.3708 0.5637
28.2010 14.2207 1.9480
26.8200 16.6797 1.9480
11.8674 8.9414 0.9165
23.4293 21.1800 1.9480
20.3027 21.9488 1.8441
18.3171 23.7415 1.8495
9.9218 15.5543 1.1379
8.7745 16.9165 1.1754
7.4365 18.1342 1.2089
9.3034 30.0918 1.9427
7.0984 33.2180 2.0951
4.1142 33.7788 2.0988
0.4671 14.6450 0.9037
-1.9546 33.9908 2.0999
-2.2954 15.5274 0.9681
-3.1180 12.9606 0.8222
-4.3767 12.9718 0.8444
-13.6871 31.0884 2.0951
-16.4058 29.7435 2.0951
-9.9137 14.6989 1.0935
-12.7899 15.7293 1.2504
-12.8018 13.1491 1.1319
-20.8810 17.9281 1.6975
-24.2103 17.2889 1.8349
-24.8725 14.6005 1.7789
-24.8660 11.7518 1.6963
-24.8600 9.1357 1.6336
-24.8544 6.6877 1.5875
-25.7798 4.5190 1.6143
-25.7745 2.1755 1.5954
-28.3051 -0.1448 1.7458
-27.1810 -2.5747 1.6840
-9.4857 -1.7630 0.5951
-9.4895 -2.6578 0.6078
-9.4935 -3.5995 0.6262
-9.4978 -4.6082 0.6511
-19.4345 -11.6773 1.3984
-18.6157 -13.5836 1.4214
-17.6607 -15.4800 1.4485
-15.9074 -16.6770 1.4215
-14.1328 -17.7487 1.3994
-12.3216 -18.6786 1.3801
-10.4806 -19.4700 1.3638
-8.6314 -20.1621 1.3527
-6.7569 -20.7239 1.3444
-4.8587 -21.1457 1.3382
-2.9439 -21.4280 1.3341
-1.0190 -21.5712 1.3319
0.9092 -21.5753 1.3319
2.8344 -21.4404 1.3339
4.7501 -21.1664 1.3380
6.0531 -18.8912 1.2235
5.7829 -13.7004 0.9172
6.8800 -12.9384 0.9038
6.8746 -10.5376 0.7760
6.8704 -8.7191 0.6847
6.8671 -7.2731 0.6170
7.0853 -6.2745 0.5837
6.8965 -5.0862 0.5285
8.5147 -5.1753 0.6146
8.5124 -4.1838 0.5850
8.5104 -3.2764 0.5625
8.5085 -2.4298 0.5458
8.5066 -1.6259 0.5342
8.5048 -0.8493 0.5272
8.5031 -0.0868 0.5245
8.5014 0.6740 0.5260
8.4996 1.4453 0.5318
8.4978 2.2402 0.5420
8.4959 3.0732 0.5572
8.4939 3.9615 0.5781
27.2634 15.8178 1.9441
25.7959 18.2236 1.9480
23.3587 19.8498 1.8906
5.8304 5.9279 0.5128
18.9251 23.0339 1.8387
5.7801 8.4766 0.6328
9.2006 16.4818 1.1642
7.9337 17.7743 1.2005
6.5739 19.1614 1.2495
7.5229 30.5855 1.9427
5.1464 33.6293 2.0983
2.1271 33.9728 2.0995
-0.9120 34.0347 2.0999
-3.9439 33.8142 2.0997
-2.6999 12.9569 0.8163
-3.9370 12.9679 0.8359
-12.7280 31.4932 2.0951
-15.4864 30.2323 2.0951
-9.8508 15.6177 1.1389
-12.7852 16.7470 1.2995
-12.7980 13.9778 1.1689
-14.2734 13.0358 1.1923
-24.9909 19.0292 1.9374
-24.8749 15.6462 1.8125
-24.8682 12.6993 1.7222
-24.8620 10.0116 1.6531
-24.8563 7.5123 1.6016
-24.1823 5.0073 1.5232
-25.7763 2.9737 1.6004
-28.3621 0.7244 1.7499
-27.5904 -1.7623 1.7052
-9.4845 -1.4636 0.5919
-9.4882 -2.3464 0.6028
-9.4921 -3.2699 0.6192
-9.4963 -4.2530 0.6418
-4.4363 -2.4838 0.3136
-18.6250 -12.7344 1.3916
-18.2699 -15.0495 1.4599
-16.5067 -16.2760 1.4298
-14.7462 -17.3971 1.4066
-12.9467 -18.3753 1.3864
-10.9372 -18.9059 1.3471
-9.2680 -19.9370 1.3560
-7.4031 -20.5469 1.3470
-5.5123 -21.0167 1.3401
-3.6023 -21.3469 1.3352
-1.6803 -21.5377 1.3324
0.2475 -21.5895 1.3317
2.1745 -21.5024 1.3330
4.0942 -21.2761 1.3363
5.4589 -19.0247 1.2208
7.2106 -18.6595 1.2338
6.8824 -13.9587 0.9599
6.8762 -11.2812 0.8149
6.8717 -9.2930 0.7129
6.8682 -7.7361 0.6381
6.8684 -6.4686 0.5819
6.8973 -5.4209 0.5411
8.5155 -5.5402 0.6266
8.5132 -4.5132 0.5943
8.5111 -3.5799 0.5695
8.5091 -2.7147 0.5509
8.5072 -1.8980 0.5376
8.5054 -1.1136 0.5291
8.5037 -0.3476 0.5249
8.5020 0.4123 0.5250
8.5002 1.1786 0.5293
8.4984 1.9639 0.5380
8.4966 2.7820 0.5514
8.4946 3.6492 0.5702
26.7390 14.4369 1.8742
26.3423 17.4245 1.9480
23.9560 19.1246 1.8906
22.8268 21.8280 1.9480
19.5730 22.3869 1.8341
10.8042 14.8458 1.1325
9.6192 16.0547 1.1544
8.3774 17.3216 1.1868
6.9612 18.4297 1.2151
8.4568 30.3406 1.9427
6.1730 33.4471 2.0978
3.1669 33.8866 2.0992
0.0565 14.6452 0.9033
-2.9060 33.9216 2.0999
-2.3169 13.1208 0.8218
-3.5058 12.9640 0.8283
-11.7613 31.8808 2.0959
-14.5526 30.6928 2.0951
-9.6744 16.4335 1.1762
-10.5247 14.6992 1.1150
-12.7939 14.8633 1.2096
-13.4194 13.0322 1.1538
-24.4144 19.8012 1.9388
-24.4772 16.4640 1.8195
-24.8704 13.6772 1.7506
-24.8641 10.9096 1.6747
-24.8582 8.3525 1.6174
-24.8527 5.9459 1.5761
-25.7781 3.7776 1.6069
-24.1740 1.3597 1.4934
-27.9823 -0.9275 1.7268
-10.7118 -1.3183 0.6657
-9.4869 -2.0397 0.5985
-9.4908 -2.9473 0.6129
-9.4948 -3.9076 0.6333
-9.4992 -4.9423 0.6604
-18.9267 -12.1066 1.3857
-18.6066 -14.3927 1.4509
-17.1008 -15.8580 1.4385
-15.3550 -17.0287 1.4142
-13.5682 -18.0555 1.3930
-11.7470 -18.9417 1.3747
-9.4602 -18.8191 1.2991
-8.0464 -20.3534 1.3499
-6.1636 -20.8713 1.3423
-4.2595 -21.2493 1.3367
-2.3409 -21.4879 1.3332
-0.4143 -21.5874 1.3317
1.5137 -21.5480 1.3323
3.4367 -21.3695 1.3350
4.8634 -19.1441 1.2183
6.5949 -18.7568 1.2263
6.8850 -15.1151 1.0244
6.8781 -12.1042 0.8587
6.8731 -9.9169 0.7442
6.8693 -8.2323 0.6613
6.8662 -6.8757 0.5993
6.9352 -5.8031 0.5577
8.5164 -5.9199 0.6397
8.5140 -4.8536 0.6045
8.5118 -3.8913 0.5772
8.5098 -3.0052 0.5566
8.5079 -2.1738 0.5416
8.5060 -1.3800 0.5315
8.5043 -0.6092 0.5259
8.5026 0.1515 0.5245
8.5008 0.9142 0.5273
8.4990 1.6915 0.5345
8.4972 2.4966 0.5462
8.4953 3.3449 0.5631
28.2384 14.1465 1.9480
26.8639 16.6090 1.9480
11.8830 8.9041 0.9158
23.4850 21.1183 1.9480
20.2755 21.8039 1.8364
18.3585 23.6659 1.8474
9.9466 15.5030 1.1361
8.8114 16.8788 1.1744
7.4973 18.1463 1.2110
9.3826 30.0672 1.9427
7.1859 33.1992 2.0951
4.2031 33.7672 2.0988
0.5057 14.6450 0.9038
-1.8650 33.9958 2.0999
-2.2929 15.7986 0.9846
-3.0818 12.9603 0.8217
-4.3386 12.9714 0.8436
-13.6054 31.1243 2.0951
-16.3273 29.7867 2.0951
-9.8575 14.6989 1.0916
-12.7895 15.8138 1.2544
-12.8015 13.2183 1.1349
-23.8137 20.5553 1.9403
-24.2106 17.3856 1.8384
-24.8727 14.6887 1.7816
-24.8662 11.8321 1.6985
-24.8602 9.2103 1.6352
-24.8546 6.7579 1.5886
-25.7800 4.5890 1.6151
-25.7746 2.2438 1.5957
-28.3055 -0.0703 1.7458
-27.2169 -2.5057 1.6858
-9.4856 -1.7372 0.5948
-9.4894 -2.6309 0.6074
-9.4934 -3.5708 0.6256
-9.4977 -4.5773 0.6503
-19.4821 -11.6362 1.3996
-18.6165 -13.5092 1.4187
-17.7132 -15.4437 1.4495
-15.9591 -16.6432 1.4222
-14.1855 -17.7192 1.4000
-12.3755 -18.6532 1.3807
-10.5354 -19.4486 1.3642
-8.6862 -20.1434 1.3530
-6.8125 -20.7094 1.3446
-4.9149 -21.1353 1.3384
-3.0005 -21.4217 1.3341
-1.0759 -21.5689 1.3320
0.8524 -21.5772 1.3319
2.7778 -21.4464 1.3338
4.6938 -21.1765 1.3378
6.0021 -18.9032 1.2233
5.7459 -13.7138 0.9171
6.8802 -13.0214 0.9083
6.8747 -10.5987 0.7792
6.8705 -8.7666 0.6870
6.8672 -7.3117 0.6187
6.9342 -6.1734 0.5726
6.8966 -5.1144 0.5296
8.5148 -5.2061 0.6156
8.5125 -4.2117 0.5858
8.5104 -3.3021 0.5630
8.5085 -2.4541 0.5462
8.5067 -1.6491 0.5344
8.5049 -0.8719 0.5273
8.5032 -0.1092 0.5245
8.5014 0.6515 0.5259
8.4997 1.4223 0.5315
8.4979 2.2163 0.5417
8.4960 3.0479 0.5567
8.4939 3.9343 0.5774
27.2676 15.7244 1.9414
25.8438 18.1556 1.9480
23.4109 19.7881 1.8906
5.8523 5.9189 0.5134
18.9618 22.9550 1.8364
5.8034 8.4628 0.6329
9.2369 16.4448 1.1633
7.9722 17.7350 1.1993
6.6157 19.1188 1.2478
7.6034 30.5656 1.9427
5.2349 33.6149 2.0983
2.2166 33.9667 2.0995
-0.3538 14.6453 0.9036
-3.8548 33.8247 2.0997
-2.6642 12.9566 0.8159
-3.8997 12.9675 0.8352
-12.6451 31.5274 2.0951
-15.4068 30.2730 2.0951
-9.8507 15.7091 1.1436
-12.7848 16.8382 1.3040
-12.7977 14.0515 1.1722
-14.1978 13.0355 1.1888
-24.9423 19.0962 1.9375
-24.8751 15.7379 1.8155
-24.8683 12.7820 1.7246
-24.8622 10.0879 1.6549
-24.8565 7.5839 1.6029
-24.1825 5.0737 1.5240
-25.7765 3.0425 1.6009
-28.3849 0.7998 1.7514
-27.6248 -1.6915 1.7070
-9.4843 -1.4380 0.5917
-9.4881 -2.3199 0.6024
-9.4920 -3.2419 0.6187
-9.4962 -4.2230 0.6410
-4.4458 -2.4738 0.3138
-18.6258 -12.6630 1.3892
-18.3222 -15.0115 1.4609
-16.5579 -16.2408 1.4305
-14.7987 -17.3661 1.4073
-13.0003 -18.3485 1.3870
-10.9910 -18.8839 1.3476
-9.3225 -19.9169 1.3563
-7.4585 -20.5310 1.3473
-5.5683 -21.0049 1.3403
-3.6590 -21.3391 1.3354
-1.7371 -21.5341 1.3325
0.1906 -21.5900 1.3317
2.1178 -21.5069 1.3329
4.0378 -21.2848 1.3362
5.4077 -19.0355 1.2205
7.1541 -18.6594 1.2326
6.8826 -14.0524 0.9651
6.8764 -11.3486 0.8184
6.8718 -9.3445 0.7154
6.8683 -7.7774 0.6400
6.8684 -6.5029 0.5834
6.8973 -5.4504 0.5422
8.5156 -5.5722 0.6277
8.5133 -4.5420 0.5951
8.5111 -3.6063 0.5701
8.5092 -2.7394 0.5514
8.5073 -1.9215 0.5379
8.5055 -1.1364 0.5293
8.5037 -0.3701 0.5250
8.5020 0.3899 0.5249
8.5003 1.1558 0.5291
8.4985 1.9404 0.5377
8.4966 2.7573 0.5510
8.4946 3.6227 0.5696
27.8250 14.9288 1.9476
26.3881 17.3550 1.9480
24.0063 19.0615 1.8906
22.8842 21.7679 1.9480
19.6541 22.3604 1.8362
7.1726 29.8381 2.0826
4.5092 30.5407 2.0951
1.7669 30.8212 2.0951
-0.9895 30.8559 2.0951
-3.7380 30.6446 2.0951
-2.7711 12.9567 0.8992
-4.0117 12.9677 0.9212
-11.7183 28.5612 2.0951
-14.2194 27.4021 2.0951
-9.6586 15.1358 1.2185
-12.7859 16.5663 1.4202
-12.7985 13.8314 1.2788
-14.4250 13.0355 1.3194
-22.7267 17.1168 1.9308
-24.0129 14.9281 1.9188
-24.8678 12.5344 1.8899
-24.8617 9.8596 1.8150
-24.8560 7.3696 1.7594
-24.1820 4.8746 1.6741
-25.7760 2.8361 1.7598
-25.5805 0.5185 1.7364
-24.8642 -1.7197 1.6914
-9.4847 -1.5148 0.6518
-9.4884 -2.3995 0.6642
-9.4924 -3.3260 0.6826
-4.3503 -1.9759 0.3243
-4.0678 -2.3057 0.3173
-18.4356 -12.7479 1.5211
-16.8416 -14.0224 1.4872
-15.2095 -15.1558 1.4571
-13.5592 -16.1686 1.4320
-11.9034 -17.0848 1.4131
-10.2132 -17.8708 1.3969
-8.4949 -18.5286 1.3833
-6.7542 -19.0601 1.3723
-4.9963 -19.4669 1.3639
-3.2275 -19.7593 1.3587
-1.4494 -19.9312 1.3562
0.3342 -19.9723 1.3556
2.1165 -19.8825 1.3569
3.8910 -19.6617 1.3602
5.1689 -17.6625 1.2489
6.7700 -17.2486 1.2575
6.8819 -13.7745 1.0450
6.8759 -11.1482 0.8889
6.8715 -9.1910 0.7788
6.8680 -7.6543 0.6979
6.8682 -6.4006 0.6371
6.8971 -5.3622 0.5929
8.5154 -5.4764 0.6871
8.5131 -4.4559 0.6521
8.5110 -3.5272 0.6252
8.5090 -2.6654 0.6051
8.5071 -1.8509 0.5908
8.5053 -1.0680 0.5817
8.5036 -0.3028 0.5775
8.5019 0.4572 0.5778
8.5001 1.2243 0.5828
8.4983 2.0111 0.5927
8.4964 2.8316 0.6078
8.4945 3.7022 0.6288
25.1645 13.7585 1.9463
23.8573 15.9621 1.9480
22.3384 18.0266 1.9480
20.6413 19.9474 1.9480
18.7796 21.7092 1.9480
10.7354 14.9158 1.2472
9.5477 16.1274 1.2719
8.3018 17.3985 1.3082
6.8746 18.4946 1.3390
7.9003 28.9326 2.0354
5.4431 30.3881 2.0951
2.7107 30.7525 2.0951
-0.0206 14.6443 0.9938
-2.7970 30.7448 2.0951
-2.3577 12.9530 0.8935
-3.5791 12.9639 0.9127
-10.8375 28.9070 2.0951
-13.3729 27.8250 2.0951
-9.6719 16.2330 1.2823
-10.4145 14.3845 1.2052
-12.7945 14.7066 1.3229
-13.5613 13.0319 1.2764
-22.2343 17.8397 1.9346
-23.6105 15.7011 1.9243
-24.6901 13.4092 1.9067
-24.8637 10.7536 1.8384
-24.8579 8.2069 1.7765
-24.8524 5.8076 1.7320
-25.7778 3.6390 1.7667
-24.1737 1.2320 1.6426
-25.1902 -0.9678 1.7108
-10.2864 -1.3210 0.7038
-9.4871 -2.0921 0.6593
-9.4910 -3.0023 0.6756
-4.4431 -1.8560 0.3268
-4.1667 -2.1958 0.3196
-3.8734 -2.5065 0.3131
-17.3934 -13.6012 1.4984
-15.7734 -14.7824 1.4671
-14.1200 -15.8258 1.4393
-12.4758 -16.7852 1.4193
-10.7967 -17.6156 1.4021
-9.0874 -18.3172 1.3876
-7.3537 -18.8919 1.3758
-5.6012 -19.3412 1.3665
-3.8353 -19.6701 1.3600
-2.0605 -19.8870 1.3568
-0.2781 -19.9730 1.3556
1.5054 -19.9281 1.3562
3.2834 -19.7523 1.3589
4.7969 -18.4741 1.2953
6.2223 -17.4035 1.2543
6.8845 -14.9055 1.1142
6.8778 -11.9565 0.9361
6.8729 -9.8058 0.8126
6.8691 -8.1445 0.7230
6.8685 -6.8059 0.6562
7.5790 -6.2743 0.6677
8.5163 -5.8535 0.7013
8.5138 -4.7942 0.6631
8.5117 -3.8372 0.6336
8.5096 -2.9549 0.6113
8.5078 -2.1261 0.5951
8.5059 -1.3340 0.5843
8.5042 -0.5642 0.5784
8.5025 0.1962 0.5772
8.5007 0.9595 0.5806
8.4989 1.7381 0.5887
8.4971 2.5453 0.6020
8.4952 3.3967 0.6209
25.5650 12.9761 1.9456
24.3290 15.2195 1.9475
11.8656 8.9891 1.0102
21.2429 19.3055 1.9480
19.4361 21.1234 1.9480
17.4744 22.7730 1.9480
9.8322 15.5036 1.2459
8.7374 16.9541 1.2944
7.3507 18.0602 1.3233
8.6371 28.1997 2.0015
6.3694 30.1957 2.0943
3.6519 30.6550 2.0951
0.4284 14.6441 0.9942
-1.8535 30.8161 2.0951
-2.2979 15.2665 1.0477
-3.1540 12.9601 0.9052
-4.4146 12.9712 0.9299
-12.5139 28.2217 2.0951
-14.9815 26.9929 2.0951
-9.7726 14.4077 1.1815
-12.7902 15.6452 1.3714
-12.8020 13.0802 1.2421
-20.8025 17.7658 1.8565
-23.1556 16.4439 1.9274
-24.3485 14.2068 1.9131
-24.8658 11.6717 1.8641
-24.8598 9.0615 1.7957
-24.8543 6.6175 1.7455
-25.7797 4.4490 1.7754
-25.7743 2.1071 1.7550
-25.4980 -0.1976 1.7304
-14.4539 -1.4075 0.9855
-9.4858 -1.7889 0.6551
-9.4896 -2.6848 0.6693
-9.4936 -3.6281 0.6897
-4.2636 -2.0825 0.3220
-3.9758 -2.4032 0.3153
-17.9402 -13.1632 1.5101
-16.3334 -14.3929 1.4774
-14.6908 -15.4830 1.4484
-13.0439 -16.4702 1.4258
-11.3766 -17.3453 1.4077
-9.6769 -18.0909 1.3923
-7.9510 -18.7089 1.3796
-6.2044 -19.2011 1.3694
-4.4421 -19.5689 1.3618
-2.6708 -19.8273 1.3577
-0.8902 -19.9582 1.3558
0.8937 -19.9582 1.3558
2.6743 -19.8273 1.3577
4.4458 -19.5692 1.3619
5.6727 -17.5449 1.2514
5.8195 -13.6868 1.0093
6.8798 -12.8563 0.9895
6.8744 -10.4770 0.8504
6.8703 -8.6718 0.7508
6.8670 -7.2348 0.6769
7.1230 -6.2745 0.6442
6.8875 -5.0517 0.5797
8.5146 -5.1446 0.6751
8.5124 -4.1560 0.6429
8.5103 -3.2506 0.6182
8.5084 -2.4056 0.6000
8.5066 -1.6027 0.5874
8.5048 -0.8267 0.5799
8.5030 -0.0644 0.5771
8.5013 0.6965 0.5789
8.4996 1.4684 0.5854
8.4977 2.2641 0.5968
8.4958 3.0985 0.6137
8.4938 3.9887 0.6368
24.7767 14.4624 1.9469
23.4008 16.6242 1.9480
21.8246 18.6454 1.9480
5.8092 5.9376 0.5637
18.1641 22.2267 1.9480
5.7604 8.4958 0.6966
9.1642 16.5186 1.2820
7.8950 17.8135 1.3223
6.5320 19.2038 1.3766
7.2303 29.7332 2.0766
4.5896 30.5287 2.0951
1.8481 30.8164 2.0951
-0.9082 30.8584 2.0951
-3.6573 30.6544 2.0951
-2.7354 12.9564 0.8987
-3.9742 12.9674 0.9204
-11.6431 28.5920 2.0951
-14.1472 27.4394 2.0951
-9.6597 15.2257 1.2237
-12.7855 16.6563 1.4250
-12.7982 13.9043 1.2825
-14.3485 13.0352 1.3156
-22.6853 17.1795 1.9312
-23.9803 14.9954 1.9194
-24.8680 12.6168 1.8924
-24.8618 9.9356 1.8170
-24.8561 7.4409 1.7608
-24.1821 4.9409 1.6750
-25.7762 2.9049 1.7603
-25.5993 0.5864 1.7377
-24.8929 -1.6559 1.6931
-9.4846 -1.4892 0.6515
-9.4883 -2.3729 0.6637
-9.4922 -3.2979 0.6820
-4.3584 -1.9657 0.3245
-4.0764 -2.2964 0.3175
-18.4820 -12.7081 1.5222
-16.8892 -13.9869 1.4882
-15.2581 -15.1243 1.4580
-13.6074 -16.1396 1.4326
-11.9527 -17.0597 1.4136
-10.2634 -17.8495 1.3973
-8.5459 -18.5110 1.3836
-6.8058 -19.0462 1.3726
-5.0484 -19.4566 1.3641
-3.2798 -19.7522 1.3588
-1.5019 -19.9280 1.3562
0.2816 -19.9730 1.3556
2.0640 -19.8870 1.3569
3.8389 -19.6701 1.3601
5.1214 -17.6730 1.2487
6.7230 -17.2624 1.2572
6.8821 -13.8661 1.0505
6.8761 -11.2145 0.8927
6.8716 -9.2418 0.7816
6.8681 -7.6951 0.7000
6.8683 -6.4345 0.6387
6.8972 -5.3915 0.5941
8.5155 -5.5082 0.6883
8.5131 -4.4845 0.6530
8.5110 -3.5535 0.6259
8.5090 -2.6900 0.6056
8.5072 -1.8744 0.5912
8.5054 -1.0908 0.5819
8.5036 -0.3252 0.5775
8.5019 0.4348 0.5777
8.5002 1.2015 0.5826
8.4984 1.9875 0.5923
8.4965 2.8068 0.6073
8.4945 3.6757 0.6281
25.1999 13.6918 1.9463
23.8988 15.8989 1.9480
22.3858 17.9677 1.9480
20.6938 19.8930 1.9480
18.8368 21.6596 1.9480
10.7698 14.8807 1.2466
9.5834 16.0910 1.2710
8.3396 17.3599 1.3070
6.8963 18.4045 1.3338
7.9646 28.8687 2.0323
5.5230 30.3732 2.0950
2.7917 30.7453 2.0951
0.0180 14.6443 0.9938
-2.7161 30.7521 2.0951
-2.3224 12.9527 0.8930
-3.5423 12.9635 0.9120
-10.7613 28.9354 2.0951
-13.2996 27.8601 2.0951
-9.6731 16.3327 1.2882
-10.3574 14.3852 1.2030
-12.7941 14.7847 1.3269
-13.4897 13.0316 1.2729
-22.1909 17.9012 1.9349
-23.5691 15.7632 1.9243
-24.6618 13.4780 1.9073
-24.8639 10.8315 1.8405
-24.8581 8.2796 1.7781
-24.8526 5.8767 1.7331
-25.7780 3.7083 1.7674
-24.1738 1.2958 1.6429
-25.2173 -0.9024 1.7124
-10.5006 -1.3204 0.7182
-9.4870 -2.0659 0.6589
-9.4909 -2.9747 0.6750
-4.4510 -1.8455 0.3270
-4.1751 -2.1862 0.3198
-3.8823 -2.4977 0.3133
-17.4405 -13.5643 1.4994
-15.8217 -14.7496 1.4679
-14.1692 -15.7970 1.4401
-12.5248 -16.7587 1.4198
-10.8467 -17.5930 1.4026
-9.1381 -18.2984 1.3880
-7.4051 -18.8767 1.3761
-5.6531 -19.3298 1.3667
-3.8875 -19.6617 1.3601
-2.1130 -19.8825 1.3569
-0.3307 -19.9723 1.3556
1.4529 -19.9313 1.3562
3.2311 -19.7593 1.3588
4.7938 -18.6641 1.3077
6.1751 -17.4162 1.2540
6.8847 -15.0097 1.1207
6.8780 -12.0300 0.9404
6.8730 -9.8611 0.8157
6.8692 -8.1882 0.7253
6.8685 -6.8419 0.6579
7.5385 -6.2744 0.6656
8.5163 -5.8867 0.7026
8.5139 -4.8239 0.6641
8.5117 -3.8642 0.6344
8.5097 -2.9800 0.6119
8.5078 -2.1500 0.5955
8.5060 -1.3570 0.5845
8.5042 -0.5867 0.5785
8.5025 0.1738 0.5771
8.5008 0.9369 0.5804
8.4990 1.7148 0.5884
8.4972 2.5210 0.6015
8.4952 3.3708 0.6202
25.5982 12.9082 1.9456
24.3684 15.1550 1.9475
11.8672 8.9412 1.0083
21.2937 19.2494 1.9480
19.4917 21.0721 1.9480
17.5343 22.7269 1.9480
9.8572 15.4530 1.2439
8.7744 16.9163 1.2932
7.4062 18.0602 1.3247
8.6993 28.1378 1.9987
6.4491 30.1798 2.0944
3.7326 30.6453 2.0951
0.4670 14.6441 0.9943
-1.7723 30.8209 2.0951
-2.2955 15.5287 1.0653
-3.1178 12.9598 0.9046
-4.3764 12.9709 0.9290
-12.4395 28.2546 2.0951
-14.9103 27.0323 2.0951
-9.7317 14.4291 1.1811
-12.7898 15.7291 1.3758
-12.8017 13.1490 1.2454
-20.8001 17.8586 1.8605
-23.1161 16.5076 1.9277
-24.3179 14.2749 1.9136
-24.8660 11.7518 1.8665
-24.8600 9.1357 1.7974
-24.8544 6.6877 1.7467
-25.7798 4.5190 1.7762
-25.7745 2.1755 1.7554
-25.5236 -0.1306 1.7322
-21.2200 -2.0100 1.4465
-9.4857 -1.7630 0.6548
-9.4895 -2.6578 0.6688
-9.4935 -3.5995 0.6890
-4.2718 -2.0726 0.3222
-3.9845 -2.3941 0.3155
-17.9870 -13.1248 1.5111
-16.3813 -14.3586 1.4783
-14.7397 -15.4528 1.4492
-13.0925 -16.4423 1.4264
-11.4263 -17.3213 1.4082
-9.7274 -18.0707 1.3927
-8.0022 -18.6925 1.3799
-6.2562 -19.1883 1.3697
-4.4943 -19.5598 1.3620
-2.7231 -19.8215 1.3578
-0.9427 -19.9562 1.3558
0.8411 -19.9601 1.3558
2.6219 -19.8331 1.3577
4.3936 -19.5782 1.3617
5.6254 -17.5564 1.2511
5.7775 -13.6877 1.0083
6.8800 -12.9384 0.9945
6.8746 -10.5376 0.8538
6.8704 -8.7191 0.7533
6.8671 -7.2731 0.6788
7.0853 -6.2745 0.6423
6.8965 -5.0862 0.5815
8.5147 -5.1753 0.6762
8.5124 -4.1838 0.6437
8.5104 -3.2764 0.6189
8.5085 -2.4298 0.6005
8.5066 -1.6259 0.5877
8.5048 -0.8493 0.5800
8.5031 -0.0868 0.5771
8.5014 0.6740 0.5787
8.4996 1.4453 0.5851
8.4978 2.2402 0.5964
8.4959 3.0732 0.6131
8.4939 3.9615 0.6360
24.8141 14.3967 1.9469
23.4445 16.5625 1.9480
21.8737 18.5878 1.9480
5.8303 5.9278 0.5643
18.2226 22.1788 1.9480
5.7801 8.4766 0.6963
9.2005 16.4816 1.2810
7.9336 17.7741 1.3209
6.5738 19.1612 1.3748
7.2898 29.6377 2.0713
4.6701 30.5165 2.0951
1.9292 30.8114 2.0951
-0.8269 30.8607 2.0951
-3.5765 30.6639 2.0951
-2.6997 12.9561 0.8981
-3.9368 12.9670 0.9197
-11.5678 28.6226 2.0951
-14.0749 27.4766 2.0951
-9.6608 15.3165 1.2289
-12.7851 16.7468 1.4298
-12.7978 13.9776 1.2861
-14.2724 13.0349 1.3117
-22.6438 17.2420 1.9315
-23.9474 15.0628 1.9199
-24.8682 12.6993 1.8950
-24.8620 10.0116 1.8189
-24.8563 7.5123 1.7622
-24.1823 5.0073 1.6759
-25.7763 2.9737 1.7609
-25.6179 0.6543 1.7391
-24.9214 -1.5919 1.6947
-9.4844 -1.4636 0.6513
-9.4882 -2.3464 0.6633
-9.4921 -3.2699 0.6813
-4.3664 -1.9555 0.3247
-4.0849 -2.2871 0.3177
-18.5283 -12.6682 1.5232
-16.9367 -13.9513 1.4891
-15.3066 -15.0928 1.4588
-13.6556 -16.1105 1.4332
-12.0020 -17.0344 1.4141
-10.3137 -17.8280 1.3978
-8.5969 -18.4934 1.3840
-6.8574 -19.0323 1.3729
-5.1004 -19.4463 1.3643
-3.3320 -19.7450 1.3589
-1.5545 -19.9247 1.3563
0.2290 -19.9735 1.3556
2.0116 -19.8914 1.3568
3.7867 -19.6784 1.3600
5.0740 -17.6834 1.2485
6.6760 -17.2762 1.2569
6.8824 -13.9588 1.0562
6.8762 -11.2812 0.8966
6.8717 -9.2930 0.7843
6.8682 -7.7361 0.7020
6.8683 -6.4686 0.6403
7.9830 -6.2742 0.6891
8.5155 -5.5402 0.6894
8.5132 -4.5132 0.6539
8.5111 -3.5799 0.6266
8.5091 -2.7147 0.6061
8.5072 -1.8980 0.5915
8.5054 -1.1136 0.5821
8.5037 -0.3476 0.5776
8.5020 0.4123 0.5777
8.5002 1.1786 0.5824
8.4984 1.9639 0.5919
8.4966 2.7820 0.6067
8.4946 3.6492 0.6274
25.2351 13.6249 1.9462
23.9401 15.8355 1.9479
22.4330 17.9087 1.9480
20.7461 19.8384 1.9480
18.8937 21.6100 1.9480
10.8041 14.8457 1.2460
9.6191 16.0546 1.2701
8.3773 17.3214 1.3058
6.9256 18.3355 1.3301
8.0288 28.8049 2.0293
5.6028 30.3576 2.0950
2.8726 30.7378 2.0951
0.0565 14.6442 0.9938
-2.6351 30.7591 2.0951
-2.3170 13.1216 0.9043
-3.5055 12.9632 0.9113
-10.6851 28.9636 2.0951
-13.2261 27.8950 2.0951
-9.6743 16.4333 1.2941
-10.3004 14.3859 1.2007
-12.7938 14.8631 1.3309
-13.4185 13.0313 1.2694
-21.3945 17.3519 1.8694
-23.5276 15.8252 1.9243
-24.6333 13.5468 1.9078
-24.8641 10.9096 1.8427
-24.8582 8.3525 1.7797
-24.8527 5.9459 1.7342
-25.7781 3.7776 1.7681
-24.1740 1.3597 1.6431
-25.2444 -0.8368 1.7141
-10.7239 -1.3198 0.7333
-9.4869 -2.0397 0.6585
-9.4907 -2.9473 0.6744
-4.4588 -1.8350 0.3272
-4.1835 -2.1766 0.3200
-3.8911 -2.4890 0.3135
-17.4877 -13.5272 1.5004
-15.8699 -14.7166 1.4688
-14.2183 -15.7681 1.4409
-12.5737 -16.7322 1.4204
-10.8966 -17.5703 1.4031
-9.1889 -18.2794 1.3884
-7.4566 -18.8615 1.3764
-5.7049 -19.3182 1.3670
-3.9396 -19.6532 1.3603
-2.1655 -19.8778 1.3570
-0.3833 -19.9715 1.3556
1.4004 -19.9343 1.3562
3.1789 -19.7663 1.3586
4.7906 -18.8577 1.3204
6.1279 -17.4287 1.2538
6.8850 -15.1151 1.1272
6.8781 -12.1042 0.9448
6.8731 -9.9169 0.8188
6.8693 -8.2323 0.7276
6.8662 -6.8757 0.6594
6.9352 -5.8031 0.6137
8.5164 -5.9199 0.7039
8.5140 -4.8536 0.6651
8.5118 -3.8913 0.6351
8.5098 -3.0052 0.6125
8.5079 -2.1738 0.5959
8.5060 -1.3800 0.5848
8.5043 -0.6092 0.5786
8.5026 0.1515 0.5771
8.5008 0.9142 0.5802
8.4990 1.6915 0.5881
8.4972 2.4966 0.6010
8.4953 3.3449 0.6196
25.6312 12.8404 1.9455
24.4077 15.0904 1.9474
11.8827 8.9039 1.0077
21.3443 19.1933 1.9480
19.5471 21.0207 1.9480
17.5941 22.6806 1.9480
9.8861 15.4086 1.2424
8.8113 16.8786 1.2921
7.4645 18.0668 1.3266
8.7613 28.0761 1.9960
6.5304 30.1710 2.0949
3.8133 30.6354 2.0951
0.5056 14.6441 0.9944
-1.6911 30.8254 2.0951
-2.2931 15.7998 1.0835
-3.0816 12.9595 0.9040
-4.3383 12.9706 0.9282
-12.3650 28.2873 2.0951
-14.8390 27.0715 2.0951
-9.6908 14.4503 1.1808
-12.7894 15.8135 1.3802
-12.8013 13.2181 1.2488
-20.7976 17.9519 1.8645
-23.0765 16.5712 1.9280
-24.2871 14.3429 1.9142
-24.8662 11.8321 1.8688
-24.8602 9.2103 1.7992
-24.8546 6.7579 1.7480
-25.7800 4.5890 1.7770
-25.7746 2.2438 1.7558
-25.5382 -0.0634 1.7331
-24.6111 -2.2658 1.6773
-9.4856 -1.7372 0.6544
-9.4894 -2.6309 0.6683
-9.4934 -3.5708 0.6883
-4.2800 -2.0627 0.3224
-3.9932 -2.3851 0.3157
-18.0337 -13.0863 1.5121
-16.4292 -14.3243 1.4792
-14.7885 -15.4225 1.4501
-13.1410 -16.4145 1.4270
-11.4759 -17.2973 1.4087
-9.7780 -18.0504 1.3932
-8.0534 -18.6759 1.3802
-6.3079 -19.1755 1.3699
-4.5464 -19.5507 1.3622
-2.7755 -19.8155 1.3579
-0.9954 -19.9541 1.3558
0.7886 -19.9618 1.3557
2.5695 -19.8387 1.3576
4.3415 -19.5871 1.3615
5.5781 -17.5679 1.2509
5.7395 -13.6985 1.0079
6.8802 -13.0214 0.9994
6.8747 -10.5987 0.8573
6.8705 -8.7666 0.7559
6.8672 -7.3117 0.6807
6.9342 -6.1734 0.6301
6.8966 -5.1144 0.5827
8.5148 -5.2061 0.6773
8.5125 -4.2117 0.6445
8.5104 -3.3021 0.6195
8.5085 -2.4541 0.6010
8.5067 -1.6491 0.5880
8.5049 -0.8719 0.5802
8.5032 -0.1092 0.5771
8.5014 0.6515 0.5786
8.4997 1.4223 0.5848
8.4979 2.2163 0.5960
8.4960 3.0479 0.6125
8.4939 3.9343 0.6353
24.8512 14.3309 1.9468
23.4881 16.5007 1.9480
21.9225 18.5301 1.9480
5.8521 5.9188 0.5649
18.2809 22.1308 1.9480
5.8034 8.4628 0.6964
9.2368 16.4446 1.2800
7.9721 17.7348 1.3196
6.6156 19.1186 1.3729
7.3501 29.5473 2.0663
4.7504 30.5041 2.0951
2.0103 30.8062 2.0951
-0.3538 14.6444 0.9941
-3.4957 30.6732 2.0951
-2.6641 12.9557 0.8976
-3.8994 12.9667 0.9189
-11.4923 28.6530 2.0951
-14.0024 27.5135 2.0951
-9.6619 15.4081 1.2342
-10.9174 14.3787 1.2252
-12.7975 14.0514 1.2898
-14.1968 13.0346 1.3079
-22.6021 17.3045 1.9318
-23.9143 15.1300 1.9205
-24.8683 12.7820 1.8975
-24.8622 10.0879 1.8208
-24.8565 7.5839 1.7636
-24.1825 5.0737 1.6768
-25.7765 3.0425 1.7614
-25.6364 0.7224 1.7405
-24.9499 -1.5277 1.6964
-9.4843 -1.4380 0.6510
-9.4881 -2.3199 0.6629
-9.4920 -3.2419 0.6807
-4.3745 -1.9453 0.3249
-4.0935 -2.2777 0.3179
-18.5745 -12.6282 1.5243
-16.9843 -13.9154 1.4901
-15.3552 -15.0611 1.4597
-13.7038 -16.0812 1.4338
-12.0513 -17.0091 1.4147
-10.3639 -17.8065 1.3982
-8.6479 -18.4755 1.3844
-6.9089 -19.0182 1.3732
-5.1524 -19.4359 1.3646
-3.3844 -19.7377 1.3590
-1.6070 -19.9213 1.3563
0.1764 -19.9739 1.3556
1.9591 -19.8957 1.3567
3.7346 -19.6865 1.3598
5.0265 -17.6936 1.2483
6.6290 -17.2898 1.2566
6.8826 -14.0524 1.0619
6.8764 -11.3486 0.9005
6.8718 -9.3445 0.7872
6.8683 -7.7774 0.7041
6.8683 -6.5028 0.6419
7.9399 -6.2742 0.6868
8.5156 -5.5722 0.6906
8.5133 -4.5420 0.6548
8.5111 -3.6063 0.6273
8.5092 -2.7394 0.6066
8.5073 -1.9215 0.5919
8.5055 -1.1364 0.5823
8.5037 -0.3701 0.5776
8.5020 0.3899 0.5776
8.5003 1.1558 0.5822
8.4985 1.9404 0.5916
8.4966 2.7573 0.6062
8.4946 3.6227 0.6267
25.2701 13.5580 1.9462
23.9812 15.7721 1.9479
22.4801 17.8496 1.9480
20.7983 19.7837 1.9480
18.9506 21.5601 1.9480
6.5989 27.4515 2.0908
4.1230 27.9247 2.0904
1.6169 28.2040 2.0921
-0.5227 16.2993 1.2077
-3.4237 28.0681 2.0940
-2.7709 12.9559 0.9811
-4.0114 12.9668 1.0052
-10.7282 26.1481 2.0930
-13.0097 25.0710 2.0917
-9.6585 15.1356 1.3296
-12.7857 16.5661 1.5497
-12.7880 13.8200 1.3944
-14.4240 13.0346 1.4397
-20.7529 15.6302 1.9240
-21.8859 13.6057 1.9084
-22.7983 11.4913 1.8907
-23.4185 9.2873 1.8657
-23.7782 7.0500 1.8367
-23.8625 4.8102 1.8027
-23.7652 2.6149 1.7706
-23.3254 0.4728 1.7277
-22.6733 -1.5682 1.6831
-9.4847 -1.5148 0.7113
-4.4769 -1.1322 0.3420
-4.2614 -1.4931 0.3344
-4.0247 -1.8280 0.3274
-3.7694 -2.1366 0.3209
-3.4979 -2.4187 0.3149
-15.6967 -13.0691 1.5126
-14.1950 -14.1449 1.4840
-12.6580 -15.0940 1.4588
-11.0938 -15.9228 1.4371
-9.5260 -16.6684 1.4217
-7.9285 -17.2933 1.4088
-6.3072 -17.7987 1.3984
-4.6676 -18.1859 1.3904
-3.0146 -18.4556 1.3848
-1.3532 -18.6086 1.3817
0.3120 -18.6451 1.3810
1.9763 -18.5653 1.3826
3.6352 -18.3690 1.3867
4.8281 -16.4979 1.2730
6.3207 -16.1040 1.2812
6.8819 -13.7745 1.1403
6.8759 -11.1482 0.9700
6.8715 -9.1910 0.8498
6.8680 -7.6543 0.7616
6.8681 -6.4005 0.6952
6.9238 -5.3830 0.6495
8.5154 -5.4764 0.7498
8.5131 -4.4559 0.7116
8.5110 -3.5272 0.6823
8.5090 -2.6654 0.6603
8.5071 -1.8509 0.6447
8.5053 -1.0680 0.6348
8.5036 -0.3028 0.6301
8.5019 0.4572 0.6305
8.5001 1.2243 0.6360
8.4983 2.0111 0.6467
8.4964 2.8316 0.6632
8.4945 3.7022 0.6862
23.7494 12.9848 2.0045
22.0224 14.7344 1.9622
20.4148 16.4743 1.9427
18.8653 18.2311 1.9428
17.1626 19.8397 1.9427
10.7353 14.9156 1.3609
9.5476 16.1273 1.3879
8.3017 17.3983 1.4276
6.8516 18.4325 1.4563
7.4446 27.2638 2.0929
4.9752 27.7760 2.0897
2.4799 28.1341 2.0915
-0.0206 14.6433 1.0844
-2.5617 28.1574 2.0938
-2.3576 12.9522 0.9749
-3.5788 12.9630 0.9959
-9.9234 26.4689 2.0934
-12.2383 25.4641 2.0922
-9.6717 16.2328 1.3993
-10.4157 14.3861 1.3153
-12.7943 14.7064 1.4435
-13.5604 13.0311 1.3927
-20.2985 16.2865 1.9272
-21.5220 14.3122 1.9141
-22.5157 12.2282 1.8974
-23.2298 10.0469 1.8743
-23.7012 7.8250 1.8484
-23.8567 5.5749 1.8143
-23.8738 3.3702 1.7855
-23.4964 1.1975 1.7423
-22.9474 -0.8817 1.7006
-10.2976 -1.3225 0.7688
-9.4871 -2.0921 0.7194
-4.3379 -1.3722 0.3369
-4.1082 -1.7161 0.3297
-3.8589 -2.0336 0.3230
-3.5927 -2.3249 0.3169
-16.2026 -12.6701 1.5232
-14.7147 -13.7902 1.4934
-13.1890 -14.7823 1.4671
-11.6322 -15.6502 1.4440
-10.0677 -16.4262 1.4267
-8.4797 -17.0923 1.4130
-6.8659 -17.6387 1.4017
-5.2320 -18.0663 1.3929
-3.5830 -18.3763 1.3865
-1.9240 -18.5692 1.3825
-0.2596 -18.6457 1.3809
1.4055 -18.6058 1.3818
3.0669 -18.4495 1.3850
4.7196 -18.1764 1.3907
5.8104 -16.2514 1.2781
6.8845 -14.9055 1.2159
6.8778 -11.9565 1.0215
6.8729 -9.8058 0.8868
6.8691 -8.1445 0.7890
6.8685 -6.8059 0.7161
7.5790 -6.2743 0.7286
8.5163 -5.8535 0.7653
8.5138 -4.7942 0.7236
8.5117 -3.8372 0.6914
8.5096 -2.9549 0.6671
8.5078 -2.1261 0.6494
8.5059 -1.3340 0.6376
8.5042 -0.5642 0.6312
8.5025 0.1962 0.6298
8.5007 0.9595 0.6335
8.4989 1.7381 0.6424
8.4971 2.5453 0.6569
8.4952 3.3967 0.6775
24.3604 12.3647 2.0231
22.6072 14.1424 1.9748
11.8651 8.9887 1.1023
19.4145 17.6438 1.9428
17.7633 19.3053 1.9428
15.9853 20.8324 1.9446
9.7937 15.4429 1.3542
8.7373 16.9539 1.4124
7.3357 18.0234 1.4410
8.2816 27.0388 2.0942
5.8220 27.6006 2.0889
3.3400 28.0371 2.0910
0.4284 14.6432 1.0849
-1.6973 28.2193 2.0936
-2.2981 15.2676 1.1434
-3.1538 12.9593 0.9877
-4.4143 12.9704 1.0146
-11.4546 25.8328 2.0927
-13.7036 24.6906 2.0912
-9.7631 14.3937 1.2880
-12.7900 15.6450 1.4965
-12.8018 13.0800 1.3554
-19.8226 16.9290 1.9304
-21.1344 15.0086 1.9196
-22.1976 12.9518 1.9032
-23.0159 10.8034 1.8829
-23.5991 8.6020 1.8601
-23.8268 6.3439 1.8260
-23.9595 4.1349 1.8005
-23.6467 1.9332 1.7570
-23.2041 -0.1799 1.7184
-14.4697 -1.4090 1.0766
-9.4858 -1.7889 0.7149
-4.4118 -1.2482 0.3395
-4.1893 -1.6010 0.3321
-3.9465 -1.9276 0.3253
-3.6858 -2.2279 0.3189
-3.4097 -2.5018 0.3132
-15.2299 -13.4205 1.5033
-13.7164 -14.4561 1.4758
-12.1695 -15.3662 1.4516
-10.6056 -16.1697 1.4320
-9.0278 -16.8773 1.4174
-7.4222 -17.4646 1.4053
-5.7946 -17.9329 1.3956
-4.1502 -18.2831 1.3884
-2.4941 -18.5161 1.3836
-0.8310 -18.6326 1.3812
0.8344 -18.6326 1.3812
2.4975 -18.5163 1.3836
4.1537 -18.2833 1.3885
5.2980 -16.3860 1.2753
5.8144 -13.6748 1.1004
6.8798 -12.8563 1.0798
6.8744 -10.4770 0.9280
6.8703 -8.6718 0.8193
6.8670 -7.2348 0.7387
7.1230 -6.2745 0.7030
6.8875 -5.0517 0.6325
8.5146 -5.1446 0.7367
8.5124 -4.1560 0.7015
8.5103 -3.2506 0.6746
8.5084 -2.4056 0.6548
8.5066 -1.6027 0.6410
8.5048 -0.8267 0.6328
8.5030 -0.0644 0.6297
8.5013 0.6965 0.6317
8.4996 1.4684 0.6388
8.4977 2.2641 0.6513
8.4958 3.0985 0.6697
8.4938 3.9887 0.6949
23.1998 13.5420 1.9893
21.4971 15.2717 1.9528
19.9453 17.0398 1.9427
5.8091 5.9374 0.6151
16.6000 20.3128 1.9427
5.7604 8.4958 0.7601
9.1641 16.5184 1.3989
7.8949 17.8133 1.4429
6.5319 19.2036 1.5021
6.6720 27.4374 2.0911
4.1964 27.9130 2.0903
1.6911 28.1991 2.0920
-0.4798 16.3040 1.2079
-3.3498 28.0768 2.0940
-2.7352 12.9556 0.9806
-3.9739 12.9665 1.0043
-10.6595 26.1766 2.0931
-12.9440 25.1057 2.0918
-9.6596 15.2255 1.3353
-12.7853 16.6560 1.5550
-12.7590 13.8617 1.3952
-14.3475 13.0343 1.4355
-20.7147 15.6871 1.9243
-21.8556 13.6668 1.9089
-22.7768 11.5558 1.8914
-23.4033 9.3527 1.8664
-23.7725 7.1165 1.8377
-23.8630 4.8756 1.8037
-23.7754 2.6794 1.7718
-23.3409 0.5346 1.7290
-22.6975 -1.5098 1.6846
-9.4845 -1.4892 0.7110
-4.4829 -1.1211 0.3422
-4.2681 -1.4829 0.3346
-4.0319 -1.8185 0.3276
-3.7771 -2.1278 0.3210
-3.5061 -2.4108 0.3151
-15.7404 -13.0355 1.5135
-14.2398 -14.1150 1.4848
-12.7037 -15.0678 1.4595
-11.1395 -15.8990 1.4376
-9.5727 -16.6481 1.4222
-7.9760 -17.2766 1.4092
-6.3553 -17.7855 1.3987
-4.7161 -18.1761 1.3906
-3.0635 -18.4493 1.3850
-1.4023 -18.6057 1.3818
0.2629 -18.6457 1.3809
1.9273 -18.5693 1.3825
3.5864 -18.3765 1.3865
4.8123 -16.6061 1.2804
6.2770 -16.1172 1.2809
6.8821 -13.8661 1.1464
6.8761 -11.2145 0.9742
6.8716 -9.2418 0.8529
6.8681 -7.6951 0.7638
6.8682 -6.4344 0.6970
7.8830 -6.1621 0.7410
8.5155 -5.5082 0.7510
8.5131 -4.4845 0.7126
8.5110 -3.5535 0.6830
8.5090 -2.6900 0.6609
8.5072 -1.8744 0.6451
8.5054 -1.0908 0.6350
8.5036 -0.3252 0.6302
8.5019 0.4348 0.6304
8.5002 1.2015 0.6357
8.4984 1.9875 0.6463
8.4965 2.8068 0.6627
8.4945 3.6757 0.6854
23.8014 12.9319 2.0060
22.0724 14.6839 1.9632
20.4581 16.4205 1.9427
18.9133 18.1813 1.9428
17.2230 19.8040 1.9436
10.7697 14.8806 1.3603
9.5833 16.0908 1.3869
8.3395 17.3597 1.4262
6.8774 18.3539 1.4515
7.5167 27.2451 2.0930
5.0482 27.7620 2.0896
2.5539 28.1268 2.0915
0.0180 14.6433 1.0844
-2.4875 28.1638 2.0938
-2.3223 12.9519 0.9744
-3.5420 12.9627 0.9951
-9.8538 26.4953 2.0934
-12.1714 25.4968 2.0923
-9.6729 16.3324 1.4057
-10.3585 14.3868 1.3128
-12.7940 14.7845 1.4479
-13.4888 13.0308 1.3889
-20.2584 16.3422 1.9275
-21.4897 14.3725 1.9145
-22.4893 12.2907 1.8979
-23.2124 10.1121 1.8750
-23.6934 7.8917 1.8494
-23.8551 5.6408 1.8153
-23.8820 3.4356 1.7868
-23.5102 1.2603 1.7435
-22.9702 -0.8220 1.7021
-10.5123 -1.3219 0.7846
-9.4870 -2.0659 0.7190
-4.3444 -1.3617 0.3372
-4.1152 -1.7063 0.3299
-3.8665 -2.0247 0.3232
-3.6008 -2.3166 0.3171
-16.2459 -12.6351 1.5241
-14.7591 -13.7590 1.4943
-13.2345 -14.7549 1.4678
-11.6785 -15.6263 1.4447
-10.1141 -16.4047 1.4272
-8.5269 -17.0744 1.4133
-6.9138 -17.6243 1.4020
-5.2804 -18.0554 1.3931
-3.6318 -18.3688 1.3866
-1.9730 -18.5652 1.3826
-0.3087 -18.6451 1.3809
1.3565 -18.6087 1.3817
3.0180 -18.4558 1.3849
4.6710 -18.1861 1.3905
5.7664 -16.2634 1.2779
6.8847 -15.0097 1.2229
6.8780 -12.0300 1.0262
6.8730 -9.8611 0.8901
6.8692 -8.1882 0.7915
6.8685 -6.8418 0.7179
7.5385 -6.2744 0.7263
8.5163 -5.8867 0.7667
8.5139 -4.8239 0.7247
8.5117 -3.8642 0.6922
8.5097 -2.9800 0.6677
8.5078 -2.1500 0.6498
8.5060 -1.3570 0.6379
8.5042 -0.5867 0.6313
8.5025 0.1738 0.6298
8.5008 0.9369 0.6333
8.4990 1.7148 0.6421
8.4972 2.5210 0.6564
8.4952 3.3708 0.6768
24.4135 12.3108 2.0248
22.6578 14.0911 1.9759
11.8669 8.9409 1.1003
19.4609 17.5925 1.9428
17.8141 19.2585 1.9428
16.0348 20.7834 1.9439
9.8208 15.3958 1.3523
8.7743 16.9161 1.4112
7.3906 18.0221 1.4425
8.3530 27.0176 2.0942
5.8945 27.5843 2.0889
3.4137 28.0275 2.0909
0.4670 14.6431 1.0849
-1.6230 28.2234 2.0935
-2.2957 15.5299 1.1626
-3.1176 12.9589 0.9871
-4.3761 12.9700 1.0137
-11.3867 25.8633 2.0927
-13.6389 24.7271 2.0912
-9.7083 14.3943 1.2858
-12.7896 15.7289 1.5013
-12.8015 13.1488 1.3590
-19.7808 16.9835 1.9307
-21.1001 15.0678 1.9201
-22.1692 13.0136 1.9037
-22.9964 10.8682 1.8836
-23.5767 8.6641 1.8601
-23.8231 6.4102 1.8270
-23.9560 4.1993 1.8011
-23.6586 1.9969 1.7583
-23.2253 -0.1189 1.7200
-20.9014 -1.9799 1.5548
-9.4857 -1.7630 0.7145
-4.4180 -1.2374 0.3398
-4.1962 -1.5910 0.3323
-3.9539 -1.9184 0.3255
-3.6938 -2.2194 0.3191
-3.4180 -2.4941 0.3133
-15.2739 -13.3880 1.5041
-13.7615 -14.4273 1.4765
-12.2156 -15.3410 1.4522
-10.6516 -16.1470 1.4325
-9.0747 -16.8582 1.4178
-7.4699 -17.4490 1.4056
-5.8429 -17.9207 1.3959
-4.1990 -18.2745 1.3886
-2.5431 -18.5110 1.3837
-0.8801 -18.6308 1.3812
0.7853 -18.6343 1.3812
2.4485 -18.5214 1.3835
4.1050 -18.2919 1.3883
5.2539 -16.3970 1.2751
5.7722 -13.6751 1.0992
6.8800 -12.9384 1.0852
6.8746 -10.5376 0.9317
6.8704 -8.7191 0.8221
6.8671 -7.2731 0.7408
7.0853 -6.2745 0.7009
8.1209 -5.9893 0.7473
8.5147 -5.1753 0.7379
8.5124 -4.1838 0.7024
8.5104 -3.2764 0.6753
8.5085 -2.4298 0.6553
8.5066 -1.6259 0.6414
8.5048 -0.8493 0.6330
8.5031 -0.0868 0.6297
8.5014 0.6740 0.6315
8.4996 1.4453 0.6385
8.4978 2.2402 0.6508
8.4959 3.0732 0.6691
8.4939 3.9615 0.6941
23.2512 13.4899 1.9907
21.5460 15.2213 1.9536
19.9901 16.9872 1.9427
5.8301 5.9276 0.6157
16.6534 20.2690 1.9427
5.7801 8.4766 0.7598
9.2004 16.4814 1.3978
7.9335 17.7739 1.4414
6.5737 19.1610 1.5001
6.7449 27.4227 2.0913
4.2698 27.9010 2.0903
1.7653 28.1939 2.0920
-0.4370 16.3085 1.2082
-3.2758 28.0854 2.0940
-2.6995 12.9552 0.9800
-3.9365 12.9662 1.0035
-10.5907 26.2050 2.0931
-12.8781 25.1403 2.0918
-9.6607 15.3163 1.3410
-12.7513 16.7025 1.5562
-12.7368 13.9110 1.3968
-14.2714 13.0340 1.4313
-20.6763 15.7439 1.9245
-21.8251 13.7279 1.9094
-22.7551 11.6202 1.8921
-23.3879 9.4180 1.8671
-23.7667 7.1830 1.8387
-23.8632 4.9412 1.8047
-23.7855 2.7440 1.7731
-23.3563 0.5966 1.7302
-22.7216 -1.4513 1.6861
-9.4844 -1.4636 0.7107
-4.4889 -1.1101 0.3424
-4.2747 -1.4726 0.3348
-4.0392 -1.8090 0.3278
-3.7849 -2.1191 0.3212
-3.5143 -2.4028 0.3153
-15.7840 -13.0017 1.5144
-14.2846 -14.0850 1.4856
-12.7495 -15.0415 1.4602
-11.1851 -15.8751 1.4381
-9.6193 -16.6278 1.4226
-8.0235 -17.2597 1.4095
-6.4034 -17.7722 1.3989
-4.7647 -18.1663 1.3908
-3.1123 -18.4430 1.3851
-1.4513 -18.6028 1.3818
0.2137 -18.6462 1.3809
1.8783 -18.5733 1.3825
3.5376 -18.3838 1.3864
4.8052 -16.7468 1.2902
6.2332 -16.1303 1.2806
6.8824 -13.9588 1.1525
6.8762 -11.2812 0.9784
6.8717 -9.2930 0.8559
6.8682 -7.7361 0.7661
6.8682 -6.4685 0.6987
7.8683 -6.1841 0.7411
8.5155 -5.5402 0.7523
8.5132 -4.5132 0.7136
8.5111 -3.5799 0.6838
8.5091 -2.7147 0.6614
8.5072 -1.8980 0.6455
8.5054 -1.1136 0.6352
8.5037 -0.3476 0.6303
8.5020 0.4123 0.6304
8.5002 1.1786 0.6355
8.4984 1.9639 0.6459
8.4966 2.7820 0.6621
8.4946 3.6492 0.6847
23.8536 12.8790 2.0075
22.1225 14.6332 1.9642
20.5013 16.3666 1.9427
18.9610 18.1315 1.9428
17.2720 19.7551 1.9433
10.8040 14.8455 1.3597
9.6190 16.0544 1.3860
8.3772 17.3213 1.4249
6.9087 18.2908 1.4479
7.5887 27.2262 2.0931
5.1211 27.7477 2.0896
2.6279 28.1194 2.0914
0.0565 14.6433 1.0844
-2.4133 28.1700 2.0938
-2.3172 13.1225 0.9868
-3.5053 12.9624 0.9944
-9.7842 26.5215 2.0934
-12.1044 25.5293 2.0923
-9.6741 16.4330 1.4122
-10.3015 14.3875 1.3104
-12.7936 14.8629 1.4523
-13.4176 13.0305 1.3851
-20.2182 16.3979 1.9278
-21.4571 14.4326 1.9150
-22.4627 12.3531 1.8984
-23.1948 10.1772 1.8758
-23.6855 7.9584 1.8504
-23.8533 5.7068 1.8163
-23.8901 3.5009 1.7881
-23.5237 1.3231 1.7448
-22.9928 -0.7621 1.7037
-10.7360 -1.3213 0.8011
-9.4869 -2.0397 0.7186
-4.3508 -1.3511 0.3374
-4.1223 -1.6965 0.3301
-3.8741 -2.0156 0.3234
-3.6088 -2.3084 0.3173
-16.2890 -12.6000 1.5251
-14.8036 -13.7278 1.4951
-13.2799 -14.7273 1.4685
-11.7247 -15.6024 1.4453
-10.1603 -16.3832 1.4276
-8.5741 -17.0564 1.4137
-6.9617 -17.6097 1.4023
-5.3288 -18.0444 1.3933
-3.6806 -18.3612 1.3868
-2.0220 -18.5611 1.3827
-0.3578 -18.6444 1.3810
1.3074 -18.6114 1.3817
2.9691 -18.4620 1.3848
4.6225 -18.1958 1.3903
5.7224 -16.2754 1.2776
6.8850 -15.1151 1.2300
6.8781 -12.1042 1.0310
6.8731 -9.9169 0.8935
6.8693 -8.2323 0.7940
6.8662 -6.8757 0.7196
6.9351 -5.8031 0.6697
8.5164 -5.9199 0.7681
8.5140 -4.8536 0.7258
8.5118 -3.8913 0.6931
8.5098 -3.0052 0.6683
8.5079 -2.1738 0.6503
8.5060 -1.3800 0.6381
8.5043 -0.6092 0.6314
8.5026 0.1515 0.6298
8.5008 0.9142 0.6332
8.4990 1.6915 0.6417
8.4972 2.4966 0.6559
8.4953 3.3449 0.6761
24.4666 12.2569 2.0265
22.7085 14.0399 1.9771
11.8824 8.9037 1.0996
19.5070 17.5412 1.9427
17.8648 19.2116 1.9428
16.0844 20.7344 1.9433
9.8511 15.3540 1.3509
8.8112 16.8785 1.4100
7.4479 18.0268 1.4444
8.4244 26.9961 2.0943
5.9670 27.5677 2.0888
3.4874 28.0177 2.0909
0.5056 14.6431 1.0850
-1.5486 28.2272 2.0935
-2.2933 15.8010 1.1824
-3.0814 12.9586 0.9864
-4.3380 12.9697 1.0128
-11.3188 25.8937 2.0927
-13.5740 24.7636 2.0913
-9.6536 14.3949 1.2835
-12.7892 15.8133 1.5061
-12.8012 13.2180 1.3627
-19.7387 17.0379 1.9310
-21.0655 15.1271 1.9206
-22.1406 13.0753 1.9042
-22.9766 10.9330 1.8843
-23.5538 8.7263 1.8601
-23.8192 6.4764 1.8280
-23.9445 4.2623 1.8011
-23.6703 2.0606 1.7595
-23.2464 -0.0578 1.7215
-21.1139 -1.9438 1.5702
-9.4856 -1.7372 0.7141
-4.4242 -1.2266 0.3400
-4.2030 -1.5809 0.3325
-3.9613 -1.9091 0.3256
-3.7017 -2.2109 0.3193
-3.4264 -2.4864 0.3135
-15.3180 -13.3554 1.5050
-13.8066 -14.3985 1.4773
-12.2615 -15.3159 1.4529
-10.6976 -16.1242 1.4330
-9.1217 -16.8389 1.4182
-7.5176 -17.4333 1.4059
-5.8911 -17.9085 1.3961
-4.2476 -18.2657 1.3888
-2.5920 -18.5057 1.3838
-0.9293 -18.6289 1.3813
0.7362 -18.6358 1.3811
2.3996 -18.5264 1.3834
4.0563 -18.3003 1.3881
5.2098 -16.4078 1.2749
5.7363 -13.6908 1.0993
6.8802 -13.0214 1.0906
6.8747 -10.5987 0.9355
6.8705 -8.7666 0.8248
6.8672 -7.3117 0.7428
6.9342 -6.1734 0.6875
8.0763 -5.9893 0.7446
8.5148 -5.2061 0.7391
8.5125 -4.2117 0.7033
8.5104 -3.3021 0.6760
8.5085 -2.4541 0.6558
8.5067 -1.6491 0.6417
8.5049 -0.8719 0.6331
8.5032 -0.1092 0.6298
8.5014 0.6515 0.6314
8.4997 1.4223 0.6382
8.4979 2.2163 0.6504
8.4960 3.0479 0.6684
8.4939 3.9343 0.6932
23.3025 13.4379 1.9920
21.5950 15.1708 1.9544
20.0348 16.9345 1.9427
5.8520 5.9186 0.6164
16.7067 20.2251 1.9427
5.8034 8.4628 0.7599
9.2367 16.4444 1.3967
7.9720 17.7346 1.4399
6.6155 19.1183 1.4982
6.8178 27.4073 2.0915
4.3431 27.8889 2.0902
1.8395 28.1886 2.0919
-0.3538 14.6435 1.0847
-3.2017 28.0937 2.0939
-2.6639 12.9549 0.9794
-3.8991 12.9658 1.0027
-10.5217 26.2332 2.0931
-12.8121 25.1746 2.0919
-9.6618 15.4079 1.3468
-10.9187 14.3804 1.3371
-12.7237 13.9703 1.3993
-14.1958 13.0337 1.4272
-20.6378 15.8006 1.9248
-21.7944 13.7888 1.9099
-22.7331 11.6846 1.8929
-23.3723 9.4834 1.8679
-23.7607 7.2496 1.8397
-23.8633 5.0068 1.8057
-23.7954 2.8087 1.7744
-23.3715 0.6586 1.7315
-22.7456 -1.3927 1.6876
-9.4843 -1.4380 0.7104
-4.4949 -1.0990 0.3427
-4.2814 -1.4623 0.3350
-4.0464 -1.7995 0.3280
-3.7926 -2.1103 0.3214
-3.5225 -2.3948 0.3154
-15.8276 -12.9677 1.5153
-14.3294 -14.0549 1.4864
-12.7952 -15.0150 1.4609
-11.2313 -15.8518 1.4387
-9.6659 -16.6073 1.4230
-8.0709 -17.2428 1.4099
-6.4514 -17.7588 1.3992
-4.8132 -18.1564 1.3910
-3.1613 -18.4365 1.3852
-1.5004 -18.5997 1.3819
0.1646 -18.6466 1.3809
1.8293 -18.5771 1.3824
3.4888 -18.3911 1.3862
4.8025 -16.9050 1.3014
6.1894 -16.1432 1.2803
