ply
format ascii 1.0
element vertex 2013
property float32 x
property float32 y
property float32 z
end_header
8.4944 3.7270 -2.4549
28.8298 19.3993 -9.1963
26.2356 21.2902 -8.9418
25.5632 24.8440 -9.4340
23.8275 27.7076 -9.6714
-16.6500 27.6769 -8.5480
-26.6481 14.3067 -8.0046
-26.4302 11.2773 -7.6049
-26.6352 8.6460 -7.4111
-26.6294 6.0798 -7.2288
-26.6237 3.6174 -7.1107
-24.7284 1.1291 -6.5512
-26.6128 -1.1660 -7.0499
-26.6074 -3.5653 -7.1046
-26.6018 -6.0219 -7.2183
-26.3850 -8.5112 -7.3371
-26.3789 -11.1981 -7.5842
-26.5831 -14.2088 -7.9771
-26.5757 -17.4225 -8.4100
-28.3027 -38.5870 -12.6646
8.7660 -14.9757 -4.5924
8.6979 -12.2095 -3.9674
8.6932 -10.1465 -3.5361
6.9582 -6.7873 -2.5725
8.6862 -7.0754 -2.9649
8.5160 -5.7532 -2.7199
8.5136 -4.7034 -2.5741
8.5115 -3.7531 -2.4618
8.5095 -2.8757 -2.3772
8.5076 -2.0502 -2.3160
8.5058 -1.2599 -2.2756
8.5040 -0.4907 -2.2543
8.5023 0.2703 -2.2513
8.5005 1.0353 -2.2663
8.4988 1.8169 -2.3000
8.4969 2.6286 -2.3539
8.4950 3.4864 -2.4302
28.8964 18.4515 -9.0735
27.5667 21.2930 -9.2185
24.8676 23.0326 -8.9704
23.7999 26.3671 -9.4003
-26.4340 12.9441 -7.5958
-26.6388 10.2080 -7.3621
-26.6327 7.5582 -7.1445
-24.7316 4.6822 -6.4959
-24.7263 2.4232 -6.4117
-24.8587 0.2057 -6.4155
-24.7777 -2.0150 -6.4155
-24.7672 -4.2658 -6.4858
-26.5993 -7.0753 -7.1032
-26.5934 -9.6891 -7.3043
-26.5870 -12.4780 -7.5794
-26.5801 -15.5105 -7.9420
-26.9150 -39.7251 -12.3833
8.6344 -13.5623 -4.1491
8.6958 -11.2894 -3.6775
6.6298 -7.1774 -2.5216
8.6880 -7.8634 -3.0241
8.5176 -6.4242 -2.7532
8.5150 -5.3004 -2.5884
8.5127 -4.2960 -2.4608
8.5106 -3.3790 -2.3631
8.5087 -2.5255 -2.2905
8.5068 -1.7166 -2.2396
8.5050 -0.9368 -2.2082
8.5033 -0.1725 -2.1949
8.5016 0.5887 -2.1993
8.4998 1.3591 -2.2214
8.4980 2.1515 -2.2623
8.4961 2.9804 -2.3236
8.4941 3.8627 -2.4081
27.6529 19.1479 -8.6802
25.6966 21.4274 -8.6345
5.9150 5.9040 -2.1568
23.0302 27.5143 -9.2597
5.8712 8.4454 -2.6544
-17.1773 27.7100 -8.4137
-26.6471 13.8517 -7.7504
-26.6405 10.9495 -7.4332
-26.6343 8.2549 -7.1961
-24.7359 5.3014 -6.5286
-24.7276 3.0246 -6.4290
-24.7226 0.7986 -6.3835
-24.8190 -1.4193 -6.4155
-24.7686 -3.6558 -6.4613
-24.7129 -5.9419 -6.5594
-26.5950 -8.9722 -7.2434
-26.5888 -11.7080 -7.4975
-26.5820 -14.6673 -7.8350
-26.5308 -17.9034 -8.2599
-28.0087 -39.2737 -12.4488
8.7030 -14.4234 -4.3474
8.6971 -11.8702 -3.7976
8.6926 -9.8762 -3.3954
7.0414 -6.6876 -2.5061
8.5183 -6.7517 -2.8051
8.5157 -5.5890 -2.6287
8.5133 -4.5561 -2.4919
8.5112 -3.6182 -2.3867
8.5092 -2.7497 -2.3078
8.5073 -1.9305 -2.2513
8.5055 -1.1442 -2.2148
8.5038 -0.3770 -2.1967
8.5020 0.3838 -2.1964
8.5003 1.1505 -2.2137
8.4985 1.9357 -2.2494
8.4966 2.7532 -2.3050
8.4947 3.6193 -2.3829
28.8250 18.9517 -8.9027
25.9951 20.6383 -8.5658
24.2666 23.0848 -8.6435
24.2648 27.6137 -9.4866
-26.6490 14.6762 -7.8513
-26.6422 11.7059 -7.5099
-26.6359 8.9620 -7.2526
-24.7405 5.9274 -6.5655
-24.7290 3.6295 -6.4502
-24.7239 1.3938 -6.3906
-24.8459 -0.8227 -6.4155
-24.7700 -3.0500 -6.4407
-24.7112 -5.3170 -6.5232
-26.5966 -8.2667 -7.1877
-26.5905 -10.9541 -7.4217
-26.5529 -13.8300 -7.7263
-26.5766 -17.0198 -8.1445
8.7668 -15.3511 -4.5622
8.6986 -12.4908 -3.9281
8.6937 -10.3694 -3.4921
6.6285 -6.6055 -2.4150
8.6866 -7.2315 -2.9169
8.5163 -5.8869 -2.6718
8.5139 -4.8230 -2.5252
8.5117 -3.8624 -2.4122
8.5097 -2.9775 -2.3266
8.5078 -2.1467 -2.2644
8.5060 -1.3530 -2.2227
8.5042 -0.5820 -2.1998
8.5025 0.1793 -2.1947
8.5008 0.9432 -2.2073
8.4990 1.7222 -2.2379
8.4971 2.5296 -2.2880
8.4952 3.3809 -2.3596
32.5557 20.3017 -9.9014
11.8797 8.9751 -3.8424
25.2671 22.9060 -8.8013
23.9724 25.9942 -9.1255
-26.6371 12.4753 -7.5908
-26.6376 9.6808 -7.3143
-26.6316 7.0609 -7.1103
-24.7304 4.2388 -6.4752
-24.7253 1.9906 -6.4015
-24.8585 -0.2257 -6.4155
-24.7714 -2.4478 -6.4239
-24.7100 -4.6988 -6.4912
-26.5982 -7.5716 -7.1369
-26.5922 -10.2147 -7.3515
-26.4062 -12.9570 -7.5908
-26.5787 -16.1344 -8.0240
-21.0954 -22.3304 -7.9277
4.6789 -33.8886 -8.8286
5.9338 -13.8243 -3.8824
8.6367 -16.0041 -4.6932
8.7428 -13.2205 -4.0904
8.6949 -10.8919 -3.5967
6.6597 -6.9633 -2.4866
8.6874 -7.5928 -2.9776
8.5170 -6.1949 -2.7179
8.5145 -5.0973 -2.5610
8.5123 -4.1120 -2.4397
8.5102 -3.2091 -2.3472
8.5083 -2.3656 -2.2790
8.5065 -1.5634 -2.2320
8.5047 -0.7876 -2.2042
8.5030 -0.0249 -2.1944
8.5012 0.7371 -2.2021
8.4995 1.5107 -2.2278
8.4976 2.3090 -2.2725
8.4957 3.1469 -2.3381
8.4937 4.0418 -2.4275
27.3816 19.6717 -8.7009
26.3100 22.7244 -8.9718
5.7979 5.9915 -2.1517
5.7246 8.5472 -2.6548
-26.4345 13.1637 -7.6210
-26.6393 10.4123 -7.3813
-26.6332 7.7506 -7.1583
-24.7328 4.8535 -6.5045
-24.7267 2.5898 -6.4161
-24.7216 0.3694 -6.3806
-24.7906 -1.8498 -6.4155
-24.7676 -4.0960 -6.4786
-24.7144 -6.3978 -6.5883
-26.5938 -9.4888 -7.2869
-26.5875 -12.2626 -7.5561
-26.4034 -15.1723 -7.8588
-27.1055 -39.4375 -12.3497
8.7017 -13.8713 -4.2258
8.6962 -11.4469 -3.7099
6.6301 -7.2743 -2.5400
7.4010 -6.7889 -2.5918
8.5178 -6.5138 -2.7673
8.5152 -5.3796 -2.5993
8.5129 -4.3675 -2.4692
8.5108 -3.4450 -2.3695
8.5088 -2.5874 -2.2951
8.5070 -1.7757 -2.2427
8.5052 -0.9942 -2.2099
8.5034 -0.2292 -2.1953
8.5017 0.5318 -2.1983
8.4999 1.3010 -2.2191
8.4981 2.0913 -2.2585
8.4963 2.9170 -2.3183
8.4943 3.7946 -2.4009
27.7568 18.9474 -8.6730
26.2704 21.6106 -8.7787
24.4678 24.0987 -8.8628
23.5048 27.7039 -9.3761
-26.6476 14.0784 -7.7777
-26.6410 11.1579 -7.4539
-26.6348 8.4501 -7.2113
-24.7372 5.4745 -6.5384
-24.7280 3.1921 -6.4345
-24.7229 0.9638 -6.3851
-24.8279 -1.2538 -6.4155
-24.7690 -3.4872 -6.4552
-24.7124 -5.7677 -6.5489
-26.5955 -8.7753 -7.2274
-26.5893 -11.4971 -7.4759
-26.5825 -14.4372 -7.8066
-26.5751 -17.6765 -8.2368
6.1152 -33.8801 -8.8847
8.6921 -14.6251 -4.3906
8.6975 -12.0384 -3.8328
8.6929 -10.0104 -3.4215
6.9100 -6.6510 -2.4751
8.6860 -6.9795 -2.8756
8.5158 -5.6707 -2.6404
8.5135 -4.6295 -2.5009
8.5113 -3.6855 -2.3936
8.5093 -2.8126 -2.3128
8.5074 -1.9902 -2.2548
8.5056 -1.2020 -2.2169
8.5039 -0.4338 -2.1975
8.5022 0.3270 -2.1958
8.5004 1.0928 -2.2118
8.4986 1.8762 -2.2461
8.4968 2.6908 -2.3001
8.4948 3.5527 -2.3763
31.4937 20.4069 -9.6847
27.4531 21.4991 -8.9988
24.5406 23.0357 -8.6862
23.8155 26.7408 -9.2411
-26.4382 14.7907 -7.8181
-26.6427 11.9186 -7.5323
-26.6364 9.1604 -7.2692
-24.7419 6.1024 -6.5765
-24.7294 3.7982 -6.4568
-24.7243 1.5593 -6.3933
-24.8508 -0.6571 -6.4155
-24.7704 -2.8825 -6.4356
-24.7108 -5.1448 -6.5139
-26.5971 -8.0728 -7.1731
-26.5910 -10.7474 -7.4016
-26.5844 -13.6218 -7.7088
-26.5772 -16.7714 -8.1102
8.7674 -15.5925 -4.6165
8.6924 -12.6611 -3.9634
8.6940 -10.5114 -3.5203
6.6287 -6.6944 -2.4313
8.6868 -7.3303 -2.9333
8.5165 -5.9713 -2.6843
8.5141 -4.8984 -2.5349
8.5119 -3.9311 -2.4196
8.5098 -3.0413 -2.3322
8.5079 -2.2072 -2.2683
8.5061 -1.4112 -2.2252
8.5044 -0.6390 -2.2009
8.5026 0.1226 -2.1945
8.5009 0.8859 -2.2057
8.4991 1.6633 -2.2350
8.4973 2.4681 -2.2835
8.4953 3.3155 -2.3534
8.5117 4.2331 -2.4533
32.5845 20.0192 -9.8693
11.9139 8.8767 -3.8342
25.5515 22.8554 -8.8471
22.4020 23.9687 -8.4667
-26.5534 12.6527 -7.5908
-26.6381 9.8825 -7.3323
-26.6320 7.2514 -7.1231
-24.7308 4.4089 -6.4829
-24.7257 2.1566 -6.4052
-24.8595 -0.0600 -6.4155
-24.7718 -2.2812 -6.4199
-24.7104 -4.5284 -6.4832
-26.5986 -7.3804 -7.1237
-26.5926 -10.0120 -7.3330
-26.4920 -12.7806 -7.5908
-26.5792 -15.8931 -7.9920
-21.2389 -22.1842 -7.9259
4.4559 -33.9418 -8.8345
5.8518 -13.8879 -3.8892
8.7075 -16.3959 -4.7910
8.7432 -13.4146 -4.1323
8.6952 -11.0425 -3.6272
6.6295 -7.0249 -2.4927
8.6876 -7.6957 -2.9952
8.5172 -6.2823 -2.7313
8.5147 -5.1748 -2.5714
8.5124 -4.1823 -2.4476
8.5104 -3.2741 -2.3532
8.5084 -2.4268 -2.2833
8.5066 -1.6222 -2.2349
8.5048 -0.8449 -2.2056
8.5031 -0.0816 -2.1945
8.5014 0.6800 -2.2010
8.4996 1.4523 -2.2253
8.4978 2.2484 -2.2685
8.4959 3.0827 -2.3324
8.4938 3.9727 -2.4199
27.4859 19.4701 -8.6926
26.2989 22.4105 -8.9169
5.8259 5.9407 -2.1473
24.1887 29.5341 -9.8519
5.7678 8.4887 -2.6485
-17.5633 27.6682 -8.4574
-26.4350 13.3846 -7.6467
-26.6397 10.6178 -7.4009
-26.6336 7.9437 -7.1725
-24.7340 5.0252 -6.5135
-24.7270 2.7567 -6.4208
-24.7220 0.5342 -6.3815
-24.8024 -1.6844 -6.4155
-24.7680 -3.9266 -6.4717
-24.7138 -6.2222 -6.5769
-26.5943 -9.2895 -7.2698
-26.5880 -12.0485 -7.5332
-26.5812 -15.0396 -7.8817
-27.3994 -39.3012 -12.3640
8.7022 -14.0797 -4.2716
8.6965 -11.6073 -3.7430
6.6303 -7.3727 -2.5589
7.2597 -6.7489 -2.5580
8.5180 -6.6045 -2.7816
8.5154 -5.4595 -2.6104
8.5130 -4.4396 -2.4778
8.5109 -3.5112 -2.3760
8.5090 -2.6496 -2.2999
8.5071 -1.8350 -2.2459
8.5053 -1.0518 -2.2117
8.5036 -0.2860 -2.1958
8.5018 0.4749 -2.1975
8.5001 1.2431 -2.2169
8.4983 2.0314 -2.2549
8.4964 2.8539 -2.3131
8.4944 3.7270 -2.3939
28.7951 19.3760 -8.9569
26.2596 21.3097 -8.7275
25.5949 24.8749 -9.2108
23.9912 27.8979 -9.4957
-26.6481 14.3067 -7.8055
-26.6414 11.3675 -7.4751
-26.6352 8.6460 -7.2268
-24.7384 5.6481 -6.5485
-24.7284 3.3599 -6.4403
-24.7233 1.1289 -6.3870
-24.8357 -1.0882 -6.4155
-24.7694 -3.3191 -6.4494
-24.7119 -5.5941 -6.5388
-26.3850 -8.5112 -7.1547
-26.3789 -11.1981 -7.3956
-26.5831 -14.2088 -7.7788
-26.5757 -17.4225 -8.2008
5.8897 -33.9225 -8.8853
8.7660 -14.9757 -4.4782
8.6979 -12.2095 -3.8687
8.6932 -10.1465 -3.4481
6.7764 -6.6100 -2.4430
8.6862 -7.0754 -2.8912
8.5160 -5.7532 -2.6522
8.5136 -4.7034 -2.5101
8.5115 -3.7531 -2.4006
8.5095 -2.8757 -2.3180
8.5076 -2.0502 -2.2584
8.5058 -1.2599 -2.2190
8.5040 -0.4907 -2.1983
8.5023 0.2703 -2.1953
8.5005 1.0353 -2.2099
8.4988 1.8169 -2.2428
8.4969 2.6286 -2.2953
8.4950 3.4864 -2.3697
31.5923 20.1729 -9.6734
27.5697 21.2953 -8.9903
24.8174 22.9862 -8.7298
23.7708 26.3349 -9.1554
-18.0832 27.6647 -8.3125
-26.6453 13.0476 -7.4619
-26.6388 10.2080 -7.1750
-24.7931 7.0361 -6.4819
-24.7314 4.6822 -6.3307
-24.7291 2.4235 -6.2494
-24.9885 0.2067 -6.2851
-24.9834 -2.0317 -6.3043
-24.9782 -4.3021 -6.3748
-24.7057 -6.5717 -6.4298
-26.5934 -9.6891 -7.1186
-26.5870 -12.4780 -7.3867
-26.5801 -15.5105 -7.7401
-26.9150 -39.7251 -12.0686
8.6344 -13.5623 -4.0437
8.6958 -11.2894 -3.5841
6.7084 -7.2624 -2.4866
7.3474 -6.6500 -2.4925
8.5176 -6.4242 -2.6833
8.5150 -5.3004 -2.5226
8.5127 -4.2960 -2.3982
8.5106 -3.3790 -2.3030
8.5087 -2.5255 -2.2323
8.5068 -1.7166 -2.1827
8.5050 -0.9368 -2.1520
8.5033 -0.1725 -2.1391
8.5016 0.5887 -2.1433
8.4998 1.3591 -2.1649
8.4980 2.1515 -2.2048
8.4961 2.9804 -2.2645
8.4941 3.8627 -2.3469
27.6257 19.1291 -8.4513
25.7035 21.4332 -8.4173
5.9149 5.9039 -2.1019
23.6965 28.3104 -9.2855
5.8712 8.4454 -2.5870
-26.6471 13.8517 -7.5534
-26.6405 10.9495 -7.2442
-26.6343 8.2549 -7.0132
-24.7328 5.3008 -6.3618
-24.7290 3.0247 -6.2659
-24.7277 0.7988 -6.2225
-24.9848 -1.4287 -6.2942
-24.9796 -3.6869 -6.3507
-24.7072 -5.9405 -6.3912
-24.7074 -8.3353 -6.5583
-26.5888 -11.7080 -7.3070
-26.4252 -14.5808 -7.5908
-26.5308 -17.9034 -8.0500
-28.0087 -39.2737 -12.1324
8.7030 -14.4234 -4.2369
8.6971 -11.8703 -3.7011
6.6306 -7.5335 -2.5241
6.8561 -6.5116 -2.3782
8.5183 -6.7517 -2.7338
8.5157 -5.5890 -2.5619
8.5133 -4.5561 -2.4285
8.5112 -3.6182 -2.3260
8.5092 -2.7497 -2.2491
8.5073 -1.9305 -2.1941
8.5055 -1.1442 -2.1585
8.5038 -0.3770 -2.1409
8.5020 0.3838 -2.1405
8.5003 1.1505 -2.1574
8.4985 1.9357 -2.1922
8.4966 2.7532 -2.2464
8.4947 3.6193 -2.3223
30.1403 19.8165 -9.0723
25.8866 20.5522 -8.3132
24.2184 23.0390 -8.4071
24.2484 27.5951 -9.2393
-26.4377 14.5599 -7.5910
-26.6422 11.7059 -7.3190
-26.6359 8.9620 -7.0682
-24.7343 5.9259 -6.3970
-24.7290 3.6295 -6.2862
-24.7285 1.3941 -6.2293
-24.9861 -0.8274 -6.2877
-24.9810 -3.0760 -6.3304
-24.7086 -5.3165 -6.3567
-24.7044 -7.6786 -6.5066
-26.5905 -10.9540 -7.2330
-26.5529 -13.8300 -7.5299
-26.5766 -17.0198 -7.9375
5.5097 -33.8784 -8.6327
8.7668 -15.3511 -4.4462
8.6986 -12.4908 -3.8283
8.6937 -10.3694 -3.4034
6.6285 -6.6055 -2.3536
8.6866 -7.2315 -2.8427
8.5163 -5.8869 -2.6039
8.5139 -4.8230 -2.4610
8.5117 -3.8624 -2.3509
8.5097 -2.9775 -2.2675
8.5078 -2.1467 -2.2069
8.5060 -1.3530 -2.1662
8.5042 -0.5820 -2.1439
8.5025 0.1793 -2.1389
8.5008 0.9433 -2.1511
8.4990 1.7222 -2.1810
8.4971 2.5296 -2.2298
8.4952 3.3809 -2.2996
11.8792 8.9746 -3.7445
25.2160 22.8597 -8.5602
23.9434 25.9628 -8.8828
-26.6440 12.4785 -7.3998
-26.6376 9.6808 -7.1283
-24.7357 6.5582 -6.4362
-24.7304 4.2388 -6.3107
-24.7289 1.9909 -6.2397
-24.9875 -0.2269 -6.2849
-24.9824 -2.4687 -6.3139
-24.7100 -4.6988 -6.3262
-24.7047 -7.0326 -6.4603
-26.5922 -10.2147 -7.1647
-26.5857 -13.0451 -7.4482
-26.5787 -16.1344 -7.8201
-21.0891 -22.3237 -7.7238
5.9337 -13.8240 -3.7836
8.6367 -16.0041 -4.5739
8.7428 -13.2205 -3.9864
8.6949 -10.8919 -3.5052
6.8334 -7.1449 -2.4866
7.7290 -6.7551 -2.5817
8.5170 -6.1949 -2.6488
8.5145 -5.0973 -2.4959
8.5123 -4.1120 -2.3776
8.5102 -3.2091 -2.2875
8.5083 -2.3656 -2.2211
8.5065 -1.5634 -2.1753
8.5047 -0.7876 -2.1482
8.5030 -0.0249 -2.1386
8.5012 0.7371 -2.1462
8.4995 1.5107 -2.1712
8.4976 2.3090 -2.2147
8.4957 3.1469 -2.2786
8.4937 4.0418 -2.3658
27.3547 19.6523 -8.4714
26.3347 22.7458 -8.7520
5.7977 5.9914 -2.0969
5.7246 8.5472 -2.5873
-26.6458 13.2689 -7.4866
-26.6393 10.4123 -7.1937
-24.7935 7.2152 -6.4945
-24.7318 4.8533 -6.3389
-24.7291 2.5901 -6.2536
-24.7270 0.3694 -6.2198
-24.9838 -1.8642 -6.3011
-24.9786 -4.1309 -6.3677
-24.7062 -6.3957 -6.4187
-24.7098 -8.8166 -6.5985
-26.5875 -12.2626 -7.3640
-26.4034 -15.1723 -7.6590
-27.1055 -39.4375 -12.0358
8.7017 -13.8713 -4.1184
8.6962 -11.4469 -3.6156
6.6598 -7.3069 -2.4866
7.2083 -6.6121 -2.4602
8.5178 -6.5138 -2.6969
8.5152 -5.3796 -2.5332
8.5129 -4.3675 -2.4064
8.5108 -3.4450 -2.3093
8.5088 -2.5874 -2.2368
8.5070 -1.7757 -2.1857
8.5052 -0.9942 -2.1537
8.5034 -0.2292 -2.1395
8.5017 0.5318 -2.1424
8.4999 1.3010 -2.1627
8.4981 2.0913 -2.2011
8.4963 2.9170 -2.2593
8.4943 3.7946 -2.3399
27.7296 18.9288 -8.4443
26.2945 21.6304 -8.5635
24.5384 24.1682 -8.6624
23.6648 27.8924 -9.1999
-26.6476 14.0784 -7.5800
-26.6410 11.1579 -7.2644
-26.6348 8.4501 -7.0280
-24.7332 5.4736 -6.3712
-24.7289 3.1922 -6.2712
-24.7279 0.9640 -6.2240
-24.9851 -1.2617 -6.2920
-24.9800 -3.5169 -6.3447
-24.7076 -5.7666 -6.3812
-24.7065 -8.1520 -6.5434
-26.5893 -11.4971 -7.2859
-26.5218 -14.4042 -7.5908
-26.5751 -17.6765 -8.0274
-28.4066 -39.2750 -12.1910
6.1152 -33.8801 -8.6589
8.6921 -14.6251 -4.2790
8.6975 -12.0384 -3.7353
6.6309 -7.6358 -2.5435
6.7066 -6.4553 -2.3412
8.6860 -6.9795 -2.8025
8.5158 -5.6707 -2.5732
8.5135 -4.6295 -2.4373
8.5113 -3.6855 -2.3328
8.5093 -2.8126 -2.2541
8.5074 -1.9902 -2.1975
8.5056 -1.2020 -2.1605
8.5039 -0.4338 -2.1416
8.5022 0.3270 -2.1400
8.5004 1.0928 -2.1555
8.4986 1.8762 -2.1890
8.4968 2.6908 -2.2416
8.4948 3.5527 -2.3159
31.5374 20.4352 -9.4516
27.4561 21.5014 -8.7710
24.4916 22.9897 -8.4485
23.6157 26.5164 -8.9306
-26.4382 14.7907 -7.6193
-26.6427 11.9186 -7.3408
-26.6364 9.1604 -7.0844
-24.7347 6.1006 -6.4074
-24.7294 3.7982 -6.2926
-24.7286 1.5595 -6.2319
-24.9865 -0.6607 -6.2866
-24.9814 -2.9071 -6.3255
-24.7090 -5.1444 -6.3478
-24.7036 -7.4981 -6.4931
-26.5910 -10.7474 -7.2135
-26.5844 -13.6218 -7.5129
-26.5772 -16.7714 -7.9041
5.2877 -33.9403 -8.6393
8.7674 -15.5926 -4.4991
8.6924 -12.6611 -3.8626
8.6940 -10.5114 -3.4308
6.8918 -6.9601 -2.4635
8.6868 -7.3303 -2.8588
8.5165 -5.9713 -2.6160
8.5141 -4.8984 -2.4705
8.5119 -3.9311 -2.3581
8.5098 -3.0413 -2.2729
8.5079 -2.2072 -2.2107
8.5061 -1.4112 -2.1686
8.5044 -0.6390 -2.1450
8.5026 0.1226 -2.1387
8.5009 0.8859 -2.1496
8.4991 1.6633 -2.1782
8.4973 2.4681 -2.2255
8.4953 3.3155 -2.2936
8.5117 4.2331 -2.3909
11.9136 8.8765 -3.7366
25.4996 22.8089 -8.6047
22.5686 24.1470 -8.3128
-26.6445 12.6961 -7.4232
-26.6381 9.8825 -7.1459
-24.7924 6.7505 -6.4625
-24.7308 4.4089 -6.3181
-24.7290 2.1569 -6.2432
-24.9879 -0.0603 -6.2847
-24.9828 -2.3006 -6.3100
-24.7104 -4.5284 -6.3184
-24.7051 -6.8550 -6.4483
-26.5926 -10.0120 -7.1466
-26.5862 -12.8260 -7.4242
-26.5792 -15.8931 -7.7889
-21.2333 -22.1783 -7.7223
5.8516 -13.8874 -3.7902
8.7075 -16.3959 -4.6692
8.7432 -13.4146 -4.0273
8.6952 -11.0425 -3.5350
6.7856 -7.1903 -2.4866
7.5789 -6.7136 -2.5465
8.5172 -6.2823 -2.6619
8.5147 -5.1748 -2.5060
8.5124 -4.1823 -2.3854
8.5104 -3.2741 -2.2934
8.5084 -2.4268 -2.2253
8.5066 -1.6222 -2.1781
8.5048 -0.8449 -2.1496
8.5031 -0.0816 -2.1387
8.5014 0.6800 -2.1450
8.4996 1.4523 -2.1687
8.4978 2.2484 -2.2108
8.4959 3.0827 -2.2731
8.4938 3.9727 -2.3584
27.4589 19.4510 -8.4634
26.3234 22.4314 -8.6984
5.8258 5.9405 -2.0927
24.1445 29.4801 -9.5839
5.7678 8.4887 -2.5812
-26.4350 13.3846 -7.4523
-26.6397 10.6178 -7.2127
-26.6336 7.9437 -6.9902
-24.7322 5.0248 -6.3475
-24.7291 2.7569 -6.2581
-24.7273 0.5344 -6.2206
-24.9842 -1.6968 -6.2982
-24.9790 -3.9600 -6.3609
-24.7066 -6.2203 -6.4079
-24.7088 -8.6309 -6.5827
-26.5880 -12.0485 -7.3417
-26.3704 -14.9204 -7.6204
-27.3994 -39.3012 -12.0497
8.7022 -14.0797 -4.1630
8.6965 -11.6073 -3.6478
6.6303 -7.3726 -2.4939
7.0730 -6.5754 -2.4289
8.5180 -6.6045 -2.7109
8.5154 -5.4595 -2.5441
8.5130 -4.4396 -2.4148
8.5109 -3.5112 -2.3156
8.5090 -2.6496 -2.2414
8.5071 -1.8350 -2.1888
8.5053 -1.0518 -2.1555
8.5036 -0.2860 -2.1399
8.5018 0.4749 -2.1416
8.5001 1.2431 -2.1606
8.4983 2.0314 -2.1976
8.4964 2.8539 -2.2543
8.4944 3.7270 -2.3330
28.7605 19.3527 -8.7187
26.2836 21.3291 -8.5134
25.6266 24.9057 -8.9878
24.0036 27.9123 -9.2591
-26.5910 14.2761 -7.5908
-26.6414 11.3675 -7.2850
-26.6352 8.6460 -7.0431
-24.7336 5.6470 -6.3808
-24.7288 3.3600 -6.2767
-24.7282 1.1291 -6.2259
-24.9855 -1.0947 -6.2901
-24.9804 -3.3473 -6.3390
-24.7080 -5.5932 -6.3715
-24.7057 -7.9694 -6.5290
-26.3789 -11.1981 -7.2076
-26.5831 -14.2088 -7.5810
-26.5757 -17.4225 -7.9924
5.8867 -33.9053 -8.6551
8.7660 -14.9757 -4.3644
8.6979 -12.2095 -3.7704
6.6311 -7.7397 -2.5634
6.6282 -6.4655 -2.3288
8.6862 -7.0754 -2.8177
8.5160 -5.7532 -2.5848
8.5136 -4.7034 -2.4463
8.5115 -3.7531 -2.3396
8.5095 -2.8757 -2.2591
8.5076 -2.0502 -2.2010
8.5058 -1.2599 -2.1626
8.5040 -0.4907 -2.1424
8.5023 0.2703 -2.1395
8.5005 1.0353 -2.1538
8.4988 1.8169 -2.1858
8.4969 2.6286 -2.2370
8.4950 3.4864 -2.3095
31.6360 20.2008 -9.4405
27.5727 21.2977 -8.7627
24.7677 22.9401 -8.4908
23.7420 26.3030 -8.9119
-26.6453 13.0476 -7.2679
-26.6388 10.2080 -6.9884
-25.0042 7.0961 -6.3672
-24.7689 4.6893 -6.1754
-24.9936 2.4494 -6.1520
-24.9885 0.2067 -6.1217
-24.9834 -2.0317 -6.1404
-24.9782 -4.3021 -6.2090
-24.7073 -6.5721 -6.2630
-24.7002 -8.9993 -6.4399
-26.5870 -12.4780 -7.1947
-26.5801 -15.5105 -7.5389
-26.4468 -39.0340 -11.5503
8.6344 -13.5623 -3.9385
8.6958 -11.2894 -3.4909
6.8874 -7.4563 -2.4866
7.1591 -6.4796 -2.3654
8.5176 -6.4242 -2.6135
8.5150 -5.3004 -2.4570
8.5127 -4.2960 -2.3359
8.5106 -3.3790 -2.2432
8.5087 -2.5255 -2.1743
8.5068 -1.7166 -2.1259
8.5050 -0.9368 -2.0961
8.5033 -0.1725 -2.0835
8.5016 0.5887 -2.0876
8.4998 1.3591 -2.1087
8.4980 2.1515 -2.1474
8.4961 2.9804 -2.2056
8.4941 3.8627 -2.2859
27.5988 19.1105 -8.2235
25.7104 21.4389 -8.2007
5.9147 5.9037 -2.0472
23.6805 28.2913 -9.0379
5.8712 8.4454 -2.5197
-26.6471 13.8517 -7.3570
-26.6405 10.9495 -7.0559
-24.7945 7.6846 -6.3590
-24.7401 5.3023 -6.1982
-24.9950 3.0573 -6.1687
-24.7788 0.8005 -6.0732
-24.9848 -1.4287 -6.1305
-24.9796 -3.6869 -6.1856
-24.7120 -5.9416 -6.2262
-24.7017 -8.3334 -6.3863
-26.5888 -11.7080 -7.1170
-26.5820 -14.6673 -7.4373
-26.5308 -17.9034 -7.8406
-28.0087 -39.2737 -11.8169
8.7030 -14.4234 -4.1267
8.6971 -11.8703 -3.6048
6.7064 -7.6195 -2.4866
6.6402 -6.3066 -2.2434
8.5183 -6.7517 -2.6627
8.5157 -5.5890 -2.4953
8.5133 -4.5561 -2.3654
8.5112 -3.6183 -2.2656
8.5092 -2.7497 -2.1906
8.5073 -1.9305 -2.1370
8.5055 -1.1442 -2.1024
8.5038 -0.3770 -2.0852
8.5020 0.3838 -2.0849
8.5003 1.1505 -2.1013
8.4985 1.9357 -2.1352
8.4966 2.7532 -2.1880
8.4947 3.6193 -2.2620
30.1424 19.8179 -8.8370
25.7793 20.4670 -8.0635
24.1705 22.9934 -8.1723
24.2321 27.5766 -8.9930
-26.6490 14.6762 -7.4527
-26.6422 11.7059 -7.1287
-24.8215 8.3515 -6.4155
-24.7386 5.9269 -6.2317
-24.7853 3.6378 -6.1367
-24.7802 1.3970 -6.0800
-24.9861 -0.8274 -6.1242
-24.9810 -3.0760 -6.1658
-24.7163 -5.3181 -6.1933
-24.7032 -7.6782 -6.3371
-24.7020 -10.1761 -6.5446
-26.5529 -13.8300 -7.3341
-26.5766 -17.0198 -7.7311
8.7668 -15.3511 -4.3306
8.6986 -12.4908 -3.7287
6.6315 -7.9097 -2.5286
6.8988 -6.8749 -2.3859
8.0777 -6.7246 -2.5747
8.5163 -5.8869 -2.5362
8.5139 -4.8230 -2.3971
8.5117 -3.8624 -2.2898
8.5097 -2.9775 -2.2085
8.5078 -2.1467 -2.1495
8.5060 -1.3530 -2.1099
8.5042 -0.5820 -2.0882
8.5025 0.1793 -2.0833
8.5008 0.9432 -2.0952
8.4990 1.7222 -2.1243
8.4971 2.5296 -2.1718
8.4952 3.3809 -2.2398
11.8786 8.9742 -3.6470
25.1653 22.8137 -8.3209
23.9146 25.9315 -8.6414
-18.7783 27.6676 -8.1914
-26.6440 12.4785 -7.2074
-24.7976 9.0121 -6.4634
-24.7368 6.5585 -6.2691
-24.8465 4.2587 -6.1754
-24.9926 2.0121 -6.1423
-24.9875 -0.2269 -6.1215
-24.9824 -2.4687 -6.1498
-24.7651 -4.7093 -6.1754
-24.7047 -7.0326 -6.2924
-24.6991 -9.4875 -6.4816
-26.5857 -13.0451 -7.2545
-26.4882 -16.0794 -7.5908
-21.0828 -22.3170 -7.5208
5.9335 -13.8236 -3.6852
8.6367 -16.0041 -4.4550
8.6084 -13.0173 -3.8231
8.6949 -10.8919 -3.4141
7.0158 -7.3356 -2.4866
7.5240 -6.5760 -2.4479
8.5170 -6.1949 -2.5799
8.5145 -5.0973 -2.4310
8.5123 -4.1120 -2.3158
8.5102 -3.2091 -2.2280
8.5083 -2.3656 -2.1633
8.5065 -1.5634 -2.1187
8.5047 -0.7876 -2.0923
8.5030 -0.0249 -2.0830
8.5012 0.7371 -2.0904
8.4995 1.5107 -2.1148
8.4976 2.3090 -2.1572
8.4957 3.1469 -2.2194
8.4937 4.0418 -2.3043
27.3279 19.6331 -8.2431
26.3594 22.7670 -8.5324
5.7976 5.9912 -2.0423
23.9621 29.6586 -9.3405
5.7246 8.5472 -2.5201
-26.6458 13.2689 -7.2920
-26.6393 10.4123 -7.0066
-25.0046 7.2766 -6.3795
-24.7410 4.8551 -6.1764
-24.9940 2.6178 -6.1563
-24.9889 0.3733 -6.1222
-24.9838 -1.8642 -6.1373
-24.9786 -4.1309 -6.2021
-24.7087 -6.3963 -6.2524
-24.7006 -8.8133 -6.4246
-26.5875 -12.2626 -7.1725
-26.4034 -15.1723 -7.4599
-26.6709 -38.8052 -11.5349
8.7017 -13.8713 -4.0113
8.6962 -11.4469 -3.5216
6.8376 -7.5020 -2.4866
7.0259 -6.4448 -2.3356
8.5178 -6.5138 -2.6268
8.5152 -5.3796 -2.4674
8.5129 -4.3675 -2.3438
8.5108 -3.4450 -2.2492
8.5088 -2.5874 -2.1786
8.5070 -1.7757 -2.1289
8.5052 -0.9942 -2.0977
8.5034 -0.2292 -2.0838
8.5017 0.5318 -2.0867
8.4999 1.3010 -2.1065
8.4981 2.0913 -2.1439
8.4963 2.9170 -2.2006
8.4943 3.7946 -2.2790
27.7026 18.9104 -8.2167
26.3186 21.6502 -8.3484
24.6092 24.2380 -8.4616
23.8342 28.0921 -9.0249
-26.6476 14.0784 -7.3829
-26.6410 11.1579 -7.0755
-24.9627 7.9196 -6.4155
-24.7397 5.4751 -6.2071
-24.9954 3.2266 -6.1739
-24.9903 0.9742 -6.1265
-24.9851 -1.2617 -6.1284
-24.9800 -3.5169 -6.1797
-24.7132 -5.7679 -6.2167
-24.7021 -8.1506 -6.3722
-24.7051 -10.6824 -6.5936
-26.5825 -14.4372 -7.4104
-26.5751 -17.6765 -7.8187
-28.4066 -39.2750 -11.8740
8.6921 -14.6251 -4.1677
8.6975 -12.0384 -3.6382
6.6554 -7.6641 -2.4866
6.6280 -6.3796 -2.2536
8.6860 -6.9795 -2.7296
8.5158 -5.6707 -2.5063
8.5135 -4.6295 -2.3740
8.5113 -3.6855 -2.2721
8.5093 -2.8126 -2.1954
8.5074 -1.9902 -2.1403
8.5056 -1.2020 -2.1043
8.5039 -0.4338 -2.0859
8.5022 0.3270 -2.0843
8.5004 1.0928 -2.0995
8.4986 1.8762 -2.1320
8.4968 2.6908 -2.1833
8.4948 3.5527 -2.2556
31.5810 20.4635 -9.2186
26.8311 21.0120 -8.3485
24.4430 22.9441 -8.2125
23.5871 26.4843 -8.6879
-26.4382 14.7907 -7.4212
-26.6427 11.9186 -7.1500
-24.7965 8.5276 -6.4236
-24.7381 6.1015 -6.2417
-24.9166 3.8270 -6.1754
-24.9916 1.5761 -6.1344
-24.9865 -0.6607 -6.1231
-24.9814 -2.9071 -6.1610
-24.7174 -5.1462 -6.1849
-24.7036 -7.4981 -6.3243
-24.7008 -9.9835 -6.5265
-26.5844 -13.6218 -7.3175
-26.3665 -16.6384 -7.6375
8.7674 -15.5926 -4.3821
8.6990 -12.6707 -3.7651
6.6317 -8.0180 -2.5490
6.8918 -6.9601 -2.3995
7.9178 -6.6814 -2.5379
8.5165 -5.9713 -2.5480
8.5141 -4.8984 -2.4062
8.5119 -3.9311 -2.2968
8.5098 -3.0413 -2.2138
8.5079 -2.2072 -2.1532
8.5061 -1.4112 -2.1122
8.5044 -0.6390 -2.0892
8.5026 0.1226 -2.0831
8.5009 0.8859 -2.0937
8.4991 1.6633 -2.1215
8.4973 2.4681 -2.1676
8.4953 3.3155 -2.2340
8.5117 4.2331 -2.3288
11.9133 8.8762 -3.6394
25.4480 22.7628 -8.3640
22.7372 24.3273 -8.1572
-26.6445 12.6961 -7.2302
-24.7980 9.1999 -6.4794
-25.0036 6.8080 -6.3481
-24.8175 4.4243 -6.1754
-24.9930 2.1800 -6.1458
-24.9879 -0.0603 -6.1213
-24.9828 -2.3006 -6.1459
-24.7959 -4.5441 -6.1754
-24.7052 -6.8550 -6.2807
-24.6995 -9.2992 -6.4653
-26.5862 -12.8260 -7.2311
-26.5792 -15.8931 -7.5864
-21.2276 -22.1724 -7.5195
5.8514 -13.8870 -3.6916
8.7075 -16.3959 -4.5478
8.6088 -13.2085 -3.8623
8.6952 -11.0425 -3.4431
6.9667 -7.3822 -2.4866
7.3806 -6.5379 -2.4154
8.5172 -6.2823 -2.5926
8.5147 -5.1748 -2.4409
8.5124 -4.1823 -2.3234
8.5104 -3.2741 -2.2338
8.5084 -2.4268 -2.1674
8.5066 -1.6222 -2.1214
8.5048 -0.8449 -2.0937
8.5031 -0.0816 -2.0831
8.5014 0.6800 -2.0892
8.4996 1.4523 -2.1123
8.4978 2.2484 -2.1533
8.4959 3.0827 -2.2140
8.4938 3.9727 -2.2971
27.4321 19.4320 -8.2352
26.3479 22.4522 -8.4801
5.8256 5.9404 -2.0382
23.4334 28.6118 -9.0598
5.7678 8.4887 -2.5141
-26.4350 13.3846 -7.2586
-26.6397 10.6178 -7.0252
-25.0051 7.4580 -6.3921
-24.7407 5.0265 -6.1845
-24.9944 2.7865 -6.1608
-24.9893 0.5400 -6.1231
-24.9841 -1.6968 -6.1345
-24.9790 -3.9600 -6.1955
-24.7100 -6.2212 -6.2421
-24.7010 -8.6283 -6.4096
-26.5880 -12.0485 -7.1508
-26.5812 -15.0396 -7.4816
-26.9345 -38.6344 -11.5373
8.7022 -14.0797 -4.0547
8.6965 -11.6073 -3.5530
6.7874 -7.5474 -2.4866
6.8770 -6.3931 -2.3002
8.5180 -6.6045 -2.6404
8.5154 -5.4595 -2.4779
8.5130 -4.4396 -2.3520
8.5109 -3.5112 -2.2554
8.5090 -2.6496 -2.1832
8.5071 -1.8350 -2.1319
8.5053 -1.0518 -2.0994
8.5036 -0.2860 -2.0843
8.5018 0.4749 -2.0859
8.5001 1.2431 -2.1044
8.4983 2.0314 -2.1405
8.4964 2.8539 -2.1956
8.4944 3.7270 -2.2724
27.8063 18.7106 -8.2103
26.3075 21.3486 -8.2996
25.6583 24.9365 -8.7649
23.9874 27.8935 -9.0123
-26.6481 14.3067 -7.4093
-26.6414 11.3675 -7.0956
-24.9094 8.0858 -6.4155
-24.7393 5.6483 -6.2163
-24.9793 3.3940 -6.1754
-24.9906 1.1411 -6.1283
-24.9855 -1.0947 -6.1266
-24.9804 -3.3473 -6.1741
-24.7144 -5.5946 -6.2075
-24.7026 -7.9684 -6.3584
-24.7039 -10.4870 -6.5744
-26.5831 -14.2088 -7.3839
-26.5757 -17.4225 -7.7846
8.7660 -14.9758 -4.2509
8.6979 -12.2095 -3.6723
6.6311 -7.7397 -2.4967
6.6282 -6.4655 -2.2683
8.3446 -6.7971 -2.6365
8.5160 -5.7532 -2.5176
8.5136 -4.7034 -2.3827
8.5115 -3.7531 -2.2788
8.5095 -2.8757 -2.2004
8.5076 -2.0502 -2.1438
8.5058 -1.2599 -2.1064
8.5040 -0.4907 -2.0867
8.5023 0.2703 -2.0839
8.5005 1.0353 -2.0978
8.4988 1.8169 -2.1290
8.4969 2.6286 -2.1788
8.4950 3.4864 -2.2495
31.6797 20.2287 -9.2078
27.5757 21.3000 -8.5358
24.7182 22.8943 -8.2535
23.7133 26.2712 -8.6697
-26.6453 13.0476 -7.0744
-25.0099 9.5838 -6.3865
-25.0042 7.0961 -6.1977
-24.9988 4.7328 -6.0669
-24.9936 2.4494 -5.9883
-24.9885 0.2067 -5.9587
-24.9834 -2.0317 -5.9770
-24.9782 -4.3021 -6.0438
-24.9729 -6.6427 -6.1619
-24.7013 -8.9997 -6.2688
-26.5870 -12.4780 -7.0032
-26.5801 -15.5105 -7.3382
-26.4468 -39.0340 -11.2428
8.6096 -13.5233 -3.8227
8.6958 -11.2894 -3.3980
7.0758 -7.6601 -2.4866
6.9600 -6.2994 -2.2385
8.5176 -6.4242 -2.5439
8.5150 -5.3004 -2.3916
8.5127 -4.2960 -2.2737
8.5106 -3.3790 -2.1835
8.5087 -2.5255 -2.1164
8.5068 -1.7166 -2.0693
8.5050 -0.9368 -2.0403
8.5033 -0.1725 -2.0280
8.5016 0.5887 -2.0321
8.4998 1.3591 -2.0525
8.4980 2.1515 -2.0903
8.4961 2.9804 -2.1469
8.4941 3.8627 -2.2250
27.5719 19.0919 -7.9968
25.7173 21.4447 -7.9846
5.9146 5.9036 -1.9927
23.6646 28.2723 -8.7915
5.8712 8.4454 -2.4526
-26.6471 13.8517 -7.1612
-24.8850 10.2280 -6.4155
-24.7945 7.6846 -6.1897
-25.0003 5.3581 -6.0967
-24.9950 3.0573 -6.0045
-24.7788 0.8005 -5.9116
-24.9848 -1.4288 -5.9674
-24.9796 -3.6869 -6.0209
-24.9743 -6.0047 -6.1248
-24.7073 -8.3353 -6.2177
-24.6959 -10.8745 -6.4344
-26.5820 -14.6673 -7.2394
-26.3877 -17.8069 -7.5908
-27.4758 -38.5265 -11.2835
8.7030 -14.4234 -4.0169
8.6971 -11.8703 -3.5089
6.8897 -7.8279 -2.4866
6.6278 -6.2948 -2.1796
8.4495 -6.6972 -2.5709
8.5157 -5.5890 -2.4288
8.5133 -4.5561 -2.3024
8.5112 -3.6183 -2.2053
8.5092 -2.7497 -2.1323
8.5073 -1.9305 -2.0801
8.5055 -1.1442 -2.0464
8.5038 -0.3770 -2.0297
8.5020 0.3838 -2.0294
8.5003 1.1505 -2.0454
8.4985 1.9357 -2.0784
8.4966 2.7532 -2.1297
8.4947 3.6193 -2.2017
30.1446 19.8193 -8.6024
25.6732 20.3827 -7.8166
24.1230 22.9482 -7.9392
24.2159 27.5581 -8.7478
-19.7508 27.6473 -8.1020
-26.6490 14.6762 -7.2544
-24.8019 10.8973 -6.4597
-25.0072 8.4140 -6.2915
-25.0017 5.9899 -6.1304
-24.7853 3.6378 -5.9734
-24.7802 1.3970 -5.9182
-24.9861 -0.8274 -5.9612
-24.9810 -3.0760 -6.0017
-24.7648 -5.3286 -6.0403
-24.7310 -7.6869 -6.1754
-24.6975 -10.1743 -6.3693
-26.5529 -13.8300 -7.1389
-26.5766 -17.0198 -7.5253
-28.8876 -38.5145 -11.4800
8.7668 -15.3511 -4.2153
8.6986 -12.4908 -3.6295
6.6997 -7.9911 -2.4866
6.8989 -6.8749 -2.3224
7.8591 -6.5426 -2.4384
8.5163 -5.8869 -2.4687
8.5139 -4.8230 -2.3333
8.5117 -3.8624 -2.2288
8.5097 -2.9775 -2.1498
8.5078 -2.1467 -2.0923
8.5060 -1.3530 -2.0538
8.5042 -0.5820 -2.0326
8.5025 0.1793 -2.0279
8.5008 0.9432 -2.0395
8.4990 1.7222 -2.0678
8.4971 2.5296 -2.1140
8.4952 3.3809 -2.1802
31.8811 19.8810 -8.9591
11.8780 8.9737 -3.5498
25.1149 22.7680 -8.0832
23.8859 25.9004 -8.4013
-26.6440 12.4785 -7.0155
-24.7976 9.0121 -6.2914
-25.0032 6.6291 -6.1680
-24.9978 4.2847 -6.0477
-24.9926 2.0121 -5.9788
-24.9875 -0.2269 -5.9585
-24.9824 -2.4687 -5.9861
-24.7663 -4.7095 -6.0113
-24.9085 -7.0906 -6.1754
-24.6991 -9.4876 -6.3091
-26.5857 -13.0451 -7.0614
-26.5787 -16.1344 -7.4140
-21.0461 -22.2782 -7.3079
-26.1005 -40.0006 -11.3891
5.9334 -13.8233 -3.5870
8.6367 -16.0041 -4.3364
8.7001 -13.1559 -3.7609
6.6324 -8.3082 -2.5349
7.2076 -7.5362 -2.4866
7.3302 -6.4066 -2.3214
8.5170 -6.1949 -2.5113
8.5145 -5.0973 -2.3663
8.5123 -4.1120 -2.2542
8.5102 -3.2091 -2.1687
8.5083 -2.3656 -2.1058
8.5065 -1.5634 -2.0623
8.5047 -0.7876 -2.0366
8.5030 -0.0249 -2.0275
8.5012 0.7371 -2.0347
8.4995 1.5107 -2.0585
8.4976 2.3091 -2.0997
8.4957 3.1469 -2.1603
8.4937 4.0418 -2.2429
27.3013 19.6139 -8.0159
26.3840 22.7883 -8.3131
5.7974 5.9910 -1.9879
23.9186 29.6047 -9.0753
5.7246 8.5472 -2.4530
-26.6458 13.2689 -7.0979
-25.0103 9.7757 -6.4031
-25.0046 7.2766 -6.2097
-24.9992 4.9058 -6.0748
-24.9940 2.6178 -5.9924
-24.9889 0.3733 -5.9593
-24.9838 -1.8642 -5.9740
-24.9786 -4.1309 -6.0371
-24.9733 -6.4648 -6.1512
-24.7030 -8.8142 -6.2542
-26.5875 -12.2626 -6.9816
-26.4034 -15.1723 -7.2614
-26.6709 -38.8052 -11.2279
8.7017 -13.8713 -3.9046
8.6962 -11.4469 -3.4278
7.0245 -7.7071 -2.4866
6.8088 -6.2456 -2.2032
8.5178 -6.5138 -2.5569
8.5152 -5.3796 -2.4017
8.5129 -4.3675 -2.2815
8.5108 -3.4450 -2.1893
8.5088 -2.5874 -2.1207
8.5070 -1.7757 -2.0722
8.5052 -0.9942 -2.0419
8.5034 -0.2292 -2.0284
8.5017 0.5318 -2.0312
8.4999 1.3010 -2.0504
8.4981 2.0913 -2.0868
8.4963 2.9170 -2.1420
8.4943 3.7946 -2.2184
29.8518 20.3775 -8.6185
26.3427 21.6700 -8.1337
24.6803 24.3080 -8.2602
23.8182 28.0732 -8.7788
-26.6476 14.0784 -7.1864
-24.8007 10.3871 -6.4115
-25.0061 7.9334 -6.2556
-24.7895 5.4861 -6.0541
-24.9954 3.2266 -6.0096
-24.9903 0.9742 -5.9635
-24.9851 -1.2617 -5.9653
-24.9800 -3.5169 -6.0152
-24.9747 -5.8289 -6.1153
-24.7089 -8.1528 -6.2043
-24.6964 -10.6786 -6.4158
-26.5825 -14.4372 -7.2131
-26.5059 -17.6304 -7.5908
-27.8548 -38.5122 -11.3335
6.1266 -33.9433 -8.2246
8.6921 -14.6251 -4.0568
8.6975 -12.0384 -3.5414
6.8374 -7.8736 -2.4866
7.5132 -7.2316 -2.4866
8.2788 -6.6522 -2.5324
8.5158 -5.6707 -2.4396
8.5135 -4.6295 -2.3108
8.5113 -3.6855 -2.2116
8.5093 -2.8126 -2.1370
8.5074 -1.9902 -2.0834
8.5057 -1.2020 -2.0483
8.5039 -0.4338 -2.0304
8.5022 0.3270 -2.0288
8.5004 1.0928 -2.0436
8.4986 1.8762 -2.0753
8.4968 2.6908 -2.1252
8.4948 3.5527 -2.1956
31.6247 20.4918 -8.9856
26.7168 20.9225 -8.0917
24.3947 22.8987 -7.9781
23.5587 26.4524 -8.4465
-19.4776 27.6528 -8.0653
-26.4382 14.7907 -7.2237
-24.8023 11.0953 -6.4789
-25.0077 8.6002 -6.3059
-25.0021 6.1666 -6.1404
-24.9968 3.8393 -6.0304
-24.9916 1.5761 -5.9711
-24.9865 -0.6607 -5.9601
-24.9814 -2.9071 -5.9970
-24.9761 -5.2000 -6.0833
-24.7790 -7.5210 -6.1747
-24.6980 -9.9823 -6.3521
-26.5844 -13.6218 -7.1228
-26.5772 -16.7713 -7.4937
-29.2915 -38.5155 -11.5382
8.7674 -15.5925 -4.2655
8.6990 -12.6707 -3.6649
6.6463 -8.0356 -2.4866
6.8918 -6.9601 -2.3356
7.7065 -6.5031 -2.4045
8.5165 -5.9713 -2.4802
8.5141 -4.8984 -2.3422
8.5119 -3.9311 -2.2357
8.5098 -3.0413 -2.1549
8.5079 -2.2072 -2.0959
8.5061 -1.4112 -2.0560
8.5044 -0.6390 -2.0336
8.5026 0.1226 -2.0277
8.5009 0.8859 -2.0380
8.4991 1.6633 -2.0651
8.4973 2.4681 -2.1099
8.4953 3.3155 -2.1745
8.5117 4.2331 -2.2668
11.9130 8.8760 -3.5424
25.3968 22.7170 -8.1250
24.0108 25.6900 -8.3848
-26.6445 12.6961 -7.0378
-25.0092 9.2782 -6.3606
-25.0036 6.8080 -6.1792
-24.9982 4.4565 -6.0548
-24.9930 2.1800 -5.9822
-24.9879 -0.0603 -5.9584
-24.9828 -2.3006 -5.9824
-24.9776 -4.5774 -6.0551
-24.9553 -6.9244 -6.1754
-24.6995 -9.2993 -6.2932
-26.5862 -12.8260 -7.0387
-26.5792 -15.8931 -7.3844
-21.1937 -22.1370 -7.3077
-26.1736 -39.5340 -11.3056
5.8512 -13.8865 -3.5932
8.7075 -16.3959 -4.4267
8.7005 -13.3491 -3.7995
6.6327 -8.4231 -2.5564
7.1572 -7.5841 -2.4866
7.1929 -6.3717 -2.2913
8.5172 -6.2823 -2.5236
8.5147 -5.1748 -2.3759
8.5124 -4.1823 -2.2616
8.5104 -3.2741 -2.1743
8.5084 -2.4268 -2.1098
8.5066 -1.6222 -2.0650
8.5048 -0.8449 -2.0380
8.5031 -0.0816 -2.0277
8.5014 0.6800 -2.0336
8.4996 1.4523 -2.0561
8.4978 2.2484 -2.0960
8.4959 3.0827 -2.1551
8.4938 3.9727 -2.2359
27.4053 19.4131 -8.0082
26.3724 22.4731 -8.2620
5.8254 5.9402 -1.9839
23.4176 28.5925 -8.8127
5.7678 8.4887 -2.4472
-26.4350 13.3846 -7.0654
-24.9929 9.9614 -6.4155
-25.0051 7.4580 -6.2220
-24.9996 5.0792 -6.0830
-24.9944 2.7865 -5.9968
-24.9893 0.5400 -5.9601
-24.9841 -1.6968 -5.9712
-24.9790 -3.9600 -6.0306
-24.7628 -6.2345 -6.0890
-24.7047 -8.6295 -6.2399
-24.7514 -11.2162 -6.4797
-26.5812 -15.0396 -7.2825
-26.9345 -38.6344 -11.2302
8.7022 -14.0797 -3.9468
8.6965 -11.6072 -3.4584
6.9730 -7.7538 -2.4866
6.6625 -6.1938 -2.1692
8.5180 -6.6045 -2.5701
8.5154 -5.4595 -2.4120
8.5130 -4.4396 -2.2894
8.5109 -3.5112 -2.1954
8.5090 -2.6496 -2.1251
8.5071 -1.8350 -2.0752
8.5053 -1.0518 -2.0435
8.5036 -0.2860 -2.0288
8.5018 0.4749 -2.0304
8.5001 1.2431 -2.0484
8.4983 2.0314 -2.0835
8.4964 2.8539 -2.1372
8.4944 3.7270 -2.2119
29.9644 20.1628 -8.6120
26.3315 21.3680 -8.0860
25.6900 24.9673 -8.5422
23.9713 27.8748 -8.7665
-26.6481 14.3067 -7.2121
-24.8012 10.5823 -6.4297
-25.0066 8.1174 -6.2691
-25.0011 5.7080 -6.1149
-24.9958 3.3962 -6.0150
-24.9906 1.1411 -5.9652
-24.9855 -1.0947 -5.9635
-24.9804 -3.3473 -6.0098
-24.9751 -5.6537 -6.1060
-24.7104 -7.9710 -6.1912
-24.6968 -10.4841 -6.3976
-26.5831 -14.2088 -7.1874
-26.5757 -17.4225 -7.5774
-28.2486 -38.5131 -11.3889
5.8946 -33.9507 -8.2167
8.7660 -14.9757 -4.1378
8.6979 -12.2095 -3.5746
6.7848 -7.9190 -2.4866
7.4648 -7.2816 -2.4866
8.1135 -6.6089 -2.4953
8.5160 -5.7532 -2.4506
8.5136 -4.7034 -2.3193
8.5115 -3.7531 -2.2181
8.5095 -2.8757 -2.1418
8.5076 -2.0502 -2.0867
8.5058 -1.2599 -2.0503
8.5040 -0.4907 -2.0312
8.5023 0.2703 -2.0284
8.5005 1.0353 -2.0419
8.4988 1.8169 -2.0723
8.4969 2.6286 -2.1208
8.4950 3.4864 -2.1896
31.7234 20.2567 -8.9751
27.5787 21.3023 -8.3095
24.6692 22.8488 -8.0179
23.6848 26.2396 -8.4288
-24.8407 12.1639 -6.4155
-25.0099 9.5838 -6.2124
-25.0042 7.0961 -6.0288
-24.9988 4.7328 -5.9015
-24.9936 2.4494 -5.8250
-24.9885 0.2067 -5.7963
-24.9834 -2.0317 -5.8140
-24.9782 -4.3021 -5.8790
-24.9729 -6.6427 -5.9939
-24.9673 -9.0966 -6.1635
-24.7505 -11.6161 -6.3417
-26.5801 -15.5105 -7.1382
-26.4468 -39.0340 -10.9363
8.7012 -13.6673 -3.7581
6.6331 -8.6115 -2.5213
7.2741 -7.8748 -2.4866
6.7437 -6.1036 -2.1097
8.5176 -6.4242 -2.4746
8.5150 -5.3004 -2.3264
8.5127 -4.2960 -2.2117
8.5106 -3.3790 -2.1239
8.5087 -2.5255 -2.0587
8.5068 -1.7166 -2.0129
8.5050 -0.9368 -1.9847
8.5033 -0.1725 -1.9727
8.5016 0.5887 -1.9767
8.4998 1.3591 -1.9966
8.4980 2.1515 -2.0333
8.4961 2.9804 -2.0884
8.4941 3.8627 -2.1644
29.7411 20.5939 -8.3908
25.7242 21.4504 -7.7690
5.9144 5.9034 -1.9383
23.6487 28.2533 -8.5461
5.8712 8.4454 -2.3858
-24.8064 12.8949 -6.4848
-25.0115 10.2799 -6.2723
-24.7945 7.6846 -6.0210
-25.0003 5.3581 -5.9305
-24.9950 3.0573 -5.8408
-24.7788 0.8005 -5.7504
-24.9848 -1.4288 -5.8047
-24.9796 -3.6869 -5.8568
-24.9743 -6.0047 -5.9579
-24.9688 -8.4235 -6.1122
-24.6978 -10.8754 -6.2594
-26.5820 -14.6673 -7.0420
-26.5308 -17.9034 -7.4239
-27.4758 -38.5265 -10.9759
8.7030 -14.4234 -3.9074
8.6971 -11.8702 -3.4132
7.0828 -8.0473 -2.4866
7.7731 -7.3826 -2.4866
8.2158 -6.5120 -2.4317
8.5157 -5.5890 -2.3626
8.5133 -4.5561 -2.2397
8.5112 -3.6183 -2.1451
8.5092 -2.7497 -2.0742
8.5073 -1.9305 -2.0234
8.5055 -1.1442 -1.9906
8.5038 -0.3770 -1.9744
8.5020 0.3838 -1.9741
8.5003 1.1505 -1.9896
8.4985 1.9357 -2.0217
8.4966 2.7532 -2.0717
8.4947 3.6193 -2.1417
30.1468 19.8208 -8.3685
26.3373 20.9100 -7.8001
24.0758 22.9033 -7.7076
24.1998 27.5397 -8.5036
-26.6490 14.6762 -7.0566
-25.0131 10.9901 -6.3371
-25.0072 8.4140 -6.1199
-25.0017 5.9899 -5.9632
-24.7853 3.6378 -5.8105
-24.7802 1.3970 -5.7569
-24.9861 -0.8274 -5.7987
-24.9810 -3.0760 -5.8381
-24.7648 -5.3286 -5.8757
-24.9703 -7.7612 -6.0652
-24.7048 -10.1772 -6.1975
-24.7476 -12.8897 -6.4721
-26.5766 -17.0198 -7.3202
-28.8875 -38.5145 -11.1670
8.7668 -15.3511 -4.1004
8.6986 -12.4908 -3.5306
6.8875 -8.2151 -2.4866
6.8989 -6.8749 -2.2591
7.6526 -6.3707 -2.3096
8.5163 -5.8869 -2.4014
8.5139 -4.8230 -2.2696
8.5117 -3.8624 -2.1681
8.5097 -2.9775 -2.0912
8.5078 -2.1467 -2.0352
8.5060 -1.3530 -1.9978
8.5042 -0.5820 -1.9772
8.5025 0.1793 -1.9726
8.5008 0.9432 -1.9839
8.4990 1.7222 -2.0114
8.4971 2.5296 -2.0564
8.4952 3.3809 -2.1208
31.9249 19.9084 -8.7268
11.8774 8.9733 -3.4528
25.0648 22.7226 -7.8472
23.8574 25.8695 -8.1625
-24.8265 11.6273 -6.3588
-24.7976 9.0121 -6.1199
-25.0032 6.6291 -5.9998
-24.9978 4.2847 -5.8828
-24.9926 2.0121 -5.8158
-24.9875 -0.2269 -5.7961
-24.9824 -2.4687 -5.8229
-24.7663 -4.7095 -5.8475
-24.9718 -7.1087 -6.0223
-24.8534 -9.5468 -6.1754
-24.8308 -12.1840 -6.4155
-26.5787 -16.1344 -7.2119
-21.0461 -22.2782 -7.1086
-26.1005 -40.0006 -11.0786
5.9333 -13.8230 -3.4891
8.6367 -16.0041 -4.2182
8.7001 -13.1559 -3.6584
6.6882 -8.3781 -2.4866
7.4096 -7.7474 -2.4866
7.1402 -6.2405 -2.1996
8.5170 -6.1949 -2.4428
8.5145 -5.0973 -2.3018
8.5123 -4.1120 -2.1927
8.5102 -3.2091 -2.1096
8.5083 -2.3656 -2.0484
8.5065 -1.5634 -2.0061
8.5047 -0.7876 -1.9811
8.5030 -0.0249 -1.9723
8.5012 0.7371 -1.9793
8.4995 1.5107 -2.0023
8.4976 2.3090 -2.0425
8.4957 3.1469 -2.1014
8.4937 4.0418 -2.1818
28.1854 20.2491 -8.0498
25.0253 21.6148 -7.6700
5.7973 5.9909 -1.9337
5.7246 8.5472 -2.3861
-24.8052 12.3523 -6.4275
-25.0103 9.7757 -6.2285
-25.0046 7.2766 -6.0404
-24.9992 4.9058 -5.9092
-24.9940 2.6178 -5.8291
-24.9889 0.3733 -5.7968
-24.9838 -1.8642 -5.8111
-24.9786 -4.1309 -5.8725
-24.9733 -6.4648 -5.9835
-24.8423 -8.8639 -6.1180
-24.9618 -11.5128 -6.3760
-26.4034 -15.1723 -7.0634
-26.6709 -38.8052 -10.9218
8.7017 -13.8713 -3.7981
6.6334 -8.7317 -2.5435
7.2214 -7.9231 -2.4866
6.6273 -6.0792 -2.0860
8.5178 -6.5138 -2.4872
8.5152 -5.3796 -2.3362
8.5129 -4.3675 -2.2193
8.5108 -3.4450 -2.1297
8.5088 -2.5874 -2.0628
8.5070 -1.7757 -2.0157
8.5052 -0.9942 -1.9862
8.5034 -0.2292 -1.9731
8.5017 0.5318 -1.9758
8.4999 1.3010 -1.9945
8.4981 2.0913 -2.0300
8.4963 2.9170 -2.0836
8.4943 3.7946 -2.1579
29.8539 20.3789 -8.3841
26.3667 21.6898 -7.9192
24.7515 24.3781 -8.0581
23.8022 28.0545 -8.5337
-26.6476 14.0784 -6.9905
-24.8007 10.3871 -6.2367
-25.0061 7.9334 -6.0851
-24.7895 5.4861 -5.8890
-24.9954 3.2266 -5.8458
-24.9903 0.9742 -5.8009
-24.9851 -1.2617 -5.8027
-24.9800 -3.5169 -5.8512
-24.9747 -5.8289 -5.9486
-24.9692 -8.2387 -6.0987
-24.6998 -10.6801 -6.2418
-26.5825 -14.4372 -7.0165
-26.5751 -17.6765 -7.4031
-27.8548 -38.5122 -11.0245
6.1236 -33.9264 -7.9964
8.6921 -14.6251 -3.9462
8.6975 -12.0384 -3.4448
7.0290 -8.0943 -2.4866
7.7238 -7.4343 -2.4866
8.0531 -6.4709 -2.3962
8.5158 -5.6707 -2.3731
8.5135 -4.6295 -2.2478
8.5113 -3.6855 -2.1513
8.5093 -2.8126 -2.0788
8.5074 -1.9902 -2.0266
8.5056 -1.2020 -1.9925
8.5039 -0.4338 -1.9750
8.5022 0.3270 -1.9735
8.5004 1.0928 -1.9879
8.4986 1.8762 -2.0187
8.4968 2.6908 -2.0673
8.4948 3.5527 -2.1357
31.6683 20.5200 -8.7527
26.6039 20.8340 -7.8378
24.3467 22.8537 -7.7454
23.5304 26.4206 -8.2063
-26.4382 14.7907 -7.0268
-25.0136 11.1898 -6.3560
-25.0077 8.6002 -6.1340
-25.0021 6.1666 -5.9730
-24.9968 3.8393 -5.8660
-24.9916 1.5761 -5.8083
-24.9865 -0.6607 -5.7976
-24.9814 -2.9071 -5.8335
-24.9761 -5.2001 -5.9174
-24.7790 -7.5210 -6.0064
-24.7067 -9.9858 -6.1811
-24.7481 -12.6809 -6.4500
-26.5772 -16.7713 -7.2894
-29.2915 -38.5155 -11.2237
8.7674 -15.5925 -4.1492
8.6990 -12.6707 -3.5649
6.8326 -8.2608 -2.4866
6.8918 -6.9601 -2.2719
7.5068 -6.3346 -2.2783
8.5165 -5.9713 -2.4126
8.5141 -4.8984 -2.2783
8.5119 -3.9312 -2.1747
8.5098 -3.0413 -2.0961
8.5079 -2.2072 -2.0387
8.5061 -1.4112 -2.0000
8.5044 -0.6390 -1.9781
8.5026 0.1226 -1.9724
8.5009 0.8859 -1.9825
8.4991 1.6633 -2.0088
8.4973 2.4681 -2.0524
8.4953 3.3155 -2.1152
8.5117 4.2331 -2.2050
11.9127 8.8758 -3.4458
25.3459 22.6715 -7.8877
23.9822 25.6594 -8.1465
-24.9692 11.8978 -6.4155
-25.0092 9.2782 -6.1872
-25.0036 6.8080 -6.0107
-24.9982 4.4565 -5.8897
-24.9930 2.1800 -5.8191
-24.9879 -0.0603 -5.7960
-24.9828 -2.3006 -5.8193
-24.9776 -4.5774 -5.8900
-24.9722 -6.9291 -6.0111
-24.8167 -9.3434 -6.1507
-24.9115 -12.0181 -6.4155
-26.5792 -15.8931 -7.1831
-21.1937 -22.1370 -7.1085
-26.1736 -39.5340 -10.9974
5.8510 -13.8860 -3.4951
8.7075 -16.3959 -4.3061
8.7005 -13.3491 -3.6959
6.6327 -8.4231 -2.4867
7.3578 -7.7966 -2.4866
6.9837 -6.1863 -2.1640
8.5172 -6.2823 -2.4548
8.5147 -5.1748 -2.3111
8.5124 -4.1823 -2.1999
8.5104 -3.2741 -2.1150
8.5084 -2.4268 -2.0522
8.5066 -1.6222 -2.0087
8.5048 -0.8449 -1.9824
8.5031 -0.0816 -1.9724
8.5014 0.6800 -1.9782
8.4996 1.4523 -2.0001
8.4978 2.2484 -2.0389
8.4959 3.0827 -2.0963
8.4938 3.9727 -2.1750
28.3008 20.0474 -8.0445
26.3969 22.4939 -8.0442
5.8253 5.9400 -1.9298
23.4018 28.5733 -8.5667
5.7678 8.4887 -2.3805
-21.1885 27.5835 -8.0677
-24.8057 12.5596 -6.4491
-25.0108 9.9685 -6.2451
-25.0051 7.4580 -6.0524
-24.9996 5.0791 -5.9171
-24.9944 2.7865 -5.8334
-24.9893 0.5400 -5.7976
-24.9841 -1.6968 -5.8084
-24.9790 -3.9600 -5.8662
-24.7628 -6.2345 -5.9230
-24.9681 -8.7215 -6.1345
-24.9622 -11.3118 -6.3567
-26.5812 -15.0396 -7.0840
-26.9345 -38.6344 -10.9240
8.7022 -14.0797 -3.8392
6.6337 -8.8540 -2.5661
7.1684 -7.9711 -2.4866
6.6275 -6.1612 -2.0989
8.4876 -6.5810 -2.4912
8.5154 -5.4595 -2.3462
8.5130 -4.4396 -2.2270
8.5109 -3.5112 -2.1355
8.5090 -2.6496 -2.0671
8.5071 -1.8350 -2.0186
8.5053 -1.0518 -1.9878
8.5036 -0.2860 -1.9735
8.5018 0.4749 -1.9751
8.5001 1.2431 -1.9926
8.4983 2.0314 -2.0267
8.4964 2.8539 -2.0789
8.4944 3.7270 -2.1516
29.9665 20.1643 -8.3778
26.3553 21.3874 -7.8727
25.7217 24.9981 -8.3196
23.9553 27.8562 -8.5218
-20.1916 27.6350 -7.9386
-26.6481 14.3067 -7.0155
-25.0124 10.6724 -6.3077
-25.0066 8.1174 -6.0982
-25.0011 5.7080 -5.9482
-24.9958 3.3962 -5.8510
-24.9906 1.1411 -5.8026
-24.9855 -1.0947 -5.8009
-24.9804 -3.3473 -5.8460
-24.9751 -5.6537 -5.9395
-24.8023 -8.0006 -6.0448
-24.7018 -10.4861 -6.2245
-26.5831 -14.2088 -6.9915
-26.5757 -17.4225 -7.3708
-28.2485 -38.5131 -11.0785
5.8934 -33.9440 -7.9911
8.7660 -14.9757 -4.0250
8.6979 -12.2095 -3.4771
6.9749 -8.1410 -2.4866
7.6740 -7.4856 -2.4866
7.8955 -6.4313 -2.3620
8.5160 -5.7532 -2.3838
8.5136 -4.7034 -2.2560
8.5115 -3.7531 -2.1576
8.5095 -2.8757 -2.0834
8.5076 -2.0502 -2.0298
8.5058 -1.2599 -1.9944
8.5040 -0.4907 -1.9758
8.5023 0.2703 -1.9731
8.5005 1.0353 -1.9863
8.4988 1.8169 -2.0158
8.4969 2.6286 -2.0630
8.4950 3.4864 -2.1299
31.7671 20.2846 -8.7424
27.5817 21.3046 -8.0838
24.6204 22.8037 -7.7839
23.6564 26.2081 -8.1891
-25.0160 12.2498 -6.2802
-25.0099 9.5838 -6.0388
-25.0042 7.0961 -5.8603
-24.7877 4.6928 -5.6881
-24.9882 2.4489 -5.6610
-24.9885 0.2067 -5.6343
-24.9834 -2.0317 -5.6515
-24.7672 -4.2658 -5.6664
-24.9729 -6.6427 -5.8264
-24.9673 -9.0966 -5.9913
-24.7505 -11.6161 -6.1645
-24.7440 -14.4391 -6.4594
-26.4468 -39.0340 -10.6307
8.7012 -13.6673 -3.6530
6.7299 -8.7371 -2.4866
7.4832 -8.1012 -2.4866
6.6271 -5.9981 -2.0153
8.5176 -6.4242 -2.4054
8.5150 -5.3004 -2.2614
8.5127 -4.2960 -2.1499
8.5106 -3.3790 -2.0646
8.5087 -2.5255 -2.0012
8.5068 -1.7166 -1.9567
8.5050 -0.9368 -1.9292
8.5033 -0.1725 -1.9176
8.5016 0.5887 -1.9214
8.4998 1.3591 -1.9408
8.4980 2.1515 -1.9765
8.4961 2.9804 -2.0300
8.4941 3.8627 -2.1039
29.7433 20.5954 -8.1569
25.7311 21.4562 -7.5539
5.9143 5.9032 -1.8841
23.6330 28.2345 -8.3017
5.8712 8.4454 -2.3191
-20.7601 27.6321 -7.7926
-24.9504 12.9697 -6.3402
-25.0115 10.2799 -6.0970
-24.7945 7.6846 -5.8527
-24.7891 5.3128 -5.7161
-24.9222 3.0484 -5.6610
-24.7788 0.8005 -5.5897
-24.9848 -1.4287 -5.6425
-24.8389 -3.6661 -5.6610
-24.9743 -6.0047 -5.7914
-24.9688 -8.4235 -5.9414
-24.7521 -10.8993 -6.0979
-24.9133 -13.7466 -6.4155
-26.5308 -17.9034 -7.2164
-27.4758 -38.5265 -10.6692
8.7030 -14.4234 -3.7982
6.6341 -9.0545 -2.5308
7.2865 -8.2786 -2.4866
7.9966 -7.5949 -2.4866
7.9953 -6.3372 -2.3003
8.5157 -5.5890 -2.2966
8.5133 -4.5561 -2.1771
8.5112 -3.6183 -2.0852
8.5092 -2.7497 -2.0162
8.5073 -1.9305 -1.9669
8.5055 -1.1442 -1.9350
8.5038 -0.3770 -1.9192
8.5020 0.3838 -1.9189
8.5003 1.1505 -1.9340
8.4985 1.9357 -1.9652
8.4966 2.7532 -2.0138
8.4947 3.6193 -2.0819
30.1489 19.8222 -8.1352
26.3609 20.9288 -7.5890
24.0290 22.8587 -7.4776
23.3759 26.6021 -7.9846
-24.9244 13.7264 -6.4155
-25.0131 10.9901 -6.1600
-25.0072 8.4140 -5.9489
-25.0017 5.9899 -5.7966
-24.7853 3.6378 -5.6482
-24.7802 1.3970 -5.5960
-24.9861 -0.8274 -5.6367
-24.9197 -3.0685 -5.6610
-24.7648 -5.3286 -5.7115
-24.9703 -7.7612 -5.8957
-24.7757 -10.2064 -6.0415
-24.7517 -12.8918 -6.2923
-26.5766 -17.0198 -7.1156
-32.4685 -30.1527 -9.9905
-28.8876 -38.5145 -10.8549
8.7668 -15.3511 -3.9858
8.6986 -12.4908 -3.4319
7.0855 -8.4513 -2.4866
6.8988 -6.8749 -2.1959
7.4572 -6.2081 -2.1877
8.5163 -5.8869 -2.3342
8.5139 -4.8230 -2.2062
8.5117 -3.8624 -2.1075
8.5097 -2.9775 -2.0327
8.5078 -2.1467 -1.9784
8.5060 -1.3530 -1.9419
8.5042 -0.5820 -1.9219
8.5025 0.1793 -1.9175
8.5008 0.9432 -1.9284
8.4990 1.7222 -1.9552
8.4971 2.5296 -1.9989
8.4952 3.3809 -2.0615
31.9688 19.9357 -8.4946
11.8768 8.9729 -3.3562
25.0152 22.6776 -7.6128
23.8290 25.8387 -7.9250
-24.8100 14.4507 -6.4735
-24.8265 11.6273 -6.1811
-24.7976 9.0121 -5.9488
-25.0032 6.6291 -5.8322
-24.7867 4.2485 -5.6701
-24.9926 2.0121 -5.6533
-24.9875 -0.2269 -5.6341
-24.9824 -2.4687 -5.6602
-24.7662 -4.7095 -5.6840
-24.9718 -7.1086 -5.8540
-24.9661 -9.5901 -6.0301
-24.9601 -12.2474 -6.2687
-26.5787 -16.1344 -7.0103
-21.0828 -22.3170 -6.9220
-26.1005 -40.0006 -10.7690
5.9331 -13.8226 -3.3915
8.6367 -16.0041 -4.1003
8.7001 -13.1559 -3.5562
6.8805 -8.6190 -2.4866
7.6227 -7.9701 -2.4866
6.9167 -6.0452 -2.0712
8.5170 -6.1949 -2.3746
8.5145 -5.0973 -2.2375
8.5123 -4.1120 -2.1314
8.5102 -3.2091 -2.0507
8.5083 -2.3656 -1.9911
8.5065 -1.5634 -1.9501
8.5047 -0.7876 -1.9257
8.5030 -0.0249 -1.9172
8.5012 0.7371 -1.9239
8.4995 1.5107 -1.9464
8.4976 2.3090 -1.9854
8.4957 3.1469 -2.0427
8.4937 4.0418 -2.1208
28.1884 20.2513 -7.8257
25.0124 21.6037 -7.4518
5.7971 5.9907 -1.8796
5.7246 8.5472 -2.3194
12.2035 36.5930 -8.6972
-25.0165 12.4575 -6.3011
-25.0103 9.7757 -6.0545
-25.0046 7.2766 -5.8716
-24.7881 4.8643 -5.6955
-24.9714 2.6155 -5.6610
-24.9889 0.3733 -5.6348
-24.9838 -1.8642 -5.6487
-24.7715 -4.0966 -5.6610
-24.9733 -6.4648 -5.8163
-24.8423 -8.8639 -5.9470
-24.9618 -11.5128 -6.1978
-24.7445 -14.2191 -6.4346
-26.6709 -38.8052 -10.6166
8.7017 -13.8713 -3.6920
6.6715 -8.7818 -2.4866
7.4290 -8.1509 -2.4866
6.6273 -6.0792 -2.0277
8.4229 -6.4413 -2.3908
8.5152 -5.3796 -2.2709
8.5129 -4.3675 -2.1572
8.5108 -3.4450 -2.0701
8.5088 -2.5874 -2.0052
8.5070 -1.7757 -1.9594
8.5052 -0.9942 -1.9307
8.5034 -0.2292 -1.9179
8.5017 0.5318 -1.9206
8.4999 1.3010 -1.9388
8.4981 2.0913 -1.9732
8.4963 2.9170 -2.0254
8.4943 3.7946 -2.0976
29.8561 20.3804 -8.1504
26.3908 21.7096 -7.7048
24.8229 24.4485 -7.8555
23.7864 28.0358 -8.2897
-25.0182 13.2176 -6.3796
-24.8007 10.3871 -6.0624
-25.0061 7.9334 -5.9150
-24.7895 5.4861 -5.7245
-24.9013 3.2144 -5.6610
-24.9902 0.9742 -5.6388
-24.9851 -1.2617 -5.6405
-24.8628 -3.5004 -5.6610
-24.9747 -5.8289 -5.7823
-24.9692 -8.2387 -5.9283
-24.8185 -10.7314 -6.0965
-24.9571 -13.5544 -6.4034
-26.5751 -17.6765 -7.1963
-27.8548 -38.5122 -10.7164
6.1205 -33.9095 -7.7690
8.6921 -14.6251 -3.8359
6.6344 -9.1828 -2.5543
7.2311 -8.3270 -2.4866
7.9458 -7.6480 -2.4866
7.8400 -6.2997 -2.2676
8.5158 -5.6707 -2.3068
8.5135 -4.6295 -2.1850
