ply
format ascii 1.0
element vertex 986
property float32 x
property float32 y
property float32 z
end_header
15.0315 -22.3099 -8.9243
0.0000 -25.0234 -8.1306
13.3584 -23.9831 -8.9198
15.1517 -22.4882 -8.8106
11.6025 -25.7390 -8.9816
13.4652 -24.1747 -8.8030
15.1517 -22.4882 -8.6263
11.6952 -25.9447 -8.8607
13.4652 -24.1747 -8.6157
15.1517 -22.4882 -8.4427
9.7299 -27.6116 -8.9176
11.6952 -25.9447 -8.6688
13.4652 -24.1747 -8.4291
15.0315 -22.3099 -8.1944
9.8077 -27.8323 -8.7906
11.6952 -25.9447 -8.4776
13.3584 -23.9831 -8.1778
15.1517 -22.4882 -8.0777
9.8077 -27.8323 -8.5931
11.6952 -25.9447 -8.2871
13.4652 -24.1747 -8.0579
15.1517 -22.4883 -7.8961
2.3233 -27.3646 -7.8139
9.8077 -27.8323 -8.3962
11.6952 -25.9447 -8.0972
13.4652 -24.1747 -7.8733
15.1517 -22.4883 -7.7153
2.3233 -27.3646 -7.6314
9.7440 -27.6514 -8.1468
11.6952 -25.9447 -7.9081
13.4652 -24.1747 -7.6894
15.1517 -22.4883 -7.5350
2.3181 -27.3025 -7.4325
9.8077 -27.8323 -8.0046
11.6952 -25.9447 -7.7196
13.4652 -24.1747 -7.5061
15.0316 -22.3099 -7.2971
2.3250 -27.3841 -7.2733
9.8077 -27.8323 -7.8098
11.6952 -25.9447 -7.5317
13.3938 -24.0465 -7.2845
15.1517 -22.4883 -7.1764
2.3247 -27.3810 -7.0916
9.8077 -27.8323 -7.6156
11.6025 -25.7390 -7.2861
13.4652 -24.1747 -7.1413
15.1517 -22.4882 -6.9979
2.3245 -27.3780 -6.9106
9.8077 -27.8323 -7.4220
11.6952 -25.9447 -7.1577
13.4652 -24.1747 -6.9597
15.1517 -22.4883 -6.8200
2.3242 -27.3749 -6.7302
9.8077 -27.8323 -7.2290
11.6952 -25.9447 -6.9716
13.4652 -24.1747 -6.7788
14.0730 -20.8873 -6.1698
2.3240 -27.3719 -6.5503
9.8077 -27.8323 -7.0366
11.6952 -25.9447 -6.7860
12.5351 -22.5048 -6.1426
14.0730 -20.8873 -6.0056
2.3237 -27.3689 -6.3710
9.8077 -27.8323 -6.8448
10.8874 -24.1526 -6.1451
12.6418 -22.6965 -6.0260
14.1387 -20.9848 -5.8691
2.3211 -27.3379 -6.1860
9.8077 -27.8323 -6.6535
10.9801 -24.3583 -6.0242
12.6418 -22.6965 -5.8576
14.2252 -21.1132 -5.7400
2.3211 -27.3379 -6.0086
9.2080 -26.1304 -6.0676
10.9801 -24.3583 -5.8515
12.6419 -22.6965 -5.6897
14.2252 -21.1132 -5.5754
2.3238 -27.3701 -5.8386
7.2249 -27.8187 -6.1092
9.2080 -26.1304 -5.8889
10.9801 -24.3583 -5.6792
12.6419 -22.6965 -5.5222
14.1051 -20.9349 -5.3656
2.3237 -27.3694 -5.6619
7.2857 -28.0528 -5.9743
9.2080 -26.1304 -5.7108
10.9801 -24.3583 -5.5074
12.6410 -22.6949 -5.3547
14.2252 -21.1132 -5.2476
2.3237 -27.3687 -5.4855
7.2857 -28.0528 -5.7884
9.2080 -26.1304 -5.5331
10.9801 -24.3583 -5.3361
12.6418 -22.6965 -5.1885
14.2252 -21.1132 -5.0843
2.3236 -27.3680 -5.3097
7.2857 -28.0528 -5.6029
9.2061 -26.1250 -5.3547
10.9801 -24.3583 -5.1651
12.6418 -22.6965 -5.0223
14.2252 -21.1132 -4.9215
2.3236 -27.3673 -5.1342
7.2241 -27.8158 -5.3722
9.2080 -26.1304 -5.1790
10.9801 -24.3583 -4.9946
12.6418 -22.6965 -4.8565
14.2252 -21.1132 -4.7590
2.3235 -27.3666 -4.9592
7.2857 -28.0528 -5.2334
9.2080 -26.1304 -5.0026
10.9801 -24.3583 -4.8244
12.6418 -22.6965 -4.6910
14.2252 -21.1132 -4.5969
2.3234 -27.3659 -4.7846
7.2857 -28.0528 -5.0492
9.2080 -26.1304 -4.8266
10.9801 -24.3583 -4.6547
12.5483 -22.5286 -4.4925
14.2252 -21.1132 -4.4351
-0.0000 -45.8309 -7.6936
2.3234 -27.3652 -4.6103
7.2857 -28.0528 -4.8655
9.2080 -26.1304 -4.6509
10.9801 -24.3583 -4.4853
12.6418 -22.6965 -4.3612
14.2252 -21.1132 -4.2737
2.3233 -27.3645 -4.4365
7.2857 -28.0528 -4.6821
9.2080 -26.1304 -4.4756
10.9801 -24.3583 -4.3162
12.6418 -22.6965 -4.1969
14.2252 -21.1132 -4.1126
2.3233 -27.3639 -4.2629
7.2750 -28.0116 -4.4925
9.2080 -26.1304 -4.3007
10.9801 -24.3583 -4.1475
12.6418 -22.6965 -4.0328
13.7600 -20.4227 -3.8226
2.3232 -27.3632 -4.0898
7.2857 -28.0528 -4.3164
9.2080 -26.1304 -4.1260
10.9801 -24.3583 -3.9791
12.2614 -22.0134 -3.7526
13.8057 -20.4906 -3.6796
2.3232 -27.3625 -3.9169
7.2857 -28.0528 -4.1341
8.9069 -25.2759 -3.8225
10.6563 -23.6400 -3.6987
12.2691 -22.0272 -3.5964
13.8057 -20.4906 -3.5242
2.3231 -27.3618 -3.7444
7.0474 -27.1354 -3.8228
8.9365 -25.3599 -3.6664
10.6563 -23.6400 -3.5358
12.2691 -22.0273 -3.4380
13.8057 -20.4906 -3.3690
2.3230 -27.3611 -3.5721
7.0708 -27.2255 -3.6592
8.9365 -25.3599 -3.4978
10.6563 -23.6400 -3.3732
12.2691 -22.0273 -3.2799
13.8057 -20.4906 -3.2141
2.3230 -27.3604 -3.4001
5.0092 -29.2871 -3.6792
7.0708 -27.2255 -3.4831
8.9365 -25.3599 -3.3295
10.6563 -23.6400 -3.2109
12.2691 -22.0273 -3.1221
13.7600 -20.4227 -3.0493
2.3229 -27.3598 -3.2285
5.0092 -29.2871 -3.4935
7.0708 -27.2255 -3.3073
8.9365 -25.3599 -3.1615
10.6210 -23.5617 -3.0388
12.2691 -22.0273 -2.9645
13.8057 -20.4906 -2.9050
2.3229 -27.3591 -3.0570
5.0092 -29.2871 -3.3081
7.0708 -27.2255 -3.1318
8.9365 -25.3599 -2.9937
10.6563 -23.6400 -2.8870
12.2691 -22.0273 -2.8072
13.8057 -20.4906 -2.7508
2.3228 -27.3584 -2.8858
5.0092 -29.2871 -3.1229
7.0708 -27.2255 -2.9565
8.9365 -25.3599 -2.8261
10.6563 -23.6400 -2.7254
12.2691 -22.0273 -2.6501
13.8057 -20.4906 -2.5969
2.3228 -27.3577 -2.7149
5.0092 -29.2871 -2.9380
7.0708 -27.2255 -2.7814
8.9365 -25.3599 -2.6587
10.6563 -23.6400 -2.5640
12.2691 -22.0273 -2.4931
13.8057 -20.4906 -2.4431
2.3227 -27.3570 -2.5441
5.0092 -29.2871 -2.7533
7.0708 -27.2255 -2.6065
8.9365 -25.3599 -2.4916
10.6563 -23.6400 -2.4028
12.2691 -22.0273 -2.3364
13.8057 -20.4906 -2.2895
2.3226 -27.3564 -2.3736
5.0092 -29.2871 -2.5688
7.0708 -27.2255 -2.4318
8.9365 -25.3599 -2.3246
10.6563 -23.6400 -2.2418
12.2284 -21.9543 -2.1726
13.8045 -20.4887 -2.1359
2.3226 -27.3557 -2.2032
5.0092 -29.2871 -2.3845
7.0708 -27.2255 -2.2574
8.9069 -25.2759 -2.1507
10.6563 -23.6400 -2.0810
12.2691 -22.0273 -2.0234
13.8057 -20.4906 -1.9828
2.3225 -27.3550 -2.0331
5.0092 -29.2871 -2.2003
7.0708 -27.2255 -2.0831
8.9365 -25.3599 -1.9912
10.6563 -23.6400 -1.9203
12.2691 -22.0273 -1.8672
13.8057 -20.4906 -1.8297
2.3225 -27.3543 -1.8630
5.0092 -29.2871 -2.0164
7.0708 -27.2255 -1.9089
8.9365 -25.3599 -1.8247
10.6563 -23.6400 -1.7598
12.2691 -22.0273 -1.7111
13.8057 -20.4906 -1.6767
2.3224 -27.3537 -1.6932
5.0092 -29.2871 -1.8326
7.0708 -27.2255 -1.7349
8.9365 -25.3599 -1.6584
10.6563 -23.6400 -1.5994
12.2691 -22.0273 -1.5551
13.8057 -20.4906 -1.5239
2.3223 -27.3530 -1.5235
5.0092 -29.2871 -1.6489
7.0708 -27.2255 -1.5611
8.9365 -25.3599 -1.4922
10.6210 -23.5617 -1.4343
12.2284 -21.9543 -1.3946
13.7600 -20.4227 -1.3666
2.3223 -27.3523 -1.3539
5.0092 -29.2871 -1.4654
7.0474 -27.1354 -1.3827
8.9069 -25.2759 -1.3217
10.6210 -23.5617 -1.2747
12.2284 -21.9543 -1.2394
13.7600 -20.4227 -1.2145
2.3222 -27.3517 -1.1844
4.9926 -29.1901 -1.2777
7.0474 -27.1354 -1.2096
8.9069 -25.2759 -1.1563
10.6210 -23.5617 -1.1151
12.2284 -21.9543 -1.0843
13.7600 -20.4227 -1.0625
2.3222 -27.3510 -1.0150
4.9926 -29.1901 -1.0950
7.0474 -27.1354 -1.0367
8.9069 -25.2759 -0.9909
10.6210 -23.5617 -0.9557
12.2284 -21.9543 -0.9292
13.7600 -20.4227 -0.9106
2.3221 -27.3503 -0.8457
4.9926 -29.1901 -0.9124
7.0474 -27.1354 -0.8638
8.9069 -25.2759 -0.8257
10.6210 -23.5617 -0.7963
12.2284 -21.9543 -0.7743
13.7600 -20.4227 -0.7587
2.3221 -27.3496 -0.6765
4.9926 -29.1901 -0.7298
7.0474 -27.1354 -0.6909
8.9069 -25.2759 -0.6605
10.6210 -23.5617 -0.6369
12.2284 -21.9543 -0.6193
13.7600 -20.4227 -0.6069
2.3220 -27.3490 -0.5073
4.9926 -29.1901 -0.5473
7.0474 -27.1354 -0.5182
8.9069 -25.2759 -0.4953
10.6210 -23.5617 -0.4777
12.2284 -21.9543 -0.4645
13.7600 -20.4227 -0.4551
2.3219 -27.3483 -0.3382
4.9926 -29.1901 -0.3649
7.0474 -27.1354 -0.3454
8.9069 -25.2759 -0.3302
10.6210 -23.5617 -0.3184
12.2284 -21.9543 -0.3096
13.7600 -20.4227 -0.3034
2.3219 -27.3476 -0.1691
4.9926 -29.1901 -0.1824
7.0474 -27.1354 -0.1727
8.9069 -25.2759 -0.1651
10.6210 -23.5617 -0.1592
12.2284 -21.9543 -0.1548
13.7600 -20.4227 -0.1517
2.3218 -27.3470 0.0000
4.9926 -29.1901 -0.0000
7.0474 -27.1354 0.0000
8.9069 -25.2759 0.0000
10.6210 -23.5617 0.0000
12.2284 -21.9543 0.0000
13.7600 -20.4227 0.0000
2.3218 -27.3463 0.1691
4.9926 -29.1901 0.1824
7.2422 -27.8856 0.1775
9.1531 -25.9747 0.1697
10.9147 -24.2132 0.1636
12.5665 -22.5613 0.1591
13.7600 -20.4227 0.1517
2.3217 -27.3456 0.3381
4.9926 -29.1901 0.3649
7.2422 -27.8856 0.3550
9.1531 -25.9747 0.3393
10.9147 -24.2132 0.3272
12.5665 -22.5613 0.3182
13.7600 -20.4227 0.3034
2.3217 -27.3450 0.5072
4.9926 -29.1901 0.5473
7.2422 -27.8856 0.5325
9.1531 -25.9747 0.5090
10.9147 -24.2132 0.4909
12.5665 -22.5613 0.4773
13.7600 -20.4227 0.4551
-0.0000 -49.9332 1.2306
2.3216 -27.3443 0.6763
4.9926 -29.1901 0.7298
7.2422 -27.8856 0.7100
9.1531 -25.9747 0.6787
10.9147 -24.2132 0.6546
12.5665 -22.5613 0.6365
13.7600 -20.4227 0.6069
-0.0000 -49.9332 1.5384
2.3216 -27.3436 0.8455
4.9926 -29.1901 0.9124
7.2422 -27.8856 0.8876
9.1531 -25.9747 0.8485
10.9147 -24.2132 0.8183
12.5665 -22.5613 0.7957
13.7600 -20.4227 0.7587
0.0000 -49.9332 1.8464
2.3215 -27.3429 1.0147
4.9926 -29.1901 1.0950
7.2422 -27.8856 1.0653
9.1531 -25.9747 1.0183
10.9147 -24.2132 0.9821
12.5665 -22.5613 0.9549
13.7600 -20.4227 0.9106
-0.0000 -49.9332 2.1545
2.3214 -27.3423 1.1840
4.9926 -29.1901 1.2777
7.2422 -27.8856 1.2431
9.1531 -25.9747 1.1883
10.9147 -24.2132 1.1460
12.5665 -22.5613 1.1143
13.7600 -20.4227 1.0625
-0.0000 -18.4581 0.9104
2.3214 -27.3416 1.3533
4.9926 -29.1901 1.4606
7.2422 -27.8856 1.4209
9.1531 -25.9747 1.3583
10.9147 -24.2132 1.3099
12.5665 -22.5613 1.2737
13.7600 -20.4227 1.2145
-0.0000 -18.4571 1.0243
2.3129 -27.2420 1.5173
4.9926 -29.1901 1.6435
7.2422 -27.8856 1.5989
9.1531 -25.9747 1.5284
10.9147 -24.2132 1.4740
12.5665 -22.5613 1.4332
13.7600 -20.4227 1.3666
0.0000 -18.4561 1.1383
2.3105 -27.2134 1.6845
4.9926 -29.1901 1.8265
7.2422 -27.8856 1.7770
9.1531 -25.9747 1.6986
10.9147 -24.2132 1.6381
12.5665 -22.5613 1.5928
13.7600 -20.4227 1.5189
-0.0000 -18.4551 1.2524
2.3081 -27.1848 1.8515
4.9926 -29.1901 2.0097
7.2422 -27.8856 1.9552
9.1531 -25.9747 1.8690
10.9147 -24.2132 1.8024
12.5665 -22.5613 1.7526
13.7600 -20.4227 1.6712
-0.0000 -18.4541 1.3666
2.3056 -27.1563 2.0183
4.9926 -29.1901 2.1931
7.2422 -27.8856 2.1336
9.1531 -25.9747 2.0395
10.9147 -24.2132 1.9669
12.5665 -22.5613 1.9125
13.7600 -20.4227 1.8237
-0.0000 -18.4531 1.4809
2.2969 -27.0539 2.1789
4.6883 -27.4107 2.2317
6.9456 -26.7435 2.2174
1.5329 -4.3501 0.3701
1.9007 -4.2166 0.3712
2.2571 -4.0524 0.3722
13.7600 -20.4227 1.9762
0.0000 -18.4522 1.5953
2.1873 -25.7624 2.2353
4.3379 -25.3619 2.2245
1.0747 -4.1380 0.3696
1.4245 -4.0423 0.3705
1.7659 -3.9175 0.3715
2.0966 -3.7641 0.3725
2.4142 -3.5831 0.3735
0.0000 -18.4512 1.7098
2.0560 -24.2156 2.2520
4.0321 -23.5741 2.2162
1.0038 -3.8650 0.3700
1.3302 -3.7750 0.3709
1.6488 -3.6578 0.3718
1.9572 -3.5139 0.3727
2.2533 -3.3444 0.3737
0.0000 -18.4502 1.8244
2.0380 -24.0037 2.3820
0.6302 -3.6845 0.3696
0.9416 -3.6255 0.3704
1.2476 -3.5405 0.3712
1.5462 -3.4301 0.3720
1.8351 -3.2947 0.3729
2.1124 -3.1352 0.3738
0.0000 -18.4492 1.9391
0.2972 -3.5010 0.3693
0.5934 -3.4697 0.3700
0.8866 -3.4137 0.3707
1.1746 -3.3333 0.3715
1.4555 -3.2289 0.3723
1.7272 -3.1010 0.3731
1.9879 -2.9504 0.3739
-0.0000 -18.4482 2.0540
0.2809 -3.3082 0.3696
0.5607 -3.2783 0.3703
0.8376 -3.2250 0.3710
1.1096 -3.1487 0.3717
1.3747 -3.0497 0.3724
1.6312 -2.9286 0.3732
1.8771 -2.7861 0.3740
-0.0000 -3.2135 0.3778
0.2662 -3.1353 0.3700
0.5314 -3.1067 0.3706
0.7937 -3.0559 0.3712
1.0513 -2.9833 0.3719
1.3024 -2.8892 0.3726
1.5452 -2.7741 0.3734
1.7779 -2.6388 0.3741
-0.0000 -3.2135 0.3979
0.2530 -2.9794 0.3703
0.5049 -2.9519 0.3708
0.7541 -2.9035 0.3715
0.9987 -2.8342 0.3721
1.2372 -2.7445 0.3728
1.4677 -2.6350 0.3735
1.6886 -2.5062 0.3742
-0.0000 -3.2135 0.4180
0.2520 -2.9679 0.3875
0.4809 -2.8117 0.3711
0.7182 -2.7653 0.3717
0.9511 -2.6991 0.3723
1.1781 -2.6135 0.3729
1.3975 -2.5089 0.3736
1.6077 -2.3861 0.3743
-0.0000 -3.2135 0.4382
0.2520 -2.9679 0.4061
0.4711 -2.7542 0.3810
0.6855 -2.6395 0.3718
0.9078 -2.5761 0.3724
1.1243 -2.4942 0.3731
1.3336 -2.3942 0.3737
1.5340 -2.2768 0.3743
-0.0000 -3.2135 0.4584
0.2520 -2.9679 0.4248
0.4711 -2.7542 0.3986
0.6660 -2.5642 0.3779
0.8682 -2.4636 0.3726
1.0752 -2.3851 0.3732
1.2752 -2.2894 0.3738
1.4667 -2.1769 0.3744
-0.0000 -3.2135 0.4786
0.2520 -2.9679 0.4436
0.4711 -2.7542 0.4161
0.6660 -2.5642 0.3945
0.8428 -2.3918 0.3777
1.0300 -2.2851 0.3733
1.2216 -2.1931 0.3739
1.4050 -2.0853 0.3745
-0.0000 -3.2135 0.4988
0.2520 -2.9679 0.4624
0.4711 -2.7542 0.4337
0.6660 -2.5642 0.4112
0.8428 -2.3918 0.3936
1.0063 -2.2324 0.3801
1.1722 -2.1045 0.3739
1.3481 -2.0009 0.3745
-0.0000 -3.2135 0.5191
0.2520 -2.9679 0.4812
0.4711 -2.7542 0.4514
0.6660 -2.5642 0.4280
0.8428 -2.3918 0.4097
1.0063 -2.2324 0.3956
1.1600 -2.0825 0.3851
1.3067 -1.9394 0.3778
-0.0000 -3.2135 0.5395
0.2520 -2.9679 0.5000
0.4711 -2.7542 0.4691
0.6660 -2.5642 0.4447
0.8428 -2.3918 0.4257
1.0063 -2.2324 0.4111
1.1600 -2.0825 0.4002
1.3067 -1.9394 0.3926
-0.0000 -3.2135 0.5598
0.2520 -2.9679 0.5189
0.4711 -2.7542 0.4868
0.6660 -2.5642 0.4615
0.8428 -2.3918 0.4418
1.0063 -2.2324 0.4266
1.1600 -2.0825 0.4153
1.3067 -1.9394 0.4074
-0.0000 -3.2135 0.5803
0.2520 -2.9679 0.5378
0.4711 -2.7542 0.5045
0.6660 -2.5642 0.4784
0.8428 -2.3918 0.4579
1.0063 -2.2324 0.4421
1.1600 -2.0825 0.4304
1.3067 -1.9394 0.4223
-0.0000 -3.2135 0.6007
0.2520 -2.9679 0.5568
0.4711 -2.7542 0.5223
0.6660 -2.5642 0.4952
0.8428 -2.3918 0.4740
1.0063 -2.2324 0.4577
1.1600 -2.0825 0.4456
1.3067 -1.9394 0.4372
-0.0000 -3.2135 0.6212
0.2520 -2.9679 0.5758
0.4711 -2.7542 0.5402
0.6660 -2.5642 0.5121
0.8428 -2.3918 0.4902
1.0063 -2.2324 0.4734
1.1600 -2.0825 0.4608
1.3067 -1.9394 0.4521
-0.0000 -3.2136 0.6418
0.2520 -2.9679 0.5949
0.4711 -2.7542 0.5580
0.6660 -2.5642 0.5291
0.8428 -2.3918 0.5065
1.0063 -2.2324 0.4890
1.1600 -2.0825 0.4761
1.3067 -1.9394 0.4670
-0.0000 -3.2135 0.6624
0.2520 -2.9679 0.6140
0.4711 -2.7542 0.5760
0.6660 -2.5642 0.5461
0.8428 -2.3918 0.5227
1.0063 -2.2324 0.5047
1.1600 -2.0825 0.4914
1.3067 -1.9394 0.4820
-0.0000 -3.2135 0.6831
0.2520 -2.9679 0.6331
0.4711 -2.7542 0.5939
0.6660 -2.5642 0.5631
0.8428 -2.3918 0.5390
1.0063 -2.2324 0.5205
1.1600 -2.0825 0.5067
1.3067 -1.9394 0.4971
-0.0000 -3.2135 0.7038
0.2520 -2.9679 0.6523
0.4711 -2.7542 0.6119
0.6660 -2.5642 0.5802
0.8428 -2.3918 0.5554
1.0063 -2.2324 0.5363
1.1600 -2.0825 0.5221
1.3067 -1.9394 0.5122
-0.0000 -3.2135 0.7246
0.2520 -2.9679 0.6716
0.4711 -2.7542 0.6300
0.6660 -2.5642 0.5973
0.8428 -2.3918 0.5718
1.0063 -2.2324 0.5521
1.1600 -2.0825 0.5375
1.3067 -1.9394 0.5273
-0.0000 -3.2136 0.7454
0.2520 -2.9679 0.6909
0.4711 -2.7542 0.6481
0.6660 -2.5642 0.6145
0.8428 -2.3918 0.5882
1.0063 -2.2324 0.5680
1.1600 -2.0825 0.5529
1.3067 -1.9394 0.5424
-0.0000 -3.2135 0.7663
0.2520 -2.9679 0.7102
0.4711 -2.7542 0.6663
0.6660 -2.5642 0.6317
0.8428 -2.3918 0.6047
1.0063 -2.2324 0.5839
1.1600 -2.0825 0.5684
1.3067 -1.9394 0.5576
0.0000 -1.4819 0.3630
0.2520 -2.9679 0.7297
0.4711 -2.7542 0.6845
0.6660 -2.5642 0.6490
0.8428 -2.3918 0.6212
1.0063 -2.2324 0.5999
1.1600 -2.0825 0.5840
1.3067 -1.9394 0.5729
0.0000 -1.4437 0.3631
0.2520 -2.9679 0.7491
0.4711 -2.7542 0.7028
0.6660 -2.5642 0.6663
0.8428 -2.3918 0.6378
1.0063 -2.2324 0.6159
1.1600 -2.0825 0.5995
1.3067 -1.9394 0.5882
-0.0000 -1.4073 0.3632
0.2520 -2.9679 0.7687
0.4711 -2.7542 0.7211
0.6660 -2.5642 0.6837
0.8428 -2.3918 0.6544
1.0063 -2.2324 0.6319
1.1600 -2.0825 0.6152
1.3067 -1.9394 0.6035
0.0000 -1.3726 0.3633
0.1162 -1.3686 0.3635
0.4711 -2.7542 0.7395
0.6660 -2.5642 0.7011
0.8428 -2.3918 0.6711
1.0063 -2.2324 0.6480
1.1600 -2.0825 0.6309
1.3067 -1.9394 0.6189
0.0000 -1.3394 0.3633
0.1134 -1.3355 0.3636
0.4711 -2.7542 0.7579
0.6660 -2.5642 0.7186
0.8428 -2.3918 0.6879
1.0063 -2.2324 0.6642
1.1600 -2.0825 0.6466
1.3067 -1.9394 0.6343
-0.0000 -1.3077 0.3634
0.1107 -1.3039 0.3636
0.2208 -1.2907 0.3639
0.6660 -2.5642 0.7362
0.8428 -2.3918 0.7047
1.0063 -2.2324 0.6804
1.1600 -2.0825 0.6624
1.3067 -1.9394 0.6498
0.0000 -1.2774 0.3634
0.1081 -1.2736 0.3637
0.2156 -1.2608 0.3639
0.6660 -2.5642 0.7538
0.8428 -2.3918 0.7215
1.0063 -2.2324 0.6967
1.1600 -2.0825 0.6782
1.3067 -1.9394 0.6654
0.0000 -1.2483 0.3635
0.1057 -1.2446 0.3637
0.2107 -1.2320 0.3640
0.3144 -1.2107 0.3642
0.8428 -2.3918 0.7384
1.0063 -2.2324 0.7130
1.1600 -2.0825 0.6942
1.3067 -1.9394 0.6810
-0.0000 -1.2204 0.3636
0.1033 -1.2168 0.3638
0.2060 -1.2045 0.3640
0.3074 -1.1836 0.3643
0.8428 -2.3918 0.7554
1.0063 -2.2324 0.7294
1.1600 -2.0825 0.7101
1.3067 -1.9394 0.6966
0.0000 -1.1937 0.3636
0.1010 -1.1901 0.3638
0.2015 -1.1781 0.3641
0.3006 -1.1576 0.3643
0.3978 -1.1288 0.3646
1.0063 -2.2324 0.7459
1.1600 -2.0825 0.7261
1.3067 -1.9394 0.7124
0.0000 -1.1680 0.3637
0.0989 -1.1645 0.3639
0.1972 -1.1527 0.3641
0.2942 -1.1326 0.3643
0.3892 -1.1045 0.3646
1.0063 -2.2324 0.7624
1.1600 -2.0825 0.7422
1.3067 -1.9394 0.7281
-0.0000 -1.1433 0.3637
0.0968 -1.1399 0.3639
0.1930 -1.1283 0.3641
0.2879 -1.1086 0.3644
0.3809 -1.0811 0.3646
0.4714 -1.0457 0.3649
1.1600 -2.0825 0.7583
1.3067 -1.9394 0.7440
-0.0000 -1.1195 0.3638
0.0948 -1.1162 0.3640
0.1890 -1.1048 0.3642
0.2819 -1.0856 0.3644
0.3730 -1.0585 0.3647
0.4615 -1.0239 0.3649
0.5469 -0.9819 0.3652
1.3067 -1.9394 0.7599
0.0000 -1.0967 0.3638
0.0928 -1.0933 0.3640
0.1851 -1.0822 0.3642
0.2762 -1.0633 0.3645
0.3654 -1.0368 0.3647
0.4521 -1.0029 0.3649
0.5357 -0.9617 0.3652
0.6156 -0.9136 0.3655
0.0000 -1.0746 0.3639
0.0910 -1.0713 0.3641
0.1814 -1.0604 0.3643
0.2706 -1.0419 0.3645
0.3580 -1.0159 0.3647
0.4430 -0.9827 0.3650
0.5249 -0.9423 0.3652
0.6031 -0.8952 0.3655
0.0000 -1.0533 0.3639
0.0892 -1.0501 0.3641
0.1778 -1.0394 0.3643
0.2652 -1.0212 0.3645
0.3509 -0.9958 0.3647
0.4342 -0.9631 0.3650
0.5144 -0.9236 0.3652
0.5911 -0.8774 0.3655
0.0000 -1.0328 0.3639
0.0874 -1.0296 0.3641
0.1743 -1.0191 0.3643
0.2600 -1.0013 0.3645
0.3440 -0.9763 0.3648
0.4257 -0.9443 0.3650
0.5044 -0.9055 0.3652
0.5795 -0.8602 0.3655
0.0000 -1.0130 0.3640
0.0857 -1.0098 0.3642
0.1710 -0.9995 0.3644
0.2550 -0.9820 0.3646
0.3374 -0.9575 0.3648
0.4175 -0.9261 0.3650
0.4946 -0.8881 0.3653
0.5684 -0.8436 0.3655
0.0000 -0.9938 0.3640
0.0841 -0.9907 0.3642
0.1677 -0.9806 0.3644
0.2502 -0.9634 0.3646
0.3310 -0.9393 0.3648
0.4095 -0.9085 0.3650
0.4853 -0.8712 0.3653
0.5576 -0.8276 0.3655
0.0000 -0.9752 0.3641
0.0825 -0.9722 0.3642
0.1646 -0.9623 0.3644
0.2455 -0.9454 0.3646
0.3248 -0.9218 0.3648
0.4019 -0.8915 0.3651
0.4762 -0.8549 0.3653
0.5471 -0.8121 0.3655
0.0000 -0.9573 0.3641
0.0810 -0.9543 0.3643
0.1616 -0.9445 0.3645
0.2410 -0.9280 0.3647
0.3188 -0.9048 0.3649
0.3945 -0.8751 0.3651
0.4674 -0.8391 0.3653
0.5370 -0.7971 0.3655
0.0000 -0.9399 0.3641
0.0796 -0.9370 0.3643
0.1586 -0.9274 0.3645
0.2366 -0.9111 0.3647
0.3130 -0.8883 0.3649
0.3873 -0.8592 0.3651
0.4589 -0.8238 0.3653
0.5272 -0.7825 0.3655
0.0000 -0.9231 0.3642
0.0781 -0.9202 0.3643
0.1558 -0.9108 0.3645
0.2324 -0.8948 0.3647
0.3074 -0.8724 0.3649
0.3803 -0.8437 0.3651
0.4506 -0.8090 0.3653
0.5178 -0.7685 0.3656
-0.0000 -0.9068 0.3642
0.0767 -0.9039 0.3644
0.1530 -0.8946 0.3645
0.2283 -0.8789 0.3647
0.3020 -0.8569 0.3649
0.3736 -0.8288 0.3651
0.4426 -0.7947 0.3653
0.5086 -0.7548 0.3656
-0.0000 -0.8909 0.3642
0.0754 -0.8881 0.3644
0.1503 -0.8790 0.3646
0.2243 -0.8636 0.3647
0.2967 -0.8419 0.3649
0.3671 -0.8143 0.3651
0.4349 -0.7808 0.3654
0.4997 -0.7416 0.3656
-0.0000 -0.8756 0.3643
0.0741 -0.8728 0.3644
0.1477 -0.8638 0.3646
0.2204 -0.8487 0.3648
0.2916 -0.8274 0.3650
0.3607 -0.8002 0.3652
0.4274 -0.7673 0.3654
0.4910 -0.7288 0.3656
-0.0000 -0.8607 0.3643
0.0728 -0.8580 0.3644
0.1452 -0.8491 0.3646
0.2166 -0.8342 0.3648
0.2866 -0.8133 0.3650
0.3546 -0.7865 0.3652
0.4201 -0.7541 0.3654
0.4826 -0.7163 0.3656
0.0000 -0.8462 0.3643
0.0716 -0.8435 0.3645
0.1428 -0.8348 0.3646
0.2130 -0.8201 0.3648
0.2818 -0.7996 0.3650
0.3486 -0.7733 0.3652
0.4130 -0.7414 0.3654
0.4745 -0.7042 0.3656
-0.0000 -0.8321 0.3643
0.0704 -0.8295 0.3645
0.1404 -0.8209 0.3647
0.2094 -0.8065 0.3648
0.2771 -0.7862 0.3650
0.3428 -0.7604 0.3652
0.4061 -0.7290 0.3654
0.4665 -0.6924 0.3656
-0.0000 -0.8184 0.3644
0.0693 -0.8158 0.3645
0.1381 -0.8074 0.3647
0.2060 -0.7932 0.3649
0.2725 -0.7733 0.3650
0.3371 -0.7478 0.3652
0.3994 -0.7170 0.3654
0.4588 -0.6810 0.3656
0.0000 -0.8051 0.3644
0.0681 -0.8025 0.3645
0.1358 -0.7942 0.3647
0.2026 -0.7802 0.3649
0.2680 -0.7607 0.3650
0.3316 -0.7356 0.3652
0.3928 -0.7053 0.3654
0.4513 -0.6699 0.3656
0.0000 -0.7921 0.3644
0.0670 -0.7896 0.3646
0.1337 -0.7814 0.3647
0.1994 -0.7677 0.3649
0.2637 -0.7484 0.3651
0.3262 -0.7237 0.3652
0.3865 -0.6939 0.3654
0.4441 -0.6591 0.3656
0.0000 -0.7795 0.3645
0.0660 -0.7770 0.3646
0.1315 -0.7689 0.3647
0.1962 -0.7554 0.3649
0.2595 -0.7364 0.3651
0.3210 -0.7122 0.3653
0.3803 -0.6828 0.3654
0.4370 -0.6485 0.3656
-0.0000 -0.7672 0.3645
0.0649 -0.7647 0.3646
0.1294 -0.7568 0.3648
0.1931 -0.7435 0.3649
0.2554 -0.7248 0.3651
0.3160 -0.7009 0.3653
0.3743 -0.6720 0.3654
0.4300 -0.6383 0.3656
-0.0000 -0.7552 0.3645
0.0639 -0.7528 0.3646
0.1274 -0.7450 0.3648
0.1901 -0.7318 0.3649
0.2514 -0.7135 0.3651
0.3110 -0.6900 0.3653
0.3684 -0.6615 0.3655
0.4233 -0.6283 0.3656
-0.0000 -0.7435 0.3645
0.0629 -0.7411 0.3647
0.1254 -0.7334 0.3648
0.1871 -0.7205 0.3650
0.2475 -0.7024 0.3651
0.3062 -0.6793 0.3653
0.3627 -0.6512 0.3655
0.4167 -0.6185 0.3656
0.0000 -0.7321 0.3645
0.0620 -0.7298 0.3647
0.1235 -0.7222 0.3648
0.1842 -0.7094 0.3650
0.2437 -0.6916 0.3651
0.3015 -0.6688 0.3653
0.3572 -0.6412 0.3655
0.4103 -0.6090 0.3657
0.0000 -0.7210 0.3646
0.0610 -0.7187 0.3647
0.1216 -0.7112 0.3648
0.1814 -0.6987 0.3650
0.2400 -0.6811 0.3652
0.2969 -0.6586 0.3653
0.3517 -0.6315 0.3655
0.4041 -0.5997 0.3657
0.0000 -0.7101 0.3646
0.0601 -0.7078 0.3647
0.1198 -0.7005 0.3649
0.1787 -0.6881 0.3650
0.2364 -0.6708 0.3652
0.2924 -0.6487 0.3653
0.3464 -0.6219 0.3655
0.3980 -0.5907 0.3657
-0.0000 -0.6995 0.3646
0.0592 -0.6973 0.3647
0.1180 -0.6900 0.3649
0.1760 -0.6778 0.3650
0.2329 -0.6608 0.3652
0.2880 -0.6390 0.3653
0.3412 -0.6126 0.3655
0.3920 -0.5818 0.3657
0.0000 -0.6892 0.3646
0.0583 -0.6870 0.3648
0.1163 -0.6798 0.3649
0.1734 -0.6678 0.3650
0.2294 -0.6510 0.3652
0.2838 -0.6295 0.3653
0.3362 -0.6035 0.3655
0.3862 -0.5732 0.3657
0.0000 -0.6791 0.3647
0.0575 -0.6769 0.3648
0.1146 -0.6698 0.3649
0.1709 -0.6580 0.3651
0.2260 -0.6414 0.3652
0.2796 -0.6203 0.3654
0.3312 -0.5947 0.3655
0.3805 -0.5648 0.3657
0.0000 -0.6692 0.3647
0.0566 -0.6670 0.3648
0.1129 -0.6601 0.3649
0.1684 -0.6484 0.3651
0.2227 -0.6321 0.3652
0.2755 -0.6112 0.3654
0.3264 -0.5860 0.3655
0.3750 -0.5565 0.3657
0.0000 -0.6595 0.3647
0.0558 -0.6574 0.3648
0.1113 -0.6505 0.3649
0.1660 -0.6390 0.3651
0.2195 -0.6229 0.3652
0.2715 -0.6024 0.3654
0.3217 -0.5775 0.3655
0.3695 -0.5485 0.3657
-0.0000 -0.6501 0.3647
0.0550 -0.6480 0.3648
0.1097 -0.6412 0.3650
0.1636 -0.6299 0.3651
0.2164 -0.6140 0.3652
0.2676 -0.5937 0.3654
0.3170 -0.5692 0.3655
0.3642 -0.5406 0.3657
0.0000 -0.6408 0.3647
0.0542 -0.6387 0.3649
0.1081 -0.6321 0.3650
0.1613 -0.6209 0.3651
0.2133 -0.6052 0.3652
0.2638 -0.5853 0.3654
0.3125 -0.5611 0.3655
0.3590 -0.5329 0.3657
-0.0000 -0.6318 0.3648
0.0535 -0.6297 0.3649
0.1066 -0.6231 0.3650
0.1590 -0.6121 0.3651
0.2103 -0.5967 0.3653
0.2601 -0.5770 0.3654
0.3081 -0.5531 0.3656
0.3539 -0.5253 0.3657
