ply
format ascii 1.0
element vertex 2172
property float32 x
property float32 y
property float32 z
end_header
-2.3123 -1.0627 0.6234
-2.3150 -1.3262 0.6536
-2.3180 -1.6189 0.6926
-1.0836 -0.9110 0.3468
-0.9927 -0.9988 0.3450
-0.8952 -1.0783 0.3433
-0.7919 -1.1489 0.3418
-0.6836 -1.2105 0.3406
-0.5709 -1.2627 0.3395
-0.4547 -1.3052 0.3386
-0.3357 -1.3379 0.3379
-0.2145 -1.3606 0.3374
-0.0921 -1.3732 0.3372
0.0309 -1.3757 0.3371
0.1537 -1.3681 0.3373
0.2755 -1.3504 0.3376
0.3957 -1.3226 0.3382
0.5134 -1.2850 0.3390
0.6279 -1.2376 0.3400
0.7385 -1.1806 0.3411
0.8443 -1.1144 0.3425
0.9448 -1.0393 0.3441
1.0390 -0.9556 0.3458
5.2348 -4.0141 1.6160
5.6095 -3.5541 1.6268
5.9464 -3.0606 1.6383
6.2423 -2.5362 1.6506
6.4943 -1.9840 1.6635
6.6993 -1.4075 1.6770
6.8549 -0.8103 1.6909
6.9572 -0.1966 1.7050
7.0029 0.4289 1.7187
6.9845 1.0598 1.7306
6.9103 1.6911 1.7428
6.7783 2.3174 1.7548
6.5886 2.9332 1.7667
6.3416 3.5327 1.7783
6.0384 4.1106 1.7894
5.6748 4.6560 1.7982
5.2590 5.1663 1.8059
1.0341 1.2157 0.3910
0.9260 1.3097 0.3929
0.8089 1.3933 0.3947
0.6839 1.4655 0.3962
0.5520 1.5256 0.3974
0.4146 1.5727 0.3984
0.2730 1.6062 0.3991
0.1286 1.6259 0.3995
-0.0171 1.6313 0.3997
-0.1626 1.6226 0.3995
-0.3065 1.5997 0.3990
-0.4473 1.5629 0.3982
-0.5835 1.5128 0.3972
-0.7139 1.4498 0.3959
-0.8373 1.3749 0.3943
-0.9524 1.2887 0.3926
-1.0582 1.1924 0.3906
-2.2790 2.1469 0.7670
-2.2827 1.7942 0.7113
-2.2859 1.4870 0.6680
-2.2887 1.2129 0.6345
-2.2913 0.9631 0.6089
-2.2937 0.7309 0.5897
-2.2960 0.5111 0.5762
-2.2982 0.2996 0.5678
-2.3004 0.0926 0.5640
-2.3025 -0.1134 0.5647
-2.3046 -0.3215 0.5700
-2.3068 -0.5354 0.5801
-2.3092 -0.7587 0.5954
-2.3116 -0.9961 0.6166
-2.3143 -1.2532 0.6447
-2.3172 -1.5372 0.6812
-2.3205 -1.8579 0.7282
-1.0177 -0.9761 0.3454
-0.9219 -1.0578 0.3437
-0.8201 -1.1309 0.3422
-0.7130 -1.1949 0.3409
-0.6015 -1.2496 0.3397
-0.4861 -1.2948 0.3388
-0.3677 -1.3301 0.3381
-0.2471 -1.3555 0.3375
-0.1250 -1.3708 0.3372
-0.0020 -1.3760 0.3371
0.1209 -1.3711 0.3372
0.2431 -1.3561 0.3375
0.3637 -1.3310 0.3380
0.4822 -1.2960 0.3387
0.5976 -1.2512 0.3397
0.7093 -1.1968 0.3408
0.8165 -1.1330 0.3421
0.9185 -1.0603 0.3436
1.0144 -0.9788 0.3453
5.1282 -4.1308 1.6131
5.5128 -3.6806 1.6238
5.8601 -3.1958 1.6351
6.1673 -2.6794 1.6472
6.4313 -2.1343 1.6600
6.6492 -1.5640 1.6733
6.8183 -0.9719 1.6872
6.9359 -0.3622 1.7014
6.9960 0.2607 1.7150
6.9956 0.8908 1.7276
6.9358 1.5224 1.7395
6.8193 2.1506 1.7516
6.6450 2.7697 1.7636
6.4133 3.3742 1.7752
6.1249 3.9584 1.7865
5.7776 4.5135 1.7960
5.3750 5.0334 1.8039
1.0614 1.1889 0.3904
0.9559 1.2855 0.3924
0.8411 1.3720 0.3942
0.7181 1.4474 0.3958
0.5879 1.5107 0.3971
0.4519 1.5614 0.3982
0.3112 1.5986 0.3990
0.1674 1.6220 0.3995
0.0219 1.6313 0.3996
-0.1238 1.6263 0.3995
-0.2683 1.6072 0.3992
-0.4100 1.5741 0.3985
-0.5476 1.5275 0.3975
-0.6797 1.4679 0.3963
-0.8050 1.3961 0.3948
-0.9224 1.3128 0.3931
-1.0308 1.2192 0.3911
-2.2780 2.2512 0.7846
-2.2818 1.8835 0.7248
-2.2851 1.5655 0.6785
-2.2880 1.2835 0.6427
-2.2907 1.0279 0.6151
-2.2931 0.7916 0.5943
-2.2954 0.5690 0.5793
-2.2976 0.3556 0.5696
-2.2998 0.1477 0.5645
-2.3019 -0.0582 0.5641
-2.3041 -0.2654 0.5682
-2.3063 -0.4774 0.5769
-2.3085 -0.6978 0.5908
-2.3109 -0.9309 0.6103
-2.3135 -1.1821 0.6364
-2.3164 -1.4580 0.6705
-2.3196 -1.7678 0.7144
-1.0422 -0.9528 0.3459
-0.9481 -1.0368 0.3442
-0.8479 -1.1122 0.3426
-0.7421 -1.1787 0.3412
-0.6317 -1.2359 0.3400
-0.5173 -1.2836 0.3390
-0.3997 -1.3216 0.3382
-0.2796 -1.3497 0.3376
-0.1578 -1.3677 0.3373
-0.0350 -1.3756 0.3371
0.0880 -1.3734 0.3371
0.2105 -1.3611 0.3374
0.3316 -1.3387 0.3379
0.4508 -1.3063 0.3385
0.5671 -1.2641 0.3394
0.6798 -1.2123 0.3405
0.7883 -1.1510 0.3417
0.8917 -1.0806 0.3432
0.9894 -1.0014 0.3449
1.0805 -0.9139 0.3467
5.4135 -3.8047 1.6209
-2.3016 -0.0321 0.5789
-2.3038 -0.2390 0.5825
-2.3060 -0.4501 0.5909
-2.3082 -0.6692 0.6044
-2.3106 -0.9005 0.6237
-2.3132 -1.1490 0.6496
-2.3160 -1.4214 0.6834
-2.3191 -1.7262 0.7271
-1.0277 -0.9184 0.3466
-0.9369 -1.0014 0.3449
-0.8399 -1.0762 0.3434
-0.7375 -1.1423 0.3420
-0.6303 -1.1994 0.3408
-0.5192 -1.2473 0.3398
-0.4047 -1.2856 0.3390
-0.2878 -1.3143 0.3384
-0.1691 -1.3332 0.3380
-0.0494 -1.3422 0.3378
0.0707 -1.3413 0.3378
0.1903 -1.3305 0.3380
0.3088 -1.3098 0.3385
0.4253 -1.2794 0.3391
0.5391 -1.2393 0.3399
0.6496 -1.1898 0.3409
0.7560 -1.1311 0.3422
0.8575 -1.0634 0.3436
0.9534 -0.9871 0.3452
1.0430 -0.9026 0.3469
5.2332 -3.7673 1.6218
5.5855 -3.3068 1.6325
5.8998 -2.8145 1.6441
6.1730 -2.2933 1.6563
6.4022 -1.7463 1.6690
6.5847 -1.1769 1.6824
6.7180 -0.5889 1.6961
6.7997 0.0134 1.7102
6.8189 0.6249 1.7222
6.7822 1.2398 1.7341
6.6897 1.8531 1.7459
6.5411 2.4594 1.7576
6.3363 3.0535 1.7690
6.0763 3.6298 1.7802
5.7622 4.1828 1.7908
5.3898 4.7017 1.7989
1.0698 1.1165 0.3889
0.9709 1.2138 0.3909
0.8626 1.3018 0.3928
0.7460 1.3792 0.3944
0.6220 1.4454 0.3958
0.4919 1.4994 0.3969
0.3568 1.5407 0.3978
0.2181 1.5687 0.3983
0.0772 1.5831 0.3986
-0.0645 1.5838 0.3987
-0.2055 1.5706 0.3984
-0.3445 1.5438 0.3978
-0.4800 1.5038 0.3970
-0.6106 1.4509 0.3959
-0.7353 1.3858 0.3946
-0.8526 1.3093 0.3930
-0.9617 1.2223 0.3912
-1.0615 1.1258 0.3892
-2.2803 2.0216 0.7665
-2.2838 1.6860 0.7140
-2.2869 1.3911 0.6732
-2.2896 1.1261 0.6417
-2.2922 0.8829 0.6178
-2.2945 0.6554 0.6002
-2.2968 0.4389 0.5881
-2.2989 0.2293 0.5811
-2.3011 0.0230 0.5788
-2.3032 -0.1833 0.5811
-2.3054 -0.3930 0.5882
-2.3076 -0.6096 0.6003
-2.3100 -0.8371 0.6180
-2.3125 -1.0805 0.6420
-2.3152 -1.3457 0.6735
-2.3182 -1.6408 0.7143
-1.0509 -0.8948 0.3471
-0.9618 -0.9800 0.3454
-0.8664 -1.0571 0.3438
-0.7654 -1.1255 0.3423
-0.6594 -1.1850 0.3411
-0.5492 -1.2354 0.3400
-0.4356 -1.2763 0.3392
-0.3193 -1.3076 0.3385
-0.2010 -1.3291 0.3381
-0.0815 -1.3407 0.3378
0.0386 -1.3425 0.3378
0.1584 -1.3343 0.3380
0.2772 -1.3163 0.3383
0.3943 -1.2885 0.3389
0.5090 -1.2510 0.3397
0.6204 -1.2040 0.3407
0.7279 -1.1477 0.3418
0.8308 -1.0824 0.3432
0.9283 -1.0083 0.3447
1.0197 -0.9260 0.3464
5.1328 -3.8848 1.6190
5.4948 -3.4332 1.6296
5.8196 -2.9492 1.6409
6.1041 -2.4354 1.6529
6.3454 -1.8950 1.6656
6.5406 -1.3312 1.6788
6.6873 -0.7479 1.6924
6.7830 -0.1489 1.7064
6.8193 0.4608 1.7190
6.7975 1.0752 1.7309
6.7200 1.6894 1.7427
6.5864 2.2982 1.7545
6.3966 2.8960 1.7660
6.1512 3.4776 1.7772
5.8514 4.0374 1.7880
5.4944 4.5662 1.7968
1.0946 1.0890 0.3883
0.9983 1.1887 0.3904
0.8925 1.2792 0.3923
0.7780 1.3596 0.3940
0.6558 1.4288 0.3954
0.5272 1.4862 0.3966
0.3933 1.5309 0.3975
0.2555 1.5625 0.3982
0.1150 1.5806 0.3986
-0.0266 1.5849 0.3987
-0.1679 1.5755 0.3985
-0.3076 1.5523 0.3980
-0.4441 1.5158 0.3973
-0.5762 1.4663 0.3962
-0.7026 1.4044 0.3949
-0.8220 1.3309 0.3934
-0.9334 1.2466 0.3917
-1.0358 1.1525 0.3897
-2.2793 2.1203 0.7830
-2.2829 1.7712 0.7267
-2.2861 1.4667 0.6831
-2.2889 1.1946 0.6494
-2.2915 0.9462 0.6235
-2.2939 0.7151 0.6043
-2.2962 0.4960 0.5908
-2.2984 0.2849 0.5825
-2.3005 0.0781 0.5789
-2.3026 -0.1279 0.5800
-2.3048 -0.3364 0.5858
-2.3070 -0.5507 0.5965
-2.3093 -0.7749 0.6126
-2.3118 -1.0135 0.6349
-2.3145 -1.2722 0.6642
-2.3174 -1.5584 0.7024
-1.0735 -0.8706 0.3476
-0.9863 -0.9580 0.3458
-0.8925 -1.0373 0.3442
-0.7929 -1.1080 0.3427
-0.6882 -1.1700 0.3414
-0.5791 -1.2228 0.3403
-0.4663 -1.2663 0.3394
-0.3507 -1.3001 0.3387
-0.2328 -1.3243 0.3382
-0.1135 -1.3386 0.3379
0.0065 -1.3430 0.3378
0.1264 -1.3375 0.3379
0.2456 -1.3221 0.3382
0.3632 -1.2969 0.3387
0.4786 -1.2619 0.3394
0.5910 -1.2175 0.3404
0.6996 -1.1636 0.3415
0.8038 -1.1007 0.3428
0.9028 -1.0290 0.3443
0.9958 -0.9488 0.3459
1.0823 -0.8606 0.3478
5.4015 -3.5574 1.6267
5.7365 -3.0817 1.6378
6.0321 -2.5756 1.6496
6.2852 -2.0420 1.6621
6.4930 -1.4842 1.6752
6.6529 -0.9057 1.6887
6.7625 -0.3105 1.7026
6.8158 0.2969 1.7159
6.8087 0.9106 1.7277
6.7462 1.5254 1.7396
6.6276 2.1361 1.7514
6.4528 2.7374 1.7629
6.2223 3.3239 1.7743
5.9369 3.8901 1.7852
5.5956 4.4282 1.7947
5.1998 4.9311 1.8024
1.0250 1.1628 0.3899
0.9217 1.2560 0.3918
0.8094 1.3391 0.3935
0.6892 1.4115 0.3951
0.5622 1.4721 0.3963
0.4296 1.5202 0.3973
0.2927 1.5554 0.3981
0.1528 1.5771 0.3985
0.0113 1.5851 0.3987
-0.1302 1.5794 0.3986
-0.2705 1.5598 0.3982
-0.4080 1.5268 0.3975
-0.5414 1.4807 0.3965
-0.6694 1.4221 0.3953
-0.7908 1.3516 0.3939
-0.9044 1.2701 0.3922
-1.0093 1.1786 0.3903
-2.2782 2.2233 0.8006
-2.2820 1.8597 0.7404
-2.2853 1.5446 0.6937
-2.2882 1.2648 0.6576
-2.2908 1.0107 0.6298
-2.2933 0.7755 0.6089
-2.2956 0.5537 0.5939
-2.2978 0.3409 0.5842
-2.2999 0.1332 0.5794
-2.3021 -0.0727 0.5793
-2.3042 -0.2802 0.5838
-2.3064 -0.4926 0.5932
-2.3087 -0.7137 0.6078
-2.3111 -0.9479 0.6283
-2.3137 -1.2006 0.6556
-2.3166 -1.4786 0.6912
-1.0957 -0.8460 0.3482
-1.0103 -0.9354 0.3463
-0.9182 -1.0169 0.3446
-0.8201 -1.0900 0.3431
-0.7167 -1.1543 0.3417
-0.6087 -1.2096 0.3406
-0.4968 -1.2556 0.3396
-0.3819 -1.2920 0.3389
-0.2645 -1.3188 0.3383
-0.1455 -1.3357 0.3379
-0.0257 -1.3428 0.3378
0.0944 -1.3399 0.3378
0.2138 -1.3272 0.3381
0.3319 -1.3046 0.3386
0.4480 -1.2722 0.3392
0.5612 -1.2303 0.3401
0.6709 -1.1789 0.3412
0.7764 -1.1184 0.3424
0.8768 -1.0490 0.3439
0.9716 -0.9711 0.3455
1.0599 -0.8850 0.3473
5.3055 -3.6791 1.6238
5.6506 -3.2121 1.6348
5.9570 -2.7139 1.6464
6.2218 -2.1873 1.6587
6.4420 -1.6356 1.6716
6.6150 -1.0623 1.6850
6.7382 -0.4712 1.6989
6.8085 0.1335 1.7127
6.8160 0.7461 1.7245
6.7684 1.3611 1.7364
6.6649 1.9734 1.7482
6.5051 2.5777 1.7599
6.2894 3.1687 1.7713
6.0186 3.7409 1.7823
5.6932 4.2880 1.7926
5.3104 4.8000 1.8004
1.0511 1.1364 0.3893
0.9502 1.2320 0.3913
0.8403 1.3179 0.3931
0.7221 1.3932 0.3947
0.5968 1.4570 0.3960
0.4656 1.5086 0.3971
0.3297 1.5473 0.3979
0.1904 1.5726 0.3984
0.0493 1.5843 0.3987
-0.0924 1.5823 0.3986
-0.2331 1.5664 0.3983
-0.3715 1.5370 0.3977
-0.5062 1.4943 0.3968
-0.6357 1.4390 0.3957
-0.7590 1.3716 0.3943
-0.8748 1.2930 0.3926
-0.9821 1.2040 0.3908
-5.4417 5.5708 1.9586
-2.2811 1.9515 0.7550
-2.2845 1.6250 0.7051
-2.2875 1.3368 0.6664
-2.2902 1.0766 0.6365
-2.2926 0.8369 0.6138
-2.2950 0.6120 0.5974
-2.2972 0.3972 0.5863
-2.2994 0.1884 0.5803
-2.3015 -0.0176 0.5789
-2.3036 -0.2243 0.5821
-2.3058 -0.4350 0.5902
-2.3081 -0.6535 0.6033
-2.3104 -0.8837 0.6222
-2.3130 -1.1308 0.6475
-2.3158 -1.4013 0.6808
-2.3189 -1.7035 0.7237
-1.0338 -0.9122 0.3468
-0.9435 -0.9959 0.3450
-0.8469 -1.0712 0.3435
-0.7448 -1.1380 0.3421
-0.6380 -1.1957 0.3409
-0.5271 -1.2442 0.3398
-0.4129 -1.2832 0.3390
-0.2961 -1.3126 0.3384
-0.1775 -1.3321 0.3380
-0.0578 -1.3419 0.3378
0.0623 -1.3417 0.3378
0.1819 -1.3316 0.3380
0.3005 -1.3116 0.3384
0.4172 -1.2818 0.3390
0.5312 -1.2425 0.3399
0.6420 -1.1936 0.3409
0.7486 -1.1355 0.3421
0.8505 -1.0684 0.3435
0.9468 -0.9928 0.3450
1.0369 -0.9088 0.3468
5.2070 -3.7985 1.6210
5.5619 -3.3402 1.6318
5.8790 -2.8501 1.6432
6.1552 -2.3308 1.6554
6.3876 -1.7855 1.6681
6.5734 -1.2176 1.6814
6.7102 -0.6308 1.6951
6.7957 -0.0293 1.7092
6.8194 0.5817 1.7214
6.7866 1.1965 1.7332
6.6981 1.8101 1.7451
6.5534 2.4171 1.7568
6.3526 3.0122 1.7682
6.0964 3.5899 1.7794
5.7860 4.1448 1.7901
5.4177 4.6663 1.7983
1.0764 1.1093 0.3888
0.9782 1.2073 0.3908
0.8705 1.2959 0.3926
0.7545 1.3742 0.3943
0.6310 1.4411 0.3957
0.5012 1.4960 0.3968
0.3664 1.5382 0.3977
0.2279 1.5672 0.3983
0.0871 1.5826 0.3986
-0.0545 1.5842 0.3987
-0.1957 1.5720 0.3984
-0.3348 1.5462 0.3979
-0.4706 1.5070 0.3971
-0.6016 1.4550 0.3960
-0.7267 1.3908 0.3947
-0.8446 1.3151 0.3931
-0.9543 1.2288 0.3913
-1.0548 1.1328 0.3893
-2.2801 2.0472 0.7707
-2.2836 1.7081 0.7172
-2.2867 1.4108 0.6758
-2.2895 1.1439 0.6437
-2.2920 0.8994 0.6193
-2.2944 0.6710 0.6012
-2.2966 0.4539 0.5888
-2.2988 0.2439 0.5814
-2.3009 0.0375 0.5788
-2.3030 -0.1687 0.5808
-2.3052 -0.3781 0.5875
-2.3075 -0.5940 0.5993
-2.3098 -0.8207 0.6165
-2.3123 -1.0627 0.6400
-2.3150 -1.3262 0.6710
-2.3180 -1.6189 0.7111
-1.0569 -0.8885 0.3473
-0.9683 -0.9743 0.3455
-0.8733 -1.0519 0.3439
-0.7727 -1.1210 0.3424
-0.6670 -1.1811 0.3412
-0.5571 -1.2321 0.3401
-0.4437 -1.2737 0.3392
-0.3276 -1.3057 0.3386
-0.2094 -1.3279 0.3381
-0.0899 -1.3402 0.3378
0.0301 -1.3427 0.3378
0.1500 -1.3352 0.3379
0.2689 -1.3179 0.3383
0.3862 -1.2908 0.3389
0.5010 -1.2539 0.3396
0.6127 -1.2076 0.3406
0.7205 -1.1519 0.3417
0.8237 -1.0872 0.3431
0.9216 -1.0138 0.3446
1.0134 -0.9321 0.3463
5.1060 -3.9153 1.6183
5.4706 -3.4661 1.6288
5.7980 -2.9843 1.6401
6.0855 -2.4725 1.6521
6.3299 -1.9338 1.6647
6.5284 -1.3716 1.6778
6.6786 -0.7895 1.6914
6.7780 -0.1915 1.7054
6.8188 0.4176 1.7182
6.8008 1.0319 1.7301
6.7273 1.6463 1.7419
6.5976 2.2556 1.7537
6.4118 2.8544 1.7652
6.1703 3.4373 1.7764
5.8743 3.9989 1.7873
5.5214 4.5301 1.7963
1.1010 1.0816 0.3882
1.0054 1.1819 0.3903
0.9002 1.2732 0.3922
0.7863 1.3543 0.3939
0.6647 1.4244 0.3953
0.5365 1.4826 0.3965
0.4029 1.5282 0.3975
0.2653 1.5608 0.3982
0.1250 1.5798 0.3986
-0.0166 1.5851 0.3987
-0.1580 1.5766 0.3985
-0.2978 1.5544 0.3981
-0.4346 1.5188 0.3973
-0.5671 1.4702 0.3963
-0.6939 1.4091 0.3950
-0.8138 1.3364 0.3935
-0.9258 1.2528 0.3918
-1.0289 1.1594 0.3899
-2.2790 2.1469 0.7875
-2.2827 1.7942 0.7302
-2.2859 1.4869 0.6859
-2.2887 1.2129 0.6515
-2.2913 0.9631 0.6251
-2.2937 0.7309 0.6055
-2.2960 0.5111 0.5916
-2.2982 0.2996 0.5829
-2.3004 0.0926 0.5790
-2.3025 -0.1134 0.5798
-2.3046 -0.3215 0.5853
-2.3068 -0.5354 0.5956
-2.3091 -0.7587 0.6113
-2.3116 -0.9961 0.6331
-2.3142 -1.2532 0.6619
-2.3172 -1.5372 0.6994
-1.0794 -0.8642 0.3478
-0.9927 -0.9521 0.3459
-0.8993 -1.0320 0.3443
-0.8001 -1.1034 0.3428
-0.6957 -1.1659 0.3415
-0.5869 -1.2194 0.3404
-0.4744 -1.2635 0.3394
-0.3589 -1.2981 0.3387
-0.2412 -1.3229 0.3382
-0.1220 -1.3379 0.3379
-0.0020 -1.3430 0.3378
0.1180 -1.3382 0.3379
0.2372 -1.3235 0.3382
0.3550 -1.2990 0.3387
0.4705 -1.2647 0.3394
0.5832 -1.2209 0.3403
0.6921 -1.1677 0.3414
0.7966 -1.1054 0.3427
0.8960 -1.0343 0.3442
0.9895 -0.9547 0.3458
1.0764 -0.8671 0.3476
5.3765 -3.5896 1.6259
5.7142 -3.1162 1.6370
6.0127 -2.6122 1.6488
6.2688 -2.0804 1.6612
6.4799 -1.5241 1.6742
6.6433 -0.9470 1.6877
6.7565 -0.3529 1.7016
6.8143 0.2539 1.7150
6.8110 0.8673 1.7269
6.7524 1.4822 1.7387
6.6378 2.0934 1.7505
6.4670 2.6955 1.7621
6.2403 3.2832 1.7735
5.9588 3.8510 1.7844
5.6216 4.3916 1.7942
5.2293 4.8969 1.8018
1.0320 1.1559 0.3897
0.9292 1.2497 0.3917
0.8176 1.3336 0.3934
0.6979 1.4067 0.3950
0.5714 1.4682 0.3962
0.4391 1.5173 0.3973
0.3024 1.5534 0.3980
0.1627 1.5760 0.3985
0.0213 1.5850 0.3987
-0.1203 1.5802 0.3986
-0.2607 1.5617 0.3982
-0.3984 1.5296 0.3975
-0.5322 1.4844 0.3966
-0.6606 1.4266 0.3954
-0.7825 1.3570 0.3940
-0.8967 1.2762 0.3923
-1.0022 1.1853 0.3904
-2.2780 2.2512 0.8055
-2.2818 1.8835 0.7441
-2.2851 1.5655 0.6967
-2.2880 1.2835 0.6598
-2.2907 1.0279 0.6315
-2.2931 0.7916 0.6101
-2.2954 0.5690 0.5948
-2.2976 0.3556 0.5848
-2.2998 0.1477 0.5796
-2.3019 -0.0582 0.5791
-2.3040 -0.2654 0.5833
-2.3062 -0.4774 0.5923
-2.3085 -0.6978 0.6066
-2.3109 -0.9309 0.6266
-2.3135 -1.1821 0.6534
-2.3164 -1.4580 0.6884
-2.3196 -1.7678 0.7335
-1.0165 -0.9294 0.3464
-0.9249 -1.0114 0.3447
-0.8272 -1.0851 0.3432
-0.7241 -1.1501 0.3418
-0.6164 -1.2060 0.3406
-0.5048 -1.2526 0.3397
-0.3900 -1.2898 0.3389
-0.2728 -1.3172 0.3383
-0.1540 -1.3348 0.3380
-0.0341 -1.3426 0.3378
0.0859 -1.3405 0.3378
0.2054 -1.3284 0.3381
0.3237 -1.3065 0.3385
0.4399 -1.2748 0.3392
0.5534 -1.2336 0.3400
0.6634 -1.1829 0.3411
0.7691 -1.1230 0.3423
0.8699 -1.0542 0.3438
0.9651 -0.9768 0.3454
1.0539 -0.8913 0.3471
5.2798 -3.7107 1.6231
-2.3016 -0.0321 0.5940
-2.3038 -0.2390 0.5977
-2.3060 -0.4501 0.6063
-2.3082 -0.6692 0.6202
-2.3106 -0.9005 0.6400
-2.3132 -1.1490 0.6666
-2.3160 -1.4214 0.7013
-1.0847 -0.8074 0.3490
-1.0029 -0.8962 0.3471
-0.9144 -0.9774 0.3454
-0.8198 -1.0505 0.3439
-0.7199 -1.1151 0.3425
-0.6154 -1.1710 0.3414
-0.5069 -1.2177 0.3404
-0.3952 -1.2552 0.3396
-0.2810 -1.2833 0.3390
-0.1651 -1.3018 0.3386
-0.0482 -1.3106 0.3385
0.0690 -1.3097 0.3385
0.1858 -1.2992 0.3387
0.3015 -1.2789 0.3391
0.4152 -1.2492 0.3397
0.5264 -1.2100 0.3405
0.6342 -1.1616 0.3415
0.7380 -1.1041 0.3427
0.8369 -1.0380 0.3441
0.9305 -0.9634 0.3456
1.0178 -0.8808 0.3474
5.1068 -3.6764 1.6239
5.4498 -3.2264 1.6344
5.7555 -2.7456 1.6457
6.0209 -2.2368 1.6576
6.2433 -1.7029 1.6701
6.4199 -1.1474 1.6830
6.5485 -0.5741 1.6965
6.6268 0.0131 1.7102
6.6444 0.6089 1.7219
6.6075 1.2079 1.7334
6.5162 1.8050 1.7450
6.3703 2.3952 1.7563
6.1699 2.9733 1.7675
5.9157 3.5338 1.7783
5.6090 4.0716 1.7887
5.2473 4.5774 1.7970
1.0409 1.0863 0.3883
0.9445 1.1809 0.3903
0.8391 1.2663 0.3920
0.7256 1.3415 0.3936
0.6049 1.4057 0.3949
0.4783 1.4581 0.3960
0.3469 1.4982 0.3969
0.2121 1.5254 0.3974
0.0751 1.5394 0.3977
-0.0627 1.5400 0.3978
-0.1998 1.5272 0.3975
-0.3350 1.5012 0.3970
-0.4668 1.4624 0.3961
-0.5939 1.4110 0.3951
-0.7151 1.3479 0.3938
-0.8294 1.2736 0.3922
-0.9356 1.1891 0.3905
-1.0329 1.0954 0.3885
-2.2803 2.0216 0.7865
-2.2838 1.6860 0.7326
-2.2869 1.3911 0.6908
-2.2896 1.1261 0.6585
-2.2922 0.8829 0.6339
-2.2945 0.6554 0.6158
-2.2968 0.4389 0.6035
-2.2989 0.2293 0.5962
-2.3011 0.0230 0.5939
-2.3032 -0.1833 0.5963
-2.3054 -0.3930 0.6035
-2.3076 -0.6096 0.6160
-2.3100 -0.8371 0.6341
-2.3125 -1.0805 0.6587
-2.3152 -1.3457 0.6911
-2.3182 -1.6408 0.7330
-1.0255 -0.8732 0.3476
-0.9387 -0.9565 0.3458
-0.8457 -1.0318 0.3443
-0.7471 -1.0987 0.3429
-0.6437 -1.1569 0.3417
-0.5362 -1.2061 0.3406
-0.4253 -1.2461 0.3398
-0.3118 -1.2767 0.3392
-0.1963 -1.2978 0.3387
-0.0795 -1.3092 0.3385
0.0377 -1.3109 0.3384
0.1547 -1.3029 0.3386
0.2707 -1.2853 0.3390
0.3850 -1.2581 0.3395
0.4969 -1.2214 0.3403
0.6057 -1.1754 0.3412
0.7106 -1.1204 0.3424
0.8110 -1.0565 0.3437
0.9060 -0.9842 0.3452
0.9951 -0.9037 0.3469
1.0774 -0.8155 0.3487
5.3615 -3.3499 1.6315
5.6775 -2.8771 1.6426
5.9540 -2.3755 1.6543
6.1881 -1.8480 1.6667
6.3773 -1.2980 1.6795
6.5190 -0.7290 1.6928
6.6109 -0.1452 1.7065
6.6451 0.4490 1.7188
6.6226 1.0476 1.7304
6.5460 1.6457 1.7419
6.4147 2.2383 1.7533
6.2288 2.8201 1.7645
5.9889 3.3858 1.7755
5.6961 3.9302 1.7860
5.3493 4.4456 1.7950
1.0651 1.0596 0.3877
0.9713 1.1565 0.3897
0.8682 1.2444 0.3916
0.7567 1.3224 0.3932
0.6379 1.3897 0.3946
0.5127 1.4453 0.3958
0.3825 1.4887 0.3967
0.2484 1.5194 0.3973
0.1118 1.5369 0.3977
-0.0259 1.5411 0.3978
-0.1633 1.5319 0.3976
-0.2991 1.5095 0.3971
-0.4319 1.4740 0.3964
-0.5604 1.4260 0.3954
-0.6833 1.3659 0.3941
-0.7996 1.2946 0.3927
-0.9080 1.2127 0.3910
-1.0078 1.1213 0.3891
-2.2793 2.1203 0.8034
-2.2829 1.7712 0.7457
-2.2861 1.4667 0.7010
-2.2889 1.1946 0.6663
-2.2915 0.9462 0.6398
-2.2939 0.7150 0.6201
-2.2962 0.4960 0.6062
-2.2984 0.2849 0.5977
-2.3005 0.0781 0.5940
-2.3026 -0.1279 0.5952
-2.3048 -0.3364 0.6011
-2.3070 -0.5507 0.6121
-2.3093 -0.7749 0.6286
-2.3118 -1.0135 0.6514
-2.3144 -1.2722 0.6816
-2.3174 -1.5584 0.7207
-1.0475 -0.8496 0.3481
-0.9626 -0.9349 0.3463
-0.8711 -1.0124 0.3447
-0.7740 -1.0816 0.3432
-0.6718 -1.1422 0.3420
-0.5654 -1.1938 0.3409
-0.4553 -1.2363 0.3400
-0.3424 -1.2695 0.3393
-0.2273 -1.2931 0.3388
-0.1108 -1.3071 0.3385
0.0063 -1.3114 0.3384
0.1234 -1.3060 0.3385
0.2398 -1.2910 0.3389
0.3546 -1.2663 0.3394
0.4673 -1.2321 0.3401
0.5769 -1.1886 0.3410
0.6830 -1.1360 0.3421
0.7846 -1.0744 0.3433
0.8811 -1.0043 0.3448
0.9719 -0.9260 0.3464
1.0561 -0.8398 0.3482
5.2707 -3.4712 1.6287
5.5967 -3.0066 1.6396
5.8840 -2.5124 1.6511
6.1298 -1.9915 1.6633
6.3312 -1.4472 1.6760
6.4858 -0.8829 1.6892
6.5913 -0.3026 1.7028
6.6420 0.2893 1.7157
6.6339 0.8872 1.7273
6.5719 1.4860 1.7388
6.4552 2.0805 1.7503
6.2839 2.6657 1.7616
6.0584 3.2363 1.7726
5.7796 3.7870 1.7832
5.4479 4.3114 1.7929
1.0886 1.0323 0.3872
0.9973 1.1314 0.3892
0.8966 1.2218 0.3911
0.7873 1.3026 0.3928
0.6703 1.3728 0.3943
0.5468 1.4316 0.3955
0.4178 1.4783 0.3965
0.2846 1.5125 0.3972
0.1486 1.5335 0.3976
0.0110 1.5413 0.3978
-0.1266 1.5357 0.3977
-0.2630 1.5168 0.3973
-0.3967 1.4848 0.3966
-0.5265 1.4400 0.3957
-0.6510 1.3831 0.3945
-0.7692 1.3147 0.3931
-0.8798 1.2356 0.3914
-0.9820 1.1466 0.3896
-1.0748 1.0489 0.3876
-2.2820 1.8597 0.7597
-2.2853 1.5446 0.7118
-2.2882 1.2648 0.6747
-2.2908 1.0107 0.6462
-2.2933 0.7755 0.6248
-2.2956 0.5537 0.6094
-2.2978 0.3409 0.5995
-2.2999 0.1332 0.5945
-2.3021 -0.0727 0.5944
-2.3042 -0.2802 0.5990
-2.3064 -0.4926 0.6086
-2.3087 -0.7137 0.6236
-2.3111 -0.9479 0.6446
-2.3137 -1.2006 0.6727
-2.3166 -1.4786 0.7092
-1.0691 -0.8255 0.3486
-0.9860 -0.9129 0.3468
-0.8962 -0.9925 0.3451
-0.8005 -1.0639 0.3436
-0.6996 -1.1268 0.3423
-0.5942 -1.1809 0.3412
-0.4851 -1.2259 0.3402
-0.3728 -1.2615 0.3395
-0.2583 -1.2877 0.3389
-0.1421 -1.3043 0.3386
-0.0251 -1.3112 0.3384
0.0921 -1.3084 0.3385
0.2088 -1.2959 0.3388
0.3241 -1.2738 0.3392
0.4374 -1.2422 0.3399
0.5479 -1.2012 0.3407
0.6550 -1.1509 0.3418
0.7579 -1.0918 0.3430
0.8558 -1.0239 0.3444
0.9482 -0.9477 0.3460
1.0342 -0.8636 0.3477
5.1773 -3.5902 1.6259
5.5131 -3.1340 1.6366
5.8111 -2.6474 1.6480
6.0683 -2.1334 1.6600
6.2818 -1.5949 1.6726
6.4492 -1.0357 1.6857
6.5680 -0.4593 1.6991
6.6351 0.1301 1.7127
6.6413 0.7270 1.7242
6.5938 1.3260 1.7357
6.4918 1.9221 1.7472
6.3351 2.5104 1.7586
6.1240 3.0854 1.7697
5.8593 3.6419 1.7804
5.5425 4.1745 1.7907
5.1699 4.6729 1.7984
1.0227 1.1057 0.3887
0.9244 1.1985 0.3906
0.8173 1.2820 0.3924
0.7023 1.3551 0.3939
0.5804 1.4170 0.3952
0.4527 1.4670 0.3962
0.3206 1.5046 0.3970
0.1852 1.5292 0.3975
0.0479 1.5405 0.3978
-0.0899 1.5385 0.3977
-0.2267 1.5231 0.3974
-0.3613 1.4946 0.3968
-0.4922 1.4532 0.3960
-0.6183 1.3995 0.3948
-0.7382 1.3341 0.3935
-0.8510 1.2578 0.3919
-0.9555 1.1714 0.3901
-1.0509 1.0758 0.3881
-2.2811 1.9515 0.7747
-2.2845 1.6250 0.7235
-2.2875 1.3368 0.6837
-2.2902 1.0766 0.6531
-2.2926 0.8369 0.6299
-2.2950 0.6120 0.6130
-2.2972 0.3972 0.6016
-2.2994 0.1884 0.5954
-2.3015 -0.0176 0.5940
-2.3036 -0.2243 0.5973
-2.3058 -0.4350 0.6056
-2.3081 -0.6535 0.6191
-2.3104 -0.8837 0.6384
-2.3130 -1.1308 0.6644
-2.3158 -1.4012 0.6985
-1.0902 -0.8008 0.3491
-1.0089 -0.8902 0.3472
-0.9208 -0.9720 0.3455
-0.8267 -1.0456 0.3440
-0.7271 -1.1109 0.3426
-0.6228 -1.1673 0.3415
-0.5146 -1.2148 0.3405
-0.4031 -1.2529 0.3397
-0.2891 -1.2816 0.3391
-0.1733 -1.3008 0.3387
-0.0564 -1.3103 0.3385
0.0608 -1.3101 0.3385
0.1777 -1.3002 0.3387
0.2934 -1.2807 0.3391
0.4073 -1.2516 0.3397
0.5187 -1.2130 0.3405
0.6267 -1.1653 0.3415
0.7308 -1.1085 0.3426
0.8301 -1.0429 0.3440
0.9241 -0.9689 0.3455
1.0119 -0.8869 0.3472
5.0814 -3.7068 1.6232
5.4269 -3.2591 1.6337
5.7353 -2.7804 1.6449
6.0036 -2.2734 1.6567
6.2291 -1.7412 1.6692
6.4091 -1.1872 1.6821
6.5411 -0.6149 1.6955
6.6230 -0.0286 1.7092
6.6449 0.5668 1.7211
6.6118 1.1657 1.7326
6.5244 1.7632 1.7442
6.3823 2.3540 1.7556
6.1857 2.9331 1.7667
5.9353 3.4951 1.7776
5.6323 4.0346 1.7880
5.2744 4.5429 1.7965
1.0474 1.0794 0.3881
0.9516 1.1746 0.3901
0.8468 1.2606 0.3919
0.7338 1.3366 0.3935
0.6136 1.4016 0.3949
0.4874 1.4549 0.3960
0.3563 1.4958 0.3968
0.2216 1.5239 0.3974
0.0847 1.5388 0.3977
-0.0530 1.5404 0.3978
-0.1903 1.5286 0.3975
-0.3256 1.5035 0.3970
-0.4576 1.4655 0.3962
-0.5851 1.4151 0.3952
-0.7068 1.3527 0.3939
-0.8216 1.2792 0.3923
-0.9284 1.1954 0.3906
-1.0263 1.1022 0.3887
-2.2801 2.0472 0.7908
-2.2836 1.7081 0.7359
-2.2867 1.4108 0.6934
-2.2894 1.1439 0.6605
-2.2920 0.8994 0.6354
-2.2944 0.6710 0.6169
-2.2966 0.4539 0.6041
-2.2988 0.2439 0.5966
-2.3009 0.0375 0.5939
-2.3030 -0.1687 0.5959
-2.3052 -0.3781 0.6029
-2.3074 -0.5940 0.6149
-2.3098 -0.8207 0.6326
-2.3123 -1.0627 0.6567
-2.3150 -1.3262 0.6885
-2.3180 -1.6189 0.7297
-1.0313 -0.8670 0.3477
-0.9450 -0.9509 0.3460
-0.8524 -1.0267 0.3444
-0.7542 -1.0943 0.3430
-0.6512 -1.1531 0.3417
-0.5439 -1.2030 0.3407
-0.4333 -1.2436 0.3399
-0.3198 -1.2749 0.3392
-0.2044 -1.2966 0.3387
-0.0878 -1.3087 0.3385
0.0294 -1.3111 0.3384
0.1465 -1.3038 0.3386
0.2626 -1.2868 0.3389
0.3770 -1.2603 0.3395
0.4892 -1.2243 0.3402
0.5982 -1.1789 0.3412
0.7034 -1.1245 0.3423
0.8041 -1.0613 0.3436
0.8995 -0.9895 0.3451
0.9890 -0.9096 0.3468
1.0719 -0.8219 0.3486
5.3379 -3.3820 1.6308
5.6565 -2.9114 1.6418
5.9359 -2.4117 1.6535
6.1731 -1.8859 1.6658
6.3655 -1.3374 1.6786
6.5106 -0.7696 1.6919
6.6061 -0.1866 1.7055
6.6446 0.4070 1.7180
6.6260 1.0054 1.7295
6.5532 1.6037 1.7411
6.4257 2.1968 1.7525
6.2437 2.7796 1.7638
6.0075 3.3467 1.7747
5.7184 3.8927 1.7852
5.3756 4.4105 1.7945
1.0713 1.0525 0.3876
0.9782 1.1499 0.3896
0.8757 1.2385 0.3915
0.7648 1.3173 0.3931
0.6464 1.3853 0.3945
0.5217 1.4418 0.3957
0.3918 1.4861 0.3966
0.2579 1.5177 0.3973
0.1215 1.5361 0.3977
-0.0161 1.5413 0.3978
-0.1537 1.5330 0.3976
-0.2896 1.5115 0.3972
-0.4227 1.4769 0.3965
-0.5515 1.4297 0.3955
-0.6749 1.3705 0.3942
-0.7916 1.2999 0.3928
-0.9007 1.2188 0.3911
-1.0010 1.1280 0.3892
-2.2790 2.1469 0.8080
-2.2827 1.7942 0.7493
-2.2859 1.4869 0.7037
-2.2887 1.2129 0.6685
-2.2913 0.9631 0.6414
-2.2937 0.7309 0.6213
-2.2960 0.5111 0.6070
-2.2982 0.2996 0.5981
-2.3003 0.0926 0.5941
-2.3025 -0.1134 0.5949
-2.3046 -0.3215 0.6005
-2.3068 -0.5354 0.6111
-2.3091 -0.7587 0.6273
-2.3116 -0.9961 0.6496
-2.3142 -1.2532 0.6792
-2.3172 -1.5371 0.7176
-1.0533 -0.8433 0.3482
-0.9688 -0.9292 0.3464
-0.8778 -1.0072 0.3448
-0.7810 -1.0770 0.3433
-0.6792 -1.1382 0.3421
-0.5730 -1.1905 0.3410
-0.4632 -1.2337 0.3401
-0.3504 -1.2674 0.3394
-0.2355 -1.2917 0.3389
-0.1191 -1.3064 0.3385
-0.0019 -1.3114 0.3384
0.1152 -1.3067 0.3385
0.2316 -1.2923 0.3388
0.3466 -1.2683 0.3393
0.4594 -1.2348 0.3400
0.5693 -1.1920 0.3409
0.6756 -1.1400 0.3420
0.7776 -1.0791 0.3432
0.8745 -1.0095 0.3447
0.9657 -0.9318 0.3463
1.0504 -0.8461 0.3481
5.2464 -3.5027 1.6280
5.5750 -3.0403 1.6388
5.8651 -2.5481 1.6503
6.1139 -2.0290 1.6624
6.3186 -1.4862 1.6751
6.4765 -0.9232 1.6883
6.5855 -0.3439 1.7018
6.6406 0.2474 1.7149
6.6363 0.8451 1.7264
6.5780 1.4439 1.7380
6.4652 2.0389 1.7495
6.2977 2.6250 1.7608
6.0760 3.1968 1.7718
5.8009 3.7490 1.7825
5.4733 4.2757 1.7924
1.0946 1.0250 0.3870
1.0041 1.1247 0.3891
0.9040 1.2158 0.3910
0.7953 1.2972 0.3927
0.6788 1.3682 0.3942
0.5556 1.4278 0.3954
0.4270 1.4755 0.3964
0.2941 1.5105 0.3971
0.1582 1.5325 0.3976
0.0207 1.5412 0.3978
-0.1170 1.5365 0.3977
-0.2535 1.5185 0.3973
-0.3874 1.4874 0.3967
-0.5175 1.4436 0.3958
-0.6425 1.3875 0.3946
-0.7611 1.3199 0.3932
-0.8723 1.2415 0.3916
-0.9751 1.1532 0.3897
-1.0686 1.0560 0.3877
-2.2818 1.8835 0.7636
-2.2851 1.5655 0.7148
-2.2880 1.2835 0.6770
-2.2907 1.0279 0.6479
-2.2931 0.7916 0.6260
-2.2954 0.5690 0.6103
-2.2976 0.3556 0.6000
-2.2998 0.1477 0.5947
-2.3019 -0.0582 0.5942
-2.3040 -0.2654 0.5985
-2.3062 -0.4774 0.6078
-2.3085 -0.6978 0.6224
-2.3109 -0.9309 0.6430
-2.3135 -1.1821 0.6705
-2.3164 -1.4580 0.7063
-1.0747 -0.8190 0.3487
-0.9920 -0.9069 0.3469
-0.9027 -0.9871 0.3452
-0.8074 -1.0592 0.3437
-0.7069 -1.1227 0.3424
-0.6018 -1.1774 0.3412
-0.4929 -1.2230 0.3403
-0.3808 -1.2593 0.3395
-0.2664 -1.2862 0.3390
-0.1503 -1.3034 0.3386
-0.0333 -1.3110 0.3384
0.0839 -1.3089 0.3385
0.2006 -1.2971 0.3387
0.3160 -1.2757 0.3392
0.4295 -1.2447 0.3398
0.5403 -1.2044 0.3406
0.6476 -1.1548 0.3417
0.7508 -1.0962 0.3429
0.8491 -1.0290 0.3443
0.9419 -0.9534 0.3459
1.0284 -0.8698 0.3476
5.1523 -3.6211 1.6252
-2.3016 -0.0321 0.6092
-2.3038 -0.2390 0.6130
-2.3060 -0.4501 0.6218
-2.3082 -0.6692 0.6360
-2.3106 -0.9005 0.6563
-2.3132 -1.1490 0.6835
-2.3160 -1.4214 0.7192
-1.0589 -0.7882 0.3494
-0.9792 -0.8750 0.3475
-0.8929 -0.9544 0.3459
-0.8006 -1.0259 0.3444
-0.7031 -1.0891 0.3431
-0.6010 -1.1437 0.3419
-0.4951 -1.1895 0.3410
-0.3861 -1.2262 0.3402
-0.2745 -1.2537 0.3396
-0.1613 -1.2717 0.3393
-0.0471 -1.2804 0.3391
0.0674 -1.2795 0.3391
0.1816 -1.2692 0.3393
0.2945 -1.2494 0.3397
0.4056 -1.2203 0.3403
0.5142 -1.1819 0.3411
0.6194 -1.1345 0.3421
0.7207 -1.0784 0.3433
0.8173 -1.0136 0.3446
0.9086 -0.9407 0.3461
0.9937 -0.8600 0.3478
1.0722 -0.7718 0.3496
5.3201 -3.1496 1.6362
5.6176 -2.6799 1.6472
5.8757 -2.1828 1.6588
6.0915 -1.6615 1.6710
6.2627 -1.1193 1.6837
6.3869 -0.5599 1.6968
6.4620 0.0128 1.7102
6.4780 0.5937 1.7216
6.4410 1.1775 1.7329
6.3510 1.7592 1.7441
6.2077 2.3341 1.7552
6.0114 2.8969 1.7660
5.7629 3.4425 1.7765
5.4633 3.9658 1.7866
1.0980 0.9578 0.3856
1.0135 1.0577 0.3877
0.9195 1.1496 0.3896
0.8168 1.2326 0.3913
0.7062 1.3057 0.3929
0.5887 1.3680 0.3942
0.4655 1.4190 0.3952
0.3376 1.4579 0.3960
0.2063 1.4842 0.3966
0.0730 1.4978 0.3969
-0.0610 1.4984 0.3969
-0.1945 1.4860 0.3966
-0.3260 1.4608 0.3961
-0.4542 1.4231 0.3953
-0.5780 1.3732 0.3943
-0.6960 1.3119 0.3930
-0.8073 1.2397 0.3915
-0.9108 1.1576 0.3898
-1.0056 1.0665 0.3879
-2.2803 2.0216 0.8065
-2.2838 1.6860 0.7513
-2.2869 1.3911 0.7084
-2.2896 1.1261 0.6753
-2.2922 0.8829 0.6501
-2.2945 0.6554 0.6315
-2.2968 0.4389 0.6188
-2.2989 0.2293 0.6114
-2.3011 0.0230 0.6090
-2.3032 -0.1833 0.6115
-2.3054 -0.3930 0.6189
-2.3076 -0.6096 0.6317
-2.3100 -0.8371 0.6502
-2.3125 -1.0805 0.6755
-2.3152 -1.3457 0.7087
-1.0790 -0.7637 0.3499
-1.0012 -0.8525 0.3480
-0.9166 -0.9339 0.3463
-0.8259 -1.0076 0.3448
-0.7297 -1.0730 0.3434
-0.6288 -1.1300 0.3422
-0.5238 -1.1781 0.3412
-0.4155 -1.2173 0.3404
-0.3046 -1.2472 0.3398
-0.1917 -1.2678 0.3393
-0.0777 -1.2790 0.3391
0.0368 -1.2807 0.3391
0.1511 -1.2729 0.3392
0.2644 -1.2556 0.3396
0.3761 -1.2290 0.3401
0.4854 -1.1931 0.3409
0.5916 -1.1481 0.3418
0.6941 -1.0942 0.3429
0.7920 -1.0318 0.3442
0.8847 -0.9610 0.3457
0.9716 -0.8823 0.3473
1.0519 -0.7961 0.3491
5.2342 -3.2704 1.6334
5.5418 -2.8084 1.6442
5.8106 -2.3183 1.6557
6.0381 -1.8032 1.6677
6.2215 -1.2663 1.6803
6.3584 -0.7111 1.6933
6.4468 -0.1416 1.7066
6.4790 0.4378 1.7186
6.4561 1.0212 1.7298
6.3803 1.6040 1.7411
6.2513 2.1812 1.7522
6.0691 2.7478 1.7631
5.8344 3.2985 1.7738
5.5483 3.8283 1.7840
5.2112 4.3308 1.7932
1.0371 1.0317 0.3871
0.9456 1.1259 0.3891
0.8451 1.2113 0.3909
0.7365 1.2871 0.3925
0.6208 1.3524 0.3938
0.4990 1.4065 0.3950
0.3722 1.4487 0.3958
0.2417 1.4784 0.3965
0.1088 1.4955 0.3968
-0.0252 1.4995 0.3969
-0.1589 1.4906 0.3967
-0.2910 1.4688 0.3963
-0.4203 1.4344 0.3956
-0.5454 1.3877 0.3946
-0.6650 1.3294 0.3934
-0.7782 1.2601 0.3919
-0.8839 1.1805 0.3903
-0.9811 1.0917 0.3885
-1.0691 0.9945 0.3864
-2.2829 1.7712 0.7647
-2.2861 1.4667 0.7188
-2.2889 1.1946 0.6833
-2.2915 0.9462 0.6561
-2.2939 0.7150 0.6359
-2.2962 0.4960 0.6217
-2.2984 0.2849 0.6129
-2.3005 0.0781 0.6092
-2.3026 -0.1279 0.6103
-2.3048 -0.3364 0.6164
-2.3070 -0.5507 0.6277
-2.3093 -0.7749 0.6447
-2.3118 -1.0135 0.6680
-2.3144 -1.2722 0.6990
-2.3174 -1.5584 0.7391
-1.0227 -0.8295 0.3485
-0.9399 -0.9129 0.3468
-0.8507 -0.9887 0.3452
-0.7559 -1.0563 0.3438
-0.6562 -1.1156 0.3425
-0.5522 -1.1661 0.3415
-0.4448 -1.2077 0.3406
-0.3345 -1.2401 0.3399
-0.2221 -1.2632 0.3394
-0.1083 -1.2769 0.3392
0.0062 -1.2812 0.3391
0.1206 -1.2759 0.3392
0.2342 -1.2612 0.3395
0.3464 -1.2370 0.3400
0.4564 -1.2036 0.3407
0.5636 -1.1610 0.3415
0.6671 -1.1095 0.3426
0.7663 -1.0493 0.3439
0.8605 -0.9807 0.3453
0.9489 -0.9041 0.3469
1.0311 -0.8199 0.3486
5.1457 -3.3889 1.6306
5.4631 -2.9348 1.6412
5.7426 -2.4520 1.6525
5.9814 -1.9433 1.6644
6.1768 -1.4119 1.6769
6.3264 -0.8612 1.6897
6.4281 -0.2951 1.7030
6.4763 0.2821 1.7156
6.4674 0.8650 1.7268
6.4057 1.4484 1.7381
6.2910 2.0276 1.7493
6.1230 2.5975 1.7602
5.9023 3.1530 1.7710
5.6299 3.6889 1.7813
5.3072 4.2000 1.7912
1.0599 1.0052 0.3866
0.9710 1.1015 0.3886
0.8728 1.1894 0.3904
0.7663 1.2679 0.3921
0.6524 1.3360 0.3935
0.5321 1.3932 0.3947
0.4065 1.4386 0.3956
0.2769 1.4717 0.3963
0.1445 1.4922 0.3968
0.0107 1.4997 0.3969
-0.1232 1.4943 0.3968
-0.2559 1.4759 0.3964
-0.3860 1.4448 0.3958
-0.5124 1.4014 0.3949
-0.6336 1.3461 0.3937
-0.7487 1.2796 0.3924
-0.8564 1.2028 0.3908
-0.9560 1.1163 0.3890
-1.0465 1.0213 0.3870
-2.2820 1.8597 0.7791
-2.2853 1.5446 0.7300
-2.2882 1.2648 0.6919
-2.2908 1.0107 0.6627
-2.2933 0.7755 0.6407
-2.2956 0.5537 0.6249
-2.2978 0.3409 0.6148
-2.2999 0.1332 0.6097
-2.3021 -0.0727 0.6095
-2.3042 -0.2802 0.6143
-2.3064 -0.4926 0.6242
-2.3087 -0.7137 0.6395
-2.3111 -0.9479 0.6611
-2.3137 -1.2006 0.6899
-2.3166 -1.4786 0.7273
-1.0438 -0.8059 0.3490
-0.9627 -0.8913 0.3472
-0.8751 -0.9692 0.3456
-0.7818 -1.0390 0.3441
-0.6833 -1.1006 0.3428
-0.5804 -1.1535 0.3417
-0.4738 -1.1975 0.3408
-0.3642 -1.2324 0.3401
-0.2523 -1.2580 0.3396
-0.1388 -1.2742 0.3392
-0.0245 -1.2810 0.3391
0.0900 -1.2782 0.3391
0.2039 -1.2660 0.3394
0.3166 -1.2444 0.3398
0.4273 -1.2134 0.3405
0.5352 -1.1733 0.3413
0.6398 -1.1242 0.3423
0.7402 -1.0663 0.3435
0.8358 -0.9999 0.3449
0.9259 -0.9254 0.3464
1.0097 -0.8432 0.3481
1.0868 -0.7536 0.3500
5.3818 -3.0593 1.6383
5.6717 -2.5839 1.6494
5.9216 -2.0818 1.6612
6.1289 -1.5561 1.6735
6.2910 -1.0103 1.6863
6.4057 -0.4479 1.6994
6.4699 0.1269 1.7126
6.4749 0.7087 1.7238
6.4274 1.2925 1.7351
6.3269 1.8733 1.7463
6.1732 2.4462 1.7573
5.9665 3.0060 1.7681
5.7078 3.5477 1.7786
5.3983 4.0659 1.7886
1.0821 0.9781 0.3860
0.9957 1.0765 0.3881
0.8999 1.1667 0.3900
0.7956 1.2478 0.3916
0.6835 1.3189 0.3931
0.5648 1.3790 0.3944
0.4406 1.4276 0.3954
0.3119 1.4641 0.3962
0.1802 1.4879 0.3967
0.0466 1.4990 0.3969
-0.0874 1.4970 0.3969
-0.2206 1.4821 0.3966
-0.3515 1.4543 0.3960
-0.4790 1.4142 0.3951
-0.6017 1.3620 0.3941
-0.7185 1.2985 0.3927
-0.8284 1.2243 0.3912
-0.9302 1.1403 0.3895
-1.0232 1.0475 0.3875
-2.2811 1.9515 0.7945
-2.2845 1.6250 0.7419
-2.2874 1.3368 0.7012
-2.2901 1.0766 0.6697
-2.2926 0.8369 0.6459
-2.2950 0.6120 0.6286
-2.2972 0.3972 0.6170
-2.2994 0.1884 0.6106
-2.3015 -0.0176 0.6091
-2.3036 -0.2243 0.6125
-2.3058 -0.4350 0.6210
-2.3081 -0.6535 0.6348
-2.3104 -0.8837 0.6547
-2.3130 -1.1308 0.6814
-2.3158 -1.4012 0.7163
-1.0643 -0.7818 0.3495
-0.9850 -0.8692 0.3477
-0.8992 -0.9491 0.3460
-0.8073 -1.0211 0.3445
-0.7101 -1.0849 0.3432
-0.6084 -1.1402 0.3420
-0.5027 -1.1866 0.3410
-0.3938 -1.2239 0.3403
-0.2825 -1.2520 0.3397
-0.1693 -1.2708 0.3393
-0.0551 -1.2801 0.3391
0.0594 -1.2799 0.3391
0.1735 -1.2702 0.3393
0.2866 -1.2511 0.3397
0.3979 -1.2226 0.3403
0.5066 -1.1849 0.3411
0.6122 -1.1382 0.3420
0.7137 -1.0826 0.3432
0.8107 -1.0185 0.3445
0.9023 -0.9461 0.3460
0.9879 -0.8659 0.3477
1.0669 -0.7783 0.3495
5.2978 -3.1816 1.6355
5.5979 -2.7138 1.6464
5.8588 -2.2186 1.6580
6.0778 -1.6989 1.6701
6.2522 -1.1581 1.6828
6.3798 -0.5998 1.6959
6.4584 -0.0279 1.7092
6.4787 0.5527 1.7208
6.4453 1.1364 1.7321
6.3590 1.7185 1.7433
6.2195 2.2940 1.7544
6.0270 2.8578 1.7653
5.7820 3.4048 1.7758
5.4860 3.9298 1.7859
1.1036 0.9505 0.3855
1.0198 1.0509 0.3875
0.9264 1.1435 0.3895
0.8243 1.2271 0.3912
0.7142 1.3009 0.3928
0.5972 1.3640 0.3941
0.4743 1.4158 0.3952
0.3467 1.4555 0.3960
0.2157 1.4828 0.3966
0.0824 1.4973 0.3969
-0.0516 1.4988 0.3969
-0.1851 1.4873 0.3967
-0.3168 1.4630 0.3962
-0.4453 1.4261 0.3954
-0.5694 1.3771 0.3944
-0.6879 1.3165 0.3931
-0.7997 1.2451 0.3916
-0.9038 1.1637 0.3899
-0.9993 1.0732 0.3881
-2.2801 2.0472 0.8110
-2.2836 1.7081 0.7547
-2.2867 1.4108 0.7111
-2.2894 1.1439 0.6773
-2.2920 0.8994 0.6516
-2.2943 0.6710 0.6326
-2.2966 0.4539 0.6196
-2.2988 0.2439 0.6118
-2.3009 0.0375 0.6090
-2.3030 -0.1687 0.6111
-2.3052 -0.3781 0.6182
-2.3074 -0.5940 0.6306
-2.3098 -0.8207 0.6487
-2.3123 -1.0627 0.6735
-2.3150 -1.3262 0.7061
-1.0842 -0.7572 0.3500
-1.0069 -0.8465 0.3481
-0.9227 -0.9285 0.3464
-0.8324 -1.0027 0.3449
-0.7366 -1.0687 0.3435
-0.6360 -1.1263 0.3423
-0.5313 -1.1750 0.3413
-0.4232 -1.2148 0.3405
-0.3125 -1.2454 0.3398
-0.1997 -1.2667 0.3394
-0.0858 -1.2785 0.3391
0.0287 -1.2809 0.3391
0.1431 -1.2737 0.3392
0.2565 -1.2571 0.3396
0.3683 -1.2312 0.3401
0.4778 -1.1959 0.3408
0.5843 -1.1516 0.3417
0.6870 -1.0983 0.3428
0.7853 -1.0364 0.3441
0.8784 -0.9663 0.3456
0.9657 -0.8881 0.3472
1.0465 -0.8024 0.3490
5.2112 -3.3017 1.6327
5.5213 -2.8418 1.6434
5.7930 -2.3537 1.6548
6.0235 -1.8402 1.6668
6.2100 -1.3047 1.6794
6.3504 -0.7507 1.6923
6.4423 -0.1820 1.7056
6.4787 0.3968 1.7178
6.4594 0.9801 1.7291
6.3873 1.5631 1.7403
6.2621 2.1409 1.7514
6.0837 2.7084 1.7624
5.8527 3.2604 1.7730
5.5701 3.7918 1.7833
5.2369 4.2967 1.7927
1.0432 1.0248 0.3870
0.9523 1.1195 0.3890
0.8524 1.2056 0.3908
0.7444 1.2821 0.3924
0.6291 1.3482 0.3937
0.5077 1.4031 0.3949
0.3812 1.4461 0.3958
0.2510 1.4767 0.3964
0.1182 1.4947 0.3968
-0.0157 1.4997 0.3969
-0.1495 1.4917 0.3967
-0.2818 1.4708 0.3963
-0.4113 1.4372 0.3956
-0.5367 1.3914 0.3947
-0.6568 1.3338 0.3935
-0.7705 1.2653 0.3921
-0.8767 1.1864 0.3904
-0.9746 1.0982 0.3886
-1.0633 1.0016 0.3866
-2.2827 1.7942 0.7684
-2.2859 1.4869 0.7217
-2.2887 1.2129 0.6855
-2.2913 0.9630 0.6578
-2.2937 0.7309 0.6371
-2.2960 0.5111 0.6225
-2.2982 0.2996 0.6134
-2.3003 0.0926 0.6093
-2.3025 -0.1134 0.6101
-2.3046 -0.3215 0.6158
-2.3068 -0.5354 0.6267
-2.3091 -0.7587 0.6433
-2.3116 -0.9961 0.6661
-2.3142 -1.2532 0.6965
-2.3172 -1.5371 0.7359
-1.0283 -0.8233 0.3486
-0.9459 -0.9073 0.3469
-0.8572 -0.9836 0.3453
-0.7628 -1.0518 0.3439
-0.6634 -1.1117 0.3426
-0.5597 -1.1629 0.3415
-0.4524 -1.2051 0.3407
-0.3423 -1.2381 0.3400
-0.2300 -1.2619 0.3395
-0.1163 -1.2763 0.3392
-0.0019 -1.2812 0.3391
0.1125 -1.2766 0.3392
0.2263 -1.2625 0.3394
0.3386 -1.2390 0.3399
0.4488 -1.2062 0.3406
0.5561 -1.1643 0.3415
0.6599 -1.1134 0.3425
0.7594 -1.0538 0.3438
0.8540 -0.9858 0.3452
0.9429 -0.9098 0.3468
1.0255 -0.8261 0.3485
5.1220 -3.4197 1.6299
5.4420 -2.9678 1.6405
5.7243 -2.4869 1.6517
5.9660 -1.9799 1.6636
6.1645 -1.4500 1.6760
6.3175 -0.9005 1.6888
6.4225 -0.3354 1.7020
6.4750 0.2413 1.7148
6.4697 0.8239 1.7260
6.4118 1.4074 1.7373
6.3008 1.9871 1.7485
6.1366 2.5578 1.7595
5.9196 3.1145 1.7702
5.6507 3.6519 1.7806
5.3315 4.1649 1.7905
1.0658 0.9981 0.3864
0.9775 1.0950 0.3885
0.8800 1.1835 0.3903
0.7741 1.2627 0.3920
0.6606 1.3316 0.3934
0.5407 1.3895 0.3946
0.4155 1.4358 0.3956
0.2862 1.4698 0.3963
0.1539 1.4911 0.3967
0.0202 1.4996 0.3969
-0.1138 1.4951 0.3968
-0.2466 1.4776 0.3965
-0.3770 1.4474 0.3958
-0.5036 1.4048 0.3950
-0.6253 1.3504 0.3938
-0.7408 1.2847 0.3925
-0.8491 1.2085 0.3909
-0.9493 1.1227 0.3891
-1.0405 1.0282 0.3871
-2.2818 1.8835 0.7830
-2.2851 1.5655 0.7331
-2.2880 1.2835 0.6943
-2.2906 1.0279 0.6645
-2.2931 0.7916 0.6420
-2.2954 0.5690 0.6259
-2.2976 0.3556 0.6153
-2.2998 0.1477 0.6099
-2.3019 -0.0582 0.6094
-2.3040 -0.2654 0.6138
-2.3062 -0.4774 0.6233
-2.3085 -0.6978 0.6382
-2.3109 -0.9309 0.6593
-2.3135 -1.1821 0.6876
-2.3164 -1.4580 0.7244
-1.0492 -0.7996 0.3491
-0.9686 -0.8855 0.3473
-0.8815 -0.9639 0.3457
-0.7885 -1.0344 0.3442
-0.6904 -1.0965 0.3429
-0.5878 -1.1500 0.3418
-0.4814 -1.1947 0.3409
-0.3720 -1.2302 0.3401
-0.2603 -1.2565 0.3396
-0.1469 -1.2734 0.3392
-0.0326 -1.2808 0.3391
0.0820 -1.2787 0.3391
0.1960 -1.2672 0.3393
0.3087 -1.2462 0.3398
0.4195 -1.2159 0.3404
0.5277 -1.1764 0.3412
0.6325 -1.1279 0.3422
0.7333 -1.0706 0.3434
0.8292 -1.0048 0.3448
0.9197 -0.9309 0.3463
1.0041 -0.8492 0.3480
1.0816 -0.7602 0.3499
-2.3016 -0.0321 0.6244
-2.3038 -0.2390 0.6283
-2.3060 -0.4501 0.6373
-2.3082 -0.6692 0.6519
-2.3106 -0.9005 0.6727
-2.3132 -1.1490 0.7006
-2.3160 -1.4214 0.7371
-1.0343 -0.7698 0.3497
-0.9565 -0.8548 0.3480
-0.8723 -0.9324 0.3463
-0.7822 -1.0024 0.3449
-0.6870 -1.0642 0.3436
-0.5873 -1.1177 0.3425
-0.4839 -1.1625 0.3415
-0.3773 -1.1984 0.3408
-0.2683 -1.2253 0.3402
-0.1577 -1.2430 0.3399
-0.0460 -1.2514 0.3397
0.0659 -1.2506 0.3397
0.1774 -1.2405 0.3399
0.2879 -1.2211 0.3403
0.3964 -1.1926 0.3409
0.5025 -1.1550 0.3417
0.6053 -1.1087 0.3426
0.7042 -1.0537 0.3438
0.7986 -0.9904 0.3451
0.8876 -0.9190 0.3466
0.9707 -0.8400 0.3482
1.0472 -0.7539 0.3500
5.1961 -3.0762 1.6379
5.4858 -2.6170 1.6487
5.7368 -2.1312 1.6600
5.9466 -1.6220 1.6719
6.1126 -1.0925 1.6843
6.2326 -0.5464 1.6971
6.3047 0.0124 1.7102
6.3193 0.5792 1.7213
6.2822 1.1484 1.7323
6.1934 1.7156 1.7432
6.0527 2.2758 1.7540
5.8605 2.8242 1.7646
5.6173 3.3556 1.7749
5.3245 3.8651 1.7847
1.0698 0.9333 0.3851
0.9874 1.0305 0.3871
0.8957 1.1199 0.3890
0.7956 1.2006 0.3907
0.6878 1.2716 0.3921
0.5733 1.3322 0.3934
0.4532 1.3817 0.3944
0.3287 1.4195 0.3952
0.2009 1.4452 0.3958
0.0711 1.4583 0.3960
-0.0594 1.4589 0.3961
-0.1893 1.4469 0.3958
-0.3174 1.4224 0.3953
-0.4423 1.3857 0.3946
-0.5628 1.3372 0.3935
-0.6778 1.2776 0.3923
-0.7863 1.2075 0.3909
-0.8872 1.1276 0.3892
-0.9797 1.0390 0.3874
-1.0630 0.9424 0.3854
-2.2838 1.6860 0.7700
-2.2869 1.3911 0.7261
-2.2896 1.1261 0.6921
-2.2922 0.8829 0.6663
-2.2945 0.6554 0.6473
-2.2968 0.4389 0.6343
-2.2989 0.2293 0.6267
-2.3011 0.0230 0.6242
-2.3032 -0.1833 0.6267
-2.3054 -0.3930 0.6344
-2.3076 -0.6096 0.6474
-2.3099 -0.8371 0.6665
-2.3125 -1.0805 0.6924
-2.3152 -1.3457 0.7264
-1.0539 -0.7459 0.3502
-0.9780 -0.8327 0.3484
-0.8954 -0.9124 0.3468
-0.8069 -0.9844 0.3453
-0.7130 -1.0485 0.3439
-0.6144 -1.1042 0.3428
-0.5119 -1.1513 0.3418
-0.4061 -1.1897 0.3410
-0.2977 -1.2190 0.3404
-0.1874 -1.2391 0.3399
-0.0759 -1.2501 0.3397
0.0360 -1.2517 0.3397
0.1477 -1.2441 0.3398
0.2585 -1.2272 0.3402
0.3676 -1.2011 0.3407
0.4744 -1.1660 0.3414
0.5782 -1.1219 0.3424
0.6782 -1.0692 0.3435
0.7738 -1.0081 0.3447
0.8643 -0.9389 0.3462
0.9491 -0.8619 0.3478
1.0274 -0.7776 0.3495
5.1124 -3.1942 1.6352
5.4119 -2.7426 1.6457
5.6736 -2.2636 1.6569
5.8946 -1.7604 1.6687
6.0726 -1.2360 1.6810
6.2051 -0.6939 1.6937
6.2902 -0.1381 1.7067
6.3206 0.4271 1.7184
6.2972 0.9961 1.7294
6.2222 1.5643 1.7403
6.0955 2.1269 1.7512
5.9169 2.6789 1.7618
5.6873 3.2153 1.7722
5.4076 3.7312 1.7821
1.0903 0.9061 0.3845
1.0104 1.0052 0.3866
0.9211 1.0968 0.3885
0.8232 1.1799 0.3902
0.7173 1.2536 0.3918
0.6045 1.3171 0.3931
0.4859 1.3696 0.3942
0.3624 1.4106 0.3950
0.2354 1.4395 0.3957
0.1060 1.4560 0.3960
-0.0245 1.4600 0.3961
-0.1547 1.4513 0.3959
-0.2834 1.4301 0.3955
-0.4092 1.3967 0.3948
-0.5311 1.3513 0.3938
-0.6477 1.2946 0.3927
-0.7580 1.2272 0.3913
-0.8610 1.1499 0.3897
-0.9558 1.0635 0.3879
-1.0417 0.9690 0.3859
-2.2829 1.7712 0.7838
-2.2861 1.4667 0.7368
-2.2889 1.1946 0.7003
-2.2915 0.9462 0.6725
-2.2939 0.7150 0.6518
-2.2962 0.4960 0.6372
-2.2984 0.2849 0.6282
-2.3005 0.0781 0.6244
-2.3026 -0.1279 0.6256
-2.3048 -0.3364 0.6318
-2.3070 -0.5507 0.6434
-2.3093 -0.7749 0.6607
-2.3118 -1.0135 0.6847
-2.3144 -1.2722 0.7164
-1.0730 -0.7215 0.3507
-0.9990 -0.8102 0.3489
-0.9181 -0.8918 0.3472
-0.8311 -0.9659 0.3456
-0.7386 -1.0321 0.3443
-0.6412 -1.0901 0.3431
-0.5397 -1.1396 0.3420
-0.4347 -1.1803 0.3412
-0.3269 -1.2120 0.3405
-0.2171 -1.2347 0.3400
-0.1058 -1.2481 0.3398
0.0060 -1.2522 0.3397
0.1179 -1.2470 0.3398
0.2289 -1.2326 0.3401
0.3386 -1.2090 0.3406
0.4461 -1.1762 0.3412
0.5507 -1.1346 0.3421
0.6518 -1.0842 0.3431
0.7487 -1.0253 0.3444
0.8406 -0.9582 0.3458
0.9270 -0.8832 0.3473
1.0071 -0.8009 0.3490
1.0803 -0.7115 0.3509
5.3354 -2.8662 1.6428
5.6074 -2.3943 1.6539
5.8396 -1.8972 1.6655
6.0293 -1.3782 1.6776
6.1742 -0.8405 1.6902
6.2722 -0.2880 1.7031
6.3182 0.2752 1.7155
6.3084 0.8437 1.7264
6.2474 1.4126 1.7374
6.1345 1.9772 1.7483
5.9698 2.5325 1.7590
5.7537 3.0736 1.7694
5.4873 3.5954 1.7795
5.1720 4.0930 1.7891
1.0327 0.9793 0.3861
0.9459 1.0730 0.3880
0.8502 1.1585 0.3898
0.7464 1.2348 0.3914
0.6353 1.3011 0.3928
0.5181 1.3566 0.3939
0.3958 1.4008 0.3948
0.2696 1.4330 0.3955
0.1407 1.4528 0.3959
0.0105 1.4602 0.3961
-0.1200 1.4549 0.3960
-0.2492 1.4370 0.3956
-0.3759 1.4068 0.3950
-0.4989 1.3646 0.3941
-0.6170 1.3109 0.3930
-0.7291 1.2463 0.3917
-0.8342 1.1715 0.3901
-0.9313 1.0875 0.3884
-1.0196 0.9950 0.3864
-2.2820 1.8597 0.7985
-2.2853 1.5446 0.7482
-2.2882 1.2647 0.7092
-2.2908 1.0107 0.6792
-2.2933 0.7755 0.6567
-2.2956 0.5537 0.6405
-2.2978 0.3408 0.6301
-2.2999 0.1332 0.6249
-2.3020 -0.0727 0.6247
-2.3042 -0.2802 0.6296
-2.3064 -0.4926 0.6397
-2.3087 -0.7137 0.6555
-2.3111 -0.9479 0.6776
-2.3137 -1.2006 0.7071
-1.0915 -0.6967 0.3513
-1.0195 -0.7871 0.3494
-0.9404 -0.8707 0.3476
-0.8550 -0.9468 0.3460
-0.7639 -1.0152 0.3446
-0.6677 -1.0754 0.3434
-0.5672 -1.1272 0.3423
-0.4631 -1.1703 0.3414
-0.3560 -1.2044 0.3407
-0.2466 -1.2295 0.3401
-0.1357 -1.2454 0.3398
-0.0239 -1.2520 0.3397
0.0880 -1.2493 0.3397
0.1993 -1.2374 0.3400
0.3094 -1.2162 0.3404
0.4176 -1.1859 0.3410
0.5230 -1.1466 0.3418
0.6252 -1.0985 0.3428
0.7232 -1.0418 0.3440
0.8166 -0.9769 0.3454
0.9045 -0.9040 0.3469
0.9863 -0.8236 0.3486
1.0614 -0.7361 0.3504
5.2561 -2.9879 1.6400
5.5384 -2.5232 1.6509
5.7815 -2.0326 1.6623
5.9829 -1.5190 1.6744
6.1400 -0.9860 1.6868
6.2507 -0.4371 1.6997
6.3122 0.1238 1.7125
6.3160 0.6914 1.7235
6.2688 1.2606 1.7345
6.1698 1.8268 1.7454
6.0189 2.3851 1.7561
5.8165 2.9305 1.7667
5.5634 3.4580 1.7768
5.2610 3.9625 1.7866
1.0543 0.9530 0.3855
0.9700 1.0487 0.3875
0.8766 1.1365 0.3893
0.7749 1.2154 0.3910
0.6657 1.2844 0.3924
0.5500 1.3429 0.3936
0.4290 1.3901 0.3946
0.3037 1.4255 0.3954
0.1754 1.4487 0.3958
0.0454 1.4595 0.3961
-0.0851 1.4575 0.3960
-0.2148 1.4430 0.3957
-0.3423 1.4161 0.3952
-0.4664 1.3771 0.3944
-0.5860 1.3264 0.3933
-0.6998 1.2646 0.3920
-0.8068 1.1925 0.3905
-0.9061 1.1108 0.3888
-0.9969 1.0205 0.3870
-2.2811 1.9515 0.8143
-2.2845 1.6250 0.7604
-2.2874 1.3368 0.7187
-2.2901 1.0766 0.6864
-2.2926 0.8369 0.6620
-2.2950 0.6120 0.6443
-2.2972 0.3972 0.6324
-2.2994 0.1884 0.6258
-2.3015 -0.0176 0.6243
-2.3036 -0.2243 0.6278
-2.3058 -0.4350 0.6365
-2.3080 -0.6535 0.6507
-2.3104 -0.8837 0.6710
-2.3130 -1.1308 0.6984
-2.3158 -1.4012 0.7342
-1.0395 -0.7636 0.3499
-0.9622 -0.8490 0.3481
-0.8784 -0.9272 0.3465
-0.7888 -0.9977 0.3450
-0.6939 -1.0601 0.3437
-0.5945 -1.1142 0.3426
-0.4913 -1.1596 0.3416
-0.3849 -1.1962 0.3408
-0.2761 -1.2237 0.3403
-0.1655 -1.2420 0.3399
-0.0539 -1.2511 0.3397
0.0580 -1.2510 0.3397
0.1696 -1.2415 0.3399
0.2801 -1.2228 0.3403
0.3889 -1.1949 0.3408
0.4951 -1.1580 0.3416
0.5982 -1.1122 0.3426
0.6974 -1.0578 0.3437
0.7921 -0.9951 0.3450
0.8815 -0.9243 0.3465
0.9651 -0.8458 0.3481
1.0420 -0.7602 0.3499
5.1743 -3.1074 1.6372
5.4666 -2.6502 1.6479
5.7205 -2.1662 1.6592
5.9332 -1.6585 1.6711
6.1024 -1.1303 1.6834
6.2257 -0.5853 1.6962
6.3012 -0.0272 1.7092
6.3200 0.5391 1.7205
6.2865 1.1084 1.7315
6.2013 1.6758 1.7425
6.0643 2.2367 1.7533
5.8756 2.7861 1.7639
5.6360 3.3188 1.7742
5.3467 3.8300 1.7840
1.0753 0.9262 0.3849
0.9935 1.0239 0.3870
0.9025 1.1139 0.3889
0.8029 1.1952 0.3906
0.6956 1.2669 0.3920
0.5816 1.3283 0.3933
0.4619 1.3786 0.3944
0.3376 1.4172 0.3952
0.2100 1.4438 0.3957
0.0803 1.4578 0.3960
-0.0502 1.4593 0.3961
-0.1802 1.4481 0.3958
-0.3085 1.4245 0.3954
-0.4336 1.3887 0.3946
-0.5545 1.3410 0.3936
-0.6700 1.2822 0.3924
-0.7789 1.2127 0.3910
-0.8804 1.1336 0.3893
-0.9735 1.0455 0.3875
-1.0575 0.9495 0.3855
-2.2836 1.7081 0.7735
-2.2867 1.4108 0.7288
-2.2894 1.1439 0.6942
-2.2920 0.8994 0.6679
-2.2943 0.6710 0.6484
-2.2966 0.4539 0.6350
-2.2988 0.2439 0.6270
-2.3009 0.0375 0.6242
-2.3030 -0.1687 0.6264
-2.3052 -0.3781 0.6336
-2.3074 -0.5940 0.6463
-2.3098 -0.8207 0.6649
-2.3123 -1.0627 0.6903
-2.3150 -1.3262 0.7237
-1.0590 -0.7396 0.3504
-0.9836 -0.8269 0.3485
-0.9015 -0.9070 0.3469
-0.8133 -0.9796 0.3454
-0.7198 -1.0442 0.3440
-0.6215 -1.1006 0.3428
-0.5192 -1.1483 0.3418
-0.4136 -1.1873 0.3410
-0.3054 -1.2172 0.3404
-0.1952 -1.2380 0.3400
-0.0838 -1.2496 0.3397
0.0281 -1.2519 0.3397
0.1398 -1.2449 0.3398
0.2507 -1.2287 0.3401
0.3600 -1.2032 0.3407
0.4670 -1.1687 0.3414
0.5710 -1.1253 0.3423
0.6713 -1.0732 0.3434
0.7672 -1.0127 0.3446
0.8581 -0.9440 0.3461
0.9433 -0.8676 0.3476
1.0221 -0.7838 0.3494
5.0899 -3.2249 1.6345
5.3920 -2.7753 1.6450
5.6565 -2.2982 1.6561
5.8804 -1.7965 1.6679
6.0615 -1.2735 1.6801
6.1973 -0.7326 1.6927
6.2858 -0.1776 1.7057
6.3203 0.3871 1.7176
6.3005 0.9560 1.7286
6.2292 1.5244 1.7395
6.1061 2.0875 1.7504
5.9312 2.6405 1.7611
5.7051 3.1782 1.7714
5.4289 3.6957 1.7814
1.0955 0.8988 0.3844
1.0163 0.9984 0.3865
0.9277 1.0906 0.3884
0.8303 1.1743 0.3901
0.7250 1.2487 0.3917
0.6127 1.3129 0.3930
0.4944 1.3663 0.3941
0.3712 1.4081 0.3950
0.2444 1.4379 0.3956
0.1151 1.4553 0.3960
-0.0153 1.4601 0.3961
-0.1456 1.4524 0.3959
-0.2744 1.4320 0.3955
-0.4005 1.3994 0.3948
-0.5226 1.3549 0.3939
-0.6397 1.2990 0.3928
-0.7504 1.2323 0.3914
-0.8540 1.1557 0.3898
-0.9494 1.0699 0.3880
-1.0359 0.9759 0.3860
-2.2827 1.7942 0.7876
-2.2859 1.4869 0.7397
-2.2887 1.2129 0.7026
-2.2913 0.9630 0.6742
-2.2937 0.7309 0.6530
-2.2960 0.5111 0.6380
-2.2982 0.2996 0.6287
-2.3003 0.0926 0.6245
-2.3025 -0.1134 0.6253
-2.3046 -0.3215 0.6312
-2.3068 -0.5354 0.6424
-2.3091 -0.7587 0.6593
-2.3116 -0.9961 0.6828
-2.3142 -1.2532 0.7139
-1.0779 -0.7151 0.3509
-1.0044 -0.8042 0.3490
-0.9240 -0.8863 0.3473
-0.8374 -0.9609 0.3458
-0.7453 -1.0277 0.3444
-0.6482 -1.0863 0.3431
-0.5469 -1.1364 0.3421
-0.4422 -1.1777 0.3412
-0.3346 -1.2101 0.3406
-0.2248 -1.2334 0.3401
-0.1137 -1.2474 0.3398
-0.0019 -1.2522 0.3397
0.1100 -1.2477 0.3398
0.2212 -1.2339 0.3400
0.3309 -1.2109 0.3405
0.4386 -1.1788 0.3412
