ply
format ascii 1.0
element vertex 2160
property float32 x
property float32 y
property float32 z
end_header
-2.3053 -0.4221 0.3638
-2.3074 -0.6398 0.3717
-2.3095 -0.8690 0.3830
-2.3118 -1.1147 0.3984
-2.3143 -1.3832 0.4185
-2.3171 -1.6827 0.4445
-2.3203 -2.0248 0.4780
-2.3241 -2.4262 0.5215
-6.6353 -8.2982 1.6493
-5.8172 -8.7809 1.6350
-1.0007 -1.8507 0.3266
-0.8276 -1.9235 0.3250
-0.6500 -1.9821 0.3238
-0.4691 -2.0263 0.3229
-0.2857 -2.0560 0.3222
-0.1009 -2.0711 0.3219
0.0844 -2.0717 0.3219
0.2692 -2.0577 0.3221
0.4527 -2.0292 0.3227
0.6339 -1.9862 0.3236
0.8117 -1.9288 0.3248
0.9852 -1.8572 0.3263
5.2793 -8.1090 1.5020
6.0306 -7.6667 1.5141
6.7522 -7.1626 1.5280
7.4877 -6.6402 1.5535
6.8998 -5.0953 1.3314
8.5197 -5.1847 1.5481
8.5165 -4.1907 1.4734
8.5136 -3.2813 1.4163
8.5108 -2.4333 1.3741
8.5082 -1.6281 1.3447
8.5057 -0.8506 1.3269
8.5032 -0.0874 1.3200
8.5007 0.6740 1.3237
8.4982 1.4459 1.3381
8.4957 2.2412 1.3639
8.4930 3.0745 1.4021
8.4901 3.9631 1.4544
10.3872 6.0321 1.8646
9.8388 6.9579 1.8706
9.2305 7.8529 1.8812
5.7216 5.8247 1.2674
7.7441 9.4394 1.8953
5.7732 8.4811 1.5926
5.9313 10.6471 1.8919
5.3818 12.0883 2.0540
4.2840 12.5292 2.0554
3.1456 12.8507 2.0537
1.9821 13.0567 2.0500
0.8064 13.1480 2.0448
-0.3695 13.1253 2.0382
-1.5345 12.9943 2.0311
-2.6853 12.7901 2.0287
-3.8125 12.4861 2.0265
-4.9071 12.0836 2.0245
-5.9588 11.5826 2.0219
-6.9586 10.9878 2.0189
-7.8982 10.3048 2.0154
-8.7697 9.5400 2.0115
-2.2819 2.0754 0.4788
-2.2851 1.7322 0.4451
-2.2879 1.4320 0.4190
-2.2904 1.1630 0.3987
-2.3046 0.9217 0.3853
-2.3490 0.7036 0.3806
-2.3730 0.4851 0.3760
-2.3772 0.2679 0.3713
-2.3622 0.0540 0.3668
-2.3288 -0.1552 0.3623
-2.3048 -0.3624 0.3622
-2.3068 -0.5776 0.3691
-2.3089 -0.8032 0.3795
-2.3112 -1.0437 0.3936
-2.3136 -1.3050 0.4123
-2.3163 -1.5948 0.4365
-2.3194 -1.9235 0.4677
-2.3230 -2.3062 0.5081
-6.8590 -8.1495 1.6535
-6.0500 -8.6521 1.6388
-1.0485 -1.8277 0.3271
-0.8767 -1.9045 0.3255
-0.7003 -1.9671 0.3241
-0.5202 -2.0153 0.3231
-0.3375 -2.0491 0.3224
-0.1530 -2.0683 0.3219
0.0323 -2.0730 0.3218
0.2174 -2.0631 0.3220
0.4014 -2.0387 0.3225
0.5832 -1.9997 0.3233
0.7621 -1.9464 0.3245
0.9369 -1.8788 0.3259
5.0635 -8.2220 1.4989
5.8223 -7.7973 1.5106
6.5527 -7.3104 1.5239
7.2778 -6.7882 1.5449
7.0392 -5.4767 1.3845
8.5207 -5.4832 1.5729
8.5174 -4.4603 1.4925
8.5144 -3.5298 1.4307
8.5116 -2.6665 1.3846
8.5089 -1.8510 1.3517
8.5064 -1.0671 1.3308
8.5039 -0.3011 1.3209
8.5014 0.4596 1.3216
8.4989 1.2272 1.3330
8.4964 2.0146 1.3555
8.4937 2.8356 1.3900
8.4909 3.7067 1.4381
10.5233 5.7627 1.8624
10.0028 6.7034 1.8691
9.4109 7.6073 1.8784
6.0052 5.8139 1.2975
7.9728 9.2349 1.8939
7.1169 9.9105 1.8940
6.1984 10.4974 1.8924
5.6825 11.9467 2.0536
4.5965 12.4154 2.0551
3.4687 12.7722 2.0544
2.3108 13.0104 2.0512
1.1373 13.1338 2.0464
-0.0397 13.1433 2.0402
-1.2085 13.0378 2.0325
-2.3641 12.8583 2.0294
-3.4985 12.5809 2.0270
-4.6034 12.2068 2.0251
-5.6681 11.7331 2.0227
-6.6834 11.1641 2.0198
-7.6407 10.5053 2.0164
-8.5321 9.7627 2.0126
-2.2809 2.1816 0.4899
-2.2842 1.8237 0.4537
-2.2871 1.5128 0.4257
-2.2897 1.2360 0.4039
-2.2921 0.9842 0.3872
-2.3386 0.7650 0.3819
-2.3683 0.5464 0.3773
-2.3780 0.3287 0.3726
-2.3683 0.1137 0.3680
-2.3400 -0.0970 0.3635
-2.3042 -0.3032 0.3608
-2.3062 -0.5163 0.3669
-2.3083 -0.7385 0.3762
-2.3105 -0.9743 0.3892
-2.3129 -1.2291 0.4066
-2.3155 -1.5100 0.4291
-2.3185 -1.8265 0.4582
-2.3219 -2.1921 0.4957
-7.0797 -7.9951 1.6577
-6.2806 -8.5180 1.6428
-1.0958 -1.8037 0.3276
-0.9255 -1.8844 0.3259
-0.7503 -1.9509 0.3245
-0.5711 -2.0032 0.3233
-0.3890 -2.0411 0.3225
-0.2049 -2.0644 0.3220
-0.0198 -2.0732 0.3218
0.1655 -2.0674 0.3219
0.3498 -2.0470 0.3224
0.5324 -2.0121 0.3231
0.7122 -1.9628 0.3241
0.8882 -1.8992 0.3255
1.0596 -1.8214 0.3271
5.6117 -7.9229 1.5071
6.3506 -7.4535 1.5200
7.0658 -6.9304 1.5363
6.8729 -5.6301 1.3791
8.5216 -5.7915 1.5994
8.5183 -4.7371 1.5130
8.5152 -3.7835 1.4464
8.5123 -2.9035 1.3961
8.5097 -2.0763 1.3597
8.5071 -1.2850 1.3355
8.5046 -0.5153 1.3226
8.5021 0.2456 1.3203
8.4996 1.0101 1.3287
8.4971 1.7905 1.3480
8.4945 2.6006 1.3790
8.4917 3.4557 1.4231
10.6513 5.4896 1.8601
10.1591 6.4444 1.8675
9.5826 7.3559 1.8752
8.9342 8.2250 1.8851
5.6816 6.2562 1.3118
7.3648 9.7302 1.8943
6.4613 10.3403 1.8927
5.9901 11.8185 2.0568
4.9060 12.2936 2.0547
3.7895 12.6849 2.0550
2.6383 12.9551 2.0523
1.4679 13.1107 2.0479
0.2907 13.1522 2.0421
-0.8816 13.0792 2.0349
-2.0410 12.9180 2.0301
-3.1821 12.6676 2.0275
-4.2966 12.3222 2.0257
-5.3735 11.8760 2.0234
-6.4036 11.3333 2.0207
-7.3780 10.6991 2.0174
-8.2887 9.9795 2.0137
-2.2798 2.2930 0.5019
-2.2833 1.9189 0.4630
-2.2864 1.5962 0.4328
-2.2890 1.3109 0.4095
-2.2915 1.0528 0.3914
-2.3266 0.8263 0.3833
-2.3620 0.6078 0.3786
-2.3772 0.3897 0.3739
-2.3729 0.1737 0.3693
-2.3498 -0.0384 0.3648
-2.3087 -0.2450 0.3604
-2.3056 -0.4557 0.3648
-2.3077 -0.6749 0.3732
-2.3099 -0.9064 0.3852
-2.3122 -1.1552 0.4012
-2.3148 -1.4279 0.4222
-2.3176 -1.7332 0.4492
-2.3209 -2.0834 0.4841
-2.3247 -2.4961 0.5295
-6.5088 -8.3785 1.6469
-5.6862 -8.8505 1.6330
-0.9739 -1.8631 0.3263
-0.7999 -1.9337 0.3248
-0.6218 -1.9900 0.3236
-0.4404 -2.0319 0.3227
-0.2568 -2.0593 0.3221
-0.0719 -2.0722 0.3219
0.1135 -2.0705 0.3219
0.2982 -2.0542 0.3222
0.4813 -2.0234 0.3229
0.6620 -1.9781 0.3238
0.8392 -1.9185 0.3251
1.0119 -1.8447 0.3266
5.3991 -8.0437 1.5038
6.1460 -7.5916 1.5162
6.8625 -7.0779 1.5303
7.6039 -6.5550 1.5584
6.8920 -4.9416 1.3164
8.5192 -5.0219 1.5351
8.5160 -4.0430 1.4633
8.5131 -3.1447 1.4088
8.5104 -2.3045 1.3686
8.5078 -1.5046 1.3411
8.5053 -0.7302 1.3251
8.5028 0.0320 1.3199
8.5003 0.7942 1.3252
8.4978 1.5689 1.3414
8.4952 2.3691 1.3690
8.4925 3.2098 1.4093
8.4896 4.1090 1.4641
10.3076 6.1810 1.8657
9.7439 7.0980 1.8713
9.1263 7.9877 1.8826
5.6782 5.9453 1.2762
7.6138 9.5507 1.8960
5.7085 8.6445 1.6081
5.7803 10.7276 1.8916
5.2122 12.1641 2.0543
4.1079 12.5887 2.0555
2.9642 12.8906 2.0532
1.7980 13.0785 2.0493
0.6215 13.1520 2.0438
-0.5534 13.1114 2.0371
-1.7164 12.9694 2.0308
-2.8640 12.7484 2.0282
-3.9868 12.4296 2.0262
-5.0753 12.0113 2.0241
-6.1194 11.4953 2.0215
-7.1104 10.8862 2.0184
-8.0397 10.1899 2.0148
-8.8998 9.4129 2.0109
-2.2824 2.0180 0.4729
-2.2855 1.6826 0.4406
-2.2883 1.3879 0.4154
-2.2908 1.1230 0.3960
-2.3129 0.8875 0.3846
-2.3541 0.6693 0.3799
-2.3749 0.4508 0.3752
-2.3760 0.2341 0.3706
-2.3581 0.0208 0.3661
-2.3220 -0.1876 0.3616
-2.3051 -0.3957 0.3630
-2.3071 -0.6123 0.3705
-2.3092 -0.8398 0.3814
-2.3115 -1.0832 0.3963
-2.3140 -1.3484 0.4157
-2.3168 -1.6435 0.4409
-2.3199 -1.9796 0.4734
-2.3236 -2.3725 0.5155
-6.7345 -8.2335 1.6512
-5.9202 -8.7247 1.6367
-1.0219 -1.8407 0.3268
-0.8493 -1.9153 0.3252
-0.6722 -1.9756 0.3239
-0.4917 -2.0216 0.3230
-0.3086 -2.0531 0.3223
-0.1239 -2.0700 0.3219
0.0614 -2.0724 0.3218
0.2464 -2.0603 0.3221
0.4301 -2.0335 0.3226
0.6115 -1.9923 0.3235
0.7898 -1.9367 0.3247
0.9639 -1.8669 0.3261
5.1843 -8.1595 1.5006
5.9390 -7.7249 1.5126
6.6645 -7.2284 1.5262
7.3954 -6.7062 1.5497
8.1263 -6.1413 1.5811
8.5201 -5.3152 1.5588
8.5169 -4.3088 1.4816
8.5139 -3.3903 1.4225
8.5111 -2.5358 1.3786
8.5085 -1.7262 1.3477
8.5060 -0.9460 1.3285
8.5035 -0.1817 1.3203
8.5010 0.5793 1.3227
8.4985 1.3492 1.3357
8.4960 2.1408 1.3600
8.4933 2.9686 1.3966
8.4904 3.8492 1.4471
10.4482 5.9137 1.8636
9.9121 6.8462 1.8700
9.3112 7.7453 1.8801
5.8408 5.8158 1.2795
7.8458 9.3500 1.8947
5.8972 8.4602 1.6008
6.0497 10.5820 1.8921
5.5149 12.0268 2.0538
4.4223 12.4800 2.0553
3.2884 12.8172 2.0540
2.1272 13.0374 2.0505
0.9524 13.1429 2.0455
-0.2241 13.1344 2.0391
-1.3905 13.0122 2.0314
-2.5438 12.8212 2.0290
-3.6743 12.5289 2.0268
-4.7735 12.1389 2.0248
-5.8310 11.6499 2.0223
-6.8378 11.0664 2.0193
-7.7852 10.3941 2.0159
-8.6655 9.6390 2.0120
-2.2814 2.1216 0.4836
-2.2847 1.7722 0.4488
-2.2876 1.4673 0.4219
-2.2901 1.1950 0.4010
-2.2976 0.9486 0.3859
-2.3446 0.7307 0.3812
-2.3711 0.5121 0.3765
-2.3777 0.2947 0.3719
-2.3650 0.0803 0.3673
-2.3339 -0.1296 0.3629
-2.3045 -0.3362 0.3615
-2.3065 -0.5505 0.3681
-2.3086 -0.7745 0.3780
-2.3109 -1.0129 0.3917
-2.3133 -1.2712 0.4097
-2.3160 -1.5570 0.4332
-2.3190 -1.8802 0.4634
-2.3225 -2.2552 0.5025
-6.9567 -8.0821 1.6553
-6.1520 -8.5936 1.6406
-1.0694 -1.8173 0.3273
-0.8983 -1.8957 0.3256
-0.7224 -1.9601 0.3243
-0.5427 -2.0101 0.3232
-0.3602 -2.0457 0.3224
-0.1759 -2.0667 0.3220
0.0093 -2.0732 0.3218
0.1945 -2.0651 0.3220
0.3786 -2.0425 0.3225
0.5608 -2.0054 0.3232
0.7401 -1.9538 0.3243
0.9155 -1.8879 0.3257
4.9675 -8.2701 1.4975
5.7296 -7.8533 1.5090
6.4638 -7.3742 1.5222
7.1845 -6.8517 1.5411
6.8807 -5.4769 1.3651
8.5211 -5.6180 1.5843
8.5178 -4.5815 1.5013
8.5147 -3.6410 1.4375
8.5119 -2.7706 1.3895
8.5092 -1.9501 1.3551
8.5067 -1.1631 1.3328
8.5042 -0.3956 1.3215
8.5017 0.3651 1.3209
8.4993 1.1312 1.3310
8.4967 1.9154 1.3520
8.4941 2.7314 1.3850
8.4913 3.5953 1.4314
10.5808 5.6426 1.8614
10.0727 6.5896 1.8684
9.4876 7.4969 1.8770
8.8239 8.3553 1.8863
8.0718 9.1427 1.8932
7.2269 9.8319 1.8941
6.3149 10.4290 1.8925
5.8200 11.8942 2.0555
4.7335 12.3626 2.0549
3.6105 12.7348 2.0547
2.4555 12.9871 2.0517
1.2832 13.1247 2.0470
0.1060 13.1483 2.0411
-1.0644 13.0573 2.0336
-2.2217 12.8857 2.0297
-3.3591 12.6202 2.0272
-4.4684 12.2587 2.0254
-5.5386 11.7970 2.0230
-6.5605 11.2396 2.0202
-7.5255 10.5916 2.0169
-8.4254 9.8591 2.0131
-2.2804 2.2301 0.4951
-2.2838 1.8652 0.4577
-2.2868 1.5493 0.4288
-2.2894 1.2688 0.4063
-2.2918 1.0143 0.3890
-2.3335 0.7921 0.3825
-2.3657 0.5735 0.3779
-2.3778 0.3556 0.3732
-2.3705 0.1401 0.3686
-2.3445 -0.0712 0.3641
-2.3040 -0.2773 0.3602
-2.3060 -0.4895 0.3659
-2.3080 -0.7103 0.3749
-2.3102 -0.9441 0.3874
-2.3126 -1.1962 0.4042
-2.3152 -1.4734 0.4260
-2.3181 -1.7849 0.4541
-2.3214 -2.1435 0.4905
-7.1762 -7.9253 1.6596
-6.3816 -8.4571 1.6446
-5.5546 -8.9185 1.6310
-0.9469 -1.8751 0.3261
-0.7722 -1.9434 0.3246
-0.5935 -1.9975 0.3235
-0.4117 -2.0371 0.3226
-0.2278 -2.0623 0.3221
-0.0428 -2.0729 0.3218
0.1425 -2.0689 0.3219
0.3271 -2.0503 0.3223
0.5099 -2.0173 0.3230
0.6901 -1.9697 0.3240
0.8666 -1.9079 0.3253
1.0386 -1.8318 0.3269
5.5182 -7.9768 1.5056
6.2606 -7.5150 1.5183
6.9719 -6.9916 1.5327
7.7195 -6.4679 1.5633
8.4354 -5.8707 1.5953
8.5187 -4.8618 1.5225
8.5156 -3.8972 1.4537
8.5127 -3.0094 1.4016
8.5100 -2.1766 1.3635
8.5074 -1.3817 1.3379
8.5049 -0.6100 1.3236
8.5024 0.1513 1.3200
8.5000 0.9147 1.3271
8.4974 1.6925 1.3450
8.4948 2.4980 1.3745
8.4921 3.3467 1.4169
10.7052 5.3681 1.8590
10.2256 6.3287 1.8667
9.6560 7.2435 1.8738
9.0199 8.1210 1.8840
5.6752 6.1116 1.2947
7.4748 9.6512 1.8949
6.5759 10.2686 1.8928
5.6281 10.8057 1.8912
5.0415 12.2374 2.0545
3.9303 12.6435 2.0553
2.7823 12.9278 2.0527
1.6136 13.0976 2.0485
0.4366 13.1532 2.0429
-0.7369 13.0945 2.0359
-1.8980 12.9417 2.0304
-3.0419 12.7041 2.0278
-4.1602 12.3706 2.0259
-5.2424 11.9367 2.0237
-6.2787 11.4056 2.0210
-7.2605 10.7825 2.0178
-8.1795 10.0731 2.0142
-9.0281 9.2840 2.0102
-2.2829 1.9621 0.4673
-2.2860 1.6340 0.4362
-2.2887 1.3446 0.4120
-2.2912 1.0836 0.3934
-2.3207 0.8534 0.3838
-2.3587 0.6350 0.3792
-2.3764 0.4167 0.3745
-2.3745 0.2003 0.3699
-2.3536 -0.0123 0.3654
-2.3147 -0.2197 0.3609
-2.3054 -0.4291 0.3640
-2.3074 -0.6472 0.3720
-2.3096 -0.8768 0.3835
-2.3119 -1.1232 0.3990
-2.3144 -1.3925 0.4193
-2.3172 -1.6932 0.4455
-2.3205 -2.0370 0.4793
-2.3242 -2.4407 0.5232
-6.6088 -8.3153 1.6488
-5.7897 -8.7957 1.6346
-0.9951 -1.8534 0.3265
-0.8218 -1.9257 0.3250
-0.6441 -1.9838 0.3238
-0.4631 -2.0275 0.3228
-0.2797 -2.0567 0.3222
-0.0948 -2.0714 0.3219
0.0905 -2.0715 0.3219
0.2753 -2.0570 0.3222
0.4587 -2.0280 0.3228
0.6398 -1.9845 0.3237
0.8174 -1.9267 0.3249
0.9908 -1.8546 0.3264
5.3046 -8.0954 1.5024
6.0549 -7.6511 1.5146
6.7755 -7.1449 1.5285
7.5122 -6.6224 1.5545
6.8924 -5.0584 1.3271
8.5196 -5.1502 1.5453
8.5164 -4.1594 1.4712
8.5135 -3.2525 1.4147
8.5107 -2.4061 1.3729
8.5081 -1.6021 1.3439
8.5056 -0.8253 1.3265
8.5031 -0.0623 1.3200
8.5006 0.6993 1.3240
8.4981 1.4717 1.3388
8.4956 2.2680 1.3649
8.4929 3.1028 1.4036
8.4900 3.9936 1.4564
10.3707 6.0636 1.8648
9.8191 6.9875 1.8707
9.2088 7.8814 1.8815
5.7022 5.8394 1.2669
7.7169 9.4630 1.8954
5.7512 8.5026 1.5934
5.8997 10.6643 1.8918
5.3463 12.1044 2.0541
4.2471 12.5421 2.0555
3.1075 12.8593 2.0536
1.9434 13.0615 2.0498
0.7676 13.1491 2.0446
-0.4081 13.1226 2.0380
-1.5728 12.9893 2.0310
-2.7229 12.7816 2.0286
-3.8492 12.4744 2.0265
-4.9424 12.0686 2.0244
-5.9926 11.5644 2.0218
-6.9906 10.9666 2.0188
-7.9281 10.2808 2.0153
-8.7971 9.5134 2.0114
-2.2820 2.0632 0.4775
-2.2852 1.7217 0.4441
-2.2880 1.4227 0.4182
-2.2905 1.1546 0.3982
-2.3064 0.9145 0.3851
-2.3501 0.6964 0.3805
-2.3734 0.4779 0.3758
-2.3770 0.2608 0.3712
-2.3614 0.0470 0.3666
-2.3274 -0.1621 0.3622
-2.3048 -0.3694 0.3623
-2.3068 -0.5849 0.3694
-2.3090 -0.8108 0.3799
-2.3112 -1.0519 0.3942
-2.3137 -1.3140 0.4130
-2.3164 -1.6049 0.4374
-2.3195 -1.9352 0.4689
-2.3231 -2.3199 0.5096
-6.8329 -8.1673 1.6530
-6.0228 -8.6675 1.6384
-1.0429 -1.8305 0.3270
-0.8710 -1.9068 0.3254
-0.6944 -1.9689 0.3241
-0.5142 -2.0166 0.3231
-0.3314 -2.0499 0.3223
-0.1469 -2.0687 0.3219
0.0384 -2.0729 0.3218
0.2235 -2.0626 0.3220
0.4074 -2.0376 0.3226
0.5892 -1.9982 0.3234
0.7679 -1.9444 0.3245
0.9426 -1.8763 0.3259
5.0889 -8.2090 1.4993
5.8469 -7.7822 1.5110
6.5762 -7.2934 1.5244
7.3026 -6.7711 1.5459
7.0821 -5.4767 1.3897
8.5206 -5.4476 1.5699
8.5173 -4.4283 1.4901
8.5143 -3.5003 1.4290
8.5115 -2.6390 1.3833
8.5088 -1.8248 1.3508
8.5063 -1.0416 1.3303
5.9105 -7.3450 1.5230
6.6012 -6.8487 1.5366
7.2861 -6.3185 1.5580
6.8921 -4.9725 1.3729
8.5193 -5.0559 1.6003
8.5161 -4.0739 1.5250
8.5132 -3.1733 1.4677
8.5105 -2.3315 1.4255
8.5079 -1.5305 1.3965
8.5054 -0.7555 1.3794
8.5029 0.0069 1.3736
8.5004 0.7689 1.3788
8.4979 1.5430 1.3952
8.4953 2.3421 1.4236
8.4926 3.1813 1.4650
8.4897 4.0781 1.5215
9.8549 5.8701 1.8530
9.3328 6.7565 1.8613
8.7399 7.6041 1.8714
5.6722 5.9040 1.3226
7.2836 9.0816 1.8806
5.7069 8.5868 1.6656
5.5610 10.2481 1.8835
1.0203 2.3619 0.4156
3.9691 12.0428 2.0484
2.8748 12.3349 2.0460
1.7588 12.5194 2.0423
0.6324 12.5950 2.0372
-0.4930 12.5603 2.0306
-1.6101 12.4478 2.0276
-2.7119 12.2402 2.0253
-3.7910 11.9402 2.0237
-0.9954 2.3752 0.4160
-5.8410 11.0508 2.0192
-6.7943 10.4698 2.0162
-7.6890 9.8048 2.0129
-8.5176 9.0620 2.0091
-2.2823 2.0300 0.4934
-2.2854 1.6930 0.4595
-2.2882 1.3971 0.4331
-2.2907 1.1314 0.4127
-2.2930 0.8877 0.3972
-2.2952 0.6599 0.3858
-2.2972 0.4431 0.3779
-2.2992 0.2334 0.3733
-2.3011 0.0270 0.3718
-2.3030 -0.1792 0.3732
-2.3050 -0.3887 0.3776
-2.3070 -0.6050 0.3853
-2.3092 -0.8321 0.3965
-2.3114 -1.0748 0.4118
-2.3139 -1.3392 0.4319
-2.3167 -1.6332 0.4579
-2.3198 -1.9677 0.4914
-2.3235 -2.3584 0.5348
-6.5272 -7.9321 1.6594
-5.7455 -8.4138 1.6459
-0.9914 -1.7735 0.3282
-0.8252 -1.8462 0.3267
-0.6546 -1.9052 0.3254
-0.4804 -1.9502 0.3245
-0.3038 -1.9812 0.3238
-0.1255 -1.9982 0.3234
0.0534 -2.0010 0.3234
0.2320 -1.9896 0.3236
0.4094 -1.9642 0.3241
0.5846 -1.9247 0.3249
0.7567 -1.8712 0.3261
0.9247 -1.8040 0.3275
4.9827 -7.8935 1.5079
5.7108 -7.4738 1.5195
6.4104 -6.9941 1.5326
7.0869 -6.4647 1.5496
7.7845 -5.9193 1.5798
8.4462 -5.3038 1.6111
8.5170 -4.3404 1.5442
8.5140 -3.4195 1.4822
8.5112 -2.5632 1.4359
8.5086 -1.7524 1.4034
8.5061 -0.9714 1.3830
8.5036 -0.2068 1.3741
8.5011 0.5541 1.3762
8.4986 1.3235 1.3894
8.4961 2.1142 1.4143
8.4934 2.9405 1.4520
8.4905 3.8191 1.5040
9.9887 5.6147 1.8511
9.4785 6.5055 1.8571
8.9163 7.3724 1.8690
5.8683 5.8087 1.3339
7.5189 8.9069 1.8830
5.9435 8.4732 1.6720
5.8171 10.1059 1.8837
1.0777 2.3319 0.4150
4.2712 11.9416 2.0488
3.1850 12.2637 2.0468
2.0739 12.4785 2.0435
0.9493 12.5848 2.0388
-0.1775 12.5813 2.0326
-1.2972 12.4877 2.0282
-2.4043 12.3085 2.0259
-3.4907 12.0345 2.0242
-0.9367 2.4028 0.4166
-5.5637 11.1982 2.0200
-6.5321 10.6417 2.0171
-7.4440 9.9998 2.0138
-8.2918 9.2782 2.0102
-2.2813 2.1341 0.5046
-2.2846 1.7829 0.4681
-2.2875 1.4768 0.4398
-2.2901 1.2035 0.4179
-2.2924 0.9543 0.4011
-2.2946 0.7226 0.3886
-2.2966 0.5032 0.3798
-2.2986 0.2918 0.3743
-2.3006 0.0849 0.3719
-2.3025 -0.1211 0.3725
-2.3045 -0.3293 0.3760
-2.3065 -0.5433 0.3828
-2.3086 -0.7669 0.3930
-2.3108 -1.0047 0.4070
-2.3132 -1.2623 0.4257
-2.3159 -1.5470 0.4499
-2.3189 -1.8688 0.4811
-2.3224 -2.2417 0.5214
-6.7408 -7.7846 1.6635
-5.9687 -8.2858 1.6496
-1.0372 -1.7507 0.3287
-0.8724 -1.8272 0.3271
-0.7029 -1.8900 0.3257
-0.5296 -1.9390 0.3247
-0.3536 -1.9739 0.3240
-0.1757 -1.9948 0.3235
0.0031 -2.0016 0.3233
0.1819 -1.9942 0.3235
0.3597 -1.9727 0.3239
0.5356 -1.9372 0.3247
0.7087 -1.8876 0.3257
0.8780 -1.8242 0.3270
1.0425 -1.7472 0.3287
5.5089 -7.5978 1.5161
6.2170 -7.1349 1.5288
6.8932 -6.6128 1.5431
7.5918 -6.0796 1.5712
8.2644 -5.4838 1.6022
8.5179 -4.6140 1.5649
8.5148 -3.6708 1.4979
8.5120 -2.7985 1.4475
8.5093 -1.9766 1.4112
8.5068 -1.1887 1.3876
8.5043 -0.4207 1.3755
8.5018 0.3400 1.3745
8.4993 1.1057 1.3846
8.4968 1.8891 1.4061
8.4942 2.7038 1.4400
8.4914 3.5658 1.4878
10.1148 5.3559 1.8489
9.6314 6.2604 1.8557
9.0853 7.1356 1.8662
8.4514 7.9554 1.8750
7.7343 8.7085 1.8815
6.9158 9.3506 1.8788
6.0691 9.9566 1.8837
5.6104 11.3806 2.0497
4.5705 11.8321 2.0490
3.4932 12.1840 2.0475
2.3880 12.4290 2.0446
1.2660 12.5659 2.0402
0.1387 12.5935 2.0345
-0.9834 12.5196 2.0287
-2.0951 12.3693 2.0266
-3.1880 12.1211 2.0247
-4.2538 11.7778 2.0229
-5.2825 11.3384 2.0207
-6.2653 10.8070 2.0180
-7.1939 10.1885 2.0148
-8.0605 9.4887 2.0112
-2.2803 2.2432 0.5167
-2.2837 1.8764 0.4775
-2.2867 1.5591 0.4471
-2.2894 1.2776 0.4235
-2.2918 1.0223 0.4054
-2.2940 0.7862 0.3917
-2.2961 0.5638 0.3819
-2.2981 0.3506 0.3755
-2.3000 0.1428 0.3723
-2.3019 -0.0631 0.3720
-2.3039 -0.2703 0.3747
-2.3059 -0.4824 0.3806
-2.3079 -0.7028 0.3897
-2.3101 -0.9361 0.4027
-2.3125 -1.1875 0.4199
-2.3151 -1.4638 0.4425
-2.3180 -1.7739 0.4715
-2.3213 -2.1307 0.5090
-2.3253 -2.5528 0.5578
-6.1890 -8.1517 1.6534
-1.0825 -1.7267 0.3292
-0.9192 -1.8071 0.3275
-0.7510 -1.8737 0.3261
-0.5787 -1.9266 0.3250
-0.4033 -1.9655 0.3241
-0.2258 -1.9904 0.3236
-0.0472 -2.0011 0.3234
0.1317 -1.9977 0.3234
0.3099 -1.9802 0.3238
0.4864 -1.9486 0.3244
0.6604 -1.9030 0.3254
0.8308 -1.8434 0.3266
0.9968 -1.7702 0.3282
5.3048 -7.7171 1.5128
6.0210 -7.2710 1.5250
6.7067 -6.7654 1.5389
7.3964 -6.2345 1.5627
8.0792 -5.6583 1.5934
8.5188 -4.8952 1.5872
8.5157 -3.9277 1.5149
8.5128 -3.0377 1.4601
8.5101 -2.2034 1.4201
8.5075 -1.4075 1.3930
8.5050 -0.6353 1.3777
8.5025 0.1263 1.3737
8.5000 0.8893 1.3806
8.4975 1.6664 1.3989
8.4949 2.4708 1.4292
8.4922 3.3178 1.4728
8.5052 4.2335 1.5348
9.7768 6.0111 1.8540
9.2461 6.8935 1.8631
8.6383 7.7314 1.8728
5.6692 6.0691 1.3416
7.1440 9.1682 1.8776
6.3139 9.7957 1.8827
5.4164 10.3247 1.8835
0.9879 2.3779 0.4160
3.7992 12.0957 2.0481
2.7007 12.3711 2.0455
1.5823 12.5385 2.0416
0.4554 12.5968 2.0363
-0.6688 12.5447 2.0294
-1.7843 12.4219 2.0273
-2.8831 12.1997 2.0251
-3.9577 11.8841 2.0235
-1.0278 2.3591 0.4157
-5.9943 10.9653 2.0188
-6.9389 10.3708 2.0157
-7.8236 9.6932 2.0123
-8.6412 8.9388 2.0084
-2.2828 1.9738 0.4875
-2.2859 1.6441 0.4549
-2.2886 1.3537 0.4295
-2.2911 1.0918 0.4100
-2.2934 0.8510 0.3952
-2.2955 0.6252 0.3843
-2.2975 0.4098 0.3770
-2.2995 0.2008 0.3729
-2.3014 -0.0053 0.3718
-2.3033 -0.2118 0.3737
-2.3053 -0.4221 0.3786
-2.3074 -0.6398 0.3868
-2.3095 -0.8690 0.3986
-2.3118 -1.1147 0.4146
-2.3143 -1.3832 0.4355
-2.3171 -1.6827 0.4626
-2.3203 -2.0248 0.4975
-2.3241 -2.4262 0.5427
-6.4067 -8.0123 1.6572
-5.6199 -8.4830 1.6438
-0.9657 -1.7859 0.3280
-0.7987 -1.8564 0.3265
-0.6274 -1.9132 0.3253
-0.4528 -1.9560 0.3243
-0.2759 -1.9848 0.3237
-0.0974 -1.9995 0.3234
0.0815 -2.0001 0.3234
0.2599 -1.9865 0.3236
0.4370 -1.9589 0.3242
0.6118 -1.9172 0.3251
0.7833 -1.8616 0.3263
0.9507 -1.7922 0.3277
5.0987 -7.8316 1.5096
5.8227 -7.4024 1.5214
6.5173 -6.9134 1.5348
7.1985 -6.3837 1.5543
7.8910 -5.8273 1.5846
8.5197 -5.1847 1.6111
8.5165 -4.1907 1.5333
8.5136 -3.2813 1.4739
8.5108 -2.4333 1.4300
8.5082 -1.6281 1.3994
8.5057 -0.8506 1.3809
8.5032 -0.0874 1.3737
8.5007 0.6740 1.3775
8.4982 1.4459 1.3926
8.4957 2.2412 1.4194
8.4930 3.0745 1.4591
8.4901 3.9631 1.5136
9.9148 5.7578 1.8522
9.3997 6.6473 1.8598
8.8185 7.5024 1.8704
5.7155 5.8185 1.3176
7.3888 9.0063 1.8819
5.7732 8.4811 1.6574
5.6745 10.1862 1.8836
1.0457 2.3489 0.4153
4.1028 11.9992 2.0486
3.0119 12.3045 2.0464
1.8980 12.5024 2.0428
0.7723 12.5915 2.0379
-0.3539 12.5707 2.0315
-1.4722 12.4664 2.0279
-2.5764 12.2711 2.0255
-3.6588 11.9828 2.0240
-0.9696 2.3876 0.4163
-5.7191 11.1167 2.0195
-6.6792 10.5465 2.0166
-7.5815 9.8916 2.0133
-8.4187 9.1582 2.0096
-2.2818 2.0754 0.4983
-2.2851 1.7322 0.4632
-2.2879 1.4320 0.4360
-2.2904 1.1630 0.4150
-2.2927 0.9169 0.3989
-2.2949 0.6874 0.3870
-2.2970 0.4695 0.3787
-2.2989 0.2591 0.3737
-2.3009 0.0525 0.3718
-2.3028 -0.1535 0.3728
-2.3048 -0.3624 0.3769
-2.3068 -0.5776 0.3842
-2.3089 -0.8032 0.3949
-2.3111 -1.0437 0.4097
-2.3136 -1.3050 0.4291
-2.3163 -1.5948 0.4543
-2.3194 -1.9235 0.4868
-2.3230 -2.3062 0.5288
-6.6217 -7.8676 1.6612
-5.8443 -8.3580 1.6475
-1.0117 -1.7636 0.3284
-0.8461 -1.8380 0.3269
-0.6759 -1.8986 0.3256
-0.5022 -1.9454 0.3246
-0.3258 -1.9782 0.3239
-0.1477 -1.9968 0.3235
0.0312 -2.0014 0.3233
0.2099 -1.9918 0.3235
0.3875 -1.9681 0.3240
0.5630 -1.9303 0.3248
0.7355 -1.8786 0.3259
0.9041 -1.8130 0.3273
1.0678 -1.7339 0.3289
5.6220 -7.5291 1.5179
6.3254 -7.0568 1.5309
6.9982 -6.5274 1.5459
7.6998 -5.9907 1.5760
8.3664 -5.3839 1.6072
8.5174 -4.4603 1.5532
8.5144 -3.5298 1.4889
8.5116 -2.6665 1.4409
8.5089 -1.8510 1.4067
8.5064 -1.0671 1.3849
8.5039 -0.3011 1.3746
8.5014 0.4596 1.3754
8.4989 1.2272 1.3872
8.4964 2.0146 1.4106
8.4937 2.8356 1.4465
8.4909 3.7067 1.4967
10.0453 5.5009 1.8501
9.5469 6.3978 1.8565
8.9920 7.2686 1.8678
5.9983 5.8072 1.3487
7.6147 8.8201 1.8824
6.7875 9.4517 1.8798
5.9288 10.0409 1.8837
1.1027 2.3182 0.4147
4.4036 11.8944 2.0489
3.3212 12.2295 2.0472
2.2126 12.4577 2.0440
1.0891 12.5775 2.0394
-0.0381 12.5877 2.0335
-1.1589 12.5028 2.0284
-2.2681 12.3363 2.0263
-3.3574 12.0737 2.0244
-0.9105 2.4145 0.4169
-5.4400 11.2610 2.0203
-6.4149 10.7155 2.0175
-7.3342 10.0838 2.0143
-8.1904 9.3718 2.0106
-2.2808 2.1816 0.5099
-2.2842 1.8237 0.4722
-2.2871 1.5128 0.4430
-2.2897 1.2360 0.4203
-2.2921 0.9842 0.4030
-2.2943 0.7506 0.3900
-2.2964 0.5298 0.3807
-2.2984 0.3177 0.3748
-2.3003 0.1104 0.3720
-2.3023 -0.0955 0.3722
-2.3042 -0.3032 0.3754
-2.3062 -0.5163 0.3818
-2.3083 -0.7385 0.3915
-2.3105 -0.9743 0.4051
-2.3129 -1.2291 0.4231
-2.3155 -1.5099 0.4466
-2.3185 -1.8265 0.4768
-2.3219 -2.1921 0.5158
-6.8342 -7.7179 1.6653
-6.0664 -8.2274 1.6513
-1.0573 -1.7402 0.3289
-0.8931 -1.8184 0.3273
-0.7241 -1.8830 0.3259
-0.5513 -1.9337 0.3248
-0.3756 -1.9704 0.3240
-0.1978 -1.9930 0.3235
-0.0191 -2.0015 0.3233
0.1597 -1.9959 0.3235
0.3377 -1.9762 0.3239
0.5139 -1.9423 0.3246
0.6874 -1.8945 0.3256
0.8572 -1.8328 0.3269
1.0224 -1.7575 0.3285
5.4191 -7.6510 1.5146
6.1308 -7.1955 1.5271
6.8112 -6.6807 1.5412
7.5059 -6.1486 1.5674
8.1831 -5.5615 1.5983
8.5183 -4.7371 1.5745
8.5152 -3.7835 1.5052
8.5123 -2.9035 1.4529
8.5097 -2.0763 1.4150
8.5071 -1.2850 1.3899
8.5046 -0.5153 1.3764
8.5021 0.2456 1.3740
8.4996 1.0101 1.3827
8.4971 1.7905 1.4028
8.4945 2.6006 1.4351
8.4917 3.4557 1.4810
10.1681 5.2406 1.8479
9.6965 6.1509 1.8550
9.1571 7.0293 1.8649
8.5347 7.8572 1.8740
5.6704 6.2439 1.3625
7.0158 9.2692 1.8779
6.1778 9.8867 1.8833
5.7376 11.3203 2.0502
0.9551 2.3935 0.4163
3.6285 12.1461 2.0478
2.5261 12.4045 2.0450
1.4057 12.5549 2.0408
0.2784 12.5960 2.0353
-0.8447 12.5310 2.0289
-1.9582 12.3935 2.0269
-3.0538 12.1567 2.0249
-4.1235 11.8257 2.0232
-1.0599 2.3424 0.4153
-6.1462 10.8777 2.0183
-7.0819 10.2697 2.0152
-7.9566 9.5797 2.0117
-2.2798 2.2930 0.5223
-2.2833 1.9189 0.4818
-2.2864 1.5962 0.4505
-2.2890 1.3109 0.4261
-2.2915 1.0528 0.4074
-2.2937 0.8147 0.3932
-2.2958 0.5908 0.3830
-2.2978 0.3767 0.3762
-2.2998 0.1684 0.3725
-2.3017 -0.0376 0.3719
-2.3037 -0.2445 0.3742
-2.3056 -0.4557 0.3797
-2.3077 -0.6749 0.3884
-2.3099 -0.9064 0.4008
-2.3122 -1.1552 0.4175
-2.3147 -1.4279 0.4394
-2.3176 -1.7332 0.4675
-2.3209 -2.0834 0.5038
-2.3247 -2.4961 0.5510
-6.2854 -8.0908 1.6551
-1.1024 -1.7158 0.3295
-0.9398 -1.7978 0.3277
-0.7721 -1.8662 0.3263
-0.6002 -1.9208 0.3251
-0.4252 -1.9615 0.3242
-0.2479 -1.9881 0.3236
-0.0694 -2.0006 0.3234
0.1095 -1.9989 0.3234
0.2879 -1.9831 0.3237
0.4647 -1.9533 0.3243
0.6390 -1.9094 0.3253
0.8099 -1.8516 0.3265
0.9765 -1.7800 0.3280
5.2142 -7.7682 1.5114
5.9338 -7.3296 1.5234
6.6235 -6.8313 1.5371
7.3094 -6.3010 1.5589
6.8920 -4.9416 1.3700
8.5192 -5.0219 1.5975
8.5160 -4.0430 1.5229
8.5131 -3.1447 1.4661
8.5104 -2.3045 1.4243
8.5078 -1.5046 1.3957
8.5053 -0.7302 1.3790
8.5028 0.0320 1.3736
8.5003 0.7942 1.3792
8.4978 1.5689 1.3960
8.4952 2.3691 1.4247
8.4925 3.2098 1.4666
8.4896 4.1090 1.5236
9.8386 5.8998 1.8532
9.3148 6.7854 1.8617
8.7187 7.6310 1.8717
5.6716 5.9384 1.3265
7.2547 9.1004 1.8801
5.7085 8.6445 1.6735
5.5307 10.2643 1.8835
1.0135 2.3653 0.4157
3.9334 12.0542 2.0483
2.8382 12.3428 2.0459
1.7217 12.5236 2.0421
0.5952 12.5956 2.0370
-0.5300 12.5572 2.0303
-1.6467 12.4425 2.0275
-2.7479 12.2319 2.0252
-3.8261 11.9286 2.0237
-1.0022 2.3719 0.4160
-5.8733 11.0330 2.0191
-6.8248 10.4491 2.0161
-7.7174 9.7815 2.0127
-8.5438 9.0363 2.0089
-2.2824 2.0180 0.4922
-2.2855 1.6826 0.4585
-2.2883 1.3879 0.4323
-2.2908 1.1230 0.4121
-2.2931 0.8799 0.3968
-2.2952 0.6526 0.3855
-2.2973 0.4361 0.3777
-2.2992 0.2265 0.3732
-2.3012 0.0202 0.3718
-2.3031 -0.1860 0.3733
-2.3051 -0.3957 0.3778
-2.3071 -0.6123 0.3856
-2.3092 -0.8398 0.3969
-2.3115 -1.0832 0.4124
-2.3140 -1.3484 0.4326
-2.3168 -1.6435 0.4589
-2.3199 -1.9796 0.4927
-2.3236 -2.3725 0.5365
-6.5019 -7.9491 1.6590
-5.7192 -8.4285 1.6454
-0.9860 -1.7762 0.3282
-0.8196 -1.8484 0.3266
-0.6489 -1.9069 0.3254
-0.4746 -1.9515 0.3244
-0.2979 -1.9820 0.3238
-0.1196 -1.9985 0.3234
0.0593 -2.0008 0.3234
0.2379 -1.9890 0.3236
0.4152 -1.9631 0.3241
0.5903 -1.9231 0.3250
0.7623 -1.8692 0.3261
0.9302 -1.8015 0.3275
5.0071 -7.8806 1.5083
5.7344 -7.4589 1.5199
6.4329 -6.9773 1.5331
7.1104 -6.4478 1.5506
7.8070 -5.9001 1.5808
8.4674 -5.2823 1.6122
8.5169 -4.3088 1.5419
8.5139 -3.3903 1.4804
8.5111 -2.5358 1.4346
8.5085 -1.7262 1.4025
8.5060 -0.9460 1.3826
8.5035 -0.1817 1.3740
8.5010 0.5793 1.3765
8.4985 1.3492 1.3901
8.4960 2.1408 1.4154
8.4933 2.9686 1.4534
8.4904 3.8492 1.5059
9.9733 5.6449 1.8513
9.4652 6.5375 1.8583
8.8959 7.3998 1.8693
5.8342 5.8091 1.3300
7.4918 8.9281 1.8828
5.8972 8.4602 1.6659
5.7872 10.1229 1.8837
1.0710 2.3355 0.4151
4.2359 11.9540 2.0487
3.1486 12.2725 2.0467
2.0369 12.4837 2.0433
0.9121 12.5864 2.0386
-0.2146 12.5793 2.0324
-1.3341 12.4835 2.0281
-2.4406 12.3009 2.0259
-3.5262 12.0238 2.0242
-0.9436 2.3996 0.4165
-5.5964 11.1812 2.0199
-6.5631 10.6219 2.0170
-7.4730 9.9772 2.0137
-8.3187 9.2531 2.0100
-2.2814 2.1216 0.5033
-2.2847 1.7722 0.4671
-2.2876 1.4673 0.4390
-2.2901 1.1950 0.4173
-2.2925 0.9464 0.4007
-2.2946 0.7152 0.3883
-2.2967 0.4961 0.3796
-2.2987 0.2849 0.3742
-2.3006 0.0781 0.3719
-2.3026 -0.1279 0.3725
-2.3045 -0.3362 0.3762
-2.3065 -0.5505 0.3831
-2.3086 -0.7745 0.3934
-2.3109 -1.0129 0.4076
-2.3133 -1.2712 0.4264
-2.3160 -1.5570 0.4508
-2.3190 -1.8802 0.4823
-2.3225 -2.2551 0.5230
-6.7158 -7.8022 1.6630
-5.9426 -8.3011 1.6492
-1.0319 -1.7534 0.3287
-0.8669 -1.8295 0.3270
-0.6972 -1.8918 0.3257
-0.5239 -1.9403 0.3247
-0.3478 -1.9749 0.3239
-0.1698 -1.9953 0.3235
0.0090 -2.0016 0.3233
0.1878 -1.9937 0.3235
0.3655 -1.9718 0.3240
0.5414 -1.9358 0.3247
0.7143 -1.8858 0.3258
0.8835 -1.8219 0.3271
1.0478 -1.7444 0.3287
5.5328 -7.5835 1.5164
6.2398 -7.1186 1.5292
6.9149 -6.5946 1.5436
7.6146 -6.0611 1.5722
8.2859 -5.4629 1.6033
8.5178 -4.5815 1.5624
8.5147 -3.6410 1.4960
8.5119 -2.7706 1.4460
8.5092 -1.9501 1.4102
8.5067 -1.1631 1.3870
8.5042 -0.3956 1.3753
8.5017 0.3651 1.3747
8.4993 1.1312 1.3851
8.4967 1.9154 1.4070
8.4941 2.7314 1.4414
8.4913 3.5953 1.4896
10.1004 5.3864 1.8492
9.6138 6.2894 1.8559
9.0659 7.1637 1.8666
8.4290 7.9814 1.8752
7.7093 8.7322 1.8817
6.8889 9.3720 1.8790
6.0397 9.9745 1.8837
5.5765 11.3964 2.0496
4.5355 11.8454 2.0490
3.4571 12.1938 2.0475
2.3512 12.4353 2.0444
1.2289 12.5686 2.0401
0.1015 12.5925 2.0343
-1.0203 12.5162 2.0286
-2.1315 12.3625 2.0266
-3.2237 12.1113 2.0246
-4.2884 11.7648 2.0229
-5.3157 11.3223 2.0206
-6.2969 10.7879 2.0179
-7.2235 10.1666 2.0147
-8.0880 9.4642 2.0111
-2.2804 2.2301 0.5153
-2.2838 1.8652 0.4763
-2.2868 1.5493 0.4462
-2.2894 1.2688 0.4228
-2.2918 1.0143 0.4049
-2.2940 0.7787 0.3914
-2.2961 0.5567 0.3817
-2.2981 0.3437 0.3754
-2.3001 0.1360 0.3722
-2.3020 -0.0699 0.3720
-2.3040 -0.2773 0.3749
-2.3060 -0.4895 0.3808
-2.3080 -0.7103 0.3901
-2.3102 -0.9441 0.4032
-2.3126 -1.1962 0.4206
-2.3152 -1.4734 0.4433
-2.3181 -1.7849 0.4726
-2.3214 -2.1435 0.5104
-6.9271 -7.6502 1.6672
-6.1633 -8.1678 1.6530
-1.0772 -1.7296 0.3292
-0.9138 -1.8095 0.3275
-0.7453 -1.8757 0.3261
-0.5729 -1.9281 0.3249
-0.3975 -1.9666 0.3241
-0.2199 -1.9910 0.3236
-0.0413 -2.0012 0.3234
0.1376 -1.9974 0.3234
0.3157 -1.9794 0.3238
0.4922 -1.9473 0.3245
0.6661 -1.9012 0.3254
0.8364 -1.8412 0.3267
1.0022 -1.7676 0.3282
5.3289 -7.7033 1.5132
6.0442 -7.2553 1.5255
6.7287 -6.7477 1.5394
7.4195 -6.2165 1.5637
8.1011 -5.6381 1.5944
8.5187 -4.8618 1.5845
8.5156 -3.8972 1.5129
8.5127 -3.0094 1.4586
8.5100 -2.1766 1.4190
8.5074 -1.3817 1.3923
8.5049 -0.6100 1.3774
8.5024 0.1513 1.3737
8.5000 0.9147 1.3810
8.4974 1.6925 1.3997
8.4948 2.4980 1.4304
8.4921 3.3467 1.4745
10.2198 5.1247 1.8469
9.7601 6.0406 1.8542
9.2276 6.9222 1.8635
8.6167 7.7580 1.8730
5.6686 6.1044 1.3457
7.1151 9.1869 1.8771
6.2854 9.8150 1.8828
5.3859 10.3407 1.8835
0.9810 2.3812 0.4160
3.7633 12.1066 2.0480
2.6640 12.3783 2.0454
1.5452 12.5421 2.0414
0.4181 12.5969 2.0361
-0.7058 12.5411 2.0291
-1.8209 12.4161 2.0272
-2.9190 12.1909 2.0250
-3.9926 11.8721 2.0234
-1.0345 2.3556 0.4156
-6.0263 10.9471 2.0187
-6.9691 10.3497 2.0156
-7.8517 9.6695 2.0122
-8.6670 8.9127 2.0083
-2.2829 1.9621 0.4863
-2.2860 1.6340 0.4539
-2.2887 1.3446 0.4288
-2.2912 1.0836 0.4094
-2.2934 0.8433 0.3947
-2.2956 0.6180 0.3840
-2.2976 0.4028 0.3768
-2.2995 0.1940 0.3728
-2.3015 -0.0121 0.3718
-2.3034 -0.2186 0.3738
-2.3054 -0.4291 0.3788
-2.3074 -0.6472 0.3871
-2.3096 -0.8768 0.3991
-2.3119 -1.1232 0.4152
-2.3144 -1.3925 0.4363
-2.3172 -1.6932 0.4636
-2.3204 -2.0370 0.4988
-2.3242 -2.4407 0.5445
-6.3812 -8.0289 1.6568
-5.5934 -8.4974 1.6434
-0.9602 -1.7884 0.3279
-0.7931 -1.8585 0.3264
-0.6217 -1.9148 0.3252
-0.4470 -1.9572 0.3243
-0.2700 -1.9855 0.3237
-0.0915 -1.9998 0.3234
0.0874 -1.9999 0.3234
0.2658 -1.9859 0.3237
0.4428 -1.9577 0.3242
0.6175 -1.9156 0.3251
0.7889 -1.8595 0.3263
0.9561 -1.7896 0.3278
5.1230 -7.8184 1.5100
5.8461 -7.3872 1.5218
6.5397 -6.8963 1.5353
7.2218 -6.3665 1.5552
6.8924 -5.0584 1.3811
8.5196 -5.1502 1.6082
8.5164 -4.1594 1.5311
8.5135 -3.2525 1.4722
8.5107 -2.4061 1.4287
8.5081 -1.6021 1.3986
8.5056 -0.8253 1.3805
8.5031 -0.0623 1.3737
8.5006 0.6993 1.3779
8.4981 1.4717 1.3933
8.4956 2.2680 1.4205
8.4929 3.1028 1.4607
8.4900 3.9936 1.5157
9.8990 5.7878 1.8524
9.3821 6.6765 1.8602
8.7977 7.5296 1.8707
5.6963 5.8334 1.3171
7.3612 9.0268 1.8816
5.7512 8.5026 1.6583
5.6444 10.2028 1.8836
1.0390 2.3524 0.4154
4.0672 12.0110 2.0485
2.9755 12.3128 2.0463
1.8609 12.5071 2.0427
0.7351 12.5926 2.0377
-0.3909 12.5681 2.0313
-1.5089 12.4616 2.0278
-2.6124 12.2630 2.0255
-3.6940 11.9716 2.0239
-0.9765 2.3843 0.4162
-5.7516 11.0993 2.0195
-6.7099 10.5262 2.0165
-7.6102 9.8686 2.0132
-8.4451 9.1327 2.0094
-2.2820 2.0632 0.4970
-2.2852 1.7217 0.4622
-2.2880 1.4227 0.4352
-2.2905 1.1546 0.4144
-2.2928 0.9091 0.3984
-2.2950 0.6801 0.3867
-2.2970 0.4625 0.3785
-2.2990 0.2523 0.3736
-2.3009 0.0458 0.3718
-2.3029 -0.1603 0.3729
-2.3048 -0.3694 0.3771
-2.3068 -0.5849 0.3844
-2.3090 -0.8108 0.3953
-2.3112 -1.0519 0.4102
-2.3137 -1.3140 0.4298
-2.3164 -1.6049 0.4552
-2.3195 -1.9352 0.4880
-2.3231 -2.3199 0.5304
-6.5966 -7.8849 1.6607
-5.8181 -8.3729 1.6471
-1.0063 -1.7663 0.3284
-0.8405 -1.8402 0.3268
-0.6702 -1.9004 0.3255
-0.4964 -1.9467 0.3245
-0.3199 -1.9790 0.3238
-0.1418 -1.9972 0.3234
0.0371 -2.0013 0.3233
0.2158 -1.9912 0.3236
0.3933 -1.9671 0.3241
0.5687 -1.9288 0.3249
0.7412 -1.8766 0.3259
0.9096 -1.8106 0.3273
1.0731 -1.7310 0.3290
5.6457 -7.5144 1.5183
6.3480 -7.0403 1.5314
7.0219 -6.5108 1.5469
7.7224 -5.9719 1.5770
8.3877 -5.3627 1.6082
8.5173 -4.4283 1.5508
8.5143 -3.5003 1.4871
8.5115 -2.6390 1.4395
8.5088 -1.8248 1.4058
8.5063 -1.0416 1.3844
5.7129 -7.0995 1.5297
6.3787 -6.6178 1.5430
7.0140 -6.0826 1.5585
7.6710 -5.5345 1.5879
8.2902 -4.9199 1.6183
8.5161 -4.0739 1.5848
8.5132 -3.1733 1.5252
8.5105 -2.3315 1.4813
8.5079 -1.5305 1.4511
8.5054 -0.7555 1.4334
8.5029 0.0069 1.4274
8.5004 0.7689 1.4328
8.4979 1.5430 1.4499
8.4953 2.3421 1.4793
8.4926 3.1813 1.5224
8.4897 4.0781 1.5811
9.4252 5.6141 1.8416
8.9361 6.4692 1.8519
8.3655 7.2784 1.8614
5.6657 5.8972 1.3728
6.9340 8.6456 1.8605
5.7069 8.5868 1.7308
5.3298 9.8220 1.8759
0.9768 2.2612 0.4135
0.7746 2.3501 0.4154
2.7574 11.8310 2.0393
1.6871 12.0090 2.0358
0.6067 12.0822 2.0308
-0.4734 12.0614 2.0263
-1.5471 11.9610 2.0246
-2.6065 11.7648 2.0228
-0.7494 2.3602 0.4157
-0.9529 2.2739 0.4139
-5.6148 10.6228 2.0170
-6.5315 10.0648 2.0142
-7.3921 9.4262 2.0109
-8.1893 8.7128 2.0073
-2.2823 2.0300 0.5127
-2.2854 1.6930 0.4775
-2.2882 1.3971 0.4501
-2.2907 1.1314 0.4289
-2.2930 0.8877 0.4128
-2.2952 0.6599 0.4009
-2.2972 0.4431 0.3927
-2.2992 0.2334 0.3879
-2.3011 0.0270 0.3863
-2.3030 -0.1792 0.3878
-2.3050 -0.3887 0.3924
-2.3070 -0.6050 0.4004
-2.3092 -0.8321 0.4120
-2.3114 -1.0748 0.4279
-2.3139 -1.3392 0.4488
-2.3167 -1.6332 0.4758
-2.3198 -1.9677 0.5106
-2.3234 -2.3584 0.5558
-6.3088 -7.6667 1.6667
-5.5557 -8.1358 1.6538
-0.9578 -1.7133 0.3295
-0.7973 -1.7838 0.3280
-0.6325 -1.8410 0.3268
-0.4643 -1.8847 0.3258
-0.2936 -1.9148 0.3252
-0.1213 -1.9313 0.3248
0.0516 -1.9340 0.3248
0.2242 -1.9230 0.3250
0.3956 -1.8983 0.3255
0.5649 -1.8599 0.3263
0.7311 -1.8081 0.3274
0.8934 -1.7428 0.3288
1.0507 -1.6644 0.3304
5.5204 -7.2245 1.5263
6.1948 -6.7589 1.5391
6.8366 -6.2365 1.5534
7.4899 -5.6953 1.5795
8.1204 -5.0992 1.6097
8.5170 -4.3404 1.6047
8.5140 -3.4195 1.5402
8.5112 -2.5632 1.4922
8.5086 -1.7524 1.4583
8.5061 -0.9714 1.4372
8.5036 -0.2068 1.4279
8.5011 0.5541 1.4301
8.4986 1.3235 1.4439
8.4961 2.1142 1.4697
8.4934 2.9405 1.5088
8.4905 3.8191 1.5629
9.5536 5.3702 1.8398
9.0800 6.2319 1.8487
8.5349 7.0570 1.8591
5.8615 5.8020 1.3845
7.1769 8.5018 1.8677
5.9435 8.4732 1.7374
5.5731 9.6819 1.8753
1.0318 2.2327 0.4129
0.8324 2.3272 0.4149
0.6236 2.4013 0.4165
1.9893 11.9695 2.0369
0.9107 12.0724 2.0324
-0.1703 12.0717 2.0267
-1.2465 11.9992 2.0252
-2.3106 11.8284 2.0232
-0.6905 2.3807 0.4161
-0.8967 2.3002 0.4144
-5.3481 10.7643 2.0177
-6.2793 10.2300 2.0150
-7.1564 9.6135 2.0119
-7.9721 8.9204 2.0083
-2.2813 2.1341 0.5244
-2.2846 1.7829 0.4865
-2.2875 1.4768 0.4571
-2.2900 1.2035 0.4343
-2.2924 0.9543 0.4168
-2.2946 0.7226 0.4038
-2.2966 0.5031 0.3947
-2.2986 0.2918 0.3890
-2.3006 0.0849 0.3865
-2.3025 -0.1211 0.3871
-2.3044 -0.3293 0.3908
-2.3065 -0.5433 0.3978
-2.3086 -0.7669 0.4084
-2.3108 -1.0047 0.4230
-2.3132 -1.2623 0.4424
-2.3159 -1.5470 0.4675
-2.3189 -1.8688 0.4999
-2.3224 -2.2417 0.5419
-6.5147 -7.5235 1.6707
-5.7703 -8.0104 1.6573
-1.0019 -1.6911 0.3300
-0.8429 -1.7653 0.3284
-0.6792 -1.8263 0.3271
-0.5119 -1.8738 0.3261
-0.3417 -1.9077 0.3254
-0.1698 -1.9280 0.3249
0.0030 -1.9346 0.3248
0.1758 -1.9274 0.3249
0.3476 -1.9066 0.3253
0.5176 -1.8721 0.3261
0.6848 -1.8240 0.3271
0.8482 -1.7625 0.3284
1.0070 -1.6878 0.3299
5.3256 -7.3449 1.5230
6.0084 -6.8955 1.5353
6.6598 -6.3889 1.5493
7.3060 -5.8507 1.5713
7.9473 -5.2734 1.6011
8.5179 -4.6140 1.6262
8.5148 -3.6708 1.5566
8.5120 -2.7985 1.5042
8.5093 -1.9766 1.4665
8.5068 -1.1887 1.4419
8.5043 -0.4207 1.4294
8.5018 0.3400 1.4283
8.4993 1.1057 1.4388
8.4968 1.8891 1.4612
8.4942 2.7038 1.4964
8.4914 3.5658 1.5460
9.6748 5.1229 1.8377
9.2170 5.9910 1.8454
8.6977 6.8312 1.8566
8.0888 7.6141 1.8648
7.3987 8.3307 1.8704
6.6139 8.9424 1.8671
5.8123 9.5353 1.8746
1.0859 2.2027 0.4123
0.8894 2.3026 0.4144
0.6831 2.3826 0.4161
2.2905 11.9218 2.0379
1.2145 12.0541 2.0338
0.1331 12.0808 2.0281
-0.9449 12.0297 2.0256
-2.0132 11.8857 2.0237
-0.6311 2.3996 0.4165
-0.8397 2.3249 0.4150
-1.0389 2.2298 0.4130
-6.0228 10.3887 2.0158
-6.9158 9.7947 2.0128
-7.7495 9.1225 2.0094
-2.2803 2.2432 0.5370
-2.2837 1.8764 0.4962
-2.2867 1.5590 0.4646
-2.2893 1.2776 0.4401
-2.2918 1.0223 0.4213
-2.2940 0.7862 0.4071
-2.2961 0.5638 0.3969
-2.2981 0.3506 0.3902
-2.3000 0.1428 0.3868
-2.3019 -0.0631 0.3866
-2.3039 -0.2703 0.3894
-2.3059 -0.4824 0.3955
-2.3079 -0.7028 0.4050
-2.3101 -0.9361 0.4184
-2.3125 -1.1875 0.4364
-2.3151 -1.4638 0.4598
-2.3180 -1.7739 0.4900
-2.3213 -2.1307 0.5290
-2.3253 -2.5528 0.5797
-5.9827 -7.8799 1.6609
-1.0457 -1.6679 0.3305
-0.8881 -1.7458 0.3288
-0.7256 -1.8105 0.3274
-0.5592 -1.8618 0.3263
-0.3898 -1.8996 0.3255
-0.2183 -1.9237 0.3250
-0.0456 -1.9341 0.3248
0.1273 -1.9308 0.3248
0.2995 -1.9138 0.3252
0.4701 -1.8831 0.3258
0.6381 -1.8389 0.3268
0.8027 -1.7811 0.3280
0.9629 -1.7101 0.3295
5.1287 -7.4608 1.5198
5.8195 -7.0277 1.5317
6.4802 -6.5370 1.5452
7.1194 -6.0009 1.5631
7.7709 -5.4423 1.5926
8.3835 -4.8174 1.6231
8.5157 -3.9277 1.5743
8.5128 -3.0377 1.5173
8.5101 -2.2034 1.4757
8.5075 -1.4075 1.4476
8.5050 -0.6353 1.4317
8.5025 0.1263 1.4275
8.5000 0.8893 1.4347
8.4975 1.6664 1.4537
8.4949 2.4708 1.4851
8.4922 3.3178 1.5305
8.5052 4.2335 1.5949
9.3504 5.7489 1.8426
8.8526 6.6002 1.8537
8.2681 7.4001 1.8627
5.6625 6.0620 1.3925
6.8218 8.7547 1.8631
6.0446 9.3780 1.8730
5.1923 9.8975 1.8762
0.9457 2.2765 0.4138
0.7420 2.3622 0.4156
2.5904 11.8659 2.0388
1.5179 12.0275 2.0351
0.4368 12.0841 2.0299
-0.6426 12.0523 2.0261
-1.7146 11.9362 2.0243
-0.5711 2.4168 0.4169
-0.7819 2.3480 0.4154
-0.9840 2.2585 0.4136
-5.7621 10.5407 2.0166
-6.6706 9.9697 2.0137
-7.5216 9.3190 2.0104
-8.3083 8.5944 2.0067
-2.2828 1.9738 0.5066
-2.2859 1.6441 0.4727
-2.2886 1.3536 0.4464
-2.2911 1.0918 0.4260
-2.2934 0.8510 0.4106
-2.2955 0.6252 0.3994
-2.2975 0.4098 0.3918
-2.2995 0.2008 0.3875
-2.3014 -0.0053 0.3863
-2.3033 -0.2118 0.3883
-2.3053 -0.4221 0.3934
-2.3074 -0.6398 0.4020
-2.3095 -0.8690 0.4142
-2.3118 -1.1147 0.4308
-2.3143 -1.3832 0.4526
-2.3171 -1.6827 0.4807
-2.3203 -2.0248 0.5170
-2.3241 -2.4262 0.5640
-6.1926 -7.7445 1.6646
-1.0889 -1.6437 0.3310
-0.9329 -1.7253 0.3292
-0.7717 -1.7937 0.3278
-0.6063 -1.8488 0.3266
-0.4376 -1.8903 0.3257
-0.2666 -1.9183 0.3251
-0.0942 -1.9326 0.3248
0.0787 -1.9332 0.3248
0.2512 -1.9200 0.3251
0.4224 -1.8931 0.3256
0.5912 -1.8527 0.3265
0.7569 -1.7987 0.3276
0.9184 -1.7314 0.3290
1.0748 -1.6509 0.3307
5.6282 -7.1552 1.5282
6.2979 -6.6806 1.5412
6.9342 -6.1493 1.5558
7.5915 -5.6061 1.5842
8.2157 -4.9997 1.6145
8.5165 -4.1907 1.5934
8.5136 -3.2813 1.5317
8.5108 -2.4333 1.4860
8.5082 -1.6281 1.4542
8.5057 -0.8506 1.4350
8.5032 -0.0874 1.4275
8.5007 0.6740 1.4315
8.4982 1.4459 1.4471
8.4957 2.2412 1.4750
8.4930 3.0745 1.5163
8.4901 3.9631 1.5729
9.4828 5.5069 1.8408
9.0004 6.3650 1.8505
8.4411 7.1813 1.8604
5.7094 5.8123 1.3677
7.0383 8.5791 1.8628
5.7732 8.4811 1.7223
5.4376 9.7610 1.8757
1.0012 2.2488 0.4132
0.8002 2.3402 0.4152
2.8888 11.8018 2.0397
1.8206 11.9926 2.0363
0.7408 12.0789 2.0315
-0.3397 12.0669 2.0265
-1.4146 11.9788 2.0249
-2.4761 11.7938 2.0230
-0.7235 2.3695 0.4159
-0.9282 2.2857 0.4141
-5.4976 10.6861 2.0173
-6.4208 10.1385 2.0146
-7.2887 9.5096 2.0113
-8.0941 8.8051 2.0077
-2.2818 2.0754 0.5178
-2.2851 1.7322 0.4814
-2.2879 1.4320 0.4531
-2.2904 1.1630 0.4312
-2.2927 0.9169 0.4145
-2.2949 0.6874 0.4022
-2.2969 0.4695 0.3936
-2.2989 0.2591 0.3884
-2.3009 0.0525 0.3863
-2.3028 -0.1535 0.3874
-2.3048 -0.3624 0.3917
-2.3068 -0.5776 0.3992
-2.3089 -0.8032 0.4104
-2.3111 -1.0437 0.4257
-2.3136 -1.3050 0.4459
-2.3163 -1.5948 0.4721
-2.3194 -1.9235 0.5058
-2.3230 -2.3062 0.5495
-6.3999 -7.6041 1.6684
-5.6507 -8.0811 1.6553
-0.9773 -1.7037 0.3297
-0.8175 -1.7758 0.3282
-0.6532 -1.8346 0.3269
-0.4853 -1.8800 0.3259
-0.3149 -1.9118 0.3253
-0.1427 -1.9300 0.3249
0.0301 -1.9344 0.3248
0.2029 -1.9251 0.3250
0.3745 -1.9021 0.3254
0.5441 -1.8654 0.3262
0.7107 -1.8152 0.3272
0.8735 -1.7516 0.3286
1.0315 -1.6749 0.3302
5.4347 -7.2782 1.5248
6.1129 -6.8198 1.5374
6.7590 -6.3043 1.5516
7.4091 -5.7645 1.5759
8.0445 -5.1767 1.6059
8.5174 -4.4603 1.6140
8.5144 -3.5298 1.5473
8.5116 -2.6665 1.4973
8.5089 -1.8510 1.4618
8.5064 -1.0671 1.4392
8.5039 -0.3011 1.4284
8.5014 0.4596 1.4292
8.4989 1.2272 1.4415
8.4964 2.0146 1.4658
8.4937 2.8356 1.5032
8.4909 3.7067 1.5553
9.6080 5.2614 1.8389
9.1413 6.1260 1.8473
8.6075 6.9579 1.8580
5.9913 5.8004 1.3999
7.2773 8.4294 1.8694
6.4912 9.0392 1.8681
5.6792 9.6180 1.8750
1.0558 2.2196 0.4126
0.8577 2.3166 0.4147
0.6500 2.3933 0.4163
2.1224 11.9495 2.0374
1.0448 12.0653 2.0330
-0.0365 12.0753 2.0271
-1.1135 12.0136 2.0254
-2.1795 11.8542 2.0233
-0.6644 2.3893 0.4163
-0.8716 2.3113 0.4147
-5.2292 10.8246 2.0181
-6.1666 10.3008 2.0154
-7.0508 9.6942 2.0123
-7.8745 9.0103 2.0088
-2.2808 2.1816 0.5298
-2.2842 1.8237 0.4907
-2.2871 1.5128 0.4603
-2.2897 1.2360 0.4368
-2.2921 0.9842 0.4187
-2.2943 0.7506 0.4052
-2.2964 0.5298 0.3956
-2.2984 0.3177 0.3895
-2.3003 0.1104 0.3866
-2.3023 -0.0955 0.3868
-2.3042 -0.3032 0.3901
-2.3062 -0.5163 0.3967
-2.3083 -0.7385 0.4068
-2.3105 -0.9743 0.4209
-2.3129 -1.2291 0.4397
-2.3155 -1.5099 0.4640
-2.3185 -1.8265 0.4955
-2.3219 -2.1921 0.5360
-6.6047 -7.4588 1.6724
-5.8643 -7.9534 1.6588
-1.0213 -1.6810 0.3302
-0.8629 -1.7569 0.3286
-0.6997 -1.8195 0.3272
-0.5328 -1.8686 0.3262
-0.3630 -1.9043 0.3254
-0.1912 -1.9263 0.3250
-0.0184 -1.9345 0.3248
0.1544 -1.9291 0.3249
0.3264 -1.9099 0.3253
0.4967 -1.8771 0.3260
0.6642 -1.8307 0.3269
0.8282 -1.7709 0.3282
0.9876 -1.6978 0.3297
5.2390 -7.3966 1.5216
5.9253 -6.9544 1.5337
6.5809 -6.4548 1.5474
7.2239 -5.9177 1.5676
7.8699 -5.3486 1.5973
8.4756 -4.7134 1.6280
8.5152 -3.7835 1.5642
8.5123 -2.9035 1.5098
8.5097 -2.0763 1.4704
8.5071 -1.2850 1.4443
8.5046 -0.5153 1.4303
8.5021 0.2456 1.4279
8.4996 1.0101 1.4369
8.4971 1.7905 1.4577
8.4945 2.6005 1.4913
8.4917 3.4557 1.5390
9.7259 5.0127 1.8368
9.2733 5.8824 1.8435
8.7671 6.7299 1.8554
8.1687 7.5203 1.8639
5.6593 6.2317 1.4131
6.7077 8.8620 1.8658
5.9165 9.4685 1.8743
1.1094 2.1889 0.4120
0.9144 2.2913 0.4141
0.7092 2.3738 0.4159
2.4230 11.8981 2.0383
1.3484 12.0434 2.0344
0.2671 12.0833 2.0289
-0.8116 12.0406 2.0258
-1.8816 11.9089 2.0240
-0.6047 2.4074 0.4167
-0.8143 2.3353 0.4152
-1.0148 2.2427 0.4132
-5.9083 10.4566 2.0162
-6.8081 9.8727 2.0132
-7.6495 9.2099 2.0098
-2.2798 2.2930 0.5428
-2.2833 1.9189 0.5007
-2.2863 1.5962 0.4681
-2.2890 1.3109 0.4428
-2.2915 1.0528 0.4233
-2.2937 0.8147 0.4086
-2.2958 0.5908 0.3980
-2.2978 0.3767 0.3909
-2.2998 0.1684 0.3871
-2.3017 -0.0376 0.3864
-2.3037 -0.2445 0.3889
-2.3056 -0.4557 0.3945
-2.3077 -0.6749 0.4036
-2.3099 -0.9064 0.4165
-2.3122 -1.1552 0.4339
-2.3147 -1.4279 0.4566
-2.3176 -1.7332 0.4858
-2.3209 -2.0834 0.5236
-2.3247 -2.4961 0.5726
-6.0756 -7.8208 1.6625
-1.0648 -1.6574 0.3307
-0.9079 -1.7369 0.3290
-0.7460 -1.8032 0.3276
-0.5800 -1.8562 0.3265
-0.4109 -1.8956 0.3256
-0.2396 -1.9215 0.3251
-0.0670 -1.9336 0.3248
0.1059 -1.9320 0.3248
0.2782 -1.9167 0.3251
0.4490 -1.8877 0.3257
0.6175 -1.8451 0.3266
0.7826 -1.7890 0.3278
0.9433 -1.7196 0.3293
5.0412 -7.5104 1.5185
5.7354 -7.0845 1.5302
6.4001 -6.6009 1.5434
7.0362 -6.0656 1.5595
7.6921 -5.5152 1.5889
8.3099 -4.8985 1.6193
8.5160 -4.0430 1.5825
8.5131 -3.1447 1.5235
8.5104 -2.3045 1.4801
8.5078 -1.5046 1.4504
8.5053 -0.7302 1.4330
8.5028 0.0320 1.4274
8.5003 0.7942 1.4332
8.4978 1.5689 1.4506
8.4952 2.3691 1.4805
8.4925 3.2098 1.5241
8.4896 4.1090 1.5833
9.4097 5.6425 1.8418
8.9187 6.4968 1.8523
8.3452 7.3041 1.8617
5.6650 5.9315 1.3769
6.9106 8.6687 1.8610
5.7085 8.6445 1.7390
5.3009 9.8380 1.8760
0.9703 2.2645 0.4136
0.7677 2.3527 0.4154
2.7223 11.8386 2.0392
1.6515 12.0131 2.0356
0.5710 12.0828 2.0306
-0.5090 12.0597 2.0263
-1.5823 11.9559 2.0246
-2.6412 11.7568 2.0228
-0.7562 2.3577 0.4156
-0.9595 2.2707 0.4138
-5.6459 10.6057 2.0169
-6.5609 10.0450 2.0141
-7.4195 9.4038 2.0108
-8.2145 8.6880 2.0071
-2.2824 2.0180 0.5114
-2.2855 1.6826 0.4764
-2.2883 1.3879 0.4493
-2.2908 1.1230 0.4283
-2.2931 0.8799 0.4123
-2.2952 0.6526 0.4006
-2.2973 0.4361 0.3925
-2.2992 0.2265 0.3878
-2.3012 0.0202 0.3863
-2.3031 -0.1860 0.3879
-2.3051 -0.3957 0.3926
-2.3071 -0.6123 0.4007
-2.3092 -0.8398 0.4125
-2.3115 -1.0832 0.4285
-2.3140 -1.3484 0.4496
-2.3168 -1.6435 0.4768
-2.3199 -1.9796 0.5120
-2.3236 -2.3725 0.5575
-6.2844 -7.6832 1.6663
-5.5303 -8.1502 1.6534
-0.9526 -1.7159 0.3294
-0.7919 -1.7859 0.3280
-0.6270 -1.8427 0.3267
-0.4587 -1.8859 0.3258
-0.2879 -1.9156 0.3252
-0.1156 -1.9316 0.3248
0.0573 -1.9338 0.3248
0.2299 -1.9224 0.3250
0.4012 -1.8972 0.3255
0.5704 -1.8584 0.3263
0.7366 -1.8061 0.3274
0.8987 -1.7405 0.3288
1.0558 -1.6616 0.3305
5.5431 -7.2101 1.5267
6.2165 -6.7426 1.5395
6.8572 -6.2183 1.5539
7.5113 -5.6766 1.5805
8.1406 -5.0784 1.6107
8.5169 -4.3088 1.6023
8.5139 -3.3903 1.5384
8.5111 -2.5358 1.4908
8.5085 -1.7262 1.4574
8.5060 -0.9460 1.4367
8.5035 -0.1817 1.4278
8.5010 0.5793 1.4304
8.4985 1.3492 1.4445
8.4960 2.1408 1.4708
8.4933 2.9686 1.5104
8.4904 3.8492 1.5649
9.5389 5.3990 1.8400
9.0634 6.2600 1.8491
8.5153 7.0833 1.8594
5.8275 5.8024 1.3805
7.1499 8.5205 1.8672
5.8972 8.4602 1.7312
5.5447 9.6987 1.8754
1.0254 2.2361 0.4130
0.8256 2.3300 0.4150
0.6166 2.4034 0.4165
1.9539 11.9746 2.0368
0.8750 12.0740 2.0322
-0.2060 12.0709 2.0266
-1.2819 11.9951 2.0251
-2.3455 11.8213 2.0231
-0.6975 2.3784 0.4161
-0.9033 2.2972 0.4144
-5.3796 10.7480 2.0177
-6.3091 10.2109 2.0149
-7.1843 9.5918 2.0118
-7.9979 8.8963 2.0082
-2.2814 2.1216 0.5230
-2.2847 1.7722 0.4854
-2.2876 1.4673 0.4562
-2.2901 1.1950 0.4336
-2.2925 0.9464 0.4163
-2.2946 0.7152 0.4035
-2.2967 0.4961 0.3944
-2.2987 0.2849 0.3888
-2.3006 0.0781 0.3864
-2.3026 -0.1279 0.3871
-2.3045 -0.3362 0.3910
-2.3065 -0.5505 0.3981
-2.3086 -0.7745 0.4088
-2.3109 -1.0129 0.4235
-2.3133 -1.2712 0.4431
-2.3159 -1.5570 0.4685
-2.3190 -1.8802 0.5012
-2.3225 -2.2551 0.5434
-6.4906 -7.5406 1.6702
-5.7452 -8.0254 1.6569
-0.9968 -1.6938 0.3299
-0.8376 -1.7676 0.3283
-0.6737 -1.8281 0.3271
-0.5063 -1.8751 0.3261
-0.3361 -1.9086 0.3253
-0.1641 -1.9285 0.3249
0.0087 -1.9346 0.3248
0.1815 -1.9270 0.3249
0.3533 -1.9057 0.3254
0.5232 -1.8707 0.3261
0.6903 -1.8222 0.3271
0.8536 -1.7602 0.3284
1.0122 -1.6851 0.3300
5.3486 -7.3310 1.5234
6.0304 -6.8797 1.5358
6.6808 -6.3713 1.5497
7.3277 -5.8327 1.5722
7.9678 -5.2532 1.6021
8.5178 -4.5815 1.6236
8.5147 -3.6410 1.5546
8.5119 -2.7706 1.5027
8.5092 -1.9501 1.4655
8.5067 -1.1631 1.4413
8.5042 -0.3956 1.4291
8.5017 0.3651 1.4285
8.4993 1.1312 1.4394
8.4967 1.9154 1.4621
8.4941 2.7314 1.4978
8.4913 3.5953 1.5479
9.6609 5.1521 1.8380
9.2013 6.0195 1.8458
8.6789 6.8579 1.8569
8.0673 7.6389 1.8651
7.3733 8.3516 1.8702
6.5882 8.9629 1.8674
5.7844 9.5529 1.8747
1.0796 2.2063 0.4123
0.8828 2.3056 0.4144
0.6762 2.3849 0.4161
2.2552 11.9278 2.0378
1.1788 12.0567 2.0336
0.0974 12.0799 2.0279
-0.9804 12.0265 2.0256
-2.0482 11.8793 2.0236
-0.6381 2.3975 0.4165
-0.8464 2.3221 0.4149
-1.0453 2.2264 0.4129
-6.0531 10.3703 2.0157
-6.9443 9.7737 2.0127
-7.7759 9.0991 2.0092
-2.2804 2.2301 0.5354
-2.2838 1.8652 0.4950
-2.2868 1.5493 0.4637
-2.2894 1.2688 0.4394
-2.2918 1.0143 0.4207
-2.2940 0.7787 0.4067
-2.2961 0.5567 0.3966
-2.2981 0.3437 0.3901
-2.3001 0.1360 0.3868
-2.3020 -0.0699 0.3866
-2.3040 -0.2773 0.3896
-2.3059 -0.4895 0.3957
-2.3080 -0.7103 0.4054
-2.3102 -0.9441 0.4190
-2.3126 -1.1962 0.4371
-2.3152 -1.4734 0.4607
-2.3181 -1.7849 0.4911
-2.3214 -2.1435 0.5304
-6.6942 -7.3931 1.6742
-5.9578 -7.8955 1.6604
-1.0405 -1.6707 0.3304
-0.8828 -1.7482 0.3288
-0.7202 -1.8124 0.3274
-0.5536 -1.8633 0.3263
-0.3841 -1.9006 0.3255
-0.2126 -1.9243 0.3250
-0.0399 -1.9343 0.3248
0.1330 -1.9305 0.3248
0.3052 -1.9130 0.3252
0.4757 -1.8819 0.3259
0.6436 -1.8372 0.3268
0.8081 -1.7790 0.3280
0.9681 -1.7075 0.3295
5.1519 -7.4474 1.5202
5.8418 -7.0124 1.5321
6.5015 -6.5198 1.5457
7.1414 -5.9836 1.5640
7.7918 -5.4228 1.5936
8.4029 -4.7957 1.6242
8.5156 -3.8972 1.5721
8.5127 -3.0094 1.5157
8.5100 -2.1766 1.4746
8.5074 -1.3817 1.4469
