8.507552146911621 -2.0355165004730225 -4.49114990234375
8.506856918334961 -1.246736764907837 -4.4141693115234375
8.61925220489502 -0.48487958312034607 -4.432217121124268
8.502260208129883 0.281774640083313 -4.367554664611816
8.500517845153809 1.0461549758911133 -4.397189140319824
8.625326156616211 1.8544663190841675 -4.529537200927734
8.621078491210938 2.677229881286621 -4.634669303894043
8.616988182067871 3.546356201171875 -4.784075736999512
26.466880798339844 20.47330093383789 -17.179349899291992
26.92938995361328 24.97313117980957 -18.85589027404785
0.9220330119132996 8.466571807861328 -4.372535705566406
0.16245508193969727 8.481879234313965 -4.355491638183594
-0.59589684009552 8.477763175964355 -4.363316059112549
-1.3593815565109253 8.450470924377441 -4.394342422485352
-2.1443188190460205 8.439262390136719 -4.470491409301758
8.687166213989258 -7.4962005615234375 -5.891044616699219
8.516847610473633 -6.113924026489258 -5.382662773132324
8.579046249389648 -5.064594745635986 -5.114826679229736
8.512139320373535 -4.048655986785889 -4.8393754959106445
8.51009464263916 -3.151263475418091 -4.659106731414795
8.50818157196045 -2.311870813369751 -4.526581287384033
8.506349563598633 -1.5127054452896118 -4.4357757568359375
8.619853973388672 -0.7489414215087891 -4.442202091217041
8.502850532531738 0.022593194618821144 -4.365476131439209
8.501114845275879 0.7841585874557495 -4.383098602294922
8.62681770324707 1.5814636945724487 -4.502913951873779
8.622421264648438 2.392180919647217 -4.59406042098999
8.618410110473633 3.2435531616210938 -4.727777481079102
8.938129425048828 4.309665203094482 -5.094511985778809
28.470102310180664 20.667795181274414 -18.062334060668945
26.749067306518555 23.33108139038086 -18.223217010498047
5.7873663902282715 6.0378618240356445 -4.29395055770874
5.709200382232666 8.609084129333496 -5.303598403930664
1.1836031675338745 8.46346378326416 -4.387524127960205
0.42104849219322205 8.47802734375 -4.358078956604004
-0.3369208872318268 8.481751441955566 -4.358060836791992
-1.0979725122451782 8.462416648864746 -4.381115436553955
-1.8720176219940186 8.436765670776367 -4.4368815422058105
8.622222900390625 -7.9110612869262695 -6.007739543914795
8.517765045166016 -6.516818046569824 -5.506226062774658
8.515182495117188 -5.383320331573486 -5.172177791595459
8.628247261047363 -4.431126594543457 -4.97986364364624
8.510774612426758 -3.4498634338378906 -4.714859485626221
8.508821487426758 -2.5928714275360107 -4.5668487548828125
8.506973266601562 -1.7817696332931519 -4.462344169616699
8.62045955657959 -1.014433741569519 -4.456379413604736
8.618693351745605 -0.23978260159492493 -4.4266462326049805
8.501708984375 0.5236074924468994 -4.37314510345459
8.499958038330078 1.2919087409973145 -4.414093494415283
8.623929023742676 2.1118834018707275 -4.558447360992432
8.619797706604004 2.9475109577178955 -4.67708158493042
8.615635871887207 3.835181713104248 -4.84182071685791
28.0653076171875 23.011791229248047 -18.633386611938477
25.543607711791992 25.073171615600586 -18.376535415649414
1.4480434656143188 8.465141296386719 -4.4092278480529785
0.6799800992012024 8.4714937210083 -4.363349437713623
-0.07830018550157547 8.483061790466309 -4.355485916137695
-0.8376315236091614 8.471623420715332 -4.370636463165283
-1.6054422855377197 8.44430923461914 -4.413060665130615
-16.87394142150879 -2.3021867275238037 -8.743525505065918
8.51397705078125 -8.30350112915039 -6.105841159820557
8.68620777130127 -7.075474262237549 -5.751870632171631
8.516027450561523 -5.754334449768066 -5.276782035827637
8.629016876220703 -4.769216537475586 -5.061863422393799
8.511473655700684 -3.7560031414031982 -4.776453018188477
8.509474754333496 -2.8791961669921875 -4.612161159515381
8.507594108581543 -2.054347038269043 -4.49343204498291
8.506576538085938 -1.2648723125457764 -4.415388107299805
8.619293212890625 -0.5029606223106384 -4.432769298553467
8.502301216125488 0.2639768421649933 -4.367281913757324
8.500558853149414 1.0281178951263428 -4.396088123321533
8.625428199768066 1.8356263637542725 -4.527565956115723
8.621161460876465 2.657508134841919 -4.631722450256348
8.617084503173828 3.5253429412841797 -4.780027389526367
28.085485458374023 21.63166618347168 -18.20057487487793
27.061866760253906 24.990978240966797 -18.91203498840332
0.9399336576461792 8.466434478759766 -4.373469829559326
0.18018990755081177 8.48169994354248 -4.355583190917969
-0.5780948996543884 8.478120803833008 -4.362870216369629
-1.3413952589035034 8.45137882232666 -4.393346309661865
-2.125401735305786 8.43874454498291 -4.467850685119629
6.023367881774902 -13.85312271118164 -7.7555670738220215
8.687239646911621 -7.528016567230225 -5.901757717132568
8.516908645629883 -6.140998840332031 -5.390804767608643
8.538362503051758 -5.064687252044678 -5.096874237060547
8.512189865112305 -4.070526123046875 -4.844230651855469
8.510140419006348 -3.1715245246887207 -4.662751197814941
8.508224487304688 -2.3309895992279053 -4.529186248779297
8.506392478942871 -1.5310622453689575 -4.437457084655762
8.619894981384277 -0.7671005129814148 -4.443039894104004
8.502890586853027 0.004817362874746323 -4.365481853485107
8.501155853271484 0.766243577003479 -4.3822832107543945
8.62691879272461 1.5628530979156494 -4.501251697540283
8.622514724731445 2.3728108406066895 -4.591456413269043
8.618505477905273 3.2230358123779297 -4.724123954772949
8.946962356567383 4.290881633758545 -5.094420433044434
28.440446853637695 20.555543899536133 -18.01619529724121
26.561126708984375 23.06947898864746 -18.06226348876953
5.794691562652588 6.02023983001709 -4.290033340454102
5.715546607971191 8.579665184020996 -5.292825698852539
1.2016019821166992 8.463129043579102 -4.388644218444824
0.4388033151626587 8.477663040161133 -4.358356952667236
-0.31915760040283203 8.481928825378418 -4.357797622680664
-1.0800737142562866 8.463133811950684 -4.380310535430908
-1.853639841079712 8.437317848205566 -4.435122013092041
8.605525970458984 -7.928941249847412 -6.007643222808838
8.517829895019531 -6.545133590698242 -5.51509952545166
8.515238761901855 -5.408295631408691 -5.179068088531494
8.62829875946045 -4.453963756561279 -4.985256671905518
8.510822296142578 -3.4706153869628906 -4.7188944816589355
8.508866310119629 -2.6123313903808594 -4.569793224334717
8.5070161819458 -1.8003463745117188 -4.464329242706299
8.620500564575195 -1.0327125787734985 -4.4575066566467285
8.618734359741211 -0.25781235098838806 -4.426933288574219
8.501749992370605 0.5057779550552368 -4.372612953186035
8.499999046325684 1.2737447023391724 -4.412722587585449
8.624031066894531 2.092811107635498 -4.556179523468018
8.619892120361328 2.927457094192505 -4.6738080978393555
8.615743637084961 3.813694953918457 -4.8373918533325195
27.687442779541016 22.605262756347656 -18.351072311401367
25.615524291992188 25.03877067565918 -18.39055061340332
1.4665168523788452 8.466519355773926 -4.411532878875732
0.697774350643158 8.470946311950684 -4.363808631896973
-0.06054621562361717 8.483055114746094 -4.355406284332275
-0.8197908401489258 8.47215747833252 -4.370016574859619
-1.5872304439544678 8.444787979125977 -4.411568641662598
-2.390510082244873 8.468916893005371 -4.517933368682861
-16.873891830444336 -2.266268491744995 -8.741025924682617
8.514056205749512 -8.338330268859863 -6.118368625640869
8.68627643585205 -7.105810165405273 -5.761745929718018
8.51608657836914 -5.780364990234375 -5.284302711486816
8.629071235656738 -4.792839527130127 -5.0677666664123535
8.511521339416504 -3.7773211002349854 -4.780905246734619
8.509520530700684 -2.89907169342041 -4.6154632568359375
8.507637023925781 -2.073204517364502 -4.495735168457031
8.506285667419434 -1.2830249071121216 -4.416621208190918
8.61933422088623 -0.5210636258125305 -4.433339595794678
8.502341270446777 0.246174156665802 -4.367029190063477
8.50059986114502 1.0100833177566528 -4.395008563995361
8.625539779663086 1.816793441772461 -4.5256147384643555
8.621255874633789 2.637796640396118 -4.628796100616455
8.617180824279785 3.504356861114502 -4.776004314422607
28.114816665649414 21.560697555541992 -18.19031524658203
27.19521713256836 25.008913040161133 -18.96862030029297
0.9578441381454468 8.466294288635254 -4.374420642852783
0.19793452322483063 8.481508255004883 -4.355688571929932
-0.5603222250938416 8.478468894958496 -4.362435817718506
-1.3234286308288574 8.452274322509766 -4.392364025115967
-2.1065332889556885 8.43823528289795 -4.46523904800415
5.981325149536133 -13.835528373718262 -7.738691806793213
8.687312126159668 -7.559954643249512 -5.912539482116699
8.516971588134766 -6.168171405792236 -5.399002552032471
8.516610145568848 -5.075899124145508 -5.090216636657715
8.512239456176758 -4.09245491027832 -4.849122047424316
8.510187149047852 -3.1918318271636963 -4.6664252281188965
8.508269309997559 -2.350147008895874 -4.5318169593811035
8.506434440612793 -1.5494509935379028 -4.4391608238220215
8.6199369430542 -0.7852864861488342 -4.4438982009887695
8.502931594848633 -0.012973116710782051 -4.365508556365967
8.50119686126709 0.7483261823654175 -4.38148832321167
8.499434471130371 1.5213978290557861 -4.433063983917236
8.622607231140137 2.3534433841705322 -4.588874816894531
8.61860179901123 3.202540397644043 -4.720494270324707
8.634374618530273 4.1187872886657715 -4.9115166664123535
28.41091537475586 20.443939208984375 -17.970375061035156
26.37674331665039 22.812795639038086 -17.904388427734375
5.80199670791626 6.002675533294678 -4.286146640777588
5.723196983337402 8.552350997924805 -5.283340930938721
1.2196106910705566 8.462789535522461 -4.3897809982299805
0.4565483033657074 8.477288246154785 -4.358644485473633
-0.30141374468803406 8.482089042663574 -4.35754919052124
-1.0621944665908813 8.46384048461914 -4.379517078399658
-1.8352817296981812 8.437862396240234 -4.433383464813232
8.588788986206055 -7.946796894073486 -6.007546901702881
8.517894744873047 -6.57356595993042 -5.524033546447754
8.51529598236084 -5.433369159698486 -5.186005115509033
8.628351211547852 -4.4768829345703125 -4.990686416625977
8.510869979858398 -3.4914138317108154 -4.722959041595459
8.5089111328125 -2.631838321685791 -4.572762966156006
8.507058143615723 -1.8189594745635986 -4.466340065002441
8.620542526245117 -1.0510133504867554 -4.45865535736084
8.618776321411133 -0.27586403489112854 -4.427242279052734
8.501790046691895 0.4879288673400879 -4.372098922729492
8.500041007995605 1.2555733919143677 -4.411371231079102
8.624133110046387 2.073744058609009 -4.553933620452881
8.619986534118652 2.907383918762207 -4.670549392700195
8.61584186553955 3.792196273803711 -4.832980155944824
27.71674919128418 22.532907485961914 -18.339275360107422
23.65721321105957 23.02815818786621 -16.95003318786621
1.4849708080291748 8.467903137207031 -4.413858413696289
0.7155295610427856 8.470388412475586 -4.364282608032227
-0.042841047048568726 8.483034133911133 -4.355340480804443
-0.8019794821739197 8.472676277160645 -4.369410514831543
-1.5690771341323853 8.445261001586914 -4.410093784332275
-2.3700497150421143 8.463955879211426 -4.512636661529541
-16.91531753540039 -2.235818386077881 -8.76004409790039
8.514135360717773 -8.373379707336426 -6.131000995635986
8.686346054077148 -7.136196136474609 -5.771664142608643
8.516146659851074 -5.80640983581543 -5.291847229003906
8.629125595092773 -4.816476821899414 -5.073692321777344
8.51156997680664 -3.7986321449279785 -4.785377025604248
8.501667976379395 0.5414443612098694 -4.3075971603393555
8.499916076660156 1.3100800514221191 -4.348751544952393
8.623817443847656 2.1309726238250732 -4.4918084144592285
8.619634628295898 2.9676105976104736 -4.609617710113525
8.615469932556152 3.856719493865967 -4.773005485534668
31.903615951538086 21.805261611938477 -19.540084838867188
28.040714263916016 23.08988380432129 -18.36723518371582
25.396347045898438 25.033145904541016 -18.03152847290039
6.006694316864014 8.52236270904541 -5.27216100692749
1.4314684867858887 8.474849700927734 -4.346024513244629
0.6666837334632874 8.529497146606445 -4.326111793518066
-0.8645442724227905 8.560993194580078 -4.350900650024414
-1.6305623054504395 8.479772567749023 -4.366364479064941
-2.41890811920166 8.43441104888916 -4.436800956726074
8.522207260131836 -8.276817321777344 -6.0071330070495605
8.686139106750488 -7.0452399253845215 -5.655273914337158
8.515968322753906 -5.728382587432861 -5.189672946929932
8.628963470458984 -4.745646953582764 -4.979584217071533
8.51142406463623 -3.7347359657287598 -4.699910640716553
8.509428977966309 -2.8593621253967285 -4.539228439331055
8.507552146911621 -2.0355141162872314 -4.423273086547852
8.506856918334961 -1.246736764907837 -4.347461223602295
8.61925220489502 -0.48487716913223267 -4.365233898162842
8.502260208129883 0.281774640083313 -4.301546573638916
8.500517845153809 1.0461549758911133 -4.3307342529296875
8.625326156616211 1.8544663190841675 -4.461080074310303
8.621009826660156 2.6772074699401855 -4.56458854675293
8.61691951751709 3.5463290214538574 -4.711735248565674
27.943265914916992 21.615339279174805 -17.863536834716797
27.04629135131836 25.0815372467041 -18.651531219482422
1.6962608098983765 8.463494300842285 -4.364689826965332
0.9268633723258972 8.510954856872559 -4.329026222229004
0.1642175316810608 8.574109077453613 -4.336310386657715
-1.368247389793396 8.505577087402344 -4.3561530113220215
-2.1455307006835938 8.444010734558105 -4.405405044555664
8.515084266662598 -8.789687156677246 -6.188090801239014
8.687166213989258 -7.4962005615234375 -5.802012920379639
8.516847610473633 -6.113924026489258 -5.30131196975708
8.579035758972168 -5.064594745635986 -5.037522315979004
8.512139320373535 -4.048655986785889 -4.766238212585449
8.51009464263916 -3.151268243789673 -4.588693618774414
8.50818157196045 -2.311870813369751 -4.458171367645264
8.506349563598633 -1.5127054452896118 -4.368736267089844
8.619853973388672 -0.7489438652992249 -4.375064373016357
8.502850532531738 0.022590752691030502 -4.299499988555908
8.501114845275879 0.7841585874557495 -4.3168559074401855
8.62681770324707 1.5814661979675293 -4.434859752655029
8.622391700744629 2.3921732902526855 -4.524614334106445
8.618342399597168 3.2435262203216553 -4.656288146972656
28.369720458984375 20.594919204711914 -17.726625442504883
26.412023544311523 23.037113189697266 -17.721649169921875
5.787181377410889 6.037666320800781 -4.228917598724365
5.709200382232666 8.609079360961914 -5.223443031311035
1.1878793239593506 8.494010925292969 -4.336809158325195
0.42428848147392273 8.543253898620605 -4.32523775100708
-1.1062726974487305 8.52640151977539 -4.347527980804443
-1.8779772520065308 8.463614463806152 -4.383730411529541
-2.680424213409424 8.435201644897461 -4.475442409515381
8.688250541687012 -7.971643447875977 -5.962254524230957
8.517765045166016 -6.516813278198242 -5.42301082611084
8.515182495117188 -5.383320331573486 -5.0940093994140625
8.628247261047363 -4.431126594543457 -4.904602527618408
8.510774612426758 -3.4498634338378906 -4.643601417541504
8.508821487426758 -2.5928688049316406 -4.497827529907227
8.506973266601562 -1.7817672491073608 -4.394904136657715
8.62045955657959 -1.0144362449645996 -4.389028072357178
8.618693351745605 -0.23978503048419952 -4.359745502471924
8.501708984375 0.5236074924468994 -4.307052135467529
8.499958038330078 1.2919087409973145 -4.347382545471191
8.623929023742676 2.1118834018707275 -4.489554405212402
8.619729042053223 2.94748854637146 -4.60636043548584
8.615568161010742 3.8351497650146484 -4.7686052322387695
31.954843521118164 21.74235725402832 -19.543569564819336
26.30633544921875 21.56955337524414 -17.20159339904785
25.467844009399414 24.99882698059082 -18.045133590698242
1.4494696855545044 8.473508834838867 -4.34688138961792
0.6845381259918213 8.528305053710938 -4.326224327087402
-0.8467081189155579 8.563467979431152 -4.351249694824219
-1.612499713897705 8.481420516967773 -4.365466594696045
-2.4000327587127686 8.435103416442871 -4.434515476226807
8.51397705078125 -8.303496360778809 -6.013561248779297
8.68620777130127 -7.075469017028809 -5.6649394035339355
8.516027450561523 -5.754329681396484 -5.197033405303955
8.629016876220703 -4.769216537475586 -4.9853620529174805
8.511473655700684 -3.7560031414031982 -4.704267501831055
8.509474754333496 -2.8791961669921875 -4.54245662689209
8.507594108581543 -2.054347038269043 -4.425520420074463
8.506576538085938 -1.2648723125457764 -4.348657131195068
8.619293212890625 -0.5029630661010742 -4.3657755851745605
8.502301216125488 0.2639768421649933 -4.301279067993164
8.500558853149414 1.0281153917312622 -4.329648971557617
8.625428199768066 1.8356263637542725 -4.459138870239258
8.621103286743164 2.6574859619140625 -4.561685562133789
8.617016792297363 3.52531361579895 -4.7077484130859375
27.972509384155273 21.544658660888672 -17.853397369384766
27.1796875 25.099782943725586 -18.70730209350586
23.858129501342773 26.348432540893555 -17.973413467407227
1.7149488925933838 8.464895248413086 -4.367250442504883
0.944708526134491 8.50951099395752 -4.329287052154541
0.1821032166481018 8.572011947631836 -4.3354339599609375
-1.3502529859542847 8.50717544555664 -4.355515480041504
-2.1269783973693848 8.444985389709473 -4.4035797119140625
6.022267818450928 -13.850600242614746 -7.636961936950684
8.515169143676758 -8.826605796813965 -6.2015533447265625
8.687239646911621 -7.528011798858643 -5.812561988830566
8.516908645629883 -6.140994071960449 -5.309332370758057
8.538362503051758 -5.064687252044678 -5.019844055175781
8.512189865112305 -4.070521354675293 -4.7710185050964355
8.510140419006348 -3.1715245246887207 -4.592280864715576
8.508224487304688 -2.3309895992279053 -4.4607343673706055
8.506392478942871 -1.5310622453689575 -4.370394229888916
8.619894981384277 -0.7671005129814148 -4.37589168548584
8.502890586853027 0.004817362874746323 -4.299506664276123
8.501155853271484 0.766243577003479 -4.316053867340088
8.62691879272461 1.5628530979156494 -4.433223247528076
8.622504234313965 2.3728084564208984 -4.52205753326416
8.618437767028809 3.223011016845703 -4.652690410614014
9.087804794311523 4.358424663543701 -5.096409320831299
28.39902114868164 20.525598526000977 -17.718063354492188
26.2293643951416 22.78133201599121 -17.567081451416016
5.794506072998047 6.020046234130859 -4.225061416625977
5.715546607971191 8.579668045043945 -5.212832927703857
1.205802321434021 8.492679595947266 -4.33740758895874
0.442151814699173 8.542394638061523 -4.32526159286499
-1.0883066654205322 8.527633666992188 -4.346989154815674
-1.85969877243042 8.464889526367188 -4.38236665725708
-2.6607937812805176 8.4345064163208 -4.47211217880249
8.688326835632324 -8.005232810974121 -5.973776340484619
8.517829895019531 -6.545133590698242 -5.431747913360596
8.515238761901855 -5.408295631408691 -5.100793838500977
8.62829875946045 -4.453968524932861 -4.909912586212158
8.510822296142578 -3.4706106185913086 -4.647577285766602
8.508866310119629 -2.6123290061950684 -4.500726699829102
8.5070161819458 -1.8003463745117188 -4.396860122680664
8.620500564575195 -1.0327125787734985 -4.390139579772949
8.618734359741211 -0.25781235098838806 -4.3600287437438965
8.501749992370605 0.5057779550552368 -4.3065290451049805
8.499999046325684 1.2737423181533813 -4.346031188964844
8.624031066894531 2.092808723449707 -4.487320899963379
8.619824409484863 2.9274325370788574 -4.6031341552734375
8.615665435791016 3.8136632442474365 -4.7642436027526855
32.00606155395508 21.679386138916016 -19.547121047973633
28.061193466186523 22.91040802001953 -18.31770133972168
25.539514541625977 24.964452743530273 -18.05885124206543
1.4675962924957275 8.472800254821777 -4.34808349609375
0.7023924589157104 8.527091026306152 -4.3263421058654785
-0.828852117061615 8.565869331359863 -4.351578712463379
-1.5944863557815552 8.483355522155762 -4.3647379875183105
-2.381166934967041 8.435792922973633 -4.432249546051025
-17.08953285217285 -2.295229196548462 -8.718936920166016
8.514056205749512 -8.338330268859863 -6.025900363922119
8.68627643585205 -7.105810165405273 -5.6746673583984375
8.51608657836914 -5.780359745025635 -5.204439163208008
8.629071235656738 -4.792839527130127 -4.991177082061768
8.511521339416504 -3.7773211002349854 -4.708649635314941
8.509520530700684 -2.89907169342041 -4.5457072257995605
8.507637023925781 -2.073204517364502 -4.427789688110352
8.506285667419434 -1.2830249071121216 -4.34987211227417
8.61933422088623 -0.5210636258125305 -4.366339206695557
8.502341270446777 0.246174156665802 -4.301028251647949
8.50059986114502 1.0100833177566528 -4.328585624694824
8.625539779663086 1.8167885541915894 -4.457217216491699
8.621187210083008 2.637777090072632 -4.558804035186768
8.61711311340332 3.5043272972106934 -4.7037858963012695
27.172428131103516 20.83799934387207 -17.31489372253418
27.313982009887695 25.11812400817871 -18.763526916503906
23.96100616455078 26.35102081298828 -18.00933837890625
1.73369562625885 8.466370582580566 -4.369874954223633
0.962573230266571 8.50804328918457 -4.329554557800293
0.19999882578849792 8.569843292236328 -4.334537982940674
-1.332277774810791 8.508745193481445 -4.354885578155518
-2.1085832118988037 8.446441650390625 -4.402032852172852
5.980235576629639 -13.833016395568848 -7.620349407196045
8.515254020690918 -8.863768577575684 -6.215103626251221
8.687312126159668 -7.559959411621094 -5.823184013366699
8.51697063446045 -6.168161392211914 -5.317403316497803
8.516610145568848 -5.075899124145508 -5.013286113739014
8.512239456176758 -4.09245491027832 -4.77583646774292
8.510187149047852 -3.1918318271636963 -4.5958991050720215
8.508269309997559 -2.350147008895874 -4.463325500488281
8.506434440612793 -1.5494509935379028 -4.372069835662842
8.6199369430542 -0.7852815985679626 -4.376735687255859
8.502931594848633 -0.012973116710782051 -4.299530982971191
8.50119686126709 0.7483261823654175 -4.31527042388916
8.499434471130371 1.5213978290557861 -4.366067409515381
8.622607231140137 2.3534433841705322 -4.5195231437683105
8.61853313446045 3.2025160789489746 -4.649115562438965
8.634286880493164 4.118748188018799 -4.8372392654418945
28.42829132080078 20.456438064575195 -17.70960807800293
26.909433364868164 23.273508071899414 -17.98993682861328
5.801812171936035 6.002481937408447 -4.221233367919922
5.723196983337402 8.552350997924805 -5.203494071960449
1.2237251996994019 8.491336822509766 -4.338018894195557
0.4600054919719696 8.541509628295898 -4.325290203094482
-1.0703505277633667 8.528844833374023 -4.3464555740356445
-1.8414400815963745 8.46615219116211 -4.381016731262207
-2.641211748123169 8.433818817138672 -4.468809604644775
8.688404083251953 -8.03896713256836 -5.985378742218018
8.517894744873047 -6.57356595993042 -5.440546989440918
8.51529598236084 -5.433369159698486 -5.107627868652344
8.628351211547852 -4.4768829345703125 -4.915261745452881
8.510869979858398 -3.4914138317108154 -4.651580333709717
8.5089111328125 -2.6318359375 -4.5036540031433105
8.507048606872559 -1.8189594745635986 -4.398840427398682
8.620542526245117 -1.0510133504867554 -4.391270637512207
8.618776321411133 -0.27586403489112854 -4.360332489013672
8.501790046691895 0.4879288673400879 -4.306023597717285
8.500041007995605 1.2555733919143677 -4.344700336456299
8.624133110046387 2.0737390518188477 -4.485109329223633
8.619918823242188 2.9073619842529297 -4.5999250411987305
8.61577320098877 3.7921669483184814 -4.759902000427246
32.05717849731445 21.616483688354492 -19.550722122192383
28.07137680053711 22.821205139160156 -18.293203353881836
23.466901779174805 22.84291648864746 -16.5595645904541
1.4857033491134644 8.472089767456055 -4.349300384521484
0.7202273607254028 8.525884628295898 -4.326484680175781
-0.8110253810882568 8.568182945251465 -4.351884841918945
-1.5765023231506348 8.48526382446289 -4.364017963409424
-2.3623502254486084 8.43647575378418 -4.430007457733154
-17.099042892456055 -2.2601020336151123 -8.721363067626953
8.514135360717773 -8.373373985290527 -6.038341522216797
8.686346054077148 -7.136191368103027 -5.68443489074707
8.516146659851074 -5.80640983581543 -5.211874961853027
8.629125595092773 -4.816476821899414 -4.997014045715332
8.51156997680664 -3.7986345291137695 -4.713054180145264
8.501667976379395 0.5414419174194336 -4.241906642913818
8.499916076660156 1.3100800514221191 -4.282434463500977
8.623817443847656 2.1309750080108643 -4.423309803009033
8.619566917419434 2.967586040496826 -4.539285182952881
8.615401268005371 3.856687545776367 -4.700178623199463
28.654584884643555 19.58465576171875 -17.282520294189453
26.221586227416992 21.59193229675293 -16.913742065429688
25.721418380737305 25.353578567504883 -17.98383331298828
6.006694316864014 8.522355079650879 -5.191755771636963
1.4402176141738892 8.52668285369873 -4.305922985076904
-2.4276890754699707 8.465030670166016 -4.385003089904785
-3.261784315109253 8.444220542907715 -4.507508277893066
8.655344009399414 -8.406119346618652 -6.007939338684082
8.686139106750488 -7.0452399253845215 -5.569028854370117
8.515968322753906 -5.728377342224121 -5.110531330108643
8.628963470458984 -4.745656967163086 -4.9036478996276855
8.51142406463623 -3.7347309589385986 -4.628239631652832
8.509428977966309 -2.8593621253967285 -4.470006465911865
8.507552146911621 -2.0355165004730225 -4.35582160949707
8.506856918334961 -1.246736764907837 -4.281160354614258
8.61925220489502 -0.48487716913223267 -4.2986626625061035
8.502260208129883 0.281774640083313 -4.2359490394592285
8.500517845153809 1.0461549758911133 -4.264690399169922
8.625326156616211 1.8544639348983765 -4.393050670623779
8.620941162109375 2.6771905422210693 -4.494943618774414
8.616850852966309 3.546299695968628 -4.63984489440918
27.831937789916992 21.52923583984375 -17.521041870117188
24.94162940979004 23.1297550201416 -16.937824249267578
23.81637191772461 26.413076400756836 -17.709270477294922
1.7003257274627686 8.483765602111816 -4.3084235191345215
0.9355011582374573 8.590209007263184 -4.302704334259033
-2.159701108932495 8.499805450439453 -4.366889953613281
-2.9640040397644043 8.428775787353516 -4.448972702026367
8.515084266662598 -8.789652824401855 -6.093724250793457
8.687166213989258 -7.4962053298950195 -5.713536262512207
8.516847610473633 -6.11392879486084 -5.220470428466797
8.579046249389648 -5.064594745635986 -4.960704803466797
8.512139320373535 -4.048655986785889 -4.693553924560547
8.51009464263916 -3.151265859603882 -4.518716335296631
8.50818157196045 -2.311870813369751 -4.39018440246582
8.506360054016113 -1.5127054452896118 -4.302115440368652
8.619853973388672 -0.7489438652992249 -4.308349132537842
8.502850532531738 0.02258831262588501 -4.233933448791504
8.501114845275879 0.7841585874557495 -4.251025199890137
8.62681770324707 1.5814661979675293 -4.36722993850708
8.622391700744629 2.3921732902526855 -4.455615520477295
8.618273735046387 3.2435014247894287 -4.585244655609131
28.257564544677734 20.513498306274414 -17.387290954589844
26.37649917602539 23.00612449645996 -17.42793846130371
5.786995887756348 6.037473201751709 -4.164297580718994
5.709200382232666 8.609082221984863 -5.143787860870361
1.9679633378982544 8.470874786376953 -4.330329895019531
1.2018506526947021 8.593955039978027 -4.320926189422607
-2.6822733879089355 8.44103717803955 -4.410243034362793
8.688250541687012 -7.971643447875977 -5.871331214904785
8.517765045166016 -6.516813278198242 -5.340310096740723
8.515182495117188 -5.383315086364746 -5.016326904296875
8.628247261047363 -4.431126594543457 -4.829809665679932
8.510774612426758 -3.4498660564422607 -4.572788715362549
8.508821487426758 -2.5928714275360107 -4.429237365722656
8.506973266601562 -1.7817696332931519 -4.327882766723633
8.62045955657959 -1.014433741569519 -4.322096347808838
8.618693351745605 -0.23978503048419952 -4.293259620666504
8.501708984375 0.5236074924468994 -4.241370677947998
8.499958038330078 1.2919087409973145 -4.28108549118042
8.623929023742676 2.1118834018707275 -4.421090126037598
8.619661331176758 2.9474666118621826 -4.53607702255249
8.615499496459961 3.835120439529419 -4.695847511291504
32.09148406982422 21.835346221923828 -19.327838897705078
26.221141815185547 21.49968147277832 -16.884416580200195
25.826356887817383 25.350725173950195 -18.020092010498047
1.4577866792678833 8.522101402282715 -4.305141925811768
-2.4090209007263184 8.466696739196777 -4.383245944976807
-3.2388384342193604 8.437249183654785 -4.500164031982422
8.637592315673828 -8.424059867858887 -6.007836818695068
8.68620777130127 -7.075464248657227 -5.578550338745117
8.516027450561523 -5.754329681396484 -5.117781162261963
8.629016876220703 -4.769216537475586 -4.90933895111084
8.511473655700684 -3.7560031414031982 -4.6325273513793945
8.509474754333496 -2.8791961669921875 -4.4731855392456055
8.507594108581543 -2.054349422454834 -4.358032703399658
8.506576538085938 -1.2648723125457764 -4.2823381423950195
8.619293212890625 -0.5029630661010742 -4.299198627471924
8.502301216125488 0.2639768421649933 -4.235685348510742
8.500558853149414 1.0281178951263428 -4.263624668121338
8.625428199768066 1.8356263637542725 -4.391139507293701
8.6210355758667 2.657464027404785 -4.4920878410339355
8.616948127746582 3.5252864360809326 -4.635918617248535
27.861141204833984 21.45887565612793 -17.511146545410156
25.092803955078125 23.172592163085938 -17.007558822631836
23.91914939880371 26.415815353393555 -17.74459457397461
1.7182807922363281 8.481289863586426 -4.308981895446777
0.9536749720573425 8.590249061584473 -4.303714275360107
-2.141465187072754 8.502493858337402 -4.365957736968994
-2.9445040225982666 8.429616928100586 -4.446154594421387
6.021178245544434 -13.848093032836914 -7.519143581390381
8.515169143676758 -8.826605796813965 -6.106982231140137
8.687239646911621 -7.528016567230225 -5.723923683166504
8.516908645629883 -6.140994071960449 -5.228367328643799
8.538372039794922 -5.064687252044678 -4.943295001983643
8.512189865112305 -4.070521354675293 -4.698263645172119
8.510140419006348 -3.1715245246887207 -4.522251605987549
8.508224487304688 -2.330986976623535 -4.392711162567139
8.506392478942871 -1.5310622453689575 -4.303744792938232
8.619894981384277 -0.7671005129814148 -4.309159278869629
8.502890586853027 0.004817362874746323 -4.233940124511719
8.501155853271484 0.7662460207939148 -4.250236511230469
8.62691879272461 1.5628554821014404 -4.3656182289123535
8.622504234313965 2.3728084564208984 -4.453097343444824
8.618369102478027 3.2229866981506348 -4.58170223236084
28.286806106567383 20.44448471069336 -17.378917694091797
26.584890365600586 23.090124130249023 -17.53367042541504
5.794321060180664 6.01985502243042 -4.16049861907959
5.715546607971191 8.579668045043945 -5.133340358734131
1.9871673583984375 8.47312068939209 -4.333590984344482
1.2188447713851929 8.584540367126465 -4.3174662590026855
-2.663439989089966 8.442893981933594 -4.408292770385742
8.688326835632324 -8.005227088928223 -5.8826775550842285
8.517829895019531 -6.545133590698242 -5.348916053771973
8.515238761901855 -5.408295631408691 -5.023009300231934
8.62829875946045 -4.453968524932861 -4.8350372314453125
8.510822296142578 -3.4706106185913086 -4.576702117919922
8.508866310119629 -2.6123290061950684 -4.432094097137451
8.50700569152832 -1.8003487586975098 -4.329809665679932
8.620500564575195 -1.0327125787734985 -4.3231916427612305
8.618734359741211 -0.25781235098838806 -4.293539524078369
8.501749992370605 0.505775511264801 -4.240856170654297
8.499999046325684 1.2737447023391724 -4.279757499694824
8.624031066894531 2.092811107635498 -4.418891906738281
8.619755744934082 2.92741060256958 -4.532901287078857
8.61559772491455 3.813631296157837 -4.69155216217041
32.142967224121094 21.77211570739746 -19.331361770629883
28.046972274780273 22.8987979888916 -18.029226303100586
25.931774139404297 25.3478946685791 -18.056604385375977
1.4753458499908447 8.517502784729004 -4.3043670654296875
-2.390352487564087 8.468348503112793 -4.381503105163574
-3.217808485031128 8.435165405273438 -4.495452880859375
-17.351486206054688 -2.330409288406372 -8.717580795288086
8.619839668273926 -8.44193172454834 -6.007734775543213
8.68627643585205 -7.105815410614014 -5.588132381439209
8.51608657836914 -5.780359745025635 -5.125072479248047
8.629071235656738 -4.792839527130127 -4.915063381195068
8.511521339416504 -3.7773211002349854 -4.636845588684082
8.509520530700684 -2.89907169342041 -4.476387977600098
8.507637023925781 -2.073204517364502 -4.36026668548584
8.506285667419434 -1.2830249071121216 -4.283535003662109
8.61933422088623 -0.5210636258125305 -4.299753189086914
8.502341270446777 0.246174156665802 -4.235439300537109
8.50059986114502 1.0100833177566528 -4.262575626373291
8.625539779663086 1.816793441772461 -4.389245510101318
8.621129035949707 2.6377546787261963 -4.4892497062683105
8.617044448852539 3.504297971725464 -4.632015705108643
12.614555358886719 9.67385196685791 -7.915699481964111
27.43303680419922 25.22760772705078 -18.557926177978516
24.022424697875977 26.418546676635742 -17.7801570892334
1.7362453937530518 8.478798866271973 -4.309553623199463
0.9718780517578125 8.590291023254395 -4.304744720458984
-2.1232385635375977 8.505147933959961 -4.3650336265563965
-2.9250330924987793 8.430449485778809 -4.443362236022949
5.979155540466309 -13.83051872253418 -7.5027899742126465
8.515254020690918 -8.863724708557129 -6.120326995849609
8.687312126159668 -7.559959411621094 -5.734378337860107
8.516971588134766 -6.168171405792236 -5.236315727233887
8.516610145568848 -5.075894355773926 -4.936834812164307
8.512239456176758 -4.09245491027832 -4.703006267547607
8.510187149047852 -3.1918318271636963 -4.525814056396484
8.508269309997559 -2.350147008895874 -4.395263195037842
8.506434440612793 -1.5494509935379028 -4.305397987365723
8.6199369430542 -0.7852815985679626 -4.309992790222168
8.502931594848633 -0.012973116710782051 -4.233963966369629
8.50119686126709 0.7483261823654175 -4.2494635581970215
8.499434471130371 1.5213978290557861 -4.299485206604004
8.622607231140137 2.353440999984741 -4.450599670410156
8.618464469909668 3.202488899230957 -4.578181266784668
8.634199142456055 4.118703842163086 -4.763424396514893
28.316015243530273 20.37564468383789 -17.370668411254883
26.795644760131836 23.175092697143555 -17.640684127807617
5.801627159118652 6.002291202545166 -4.156729221343994
5.723196983337402 8.552350997924805 -5.124142169952393
2.0064003467559814 8.475374221801758 -4.336881637573242
1.2357903718948364 8.57507038116455 -4.313992977142334
-2.6446352005004883 8.444738388061523 -4.40635871887207
8.688404083251953 -8.038971900939941 -5.894105911254883
8.517894744873047 -6.57356595993042 -5.357580661773682
8.51529598236084 -5.433369159698486 -5.029737949371338
8.628351211547852 -4.4768781661987305 -4.840304374694824
8.510869979858398 -3.4914138317108154 -4.5806450843811035
8.5089111328125 -2.6318359375 -4.434974670410156
8.507058143615723 -1.8189594745635986 -4.331757545471191
8.620542526245117 -1.0510157346725464 -4.324306488037109
8.618776321411133 -0.27586403489112854 -4.2938385009765625
8.501790046691895 0.4879288673400879 -4.240356922149658
8.500041007995605 1.2555733919143677 -4.278445243835449
8.624133110046387 2.073744058609009 -4.416713237762451
8.619850158691406 2.9073421955108643 -4.52974271774292
8.615694999694824 3.792137384414673 -4.687276363372803
32.19432067871094 21.708961486816406 -19.334938049316406
27.606990814208984 22.443674087524414 -17.716228485107422
23.28080940246582 22.66176414489746 -16.177719116210938
1.4928566217422485 8.51288890838623 -4.303600311279297
0.7364020347595215 8.717445373535156 -4.356232166290283
-2.3717334270477295 8.469982147216797 -4.3797760009765625
-3.1973180770874023 8.43428897857666 -4.4914164543151855
-17.308940887451172 -2.287846088409424 -8.69378662109375
8.602008819580078 -8.459799766540527 -6.007630348205566
8.686346054077148 -7.136191368103027 -5.597752094268799
8.516146659851074 -5.806414604187012 -5.132394313812256
8.629125595092773 -4.816476821899414 -4.920810222625732
8.51156997680664 -3.7986345291137695 -4.641181945800781
8.501667976379395 0.5414443612098694 -4.1766180992126465
8.499916076660156 1.3100800514221191 -4.216523170471191
8.623817443847656 2.130970001220703 -4.355228900909424
8.619498252868652 2.9675614833831787 -4.469387054443359
8.615323066711426 3.8566582202911377 -4.627802848815918
32.176753997802734 21.991947174072266 -19.10816192626953
25.797515869140625 21.24272918701172 -16.384071350097656
25.58700180053711 25.221071243286133 -17.61450958251953
6.006684303283691 8.522345542907715 -5.111844539642334
2.2286489009857178 8.491663932800293 -4.304231643676758
-3.257107973098755 8.432112693786621 -4.431770324707031
8.689315795898438 -8.439112663269043 -5.938689231872559
8.686139106750488 -7.0452399253845215 -5.483316421508789
8.515968322753906 -5.728377342224121 -5.031876087188721
8.628963470458984 -4.745652198791504 -4.828173637390137
8.51142406463623 -3.7347309589385986 -4.5570068359375
8.509428977966309 -2.8593621253967285 -4.401208877563477
8.507552146911621 -2.0355141162872314 -4.288779258728027
8.506856918334961 -1.246736764907837 -4.215269565582275
8.61925220489502 -0.48487716913223267 -4.232500076293945
8.502260208129883 0.2817721962928772 -4.170754432678223
8.500517845153809 1.0461525917053223 -4.1990532875061035
8.625326156616211 1.854461431503296 -4.325435638427734
8.62087345123291 2.677168130874634 -4.425728797912598
8.616782188415527 3.5462725162506104 -4.568394660949707
12.9769287109375 10.03822135925293 -8.043631553649902
24.737491607666016 22.94044303894043 -16.540634155273438
23.876930236816406 26.48025131225586 -17.481042861938477
1.7118451595306396 8.541230201721191 -4.270846366882324
0.9355011582374573 8.590209007263184 -4.236481189727783
-2.1808676719665527 8.58310317993164 -4.34181022644043
-2.974059581756592 8.457354545593262 -4.395350456237793
8.525323867797852 -8.800214767456055 -6.007147789001465
8.687166213989258 -7.4962053298950195 -5.625599384307861
8.516847610473633 -6.11392879486084 -5.140122413635254
8.579046249389648 -5.064594745635986 -4.8843512535095215
8.512139320373535 -4.048655986785889 -4.621314525604248
8.51009464263916 -3.151263475418091 -4.4491682052612305
8.50818157196045 -2.311870813369751 -4.322615146636963
8.506349563598633 -1.5127054452896118 -4.235900402069092
8.619853973388672 -0.7489414215087891 -4.242037773132324
8.502850532531738 0.022590752691030502 -4.168768882751465
8.501114845275879 0.7841585874557495 -4.1855974197387695
8.62681770324707 1.5814661979675293 -4.300014495849609
8.622391700744629 2.3921732902526855 -4.3870368003845215
8.618205070495605 3.2434747219085693 -4.514637470245361
28.1469669342041 20.43321990966797 -17.05268096923828
27.486957550048828 23.974687576293945 -17.882122039794922
5.786810874938965 6.0372796058654785 -4.10007381439209
5.709200382232666 8.609084129333496 -5.06461763381958
1.9691431522369385 8.475951194763184 -4.266236305236816
-2.701188564300537 8.50054931640625 -4.3729777336120605
-3.533525228500366 8.427990913391113 -4.4805216789245605
8.516348838806152 -9.344597816467285 -6.198643684387207
8.688250541687012 -7.971643447875977 -5.780966758728027
8.517765045166016 -6.516813278198242 -5.25811767578125
8.515182495117188 -5.383315086364746 -4.939120769500732
8.628247261047363 -4.431126594543457 -4.755471706390381
8.510774612426758 -3.4498634338378906 -4.502408981323242
8.508821487426758 -2.5928714275360107 -4.361067295074463
8.506973266601562 -1.7817672491073608 -4.2612714767456055
8.62045955657959 -1.0144362449645996 -4.255577087402344
8.618693351745605 -0.23978503048419952 -4.227183818817139
8.501708984375 0.5236074924468994 -4.17609167098999
8.499958038330078 1.2919087409973145 -4.215195655822754
8.623929023742676 2.1118834018707275 -4.3530449867248535
8.619593620300293 2.947442054748535 -4.466228485107422
8.615431785583496 3.8350884914398193 -4.623537063598633
32.22846984863281 21.92854881286621 -19.11159896850586
26.137020111083984 21.430727005004883 -16.571226119995117
25.691102981567383 25.21796417236328 -17.649818420410156
2.252086639404297 8.508774757385254 -4.315305709838867
-3.237217664718628 8.433026313781738 -4.428683280944824
8.689396858215332 -8.474581718444824 -5.950845241546631
8.68620777130127 -7.075464248657227 -5.492690086364746
8.516027450561523 -5.754329681396484 -5.039010047912598
8.629016876220703 -4.769216537475586 -4.833778381347656
8.511473655700684 -3.7560031414031982 -4.5612287521362305
8.509474754333496 -2.8791961669921875 -4.404336452484131
8.507594108581543 -2.054349422454834 -4.290956974029541
8.506576538085938 -1.2648723125457764 -4.216428756713867
8.619293212890625 -0.5029606223106384 -4.233028888702393
8.502301216125488 0.2639768421649933 -4.1704936027526855
8.500558853149414 1.0281178951263428 -4.19800329208374
8.625428199768066 1.8356263637542725 -4.323554992675781
8.620966911315918 2.6574440002441406 -4.422914505004883
8.6168794631958 3.525254726409912 -4.5645294189453125
12.887398719787598 9.92597770690918 -7.975253105163574
24.886606216430664 22.982162475585938 -16.608186721801758
23.980098724365234 26.483129501342773 -17.51600456237793
1.7294152975082397 8.536273002624512 -4.270165920257568
0.9536749720573425 8.590249061584473 -4.237475395202637
-2.1617660522460938 8.583146095275879 -4.339535236358643
-2.954913854598999 8.45941162109375 -4.3931989669799805
6.020088195800781 -13.84560489654541 -7.402080535888672
8.515169143676758 -8.826601028442383 -6.012984275817871
8.687239646911621 -7.5280070304870605 -5.635821342468262
8.516908645629883 -6.140994071960449 -5.147897243499756
8.538362503051758 -5.064687252044678 -4.867212295532227
8.512189865112305 -4.070526123046875 -4.625951290130615
8.510140419006348 -3.1715221405029297 -4.4526495933532715
8.508224487304688 -2.3309895992279053 -4.325101852416992
8.506392478942871 -1.5310622453689575 -4.23750638961792
8.619894981384277 -0.7671005129814148 -4.242837429046631
8.502890586853027 0.004817362874746323 -4.1687750816345215
8.501155853271484 0.766243577003479 -4.184819221496582
8.62691879272461 1.5628530979156494 -4.298427104949951
8.6224946975708 2.3728108406066895 -4.384561061859131
8.618301391601562 3.222959518432617 -4.511147975921631
28.1761474609375 20.364513397216797 -17.044498443603516
26.474308013916016 22.994075775146484 -17.191991806030273
5.794136047363281 6.019664287567139 -4.09633207321167
5.715546607971191 8.579665184020996 -5.054332256317139
1.9874769449234009 8.474397659301758 -4.2675371170043945
-2.6827099323272705 8.503973007202148 -4.371845722198486
-3.5124194622039795 8.427016258239746 -4.476088047027588
8.516439437866211 -9.38403606414795 -6.212975978851318
8.688326835632324 -8.005227088928223 -5.792137145996094
8.517829895019531 -6.545133590698242 -5.266591548919678
8.515238761901855 -5.408295631408691 -4.9456987380981445
8.62829875946045 -4.453963756561279 -4.7606201171875
8.510822296142578 -3.4706082344055176 -4.506260871887207
8.508866310119629 -2.6123313903808594 -4.363879680633545
8.5070161819458 -1.8003463745117188 -4.263168811798096
8.620500564575195 -1.0327125787734985 -4.256653308868408
8.618734359741211 -0.25781235098838806 -4.2274580001831055
8.501749992370605 0.5057730674743652 -4.175583839416504
8.499999046325684 1.2737423181533813 -4.21388578414917
8.624031066894531 2.092811107635498 -4.35087776184082
8.619688034057617 2.9273858070373535 -4.463098526000977
8.61552906036377 3.813596725463867 -4.619307041168213
32.28018569946289 21.865068435668945 -19.115095138549805
26.13675308227539 21.33920669555664 -16.542694091796875
25.795700073242188 25.214879989624023 -17.685388565063477
-3.217336893081665 8.43393325805664 -4.4256157875061035
8.689477920532227 -8.510128021240234 -5.963053226470947
8.68627643585205 -7.105810165405273 -5.502125263214111
8.51608657836914 -5.780359745025635 -5.046192646026611
8.629071235656738 -4.792839527130127 -4.839414596557617
8.511521339416504 -3.7773211002349854 -4.565479755401611
8.509520530700684 -2.899074077606201 -4.407490253448486
8.507637023925781 -2.073204517364502 -4.29315710067749
8.506285667419434 -1.2830249071121216 -4.217607498168945
8.61933422088623 -0.5210636258125305 -4.233577728271484
8.502341270446777 0.246174156665802 -4.17025089263916
8.50059986114502 1.0100833177566528 -4.196969032287598
8.625539779663086 1.8167885541915894 -4.321690082550049
8.621060371398926 2.63773512840271 -4.420121192932129
8.616975784301758 3.5042707920074463 -4.5606889724731445
12.868282318115234 9.868430137634277 -7.950632095336914
25.03711700439453 23.02430534362793 -16.67645263671875
24.083765029907227 26.486007690429688 -17.551204681396484
1.7469950914382935 8.531286239624023 -4.269491672515869
0.9718780517578125 8.590291023254395 -4.238489151000977
-2.1427133083343506 8.583189964294434 -4.337283611297607
-2.9357974529266357 8.461455345153809 -4.3910627365112305
5.978085041046143 -13.828035354614258 -7.385987758636475
8.515254020690918 -8.863724708557129 -6.026127815246582
8.687312126159668 -7.559959411621094 -5.646122455596924
8.516971588134766 -6.168166160583496 -5.1557230949401855
8.516610145568848 -5.075899124145508 -4.860851287841797
8.512239456176758 -4.09245491027832 -4.630622863769531
8.510187149047852 -3.1918318271636963 -4.456157684326172
8.508269309997559 -2.350147008895874 -4.327615261077881
8.506434440612793 -1.5494509935379028 -4.239134311676025
8.6199369430542 -0.7852864861488342 -4.243659019470215
8.502931594848633 -0.012973116710782051 -4.168797969818115
8.50119686126709 0.7483261823654175 -4.184060096740723
8.499434471130371 1.5213978290557861 -4.233309745788574
8.622607231140137 2.3534433841705322 -4.38209867477417
8.618396759033203 3.2024645805358887 -4.507683753967285
8.634111404418945 4.118661880493164 -4.690064430236816
28.205297470092773 20.295974731445312 -17.03643798828125
26.68351936340332 23.07810401916504 -17.296480178833008
5.8014421463012695 6.002100467681885 -4.092622756958008
5.723196983337402 8.552348136901855 -5.045273780822754
2.005800724029541 8.472838401794434 -4.268853664398193
-2.6642508506774902 8.50737190246582 -4.3707194328308105
-3.4913625717163086 8.426048278808594 -4.471688747406006
8.688404083251953 -8.03896713256836 -5.8033881187438965
8.517894744873047 -6.57356595993042 -5.275118827819824
8.51529598236084 -5.433369159698486 -4.952325344085693
8.628351211547852 -4.4768781661987305 -4.765805721282959
8.510869979858398 -3.4914138317108154 -4.5101447105407715
8.5089111328125 -2.631838321685791 -4.3667144775390625
8.507058143615723 -1.8189594745635986 -4.265087127685547
8.620542526245117 -1.0510108470916748 -4.257750034332275
8.618776321411133 -0.27586403489112854 -4.2277512550354
8.501790046691895 0.4879288673400879 -4.175094127655029
8.500041007995605 1.2555733919143677 -4.2125959396362305
8.624133110046387 2.0737416744232178 -4.348733425140381
8.619781494140625 2.907315254211426 -4.459989547729492
8.615626335144043 3.7921080589294434 -4.615097999572754
32.331787109375 21.80166244506836 -19.118642807006836
27.713531494140625 22.530277252197266 -17.51087188720703
25.900531768798828 25.211830139160156 -17.721139907836914
0.7364020347595215 8.717445373535156 -4.289184093475342
-3.197524309158325 8.434835433959961 -4.422576427459717
-17.54090690612793 -2.318509340286255 -8.674699783325195
8.689558982849121 -8.545894622802734 -5.975368499755859
8.686346054077148 -7.136191368103027 -5.511593341827393
8.516146659851074 -5.80640983581543 -5.053399562835693
8.629125595092773 -4.816476821899414 -4.8450751304626465
8.51156997680664 -3.7986345291137695 -4.5697503089904785
8.501667976379395 0.5414443612098694 -4.11172342300415
8.499916076660156 1.3100800514221191 -4.151008129119873
8.623817443847656 2.1309750080108643 -4.2875590324401855
8.619430541992188 2.9675393104553223 -4.399908542633057
8.615255355834961 3.856623649597168 -4.555858612060547
28.836286544799805 19.708826065063477 -16.85834503173828
26.054086685180664 21.454004287719727 -16.289941787719727
25.454763412475586 25.090728759765625 -17.251201629638672
6.006684303283691 8.522347450256348 -5.032419204711914
2.222848892211914 8.469895362854004 -4.2265143394470215
-3.2743585109710693 8.476758003234863 -4.386012077331543
8.689315795898438 -8.439112663269043 -5.846414566040039
8.686139106750488 -7.0452399253845215 -5.3981146812438965
8.515968322753906 -5.728382587432861 -4.9536943435668945
8.628963470458984 -4.745652198791504 -4.753157138824463
8.51142406463623 -3.7347359657287598 -4.486200332641602
