0.7455441951751709 -0.24222464859485626 0.360653817653656
0.7671399712562561 -0.17535154521465302 0.36204421520233154
0.7828230261802673 -0.10656561702489853 0.3634747266769409
0.7923799157142639 -0.0363825261592865 0.36493438482284546
0.7956652641296387 0.03466274216771126 0.3664121925830841
0.792592465877533 0.10600356757640839 0.36789625883102417
0.7830945253372192 0.17706608772277832 0.3693748414516449
0.7671727538108826 0.2472619265317917 0.37083542346954346
0.7448968291282654 0.3159979283809662 0.37226593494415283
0.7163561582565308 0.38267379999160767 0.3736538589000702
0.6817472577095032 0.4467039406299591 0.374986857175827
0.6412960886955261 0.5075054168701172 0.3762528896331787
0.5952870845794678 0.5645198822021484 0.3774401843547821
0.5440731048583984 0.6172133684158325 0.37853774428367615
0.4880653917789459 0.6650789380073547 0.37953534722328186
0.42772406339645386 0.7076563835144043 0.38042280077934265
0.3635578453540802 0.7445268034934998 0.38119155168533325
0.296114444732666 0.7753204107284546 0.3818342387676239
0.22600004076957703 0.7997334599494934 0.38234418630599976
0.1538304090499878 0.8175157904624939 0.38271620869636536
0.08026030659675598 0.8284834027290344 0.38294661045074463
0.005954025778919458 0.8325278759002686 0.38303297758102417
-0.06840474158525467 0.8296068906784058 0.38297438621520996
-0.1421324610710144 0.8197514414787292 0.3827716112136841
-0.21457508206367493 0.803057849407196 0.38242658972740173
-0.28506889939308167 0.7797013521194458 0.38194289803504944
-0.35298946499824524 0.7499151229858398 0.38132521510124207
-0.4177221953868866 0.7140008211135864 0.38057997822761536
-0.47872108221054077 0.6723114848136902 0.37971481680870056
-0.5354694724082947 0.6252630352973938 0.3787376284599304
-0.5874801278114319 0.5733108520507812 0.37765851616859436
-0.6343634724617004 0.5169514417648315 0.3764875829219818
-0.6757399439811707 0.45671534538269043 0.37523573637008667
-0.7113081216812134 0.39316001534461975 0.3739149272441864
-0.7408347725868225 0.32685962319374084 0.37253645062446594
-0.7641358971595764 0.25840792059898376 0.3711134195327759
-0.7810758948326111 0.18839599192142487 0.369657427072525
-0.7916075587272644 0.11742697656154633 0.36818161606788635
-0.7957125902175903 0.046079542487859726 0.3666975200176239
-0.7934312224388123 -0.025058014318346977 0.3652175962924957
-0.7848626375198364 -0.09542684257030487 0.3637534976005554
-0.7701544761657715 -0.16448041796684265 0.36231672763824463
-0.7494835257530212 -0.23169907927513123 0.3609178066253662
-0.7230856418609619 -0.29658782482147217 0.3595671057701111
-0.6912155151367188 -0.3586784303188324 0.35827451944351196
-0.6541769504547119 -0.41753703355789185 0.3570491075515747
-0.6123028993606567 -0.4727591276168823 0.3558991849422455
-0.5659360885620117 -0.5239743590354919 0.3548324406147003
-0.5154580473899841 -0.5708418488502502 0.3538558781147003
-0.46127963066101074 -0.6130622625350952 0.35297590494155884
-0.4038018584251404 -0.6503702998161316 0.3521983325481415
-0.3434549570083618 -0.6825277805328369 0.35152754187583923
-0.2806788682937622 -0.7093402743339539 0.3509678542613983
-0.2159426510334015 -0.7306429743766785 0.35052290558815
-0.14969582855701447 -0.7463098764419556 0.3501949906349182
-0.0824073851108551 -0.756244421005249 0.3499862551689148
-0.014536440372467041 -0.7603890895843506 0.34989792108535767
0.053428683429956436 -0.7587204575538635 0.3499305546283722
0.12101923674345016 -0.7512471079826355 0.3500840663909912
0.18776658177375793 -0.7380163669586182 0.35035720467567444
0.2532021701335907 -0.7191024422645569 0.350748747587204
0.31686726212501526 -0.6946213245391846 0.35125625133514404
0.37829336524009705 -0.6647229790687561 0.3518761992454529
0.43704158067703247 -0.6295889616012573 0.35260528326034546
0.4926826059818268 -0.5894351601600647 0.3534388542175293
0.5447874069213867 -0.5445165038108826 0.3543717861175537
0.5929464101791382 -0.49512195587158203 0.3553977906703949
0.6367795467376709 -0.4415722191333771 0.3565104603767395
0.6759165525436401 -0.3842269778251648 0.3577021658420563
0.710026204586029 -0.3234703838825226 0.3589649796485901
0.7387872934341431 -0.25972792506217957 0.3602900505065918
0.7619370222091675 -0.1934567093849182 0.3616679310798645
0.7792129516601562 -0.1251310259103775 0.3630886673927307
0.7904307246208191 -0.05526885390281677 0.364541620016098
0.795405924320221 0.015599601902067661 0.36601561307907104
0.7940422892570496 0.0869150459766388 0.3674992322921753
0.7862627506256104 0.1581108570098877 0.36898040771484375
0.7720590233802795 0.22859624028205872 0.3704470694065094
0.7514716386795044 0.29778045415878296 0.3718867301940918
0.7245994210243225 0.3650655746459961 0.3732872009277344
0.6915903091430664 0.4298635721206665 0.3746362328529358
0.6526800990104675 0.49158164858818054 0.3759211599826813
0.6081237196922302 0.5496638417243958 0.3771308958530426
0.558264434337616 0.6035640239715576 0.3782534599304199
0.5034939050674438 0.6527704000473022 0.3792787194252014
0.4442625343799591 0.696807861328125 0.3801965117454529
0.3810693323612213 0.7352429628372192 0.3809979259967804
0.3144424259662628 0.7676962018013 0.38167494535446167
0.24498812854290009 0.7938416600227356 0.38222089409828186
0.17330271005630493 0.8134171366691589 0.38263028860092163
0.10004089772701263 0.8262237906455994 0.3828990161418915
0.025876864790916443 0.8321264982223511 0.3830239772796631
-0.048534978181123734 0.8310706615447998 0.3830043077468872
-0.12250129133462906 0.8230627179145813 0.38283994793891907
-0.19535820186138153 0.8081871867179871 0.38253265619277954
-0.2664321959018707 0.7865920066833496 0.38208556175231934
-0.33509883284568787 0.758500874042511 0.3815031349658966
-0.4007434844970703 0.7241909503936768 0.38079145550727844
-0.46280044317245483 0.68401038646698 0.37995773553848267
-0.5207238793373108 0.6383557915687561 0.37900954484939575
-0.5740557909011841 0.58766770362854 0.3779568374156952
-0.6223381757736206 0.532435417175293 0.3768092393875122
-0.6652207970619202 0.4731822609901428 0.3755781352519989
-0.7023728489875793 0.4104607403278351 0.37427443265914917
-0.7335320115089417 0.3448377549648285 0.3729102909564972
-0.7585139274597168 0.2769022285938263 0.3714979588985443
-0.7771735191345215 0.20725013315677643 0.3700495958328247
-0.7894244194030762 0.13647741079330444 0.3685777187347412
-0.7952384948730469 0.06517491489648819 0.36709457635879517
-0.7946659922599792 -0.006073964759707451 0.3656124770641327
-0.7877666354179382 -0.07670295238494873 0.3641432225704193
-0.7746785283088684 -0.14616060256958008 0.36269789934158325
-0.7555885910987854 -0.2139224410057068 0.3612876832485199
-0.730692982673645 -0.27947866916656494 0.359923392534256
-0.700266420841217 -0.342363566160202 0.35861435532569885
-0.6645734310150146 -0.40212854743003845 0.357369989156723
-0.623966634273529 -0.45835939049720764 0.3561991751194
-0.5787593722343445 -0.5106807947158813 0.35510924458503723
-0.5293528437614441 -0.5587446093559265 0.35410812497138977
-0.476118803024292 -0.6022366285324097 0.3532017469406128
-0.41947782039642334 -0.6408820152282715 0.35239607095718384
-0.3598601818084717 -0.6744377017021179 0.35169631242752075
-0.29769599437713623 -0.7026993632316589 0.35110655426979065
-0.23343490064144135 -0.7254899144172668 0.3506304919719696
-0.16754595935344696 -0.7426761984825134 0.3502711355686188
-0.10048837214708328 -0.7541518211364746 0.3500303626060486
-0.0327310785651207 -0.7598495483398438 0.34990981221199036
0.03525711968541145 -0.7597360014915466 0.34991011023521423
0.10299769788980484 -0.7538149952888489 0.3500311076641083
0.1700122207403183 -0.7421167492866516 0.3502725064754486
0.23585164546966553 -0.7247132658958435 0.35063260793685913
0.30002787709236145 -0.70171058177948 0.3511091470718384
0.36210182309150696 -0.6732462048530579 0.3516993522644043
0.4216149151325226 -0.6394923329353333 0.3523997366428375
0.4781280755996704 -0.6006573438644409 0.3532058596611023
0.5312122702598572 -0.5569888949394226 0.3541126847267151
0.580467700958252 -0.5087612867355347 0.35511428117752075
0.6254947185516357 -0.4562903344631195 0.35620465874671936
0.665922999382019 -0.3999236226081848 0.35737594962120056
0.7014115452766418 -0.3400403559207916 0.3586205840110779
0.731629490852356 -0.2770538330078125 0.3599299490451813
0.7563040852546692 -0.2114114910364151 0.36129453778266907
0.7751827239990234 -0.14358751475811005 0.36270490288734436
0.7880322337150574 -0.07408539950847626 0.3641502261161804
0.7946974039077759 -0.003432824043557048 0.36561980843544006
0.7950330376625061 0.06782056391239166 0.36710187792778015
0.7889818549156189 0.13910333812236786 0.36858490109443665
0.7764963507652283 0.20983922481536865 0.37005674839019775
0.7576072812080383 0.2794301211833954 0.3715049624443054
0.7323939204216003 0.3472805321216583 0.3729170262813568
0.70101398229599 0.41280001401901245 0.3742808401584625
0.6636544466018677 0.47540056705474854 0.3755842447280884
0.6205801367759705 0.5345090627670288 0.37681517004966736
0.5721049308776855 0.5895818471908569 0.3779621720314026
0.5186107158660889 0.6400923728942871 0.37901443243026733
0.4605284333229065 0.6855558156967163 0.3799619972705841
0.39833757281303406 0.7255289554595947 0.380795419216156
0.33257612586021423 0.7596173882484436 0.3815065026283264
0.2638210356235504 0.7874783277511597 0.38208815455436707
0.19266866147518158 0.8088347315788269 0.3825344741344452
0.11976402997970581 0.8234684467315674 0.382841020822525
0.04577153921127319 0.8312294483184814 0.383004754781723
-0.02864455245435238 0.8320364356040955 0.38302382826805115
-0.10279086977243423 0.8258835673332214 0.3828979432582855
-0.1760132759809494 0.812833309173584 0.3826286196708679
-0.2476186752319336 0.7930167317390442 0.3822186291217804
-0.3169923424720764 0.766640305519104 0.38167205452919006
-0.3835098147392273 0.733964204788208 0.38099440932273865
-0.44657617807388306 0.6953169107437134 0.38019225001335144
-0.5056552290916443 0.6510854959487915 0.3792739808559418
-0.5602595806121826 0.6016957759857178 0.37824827432632446
-0.6099314093589783 0.5476322174072266 0.377125084400177
-0.6542909741401672 0.48940104246139526 0.3759150505065918
-0.6930074691772461 0.42755237221717834 0.3746296465396881
-0.7257990837097168 0.3626483976840973 0.37328046560287476
-0.7524425387382507 0.29527547955513 0.3718797266483307
-0.7728022336959839 0.2260248064994812 0.37043991684913635
-0.7867724299430847 0.15549473464488983 0.3689732253551483
-0.7943152189254761 0.08427374064922333 0.3674919009208679
-0.795441746711731 0.012955077923834324 0.3660084307193756
-0.790221631526947 -0.05789745971560478 0.3645344376564026
-0.7787830829620361 -0.1277177631855011 0.36308151483535767
-0.7612740397453308 -0.19598613679409027 0.361660897731781
-0.7379102110862732 -0.2621781527996063 0.36028334498405457
-0.7089369297027588 -0.32582324743270874 0.35895857214927673
-0.6746286749839783 -0.3864654004573822 0.3576960563659668
-0.6352989673614502 -0.44368061423301697 0.3565046489238739
-0.5912903547286987 -0.497083842754364 0.35539260506629944
-0.5429651737213135 -0.5463171005249023 0.35436689853668213
-0.4907146096229553 -0.5910637974739075 0.35343459248542786
-0.4349495470523834 -0.6310296058654785 0.35260146856307983
-0.3760806918144226 -0.6659712195396423 0.35187286138534546
-0.3145480155944824 -0.6956649422645569 0.35125336050987244
-0.2508108913898468 -0.7199362516403198 0.35074660181999207
-0.18530912697315216 -0.7386322617530823 0.35035568475723267
-0.11852147430181503 -0.7516441345214844 0.35008299350738525
-0.050907135009765625 -0.7588924169540405 0.3499301075935364
0.017065081745386124 -0.7603365778923035 0.3498980700969696
0.0849166288971901 -0.7559680938720703 0.3499870300292969
0.1521788090467453 -0.74580979347229 0.35019636154174805
0.21837323904037476 -0.7299240827560425 0.35052475333213806
0.2830411493778229 -0.7084069848060608 0.3509702980518341
0.34572386741638184 -0.6813890933990479 0.35153061151504517
0.4059627950191498 -0.6490324139595032 0.3522018492221832
0.4633188545703888 -0.6115334033966064 0.35298019647598267
0.5173630118370056 -0.5691347122192383 0.353860467672348
0.5676855444908142 -0.5220960974693298 0.35483747720718384
0.6138771772384644 -0.47072848677635193 0.3559045195579529
0.6555773019790649 -0.41536471247673035 0.3570548892021179
0.6924155950546265 -0.35638657212257385 0.3582807779312134
0.7240805625915527 -0.2941877543926239 0.35957351326942444
0.7502606511116028 -0.22921094298362732 0.36092451214790344
0.7707128524780273 -0.16192294657230377 0.3623237609863281
0.7851939797401428 -0.092819944024086 0.3637605309486389
0.793529748916626 -0.02241990715265274 0.3652248978614807
0.7955647706985474 0.04872748628258705 0.36670470237731934
0.7912322878837585 0.12005812674760818 0.36818861961364746
0.7804650664329529 0.1909981369972229 0.3696647584438324
0.7632841467857361 0.26095181703567505 0.3711204528808594
0.7397591471672058 0.3293285369873047 0.37254348397254944
0.7100085020065308 0.39552798867225647 0.37392133474349976
0.6742192506790161 0.4589695632457733 0.3752421438694
0.6326466202735901 0.5190653204917908 0.37649351358413696
0.5855848789215088 0.5752692818641663 0.3776640295982361
0.5333963632583618 0.6270498633384705 0.3787428140640259
0.4764925241470337 0.6739100217819214 0.37971922755241394
0.41535288095474243 0.7153918147087097 0.3805839419364929
0.35049596428871155 0.7510913014411926 0.3813285827636719
0.2824792265892029 0.7806506752967834 0.38194549083709717
0.21190877258777618 0.8037711381912231 0.3824285864830017
0.13941015303134918 0.8202221989631653 0.3827729821205139
0.06563805788755417 0.8298318386077881 0.3829750120639801
-0.00872369110584259 0.832504153251648 0.38303282856941223
-0.0830109640955925 0.8282089233398438 0.3829456865787506
-0.15654027462005615 0.8169963359832764 0.3827146887779236
-0.22865760326385498 0.7989730834960938 0.3823419213294983
-0.29868948459625244 0.7743260264396667 0.3818313479423523
-0.3660213053226471 0.7433082461357117 0.38118818402290344
-0.4300678074359894 0.706223726272583 0.3804185390472412
-0.4902634024620056 0.6634448170661926 0.3795306384563446
-0.5461111068725586 0.6153925657272339 0.3785327076911926
-0.597152829170227 0.5625295042991638 0.37743452191352844
-0.6429699063301086 0.5053595304489136 0.37624678015708923
-0.6832218170166016 0.4444253146648407 0.37498030066490173
-0.717616617679596 0.38028186559677124 0.373647004365921
-0.7459215521812439 0.3135130703449249 0.3722590506076813
-0.7679816484451294 0.24470771849155426 0.37082839012145996
-0.7836613059043884 0.17445939779281616 0.3693675100803375
-0.7929232120513916 0.10336632281541824 0.3678889274597168
-0.7957684397697449 0.03201688081026077 0.36640486121177673
-0.7922372817993164 -0.03901528939604759 0.36492720246315
-0.7824484705924988 -0.10916649550199509 0.3634675443172455
-0.7665398120880127 -0.17789994180202484 0.3620375096797943
-0.744717538356781 -0.24469608068466187 0.36064741015434265
-0.7172172665596008 -0.30906960368156433 0.3593074083328247
-0.6843133568763733 -0.3705572783946991 0.3580273389816284
-0.646290123462677 -0.4287300407886505 0.3568160831928253
-0.6034998297691345 -0.48318585753440857 0.3556818962097168
-0.5562950372695923 -0.5335690975189209 0.3546324074268341
-0.5050572752952576 -0.5795437693595886 0.35367462038993835
-0.45018771290779114 -0.6208177208900452 0.3528144657611847
-0.3921067714691162 -0.6571258306503296 0.3520573377609253
-0.33125442266464233 -0.6882445216178894 0.3514082133769989
-0.2680608332157135 -0.7139819264411926 0.3508709669113159
-0.20298531651496887 -0.7341827750205994 0.35044875741004944
-0.13649693131446838 -0.7487236857414246 0.3501441776752472
-0.06905483454465866 -0.7575201988220215 0.34995925426483154
-0.0011279055615887046 -0.7605196237564087 0.34989485144615173
0.06680531054735184 -0.7577061057090759 0.3499513268470764
0.13426633179187775 -0.7490928769111633 0.3501284718513489
0.20078648626804352 -0.7347322702407837 0.35042524337768555
0.26590701937675476 -0.7147106528282166 0.3508398234844208
0.32916921377182007 -0.6891489028930664 0.35136961936950684
0.3901047110557556 -0.6582018733024597 0.3520115613937378
0.4482744634151459 -0.6220584511756897 0.35276153683662415
0.5032492280006409 -0.580944299697876 0.35361525416374207
0.5546097755432129 -0.535121500492096 0.3545667827129364
0.6019465327262878 -0.4848792552947998 0.3556104898452759
0.6448795199394226 -0.4305526912212372 0.356739342212677
0.6830480694770813 -0.3724992573261261 0.3579457104206085
0.716130793094635 -0.31112000346183777 0.3592216372489929
0.7438066601753235 -0.2468428909778595 0.3605578541755676
0.765812873840332 -0.18012507259845734 0.3619450330734253
0.7819162011146545 -0.11146028339862823 0.36337295174598694
0.7919126749038696 -0.04135674983263016 0.3648309111595154
0.7956474423408508 0.02964559756219387 0.3663078248500824
0.7930140495300293 0.10098499059677124 0.36779189109802246
0.7839749455451965 0.172087624669075 0.36927106976509094
0.7685023546218872 0.2423625886440277 0.37073346972465515
0.7466655373573303 0.3112192153930664 0.37216657400131226
0.7185737490653992 0.3780596852302551 0.3735578954219818
0.6843744516372681 0.4422958791255951 0.37489500641822815
0.6443231701850891 0.5033448338508606 0.37616607546806335
0.598694384098053 0.5606433749198914 0.37735944986343384
0.5478410124778748 0.6136574745178223 0.3784637451171875
0.4921547472476959 0.6618802547454834 0.37946853041648865
0.43210551142692566 0.704841673374176 0.3803640604019165
0.368182510137558 0.7421253323554993 0.3811415135860443
0.3009529113769531 0.7733588218688965 0.38179320096969604
0.23100349307060242 0.7982288002967834 0.3823127746582031
0.15895973145961761 0.8164849877357483 0.3826945424079895
0.0854666531085968 0.8279362320899963 0.3829350173473358
0.011198308318853378 0.8324714303016663 0.38303160667419434
-0.06318110972642899 0.8300411701202393 0.3829832375049591
-0.13697829842567444 0.8206689357757568 0.3827905058860779
-0.20953916013240814 0.8044536113739014 0.382455438375473
-0.2801903188228607 0.7815582156181335 0.38198134303092957
-0.34830719232559204 0.7522158622741699 0.3813728392124176
-0.4132850468158722 0.7167209386825562 0.38063642382621765
-0.4745680093765259 0.6754288077354431 0.3797793388366699
-0.5316199660301208 0.6287435293197632 0.37880995869636536
-0.5839828848838806 0.5771176815032959 0.37773773074150085
-0.6312381029129028 0.5210527777671814 0.37657272815704346
-0.6730057597160339 0.4610697329044342 0.37532636523246765
-0.7089942693710327 0.39772829413414 0.3740098476409912
-0.738960862159729 0.33160269260406494 0.3726351857185364
-0.7627016305923462 0.26328426599502563 0.37121474742889404
-0.7800911664962769 0.19336406886577606 0.3697609007358551
-0.7910721302032471 0.1224379688501358 0.3682856559753418
-0.7956361174583435 0.0510992594063282 0.3668018877506256
-0.7937941551208496 -0.020071037113666534 0.3653213381767273
-0.7856746315956116 -0.09050925821065903 0.3638557493686676
-0.7713860273361206 -0.15967364609241486 0.3624168336391449
-0.7511250376701355 -0.22703729569911957 0.36101484298706055
-0.725127100944519 -0.29210516810417175 0.35966047644615173
-0.6936275362968445 -0.35440900921821594 0.35836347937583923
-0.6569497585296631 -0.41351017355918884 0.35713303089141846
-0.6153974533081055 -0.46899905800819397 0.35597747564315796
-0.5693424344062805 -0.5205079913139343 0.3549046218395233
-0.5191370844841003 -0.5676934719085693 0.35392165184020996
-0.46520206332206726 -0.6102513074874878 0.353034645318985
-0.4079383313655853 -0.6479114294052124 0.3522495925426483
-0.34778594970703125 -0.6804379820823669 0.3515712022781372
-0.2851652204990387 -0.7076317667961121 0.3510035574436188
-0.22055503726005554 -0.7293254137039185 0.3505503833293915
-0.154395192861557 -0.7453927993774414 0.3502142131328583
-0.08716443181037903 -0.7557327747344971 0.3499971032142639
-0.01932184025645256 -0.7602877020835876 0.34990036487579346
0.048644211143255234 -0.7590292096138 0.3499244749546051
0.11628452688455582 -0.7519634366035461 0.35006943345069885
0.18311092257499695 -0.7391328811645508 0.35033416748046875
0.24865484237670898 -0.7206167578697205 0.3507174551486969
0.312447726726532 -0.6965234875679016 0.351216584444046
0.3740505278110504 -0.6670007109642029 0.35182905197143555
0.43300458788871765 -0.6322275400161743 0.3525505065917969
0.48888078331947327 -0.5924199223518372 0.35337692499160767
0.5412402749061584 -0.5478278398513794 0.3543028235435486
0.5896929502487183 -0.49874022603034973 0.3553227186203003
0.6338391900062561 -0.44547292590141296 0.3564292788505554
-0.7816764116287231 -0.010895445011556149 0.3655119240283966
-0.7745063900947571 -0.08033484220504761 0.3640672266483307
-0.7612550854682922 -0.14859583973884583 0.3626469373703003
-0.7420993447303772 -0.21515636146068573 0.3612617552280426
-0.7172455191612244 -0.27952370047569275 0.3599218726158142
-0.6869583129882812 -0.34123462438583374 0.3586375415325165
-0.6515219807624817 -0.3998502790927887 0.3574168384075165
-0.6112399697303772 -0.45496854186058044 0.3562692105770111
-0.5664746165275574 -0.5062118172645569 0.3552018702030182
-0.5175684094429016 -0.5532440543174744 0.3542219400405884
-0.4649323523044586 -0.5957584977149963 0.3533361852169037
-0.4089673161506653 -0.6334826350212097 0.35254958271980286
-0.3500840663909912 -0.6661829352378845 0.35186782479286194
-0.2887224555015564 -0.6936505436897278 0.3512943983078003
-0.22533215582370758 -0.7157204151153564 0.35083356499671936
-0.16036264598369598 -0.7322619557380676 0.35048750042915344
-0.09426339715719223 -0.7431684136390686 0.35025861859321594
-0.027513060718774796 -0.7483824491500854 0.35014814138412476
0.03941953554749489 -0.747868537902832 0.35015684366226196
0.10608517378568649 -0.7416301369667053 0.3502845764160156
0.1720152050256729 -0.7297074794769287 0.3505305349826813
0.23673126101493835 -0.7121673226356506 0.3508935570716858
0.2997843325138092 -0.6891182661056519 0.35137099027633667
0.36073535680770874 -0.6607004404067993 0.3519604504108429
0.41911590099334717 -0.6270883083343506 0.35265791416168213
0.474516361951828 -0.5884902477264404 0.3534590005874634
0.5265173316001892 -0.54515141248703 0.354358971118927
0.5746995210647583 -0.4973461925983429 0.3553520143032074
0.6186827421188354 -0.4453878700733185 0.3564315736293793
0.6581162810325623 -0.3896240293979645 0.3575904667377472
0.6926591992378235 -0.33042892813682556 0.3588206470012665
0.7219901084899902 -0.26821836829185486 0.3601139783859253
0.745836615562439 -0.20343239605426788 0.3614608645439148
0.7639557719230652 -0.13654033839702606 0.3628518581390381
0.77613365650177 -0.06804072856903076 0.364276260137558
0.7821957468986511 0.0015435771783813834 0.36572372913360596
0.7820456624031067 0.07167281210422516 0.3671824634075165
0.7755869626998901 0.14178277552127838 0.36864104866981506
0.7628113627433777 0.21130217611789703 0.37008756399154663
0.7437394261360168 0.2796451151371002 0.371509850025177
0.7184704542160034 0.34623071551322937 0.37289565801620483
0.6871325373649597 0.41047102212905884 0.3742329180240631
0.6499419212341309 0.47179755568504333 0.3755097985267639
0.6071634888648987 0.5296445488929749 0.3767143189907074
0.5590914487838745 0.5834779739379883 0.3778356909751892
0.5061273574829102 0.6327909827232361 0.37886306643486023
0.4486922025680542 0.6771060228347778 0.37978652119636536
0.38725578784942627 0.7159942984580994 0.38059738278388977
0.3223559856414795 0.749069094657898 0.3812873661518097
0.2545502781867981 0.7760069370269775 0.3818496763706207
0.18444472551345825 0.7965308427810669 0.3822787404060364
0.11266481131315231 0.8104370832443237 0.38257017731666565
0.03986512869596481 0.8175832033157349 0.38272109627723694
-0.03330959379673004 0.8178949356079102 0.3827296495437622
-0.10617576539516449 0.8113689422607422 0.38259628415107727
-0.1780792623758316 0.7980751395225525 0.3823217749595642
-0.24836602807044983 0.778144359588623 0.3819093108177185
-0.31640180945396423 0.7517783045768738 0.3813629150390625
-0.3816012740135193 0.7192468047142029 0.38068801164627075
-0.44336944818496704 0.6808686852455139 0.37989166378974915
-0.5011993050575256 0.6370257139205933 0.37898147106170654
-0.5545939207077026 0.5881441235542297 0.37796613574028015
-0.6031147837638855 0.5346960425376892 0.37685590982437134
-0.6464018225669861 0.47718268632888794 0.3756606876850128
-0.6841143369674683 0.41614440083503723 0.37439224123954773
-0.7159899473190308 0.3521336317062378 0.3730613589286804
-0.7418153285980225 0.28572937846183777 0.3716810643672943
-0.7614547610282898 0.2175130397081375 0.37026259303092957
-0.7748023271560669 0.1480659395456314 0.36881834268569946
-0.7818203568458557 0.0779765248298645 0.3673606812953949
-0.7825393676757812 0.00781845673918724 0.3659011721611023
-0.777019202709198 -0.06184687465429306 0.36445173621177673
-0.7653881907463074 -0.13047532737255096 0.3630238175392151
-0.7477937936782837 -0.19753988087177277 0.3616282641887665
-0.7244424819946289 -0.2625405490398407 0.36027541756629944
-0.6955891251564026 -0.3250066637992859 0.35897520184516907
-0.6614885330200195 -0.38449209928512573 0.35773664712905884
-0.622473955154419 -0.4405824840068817 0.35656875371932983
-0.5788682699203491 -0.49289777874946594 0.3554791212081909
-0.5310434699058533 -0.5410897135734558 0.3544752299785614
-0.47936156392097473 -0.5848416686058044 0.35356369614601135
-0.42424318194389343 -0.623871386051178 0.35275009274482727
-0.3660989999771118 -0.6579356789588928 0.35203978419303894
-0.3053591549396515 -0.6868231892585754 0.35143691301345825
-0.24246355891227722 -0.710351824760437 0.3509455919265747
-0.17787152528762817 -0.7283833026885986 0.3505686819553375
-0.11204226315021515 -0.7408066391944885 0.350308358669281
-0.045415401458740234 -0.7475468516349792 0.350165992975235
0.021520692855119705 -0.7485685348510742 0.3501426577568054
0.08829724043607712 -0.74386066198349 0.3502388000488281
0.15447485446929932 -0.7334510684013367 0.3504531681537628
0.21955564618110657 -0.717406690120697 0.3507850468158722
0.28310033679008484 -0.6958189010620117 0.3512321412563324
0.34466007351875305 -0.6688230633735657 0.3517918288707733
0.403766393661499 -0.636581301689148 0.35246092081069946
0.4600096642971039 -0.5992948412895203 0.3532347083091736
0.5129607915878296 -0.5571965575218201 0.35410887002944946
0.5622002482414246 -0.5105582475662231 0.3550776541233063
0.6073480844497681 -0.45967885851860046 0.3561346232891083
0.6480339169502258 -0.4048985242843628 0.3572731018066406
0.6839167475700378 -0.34658172726631165 0.3584849536418915
0.7146653532981873 -0.28513696789741516 0.3597621023654938
0.7400076389312744 -0.22099699079990387 0.36109572649002075
0.7596805691719055 -0.1546189785003662 0.362475723028183
0.7734608054161072 -0.08649902045726776 0.3638923466205597
0.781183660030365 -0.01715262420475483 0.3653346300125122
0.782703697681427 0.05288519710302353 0.36679166555404663
0.7779343724250793 0.12305516749620438 0.3682514727115631
0.7668477296829224 0.19278839230537415 0.3697022795677185
0.7494547367095947 0.26150622963905334 0.37113234400749207
0.725834846496582 0.3286181092262268 0.37252914905548096
0.6961067318916321 0.39354318380355835 0.37388044595718384
0.6604571342468262 0.4557057321071625 0.37517470121383667
0.6191412806510925 0.514537513256073 0.3763996660709381
0.5724534392356873 0.5694946646690369 0.3775444030761719
0.5207560062408447 0.620065450668335 0.37859785556793213
0.4644700586795807 0.6657624840736389 0.37955015897750854
0.40406534075737 0.7061424851417542 0.38039183616638184
0.34003111720085144 0.7408087253570557 0.3811149597167969
0.27294424176216125 0.7694180607795715 0.38171201944351196
0.20340114831924438 0.7916814088821411 0.3821772634983063
0.13200776278972626 0.8073756694793701 0.38250595331192017
0.05940902978181839 0.8163386583328247 0.3826945424079895
-0.013730810955166817 0.8184840083122253 0.38274139165878296
-0.08673787117004395 0.8137838840484619 0.38264572620391846
-0.15896770358085632 0.8022886514663696 0.38240888714790344
-0.22974678874015808 0.7841170430183411 0.38203293085098267
-0.2984504997730255 0.759451150894165 0.38152191042900085
-0.3644641935825348 0.7285388112068176 0.3808808922767639
-0.4272123873233795 0.691689133644104 0.3801162540912628
-0.48613932728767395 0.6492696404457092 0.3792356848716736
-0.5407673120498657 0.6016938090324402 0.37824752926826477
-0.5906287431716919 0.5494168996810913 0.3771617114543915
-0.6353536248207092 0.4929403066635132 0.3759881556034088
-0.6745818853378296 0.43279215693473816 0.37473800778388977
-0.7080413699150085 0.369522362947464 0.3734230101108551
-0.7355085611343384 0.30370032787323 0.3720545768737793
-0.7568091154098511 0.23590989410877228 0.370645135641098
-0.7718468308448792 0.16673728823661804 0.3692066967487335
-0.7805643081665039 0.09676117449998856 0.3677513003349304
-0.7829629182815552 0.02656753920018673 0.36629119515419006
-0.7791025638580322 -0.04328467696905136 0.3648380935192108
-0.7690918445587158 -0.11224153637886047 0.36340317130088806
-0.753068745136261 -0.17977355420589447 0.36199814081192017
-0.7312394380569458 -0.24537579715251923 0.3606327772140503
-0.7038297653198242 -0.3085654675960541 0.35931745171546936
-0.6711140275001526 -0.3688890039920807 0.35806167125701904
-0.6333764791488647 -0.42592716217041016 0.35687392950057983
-0.5909696221351624 -0.47929006814956665 0.35576263070106506
-0.5442360043525696 -0.52861487865448 0.35473525524139404
-0.4935474395751953 -0.5735849142074585 0.35379835963249207
-0.43930497765541077 -0.613903284072876 0.35295790433883667
-0.3819292485713959 -0.6493194699287415 0.3522193729877472
-0.32184046506881714 -0.6796122789382935 0.3515875041484833
-0.25948846340179443 -0.70458984375 0.35106611251831055
-0.19530320167541504 -0.7241042256355286 0.3506580889225006
-0.1297536939382553 -0.7380369305610657 0.35036635398864746
-0.06328937411308289 -0.746303379535675 0.3501923978328705
0.0036013813223689795 -0.7488559484481812 0.350137323141098
0.07046931236982346 -0.745678722858429 0.3502015471458435
0.13685546815395355 -0.7367920279502869 0.35038435459136963
0.2022716999053955 -0.7222458720207214 0.3506849706172943
0.2662787437438965 -0.7021316885948181 0.35110151767730713
0.3284081518650055 -0.6765676736831665 0.3516313135623932
0.38822078704833984 -0.6457135081291199 0.3522714078426361
0.44526785612106323 -0.6097557544708252 0.3530177175998688
0.49913981556892395 -0.5689199566841125 0.35386550426483154
0.549407422542572 -0.5234659314155579 0.35480940341949463
0.5956905484199524 -0.47368982434272766 0.3558436632156372
0.6375993490219116 -0.41991743445396423 0.35696089267730713
0.6748026013374329 -0.36251071095466614 0.3581538200378418
0.7069593667984009 -0.30186107754707336 0.3594145178794861
0.7337777018547058 -0.23839892446994781 0.3607337772846222
0.7549850940704346 -0.17257405817508698 0.3621025085449219
0.7703582048416138 -0.10487039387226105 0.3635104298591614
0.779722273349762 -0.03580102324485779 0.36494675278663635
0.7829124927520752 0.03410632908344269 0.3664010465145111
0.7798326015472412 0.10429724305868149 0.36786118149757385
0.7704350352287292 0.17420519888401031 0.36931562423706055
0.75472092628479 0.24324914813041687 0.37075239419937134
0.7327601313591003 0.3108481764793396 0.37215927243232727
0.7046419382095337 0.3764165937900543 0.373524010181427
0.6705628037452698 0.43937376141548157 0.37483474612236023
0.6307389140129089 0.4991512894630432 0.37607941031455994
0.5854548215866089 0.5551981329917908 0.37724652886390686
0.5350632071495056 0.6069900989532471 0.378325492143631
0.47996556758880615 0.6540375351905823 0.37930572032928467
0.4206024706363678 0.6958798766136169 0.3801780641078949
0.3574923872947693 0.7321106791496277 0.3809335231781006
0.29116350412368774 0.7623721361160278 0.3815649449825287
0.22222192585468292 0.786358118057251 0.3820660412311554
0.15125417709350586 0.8038281798362732 0.38243162631988525
0.07891498506069183 0.8146057724952698 0.382657915353775
0.005858864169567823 0.818579912185669 0.3827427625656128
-0.067259781062603 0.8157106041908264 0.3826853930950165
-0.1397574245929718 0.8060262799263 0.382485955953598
-0.21098975837230682 0.7896236777305603 0.38214704394340515
-0.28030285239219666 0.7666751146316528 0.38167157769203186
-0.3471015393733978 0.7374066114425659 0.3810647428035736
-0.41077128052711487 0.7021124362945557 0.38033246994018555
-0.47077569365501404 0.6611454486846924 0.3794822692871094
-0.5265982151031494 0.6149048209190369 0.3785218596458435
-0.5777807235717773 0.5638383626937866 0.3774612247943878
-0.623914361000061 0.5084376335144043 0.3763101100921631
-0.6646388173103333 0.44921621680259705 0.375079482793808
-0.699672281742096 0.3867265582084656 0.37378066778182983
-0.7287522554397583 0.3215307295322418 0.372425377368927
-0.7517239451408386 0.25421011447906494 0.3710256814956665
-0.7684420347213745 0.18534860014915466 0.36959365010261536
-0.7788493037223816 0.11553466320037842 0.36814162135124207
-0.7829373478889465 0.045339617878198624 0.36668166518211365
-0.780746579170227 -0.02465800940990448 0.36522552371025085
-0.7723659873008728 -0.09390910714864731 0.3637847900390625
-0.7579337954521179 -0.1618719846010208 0.3623706102371216
-0.7376364469528198 -0.22803927958011627 0.36099350452423096
-0.7116997241973877 -0.2919183075428009 0.3596639931201935
-0.680368959903717 -0.35305067896842957 0.35839125514030457
-0.6439476609230042 -0.4110097885131836 0.35718458890914917
-0.6027591228485107 -0.4653911590576172 0.3560522496700287
-0.5571460127830505 -0.5158317685127258 0.3550015091896057
-0.5074703693389893 -0.5619955062866211 0.3540397584438324
-0.4541430175304413 -0.6035854816436768 0.3531728982925415
-0.39756494760513306 -0.6403365135192871 0.352406769990921
-0.33816641569137573 -0.6720175743103027 0.3517459034919739
-0.27636778354644775 -0.6984344124794006 0.3511945903301239
-0.21262837946414948 -0.7194244265556335 0.35075607895851135
-0.1473977118730545 -0.7348593473434448 0.35043302178382874
-0.08113498240709305 -0.7446497082710266 0.3502272069454193
-0.0143188601359725 -0.7487357258796692 0.35014036297798157
0.052611153572797775 -0.7470914125442505 0.35017257928848267
0.11916681379079819 -0.7397278547286987 0.35032379627227783
0.18488921225070953 -0.7266898155212402 0.35059309005737305
0.24930980801582336 -0.7080541849136353 0.35097870230674744
0.31198933720588684 -0.6839341521263123 0.35147857666015625
0.37245944142341614 -0.6544773578643799 0.35208937525749207
0.43029090762138367 -0.6198655366897583 0.35280776023864746
0.4850543737411499 -0.5803118944168091 0.3536289930343628
0.5363306403160095 -0.5360665321350098 0.3545478880405426
0.5837198495864868 -0.4874158799648285 0.355558305978775
0.6268321871757507 -0.4346783459186554 0.3566540479660034
0.6653265953063965 -0.37820863723754883 0.3578276038169861
0.6988621950149536 -0.3183859586715698 0.3590710461139679
0.7271372079849243 -0.2556309401988983 0.3603755235671997
0.7498694658279419 -0.1903933882713318 0.36173200607299805
0.7668353915214539 -0.12314262986183167 0.3631303310394287
0.7778114676475525 -0.054386965930461884 0.36456024646759033
0.7826623320579529 0.01535082794725895 0.3660108745098114
0.7812718749046326 0.0855187401175499 0.36747053265571594
0.7735731601715088 0.1555575281381607 0.3689277470111847
0.7595479488372803 0.22489094734191895 0.3703703284263611
0.7392463684082031 0.29293569922447205 0.37178632616996765
0.7127672433853149 0.3591035008430481 0.3731636106967926
0.6802587509155273 0.4228162169456482 0.3744899034500122
0.641936719417572 0.4834956228733063 0.3757533133029938
0.5980857610702515 0.540595531463623 0.3769424259662628
0.5490293502807617 0.5935770869255066 0.3780459463596344
0.4951396882534027 0.6419407725334167 0.37905365228652954
0.4368768334388733 0.6852161884307861 0.37995558977127075
0.3747202455997467 0.7229872941970825 0.38074323534965515
0.30919817090034485 0.7548790574073792 0.38140854239463806
0.24088752269744873 0.7805681228637695 0.38194504380226135
0.17040403187274933 0.7998045086860657 0.3823472559452057
0.09837321937084198 0.8123844861984253 0.38261106610298157
0.02543988637626171 0.8181875348091125 0.38273391127586365
-0.047721996903419495 0.8171491622924805 0.3827146887779236
-0.12044838815927505 0.8092807531356812 0.3825531005859375
-0.19208519160747528 0.7946643829345703 0.3822512626647949
-0.2619783878326416 0.7734453678131104 0.3818119764328003
-0.32950353622436523 0.7458426356315613 0.38123977184295654
-0.3940655291080475 0.7121285200119019 0.3805404603481293
-0.45510852336883545 0.6726412177085876 0.37972089648246765
-0.5120962262153625 0.627769947052002 0.3787892162799835
-0.5645608901977539 0.5779480934143066 0.3777543604373932
-0.6120837926864624 0.523657500743866 0.3766264319419861
-0.6542851328849792 0.4654068648815155 0.37541595101356506
-0.6908731460571289 0.403736412525177 0.37413421273231506
-0.7215660214424133 0.33921071887016296 0.3727928102016449
-0.7461794018745422 0.27240151166915894 0.3714039623737335
-0.7645877599716187 0.20389503240585327 0.3699793815612793
-0.7766849398612976 0.13427743315696716 0.36853164434432983
-0.7824625968933105 0.0641273707151413 0.3670724332332611
-0.7819415330886841 -0.005976602900773287 0.3656141459941864
-0.7752107977867126 -0.07548047602176666 0.3641682267189026
-0.7623792290687561 -0.14384007453918457 0.36274582147598267
-0.7436333298683167 -0.21053825318813324 0.361357718706131
-0.7191795110702515 -0.27507495880126953 0.36001449823379517
-0.6892629861831665 -0.3369869291782379 0.35872572660446167
-0.6541775465011597 -0.39583534002304077 0.3575006127357483
-0.6142270565032959 -0.45121070742607117 0.3563475012779236
-0.5697637796401978 -0.5027403831481934 0.3552742004394531
-0.5211400985717773 -0.5500783920288086 0.3542880117893219
-0.4687572121620178 -0.5929205417633057 0.3533952236175537
-0.4130062460899353 -0.6309893727302551 0.3526017665863037
-0.35431745648384094 -0.664048969745636 0.3519122302532196
-0.29311123490333557 -0.6918929815292358 0.3513311743736267
-0.2298469990491867 -0.7143464684486389 0.3508622646331787
-0.16497427225112915 -0.7312811613082886 0.3505079448223114
-0.09894245862960815 -0.7425881624221802 0.3502708375453949
-0.032230280339717865 -0.7482028007507324 0.3501519560813904
0.03471300005912781 -0.7480916976928711 0.35015228390693665
0.1014186292886734 -0.7422560453414917 0.3502717614173889
0.16740813851356506 -0.7307311296463013 0.35050949454307556
0.23222273588180542 -0.7135838270187378 0.35086408257484436
0.29541343450546265 -0.6909177899360657 0.35133376717567444
0.3565215468406677 -0.6628731489181519 0.35191527009010315
0.4151080250740051 -0.6296194195747375 0.35260528326034546
0.47072410583496094 -0.5913650989532471 0.35339948534965515
0.5229699015617371 -0.54835045337677 0.35429275035858154
0.5714359879493713 -0.5008496642112732 0.35527923703193665
0.6157324314117432 -0.4491739273071289 0.3563529849052429
0.6554985046386719 -0.3936631977558136 0.3575063943862915
0.6903935074806213 -0.33469924330711365 0.35873183608055115
0.7201058268547058 -0.27268797159194946 0.3600209057331085
0.7443433403968811 -0.2080671638250351 0.36136457324028015
0.7628728151321411 -0.14130844175815582 0.36275267601013184
0.7754708528518677 -0.0729030892252922 0.3641752600669861
0.7819725871086121 -0.0033763775136321783 0.36562132835388184
0.7822620272636414 0.06672944128513336 0.36707961559295654
0.7762525081634521 0.1368599683046341 0.36853864789009094
0.7639162540435791 0.20643895864486694 0.3699864149093628
0.7452835440635681 0.2748854160308838 0.37141066789627075
0.720443844795227 0.34161368012428284 0.37279951572418213
0.6895352602005005 0.4060404598712921 0.3741406202316284
0.6527445316314697 0.4675876200199127 0.37542206048965454
0.6103463172912598 0.5256966948509216 0.3766322135925293
0.5626446604728699 0.5798312425613403 0.3777596950531006
0.5100119113922119 0.6294770836830139 0.3787941038608551
0.45286887884140015 0.6741589307785034 0.3797251880168915
0.3917049765586853 0.7134435176849365 0.38054412603378296
0.3270288109779358 0.7469387054443359 0.3812428116798401
0.2594076693058014 0.7743163108825684 0.3818144202232361
0.1894475519657135 0.7953020334243774 0.38225311040878296
0.11776420474052429 0.8096796274185181 0.3825543224811554
0.04500249773263931 0.8173043727874756 0.3827151358127594
-0.02816355973482132 0.8180970549583435 0.3827337622642517
-0.10106989741325378 0.8120520114898682 0.38261017203330994
-0.17306232452392578 0.7992292046546936 0.382345587015152
-0.2434868961572647 0.7797595262527466 0.3819427490234375
-0.31169945001602173 0.7538397908210754 0.38140562176704407
-0.3771147131919861 0.7217301726341248 0.3807397484779358
-0.4391474723815918 0.6837517619132996 0.37995147705078125
-0.49727118015289307 0.6402817964553833 0.3790489137172699
-0.5509887933731079 0.5917388200759888 0.37804076075553894
-0.5998717546463013 0.5385974645614624 0.37693679332733154
-0.6435304284095764 0.4813518524169922 0.3757472038269043
-0.6816439032554626 0.4205445647239685 0.37448349595069885
-0.713939905166626 0.35672569274902344 0.373156875371933
-0.7402049899101257 0.29046937823295593 0.3717796206474304
-0.7602744102478027 0.22235949337482452 0.3703632950782776
-0.7740615606307983 0.152984619140625 0.36892059445381165
-0.7815386056900024 0.08291858434677124 0.3674633800983429
-0.7826970219612122 0.012747309170663357 0.3660038709640503
-0.7776162624359131 -0.05697273463010788 0.36455321311950684
-0.766404926776886 -0.1256875842809677 0.36312347650527954
-0.7492204904556274 -0.1928824782371521 0.3617253005504608
-0.7262691855430603 -0.25804275274276733 0.36036911606788635
-0.6977864503860474 -0.32070258259773254 0.3590647876262665
-0.6640565395355225 -0.3804110288619995 0.3578217923641205
-0.6253733038902283 -0.43675363063812256 0.3566485643386841
-0.5820794701576233 -0.48934799432754517 0.35555312037467957
-0.5345371961593628 -0.5378408432006836 0.354543000459671
-0.4831182658672333 -0.5819131731987 0.35362473130226135
-0.42823344469070435 -0.6212828159332275 0.3528040945529938
-0.37028372287750244 -0.6557064652442932 0.3520861864089966
-0.3097091019153595 -0.6849629878997803 0.3514758348464966
-0.24694937467575073 -0.7088752388954163 0.3509765565395355
-0.1824638694524765 -0.7272952198982239 0.3505912721157074
-0.11670204997062683 -0.740116536617279 0.3503227233886719
-0.05012309551239014 -0.7472596764564514 0.35017210245132446
0.016804149374365807 -0.748684287071228 0.3501405119895935
0.08362066745758057 -0.7443767189979553 0.35022810101509094
0.14983826875686646 -0.7343698740005493 0.35043424367904663
0.21501761674880981 -0.7187182307243347 0.350757896900177
0.2786901593208313 -0.6975184679031372 0.3511970341205597
0.3403972089290619 -0.6708957552909851 0.3517487943172455
0.39969968795776367 -0.639019787311554 0.35241010785102844
0.4561586380004883 -0.6020795106887817 0.353177011013031
0.5093448162078857 -0.5603126287460327 0.3540441691875458
0.5588584542274475 -0.5139814615249634 0.3550063967704773
0.6043097376823425 -0.46339187026023865 0.35605743527412415
0.6453281044960022 -0.40887197852134705 0.35719040036201477
0.6815532445907593 -0.35079607367515564 0.35839736461639404
0.7126833200454712 -0.28955554962158203 0.3596702516078949
0.7384067177772522 -0.22558806836605072 0.3610002100467682
0.7584901452064514 -0.15935315191745758 0.36237746477127075
0.7726905941963196 -0.09133965522050858 0.36379164457321167
0.7808432579040527 -0.022060640156269073 0.3652326762676239
0.7828028798103333 0.047946445643901825 0.366688996553421
0.7784827351570129 0.11812232434749603 0.36814865469932556
0.7678354382514954 0.18791024386882782 0.3696008324623108
0.7508816123008728 0.2567121088504791 0.37103256583213806
0.7276911735534668 0.32396167516708374 0.37243208289146423
0.698392391204834 0.3890562057495117 0.3737870752811432
0.6631524562835693 0.45143449306488037 0.3750857412815094
0.6222266554832458 0.5105161666870117 0.3763160705566406
0.5759091973304749 0.5657647848129272 0.37746673822402954
0.5245528221130371 0.6166610717773438 0.378526896238327
0.46857860684394836 0.6627151966094971 0.3794865310192108
0.40843668580055237 0.7034815549850464 0.3803364336490631
0.344645619392395 0.7385632991790771 0.3810681104660034
0.277753084897995 0.7676076889038086 0.3816743493080139
0.20836518704891205 0.7903255820274353 0.3821488916873932
0.1370781660079956 0.8064887523651123 0.38248732686042786
0.0645369216799736 0.8159304857254028 0.3826858401298523
-0.0085747130215168 0.8185567855834961 0.3827427625656128
-0.0816219225525856 0.8143374919891357 0.38265717029571533
-0.1539212167263031 0.8033181428909302 0.3824301064014435
-0.22482830286026 0.7856101989746094 0.3820638954639435
-0.2936990559101105 0.761393129825592 0.38156217336654663
-0.3599188029766083 0.730912446975708 0.3809301555156708
-0.4229120910167694 0.6944699883460999 0.3801739513874054
-0.4821230471134186 0.6524282097816467 0.3793012797832489
-0.5370741486549377 0.6052007675170898 0.37832045555114746
-0.5872879028320312 0.5532404780387878 0.3772410452365875
-0.6323845386505127 0.49704134464263916 0.37607330083847046
-0.6720137000083923 0.4371339678764343 0.3748283386230469
-0.7058836817741394 0.3740634322166443 0.37351730465888977
-0.7337712645530701 0.30840644240379333 0.37215253710746765
-0.7555115222930908 0.24073466658592224 0.37074539065361023
-0.7709986567497253 0.1716391146183014 0.36930862069129944
-0.780155599117279 0.10170108824968338 0.3678539991378784
-0.7830034494400024 0.031503982841968536 0.36639389395713806
-0.7795824408531189 -0.03839074447751045 0.36493971943855286
-0.7699915170669556 -0.10742911696434021 0.3635033965110779
-0.7543880343437195 -0.17507927119731903 0.3620956242084503
-0.7329587936401367 -0.2408338040113449 0.3607272207736969
-0.7059392929077148 -0.304207444190979 0.35940811038017273
-0.6735844016075134 -0.36474665999412537 0.3581477403640747
-0.6361979246139526 -0.4220297634601593 0.3569551110267639
-0.5941029191017151 -0.4756595194339752 0.3558382987976074
-0.5476517677307129 -0.5252828001976013 0.35480451583862305
-0.4972359836101532 -0.5705683827400208 0.3538612425327301
-0.4432368874549866 -0.6112241744995117 0.3530137538909912
-0.38606536388397217 -0.6469925045967102 0.35226789116859436
-0.326151579618454 -0.6776518821716309 0.3516284227371216
-0.2639354169368744 -0.7030081748962402 0.35109907388687134
-0.19986645877361298 -0.72291100025177 0.3506831228733063
-0.13440397381782532 -0.7372393608093262 0.35038313269615173
-0.06798755377531052 -0.745908796787262 0.3502008020877838
-0.0011056428775191307 -0.7488642930984497 0.3501371741294861
0.06577297300100327 -0.7460897564888 0.3501930236816406
0.13220886886119843 -0.7376034259796143 0.35036757588386536
0.19770413637161255 -0.723455011844635 0.35065993666648865
0.2618292570114136 -0.7037287950515747 0.35106825828552246
0.32410600781440735 -0.6785428524017334 0.35159042477607727
0.3840952515602112 -0.6480544209480286 0.352222740650177
0.44134822487831116 -0.6124477386474609 0.3529617190361023
0.495455265045166 -0.5719484090805054 0.3538026213645935
0.5459970831871033 -0.5268110632896423 0.3547399938106537
0.5925738215446472 -0.4773297905921936 0.35576796531677246
0.6348055005073547 -0.4238276183605194 0.3568795621395111
0.6723511219024658 -0.36666181683540344 0.3580676317214966
0.7048696875572205 -0.3062262237071991 0.3593237102031708
0.7320693135261536 -0.2429462969303131 0.3606393337249756
0.7536774277687073 -0.17727187275886536 0.3620048463344574
0.769470751285553 -0.10968688130378723 0.36341017484664917
0.7792646884918213 -0.04069710150361061 0.3648451268672943
0.7828847169876099 0.029169730842113495 0.3662983477115631
0.780254065990448 0.09935922175645828 0.3677583336830139
0.771305501461029 0.16930481791496277 0.36921370029449463
0.7560404539108276 0.23843036592006683 0.37065213918685913
0.7345091700553894 0.30615001916885376 0.37206146121025085
0.7068201899528503 0.37188056111335754 0.3734295666217804
0.6731507778167725 0.43504127860069275 0.3747444152832031
0.6337170004844666 0.49505895376205444 0.37599411606788635
0.588813066482544 0.551387369632721 0.3771671950817108
0.5387625694274902 0.603495180606842 0.37825271487236023
