ply
format ascii 1.0
element vertex 1998
property float32 x
property float32 y
property float32 z
end_header
8.6171 3.4769 -1.0345
36.6925 18.7727 -4.5888
33.2160 20.9312 -4.3712
28.0937 21.4321 -3.9341
25.4599 23.2980 -3.8423
23.3306 25.5351 -3.8510
20.7387 27.2285 -3.8107
17.0044 27.0309 -3.5555
9.4367 45.6277 -5.1875
-21.0478 17.8005 -3.0691
-24.2826 17.0660 -3.3044
-24.2832 14.0074 -3.1212
-24.2769 11.2463 -2.9788
-24.2711 8.7066 -2.8709
-24.2656 6.3262 -2.7919
-24.2604 4.0555 -2.7385
-24.2554 1.8528 -2.7084
-30.1772 -0.3970 -3.3601
-21.1321 -2.1747 -2.3652
-27.4615 -5.3368 -3.1147
-24.2352 -7.0041 -2.8087
-24.2297 -9.4183 -2.8943
-24.2238 -12.0056 -3.0100
-24.2174 -14.8320 -3.1618
-24.1300 -17.9253 -3.3467
-24.2019 -21.5854 -3.6106
-30.1220 -38.5174 -5.4440
-26.0637 -40.2808 -5.3417
12.3030 -37.1687 -4.3590
5.9867 -13.8102 -1.6758
8.6702 -15.9296 -2.0192
8.6998 -13.0545 -1.7466
8.6947 -10.8131 -1.5448
8.6906 -9.0232 -1.3948
8.5911 -7.4559 -1.2665
6.8873 -4.9731 -0.9458
8.5267 -5.0647 -1.1042
8.5122 -4.0761 -1.0508
8.5102 -3.1760 -1.0113
8.5082 -2.3346 -0.9823
8.5064 -1.5339 -0.9623
8.6199 -0.7693 -0.9635
8.5029 0.0033 -0.9467
8.5012 0.7653 -0.9503
8.6269 1.5625 -0.9761
8.6226 2.3731 -0.9957
8.6184 3.2239 -1.0245
35.5436 17.0538 -4.3892
28.2826 20.4549 -3.8861
27.8268 24.1874 -4.1049
5.7835 6.0140 -0.9290
21.2009 26.4077 -3.7704
5.7134 8.5874 -1.1484
15.2700 28.1066 -3.5613
-28.0844 20.8296 -3.8930
-24.2851 14.8479 -3.1691
-24.1982 11.9698 -3.0057
-24.2727 9.4137 -2.8986
-24.2671 6.9933 -2.8118
-24.2619 4.6958 -2.7514
-24.2568 2.4776 -2.7147
-30.1790 0.3740 -3.3603
-30.1728 -2.3280 -3.3693
-30.1666 -5.0665 -3.4057
-24.2367 -6.3385 -2.7892
-24.2313 -8.7132 -2.8669
-24.2255 -11.2450 -2.9736
-24.2193 -13.9952 -3.1143
-24.1605 -17.0078 -3.2896
-24.2044 -20.5019 -3.5316
-26.8898 -39.3178 -5.3033
12.3109 -40.6449 -4.7283
13.6325 -33.7876 -4.0564
12.8454 -25.1077 -3.1400
8.7016 -13.8089 -1.8172
8.7580 -11.4804 -1.6077
8.6917 -9.4984 -1.4335
8.6882 -7.9382 -1.3103
8.5177 -6.4877 -1.1921
8.5151 -5.3568 -1.1200
8.6282 -4.4061 -1.0786
8.5107 -3.4264 -1.0215
8.5088 -2.5702 -0.9896
8.5069 -1.7595 -0.9672
8.6204 -0.9919 -0.9661
8.5053 -0.2141 -0.9473
8.5017 0.5468 -0.9485
8.4999 1.3162 -0.9576
8.6239 2.1380 -0.9892
8.6196 2.9757 -1.0153
8.6152 3.8660 -1.0513
31.1149 21.3143 -4.1991
25.6058 21.1332 -3.6964
6.0017 5.9300 -0.9394
5.9508 8.4671 -1.1522
16.0175 27.7673 -3.5690
13.6086 29.3756 -3.6045
-23.0966 31.0917 -4.3122
-28.0870 21.9655 -3.9698
-24.2871 15.7153 -3.2207
-24.2804 12.7926 -3.0555
-24.2743 10.1350 -2.9287
-24.2687 7.6703 -2.8337
-24.1830 5.3248 -2.7569
-24.2583 3.1057 -2.7229
-26.2596 0.9968 -2.9258
-30.1746 -1.5540 -3.3640
-30.1684 -4.2775 -3.3924
-24.2382 -5.6815 -2.7717
-24.2329 -8.0208 -2.8419
-24.2272 -10.5021 -2.9399
-24.2211 -13.1827 -3.0702
-24.2144 -16.1367 -3.2397
-24.2068 -19.4641 -3.4583
-32.1572 -30.9713 -4.9708
-27.8854 -38.6181 -5.3033
6.1446 -33.9282 -3.8389
12.6398 -33.7898 -4.0166
16.2080 -33.7817 -4.1716
8.6733 -14.5766 -1.8885
8.6975 -12.0262 -1.6524
8.6929 -10.0010 -1.4753
8.6891 -8.3562 -1.3422
8.5722 -6.8821 -1.2239
8.5158 -5.6659 -1.1388
8.6288 -4.6880 -1.0933
8.5113 -3.6820 -1.0325
8.5093 -2.8094 -0.9977
8.5074 -1.9875 -0.9727
8.5076 -1.1998 -0.9566
8.6191 -0.4375 -0.9609
8.5022 0.3290 -0.9473
8.5004 1.0947 -0.9542
8.6251 1.9059 -0.9835
8.6208 2.7318 -1.0068
8.6165 3.6051 -1.0399
38.0332 20.0749 -4.7882
32.6596 21.1673 -4.3331
27.9975 21.9292 -3.9595
26.0880 24.4914 -3.9839
22.9755 25.7998 -3.8464
16.3258 26.7017 -3.4845
-28.0897 23.1479 -4.0525
-24.2891 16.6119 -3.2762
-24.2822 13.5971 -3.0985
-24.2760 10.8720 -2.9615
-24.2703 8.3584 -2.8579
-24.2649 5.9966 -2.7828
-24.2597 3.7380 -2.7329
-24.2547 1.5419 -2.7059
-30.1764 -0.7821 -3.3609
-30.1702 -3.4942 -3.3815
-25.6866 -5.3328 -2.9208
-24.2345 -7.3401 -2.8192
-24.2289 -9.7755 -2.9088
-24.2229 -12.3924 -3.0293
-24.2164 -15.2595 -3.1868
-24.2090 -18.4678 -3.3901
-29.3367 -38.5156 -5.3904
-26.0610 -41.4257 -5.4490
12.2994 -35.6284 -4.1965
15.1601 -33.7841 -4.1228
6.9040 -12.3082 -1.5712
8.6730 -12.6612 -1.7087
8.6941 -10.5343 -1.5207
6.8919 -6.9753 -1.0917
8.6868 -7.3469 -1.2667
8.5166 -5.9857 -1.1590
8.5550 -4.9350 -1.0996
8.5119 -3.9433 -1.0444
8.5099 -3.0529 -1.0066
8.5080 -2.2182 -0.9789
8.5061 -1.4221 -0.9602
8.6196 -0.6586 -0.9625
8.5026 0.1117 -0.9467
8.5009 0.8747 -0.9515
8.6263 1.6763 -0.9784
8.6220 2.4917 -0.9992
8.6177 3.3496 -1.0294
36.2121 17.9464 -4.4997
33.7840 20.6902 -4.4107
11.9234 8.8572 -1.6537
26.4236 23.5660 -3.9419
23.6615 25.2414 -3.8520
21.0714 26.9432 -3.8082
17.9564 27.7503 -3.6800
14.9199 28.3173 -3.5636
-24.2108 17.4824 -3.3248
-24.2841 14.4251 -3.1447
-24.2777 11.6261 -2.9969
-24.2719 9.0590 -2.8844
-24.1860 6.6370 -2.7923
-24.2612 4.3754 -2.7447
-24.2561 2.1653 -2.7113
-30.1781 -0.0109 -3.3599
-30.1719 -2.7155 -3.3728
-29.4956 -5.3415 -3.3373
-24.2360 -6.6697 -2.7987
-24.2305 -9.0635 -2.8803
-24.2247 -11.6224 -2.9914
-24.2183 -14.4098 -3.1376
-24.1311 -17.4516 -3.3156
-24.2032 -21.0368 -3.5703
-30.9257 -38.5192 -5.4998
-26.3861 -39.6576 -5.3033
12.3854 -39.0868 -4.5650
5.8268 -13.9268 -1.6808
8.6966 -16.4768 -2.0743
8.7007 -13.4248 -1.7811
8.7573 -11.1808 -1.5812
8.6316 -9.1944 -1.4041
8.6877 -7.7368 -1.2952
8.5173 -6.3174 -1.1807
8.5148 -5.2061 -1.1112
8.5138 -4.2116 -1.0575
8.5104 -3.3008 -1.0163
8.5085 -2.4521 -0.9859
8.5067 -1.6466 -0.9647
8.6202 -0.8806 -0.9647
8.5031 -0.1055 -0.9468
8.5014 0.6558 -0.9493
8.4996 1.4274 -0.9596
8.6232 2.2550 -0.9924
8.6190 3.0991 -1.0198
8.6145 3.9985 -1.0574
28.3754 19.9741 -3.8634
26.4908 22.4377 -3.8652
5.8474 5.9268 -0.9270
21.5705 26.1751 -3.7763
5.7905 8.4664 -1.1420
15.6205 27.8951 -3.5595
-21.0747 27.6268 -3.8686
-28.0857 21.3927 -3.9307
-24.2861 15.2787 -3.1945
-24.2795 12.3992 -3.0353
-24.2735 9.7730 -2.9133
-24.2679 7.3310 -2.8225
-24.2626 5.0187 -2.7585
-24.2576 2.7917 -2.7186
-30.1791 0.7602 -3.3611
-30.1737 -1.9401 -3.3664
-29.8496 -4.6215 -3.3629
-24.2375 -6.0084 -2.7802
-24.2321 -8.3650 -2.8541
-24.2264 -10.8709 -2.9564
-24.2028 -13.5757 -3.0896
-24.2133 -16.5858 -3.2676
-24.2056 -19.9768 -3.4942
-31.7329 -31.3525 -4.9666
-27.3906 -38.9706 -5.3033
12.3154 -42.6175 -4.9390
13.1329 -33.7887 -4.0361
16.7407 -33.7805 -4.1975
8.7025 -14.2101 -1.8552
8.6806 -11.6859 -1.6208
8.6923 -9.7465 -1.4540
8.6886 -8.1450 -1.3260
8.5181 -6.6618 -1.2040
8.5155 -5.5103 -1.1293
8.6285 -4.5463 -1.0859
8.5110 -3.5537 -1.0269
8.5090 -2.6895 -0.9936
8.5072 -1.8733 -0.9699
8.6207 -1.1038 -0.9676
8.6189 -0.3273 -0.9603
8.5019 0.4377 -0.9478
8.5002 1.2051 -0.9558
8.6245 2.0215 -0.9862
8.6202 2.8530 -1.0109
8.6158 3.7347 -1.0455
38.5268 20.9679 -4.8836
30.9978 20.6565 -4.1473
26.6496 21.4274 -3.8072
25.6163 24.6708 -3.9596
21.6128 24.9019 -3.6711
15.4877 26.0725 -3.3763
13.7011 28.6101 -3.5318
12.0483 43.9042 -5.0689
-28.0883 22.5515 -4.0105
-24.2881 16.1603 -3.2480
-24.2813 13.1927 -3.0766
-24.2752 10.5019 -2.9448
-24.1891 7.9869 -2.8361
-24.2641 5.6689 -2.7742
-24.2590 3.4217 -2.7276
-24.1737 1.2273 -2.6949
-30.1755 -1.1673 -3.3621
-30.1693 -3.8848 -3.3867
-24.1587 -5.3378 -2.7546
-24.2337 -7.6787 -2.8303
-24.2281 -10.1364 -2.9240
-24.2220 -12.7844 -3.0494
-24.2154 -15.6939 -3.2127
-24.1903 -18.9466 -3.4210
-32.1346 -30.1668 -4.9072
-28.5666 -38.5138 -5.3388
12.1496 -33.7910 -3.9980
15.6802 -33.7829 -4.1467
8.7082 -15.0709 -1.9379
8.5906 -12.2042 -1.6616
8.6935 -10.2641 -1.4976
6.9680 -6.8747 -1.0898
8.6864 -7.1585 -1.2532
8.5162 -5.8246 -1.1487
8.6292 -4.8322 -1.1011
8.5116 -3.8121 -1.0384
8.5096 -2.9308 -1.0020
8.5077 -2.1027 -0.9757
8.5059 -1.3108 -0.9582
8.6194 -0.5481 -0.9616
8.5024 0.2202 -0.9469
8.5007 0.9844 -0.9528
8.6257 1.7906 -0.9808
8.6214 2.6111 -1.0029
8.6171 3.4765 -1.0345
36.6912 18.7704 -4.5886
33.2176 20.9305 -4.3713
28.0940 21.4307 -3.9340
25.4581 23.2945 -3.8419
23.3362 25.5394 -3.8517
20.7397 27.2277 -3.8107
17.0045 27.0288 -3.5553
9.4386 45.6285 -5.1877
-21.0487 17.8025 -3.0693
-24.2819 17.0669 -3.3044
-24.2832 14.0086 -3.1212
-24.2769 11.2474 -2.9789
-24.2711 8.7075 -2.8709
-24.2656 6.3272 -2.7920
-24.2604 4.0564 -2.7386
-24.2554 1.8537 -2.7084
-30.1772 -0.3959 -3.3601
-21.1337 -2.1741 -2.3654
-27.4669 -5.3368 -3.1152
-24.2352 -7.0031 -2.8087
-24.2297 -9.4173 -2.8942
-24.2238 -12.0044 -3.0100
-24.2174 -14.8308 -3.1617
-24.1300 -17.9239 -3.3466
-24.2019 -21.5838 -3.6104
-30.1243 -38.5174 -5.4442
-26.0637 -40.2775 -5.3413
12.3030 -37.1735 -4.3595
5.9860 -13.8099 -1.6758
8.6694 -15.9296 -2.0192
8.6998 -13.0555 -1.7467
8.6947 -10.8140 -1.5449
8.6906 -9.0239 -1.3949
8.5911 -7.4565 -1.2665
6.8873 -4.9735 -0.9458
8.5259 -5.0647 -1.1041
8.5122 -4.0766 -1.0508
8.5102 -3.1764 -1.0113
8.5082 -2.3350 -0.9823
8.5064 -1.5342 -0.9624
8.6199 -0.7697 -0.9635
8.5029 0.0029 -0.9467
8.5012 0.7649 -0.9503
8.6269 1.5621 -0.9761
8.6226 2.3727 -0.9957
8.6184 3.2236 -1.0245
35.5551 17.0576 -4.3906
28.2829 20.4534 -3.8860
27.8265 24.1852 -4.1047
5.7836 6.0137 -0.9289
21.2020 26.4070 -3.7704
5.7135 8.5868 -1.1483
15.2711 28.1060 -3.5613
-28.0844 20.8314 -3.8931
-24.2851 14.8492 -3.1692
-24.1982 11.9712 -3.0058
-24.2727 9.4148 -2.8986
-24.2672 6.9943 -2.8118
-24.2619 4.6967 -2.7514
-24.2568 2.4787 -2.7147
-30.1790 0.3753 -3.3603
-30.1728 -2.3268 -3.3693
-30.1666 -5.0653 -3.4057
-24.2367 -6.3373 -2.7891
-24.2313 -8.7121 -2.8669
-24.2255 -11.2438 -2.9735
-24.2193 -13.9940 -3.1142
-24.1613 -17.0067 -3.2896
-24.2044 -20.5001 -3.5315
-26.8915 -39.3166 -5.3033
12.3109 -40.6508 -4.7289
13.6310 -33.7876 -4.0564
12.8454 -25.1104 -3.1403
8.7016 -13.8102 -1.8173
8.7580 -11.4814 -1.6077
8.6917 -9.4992 -1.4335
8.6882 -7.9389 -1.3103
8.5177 -6.4882 -1.1921
8.5151 -5.3572 -1.1201
8.6282 -4.4065 -1.0787
8.5107 -3.4268 -1.0215
8.5088 -2.5706 -0.9896
8.5069 -1.7598 -0.9672
8.6204 -0.9922 -0.9661
8.5053 -0.2145 -0.9473
8.5017 0.5465 -0.9485
8.4999 1.3158 -0.9576
8.6239 2.1377 -0.9892
8.6196 2.9753 -1.0152
8.6152 3.8656 -1.0513
31.1149 21.3122 -4.1989
25.6093 21.1342 -3.6968
6.0026 5.9304 -0.9395
5.9516 8.4673 -1.1523
16.0186 27.7663 -3.5690
13.6099 29.3753 -3.6045
-23.0951 31.0925 -4.3122
-28.0870 21.9675 -3.9700
-24.2871 15.7167 -3.2208
-24.2804 12.7938 -3.0556
8.5550 -4.9346 -1.0380
8.5119 -3.9429 -0.9860
8.5099 -3.0525 -0.9502
8.5080 -2.2179 -0.9241
8.5061 -1.4218 -0.9064
8.6196 -0.6583 -0.9086
8.5026 0.1120 -0.8937
8.5009 0.8750 -0.8982
8.6263 1.6766 -0.9236
8.6220 2.4920 -0.9433
8.6177 3.3500 -0.9718
36.3392 18.0110 -4.2628
33.7810 20.6901 -4.1636
11.9225 8.8572 -1.5611
26.5399 23.6715 -3.7378
24.9840 26.6540 -3.8397
20.8898 26.7131 -3.5642
17.8491 27.5866 -3.4535
14.7485 27.9946 -3.3257
-24.2108 17.4810 -3.1386
-24.2841 14.4238 -2.9686
-24.2777 11.6250 -2.8291
-24.2719 9.0579 -2.7229
-24.1860 6.6360 -2.6360
-24.2612 4.3744 -2.5911
-24.2561 2.1643 -2.5595
-36.7063 -0.0147 -3.8580
-36.6988 -3.3043 -3.8728
-29.4889 -5.3414 -3.1498
-24.2360 -6.6706 -2.6420
-24.2305 -9.0646 -2.7191
-24.2247 -11.6235 -2.8240
-24.2183 -14.4111 -2.9620
-24.2112 -17.5110 -3.1405
-24.2032 -21.0384 -3.3706
-26.8275 -40.3243 -5.0905
12.2593 -38.6837 -4.2651
5.8269 -13.9256 -1.5866
8.6974 -16.4768 -1.9582
8.7007 -13.4236 -1.6813
8.7573 -11.1800 -1.4926
8.6322 -9.1944 -1.3255
8.6877 -7.7362 -1.2227
8.5173 -6.3169 -1.1145
8.5148 -5.2057 -1.0489
8.5138 -4.2112 -0.9983
8.5104 -3.3004 -0.9594
8.5085 -2.4518 -0.9307
8.5067 -1.6463 -0.9107
8.6202 -0.8803 -0.9107
8.5031 -0.1052 -0.8938
8.5014 0.6561 -0.8962
8.4996 1.4277 -0.9059
8.6232 2.2554 -0.9368
8.6190 3.0994 -0.9627
8.6145 3.9989 -0.9982
28.3992 19.9925 -3.6503
26.6074 22.5382 -3.6650
5.8469 5.9268 -0.8750
21.6976 26.3313 -3.5861
5.7902 8.4667 -1.0781
14.7596 26.3601 -3.1753
13.2442 29.5752 -3.4059
-21.0747 27.6246 -3.6519
-28.0857 21.3911 -3.7106
-24.2861 15.2774 -3.0156
-24.2795 12.3979 -2.8653
-24.2735 9.7719 -2.7502
-24.2679 7.3300 -2.6645
-24.2626 5.0178 -2.6041
-24.2576 2.7907 -2.5664
-36.7084 0.9233 -3.8594
-36.7009 -2.3612 -3.8654
-34.5659 -5.3530 -3.6763
-24.2375 -6.0095 -2.6246
-24.2321 -8.3660 -2.6944
-24.2264 -10.8720 -2.7909
-24.2006 -13.5757 -2.9165
-24.2133 -16.5872 -3.0848
-24.1385 -19.9229 -3.2896
-31.7326 -31.3547 -4.6887
-27.6025 -39.2754 -5.0455
12.3154 -42.6112 -4.6619
13.1344 -33.7887 -3.8102
16.7424 -33.7805 -3.9626
8.7025 -14.2089 -1.7513
8.6813 -11.6859 -1.5301
8.6923 -9.7458 -1.3726
8.6886 -8.1444 -1.2517
8.5181 -6.6613 -1.1365
8.5155 -5.5098 -1.0660
8.6285 -4.5459 -1.0251
8.5110 -3.5533 -0.9694
8.5090 -2.6892 -0.9379
8.5072 -1.8730 -0.9156
8.6207 -1.1035 -0.9135
8.6189 -0.3270 -0.9065
8.5019 0.4380 -0.8948
8.5002 1.2054 -0.9023
8.6245 2.0218 -0.9310
8.6202 2.8534 -0.9544
8.6158 3.7350 -0.9870
38.6720 21.0488 -4.6277
30.9221 20.6077 -3.9057
26.7300 21.4937 -3.6051
25.6524 24.7074 -3.7434
21.6293 24.9228 -3.4684
20.0644 27.7882 -3.6024
15.4726 26.0493 -3.1844
13.6086 28.4195 -3.3118
12.0464 43.9038 -4.7850
-28.0883 22.5497 -3.7859
-24.2881 16.1590 -3.0661
-24.2813 13.1914 -2.9044
-24.2752 10.5009 -2.7799
-24.1891 7.9859 -2.6773
-24.2641 5.6680 -2.6189
-24.2590 3.4208 -2.5749
-24.1737 1.2265 -2.5440
-36.7031 -1.4212 -3.8605
-35.9891 -4.6355 -3.8139
-24.1587 -5.3388 -2.6004
-24.2337 -7.6796 -2.6719
-24.2281 -10.1375 -2.7604
-24.2220 -12.7855 -2.8787
-24.2154 -15.6952 -3.0330
-24.1885 -18.9465 -3.2294
-32.1305 -30.1653 -4.6321
-29.1306 -39.2774 -5.1397
12.1511 -33.7910 -3.7742
15.6818 -33.7829 -3.9146
8.7099 -15.0724 -1.8297
8.5906 -12.2032 -1.5685
8.6935 -10.2633 -1.4137
6.9685 -6.8747 -1.0289
8.6864 -7.1579 -1.1830
8.5162 -5.8242 -1.0844
8.6292 -4.8318 -1.0395
8.5116 -3.8117 -0.9802
8.5096 -2.9304 -0.9459
8.5077 -2.1023 -0.9211
8.5059 -1.3104 -0.9046
8.6194 -0.5478 -0.9078
8.5024 0.2205 -0.8939
8.5007 0.9847 -0.8994
8.6257 1.7909 -0.9259
8.6214 2.6114 -0.9468
8.6171 3.4769 -0.9766
36.8225 18.8392 -4.3473
33.2147 20.9304 -4.1263
28.1179 21.4506 -3.7171
25.5016 23.3362 -3.6332
23.1918 25.3833 -3.6138
20.7999 27.3088 -3.6080
17.0226 27.0597 -3.3600
14.1265 27.6639 -3.2647
9.4364 45.6263 -4.8970
-21.0467 17.7996 -2.8971
-24.2902 17.0713 -3.1204
-24.2832 14.0074 -2.9464
-24.2769 11.2463 -2.8121
-24.2711 8.7066 -2.7102
-24.2656 6.3262 -2.6357
-24.2604 4.0555 -2.5853
-24.2554 1.8528 -2.5568
-36.7052 -0.4829 -3.8582
-21.1310 -2.1746 -2.2327
-27.4615 -5.3368 -2.9403
-24.2352 -7.0041 -2.6515
-24.2297 -9.4183 -2.7323
-24.2238 -12.0056 -2.8416
-24.2174 -14.8320 -2.9848
-24.2101 -17.9849 -3.1699
-24.2019 -21.5854 -3.4085
-26.8255 -41.4583 -5.1901
12.3030 -37.1687 -4.1150
5.9865 -13.8098 -1.5820
8.6702 -15.9296 -1.9062
8.6998 -13.0545 -1.6489
8.6947 -10.8131 -1.4583
8.6906 -9.0232 -1.3167
8.5911 -7.4559 -1.1956
6.8873 -4.9731 -0.8929
8.5266 -5.0647 -1.0424
8.5122 -4.0761 -0.9920
8.5102 -3.1760 -0.9547
8.5082 -2.3346 -0.9273
8.5064 -1.5339 -0.9085
8.6199 -0.7693 -0.9096
8.5029 0.0033 -0.8937
8.5012 0.7653 -0.8971
8.6269 1.5625 -0.9215
8.6226 2.3731 -0.9400
8.6183 3.2239 -0.9671
35.8726 17.2117 -4.1819
28.3067 20.4723 -3.6717
27.2301 23.6688 -3.7921
5.7833 6.0139 -0.8769
21.3266 26.5643 -3.5805
5.7134 8.5874 -1.0841
15.2766 28.1187 -3.3634
9.4119 40.2895 -4.3486
-28.0844 20.8296 -3.6750
-24.2851 14.8479 -2.9917
-24.1982 11.9698 -2.8375
-24.2727 9.4137 -2.7363
-24.2671 6.9933 -2.6544
-24.2619 4.6958 -2.5973
-24.2568 2.4776 -2.5628
-36.7073 0.4549 -3.8584
-36.6999 -2.8316 -3.8688
-31.8354 -5.3468 -3.3929
-24.2367 -6.3385 -2.6331
-24.2313 -8.7132 -2.7065
-24.2255 -11.2450 -2.8071
-24.2193 -13.9952 -2.9400
-24.2123 -17.0443 -3.1121
-24.1242 -20.4340 -3.3229
-27.0317 -39.5252 -5.0329
12.3109 -40.6449 -4.4636
13.6325 -33.7876 -3.8294
12.8454 -25.1077 -2.9642
8.7016 -13.8089 -1.7155
8.7580 -11.4804 -1.5177
8.6917 -9.4984 -1.3532
8.6882 -7.9382 -1.2369
8.5177 -6.4877 -1.1254
8.5151 -5.3568 -1.0573
8.6282 -4.4061 -1.0183
8.5107 -3.4264 -0.9643
8.5088 -2.5702 -0.9342
8.5069 -1.7595 -0.9130
8.6204 -0.9919 -0.9120
8.5053 -0.2141 -0.8942
8.5017 0.5468 -0.8954
8.4999 1.3162 -0.9040
8.6239 2.1380 -0.9338
8.6196 2.9757 -0.9584
8.6151 3.8660 -0.9925
31.0522 21.2714 -3.9560
25.6838 21.1976 -3.5001
6.0013 5.9296 -0.8867
5.9508 8.4671 -1.0877
15.6971 27.2118 -3.3018
13.6556 29.4771 -3.4145
-23.0960 31.0910 -4.0708
-28.0870 21.9655 -3.7476
-24.2871 15.7153 -3.0405
-24.2804 12.7926 -2.8845
-24.2743 10.1350 -2.7648
-24.2687 7.6703 -2.6751
-24.1830 5.3248 -2.6026
-24.2583 3.1057 -2.5705
-26.2596 0.9968 -2.7620
-36.7020 -1.8902 -3.8626
-32.6394 -4.6279 -3.4648
-24.2382 -5.6815 -2.6166
-24.2329 -8.0208 -2.6829
-24.2272 -10.5021 -2.7753
-24.2211 -13.1827 -2.8984
-24.2144 -16.1367 -3.0584
-24.2068 -19.4641 -3.2647
-32.1594 -30.9734 -4.6928
-28.3596 -39.2749 -5.0916
6.1439 -33.9244 -3.6236
12.6397 -33.7898 -3.7918
16.2080 -33.7817 -3.9381
8.6733 -14.5766 -1.7827
8.6975 -12.0262 -1.5599
8.6929 -10.0010 -1.3927
8.6891 -8.3562 -1.2671
8.5722 -6.8821 -1.1554
8.5158 -5.6659 -1.0751
8.6288 -4.6880 -1.0321
8.5113 -3.6820 -0.9747
8.5093 -2.8095 -0.9419
8.5074 -1.9875 -0.9182
8.5076 -1.1998 -0.9030
8.6191 -0.4375 -0.9071
8.5022 0.3290 -0.8943
8.5004 1.0947 -0.9008
8.6251 1.9059 -0.9284
8.6208 2.7317 -0.9505
8.6164 3.6051 -0.9817
38.1723 20.1483 -4.5367
32.6583 21.1665 -4.0904
28.0218 21.9483 -3.7411
26.1264 24.5274 -3.7665
22.9953 25.8221 -3.6342
16.3367 26.7197 -3.2917
13.7961 27.8894 -3.2703
-28.0897 23.1479 -3.8256
-24.2891 16.6119 -3.0928
-24.2822 13.5971 -2.9250
-24.2760 10.8720 -2.7957
-24.2703 8.3584 -2.6979
-24.2649 5.9966 -2.6271
-24.2597 3.7380 -2.5799
-24.2547 1.5419 -2.5544
-36.7041 -0.9513 -3.8591
-36.6966 -4.2501 -3.8827
-25.6866 -5.3328 -2.7573
-24.2345 -7.3401 -2.6614
-24.2289 -9.7755 -2.7460
-24.2229 -12.3924 -2.8598
-24.2164 -15.2595 -3.0084
-24.2090 -18.4678 -3.2003
-29.9189 -39.2799 -5.1897
12.2994 -35.6284 -3.9616
15.1601 -33.7841 -3.8920
6.9040 -12.3082 -1.4833
8.6730 -12.6612 -1.6131
8.6941 -10.5343 -1.4356
6.8919 -6.9753 -1.0306
8.6868 -7.3469 -1.1958
8.5166 -5.9857 -1.0941
8.5550 -4.9350 -1.0381
8.5119 -3.9433 -0.9860
8.5099 -3.0529 -0.9502
8.5080 -2.2182 -0.9241
8.5061 -1.4221 -0.9064
8.6196 -0.6586 -0.9086
8.5026 0.1117 -0.8937
8.5009 0.8747 -0.8982
8.6263 1.6763 -0.9236
8.6220 2.4917 -0.9433
8.6177 3.3496 -0.9718
36.3379 18.0087 -4.2626
33.7827 20.6894 -4.1637
11.9231 8.8569 -1.5611
26.5372 23.6673 -3.7373
24.9847 26.6528 -3.8397
20.8932 26.7153 -3.5646
17.8505 27.5866 -3.4535
14.7505 27.9959 -3.3259
-24.2108 17.4824 -3.1387
-24.2841 14.4251 -2.9687
-24.2777 11.6261 -2.8292
-24.2719 9.0590 -2.7230
-24.1860 6.6370 -2.6360
-24.2612 4.3754 -2.5911
-24.2561 2.1653 -2.5596
-36.7063 -0.0133 -3.8580
-36.6988 -3.3029 -3.8728
-29.4956 -5.3415 -3.1505
-24.2360 -6.6697 -2.6420
-24.2305 -9.0635 -2.7191
-24.2247 -11.6224 -2.8240
-24.2183 -14.4098 -2.9619
-24.2112 -17.5096 -3.1404
-24.2032 -21.0368 -3.3705
-26.8275 -40.3210 -5.0902
12.2589 -38.6876 -4.2655
5.8266 -13.9264 -1.5867
8.6966 -16.4768 -1.9582
8.7007 -13.4248 -1.6814
8.7573 -11.1808 -1.4927
8.6316 -9.1944 -1.3255
8.6877 -7.7368 -1.2227
8.5173 -6.3174 -1.1146
8.5148 -5.2061 -1.0490
8.5138 -4.2116 -0.9983
8.5104 -3.3008 -0.9594
8.5085 -2.4521 -0.9307
8.5067 -1.6466 -0.9107
8.6202 -0.8806 -0.9107
8.5031 -0.1055 -0.8938
8.5014 0.6558 -0.8962
8.4996 1.4274 -0.9059
8.6232 2.2550 -0.9368
8.6190 3.0991 -0.9627
8.6145 3.9985 -0.9982
31.0530 21.8589 -3.9913
26.6100 22.5387 -3.6652
5.8472 5.9267 -0.8751
21.6986 26.3306 -3.5861
5.7905 8.4664 -1.0781
14.7602 26.3589 -3.1752
13.2454 29.5749 -3.4060
-21.0741 27.6261 -3.6520
-28.0857 21.3927 -3.7107
-24.2861 15.2787 -3.0157
-24.2795 12.3992 -2.8654
-24.2735 9.7730 -2.7503
-24.2679 7.3310 -2.6645
-24.2626 5.0187 -2.6041
-24.2576 2.7917 -2.5664
-36.7084 0.9246 -3.8594
-36.7009 -2.3598 -3.8654
-34.5745 -5.3531 -3.6772
-24.2375 -6.0084 -2.6246
-24.2321 -8.3650 -2.6944
-24.2264 -10.8709 -2.7909
-24.2028 -13.5757 -2.9167
-24.2133 -16.5858 -3.0847
-24.1393 -19.9220 -3.2896
-31.7339 -31.3535 -4.6887
-27.6047 -39.2752 -5.0456
12.3154 -42.6175 -4.6626
13.1329 -33.7887 -3.8102
16.7407 -33.7805 -3.9626
8.7025 -14.2101 -1.7514
8.6806 -11.6859 -1.5300
8.6923 -9.7465 -1.3726
8.6886 -8.1450 -1.2517
8.5181 -6.6618 -1.1366
8.5155 -5.5103 -1.0661
8.6285 -4.5463 -1.0251
8.5110 -3.5537 -0.9694
8.5090 -2.6895 -0.9379
8.5072 -1.8733 -0.9156
8.6207 -1.1038 -0.9135
8.6189 -0.3273 -0.9065
8.5019 0.4377 -0.8948
8.5002 1.2051 -0.9023
8.6245 2.0215 -0.9310
8.6202 2.8530 -0.9544
8.6158 3.7346 -0.9870
38.6705 21.0461 -4.6274
30.9206 20.6051 -3.9054
26.7332 21.4946 -3.6054
25.6538 24.7069 -3.7435
21.6319 24.9239 -3.4687
20.0657 27.7878 -3.6025
15.4756 26.0520 -3.1849
13.4643 28.1155 -3.2764
12.0480 43.9032 -4.7850
-28.0883 22.5515 -3.7860
-24.2881 16.1603 -3.0662
-24.2813 13.1926 -2.9044
-24.2752 10.5019 -2.7800
-24.1891 7.9869 -2.6774
-24.2641 5.6690 -2.6189
-24.2590 3.4217 -2.5750
-24.1737 1.2273 -2.5440
-36.7031 -1.4198 -3.8605
-35.9996 -4.6355 -3.8149
-24.1587 -5.3378 -2.6004
-24.2337 -7.6787 -2.6719
-24.2281 -10.1364 -2.7603
-24.2220 -12.7844 -2.8787
-24.2154 -15.6939 -3.0329
-24.1903 -18.9466 -3.2295
-32.1314 -30.1638 -4.6321
-29.1330 -39.2774 -5.1398
12.1496 -33.7910 -3.7742
15.6802 -33.7829 -3.9146
8.7099 -15.0738 -1.8298
8.5906 -12.2042 -1.5686
8.6935 -10.2641 -1.4138
6.9680 -6.8747 -1.0288
8.6864 -7.1585 -1.1831
8.5162 -5.8246 -1.0844
8.6292 -4.8322 -1.0395
8.5116 -3.8121 -0.9802
8.5096 -2.9308 -0.9460
8.5077 -2.1027 -0.9211
8.5059 -1.3108 -0.9046
8.6194 -0.5481 -0.9078
8.5024 0.2202 -0.8939
8.5007 0.9844 -0.8994
8.6257 1.7906 -0.9259
8.6214 2.6111 -0.9468
8.6171 3.4765 -0.9766
36.8211 18.8368 -4.3471
33.2163 20.9297 -4.1264
28.1182 21.4492 -3.7170
25.4998 23.3327 -3.6328
23.1913 25.3809 -3.6135
20.8008 27.3079 -3.6080
17.0226 27.0576 -3.3599
14.1275 27.6632 -3.2647
9.4383 45.6272 -4.8971
-21.0476 17.8016 -2.8973
-24.2902 17.0727 -3.1205
-24.2832 14.0086 -2.9465
-24.2769 11.2474 -2.8121
-24.2711 8.7076 -2.7102
-24.2656 6.3272 -2.6357
-24.2604 4.0564 -2.5853
-24.2554 1.8537 -2.5568
-36.7052 -0.4816 -3.8582
-21.1326 -2.1740 -2.2328
-27.4669 -5.3368 -2.9409
-24.2352 -7.0031 -2.6514
-24.2297 -9.4173 -2.7322
-24.2238 -12.0044 -2.8415
-24.2174 -14.8308 -2.9847
-24.2102 -17.9835 -3.1698
-24.2019 -21.5838 -3.4084
-26.8255 -41.4548 -5.1897
12.3030 -37.1735 -4.1155
5.9858 -13.8095 -1.5819
8.6694 -15.9296 -1.9062
8.6998 -13.0555 -1.6489
8.6947 -10.8140 -1.4584
8.6906 -9.0239 -1.3168
8.5911 -7.4565 -1.1956
6.8873 -4.9735 -0.8929
8.5259 -5.0647 -1.0423
8.5122 -4.0766 -0.9920
8.5102 -3.1764 -0.9547
8.5082 -2.3350 -0.9273
8.5064 -1.5342 -0.9085
8.6199 -0.7697 -0.9096
8.5029 0.0029 -0.8937
8.5012 0.7649 -0.8971
8.6269 1.5621 -0.9215
8.6226 2.3727 -0.9400
8.6183 3.2236 -0.9671
35.8712 17.2092 -4.1816
28.3070 20.4708 -3.6716
27.2321 23.6687 -3.7922
5.7835 6.0135 -0.8769
21.3277 26.5636 -3.5805
5.7135 8.5868 -1.0840
15.2796 28.1216 -3.3638
9.4125 40.2841 -4.3481
-28.0844 20.8314 -3.6752
-24.2851 14.8492 -2.9918
-24.1982 11.9712 -2.8375
-24.2727 9.4148 -2.7363
-24.2672 6.9943 -2.6544
-24.2619 4.6967 -2.5974
-24.2568 2.4787 -2.5628
-36.7074 0.4564 -3.8584
-36.6999 -2.8301 -3.8688
-31.8429 -5.3468 -3.3937
-24.2367 -6.3373 -2.6330
-24.2313 -8.7121 -2.7064
-24.2255 -11.2438 -2.8071
-24.2193 -13.9940 -2.9399
-24.2123 -17.0427 -3.1120
-24.1242 -20.4322 -3.3228
-27.0331 -39.5235 -5.0329
12.3109 -40.6509 -4.4642
13.6310 -33.7876 -3.8293
12.8454 -25.1104 -2.9645
8.7016 -13.8102 -1.7156
8.7580 -11.4814 -1.5177
8.6917 -9.4992 -1.3533
8.6882 -7.9389 -1.2370
8.5177 -6.4882 -1.1254
8.5151 -5.3572 -1.0574
8.6282 -4.4065 -1.0183
8.5107 -3.4268 -0.9643
8.5088 -2.5706 -0.9342
8.5069 -1.7598 -0.9130
8.6204 -0.9922 -0.9120
8.5053 -0.2145 -0.8942
8.5017 0.5465 -0.8954
8.4999 1.3158 -0.9040
8.6239 2.1377 -0.9338
8.6196 2.9753 -0.9584
8.6151 3.8656 -0.9925
31.0522 21.2692 -3.9559
25.6874 21.1986 -3.5005
6.0022 5.9300 -0.8868
5.9516 8.4673 -1.0878
15.6985 27.2114 -3.3019
13.6569 29.4767 -3.4145
-23.0945 31.0918 -4.0707
-28.0870 21.9674 -3.7477
-24.2871 15.7167 -3.0405
-24.2804 12.7938 -2.8846
8.5550 -4.9346 -0.9766
8.5119 -3.9429 -0.9276
8.5099 -3.0525 -0.8940
8.5080 -2.2179 -0.8694
8.5061 -1.4218 -0.8528
8.6196 -0.6583 -0.8548
8.5026 0.1120 -0.8408
8.5009 0.8750 -0.8450
8.6263 1.6766 -0.8689
8.6220 2.4920 -0.8874
8.6177 3.3500 -0.9142
36.4657 18.0736 -4.0243
33.7797 20.6893 -3.9168
11.9222 8.8569 -1.4686
26.6544 23.7737 -3.5316
25.0225 26.6951 -3.6179
20.7099 26.4830 -3.3243
17.7892 27.4939 -3.2380
15.0957 28.6537 -3.2024
-23.4518 35.1890 -4.1814
-24.2108 17.4810 -2.9528
-24.2841 14.4238 -2.7928
-24.2777 11.6250 -2.6616
-24.2719 9.0579 -2.5617
-24.1860 6.6360 -2.4799
-24.2612 4.3744 -2.4376
-24.2561 2.1643 -2.4080
-36.7063 -0.0147 -3.6295
-36.6988 -3.3043 -3.6435
-29.4889 -5.3414 -2.9633
-24.2360 -6.6706 -2.4856
-24.2305 -9.0646 -2.5581
-24.2247 -11.6235 -2.6568
-24.2183 -14.4111 -2.7866
-24.2112 -17.5110 -2.9545
-24.2032 -21.0384 -3.1710
-26.8275 -40.3243 -4.7891
12.3067 -38.8336 -4.0281
5.8267 -13.9252 -1.4926
8.6974 -16.4768 -1.8423
8.7007 -13.4236 -1.5818
8.7573 -11.1800 -1.4042
8.6322 -9.1944 -1.2471
8.6877 -7.7362 -1.1503
8.5173 -6.3169 -1.0485
8.5148 -5.2057 -0.9868
8.5138 -4.2112 -0.9392
8.5104 -3.3004 -0.9026
8.5085 -2.4518 -0.8756
8.5067 -1.6462 -0.8567
8.6202 -0.8803 -0.8568
8.5031 -0.1052 -0.8409
8.5014 0.6561 -0.8431
8.4996 1.4277 -0.8522
8.6232 2.2554 -0.8813
8.6189 3.0994 -0.9057
8.6144 3.9988 -0.9391
30.9901 21.8164 -3.7475
26.7276 22.6399 -3.4635
5.8468 5.9267 -0.8232
21.8271 26.4884 -3.3938
5.7902 8.4667 -1.0142
14.7478 26.3390 -2.9849
13.2899 29.6773 -3.2153
-23.7196 37.6400 -4.3992
-21.0741 27.6239 -3.4356
-28.0857 21.3911 -3.4909
-24.2861 15.2774 -2.8370
-24.2795 12.3979 -2.6956
-24.2735 9.7719 -2.5874
-24.2679 7.3300 -2.5067
-24.1864 5.0020 -2.4422
-24.2576 2.7907 -2.4144
-36.7084 0.9233 -3.6309
-36.7009 -2.3612 -3.6365
-34.5659 -5.3530 -3.4586
-24.1572 -5.9896 -2.4610
-24.2321 -8.3660 -2.5349
-24.2264 -10.8720 -2.6257
-24.2006 -13.5757 -2.7438
-24.2133 -16.5872 -2.9021
-24.2056 -19.9783 -3.1034
-31.7336 -31.3556 -4.4112
-27.6025 -39.2754 -4.7467
12.3154 -42.6112 -4.3858
13.1344 -33.7887 -3.5846
16.7424 -33.7805 -3.7280
8.7025 -14.2089 -1.6476
8.6813 -11.6859 -1.4395
8.6923 -9.7458 -1.2913
8.6886 -8.1444 -1.1776
8.5181 -6.6613 -1.0692
8.5155 -5.5098 -1.0029
8.6285 -4.5459 -0.9644
8.5110 -3.5533 -0.9120
8.5090 -2.6892 -0.8824
8.5072 -1.8730 -0.8613
8.6207 -1.1035 -0.8594
8.6189 -0.3270 -0.8529
8.5019 0.4380 -0.8418
8.5002 1.2054 -0.8489
8.6245 2.0218 -0.8759
8.6201 2.8534 -0.8978
8.6158 3.7350 -0.9285
38.8166 21.1276 -4.3699
30.8454 20.5566 -3.6653
26.8140 21.5613 -3.4022
26.2194 25.2535 -3.5996
21.6484 24.9448 -3.2659
19.3140 26.7488 -3.2623
15.4605 26.0289 -2.9935
13.5200 28.2346 -3.0954
12.0462 43.9027 -4.5016
-28.0883 22.5497 -3.5617
-24.2881 16.1591 -2.8846
-24.2813 13.1914 -2.7324
-24.2752 10.5009 -2.6153
-24.1891 7.9859 -2.5188
-24.1838 5.6492 -2.4557
-24.2590 3.4208 -2.4225
-24.1737 1.2265 -2.3934
-36.7031 -1.4212 -3.6319
-35.9891 -4.6355 -3.5880
-24.1587 -5.3388 -2.4464
-24.2337 -7.6796 -2.5137
-24.2281 -10.1375 -2.5969
-24.2220 -12.7855 -2.7083
-24.2154 -15.6952 -2.8534
-24.1885 -18.9465 -3.0381
-29.1306 -39.2774 -4.8353
12.1511 -33.7910 -3.5507
15.6818 -33.7829 -3.6828
8.7116 -15.0753 -1.7216
8.5906 -12.2032 -1.4757
8.6935 -10.2633 -1.3300
6.9685 -6.8747 -0.9679
8.6864 -7.1579 -1.1130
8.5162 -5.8242 -1.0202
8.6292 -4.8318 -0.9779
8.5116 -3.8117 -0.9222
8.5096 -2.9304 -0.8899
8.5077 -2.1023 -0.8665
8.5059 -1.3104 -0.8510
8.6194 -0.5478 -0.8540
8.5024 0.2205 -0.8410
8.5007 0.9847 -0.8462
8.6257 1.7909 -0.8711
8.6214 2.6114 -0.8907
8.6170 3.4769 -0.9188
36.9532 18.9061 -4.1044
33.2134 20.9296 -3.8818
28.1422 21.4690 -3.5000
26.9435 24.6557 -3.6113
23.1110 25.2948 -3.3879
20.0048 26.2649 -3.2646
16.5547 26.3160 -3.0742
14.1862 27.7807 -3.0844
9.4362 45.6250 -4.6069
-23.3226 34.0460 -4.0806
-21.0456 17.7987 -2.7254
-24.2902 17.0713 -2.9357
-24.2832 14.0074 -2.7720
-24.2769 11.2463 -2.6456
-24.2711 8.7066 -2.5497
-24.1853 6.3052 -2.4714
-24.2604 4.0555 -2.4322
-24.2554 1.8528 -2.4054
-36.7052 -0.4829 -3.6297
-21.1300 -2.1745 -2.1004
-27.4615 -5.3368 -2.7662
-24.2352 -7.0041 -2.4945
-24.2297 -9.4183 -2.5705
-24.2238 -12.0056 -2.6733
-24.2174 -14.8320 -2.8080
-24.2101 -17.9849 -2.9822
-24.2019 -21.5854 -3.2066
-26.8255 -41.4583 -4.8827
12.3030 -37.1687 -3.8714
5.9863 -13.8093 -1.4882
8.6702 -15.9296 -1.7933
8.6998 -13.0545 -1.5512
8.6947 -10.8131 -1.3720
8.6906 -9.0232 -1.2388
8.5911 -7.4559 -1.1248
6.8873 -4.9731 -0.8400
8.5266 -5.0647 -0.9806
8.5122 -4.0761 -0.9332
8.5102 -3.1760 -0.8982
8.5082 -2.3346 -0.8724
8.5064 -1.5339 -0.8547
8.6199 -0.7693 -0.8557
8.5029 0.0033 -0.8408
8.5012 0.7653 -0.8440
8.6269 1.5625 -0.8669
8.6226 2.3731 -0.8843
8.6183 3.2239 -0.9099
35.9951 17.2704 -3.9477
28.3308 20.4897 -3.4572
27.4302 23.8426 -3.5937
5.7832 6.0137 -0.8250
21.4537 26.7226 -3.3885
5.7134 8.5874 -1.0199
15.2530 28.0753 -3.1593
-23.3833 36.0779 -4.2511
-28.0844 20.8296 -3.4574
-24.2851 14.8479 -2.8146
-24.1982 11.9698 -2.6695
-24.2727 9.4137 -2.5743
-24.1868 6.9701 -2.4889
-24.2482 4.6931 -2.4422
-24.2568 2.4776 -2.4110
-36.7073 0.4549 -3.6299
-36.6999 -2.8316 -3.6397
-31.8354 -5.3468 -3.1920
-24.1565 -6.3175 -2.4689
-24.2313 -8.7132 -2.5462
-24.2255 -11.2450 -2.6409
-24.2193 -13.9952 -2.7659
-24.2123 -17.0443 -2.9278
-24.2044 -20.5019 -3.1365
-27.0317 -39.5252 -4.7349
12.3109 -40.6449 -4.1993
13.6325 -33.7876 -3.6026
12.8454 -25.1077 -2.7887
8.7016 -13.8089 -1.6139
8.7580 -11.4804 -1.4278
8.6917 -9.4984 -1.2731
8.6882 -7.9382 -1.1637
8.5177 -6.4877 -1.0587
8.5151 -5.3568 -0.9947
8.6282 -4.4061 -0.9580
8.5107 -3.4264 -0.9072
8.5088 -2.5702 -0.8789
8.5069 -1.7595 -0.8590
8.6204 -0.9919 -0.8580
8.5053 -0.2141 -0.8413
8.5017 0.5468 -0.8424
8.4999 1.3162 -0.8505
8.6239 2.1380 -0.8785
8.6195 2.9757 -0.9017
8.6151 3.8660 -0.9337
30.9899 21.2287 -3.7143
25.7622 21.2623 -3.3029
6.0009 5.9292 -0.8342
21.7591 25.7281 -3.3318
5.9508 8.4671 -1.0233
14.9477 25.9128 -2.9580
13.1859 28.4632 -3.1018
-23.0955 31.0902 -3.8296
-28.0870 21.9655 -3.5257
-24.2871 15.7153 -2.8604
-24.2804 12.7926 -2.7137
-24.2743 10.1350 -2.6011
-24.2687 7.6703 -2.5167
-24.1830 5.3248 -2.4485
-24.2583 3.1057 -2.4182
-26.2595 0.9968 -2.5984
-36.7020 -1.8902 -3.6339
-36.6944 -5.2028 -3.6646
-24.1580 -5.6627 -2.4535
-24.2329 -8.0208 -2.5240
-24.2272 -10.5021 -2.6110
-24.2211 -13.1827 -2.7267
-24.2144 -16.1367 -2.8773
-24.2068 -19.4641 -3.0714
-32.1604 -30.9744 -4.4151
-28.3596 -39.2749 -4.7901
6.1433 -33.9207 -3.4086
12.6398 -33.7898 -3.5673
16.2080 -33.7817 -3.7049
8.6733 -14.5766 -1.6772
8.6975 -12.0262 -1.4675
8.6929 -10.0010 -1.3103
8.6891 -8.3562 -1.1920
8.5722 -6.8821 -1.0870
8.5158 -5.6659 -1.0114
8.6288 -4.6880 -0.9710
8.5113 -3.6820 -0.9170
8.5093 -2.8094 -0.8861
8.5074 -1.9875 -0.8639
8.5076 -1.1998 -0.8496
8.6191 -0.4375 -0.8534
8.5022 0.3290 -0.8413
8.5004 1.0947 -0.8475
8.6251 1.9059 -0.8734
8.6208 2.7317 -0.8942
8.6164 3.6050 -0.9236
38.3122 20.2222 -4.2836
32.6570 21.1656 -3.8480
28.0461 21.9673 -3.5226
26.5977 24.9699 -3.6073
22.4611 25.2222 -3.3395
19.6599 26.5067 -3.2632
16.1464 26.4083 -3.0607
13.8545 28.0074 -3.0897
-28.0897 23.1479 -3.5991
-24.2891 16.6119 -2.9097
-24.2822 13.5971 -2.7518
-24.2760 10.8720 -2.6301
-24.2703 8.3584 -2.5382
-24.1845 5.9767 -2.4633
-24.2597 3.7380 -2.4271
-24.2547 1.5419 -2.4031
-36.7041 -0.9513 -3.6305
-36.6966 -4.2501 -3.6528
-25.6866 -5.3328 -2.5940
-24.2345 -7.3401 -2.5038
-24.2289 -9.7755 -2.5834
-24.2229 -12.3924 -2.6904
-24.2164 -15.2595 -2.8303
-24.2090 -18.4678 -3.0108
-29.9189 -39.2799 -4.8824
12.2994 -35.6284 -3.7270
15.1601 -33.7841 -3.6615
6.9040 -12.3082 -1.3954
8.6730 -12.6612 -1.5175
8.6941 -10.5343 -1.3506
6.8919 -6.9753 -0.9696
8.6868 -7.3469 -1.1250
8.5166 -5.9857 -1.0293
8.5550 -4.9350 -0.9766
8.5119 -3.9433 -0.9276
8.5099 -3.0529 -0.8940
8.5080 -2.2182 -0.8694
8.5061 -1.4221 -0.8528
8.6196 -0.6586 -0.8548
8.5026 0.1117 -0.8408
8.5009 0.8747 -0.8450
8.6263 1.6763 -0.8689
8.6220 2.4917 -0.8874
8.6177 3.3496 -0.9142
36.4644 18.0714 -4.0241
33.7814 20.6886 -3.9170
11.9228 8.8567 -1.4686
26.6517 23.7695 -3.5311
25.0232 26.6939 -3.6179
20.7132 26.4851 -3.3246
17.7906 27.4940 -3.2381
15.0968 28.6531 -3.2024
-23.4522 35.1925 -4.1817
-24.2108 17.4824 -2.9529
-24.2841 14.4251 -2.7929
-24.2777 11.6261 -2.6616
-24.2719 9.0590 -2.5617
-24.1860 6.6370 -2.4799
-24.2612 4.3754 -2.4376
-24.2561 2.1653 -2.4080
-36.7063 -0.0133 -3.6295
-36.6988 -3.3029 -3.6434
-29.4956 -5.3415 -2.9640
-24.1557 -6.6476 -2.4773
-24.2305 -9.0635 -2.5580
-24.2247 -11.6224 -2.6568
-24.2183 -14.4098 -2.7865
-24.2112 -17.5096 -2.9545
-24.2032 -21.0368 -3.1709
-26.8275 -40.3210 -4.7888
12.3068 -38.8386 -4.0286
5.8264 -13.9259 -1.4927
8.6966 -16.4768 -1.8422
8.7007 -13.4248 -1.5819
8.7573 -11.1808 -1.4043
8.6316 -9.1944 -1.2470
8.6877 -7.7368 -1.1503
8.5173 -6.3174 -1.0486
8.5148 -5.2061 -0.9868
8.5138 -4.2116 -0.9392
8.5104 -3.3008 -0.9026
8.5085 -2.4521 -0.8756
8.5067 -1.6466 -0.8568
8.6202 -0.8806 -0.8568
8.5031 -0.1055 -0.8409
8.5014 0.6558 -0.8431
8.4996 1.4274 -0.8522
8.6232 2.2550 -0.8813
8.6189 3.0991 -0.9057
8.6144 3.9984 -0.9391
30.9901 21.8146 -3.7474
26.7301 22.6404 -3.4638
5.8471 5.9265 -0.8232
21.8281 26.4878 -3.3939
5.7905 8.4664 -1.0142
14.7484 26.3377 -2.9848
13.2911 29.6770 -3.2153
-23.7199 37.6435 -4.3995
-21.0735 27.6253 -3.4356
-28.0857 21.3927 -3.4910
-24.2861 15.2787 -2.8371
-24.2795 12.3992 -2.6957
-24.2735 9.7730 -2.5874
-24.2679 7.3310 -2.5067
-24.1862 5.0029 -2.4422
-24.2576 2.7917 -2.4144
-36.7084 0.9246 -3.6309
-36.7009 -2.3598 -3.6365
-34.5745 -5.3531 -3.4595
-24.1572 -5.9885 -2.4610
-24.2321 -8.3650 -2.5348
-24.2264 -10.8709 -2.6256
-24.2028 -13.5757 -2.7439
-24.2133 -16.5858 -2.9020
-24.2056 -19.9768 -3.1033
-31.7349 -31.3545 -4.4112
-27.6047 -39.2752 -4.7468
12.3154 -42.6175 -4.3865
13.1329 -33.7887 -3.5845
16.7407 -33.7805 -3.7279
8.7025 -14.2101 -1.6477
8.6806 -11.6859 -1.4394
8.6923 -9.7465 -1.2913
8.6886 -8.1450 -1.1776
8.5181 -6.6618 -1.0693
8.5155 -5.5103 -1.0029
8.6285 -4.5463 -0.9644
8.5110 -3.5537 -0.9120
8.5090 -2.6895 -0.8824
8.5072 -1.8733 -0.8613
8.6207 -1.1038 -0.8594
8.6189 -0.3273 -0.8529
8.5019 0.4377 -0.8418
8.5002 1.2051 -0.8489
8.6245 2.0215 -0.8759
8.6202 2.8530 -0.8978
8.6158 3.7346 -0.9285
38.8151 21.1248 -4.3696
30.8439 20.5540 -3.6650
26.8173 21.5623 -3.4025
26.2228 25.2549 -3.5999
21.6510 24.9459 -3.2661
19.3149 26.7481 -3.2623
15.4635 26.0316 -2.9939
13.5213 28.2347 -3.0955
12.0477 43.9021 -4.5015
-28.0883 22.5515 -3.5618
-24.2881 16.1603 -2.8846
-24.2813 13.1926 -2.7324
-24.2752 10.5019 -2.6153
-24.1891 7.9869 -2.5188
-24.1838 5.6502 -2.4557
-24.2590 3.4217 -2.4225
-24.1737 1.2273 -2.3934
-36.7031 -1.4198 -3.6319
-35.9996 -4.6355 -3.5890
-24.1587 -5.3378 -2.4464
-24.2337 -7.6787 -2.5136
-24.2281 -10.1364 -2.5969
-24.2220 -12.7844 -2.7082
-24.2154 -15.6939 -2.8533
-24.1903 -18.9466 -3.0383
-29.1330 -39.2774 -4.8355
12.1496 -33.7910 -3.5507
15.6802 -33.7829 -3.6827
8.7116 -15.0768 -1.7218
8.5906 -12.2042 -1.4757
8.6935 -10.2641 -1.3300
6.9680 -6.8747 -0.9679
8.6864 -7.1585 -1.1130
8.5162 -5.8246 -1.0202
8.6292 -4.8322 -0.9779
8.5116 -3.8121 -0.9222
8.5096 -2.9308 -0.8899
8.5077 -2.1027 -0.8666
8.5059 -1.3108 -0.8510
8.6194 -0.5481 -0.8540
8.5024 0.2202 -0.8410
8.5007 0.9844 -0.8462
8.6257 1.7906 -0.8711
8.6214 2.6111 -0.8907
8.6170 3.4765 -0.9188
36.9518 18.9037 -4.1042
33.2151 20.9289 -3.8819
28.1424 21.4677 -3.4999
26.9469 24.6568 -3.6116
23.1105 25.2924 -3.3877
20.0059 26.2642 -3.2646
16.5556 26.3153 -3.0742
13.9613 27.3378 -3.0353
9.4381 45.6258 -4.6070
-23.3228 34.0491 -4.0809
-21.0465 17.8007 -2.7256
-24.2902 17.0727 -2.9357
-24.2832 14.0086 -2.7720
-24.2769 11.2474 -2.6456
-24.2711 8.7075 -2.5497
-24.1853 6.3062 -2.4714
-24.2604 4.0564 -2.4322
-24.2554 1.8537 -2.4054
-36.7052 -0.4816 -3.6297
-21.1316 -2.1739 -2.1005
-27.4669 -5.3368 -2.7667
-24.2352 -7.0031 -2.4944
-24.2297 -9.4173 -2.5704
-24.2238 -12.0044 -2.6732
-24.2174 -14.8308 -2.8080
-24.2102 -17.9835 -2.9821
-24.2019 -21.5838 -3.2065
-26.8255 -41.4548 -4.8824
12.3030 -37.1734 -3.8718
5.9856 -13.8090 -1.4882
8.6694 -15.9296 -1.7933
8.6998 -13.0555 -1.5513
8.6947 -10.8140 -1.3720
8.6906 -9.0239 -1.2388
8.5911 -7.4565 -1.1248
6.8873 -4.9735 -0.8400
8.5259 -5.0647 -0.9806
8.5122 -4.0766 -0.9332
8.5102 -3.1764 -0.8982
8.5082 -2.3350 -0.8724
8.5064 -1.5342 -0.8547
8.6199 -0.7697 -0.8557
8.5029 0.0029 -0.8408
8.5012 0.7649 -0.8440
8.6269 1.5621 -0.8669
8.6226 2.3727 -0.8843
8.6183 3.2236 -0.9098
35.9936 17.2680 -3.9474
28.3311 20.4882 -3.4572
27.4321 23.8425 -3.5938
5.7833 6.0134 -0.8250
21.4548 26.7219 -3.3885
5.7135 8.5868 -1.0198
15.2560 28.0782 -3.1597
-23.3812 36.0778 -4.2510
-28.0844 20.8314 -3.4575
-24.2851 14.8492 -2.8146
-24.1982 11.9712 -2.6695
-24.2727 9.4148 -2.5743
-24.1868 6.9712 -2.4889
-24.2480 4.6941 -2.4422
-24.2568 2.4787 -2.4110
-36.7074 0.4564 -3.6299
-36.6999 -2.8301 -3.6397
-31.8429 -5.3468 -3.1927
-24.1565 -6.3163 -2.4689
-24.2313 -8.7121 -2.5461
-24.2255 -11.2438 -2.6409
-24.2193 -13.9940 -2.7658
-24.2123 -17.0427 -2.9277
-24.2044 -20.5001 -3.1364
-27.0331 -39.5235 -4.7348
12.3109 -40.6508 -4.1998
13.6310 -33.7876 -3.6026
12.8454 -25.1104 -2.7889
8.7016 -13.8102 -1.6140
8.7580 -11.4814 -1.4279
8.6917 -9.4992 -1.2731
8.6882 -7.9389 -1.1637
8.5177 -6.4882 -1.0587
8.5151 -5.3572 -0.9948
8.6282 -4.4065 -0.9580
8.5107 -3.4268 -0.9072
8.5088 -2.5706 -0.8789
8.5069 -1.7598 -0.8590
8.6204 -0.9922 -0.8580
8.5053 -0.2145 -0.8413
8.5017 0.5465 -0.8424
8.4999 1.3158 -0.8505
8.6239 2.1377 -0.8785
8.6195 2.9753 -0.9016
8.6151 3.8656 -0.9337
30.9899 21.2265 -3.7142
25.7658 21.2633 -3.3033
6.0018 5.9296 -0.8342
21.7605 25.7277 -3.3319
5.9516 8.4673 -1.0234
14.9484 25.9113 -2.9579
13.1870 28.4624 -3.1018
-23.0940 31.0910 -3.8296
-28.0870 21.9675 -3.5258
-24.2871 15.7167 -2.8605
-24.2804 12.7938 -2.7137
8.5550 -4.9346 -0.9152
8.5119 -3.9429 -0.8693
8.5099 -3.0525 -0.8378
8.5080 -2.2179 -0.8147
8.5061 -1.4218 -0.7991
8.6196 -0.6583 -0.8011
8.5026 0.1120 -0.7880
8.5009 0.8750 -0.7919
8.6263 1.6766 -0.8143
8.6220 2.4920 -0.8316
8.6176 3.3499 -0.8568
36.5929 18.1367 -3.7845
33.7783 20.6885 -3.6704
11.9218 8.8567 -1.3762
26.7699 23.8766 -3.3239
25.0610 26.7362 -3.3957
19.8211 25.3465 -2.9816
17.7297 27.4021 -3.0243
15.1856 28.8243 -3.0190
9.3768 42.5918 -4.0412
-24.2108 17.4810 -2.7671
-24.2841 14.4238 -2.6173
-24.1973 11.5865 -2.4860
-24.2719 9.0579 -2.4006
-24.1860 6.6360 -2.3240
-24.2612 4.3744 -2.2844
-24.2561 2.1643 -2.2566
-29.4889 -5.3414 -2.7770
-24.2360 -6.6706 -2.3293
-24.2305 -9.0646 -2.3973
-24.2247 -11.6235 -2.4898
-24.2183 -14.4111 -2.6114
-24.2112 -17.5110 -2.7688
-24.2032 -21.0384 -2.9716
-26.8275 -40.3243 -4.4880
12.3067 -38.8336 -3.7748
5.8265 -13.9247 -1.3987
8.6974 -16.4768 -1.7265
8.7007 -13.4236 -1.4823
8.7573 -11.1800 -1.3160
8.6322 -9.1944 -1.1686
8.6877 -7.7362 -1.0780
8.5173 -6.3169 -0.9826
8.5148 -5.2057 -0.9248
8.5138 -4.2112 -0.8802
8.5104 -3.3004 -0.8458
8.5085 -2.4518 -0.8205
8.5067 -1.6463 -0.8029
8.6202 -0.8803 -0.8029
8.5031 -0.1052 -0.7880
8.5014 0.6561 -0.7901
8.4996 1.4277 -0.7986
8.6232 2.2554 -0.8259
8.6189 3.0994 -0.8487
8.6144 3.9988 -0.8801
30.9275 21.7724 -3.5048
26.8486 22.7425 -3.2605
5.8466 5.9265 -0.7714
20.5401 24.9266 -2.9930
5.7902 8.4667 -0.9505
14.4740 25.8499 -2.7453
13.3359 29.7800 -3.0236
-21.0735 27.6231 -3.2195
-28.0857 21.3911 -3.2714
-24.2861 15.2774 -2.6587
-24.2795 12.3979 -2.5262
-24.2735 9.7719 -2.4247
-24.2679 7.3300 -2.3491
-24.2626 5.0178 -2.2958
-24.2576 2.7907 -2.2626
-34.5659 -5.3530 -3.2412
-24.2375 -6.0095 -2.3139
-24.2321 -8.3660 -2.3755
-24.1462 -10.8360 -2.4524
-24.2006 -13.5757 -2.5713
-24.2133 -16.5872 -2.7197
-24.2056 -19.9783 -2.9083
-27.6025 -39.2754 -4.4483
12.3154 -42.6112 -4.1101
13.1344 -33.7887 -3.3592
16.7424 -33.7805 -3.4936
8.7025 -14.2089 -1.5440
8.6813 -11.6859 -1.3490
8.6923 -9.7458 -1.2101
8.6886 -8.1444 -1.1035
8.5181 -6.6613 -1.0020
8.5155 -5.5098 -0.9398
8.6285 -4.5459 -0.9037
8.5110 -3.5533 -0.8546
8.5090 -2.6892 -0.8269
8.5072 -1.8730 -0.8072
8.6207 -1.1035 -0.8053
8.6189 -0.3270 -0.7992
8.5019 0.4380 -0.7889
8.5002 1.2054 -0.7955
8.6245 2.0218 -0.8208
8.6201 2.8534 -0.8414
8.6157 3.7350 -0.8702
38.9621 21.2068 -4.1105
30.7691 20.5057 -3.4263
26.8985 21.6293 -3.1984
26.0613 25.1012 -3.3529
21.6675 24.9668 -3.0633
19.3951 26.8611 -3.0701
15.4959 26.0885 -2.8117
13.4328 28.0524 -2.8821
12.0459 43.9017 -4.2184
-23.1030 31.9436 -3.6530
-28.0883 22.5497 -3.3377
-24.2881 16.1590 -2.7032
-24.2813 13.1914 -2.5606
-24.1948 10.4661 -2.4427
-24.1891 7.9859 -2.3604
-24.2641 5.6680 -2.3089
-24.2590 3.4208 -2.2702
-24.1737 1.2265 -2.2429
-35.9891 -4.6355 -3.3624
-24.1587 -5.3388 -2.2926
-24.2337 -7.6796 -2.3556
-24.1649 -10.1110 -2.4273
-24.2220 -12.7855 -2.5380
-24.2154 -15.6951 -2.6740
-24.1885 -18.9465 -2.8471
-32.2354 -30.2638 -4.0972
-28.9786 -39.0724 -4.5077
12.1511 -33.7910 -3.3275
15.6818 -33.7829 -3.4513
8.7133 -15.0783 -1.6137
8.5906 -12.2032 -1.3829
8.6935 -10.2633 -1.2464
6.9685 -6.8747 -0.9071
8.6864 -7.1579 -1.0430
8.5162 -5.8242 -0.9560
8.6292 -4.8318 -0.9164
8.5116 -3.8117 -0.8642
8.5096 -2.9304 -0.8340
8.5077 -2.1023 -0.8121
8.5059 -1.3104 -0.7975
8.6194 -0.5478 -0.8003
8.5024 0.2205 -0.7881
8.5007 0.9847 -0.7930
8.6257 1.7909 -0.8163
8.6213 2.6114 -0.8347
8.6170 3.4768 -0.8610
37.0847 18.9734 -3.8600
33.2121 20.9288 -3.6376
28.1664 21.4875 -3.2828
27.4439 25.1135 -3.4471
22.6533 24.7938 -3.1120
20.0889 26.3753 -3.0722
16.4532 26.1546 -2.8632
14.1386 27.6876 -2.8808
9.4359 45.6237 -4.3171
-21.0446 17.7978 -2.5539
-24.2902 17.0713 -2.7511
-24.2832 14.0074 -2.5977
-24.1965 11.2090 -2.4710
-24.2711 8.7066 -2.3894
-24.2656 6.3262 -2.3237
-24.2604 4.0555 -2.2793
-24.2554 1.8528 -2.2541
-21.1289 -2.1744 -1.9682
-27.4615 -5.3368 -2.5923
-24.2352 -7.0041 -2.3376
-24.2297 -9.4183 -2.4089
-24.2238 -12.0056 -2.5052
-24.2174 -14.8320 -2.6315
-24.2102 -17.9849 -2.7947
-24.2019 -21.5854 -3.0050
-26.8255 -41.4583 -4.5757
12.3030 -37.1687 -3.6280
5.9861 -13.8088 -1.3946
8.6702 -15.9296 -1.6806
8.6998 -13.0545 -1.4537
8.6947 -10.8131 -1.2857
8.6906 -9.0232 -1.1609
8.5911 -7.4559 -1.0541
6.8873 -4.9731 -0.7872
8.5266 -5.0647 -0.9190
8.5122 -4.0761 -0.8745
8.5102 -3.1760 -0.8417
8.5082 -2.3346 -0.8175
8.5064 -1.5339 -0.8009
8.6199 -0.7693 -0.8019
8.5029 0.0033 -0.7879
8.5012 0.7653 -0.7909
8.6269 1.5625 -0.8124
8.6226 2.3731 -0.8287
8.6183 3.2239 -0.8526
36.1182 17.3295 -3.7121
28.3549 20.5071 -3.2426
27.6329 24.0188 -3.3927
5.7830 6.0136 -0.7731
21.5821 26.8826 -3.1945
5.7134 8.5874 -0.9558
14.4860 26.6636 -2.8118
-23.3833 36.0779 -3.9839
-28.0844 20.8296 -3.2400
-24.2851 14.8479 -2.6376
-24.1982 11.9698 -2.5016
-24.2727 9.4137 -2.4124
-24.2671 6.9933 -2.3402
-24.2619 4.6958 -2.2899
-24.2568 2.4776 -2.2594
-31.8354 -5.3468 -2.9913
-24.2367 -6.3385 -2.3214
-24.2313 -8.7132 -2.3861
-24.1453 -11.2078 -2.4667
-24.2193 -13.9952 -2.5920
-24.2123 -17.0443 -2.7438
-24.2044 -20.5019 -2.9393
-27.0316 -39.5252 -4.4372
12.3109 -40.6449 -3.9353
13.6325 -33.7876 -3.3761
12.8454 -25.1077 -2.6134
8.7016 -13.8089 -1.5124
8.7580 -11.4804 -1.3380
8.6917 -9.4984 -1.1930
8.6882 -7.9382 -1.0905
8.5177 -6.4877 -0.9922
8.5151 -5.3568 -0.9322
8.6282 -4.4061 -0.8977
8.5107 -3.4264 -0.8501
8.5088 -2.5702 -0.8236
8.5069 -1.7595 -0.8050
8.6204 -0.9919 -0.8041
8.5053 -0.2141 -0.7884
8.5017 0.5468 -0.7894
8.4999 1.3162 -0.7970
8.6239 2.1380 -0.8233
8.6195 2.9757 -0.8450
8.6151 3.8660 -0.8750
30.9278 21.1862 -3.4738
25.8410 21.3273 -3.1047
6.0006 5.9289 -0.7817
20.8481 24.6509 -2.9916
5.9508 8.4671 -0.9590
14.9358 25.8922 -2.7698
13.2420 28.5844 -2.9192
-23.0949 31.0895 -3.5888
-28.0870 21.9655 -3.3040
-24.2871 15.7153 -2.6806
-24.2804 12.7926 -2.5431
-24.2743 10.1350 -2.4375
-24.2687 7.6703 -2.3585
-24.1830 5.3248 -2.2946
-24.2583 3.1057 -2.2662
-26.2596 0.9968 -2.4351
-24.2382 -5.6815 -2.3069
-24.2329 -8.0208 -2.3653
-24.1470 -10.4674 -2.4387
-24.2211 -13.1827 -2.5553
-24.2144 -16.1367 -2.6964
-24.2068 -19.4641 -2.8783
-28.3596 -39.2749 -4.4890
6.1426 -33.9169 -3.1940
12.6398 -33.7898 -3.3430
16.2080 -33.7817 -3.4720
8.6733 -14.5766 -1.5717
8.6975 -12.0262 -1.3753
8.6929 -10.0010 -1.2279
8.6891 -8.3562 -1.1171
8.5722 -6.8821 -1.0186
8.5158 -5.6659 -0.9478
8.6288 -4.6880 -0.9100
8.5113 -3.6820 -0.8593
8.5093 -2.8094 -0.8304
8.5074 -1.9875 -0.8096
8.5076 -1.1998 -0.7961
8.6191 -0.4375 -0.7997
8.5022 0.3290 -0.7884
8.5004 1.0947 -0.7942
8.6251 1.9059 -0.8185
8.6207 2.7317 -0.8380
8.6164 3.6050 -0.8655
38.4530 20.2964 -4.0291
32.6558 21.1648 -3.6060
28.0704 21.9863 -3.3040
26.7244 25.0887 -3.3966
22.3247 25.0690 -3.1106
19.7425 26.6181 -3.0709
16.1511 26.4161 -2.8691
13.9133 28.1263 -2.9077
-28.0897 23.1479 -3.3728
-24.2891 16.6119 -2.7268
-24.2822 13.5971 -2.5788
-24.1956 10.8360 -2.4566
-24.2703 8.3584 -2.3786
-24.2649 5.9966 -2.3161
-24.2597 3.7380 -2.2745
-24.2547 1.5419 -2.2521
-25.6866 -5.3328 -2.4310
-24.2345 -7.3401 -2.3464
-24.2289 -9.7755 -2.4210
-24.2229 -12.3924 -2.5213
-24.2164 -15.2595 -2.6523
-24.2090 -18.4678 -2.8215
-29.9189 -39.2799 -4.5754
-26.2325 -41.6983 -4.5649
12.2994 -35.6284 -3.4926
15.1601 -33.7841 -3.4313
6.9040 -12.3082 -1.3077
8.6730 -12.6612 -1.4221
8.6941 -10.5343 -1.2657
6.8919 -6.9753 -0.9086
8.6868 -7.3469 -1.0542
8.5166 -5.9857 -0.9646
8.5550 -4.9350 -0.9152
8.5119 -3.9433 -0.8693
8.5099 -3.0529 -0.8378
8.5080 -2.2182 -0.8147
8.5061 -1.4221 -0.7992
8.6196 -0.6586 -0.8011
8.5026 0.1117 -0.7880
8.5009 0.8747 -0.7919
8.6263 1.6763 -0.8143
8.6220 2.4917 -0.8316
8.6177 3.3496 -0.8567
36.5915 18.1344 -3.7843
33.7801 20.6878 -3.6706
11.9224 8.8565 -1.3762
26.7671 23.8723 -3.3235
25.0617 26.7351 -3.3957
19.8201 25.3432 -2.9813
17.7311 27.4021 -3.0244
15.1866 28.8236 -3.0189
9.3774 42.5865 -4.0408
-24.2108 17.4824 -2.7672
-24.2841 14.4251 -2.6173
-24.1973 11.5876 -2.4860
-24.2719 9.0590 -2.4007
-24.1860 6.6370 -2.3240
-24.2612 4.3754 -2.2844
-24.2561 2.1653 -2.2566
-29.4956 -5.3415 -2.7776
-24.2360 -6.6697 -2.3293
-24.2305 -9.0635 -2.3972
-24.2247 -11.6224 -2.4897
-24.2183 -14.4098 -2.6114
-24.2112 -17.5096 -2.7687
-24.2032 -21.0368 -2.9715
-26.8275 -40.3210 -4.4877
12.3068 -38.8386 -3.7753
5.8262 -13.9255 -1.3988
8.6966 -16.4768 -1.7264
8.7007 -13.4248 -1.4824
8.7573 -11.1808 -1.3160
8.6316 -9.1944 -1.1686
8.6877 -7.7368 -1.0780
8.5173 -6.3174 -0.9826
8.5148 -5.2061 -0.9248
8.5138 -4.2116 -0.8802
8.5104 -3.3008 -0.8458
8.5085 -2.4521 -0.8205
8.5067 -1.6466 -0.8029
8.6202 -0.8806 -0.8029
8.5031 -0.1055 -0.7880
8.5014 0.6558 -0.7901
8.4996 1.4274 -0.7986
8.6232 2.2550 -0.8259
8.6189 3.0991 -0.8487
8.6144 3.9984 -0.8800
30.9275 21.7706 -3.5047
26.8512 22.7430 -3.2607
5.8470 5.9264 -0.7714
20.5405 24.9253 -2.9929
5.7905 8.4664 -0.9505
14.4754 25.8502 -2.7454
13.3371 29.7797 -3.0236
-21.0730 27.6246 -3.2196
-28.0857 21.3927 -3.2715
-24.2861 15.2787 -2.6587
-24.2795 12.3992 -2.5262
-24.2735 9.7730 -2.4247
-24.2679 7.3310 -2.3491
-24.2626 5.0187 -2.2959
-24.2576 2.7917 -2.2626
-34.5745 -5.3531 -3.2420
-24.2375 -6.0084 -2.3139
-24.2321 -8.3650 -2.3755
-24.1462 -10.8349 -2.4524
-24.2028 -13.5757 -2.5714
-24.2133 -16.5858 -2.7196
-24.2056 -19.9768 -2.9082
-27.6047 -39.2752 -4.4484
12.3154 -42.6175 -4.1107
13.1329 -33.7887 -3.3592
16.7407 -33.7805 -3.4935
8.7025 -14.2101 -1.5441
8.6806 -11.6859 -1.3489
8.6923 -9.7465 -1.2101
8.6886 -8.1450 -1.1036
8.5181 -6.6618 -1.0020
8.5155 -5.5103 -0.9399
8.6285 -4.5463 -0.9037
8.5110 -3.5537 -0.8546
8.5090 -2.6895 -0.8269
8.5072 -1.8733 -0.8072
8.6207 -1.1038 -0.8053
8.6189 -0.3273 -0.7992
8.5019 0.4377 -0.7889
8.5002 1.2051 -0.7955
8.6245 2.0215 -0.8208
8.6201 2.8530 -0.8414
8.6157 3.7346 -0.8701
38.9606 21.2040 -4.1103
30.7677 20.5032 -3.4261
26.9018 21.6302 -3.1987
26.0647 25.1026 -3.3532
21.6701 24.9679 -3.0635
19.3961 26.8605 -3.0701
15.4975 26.0889 -2.8118
13.4355 28.0554 -2.8824
12.0474 43.9011 -4.2184
-23.1031 31.9462 -3.6532
-28.0883 22.5515 -3.3378
-24.2881 16.1603 -2.7033
-24.2813 13.1926 -2.5606
-24.1948 10.4671 -2.4428
-24.1891 7.9869 -2.3605
-24.2641 5.6689 -2.3089
-24.2590 3.4217 -2.2702
-24.1737 1.2273 -2.2429
-35.9996 -4.6355 -3.3634
-24.1587 -5.3378 -2.2926
-24.2337 -7.6787 -2.3556
-24.1653 -10.1101 -2.4273
-24.2220 -12.7844 -2.5379
-24.2154 -15.6938 -2.6739
-24.1903 -18.9466 -2.8473
-32.2348 -30.2609 -4.0970
-28.9786 -39.0693 -4.5075
12.1496 -33.7910 -3.3274
15.6802 -33.7829 -3.4512
8.7133 -15.0797 -1.6138
8.5906 -12.2042 -1.3830
8.6935 -10.2641 -1.2464
6.9680 -6.8747 -0.9070
8.6864 -7.1585 -1.0430
8.5162 -5.8246 -0.9561
8.6292 -4.8322 -0.9164
8.5116 -3.8121 -0.8642
8.5096 -2.9308 -0.8340
8.5077 -2.1027 -0.8121
8.5059 -1.3108 -0.7975
8.6194 -0.5481 -0.8003
