12.641846656799316 -22.69652557373047 -4.691021919250488
14.225208282470703 -21.1131591796875 -4.596850395202637
2.3234448432922363 -27.365917205810547 -4.784581661224365
7.285656452178955 -28.052757263183594 -5.049217700958252
9.207999229431152 -26.13040542602539 -4.826559066772461
10.980108261108398 -24.3582763671875 -4.654677391052246
12.548293113708496 -22.528566360473633 -4.492458820343018
14.22520637512207 -21.113161087036133 -4.435096263885498
-4.882812390860636e-06 -45.83087158203125 -7.69364595413208
2.323387384414673 -27.3652286529541 -4.610337257385254
7.285651683807373 -28.05275535583496 -4.865456581115723
9.207999229431152 -26.13040542602539 -4.650904655456543
10.980104446411133 -24.358278274536133 -4.48527717590332
12.641847610473633 -22.696523666381836 -4.361234188079834
14.22520637512207 -21.113161087036133 -4.273684501647949
2.323331356048584 -27.364538192749023 -4.436457633972168
7.285656452178955 -28.052757263183594 -4.68207311630249
9.207996368408203 -26.130399703979492 -4.475607395172119
10.980104446411133 -24.358278274536133 -4.316224575042725
12.641846656799316 -22.69652557373047 -4.196855545043945
14.225208282470703 -21.1131591796875 -4.112605094909668
2.323270320892334 -27.36385154724121 -4.262938022613525
7.274971961975098 -28.011632919311523 -4.492458820343018
9.207998275756836 -26.13040542602539 -4.300660610198975
10.980111122131348 -24.358280181884766 -4.147506237030029
12.641847610473633 -22.696523666381836 -4.032804012298584
13.76000690460205 -20.422718048095703 -3.8226144313812256
2.323211669921875 -27.36316680908203 -4.089754104614258
7.285655498504639 -28.052757263183594 -4.316394805908203
9.207998275756836 -26.13040542602539 -4.126049995422363
10.980111122131348 -24.358280181884766 -3.9791176319122314
12.261354446411133 -22.013402938842773 -3.7526192665100098
13.80573558807373 -20.49057388305664 -3.6796035766601562
2.3231592178344727 -27.36248016357422 -3.916895866394043
7.285656452178955 -28.052757263183594 -4.13405704498291
8.906872749328613 -25.275888442993164 -3.8225271701812744
10.656330108642578 -23.639997482299805 -3.6986501216888428
12.26906681060791 -22.02724838256836 -3.5963618755340576
13.80573558807373 -20.49057388305664 -3.524165153503418
2.3230981826782227 -27.36179542541504 -3.7443501949310303
7.047397136688232 -27.1353759765625 -3.8228042125701904
8.936469078063965 -25.35987091064453 -3.666372299194336
10.656328201293945 -23.639999389648438 -3.53580641746521
12.269071578979492 -22.027250289916992 -3.4380226135253906
13.80573558807373 -20.49057388305664 -3.3690059185028076
2.323040723800659 -27.361112594604492 -3.5721027851104736
7.0708136558532715 -27.225536346435547 -3.6591567993164062
8.936467170715332 -25.359872817993164 -3.4977993965148926
10.656326293945312 -23.639999389648438 -3.3732364177703857
12.26906967163086 -22.027252197265625 -3.2799477577209473
13.805734634399414 -20.490575790405273 -3.2141036987304688
2.3229832649230957 -27.360431671142578 -3.400143623352051
5.009228229522705 -29.287139892578125 -3.679196357727051
7.0708136558532715 -27.225536346435547 -3.483093500137329
8.936469078063965 -25.35987091064453 -3.3294997215270996
10.656328201293945 -23.639999389648438 -3.210930347442627
12.26906967163086 -22.027252197265625 -3.1221303939819336
13.760009765625 -20.422714233398438 -3.0493221282958984
2.322923421859741 -27.359750747680664 -3.2284512519836426
5.00922966003418 -29.287137985229492 -3.493499994277954
7.070816993713379 -27.225542068481445 -3.307295083999634
8.936467170715332 -25.359872817993164 -3.161454200744629
10.621033668518066 -23.56171417236328 -3.038770914077759
12.26906681060791 -22.02725601196289 -2.9645497798919678
13.805731773376465 -20.490577697753906 -2.9050381183624268
2.322863817214966 -27.359073638916016 -3.0570168495178223
5.009228229522705 -29.287139892578125 -3.308077096939087
7.0708136558532715 -27.225536346435547 -3.1317543983459473
8.936467170715332 -25.359872817993164 -2.9936532974243164
10.656326293945312 -23.639999389648438 -2.8870441913604736
12.26906681060791 -22.02725601196289 -2.8072006702423096
13.805734634399414 -20.490575790405273 -2.7508485317230225
2.3228087425231934 -27.3583984375 -2.8858284950256348
5.009230613708496 -29.287137985229492 -3.1229031085968018
7.070820331573486 -27.225536346435547 -2.9564504623413086
8.936469078063965 -25.35987091064453 -2.826079845428467
10.656328201293945 -23.639999389648438 -2.7254385948181152
12.26906967163086 -22.027252197265625 -2.6500656604766846
13.805734634399414 -20.490575790405273 -2.5968663692474365
2.3227550983428955 -27.35771942138672 -2.714862585067749
5.009227275848389 -29.28714370727539 -2.9379665851593018
7.070815086364746 -27.225542068481445 -2.781369924545288
8.936469078063965 -25.35987091064453 -2.6587202548980713
10.656326293945312 -23.639999389648438 -2.5640389919281006
12.269064903259277 -22.027250289916992 -2.4931294918060303
13.805734634399414 -20.490575790405273 -2.4430809020996094
2.322695255279541 -27.357040405273438 -2.544121026992798
5.00922966003418 -29.287137985229492 -2.7532613277435303
7.0708184242248535 -27.22553825378418 -2.606510639190674
8.936470985412598 -25.359867095947266 -2.4915719032287598
10.656328201293945 -23.639999389648438 -2.402841806411743
12.26906967163086 -22.027252197265625 -2.336390972137451
13.805734634399414 -20.490575790405273 -2.2894880771636963
2.3226404190063477 -27.356361389160156 -2.3735787868499756
5.009227275848389 -29.28714370727539 -2.568763017654419
7.070816993713379 -27.225542068481445 -2.4318466186523438
8.936469078063965 -25.35987091064453 -2.3246095180511475
10.656328201293945 -23.639999389648438 -2.241825819015503
12.228434562683105 -21.954301834106445 -2.1726083755493164
13.80446720123291 -20.488685607910156 -2.135871171951294
2.322578191757202 -27.35569190979004 -2.2032277584075928
5.009227275848389 -29.28714370727539 -2.3844618797302246
7.070816516876221 -27.225534439086914 -2.257368326187134
8.906874656677246 -25.27588653564453 -2.1506786346435547
10.656328201293945 -23.639999389648438 -2.080984115600586
12.269065856933594 -22.027250289916992 -2.0234310626983643
13.805731773376465 -20.490577697753906 -1.9828139543533325
2.322519540786743 -27.355018615722656 -2.0330560207366943
5.009227275848389 -29.28714370727539 -2.2003462314605713
7.070820331573486 -27.225536346435547 -2.083066701889038
8.936470985412598 -25.359867095947266 -1.9912093877792358
10.656326293945312 -23.639999389648438 -1.9202992916107178
12.26906681060791 -22.02725601196289 -1.8671916723251343
13.805734634399414 -20.490575790405273 -1.8297091722488403
2.3224620819091797 -27.354345321655273 -1.8630443811416626
5.009228229522705 -29.287139892578125 -2.01639461517334
7.0708136558532715 -27.225543975830078 -1.9089196920394897
8.936470985412598 -25.359874725341797 -1.8247414827346802
10.656326293945312 -23.639999389648438 -1.759759783744812
12.26906967163086 -22.027252197265625 -1.7110928297042847
13.805734634399414 -20.490575790405273 -1.6767433881759644
2.322408437728882 -27.353673934936523 -1.6931833028793335
5.009227275848389 -29.28714370727539 -1.832600712776184
7.0708136558532715 -27.225536346435547 -1.7349218130111694
8.936469078063965 -25.35987091064453 -1.6584175825119019
10.656325340270996 -23.64000129699707 -1.5993582010269165
12.269065856933594 -22.027250289916992 -1.5551272630691528
13.805731773376465 -20.490577697753906 -1.5239077806472778
2.322349786758423 -27.35300064086914 -1.5234588384628296
5.009224891662598 -29.28714370727539 -1.6489418745040894
7.070814609527588 -27.225536346435547 -1.5610527992248535
8.936470985412598 -25.359874725341797 -1.4922152757644653
10.62103271484375 -23.561716079711914 -1.434308409690857
12.228433609008789 -21.954303741455078 -1.3946423530578613
13.760011672973633 -20.422719955444336 -1.3666452169418335
2.322291135787964 -27.35232925415039 -1.3538625240325928
5.009228229522705 -29.287139892578125 -1.4654101133346558
7.047399044036865 -27.135372161865234 -1.3827080726623535
8.906874656677246 -25.27588653564453 -1.32173490524292
10.621037483215332 -23.561710357666016 -1.2746654748916626
12.228434562683105 -21.954301834106445 -1.2394133806228638
13.760014533996582 -20.42271614074707 -1.2145330905914307
2.3222339153289795 -27.351659774780273 -1.1843786239624023
4.992635250091553 -29.190147399902344 -1.2777471542358398
7.047397136688232 -27.1353759765625 -1.2096420526504517
8.90687084197998 -25.275888442993164 -1.156300663948059
10.621034622192383 -23.56171417236328 -1.115122675895691
12.228434562683105 -21.954301834106445 -1.084283709526062
13.760011672973633 -20.422712326049805 -1.0625170469284058
2.322181463241577 -27.35098648071289 -1.0149853229522705
4.992635250091553 -29.19014549255371 -1.0950264930725098
7.047397136688232 -27.1353759765625 -1.0366610288619995
8.906872749328613 -25.275888442993164 -0.9909475445747375
10.621034622192383 -23.56171417236328 -0.955657958984375
12.228433609008789 -21.954303741455078 -0.9292284846305847
13.760011672973633 -20.422712326049805 -0.9105749130249023
2.3221216201782227 -27.35031509399414 -0.8456841707229614
4.992636680603027 -29.19014549255371 -0.9123971462249756
7.047397136688232 -27.1353759765625 -0.8637667894363403
8.906874656677246 -25.27588653564453 -0.8256753087043762
10.621034622192383 -23.56171417236328 -0.7962722778320312
12.228434562683105 -21.954301834106445 -0.7742508053779602
13.760009765625 -20.422714233398438 -0.7587087750434875
2.322068929672241 -27.34964370727539 -0.6764523386955261
4.992636680603027 -29.19014549255371 -0.7298330664634705
7.047397136688232 -27.1353759765625 -0.6909322738647461
8.906874656677246 -25.27588653564453 -0.6604641675949097
10.621034622192383 -23.56171417236328 -0.6369442343711853
12.228434562683105 -21.954301834106445 -0.6193292140960693
13.760011672973633 -20.422719955444336 -0.6068966388702393
2.3220043182373047 -27.348974227905273 -0.507283627986908
4.992635250091553 -29.190147399902344 -0.5473281741142273
7.047399044036865 -27.135372161865234 -0.5181549191474915
8.906874656677246 -25.27588653564453 -0.4953060746192932
10.621037483215332 -23.561710357666016 -0.4776672124862671
12.228433609008789 -21.954303741455078 -0.46445709466934204
13.760014533996582 -20.42271614074707 -0.4551333487033844
2.3219494819641113 -27.348302841186523 -0.3381582498550415
4.992635250091553 -29.19014549255371 -0.3648614287376404
7.047397136688232 -27.1353759765625 -0.34541380405426025
8.906872749328613 -25.275888442993164 -0.33018219470977783
10.621037483215332 -23.561710357666016 -0.3184237480163574
12.228434562683105 -21.954301834106445 -0.3096176087856293
13.760011672973633 -20.422719955444336 -0.3034023940563202
2.321897029876709 -27.347631454467773 -0.16907012462615967
4.992637634277344 -29.19014549255371 -0.1824246197938919
7.047397136688232 -27.1353759765625 -0.17270202934741974
8.906874656677246 -25.27588653564453 -0.16508635878562927
10.621037483215332 -23.561710357666016 -0.15920744836330414
12.228434562683105 -21.954301834106445 -0.15480422973632812
13.760011672973633 -20.422719955444336 -0.15169662237167358
2.32183837890625 -27.34696388244629 0.0
4.992636680603027 -29.19014549255371 -7.629394076502649e-07
7.047397136688232 -27.1353759765625 0.0
8.906874656677246 -25.27588653564453 0.0
10.621034622192383 -23.56171417236328 0.0
12.228434562683105 -21.954301834106445 1.5258788721439487e-07
13.760014533996582 -20.42271614074707 0.0
2.321784734725952 -27.34629249572754 0.16906188428401947
4.992639064788818 -29.190143585205078 0.1824253797531128
7.242246150970459 -27.885629653930664 0.17747695744037628
9.153136253356934 -25.9747314453125 0.16965071856975555
10.914691925048828 -24.21316146850586 0.16360916197299957
12.566533088684082 -22.561307907104492 0.15908461809158325
13.760011672973633 -20.422719955444336 0.15169647336006165
2.321726083755493 -27.345626831054688 0.3381251394748688
4.992637634277344 -29.19014549255371 0.36486098170280457
7.242246150970459 -27.885629653930664 0.3549639880657196
9.153135299682617 -25.9747314453125 0.3393113613128662
10.914691925048828 -24.21316146850586 0.3272276222705841
12.566532135009766 -22.561309814453125 0.3181782364845276
13.760011672973633 -20.422719955444336 0.30340301990509033
2.3216638565063477 -27.34495735168457 0.5072088241577148
4.992635250091553 -29.19014549255371 0.547327995300293
7.242247104644775 -27.885629653930664 0.5324815511703491
9.153136253356934 -25.9747314453125 0.5090007185935974
10.914691925048828 -24.21316146850586 0.490874320268631
12.566532135009766 -22.561309814453125 0.4772987365722656
13.760014533996582 -20.42271614074707 0.4551329016685486
-2.441406195430318e-06 -49.93321228027344 1.2306002378463745
2.321612596511841 -27.344284057617188 0.6763230562210083
4.992636680603027 -29.19014549255371 0.7298364043235779
7.242246150970459 -27.885629653930664 0.7100391983985901
9.153136253356934 -25.9747314453125 0.6787286400794983
10.914690971374512 -24.213163375854492 0.6545579433441162
12.566533088684082 -22.561307907104492 0.6364556550979614
13.760011672973633 -20.422719955444336 0.606899082660675
-4.882812390860636e-06 -49.93320083618164 1.5384246110916138
2.321553945541382 -27.343618392944336 0.8454771041870117
4.992637634277344 -29.19014549255371 0.9123966693878174
7.242247104644775 -27.885629653930664 0.8876473903656006
9.153138160705566 -25.974727630615234 0.848504900932312
10.914691925048828 -24.21316146850586 0.818288266658783
12.566533088684082 -22.561307907104492 0.7956581115722656
13.760009765625 -20.422714233398438 0.7587082982063293
2.441406195430318e-06 -49.93321228027344 1.846367597579956
2.321497678756714 -27.34294891357422 1.0146903991699219
4.992635250091553 -29.190147399902344 1.0950301885604858
7.242246150970459 -27.885629653930664 1.0653269290924072
9.153136253356934 -25.9747314453125 1.0183494091033936
10.914691925048828 -24.21316146850586 0.9820840358734131
12.566532135009766 -22.561309814453125 0.9549239873886108
13.760014533996582 -20.42271614074707 0.9105773568153381
-9.765624781721272e-06 -49.93319320678711 2.1544532775878906
2.321436643600464 -27.3422794342041 1.1839721202850342
4.992634296417236 -29.190147399902344 1.2777464389801025
7.242247104644775 -27.885629653930664 1.243086576461792
9.153136253356934 -25.9747314453125 1.1882703304290771
10.914690971374512 -24.213163375854492 1.1459540128707886
12.566533088684082 -22.561307907104492 1.114262342453003
13.760014533996582 -20.42271614074707 1.0625176429748535
-6.103515488575795e-07 -18.458099365234375 0.9103503227233887
2.321382999420166 -27.34160614013672 1.3533354997634888
4.992634296417236 -29.190147399902344 1.460561752319336
7.242249488830566 -27.88563346862793 1.4209414720535278
9.153136253356934 -25.9747314453125 1.3582820892333984
10.914691925048828 -24.21316146850586 1.3099116086959839
12.566533088684082 -22.561307907104492 1.273685097694397
13.760014533996582 -20.42271614074707 1.2145360708236694
-6.103515488575795e-07 -18.457111358642578 1.0243074893951416
2.3129260540008545 -27.242008209228516 1.5172806978225708
4.992635250091553 -29.190147399902344 1.6434818506240845
7.242246150970459 -27.885629653930664 1.5989010334014893
9.153136253356934 -25.9747314453125 1.528394341468811
10.914690971374512 -24.213163375854492 1.4739654064178467
12.566532135009766 -22.561309814453125 1.4332021474838257
13.760011672973633 -20.422719955444336 1.3666437864303589
1.220703097715159e-06 -18.45612335205078 1.1383346319198608
2.3104944229125977 -27.213388442993164 1.6845027208328247
4.992635250091553 -29.190147399902344 1.8265306949615479
7.242247104644775 -27.885629653930664 1.7769851684570312
9.153138160705566 -25.974727630615234 1.6986254453659058
10.914691925048828 -24.21316146850586 1.6381347179412842
12.566534996032715 -22.56130599975586 1.5928308963775635
13.760011672973633 -20.422712326049805 1.5188604593276978
-6.103515488575795e-07 -18.45513153076172 1.2524343729019165
2.3080663681030273 -27.184804916381836 1.8515006303787231
4.992635250091553 -29.190147399902344 2.0097222328186035
7.242242336273193 -27.88563346862793 1.9552053213119507
9.153136253356934 -25.9747314453125 1.86898672580719
10.914694786071777 -24.213159561157227 1.8024286031723022
12.566533088684082 -22.561307907104492 1.7525819540023804
13.760014533996582 -20.42271614074707 1.6711935997009277
-6.103515488575795e-07 -18.454143524169922 1.3666176795959473
2.3056468963623047 -27.156251907348633 2.0182864665985107
4.992635250091553 -29.19014549255371 2.193061590194702
7.242247104644775 -27.885629653930664 2.1335742473602295
9.153138160705566 -25.974727630615234 2.03948974609375
10.914691925048828 -24.21316146850586 1.966860055923462
12.566533088684082 -22.561307907104492 1.9124658107757568
13.760014533996582 -20.42271614074707 1.8236507177352905
-3.662109293145477e-06 -18.45314598083496 1.4808895587921143
2.2969493865966797 -27.053890228271484 2.178920030593872
4.688289642333984 -27.41074562072754 2.2316925525665283
6.945637226104736 -26.743547439575195 2.2174081802368164
1.5329118967056274 -4.350090026855469 0.3701409697532654
1.9007266759872437 -4.216574192047119 0.37117597460746765
2.257138967514038 -4.052351474761963 0.3722497522830963
13.760011672973633 -20.422719955444336 1.976243495941162
4.272460955689894e-06 -18.45216178894043 1.5952651500701904
2.1872997283935547 -25.762365341186523 2.235276699066162
4.3378586769104 -25.36188507080078 2.224480628967285
1.0746961832046509 -4.138031959533691 0.3696182072162628
1.4244604110717773 -4.042329788208008 0.37053924798965454
1.765902042388916 -3.9174811840057373 0.3715019226074219
2.0966038703918457 -3.76413631439209 0.3725000023841858
2.4141650199890137 -3.5831215381622314 0.37352705001831055
4.882812390860636e-06 -18.451169967651367 1.709750771522522
2.0559704303741455 -24.215579986572266 2.251976490020752
4.032080173492432 -23.57413101196289 2.2161865234375
1.0037802457809448 -3.8649795055389404 0.37002426385879517
1.3302440643310547 -3.7749688625335693 0.37088531255722046
1.6488288640975952 -3.657757520675659 0.3717849552631378
1.9572490453720093 -3.513947010040283 0.37271758913993835
2.25329327583313 -3.3443541526794434 0.37367674708366394
4.882812390860636e-06 -18.450176239013672 1.8243558406829834
2.0379858016967773 -24.003726959228516 2.3820347785949707
0.6301878094673157 -3.6844871044158936 0.36961349844932556
0.9415788054466248 -3.6254730224609375 0.3703804016113281
1.2476321458816528 -3.5405287742614746 0.3711886405944824
1.5461899042129517 -3.430072784423828 0.3720330595970154
1.835133671760559 -3.2947044372558594 0.3729080259799957
2.1123673915863037 -3.13519287109375 0.3738076686859131
1.220703097715159e-06 -18.449176788330078 1.939084768295288
0.2972416579723358 -3.5009968280792236 0.369293212890625
0.5934445261955261 -3.4696691036224365 0.3699725270271301
0.8865745067596436 -3.413682699203491 0.37069517374038696
1.174597978591919 -3.333275318145752 0.37145689129829407
1.4554882049560547 -3.22885799407959 0.37225234508514404
1.7272411584854126 -3.100999116897583 0.37307631969451904
1.9878934621810913 -2.9504454135894775 0.3739231824874878
-6.103515488575795e-07 -18.44817543029785 2.05395245552063
0.28087446093559265 -3.3082151412963867 0.3696499466896057
0.5607115030288696 -3.278282403945923 0.3702923357486725
0.837581217288971 -3.2250356674194336 0.37097564339637756
1.1095670461654663 -3.1487197875976562 0.3716958463191986
1.37473726272583 -3.04971981048584 0.37244749069213867
1.6312103271484375 -2.9285919666290283 0.3732261657714844
1.8771320581436157 -2.7860569953918457 0.37402617931365967
-1.5258788721439487e-07 -3.2135496139526367 0.3778398036956787
0.2662023901939392 -3.135338306427002 0.3699699342250824
0.5313641428947449 -3.106685161590576 0.37057921290397644
0.7936599850654602 -3.055927276611328 0.37122711539268494
1.0512757301330566 -2.9833059310913086 0.3719097673892975
1.302379846572876 -2.8892016410827637 0.3726225197315216
1.545183777809143 -2.774146556854248 0.373360276222229
1.7779368162155151 -2.6388280391693115 0.3741183280944824
-1.5258788721439487e-07 -3.2135496139526367 0.39792340993881226
0.2529597282409668 -2.9794139862060547 0.37025848031044006
0.5048943161964417 -2.9519448280334473 0.3708376884460449
0.7540681958198547 -2.903467893600464 0.3714538514614105
0.9987382888793945 -2.83420729637146 0.3721029460430145
1.2371728420257568 -2.744541645050049 0.3727801442146301
1.467671513557434 -2.634983539581299 0.37348127365112305
1.688581943511963 -2.506204128265381 0.37420135736465454
-1.5258788721439487e-07 -3.2135496139526367 0.418038010597229
0.2519758641719818 -2.96785831451416 0.38746610283851624
0.480905145406723 -2.8116836547851562 0.37107208371162415
0.718177855014801 -2.7652883529663086 0.37165921926498413
0.951127827167511 -2.6991026401519775 0.3722776770591736
1.178096055984497 -2.6134867668151855 0.37292295694351196
1.3974665403366089 -2.5089385509490967 0.3735908567905426
1.607653021812439 -2.3860909938812256 0.374276727437973
-1.5258788721439487e-07 -3.2135496139526367 0.4381849467754364
0.2519775331020355 -2.9678564071655273 0.4061398208141327
0.47107550501823425 -2.754227876663208 0.38100799918174744
0.6855019330978394 -2.6394731998443604 0.371846467256546
0.907781183719635 -2.576099395751953 0.3724368214607239
1.1243171691894531 -2.494190216064453 0.3730529844760895
1.333569884300232 -2.394221782684326 0.37369048595428467
1.534019947052002 -2.276801824569702 0.3743450939655304
-1.5258788721439487e-07 -3.2135496139526367 0.4583653211593628
0.2519775331020355 -2.9678564071655273 0.424844354391098
0.47107550501823425 -2.754227876663208 0.39855512976646423
0.665961503982544 -2.5642168521881104 0.37788116931915283
0.86815345287323 -2.46364426612854 0.3725823760032654
1.0751581192016602 -2.385134220123291 0.37317168712615967
1.2751680612564087 -2.28936767578125 0.37378159165382385
1.4667221307754517 -2.1769211292266846 0.37440764904022217
-1.5258788721439487e-07 -3.2135496139526367 0.47858184576034546
0.2519775331020355 -2.9678564071655273 0.44358229637145996
0.47107550501823425 -2.754227876663208 0.4161331057548523
0.665961503982544 -2.5642168521881104 0.39454758167266846
0.8428228497505188 -2.391761302947998 0.3776647746562958
1.030045747756958 -2.285054922103882 0.37328094244003296
1.221570372581482 -2.1931469440460205 0.37386518716812134
1.4049798250198364 -2.085282325744629 0.3744651675224304
-1.5258788721439487e-07 -3.2135496139526367 0.49883514642715454
0.2519758641719818 -2.96785831451416 0.4623545706272125
0.47107550501823425 -2.754227876663208 0.43374404311180115
0.665961503982544 -2.5642168521881104 0.41124480962753296
0.8428211808204651 -2.391763210296631 0.3936474621295929
1.0062981843948364 -2.2323741912841797 0.3801080286502838
1.1722129583358765 -2.1045358180999756 0.3739422559738159
1.3481229543685913 -2.00089693069458 0.3745178282260895
-1.5258788721439487e-07 -3.2135496139526367 0.5191271901130676
0.2519758641719818 -2.96785831451416 0.4811626970767975
0.47107550501823425 -2.754227876663208 0.4513883888721466
0.665961503982544 -2.5642168521881104 0.42797377705574036
0.8428211808204651 -2.391763210296631 0.40966078639030457
1.0062998533248901 -2.232372522354126 0.3955703675746918
1.1599680185317993 -2.0825440883636475 0.38508665561676025
1.306723952293396 -1.9394482374191284 0.37778258323669434
-1.5258788721439487e-07 -3.2135496139526367 0.5394596457481384
0.2519758641719818 -2.96785831451416 0.5000079274177551
0.47107550501823425 -2.754227876663208 0.46906766295433044
0.6659598350524902 -2.564218759536743 0.4447360038757324
0.8428228497505188 -2.391761302947998 0.42570555210113525
1.0062981843948364 -2.2323741912841797 0.4110635221004486
1.1599680185317993 -2.0825440883636475 0.40016889572143555
1.306723952293396 -1.9394482374191284 0.39257901906967163
-1.5258788721439487e-07 -3.2135496139526367 0.5598343014717102
0.2519758641719818 -2.96785831451416 0.5188928246498108
0.47107550501823425 -2.754227876663208 0.4867837429046631
0.6659598350524902 -2.564218759536743 0.46153318881988525
0.8428228497505188 -2.391761302947998 0.4417840540409088
1.0062981843948364 -2.2323741912841797 0.4265890419483185
1.1599680185317993 -2.0825440883636475 0.41528287529945374
1.306723952293396 -1.9394482374191284 0.40740615129470825
-1.5258788721439487e-07 -3.2135496139526367 0.5802523493766785
0.2519758641719818 -2.96785831451416 0.5378175377845764
0.47107550501823425 -2.754227876663208 0.5045375227928162
0.6659598350524902 -2.564218759536743 0.4783659279346466
0.8428228497505188 -2.391761302947998 0.45789656043052673
1.0062981843948364 -2.2323741912841797 0.4421473741531372
1.1599680185317993 -2.0825440883636475 0.4304289221763611
1.306723952293396 -1.9394482374191284 0.42226484417915344
-1.5258788721439487e-07 -3.2135496139526367 0.600716233253479
0.2519775331020355 -2.9678564071655273 0.5567845106124878
0.47107550501823425 -2.754227876663208 0.5223310589790344
0.665961503982544 -2.5642168521881104 0.49523666501045227
0.8428228497505188 -2.391761302947998 0.4740452468395233
1.0062981843948364 -2.2323741912841797 0.45774045586586
1.1599680185317993 -2.0825440883636475 0.4456086754798889
1.306723952293396 -1.9394482374191284 0.43715667724609375
-1.5258788721439487e-07 -3.2135496139526367 0.6212270855903625
0.2519758641719818 -2.96785831451416 0.575795590877533
0.47107550501823425 -2.754227876663208 0.5401655435562134
0.665961503982544 -2.5642168521881104 0.5121458172798157
0.8428228497505188 -2.391761302947998 0.49023115634918213
1.0062998533248901 -2.232372522354126 0.4733695983886719
1.1599611043930054 -2.0825371742248535 0.46082380414009094
1.306723952293396 -1.9394482374191284 0.45208311080932617
-1.8310546465727384e-06 -3.2135515213012695 0.6417875289916992
0.2519758641719818 -2.96785831451416 0.5948524475097656
0.47107550501823425 -2.754227876663208 0.5580430626869202
0.665961503982544 -2.5642168521881104 0.5290960669517517
0.8428228497505188 -2.391761302947998 0.5064555406570435
1.0062981843948364 -2.2323741912841797 0.4890362322330475
1.1599680185317993 -2.0825440883636475 0.47607511281967163
1.306723952293396 -1.9394482374191284 0.4670455753803253
-1.5258788721439487e-07 -3.2135496139526367 0.6623983383178711
0.2519758641719818 -2.96785831451416 0.6139559745788574
0.47107550501823425 -2.754227876663208 0.5759645104408264
0.665961503982544 -2.5642168521881104 0.546087920665741
0.8428228497505188 -2.391761302947998 0.5227206349372864
1.0062981843948364 -2.2323741912841797 0.5047417879104614
1.1599680185317993 -2.0825440883636475 0.49136441946029663
1.306723952293396 -1.9394482374191284 0.48204466700553894
-1.5258788721439487e-07 -3.2135496139526367 0.6830607652664185
0.2519758641719818 -2.96785831451416 0.633107602596283
0.47107550501823425 -2.754227876663208 0.5939309597015381
0.665961503982544 -2.5642168521881104 0.5631222128868103
0.8428228497505188 -2.391761302947998 0.5390263199806213
1.0062981843948364 -2.2323741912841797 0.52048659324646
1.1599680185317993 -2.0825440883636475 0.5066918730735779
1.306723952293396 -1.9394482374191284 0.49708127975463867
-1.5258788721439487e-07 -3.2135496139526367 0.7037777304649353
0.2519758641719818 -2.96785831451416 0.652309238910675
0.47107550501823425 -2.754227876663208 0.6119442582130432
0.665961503982544 -2.5642168521881104 0.5802013874053955
0.8428228497505188 -2.391761302947998 0.5553747415542603
1.0062981843948364 -2.2323741912841797 0.5362725853919983
1.1599611043930054 -2.0825371742248535 0.522059440612793
1.306723952293396 -1.9394482374191284 0.5121575593948364
-1.5258788721439487e-07 -3.2135496139526367 0.7245512008666992
0.2519758641719818 -2.96785831451416 0.6715633869171143
0.47107550501823425 -2.754227876663208 0.6300073266029358
0.665961503982544 -2.5642168521881104 0.5973271131515503
0.8428228497505188 -2.391761302947998 0.5717675685882568
1.0062998533248901 -2.232372522354126 0.552101731300354
1.1599680185317993 -2.0825440883636475 0.5374691486358643
1.306723952293396 -1.9394482374191284 0.5272747874259949
-1.8310546465727384e-06 -3.2135515213012695 0.7453821897506714
0.2519758641719818 -2.96785831451416 0.6908712387084961
0.47107550501823425 -2.754227876663208 0.6481199264526367
0.665961503982544 -2.5642168521881104 0.6145005822181702
0.8428211808204651 -2.391763210296631 0.5882061719894409
1.0062981843948364 -2.2323741912841797 0.567974865436554
1.1599680185317993 -2.0825440883636475 0.5529215931892395
1.306723952293396 -1.9394482374191284 0.5424340963363647
-1.5258788721439487e-07 -3.2135496139526367 0.7662727236747742
0.2519758641719818 -2.96785831451416 0.7102339267730713
0.47107550501823425 -2.754227876663208 0.6662847995758057
0.665961503982544 -2.5642168521881104 0.6317229866981506
0.8428228497505188 -2.391761302947998 0.6046914458274841
1.0062981843948364 -2.2323741912841797 0.5838932394981384
1.1599680185317993 -2.0825440883636475 0.5684180855751038
1.306723952293396 -1.9394482374191284 0.5576368570327759
4.348754828242818e-06 -1.481935977935791 0.36302900314331055
0.2519775331020355 -2.9678564071655273 0.7296534776687622
0.47107550501823425 -2.754227876663208 0.6845031380653381
0.665961503982544 -2.5642168521881104 0.6489962339401245
0.8428228497505188 -2.391761302947998 0.621225118637085
1.0062998533248901 -2.232372522354126 0.5998584032058716
1.1599680185317993 -2.0825440883636475 0.5839601159095764
1.306723952293396 -1.9394482374191284 0.5728839039802551
9.155273232863692e-07 -1.4437114000320435 0.36310651898384094
0.2519758641719818 -2.96785831451416 0.7491317391395569
0.47107550501823425 -2.754227876663208 0.7027758359909058
0.665961503982544 -2.5642168521881104 0.6663209199905396
0.8428228497505188 -2.391761302947998 0.6378087997436523
1.0062981843948364 -2.2323741912841797 0.6158717274665833
1.1599680185317993 -2.0825440883636475 0.5995489358901978
1.306723952293396 -1.9394482374191284 0.5881771445274353
-8.392333938900265e-07 -1.4072942733764648 0.3631802201271057
0.2519758641719818 -2.96785831451416 0.7686707973480225
0.47107550501823425 -2.754227876663208 0.7211054563522339
0.665961503982544 -2.5642168521881104 0.6836999654769897
0.8428228497505188 -2.391761302947998 0.6544443964958191
1.0062998533248901 -2.232372522354126 0.6319349408149719
1.1599680185317993 -2.0825440883636475 0.6151865720748901
1.306723952293396 -1.9394482374191284 0.6035180687904358
2.670288040462765e-06 -1.3725708723068237 0.36325058341026306
0.11619701236486435 -1.3685882091522217 0.36350035667419434
0.47107550501823425 -2.754227876663208 0.7394941449165344
0.665961503982544 -2.5642168521881104 0.7011348009109497
0.8428228497505188 -2.391761302947998 0.6711331009864807
1.0062981843948364 -2.2323741912841797 0.6480497717857361
1.1599680185317993 -2.0825440883636475 0.6308741569519043
1.306723952293396 -1.9394482374191284 0.6189080476760864
2.670288040462765e-06 -1.3394114971160889 0.3633178770542145
0.11338832229375839 -1.335503101348877 0.36356139183044434
0.47107550501823425 -2.754227876663208 0.7579420208930969
0.6659598350524902 -2.564218759536743 0.7186262607574463
0.8428228497505188 -2.391761302947998 0.6878756284713745
1.0062998533248901 -2.232372522354126 0.6642164587974548
1.1599680185317993 -2.0825440883636475 0.6466124057769775
1.306723952293396 -1.9394482374191284 0.6343477964401245
-2.5177000679832418e-06 -1.3077071905136108 0.36338210105895996
0.11070048809051514 -1.3038713932037354 0.36361998319625854
0.22076641023159027 -1.2907427549362183 0.3638754189014435
0.665961503982544 -2.5642168521881104 0.736175537109375
0.8428228497505188 -2.391761302947998 0.7046743631362915
1.0062998533248901 -2.232372522354126 0.6804373264312744
1.1599680185317993 -2.0825440883636475 0.6624035239219666
1.306723952293396 -1.9394482374191284 0.649839460849762
9.5367431640625e-07 -1.27737557888031 0.3634435832500458
0.10813339054584503 -1.2736104726791382 0.36367613077163696
0.21564090251922607 -1.2607614994049072 0.3639254570007324
0.665961503982544 -2.5642168521881104 0.7537858486175537
0.8428228497505188 -2.391761302947998 0.721531331539154
1.0062998533248901 -2.232372522354126 0.696714460849762
1.1599611043930054 -2.0825371742248535 0.6782488822937012
1.306723952293396 -1.9394482374191284 0.6653843522071838
9.91821252682712e-07 -1.2483179569244385 0.36350250244140625
0.1056751236319542 -1.2446218729019165 0.3637295365333557
0.2107294797897339 -1.2320438623428345 0.3639736771583557
0.3144253194332123 -1.2106597423553467 0.36423248052597046
0.8428228497505188 -2.391761302947998 0.7384470701217651
1.0062981843948364 -2.2323741912841797 0.7130486965179443
1.1599611043930054 -2.0825371742248535 0.6941503882408142
1.306723952293396 -1.9394482374191284 0.6809841990470886
-7.24792471373803e-07 -1.220449686050415 0.36355894804000854
0.10331352055072784 -1.2168209552764893 0.3637811243534088
0.206018328666687 -1.2045071125030518 0.3640194535255432
0.3073905110359192 -1.1835823059082031 0.36427274346351624
0.8428228497505188 -2.391761302947998 0.7554234266281128
1.0062998533248901 -2.232372522354126 0.7294407486915588
1.1599680185317993 -2.0825440883636475 0.7101080417633057
1.306723952293396 -1.9394482374191284 0.696639358997345
1.0299681889591739e-06 -1.193710446357727 0.3636132776737213
0.10104686766862869 -1.1901404857635498 0.36383056640625
0.20149534940719604 -1.178080439567566 0.36406370997428894
0.3006422817707062 -1.1575992107391357 0.36431121826171875
0.39778316020965576 -1.1288212537765503 0.3645715117454529
1.0062981843948364 -2.2323741912841797 0.7458933591842651
1.1599611043930054 -2.0825371742248535 0.7261245846748352
1.306723952293396 -1.9394482374191284 0.7123519778251648
1.0299681889591739e-06 -1.168022632598877 0.3636651635169983
0.09887168556451797 -1.1645147800445557 0.3638778626918793
0.1971571296453476 -1.152698040008545 0.36410611867904663
0.2941581904888153 -1.1326364278793335 0.364348441362381
0.38919979333877563 -1.1044660806655884 0.36460310220718384
1.0062998533248901 -2.232372522354126 0.7624078392982483
1.1599680185317993 -2.0825440883636475 0.7422015070915222
1.306723952293396 -1.9394482374191284 0.7281248569488525
-6.484985419774603e-07 -1.1433171033859253 0.36371535062789917
0.09677768498659134 -1.13987135887146 0.36392349004745483
0.19297942519187927 -1.128287672996521 0.36414703726768494
0.28793132305145264 -1.1086454391479492 0.36438414454460144
0.3809479773044586 -1.0810500383377075 0.3646334707736969
0.471371591091156 -1.045689582824707 0.36489301919937134
1.1599680185317993 -2.0825440883636475 0.75834059715271
1.306723952293396 -1.9394482374191284 0.7439570426940918
-6.484985419774603e-07 -1.1195489168167114 0.3637634217739105
0.0947682186961174 -1.116165280342102 0.36396726965904236
0.18896225094795227 -1.104807734489441 0.3641860783100128
0.2819339632987976 -1.0855575799942017 0.36441847681999207
0.3730102479457855 -1.0585215091705322 0.36466261744499207
0.46154022216796875 -1.0238808393478394 0.36491668224334717
0.5468988418579102 -0.9818739295005798 0.3651794493198395
1.306723952293396 -1.9394482374191284 0.7598518133163452
1.1062621751989354e-06 -1.0966628789901733 0.3638097941875458
0.09282783418893814 -1.0933293104171753 0.36400970816612244
0.18509872257709503 -1.0821963548660278 0.3642239272594452
0.27616119384765625 -1.0633223056793213 0.3644515872001648
0.36536094546318054 -1.0368231534957886 0.3646906912326813
0.45207300782203674 -1.002881646156311 0.36493971943855286
0.5356742739677429 -0.9617207050323486 0.36519697308540344
0.6155569553375244 -0.9136164784431458 0.36546051502227783
2.822876012942288e-06 -1.0746054649353027 0.36385467648506165
0.09095649421215057 -1.071321964263916 0.3640502989292145
0.1813715696334839 -1.0604013204574585 0.36426055431365967
0.2705920338630676 -1.0418915748596191 0.3644833266735077
0.35799461603164673 -1.0159189701080322 0.3647176921367645
0.44295623898506165 -0.9826508164405823 0.3649618327617645
0.5248587131500244 -0.9423046708106995 0.3652137815952301
0.6031221747398376 -0.895156741142273 0.36547210812568665
1.1062621751989354e-06 -1.0533249378204346 0.3638977110385895
0.08915595710277557 -1.0501002073287964 0.36408963799476624
0.17777732014656067 -1.0393848419189453 0.36429563164711
0.26522311568260193 -1.0212273597717285 0.36451414227485657
0.35089248418807983 -0.9957587718963623 0.3647439479827881
0.4341588616371155 -0.9631362557411194 0.36498305201530457
0.5144299268722534 -0.9235790967941284 0.36523008346557617
0.5911241769790649 -0.8773513436317444 0.3654830753803253
1.1444091114753974e-06 -1.0327885150909424 0.3639393448829651
0.08741752058267593 -1.029617190361023 0.3641274869441986
0.17430225014686584 -1.0190917253494263 0.36432936787605286
0.2600458562374115 -1.0012829303741455 0.36454376578330994
0.34403204917907715 -0.976296067237854 0.36476898193359375
0.42566531896591187 -0.944298505783081 0.3650034964084625
0.5043602585792542 -0.9055026173591614 0.36524567008018494
0.5795491337776184 -0.8601725697517395 0.36549392342567444
2.86102294921875e-06 -1.012954592704773 0.3639794886112213
0.08573955297470093 -1.0098334550857544 0.3641641139984131
0.17095313966274261 -0.9995014071464539 0.3643621802330017
0.2550429403781891 -0.9820205569267273 0.3645724356174469
0.3374115824699402 -0.9575048685073853 0.3647933900356293
0.41747039556503296 -0.926115095615387 0.36502334475517273
0.4946427047252655 -0.8880545496940613 0.36526092886924744
0.5683762431144714 -0.8435859680175781 0.3655044436454773
2.86102294921875e-06 -0.9937853813171387 0.36401838064193726
0.08411677926778793 -0.990712583065033 0.36419951915740967
0.1677180379629135 -0.980570375919342 0.3643939197063446
0.25020748376846313 -0.963405430316925 0.36460021138191223
0.3310137987136841 -0.9393473863601685 0.3648168742656708
0.40954306721687317 -0.9085339903831482 0.36504241824150085
0.4852515161037445 -0.871191680431366 0.3652755618095398
0.5575728416442871 -0.827555239200592 0.3655143678188324
1.182556161438697e-06 -0.9752393960952759 0.36405593156814575
0.08254409581422806 -0.9722182750701904 0.36423370242118835
0.16458477079868317 -0.9622556567192078 0.3644244372844696
0.24553260207176208 -0.9454032778739929 0.3646269142627716
0.32482314109802246 -0.9217835664749146 0.3648396134376526
0.4018850326538086 -0.891539990901947 0.3650610148906708
0.4761640429496765 -0.8548812866210938 0.36528974771499634
0.547126829624176 -0.812050998210907 0.36552414298057556
1.182556161438697e-06 -0.9572992324829102 0.3640924096107483
0.0810232162475586 -0.9543214440345764 0.3642668128013611
0.1615515798330307 -0.9445313811302185 0.3644540309906006
0.24100787937641144 -0.927982747554779 0.36465269327163696
0.3188362121582031 -0.9047895669937134 0.3648616075515747
0.3944686949253082 -0.8750914335250854 0.36507904529571533
0.46737533807754517 -0.8391008377075195 0.3653033375740051
0.5370261073112488 -0.7970578074455261 0.3655334413051605
1.1444091114753974e-06 -0.9399254322052002 0.36412763595581055
0.07955413311719894 -0.9369941353797913 0.36429885029792786
0.1586151123046875 -0.9273733496665955 0.36448273062705994
0.2366299033164978 -0.9111199975013733 0.36467787623405457
0.3130340278148651 -0.8883289098739624 0.36488279700279236
0.387288898229599 -0.8591660261154175 0.36509642004966736
0.4588610827922821 -0.8238193988800049 0.365316778421402
0.5272411704063416 -0.7825358510017395 0.36554259061813354
1.182556161438697e-06 -0.9230901598930359 0.3641616702079773
0.07812648266553879 -0.9202055335044861 0.3643299639225006
0.1557770073413849 -0.9107522368431091 0.3645104765892029
0.2323831170797348 -0.8947750926017761 0.36470213532447815
0.30741655826568604 -0.8723880052566528 0.3649035692214966
0.3803386688232422 -0.8437429666519165 0.36511319875717163
0.4506230056285858 -0.8090212345123291 0.3653295934200287
0.517763614654541 -0.7684661746025085 0.3655514419078827
-2.2888182229507947e-06 -0.9067694544792175 0.36419478058815
0.07674884796142578 -0.9039331078529358 0.3643600344657898
0.1530165821313858 -0.8946334719657898 0.3645375072956085
0.22826926410198212 -0.8789324760437012 0.36472564935684204
0.3019717037677765 -0.8569372296333313 0.3649233877658844
0.3735973536968231 -0.8287876844406128 0.36512938141822815
0.44262832403182983 -0.7946701645851135 0.36534208059310913
0.5085726380348206 -0.7548280954360962 0.36555999517440796
-2.250671286674333e-06 -0.8909424543380737 0.3642268180847168
0.07540924102067947 -0.8881475925445557 0.3643893301486969
0.15034599602222443 -0.879004955291748 0.36456358432769775
0.224281445145607 -0.8635715246200562 0.3647485375404358
0.29668915271759033 -0.8419457674026489 0.3649429380893707
0.36705631017684937 -0.8142812848091125 0.3651452660560608
0.43487536907196045 -0.7807542085647583 0.36535415053367615
0.49966129660606384 -0.7416009306907654 0.36556822061538696
-4.95910626341356e-07 -0.8755831718444824 0.36425796151161194
0.07410411536693573 -0.8728245496749878 0.36441770195961
0.14774611592292786 -0.8638303875923157 0.3645889163017273
0.22040928900241852 -0.8486611843109131 0.36477065086364746
0.2915653884410858 -0.8274030685424805 0.3649616837501526
0.36071547865867615 -0.8002099394798279 0.3651605248451233
0.42735549807548523 -0.7672542333602905 0.3653658926486969
0.49101579189300537 -0.7287707924842834 0.3655763268470764
-4.95910626341356e-07 -0.8606677055358887 0.36428818106651306
0.07284393161535263 -0.8579539060592651 0.36444517970085144
0.14523257315158844 -0.8491082787513733 0.3646136522293091
0.21664589643478394 -0.8341806530952454 0.3647923171520233
0.2865866422653198 -0.8132817149162292 0.36498016119003296
0.3545524477958679 -0.7865408062934875 0.3651754558086395
0.420053094625473 -0.7541444301605225 0.3653773367404938
0.4826206564903259 -0.7163118720054626 0.3655841052532196
1.220703097715159e-06 -0.8461785912513733 0.3643176257610321
0.0716182291507721 -0.8435044884681702 0.3644718825817108
0.14277949929237366 -0.8347952365875244 0.36463743448257446
0.2129981517791748 -0.8201231360435486 0.3648132383823395
0.28175461292266846 -0.7995659708976746 0.3649977147579193
0.34857070446014404 -0.7732704877853394 0.36518996953964233
0.41296476125717163 -0.741414487361908 0.3653884828090668
0.4744723439216614 -0.7042136788368225 0.36559173464775085
-4.95910626341356e-07 -0.832093358039856 0.36434614658355713
0.07042190432548523 -0.8294538855552673 0.3644978106021881
0.14040233194828033 -0.8208895921707153 0.3646606504917145
0.20944708585739136 -0.8064523339271545 0.36483335494995117
0.27706071734428406 -0.7862369418144226 0.3650149405002594
0.3427564203739166 -0.7603713274002075 0.36520400643348694
0.4060732126235962 -0.7290400266647339 0.36539915204048157
0.4665432870388031 -0.6924487352371216 0.3655990660190582
-2.212524350397871e-06 -0.8183948993682861 0.36437392234802246
0.06926006078720093 -0.8157967925071716 0.36452314257621765
0.138092502951622 -0.8073723912239075 0.36468321084976196
0.20599617063999176 -0.7931646704673767 0.3648532032966614
0.27248942852020264 -0.7732686996459961 0.36503171920776367
0.3371009826660156 -0.7478243112564087 0.3652175962924957
0.39936816692352295 -0.7170040607452393 0.3654095232486725
0.45883867144584656 -0.6810117363929749 0.3656062185764313
1.2588500339916209e-06 -0.8050779700279236 0.3644009232521057
0.06813796609640121 -0.8025144934654236 0.3645477294921875
0.13583965599536896 -0.7942124605178833 0.364705353975296
0.20263326168060303 -0.7802309393882751 0.36487242579460144
0.268044114112854 -0.760657787322998 0.36504819989204407
0.3315991461277008 -0.7356207966804504 0.3652310073375702
0.3928460478782654 -0.7052960991859436 0.36541977524757385
0.45134466886520386 -0.669888973236084 0.36561310291290283
1.2588500339916209e-06 -0.7921097278594971 0.3644271790981293
0.06703830510377884 -0.7895824909210205 0.3645715117454529
0.13365410268306732 -0.7814134955406189 0.3647266924381256
0.19937048852443695 -0.7676528692245483 0.3648912012577057
0.26372483372688293 -0.7483904957771301 0.3650640845298767
0.32624924182891846 -0.7237488627433777 0.3652438223361969
0.3865017890930176 -0.6939074397087097 0.36542966961860657
0.44405093789100647 -0.6590631008148193 0.36561980843544006
2.9754637580481358e-06 -0.7794850468635559 0.3644528090953827
0.06596973538398743 -0.7769923210144043 0.3645950257778168
0.1315203756093979 -0.7689492702484131 0.36474746465682983
0.1961854249238968 -0.755397617816925 0.3649093508720398
0.2595073878765106 -0.73643559217453 0.36507949233055115
0.3210408687591553 -0.7121909856796265 0.3652566373348236
0.38032668828964233 -0.682819128036499 0.3654392957687378
0.43695053458213806 -0.6485272645950317 0.3656265139579773
-4.577636616431846e-07 -0.7671831846237183 0.36447784304618835
0.06492526829242706 -0.7647231817245483 0.36461761593818665
0.12944187223911285 -0.7568027973175049 0.36476776003837585
0.19309012591838837 -0.7434669137001038 0.3649270534515381
0.2554125487804413 -0.7248001098632812 0.3650946021080017
0.31595686078071594 -0.7009232044219971 0.36526885628700256
0.3743087351322174 -0.6720157265663147 0.36544859409332275
0.4300348162651062 -0.6382625102996826 0.36563292145729065
-4.577636616431846e-07 -0.7551954984664917 0.364501953125
0.0639171227812767 -0.7527769804000854 0.3646397292613983
0.1274203062057495 -0.7449722290039062 0.36478757858276367
0.19006729125976562 -0.7318366169929504 0.3649444580078125
0.25141260027885437 -0.7134563326835632 0.36510923504829407
0.3110160529613495 -0.6899540424346924 0.36528074741363525
0.3684443533420563 -0.6614868640899658 0.3654577434062958
0.4232986867427826 -0.62826007604599 0.365639328956604
-4.577636616431846e-07 -0.7435117363929749 0.3645257353782654
0.06292274594306946 -0.7411207556724548 0.36466124653816223
0.12544886767864227 -0.7334368824958801 0.36480680108070374
0.18712392449378967 -0.7204998135566711 0.3649612367153168
0.247514545917511 -0.7023974657058716 0.36512359976768494
0.3061927258968353 -0.6792542934417725 0.36529234051704407
0.3627285063266754 -0.6512237191200256 0.3654669225215912
0.4167265295982361 -0.6185080409049988 0.3656454384326935
1.2969970839549205e-06 -0.7321162223815918 0.36454862356185913
0.06195598468184471 -0.7297545671463013 0.36468231678009033
0.12352399528026581 -0.7221863269805908 0.3648257255554199
0.18424956500530243 -0.7094391584396362 0.36497771739959717
0.24371491372585297 -0.6916130781173706 0.3651374876499176
0.30148845911026 -0.6688219904899597 0.3653039336204529
0.35715585947036743 -0.6412179470062256 0.36547544598579407
0.4103166162967682 -0.60899418592453 0.3656512498855591
3.0517576306010596e-06 -0.7209968566894531 0.364571213722229
0.06101512908935547 -0.7186663746833801 0.3647027611732483
0.12164575606584549 -0.71120685338974 0.36484405398368835
0.18144772946834564 -0.6986512541770935 0.36499372124671936
0.24001020193099976 -0.6810927987098694 0.365151047706604
0.29689639806747437 -0.6586366295814514 0.36531493067741394
0.35171619057655334 -0.6314520835876465 0.36548399925231934
0.4040673077106476 -0.5997203588485718 0.3656570315361023
1.3351440202313825e-06 -0.7101433873176575 0.36459335684776306
0.06009674072265625 -0.7078456878662109 0.36472287774086
0.11980895698070526 -0.7004898190498352 0.3648619055747986
0.17871668934822083 -0.6881240606307983 0.36500945687294006
0.23638837039470673 -0.6708210706710815 0.3651643395423889
0.29242172837257385 -0.6487067341804504 0.36532559990882874
0.3464094400405884 -0.6219261288642883 0.3654922544956207
0.3979698717594147 -0.5906674265861511 0.3656628429889679
-2.136230477844947e-06 -0.6995402574539185 0.364614874124527
0.05920078232884407 -0.6972787380218506 0.3647424280643463
0.11802047491073608 -0.690028190612793 0.36487945914268494
0.17604433000087738 -0.6778420209884644 0.36502471566200256
0.23285283148288727 -0.6607944965362549 0.36517730355262756
0.28804895281791687 -0.639006495475769 0.3653362989425659
0.3412269949913025 -0.6126211881637573 0.36550018191337585
0.392008900642395 -0.5818234086036682 0.36566832661628723
1.2969970839549205e-06 -0.6891925930976868 0.36463576555252075
0.05832384154200554 -0.6869552731513977 0.36476150155067444
0.11627515405416489 -0.6798135042190552 0.3648965358734131
0.17343583703041077 -0.6677999496459961 0.3650396764278412
0.22940190136432648 -0.6510009765625 0.3651901185512543
0.28377971053123474 -0.6295340657234192 0.36534667015075684
0.3361688256263733 -0.6035372614860535 0.365508109331131
