ply
format ascii 1.0
element vertex 2082
property float32 x
property float32 y
property float32 z
end_header
-12.7870 16.4489 1.0276
-12.7994 13.7360 0.9260
-14.5300 13.0387 0.9628
-28.0840 20.9985 1.7295
-24.8742 15.3433 1.4414
-24.8675 12.4255 1.3710
-24.8614 9.7590 1.3172
-24.8558 7.2749 1.2773
-24.1818 4.7864 1.2158
-25.7758 2.7447 1.2784
-36.1207 0.6054 1.7817
-34.9193 -2.5383 1.7268
-10.4975 -1.7144 0.5246
-9.9301 -2.5484 0.5056
-9.4925 -3.3636 0.4967
-9.4967 -4.3538 0.5153
-24.0691 -13.7550 1.3673
-21.8163 -15.1994 1.3114
-19.7525 -16.5642 1.2714
-18.6183 -18.6839 1.3009
-17.4064 -20.9057 1.3417
-15.2713 -22.0848 1.3243
-10.2798 -18.1359 1.0282
-9.2250 -20.3105 1.1002
-8.6700 -24.7444 1.2931
-6.4028 -25.3190 1.2880
-4.1073 -25.7184 1.2845
-1.7940 -25.9423 1.2825
0.5272 -25.9904 1.2821
2.8462 -25.8628 1.2832
4.7973 -23.7964 1.1972
6.7093 -22.6272 1.1640
9.0475 -22.8121 1.2103
6.8817 -13.6520 0.7540
6.8757 -11.0594 0.6423
6.8713 -9.1227 0.5633
6.8679 -7.5993 0.5052
6.9610 -6.4407 0.4677
8.2961 -6.4024 0.5168
8.5153 -5.4334 0.4982
8.5130 -4.4170 0.4730
8.5109 -3.4914 0.4537
8.5089 -2.6318 0.4393
8.5071 -1.8190 0.4290
8.5053 -1.0370 0.4226
8.5035 -0.2722 0.4196
8.5018 0.4879 0.4200
8.5000 1.2556 0.4238
8.4982 2.0435 0.4311
8.4964 2.8657 0.4422
8.4944 3.7387 0.4577
27.4816 15.1546 1.5478
32.7480 22.0823 1.9480
30.6475 24.9156 1.9480
24.5765 23.9230 1.6915
19.3889 22.5782 1.4678
10.6884 14.9646 0.9070
9.4987 16.1783 0.9253
8.2498 17.4524 0.9521
6.9155 18.8136 0.9886
11.0406 41.0195 2.0951
7.3386 41.8475 2.0954
3.6194 42.8460 2.1207
-0.0740 14.6471 0.7224
-4.0769 43.0716 2.1338
-2.4071 12.9559 0.6499
-3.6309 12.9668 0.6641
-15.2310 40.1783 2.1192
-18.6931 38.5333 2.1123
-21.8763 36.4132 2.0951
-10.7247 14.6994 0.8974
-12.7955 14.5995 0.9575
-13.6643 13.0350 0.9314
-28.0871 22.3669 1.7708
-24.8766 16.4117 1.4699
-24.8697 13.3887 1.3930
-24.8635 10.6452 1.3339
-24.8577 8.1056 1.2895
-24.1836 5.5575 1.2238
-25.7776 3.5422 1.2833
-24.1735 1.1427 1.1936
-35.5422 -1.4969 1.7545
-10.6832 -1.4121 0.5315
-10.1273 -2.2725 0.5119
-9.5397 -3.0565 0.4941
-9.4953 -4.0077 0.5083
-9.4997 -5.0513 0.5306
-22.5814 -14.7314 1.3298
-20.4072 -16.0803 1.2814
-18.6303 -17.5901 1.2637
-18.1228 -20.4646 1.3482
-14.2100 -19.2676 1.1808
-11.0216 -18.1336 1.0466
-9.2191 -18.7578 1.0308
-9.4351 -24.5083 1.2952
-7.1799 -25.1427 1.2896
-4.8929 -25.6019 1.2855
-2.5845 -25.8857 1.2830
-0.2648 -25.9938 1.2821
2.0560 -25.9261 1.2827
4.3679 -25.6827 1.2849
6.0053 -22.7774 1.1618
8.2211 -22.7254 1.1919
6.8842 -14.7593 0.8032
6.8776 -11.8531 0.6759
6.8727 -9.7276 0.5874
6.8690 -8.0825 0.5231
6.8686 -6.7550 0.4751
8.0033 -6.5750 0.5108
8.5161 -5.8064 0.5084
8.5137 -4.7521 0.4809
8.5116 -3.7986 0.4597
8.5017 0.5414 0.4728
8.4999 1.3101 0.4773
8.4981 2.0999 0.4858
8.4962 2.9251 0.4987
8.4942 3.8025 0.5165
27.3489 15.3059 1.7393
28.1260 19.2234 1.8906
27.0970 22.3128 1.9480
6.0164 5.9304 0.4688
19.3591 22.8317 1.6613
6.0067 8.5224 0.5786
9.4131 16.2653 1.0429
8.1592 17.5445 1.0738
6.8177 18.9130 1.1157
9.5830 36.5148 2.0951
6.3099 37.3570 2.1026
2.9610 37.8832 2.1088
-0.1658 14.6462 0.8129
-3.8189 37.8162 2.1093
-2.4913 12.9558 0.7322
-3.7187 12.9668 0.7486
-13.6887 35.4379 2.1083
-16.7522 33.9878 2.1029
-9.8506 16.1657 1.0506
-12.7829 17.2915 1.1934
-12.7961 14.4167 1.0698
-13.8370 13.0348 1.0550
-27.5110 21.6275 1.9421
-24.8761 16.1883 1.6471
-24.8693 13.1878 1.5622
-24.8630 10.4609 1.4970
-24.8573 7.9333 1.4481
-24.1832 5.3979 1.3751
-25.7772 3.3775 1.4428
-24.3922 0.9997 1.3548
-31.1439 -1.5074 1.7304
-9.5289 -1.3204 0.5339
-9.4875 -2.1916 0.5404
-9.4914 -3.1068 0.5542
-9.4956 -4.0782 0.5735
-9.5000 -5.1282 0.5991
-20.2999 -13.4253 1.3507
-18.6318 -14.8718 1.3230
-18.2942 -17.4911 1.4046
-16.3619 -18.7113 1.3794
-14.4026 -19.7873 1.3582
-10.8691 -18.1380 1.1735
-9.1467 -18.9091 1.1657
-8.4154 -22.2754 1.3215
-6.3572 -22.8024 1.3137
-4.2795 -23.1800 1.3082
-2.1893 -23.4125 1.3050
-0.0920 -23.5005 1.3042
2.0058 -23.4269 1.3049
4.0968 -23.2068 1.3078
5.6058 -20.7337 1.1920
7.5436 -20.4507 1.2097
6.8836 -14.5196 0.8918
6.8772 -11.6830 0.7524
6.8724 -9.5989 0.6552
6.8687 -7.9803 0.5843
6.8686 -6.6708 0.5314
7.7356 -6.2743 0.5528
8.5160 -5.7284 0.5696
8.5136 -4.6822 0.5392
8.5114 -3.7347 0.5158
8.5094 -2.8594 0.4982
8.5076 -2.0355 0.4855
8.5058 -1.2466 0.4771
8.5040 -0.4784 0.4727
8.5023 0.2818 0.4721
8.5005 1.0462 0.4753
8.4987 1.8272 0.4824
8.4969 2.6387 0.4938
8.4949 3.4961 0.5098
28.1201 14.6307 1.7592
29.5467 18.9000 1.9465
27.5664 21.3238 1.9341
25.6226 23.7612 1.9393
19.8845 22.0524 1.6479
12.0677 16.0595 1.1148
9.8257 15.8443 1.0347
8.5953 17.0996 1.0621
7.2315 18.2937 1.0917
9.9152 33.5784 1.9430
7.4201 37.0226 2.0955
4.1131 37.7683 2.1084
0.2805 14.6460 0.8130
-2.6652 37.9172 2.1095
-2.3059 14.3342 0.8057
-3.2937 12.9630 0.7423
-12.6050 35.8450 2.1087
-15.7250 34.5177 2.1050
-18.6838 32.8759 2.0986
-10.1888 14.6991 0.9926
-12.7919 15.3283 1.1080
-13.0149 13.0313 1.0221
-20.9095 17.4943 1.5130
-24.2093 16.8260 1.6362
-24.8715 14.1763 1.5888
-24.8651 11.3654 1.5173
-24.8592 8.7770 1.4631
-24.8537 6.3483 1.4236
-25.7791 4.1802 1.4493
-25.7737 1.8442 1.4340
-31.6184 -0.5658 1.7550
-12.9358 -1.3923 0.7220
-9.4863 -1.8888 0.5368
-9.4901 -2.7893 0.5489
-9.4941 -3.7392 0.5663
-9.4985 -4.7595 0.5896
-20.9131 -12.9327 1.3646
-19.1268 -14.3350 1.3265
-18.6086 -16.7367 1.3890
-17.0254 -18.3128 1.3877
-15.0690 -19.4299 1.3646
-13.1184 -20.4514 1.3484
-9.4683 -18.1422 1.1357
-9.1119 -22.0613 1.3247
-7.0618 -22.6395 1.3161
-4.9900 -23.0679 1.3098
-2.9032 -23.3475 1.3057
-0.8080 -23.4886 1.3043
1.2907 -23.4702 1.3045
3.3844 -23.2969 1.3065
4.9703 -20.8897 1.1917
6.8403 -20.4419 1.1963
5.9952 -13.7099 0.8304
6.8791 -12.5456 0.7940
6.8739 -10.2467 0.6848
6.8699 -8.4918 0.6062
6.8667 -7.0881 0.5477
7.2713 -6.2744 0.5330
6.8916 -4.9473 0.4708
8.5144 -5.0264 0.5487
8.5121 -4.0487 0.5231
8.5101 -3.1513 0.5036
8.5082 -2.3119 0.4893
8.5063 -1.5127 0.4795
8.5046 -0.7389 0.4738
8.5029 0.0226 0.4719
8.5011 0.7842 0.4738
8.4994 1.5581 0.4795
8.4975 2.3575 0.4894
8.4956 3.1973 0.5038
8.4936 4.0953 0.5233
29.4540 17.5998 1.9042
27.5691 20.0138 1.8906
26.0091 22.6857 1.9153
5.7738 6.0237 0.4631
18.6524 23.3081 1.6567
5.7092 8.6091 0.5733
9.0224 16.6638 1.0516
7.7439 17.9682 1.0858
6.3680 19.3718 1.1317
8.5429 36.7720 2.0951
5.2607 37.6168 2.1079
1.8851 37.9572 2.1091
-1.5087 37.9814 2.1095
-2.2771 17.5502 0.9821
-2.8755 12.9593 0.7367
-4.1215 12.9703 0.7553
-14.6789 35.0115 2.1069
-17.6926 33.4660 2.1008
-9.8511 15.1797 1.0043
-12.7874 16.3084 1.1501
-12.7998 13.6218 1.0373
-14.6523 13.0383 1.0885
-28.0836 20.8158 1.9400
-24.8739 15.1999 1.6178
-24.8672 12.2957 1.5395
-24.8612 9.6392 1.4798
-24.8555 7.1622 1.4355
-24.1816 4.6814 1.3669
-25.7755 2.6357 1.4379
-31.7400 0.3993 1.7616
-30.6859 -2.3597 1.7080
-9.4850 -1.5898 0.5337
-9.4888 -2.4775 0.5442
-9.4927 -3.4084 0.5597
-9.4969 -4.4020 0.5809
-21.5777 -12.4512 1.3826
-19.7355 -13.8728 1.3388
-18.6187 -15.7466 1.3533
-17.6845 -17.8960 1.3963
-15.7402 -19.0662 1.3721
-13.7858 -20.1159 1.3534
-10.1821 -18.1401 1.1545
-9.8050 -21.8297 1.3281
-7.7639 -22.4591 1.3188
-5.6988 -22.9385 1.3117
-3.6163 -23.2688 1.3068
-1.5236 -23.4580 1.3046
0.5749 -23.4946 1.3043
2.6708 -23.3699 1.3054
4.7590 -23.1072 1.3093
6.2022 -20.6004 1.1939
8.2239 -20.4851 1.2250
6.8813 -13.5104 0.8414
6.8755 -10.9566 0.7179
6.8711 -9.0435 0.6303
6.8677 -7.5356 0.5658
7.1022 -6.5164 0.5349
6.8969 -5.2767 0.4819
8.5152 -5.3833 0.5591
8.5129 -4.3719 0.5311
8.5108 -3.4499 0.5096
8.5088 -2.5929 0.4936
8.5070 -1.7818 0.4824
8.5052 -1.0009 0.4753
8.5034 -0.2366 0.4721
8.5017 0.5236 0.4727
8.5000 1.2919 0.4771
8.4982 2.0811 0.4856
8.4963 2.9053 0.4983
8.4943 3.7812 0.5160
27.4446 15.2841 1.7433
28.1661 19.1645 1.8906
27.1436 22.2560 1.9480
25.0500 24.5887 1.9480
19.4134 22.7989 1.6618
10.6336 15.0202 1.0213
9.4416 16.2362 1.0423
8.1894 17.5137 1.0730
6.8503 18.8797 1.1146
9.6593 36.4946 2.0951
6.3847 37.3246 2.1015
3.0402 37.8765 2.1088
-0.1352 14.6462 0.8128
-3.7398 37.8243 2.1094
-2.4631 12.9556 0.7319
-3.6893 12.9665 0.7482
-13.6153 35.4681 2.1084
-16.6823 34.0252 2.1030
-9.8506 16.2420 1.0542
-12.7826 17.3669 1.1967
-12.7959 14.4772 1.0723
-13.7789 13.0346 1.0526
-27.4673 21.6862 1.9422
-24.8763 16.2625 1.6494
-24.8694 13.2546 1.5640
-24.8632 10.5222 1.4983
-24.8574 7.9906 1.4490
-24.1833 5.4511 1.3758
-25.7774 3.4324 1.4432
-24.1732 1.0413 1.3428
-31.1770 -1.4437 1.7321
-9.6745 -1.3199 0.5419
-9.4875 -2.1707 0.5401
-9.4913 -3.0848 0.5539
-9.4955 -4.0546 0.5730
-9.4999 -5.1025 0.5985
-20.3414 -13.3917 1.3516
-18.6354 -14.8109 1.3211
-18.3389 -17.4606 1.4053
-16.4075 -18.6845 1.3800
-14.4478 -19.7625 1.3586
-10.9206 -18.1379 1.1750
-9.1753 -18.8674 1.1643
-8.4633 -22.2613 1.3217
-6.4056 -22.7918 1.3139
-4.3283 -23.1729 1.3083
-2.2383 -23.4085 1.3050
-0.1411 -23.5003 1.3042
1.9567 -23.4305 1.3048
4.0479 -23.2135 1.3077
5.5618 -20.7430 1.1918
7.4939 -20.4476 1.2086
6.8838 -14.5988 0.8957
6.8773 -11.7392 0.7551
6.8725 -9.6416 0.6571
6.8688 -8.0142 0.5858
6.8686 -6.6988 0.5325
6.9377 -5.6512 0.4966
8.5160 -5.7543 0.5704
8.5136 -4.7054 0.5398
8.5115 -3.7560 0.5163
8.5095 -2.8792 0.4985
8.5076 -2.0543 0.4857
8.5058 -1.2648 0.4772
8.5040 -0.4962 0.4727
8.5023 0.2640 0.4721
8.5006 1.0281 0.4752
8.4988 1.8087 0.4822
8.4969 2.6192 0.4934
8.4950 3.4754 0.5094
28.1995 14.5972 1.7622
29.5219 18.7974 1.9423
27.5423 21.2133 1.9293
25.7875 23.8141 1.9480
19.9124 21.9907 1.6464
12.2710 16.2591 1.1305
9.8538 15.8157 1.0341
8.6249 17.0694 1.0614
7.2690 18.2768 1.0916
9.9856 33.5585 1.9431
7.4967 37.0030 2.0953
4.1920 37.7590 2.1084
0.3111 14.6460 0.8130
-2.5858 37.9228 2.1095
-2.3042 14.5177 0.8158
-3.2648 12.9627 0.7419
-12.5300 35.8714 2.1087
-15.6538 34.5529 2.1052
-18.6164 32.9174 2.0987
-10.1433 14.6990 0.9911
-12.7916 15.3933 1.1107
-12.9604 13.0311 1.0200
-20.8987 17.5597 1.5149
-24.2095 16.9014 1.6386
-24.8717 14.2454 1.5907
-24.8653 11.4284 1.5187
-24.8593 8.8355 1.4642
-24.8538 6.4037 1.4244
-25.7792 4.2356 1.4498
-25.7739 1.8984 1.4342
-31.6503 -0.5002 1.7567
-13.2168 -1.3946 0.7376
-9.4862 -1.8682 0.5366
-9.4900 -2.7677 0.5486
-9.4940 -3.7163 0.5658
-9.4983 -4.7347 0.5890
-20.9587 -12.9004 1.3658
-19.1686 -14.3039 1.3273
-18.6093 -16.6671 1.3864
-17.0707 -18.2848 1.3882
-15.1152 -19.4055 1.3651
-13.1643 -20.4290 1.3487
-9.5166 -18.1420 1.1369
-9.1596 -22.0460 1.3249
-7.1101 -22.6277 1.3163
-5.0388 -23.0596 1.3099
-2.9522 -23.3426 1.3058
-0.8572 -23.4871 1.3043
1.2416 -23.4725 1.3045
3.3354 -23.3025 1.3064
4.9195 -20.8699 1.1900
6.7966 -20.4533 1.1961
5.9611 -13.7100 0.8297
6.8793 -12.6084 0.7971
6.8740 -10.2933 0.6869
6.8700 -8.5283 0.6078
6.8668 -7.1179 0.5489
7.2531 -6.2852 0.5326
6.8873 -4.9660 0.4712
8.5144 -5.0505 0.5494
8.5122 -4.0705 0.5236
8.5101 -3.1715 0.5040
8.5082 -2.3310 0.4896
8.5064 -1.5311 0.4797
8.5046 -0.7568 0.4738
8.5029 0.0048 0.4719
8.5012 0.7662 0.4737
8.4994 1.5398 0.4794
8.4976 2.3384 0.4891
8.4957 3.1771 0.5034
8.4936 4.0735 0.5228
29.5539 17.5757 1.9083
27.6110 19.9561 1.8906
25.9672 22.5536 1.9088
5.7811 6.0061 0.4626
18.6890 23.2540 1.6556
5.7156 8.5797 0.5721
9.0514 16.6343 1.0510
7.7748 17.9367 1.0849
6.4016 19.3375 1.1304
8.6198 36.7541 2.0951
5.3392 37.6051 2.1079
1.9645 37.9528 2.1091
-1.4293 37.9845 2.1095
-4.8112 37.6996 2.1092
-2.8470 12.9590 0.7363
-4.0916 12.9701 0.7548
-14.6065 35.0439 2.1070
-17.6239 33.5053 2.1010
-9.8511 15.2493 1.0075
-12.7871 16.3784 1.1532
-12.7995 13.6787 1.0396
-14.5905 13.0380 1.0859
-28.0496 20.8815 1.9407
-24.8740 15.2715 1.6198
-24.8674 12.3605 1.5411
-24.8613 9.6990 1.4810
-24.8556 7.2186 1.4364
-24.1817 4.7339 1.3675
-25.7757 2.6903 1.4382
-31.7390 0.4657 1.7616
-30.7201 -2.2976 1.7096
-9.4849 -1.5694 0.5335
-9.4887 -2.4563 0.5439
-9.4926 -3.3860 0.5593
-9.4968 -4.3779 0.5803
-21.6233 -12.4174 1.3838
-19.7772 -13.8404 1.3396
-18.6194 -15.6805 1.3509
-17.7296 -17.8667 1.3969
-15.7861 -19.0406 1.3726
-13.8315 -20.0922 1.3537
-10.2320 -18.1399 1.1558
-9.8525 -21.8131 1.3283
-7.8120 -22.4461 1.3190
-5.7474 -22.9290 1.3119
-3.6652 -23.2628 1.3069
-1.5726 -23.4552 1.3046
0.5258 -23.4956 1.3043
2.6218 -23.3745 1.3053
4.7103 -23.1150 1.3092
6.1583 -20.6107 1.1938
8.1734 -20.4831 1.2239
6.8815 -13.5809 0.8449
6.8756 -11.0078 0.7203
6.8712 -9.0830 0.6321
6.8678 -7.5674 0.5671
7.0909 -6.5334 0.5351
6.8970 -5.2997 0.4827
8.5152 -5.4083 0.5598
8.5129 -4.3944 0.5317
8.5108 -3.4706 0.5101
8.5089 -2.6123 0.4940
8.5070 -1.8003 0.4826
8.5052 -1.0189 0.4754
8.5035 -0.2544 0.4721
8.5017 0.5058 0.4727
8.5000 1.2737 0.4770
8.4982 2.0623 0.4853
8.4963 2.8855 0.4980
8.4943 3.7600 0.5155
27.4726 15.2245 1.7431
28.2062 19.1056 1.8906
27.1902 22.1992 1.9480
25.1014 24.5362 1.9480
19.3758 22.6585 1.6545
10.6610 14.9923 1.0209
9.4701 16.2071 1.0417
8.2196 17.4829 1.0721
6.8829 18.8465 1.1135
9.0275 33.8212 1.9427
6.4603 37.2967 2.1007
3.1194 37.8696 2.1088
-0.1045 14.6462 0.8128
-3.6607 37.8322 2.1094
-2.4350 12.9553 0.7316
-3.6600 12.9663 0.7477
-13.5417 35.4982 2.1085
-16.6123 34.0624 2.1032
-19.5091 32.3196 2.0951
-10.7718 14.6993 1.0114
-12.7956 14.5381 1.0748
-13.7210 13.0343 1.0503
-27.4235 21.7448 1.9423
-24.8765 16.3370 1.6517
-24.8696 13.3216 1.5657
-24.8633 10.5836 1.4996
-24.8575 8.0480 1.4500
-24.1834 5.5042 1.3764
-25.7775 3.4873 1.4436
-24.1734 1.0920 1.3429
-31.2101 -1.3798 1.7338
-9.8245 -1.3195 0.5501
-9.4874 -2.1498 0.5399
-9.4912 -3.0629 0.5535
-9.4954 -4.0312 0.5725
-9.4998 -5.0769 0.5978
-20.3828 -13.3580 1.3525
-18.6389 -14.7502 1.3191
-18.3836 -17.4301 1.4059
-16.4532 -18.6577 1.3805
-14.4930 -19.7376 1.3590
-10.9722 -18.1377 1.1764
-9.2070 -18.8326 1.1634
-8.5112 -22.2471 1.3219
-6.4540 -22.7811 1.3140
-4.3771 -23.1656 1.3084
-2.2873 -23.4044 1.3051
-0.1903 -23.5000 1.3042
1.9077 -23.4339 1.3048
3.9991 -23.2202 1.3076
5.5178 -20.7522 1.1917
7.4444 -20.4445 1.2075
6.8840 -14.6786 0.8998
6.8774 -11.7959 0.7578
6.8726 -9.6844 0.6590
6.8689 -8.0483 0.5872
6.8686 -6.7268 0.5335
6.9244 -5.6645 0.4965
8.5161 -5.7804 0.5712
8.5137 -4.7288 0.5405
8.5115 -3.7773 0.5168
8.5095 -2.8991 0.4989
8.5076 -2.0732 0.4860
8.5058 -1.2830 0.4774
8.5041 -0.5141 0.4728
8.5023 0.2462 0.4720
8.5006 1.0101 0.4751
8.4988 1.7901 0.4820
8.4970 2.5998 0.4931
8.4950 3.4547 0.5089
28.2160 14.5310 1.7613
29.4973 18.6951 1.9381
27.8538 21.3605 1.9480
25.8372 23.7601 1.9480
19.9755 21.9680 1.6478
18.0306 23.7869 1.6565
9.8819 15.7871 1.0336
8.6544 17.0393 1.0606
7.3086 18.2648 1.0918
10.0561 33.5385 1.9431
7.5740 36.9868 2.0952
4.2709 37.7497 2.1083
0.3418 14.6460 0.8130
-2.5066 37.9282 2.1095
-2.3025 14.7055 0.8261
-3.2360 12.9625 0.7415
-4.5014 12.9737 0.7621
-15.5827 34.5879 2.1053
-18.5490 32.9587 2.0989
-10.0980 14.6990 0.9897
-12.7913 15.4586 1.1135
-12.9061 13.0309 1.0178
-20.8985 17.6342 1.5175
-24.2096 16.9768 1.6410
-24.8718 14.3146 1.5926
-24.8654 11.4915 1.5202
-24.8595 8.8941 1.4653
-24.8539 6.4592 1.4251
-25.7793 4.2910 1.4504
-25.7740 1.9526 1.4345
-31.6821 -0.4345 1.7584
-13.5101 -1.3970 0.7538
-9.4861 -1.8476 0.5363
-9.4899 -2.7462 0.5483
-9.4939 -3.6934 0.5653
-9.4982 -4.7098 0.5884
-21.0043 -12.8680 1.3670
-19.2104 -14.2727 1.3282
-18.6100 -16.5978 1.3839
-17.1161 -18.2567 1.3888
-15.1613 -19.3811 1.3656
-13.2103 -20.4065 1.3491
-9.5649 -18.1419 1.1382
-9.2072 -22.0306 1.3251
-7.1584 -22.6158 1.3165
-5.0875 -23.0512 1.3101
-3.0012 -23.3377 1.3058
-0.9063 -23.4855 1.3043
1.1924 -23.4746 1.3044
3.2865 -23.3080 1.3063
4.8753 -20.8780 1.1898
6.7529 -20.4646 1.1960
5.9271 -13.7102 0.8289
6.8794 -12.6716 0.8002
6.8741 -10.3403 0.6891
6.8701 -8.5650 0.6093
6.8668 -7.1478 0.5501
6.9478 -6.0462 0.5111
6.8873 -4.9879 0.4719
8.5145 -5.0746 0.5501
8.5122 -4.0925 0.5242
8.5102 -3.1918 0.5044
8.5083 -2.3501 0.4899
8.5064 -1.5495 0.4798
8.5047 -0.7748 0.4739
8.5029 -0.0130 0.4719
8.5012 0.7483 0.4736
8.4994 1.5214 0.4792
8.4976 2.3193 0.4888
8.4957 3.1569 0.5030
8.4937 4.0517 0.5223
29.6542 17.5516 1.9124
27.6526 19.8983 1.8906
25.9255 22.4225 1.9023
5.7884 5.9886 0.4622
18.7166 23.1889 1.6538
5.7232 8.5523 0.5711
9.0804 16.6047 1.0503
7.8056 17.9052 1.0840
6.4350 19.3034 1.1292
8.6966 36.7360 2.0951
5.4177 37.5932 2.1079
2.0437 37.9483 2.1091
-1.3499 37.9874 2.1095
-4.7325 37.7098 2.1092
-2.8186 12.9588 0.7360
-4.0617 12.9698 0.7543
-14.5339 35.0762 2.1071
-17.5551 33.5445 2.1011
-9.8510 15.3194 1.0108
-12.7868 16.4487 1.1562
-12.7993 13.7358 1.0419
-14.5290 13.0378 1.0834
-28.0075 20.9413 1.9408
-24.8742 15.3433 1.6219
-24.8675 12.4255 1.5428
-24.8614 9.7591 1.4822
-24.8558 7.2749 1.4373
-24.1818 4.7864 1.3681
-25.7758 2.7447 1.4386
-31.7380 0.5319 1.7616
-30.7543 -2.2355 1.7113
-9.4848 -1.5490 0.5334
-9.4886 -2.4351 0.5437
-9.4925 -3.3636 0.5589
-9.4967 -4.3538 0.5798
-21.6689 -12.3833 1.3851
-19.8189 -13.8079 1.3405
-18.6201 -15.6147 1.3486
-17.7746 -17.8373 1.3975
-15.8320 -19.0149 1.3732
-13.8771 -20.0685 1.3541
-10.2820 -18.1398 1.1572
-9.8999 -21.7965 1.3286
-7.8601 -22.4330 1.3192
-5.7960 -22.9194 1.3120
-3.7142 -23.2567 1.3070
-1.6218 -23.4523 1.3046
0.4766 -23.4965 1.3042
2.5728 -23.3791 1.3053
4.6615 -23.1228 1.3091
6.1144 -20.6209 1.1936
8.1230 -20.4810 1.2228
6.8817 -13.6520 0.8485
6.8757 -11.0594 0.7227
6.8713 -9.1227 0.6338
6.8679 -7.5993 0.5684
6.9610 -6.4407 0.5263
6.8970 -5.3227 0.4835
8.5153 -5.4334 0.5606
8.5130 -4.4170 0.5322
8.5109 -3.4914 0.5105
8.5089 -2.6318 0.4943
8.5071 -1.8190 0.4828
8.5053 -1.0370 0.4755
8.5035 -0.2722 0.4722
8.5018 0.4879 0.4726
8.5000 1.2556 0.4768
8.4982 2.0435 0.4851
8.4964 2.8657 0.4976
8.4944 3.7387 0.5151
27.5452 15.1897 1.7457
28.2460 19.0466 1.8906
27.2364 22.1424 1.9480
24.6364 23.9813 1.9080
19.4278 22.6236 1.6549
10.6883 14.9644 1.0206
9.4986 16.1781 1.0411
8.2497 17.4522 1.0713
6.9154 18.8134 1.1124
9.0981 33.8022 1.9427
6.5341 37.2602 2.0994
3.1984 37.8625 2.1087
-0.0739 14.6461 0.8128
-3.5817 37.8400 2.1094
-2.4070 12.9551 0.7313
-3.6307 12.9660 0.7472
-13.4677 35.5269 2.1085
-16.5421 34.0995 2.1033
-19.4414 32.3602 2.0951
-10.7246 14.6993 1.0098
-12.7953 14.5993 1.0773
-13.6634 13.0341 1.0480
-27.3795 21.8034 1.9424
-24.8766 16.4118 1.6539
-24.8697 13.3887 1.5675
-24.8635 10.6452 1.5010
-24.8577 8.1056 1.4510
-24.1836 5.5575 1.3771
-25.7776 3.5422 1.4440
-24.1735 1.1427 1.3430
-31.2431 -1.3158 1.7354
-9.9792 -1.3190 0.5586
-9.4873 -2.1289 0.5396
-9.4912 -3.0410 0.5531
-9.4953 -4.0077 0.5720
-9.4997 -5.0513 0.5971
-20.4243 -13.3242 1.3534
-18.6424 -14.6896 1.3172
-18.4283 -17.3994 1.4065
-16.4988 -18.6308 1.3811
-14.3332 -19.4346 1.3402
-11.0240 -18.1376 1.1779
-9.2191 -18.7578 1.1599
-8.5591 -22.2328 1.3221
-6.5024 -22.7703 1.3142
-4.4259 -23.1583 1.3085
-2.3363 -23.4002 1.3051
-0.2394 -23.4996 1.3042
1.8586 -23.4373 1.3048
3.9503 -23.2267 1.3075
5.4738 -20.7613 1.1916
7.3948 -20.4412 1.2064
6.8842 -14.7593 0.9038
6.8776 -11.8531 0.7605
6.8727 -9.7276 0.6610
6.8690 -8.0825 0.5887
6.8686 -6.7550 0.5346
7.6373 -6.2743 0.5485
8.5161 -5.8064 0.5720
8.5137 -4.7521 0.5411
8.5116 -3.7986 0.5173
8.5017 0.5414 0.5254
8.4999 1.3101 0.5304
8.4981 2.0999 0.5399
8.4962 2.9251 0.5542
8.4942 3.8025 0.5740
27.4451 15.3597 1.9398
26.0752 17.8217 1.9480
23.6635 19.4855 1.8906
6.0160 5.9300 0.5210
19.3984 22.8780 1.8500
6.0067 8.5223 0.6431
9.4130 16.2651 1.1591
8.1591 17.5443 1.1934
6.8176 18.9128 1.2400
7.9954 30.4654 1.9427
5.6654 33.5414 2.0981
2.6523 33.9334 2.0993
-0.1658 14.6453 0.9033
-3.4207 33.8725 2.0998
-2.4911 12.9550 0.8137
-3.7185 12.9659 0.8319
-12.2419 31.6923 2.0955
-15.0174 30.4681 2.0951
-9.7666 16.0279 1.1576
-12.7827 17.2913 1.3263
-12.7960 14.4165 1.1889
-13.8361 13.0340 1.1724
-24.7035 19.4203 1.9381
-24.8761 16.1883 1.8306
-24.8693 13.1878 1.7362
-24.8630 10.4609 1.6637
-24.8573 7.9332 1.6093
-24.1832 5.3979 1.5283
-25.7772 3.3775 1.6035
-24.3922 0.9997 1.5057
-27.7899 -1.3451 1.7160
-9.5384 -1.3217 0.5939
-9.4875 -2.1916 0.6006
-9.4914 -3.1068 0.6160
-9.4956 -4.0782 0.6374
-4.4918 -2.4247 0.3148
-18.6564 -12.3384 1.3796
-18.5748 -14.8262 1.4659
-16.8058 -16.0680 1.4341
-15.0527 -17.2141 1.4104
-13.2594 -18.2167 1.3897
-11.4330 -19.0792 1.3719
-9.1966 -19.0123 1.3026
-7.7265 -20.4519 1.3484
-5.8395 -20.9458 1.3412
-3.9324 -21.2999 1.3359
-2.0119 -21.5148 1.3328
-0.0845 -21.5905 1.3317
1.8431 -21.5273 1.3326
3.7646 -21.3250 1.3356
5.1604 -19.0864 1.2195
6.8899 -18.6785 1.2279
6.8836 -14.5196 0.9911
6.8772 -11.6830 0.8362
6.8724 -9.5989 0.7281
6.8687 -7.9803 0.6494
6.8685 -6.6707 0.5905
7.7356 -6.2743 0.6143
8.5160 -5.7284 0.6330
8.5136 -4.6822 0.5993
8.5114 -3.7347 0.5733
8.5094 -2.8594 0.5537
8.5076 -2.0355 0.5395
8.5057 -1.2466 0.5302
8.5040 -0.4784 0.5253
8.5023 0.2818 0.5247
8.5005 1.0462 0.5282
8.4987 1.8272 0.5362
8.4969 2.6387 0.5488
8.4949 3.4961 0.5666
28.0182 14.5777 1.9480
26.6061 17.0190 1.9480
24.2461 18.7554 1.8906
23.1584 21.4760 1.9480
19.9054 22.0756 1.8334
12.0767 16.0714 1.2399
9.8256 15.8442 1.1499
8.5952 17.0994 1.1804
7.1850 18.1761 1.2055
8.9199 30.2077 1.9427
6.6779 33.3193 2.0959
3.6843 33.8312 2.0990
0.2805 14.6451 0.9034
-2.3872 33.9628 2.0999
-2.3060 14.3353 0.8955
-3.2935 12.9622 0.8249
-11.2749 32.0627 2.0963
-14.0823 30.9115 2.0951
-16.7835 29.5320 2.0951
-10.1888 14.6990 1.1031
-12.7918 15.3281 1.2314
-13.0141 13.0305 1.1359
-20.8879 17.4762 1.6798
-24.2093 16.8260 1.8184
-24.8715 14.1763 1.7657
-24.8651 11.3654 1.6862
-24.8592 8.7770 1.6260
-24.8537 6.3483 1.5821
-25.7791 4.1802 1.6108
-25.7737 1.8442 1.5937
-28.1702 -0.5041 1.7378
-12.9484 -1.3936 0.8032
-9.4863 -1.8888 0.5966
-9.4901 -2.7893 0.6101
-9.4941 -3.7392 0.6294
-9.4984 -4.7595 0.6553
-19.2030 -11.8752 1.3926
-18.6116 -13.9489 1.4345
-17.4053 -15.6545 1.4439
-15.6556 -16.8394 1.4181
-13.8752 -17.8906 1.3964
-12.0594 -18.8005 1.3776
-10.2146 -19.5722 1.3617
-8.3643 -20.2513 1.3514
-6.4859 -20.7930 1.3434
-4.5848 -21.1948 1.3375
-2.6681 -21.4571 1.3336
-0.7424 -21.5803 1.3318
1.1859 -21.5645 1.3321
3.1102 -21.4096 1.3344
4.7936 -20.1473 1.2773
6.3013 -18.8311 1.2248
5.9899 -13.6978 0.9221
6.8791 -12.5456 0.8825
6.8739 -10.2467 0.7610
6.8699 -8.4918 0.6737
6.8667 -7.0881 0.6087
7.2713 -6.2744 0.5924
6.8916 -4.9473 0.5232
8.5144 -5.0264 0.6098
8.5121 -4.0487 0.5814
8.5101 -3.1513 0.5597
8.5082 -2.3119 0.5438
8.5063 -1.5127 0.5329
8.5046 -0.7389 0.5265
8.5029 0.0226 0.5244
8.5011 0.7842 0.5266
8.4994 1.5581 0.5330
8.4975 2.3575 0.5439
8.4956 3.1973 0.5599
8.4936 4.0953 0.5816
27.1122 16.2005 1.9480
25.5478 18.5464 1.9472
23.8019 20.7605 1.9480
5.7736 6.0235 0.5146
18.6727 23.3334 1.8432
5.7092 8.6091 0.6371
9.0223 16.6637 1.1688
7.7438 17.9680 1.2068
6.3679 19.3716 1.2577
7.1276 30.6800 1.9427
4.7124 33.6963 2.0985
1.6885 33.9992 2.0996
-1.3513 34.0202 2.1000
-2.2773 17.5518 1.0916
-2.8753 12.9584 0.8187
-4.1213 12.9695 0.8393
-13.1325 31.3262 2.0951
-15.8759 30.0297 2.0951
-9.8510 15.1795 1.1161
-12.7873 16.3082 1.2782
-12.7996 13.6216 1.1529
-14.6513 13.0374 1.2096
-25.2267 18.6983 1.9367
-24.8739 15.1999 1.7979
-24.8672 12.2957 1.7110
-24.8612 9.6392 1.6446
-24.8555 7.1622 1.5954
-24.1816 4.6814 1.5192
-25.7755 2.6357 1.5981
-28.3034 0.3560 1.7458
-27.4194 -2.1085 1.6962
-9.4850 -1.5898 0.5932
-9.4888 -2.4775 0.6049
-9.4927 -3.4084 0.6221
-9.4969 -4.4020 0.6456
-19.7534 -11.3986 1.4066
-18.6212 -13.0895 1.4039
-18.0125 -15.2339 1.4550
-16.2535 -16.4479 1.4262
-14.4869 -17.5481 1.4035
-12.6824 -18.5058 1.3837
-10.8468 -19.3243 1.3668
-8.9987 -20.0344 1.3546
-7.1295 -20.6240 1.3459
-5.2354 -21.0734 1.3393
-3.3233 -21.3833 1.3347
-1.3999 -21.5539 1.3322
0.5282 -21.5855 1.3317
2.4546 -21.4781 1.3333
4.3727 -21.2316 1.3370
5.7112 -18.9697 1.2219
7.4906 -18.6583 1.2401
6.8813 -13.5104 0.9352
6.8755 -10.9566 0.7978
6.8711 -9.0435 0.7005
6.8677 -7.5356 0.6288
6.8680 -6.3015 0.5749
6.8969 -5.2767 0.5356
8.5152 -5.3833 0.6214
8.5129 -4.3719 0.5902
8.5108 -3.4499 0.5664
8.5088 -2.5929 0.5486
8.5070 -1.7818 0.5361
8.5052 -1.0009 0.5282
8.5034 -0.2366 0.5247
8.5017 0.5236 0.5254
8.5000 1.2919 0.5303
8.4982 2.0811 0.5396
8.4963 2.9053 0.5538
8.4943 3.7812 0.5735
27.4663 15.2963 1.9391
26.1124 17.7671 1.9480
23.7041 19.4359 1.8906
22.5396 22.1245 1.9480
19.4070 22.7914 1.8463
10.6335 15.0201 1.1351
9.4415 16.2360 1.1584
8.1893 17.5135 1.1925
6.8503 18.8795 1.2387
8.0590 30.4486 1.9427
5.7354 33.5289 2.0980
2.7232 33.9274 2.0993
-0.1352 14.6452 0.9033
-3.3498 33.8797 2.0998
-2.4630 12.9548 0.8133
-3.6891 12.9657 0.8314
-12.1760 31.7187 2.0955
-14.9536 30.4994 2.0951
-9.7308 16.0445 1.1574
-12.7824 17.3666 1.3300
-12.7957 14.4771 1.1917
-13.7780 13.0337 1.1698
-24.6641 19.4730 1.9382
-24.8763 16.2625 1.8331
-24.8694 13.2546 1.7382
-24.8632 10.5222 1.6652
-24.8574 7.9906 1.6104
-24.1833 5.4511 1.5290
-25.7774 3.4324 1.6039
-24.1732 1.0413 1.4923
-27.8166 -1.2881 1.7175
-9.6844 -1.3213 0.6028
-9.4875 -2.1707 0.6003
-9.4913 -3.0848 0.6156
-9.4955 -4.0546 0.6368
-4.4993 -2.4166 0.3150
-18.6936 -12.3068 1.3804
-18.6021 -14.7844 1.4656
-16.8462 -16.0395 1.4347
-15.0942 -17.1889 1.4109
-13.3018 -18.1949 1.3901
-11.4761 -19.0605 1.3723
-9.2187 -18.9568 1.3001
-7.7704 -20.4386 1.3486
-5.8839 -20.9358 1.3413
-3.9772 -21.2932 1.3360
-2.0569 -21.5113 1.3328
-0.1297 -21.5904 1.3317
1.7980 -21.5304 1.3326
3.7197 -21.3313 1.3355
5.1198 -19.0945 1.2193
6.8495 -18.6894 1.2277
6.8838 -14.5988 0.9955
6.8773 -11.7392 0.8392
6.8725 -9.6416 0.7303
6.8688 -8.0142 0.6510
6.8685 -6.6987 0.5917
6.9377 -5.6512 0.5519
8.5160 -5.7543 0.6339
8.5136 -4.7054 0.6000
8.5115 -3.7560 0.5738
8.5095 -2.8792 0.5541
8.5076 -2.0543 0.5398
8.5058 -1.2648 0.5304
8.5040 -0.4962 0.5254
8.5023 0.2640 0.5247
8.5006 1.0281 0.5281
8.4988 1.8087 0.5359
8.4969 2.6192 0.5484
8.4950 3.4754 0.5661
28.0486 14.5191 1.9480
26.6416 16.9633 1.9480
24.2853 18.7047 1.8906
23.2031 21.4275 1.9480
19.9520 22.0345 1.8334
12.2803 16.2714 1.2573
9.8537 15.8155 1.1493
8.6248 17.0692 1.1796
7.2225 18.1598 1.2054
8.9830 30.1890 1.9427
6.7464 33.2995 2.0956
3.7550 33.8229 2.0989
0.3111 14.6451 0.9035
-2.3161 33.9678 2.0999
-2.3044 14.5187 0.9067
-3.2646 12.9619 0.8244
-11.2081 32.0870 2.0963
-14.0174 30.9409 2.0951
-16.7217 29.5671 2.0951
-10.1433 14.6990 1.1015
-12.7915 15.3931 1.2344
-12.9595 13.0303 1.1335
-20.8767 17.5412 1.6818
-24.2095 16.9014 1.8211
-24.8717 14.2454 1.7678
-24.8653 11.4284 1.6879
-24.8593 8.8355 1.6272
-24.8538 6.4037 1.5830
-25.7792 4.2356 1.6113
-25.7739 1.8984 1.5940
-28.1956 -0.4456 1.7393
-13.2300 -1.3960 0.8205
-9.4862 -1.8682 0.5963
-9.4900 -2.7677 0.6097
-9.4940 -3.7163 0.6288
-9.4983 -4.7347 0.6546
-19.2409 -11.8431 1.3935
-18.6123 -13.8888 1.4324
-17.4471 -15.6262 1.4446
-15.6968 -16.8131 1.4187
-13.9173 -17.8677 1.3969
-12.1023 -18.7808 1.3780
-10.2581 -19.5557 1.3620
-8.4080 -20.2369 1.3516
-6.5301 -20.7819 1.3436
-4.6296 -21.1870 1.3376
-2.7131 -21.4526 1.3337
-0.7875 -21.5790 1.3318
1.1408 -21.5664 1.3320
3.0652 -21.4149 1.3343
4.7911 -20.3253 1.2880
6.2609 -18.8411 1.2246
5.9559 -13.6980 0.9213
6.8793 -12.6084 0.8859
6.8740 -10.2933 0.7634
6.8700 -8.5283 0.6754
6.8668 -7.1179 0.6100
7.2406 -6.2745 0.5909
6.8873 -4.9660 0.5237
8.5144 -5.0505 0.6106
8.5122 -4.0705 0.5820
8.5101 -3.1715 0.5602
8.5082 -2.3310 0.5441
8.5064 -1.5311 0.5331
8.5046 -0.7568 0.5266
8.5029 0.0048 0.5244
8.5012 0.7662 0.5265
8.4994 1.5398 0.5328
8.4976 2.3384 0.5436
8.4957 3.1771 0.5594
8.4936 4.0735 0.5810
27.1461 16.1437 1.9480
25.5977 18.5009 1.9480
23.8452 20.7106 1.9480
5.7809 6.0059 0.5142
18.7061 23.2753 1.8417
5.7156 8.5797 0.6358
9.0513 16.6341 1.1680
7.7747 17.9365 1.2057
6.4015 19.3373 1.2563
7.1918 30.6651 1.9427
4.7828 33.6858 2.0985
1.7596 33.9953 2.0996
-1.2802 34.0230 2.0999
-4.3095 33.7683 2.0997
-2.8469 12.9582 0.8183
-4.0913 12.9692 0.8388
-13.0683 31.3536 2.0951
-15.8131 30.0628 2.0951
-9.8509 15.2491 1.1197
-12.7869 16.3781 1.2816
-12.7994 13.6785 1.1554
-14.5895 13.0371 1.2068
-25.1889 18.7520 1.9368
-24.8740 15.2715 1.8003
-24.8674 12.3605 1.7128
-24.8613 9.6990 1.6460
-24.8556 7.2186 1.5964
-24.1817 4.7339 1.5198
-25.7757 2.6903 1.5984
-28.3026 0.4153 1.7458
-27.4472 -2.0529 1.6976
-9.4849 -1.5694 0.5930
-9.4887 -2.4563 0.6045
-9.4926 -3.3860 0.6216
-9.4968 -4.3779 0.6450
-4.3969 -2.5250 0.3127
-18.6218 -13.0318 1.4019
-18.0540 -15.2044 1.4558
-16.2944 -16.4204 1.4268
-14.5287 -17.5240 1.4040
-12.7250 -18.4850 1.3841
-10.8901 -19.3067 1.3672
-9.0421 -20.0189 1.3548
-7.1736 -20.6118 1.3461
-5.2800 -21.0645 1.3394
-3.3682 -21.3776 1.3348
-1.4450 -21.5515 1.3322
0.4831 -21.5864 1.3317
2.4096 -21.4822 1.3333
4.3280 -21.2389 1.3369
5.6707 -18.9787 1.2217
7.4455 -18.6587 1.2391
6.8815 -13.5809 0.9390
6.8756 -11.0078 0.8005
6.8712 -9.0830 0.7025
6.8678 -7.5674 0.6303
6.8680 -6.3281 0.5760
6.8970 -5.2997 0.5365
8.5152 -5.4083 0.6222
8.5129 -4.3944 0.5909
8.5108 -3.4706 0.5669
8.5089 -2.6123 0.5490
8.5070 -1.8003 0.5363
8.5052 -1.0189 0.5283
8.5035 -0.2544 0.5247
8.5017 0.5058 0.5253
8.5000 1.2737 0.5301
8.4982 2.0623 0.5394
8.4963 2.8855 0.5534
8.4943 3.7600 0.5729
27.5922 15.2908 1.9457
26.1495 17.7124 1.9480
23.7448 19.3863 1.8906
22.5858 22.0772 1.9480
19.3840 22.6681 1.8396
10.6608 14.9921 1.1346
9.4700 16.2069 1.1577
8.2195 17.4827 1.1915
6.8829 18.8462 1.2375
8.1227 30.4317 1.9427
5.8055 33.5162 2.0980
2.7942 33.9213 2.0993
-0.1045 14.6452 0.9033
-3.2790 33.8868 2.0998
-2.4349 12.9545 0.8130
-3.6597 12.9654 0.8309
-12.1099 31.7450 2.0956
-14.8898 30.5306 2.0951
-9.6949 16.0610 1.1571
-10.7718 14.6993 1.1240
-12.7954 14.5379 1.1945
-13.7201 13.0335 1.1672
-24.6247 19.5256 1.9383
-24.8765 16.3370 1.8356
-24.8696 13.3216 1.7401
-24.8633 10.5836 1.6667
-24.8575 8.0480 1.6115
-24.1834 5.5042 1.5297
-25.7775 3.4872 1.6044
-24.1734 1.0920 1.4925
-27.8431 -1.2310 1.7190
-9.8347 -1.3209 0.6120
-9.4874 -2.1498 0.6000
-9.4912 -3.0629 0.6151
-9.4954 -4.0312 0.6362
-4.5068 -2.4085 0.3152
-18.7306 -12.2752 1.3813
-18.6029 -14.7217 1.4632
-16.8867 -16.0108 1.4353
-15.1357 -17.1637 1.4114
-13.3441 -18.1729 1.3906
-11.5192 -19.0419 1.3726
-9.2470 -18.9144 1.2986
-7.8142 -20.4253 1.3488
-5.9284 -20.9258 1.3415
-4.0220 -21.2865 1.3361
-2.1020 -21.5078 1.3329
-0.1748 -21.5901 1.3317
1.7530 -21.5333 1.3325
3.6749 -21.3376 1.3354
5.0792 -19.1025 1.2191
6.8092 -18.7002 1.2275
6.8840 -14.6786 1.0000
6.8774 -11.7959 0.8422
6.8726 -9.6844 0.7324
6.8689 -8.0483 0.6526
6.8685 -6.7267 0.5930
6.9244 -5.6645 0.5518
8.5161 -5.7804 0.6348
8.5137 -4.7288 0.6007
8.5115 -3.7773 0.5743
8.5095 -2.8991 0.5545
8.5076 -2.0732 0.5401
8.5058 -1.2830 0.5306
8.5041 -0.5141 0.5255
8.5023 0.2462 0.5246
8.5006 1.0101 0.5280
8.4988 1.7901 0.5357
8.4970 2.5998 0.5481
8.4950 3.4547 0.5656
28.0789 14.4604 1.9480
26.6770 16.9075 1.9480
24.3243 18.6538 1.8906
23.2479 21.3789 1.9480
20.0211 22.0181 1.8355
18.0754 23.8459 1.8455
9.8818 15.7869 1.1487
8.6543 17.0391 1.1787
7.2614 18.1470 1.2055
9.0461 30.1701 1.9427
6.8156 33.2835 2.0955
3.8257 33.8146 2.0989
0.3418 14.6451 0.9035
-2.2452 33.9726 2.0999
-2.3027 14.7066 0.9181
-3.2358 12.9616 0.8240
-4.5011 12.9729 0.8469
-13.9527 30.9701 2.0951
-16.6598 29.6020 2.0951
-10.0980 14.6990 1.0999
-12.7912 15.4584 1.2375
-12.9052 13.0300 1.1311
-20.8765 17.6156 1.6848
-24.2096 16.9768 1.8238
-24.8718 14.3146 1.7700
-24.8654 11.4915 1.6895
-24.8595 8.8941 1.6285
-24.8539 6.4592 1.5839
-25.7793 4.2910 1.6119
-25.7740 1.9526 1.5942
-28.2209 -0.3870 1.7408
-13.5239 -1.3984 0.8386
-9.4861 -1.8476 0.5961
-9.4899 -2.7462 0.6093
-9.4939 -3.6934 0.6283
-9.4982 -4.7098 0.6539
-19.2787 -11.8109 1.3945
-18.6130 -13.8288 1.4302
-17.4888 -15.5979 1.4454
-15.7379 -16.7867 1.4192
-13.9594 -17.8446 1.3974
-12.1451 -18.7610 1.3784
-10.3015 -19.5391 1.3624
-8.4516 -20.2225 1.3518
-6.5744 -20.7708 1.3437
-4.6743 -21.1791 1.3377
-2.7582 -21.4480 1.3338
-0.8327 -21.5776 1.3319
1.0956 -21.5683 1.3320
3.0202 -21.4200 1.3342
4.7885 -20.5064 1.2988
6.2204 -18.8510 1.2244
5.9219 -13.6982 0.9204
6.8794 -12.6716 0.8893
6.8741 -10.3403 0.7658
6.8701 -8.5650 0.6772
6.8668 -7.1478 0.6113
6.9478 -6.0462 0.5681
6.8873 -4.9879 0.5245
8.5145 -5.0746 0.6114
8.5122 -4.0925 0.5825
8.5102 -3.1918 0.5606
8.5083 -2.3501 0.5444
8.5064 -1.5495 0.5333
8.5047 -0.7748 0.5267
8.5029 -0.0130 0.5244
8.5012 0.7483 0.5264
8.4994 1.5214 0.5326
8.4976 2.3193 0.5433
8.4957 3.1569 0.5590
8.4937 4.0517 0.5804
25.9792 15.3764 1.8620
25.6363 18.4474 1.9480
23.8885 20.6608 1.9480
5.7882 5.9884 0.5137
18.7714 23.2567 1.8434
5.7232 8.5523 0.6347
9.0803 16.6045 1.1673
7.8055 17.9050 1.2047
6.4350 19.3031 1.2550
7.2559 30.6500 1.9427
4.8531 33.6752 2.0985
1.8306 33.9913 2.0995
-1.2091 34.0255 2.0999
-4.2390 33.7775 2.0997
-2.8184 12.9579 0.8179
-4.0615 12.9690 0.8382
-13.0028 31.3808 2.0951
-15.7502 30.0958 2.0951
-9.8509 15.3192 1.1233
-12.7866 16.4485 1.2850
-12.7991 13.7357 1.1580
-14.5280 13.0369 1.2039
-25.1510 18.8055 1.9369
-24.8742 15.3433 1.8026
-24.8675 12.4255 1.7146
-24.8614 9.7591 1.6473
-24.8558 7.2749 1.5974
-24.1818 4.7864 1.5204
-25.7758 2.7447 1.5988
-28.3017 0.4744 1.7458
-27.4750 -1.9971 1.6991
-9.4848 -1.5490 0.5928
-9.4886 -2.4351 0.6042
-9.4925 -3.3636 0.6211
-9.4967 -4.3538 0.6444
-4.4045 -2.5171 0.3129
-18.6224 -12.9743 1.3999
-18.0956 -15.1748 1.4566
-16.3353 -16.3929 1.4274
-14.5705 -17.4997 1.4045
-12.7677 -18.4641 1.3846
-10.8496 -19.1412 1.3571
-9.0855 -20.0034 1.3551
-7.2177 -20.5995 1.3463
-5.3246 -21.0555 1.3395
-3.4132 -21.3719 1.3349
-1.4902 -21.5490 1.3323
0.4379 -21.5871 1.3317
2.3645 -21.4862 1.3332
4.2832 -21.2462 1.3368
5.6301 -18.9877 1.2215
7.4004 -18.6590 1.2381
6.8817 -13.6519 0.9430
6.8757 -11.0594 0.8032
6.8713 -9.1227 0.7044
6.8679 -7.5993 0.6318
6.8681 -6.3547 0.5771
6.8970 -5.3227 0.5373
8.5153 -5.4334 0.6230
8.5130 -4.4170 0.5915
8.5109 -3.4914 0.5674
8.5089 -2.6318 0.5493
8.5071 -1.8190 0.5366
8.5053 -1.0370 0.5285
8.5035 -0.2722 0.5247
8.5018 0.4879 0.5252
8.5000 1.2556 0.5300
8.4982 2.0435 0.5391
8.4964 2.8657 0.5530
8.4944 3.7387 0.5724
27.6026 15.2213 1.9442
26.1864 17.6578 1.9480
23.7852 19.3367 1.8906
22.6319 22.0301 1.9480
19.3655 22.5509 1.8334
10.6881 14.9643 1.1342
9.4985 16.1779 1.1571
8.2496 17.4520 1.1906
6.9153 18.8131 1.2363
8.1863 30.4147 1.9427
5.8753 33.5034 2.0980
2.8650 33.9150 2.0993
-0.0739 14.6452 0.9033
-3.2082 33.8937 2.0998
-2.4068 12.9543 0.8127
-3.6304 12.9652 0.8304
-12.0439 31.7710 2.0956
-14.8259 30.5617 2.0951
-9.6703 16.0963 1.1582
-10.7246 14.6992 1.1223
-12.7951 14.5991 1.1973
-13.6625 13.0332 1.1646
-24.5850 19.5780 1.9384
-24.8766 16.4118 1.8382
-24.8697 13.3887 1.7421
-24.8635 10.6452 1.6682
-24.8577 8.1056 1.6126
-24.1836 5.5575 1.5305
-25.7776 3.5422 1.6049
-24.1735 1.1427 1.4926
-27.8697 -1.1738 1.7205
-9.9897 -1.3204 0.6215
-9.4873 -2.1289 0.5997
-9.4911 -3.0409 0.6147
-9.4953 -4.0077 0.6357
-9.4997 -5.0513 0.6636
-18.7677 -12.2435 1.3821
-18.6036 -14.6591 1.4608
-16.9272 -15.9821 1.4359
-15.1772 -17.1383 1.4120
-13.3865 -18.1509 1.3910
-11.5623 -19.0231 1.3730
-9.2798 -18.8812 1.2976
-7.8581 -20.4119 1.3490
-5.9728 -20.9157 1.3416
-4.0668 -21.2796 1.3362
-2.1470 -21.5042 1.3329
-0.2200 -21.5897 1.3317
1.7079 -21.5363 1.3325
3.6300 -21.3437 1.3353
5.0385 -19.1105 1.2190
6.7688 -18.7110 1.2272
6.8842 -14.7592 1.0045
6.8776 -11.8531 0.8452
6.8727 -9.7276 0.7346
6.8690 -8.0825 0.6542
6.8685 -6.7549 0.5942
7.6373 -6.2743 0.6096
8.5161 -5.8064 0.6357
8.5137 -4.7521 0.6014
8.5116 -3.7986 0.5749
8.5017 0.5414 0.5781
8.4999 1.3101 0.5836
8.4981 2.0999 0.5941
8.4962 2.9251 0.6098
8.4942 3.8025 0.6316
25.0301 14.0081 1.9466
23.6984 16.1972 1.9480
22.1590 18.2467 1.9480
6.0156 5.9296 0.5732
18.5639 21.8939 1.9480
6.0067 8.5224 0.7076
9.4129 16.2650 1.2753
8.1590 17.5441 1.3131
6.8175 18.9126 1.3643
7.6570 29.1760 2.0470
5.1417 30.4406 2.0951
2.4057 30.7779 2.0951
-0.1658 14.6443 0.9939
-3.1019 30.7156 2.0951
-2.4909 12.9542 0.8952
-3.7183 12.9651 0.9153
-11.1239 28.7980 2.0951
-13.6485 27.6908 2.0951
-9.6674 15.8651 1.2608
-10.6320 14.3820 1.2138
-12.7958 14.4164 1.3081
-13.8351 13.0331 1.2899
-22.3966 17.6068 1.9334
-23.7507 15.4559 1.9231
-24.7952 13.1486 1.9047
-24.8630 10.4609 1.8306
-24.8573 7.9333 1.7707
-24.1832 5.3979 1.6816
-25.7772 3.3775 1.7643
-24.3922 0.9997 1.6567
-25.0862 -1.2142 1.7044
-9.5480 -1.3230 0.6542
-9.4875 -2.1916 0.6608
-9.4914 -3.1068 0.6778
-4.4132 -1.8954 0.3259
-4.1347 -2.2320 0.3189
-18.6043 -12.3040 1.5137
-17.2142 -13.7402 1.4947
-15.5902 -14.9058 1.4638
-13.9367 -15.9379 1.4368
-12.2897 -16.8845 1.4172
-10.6069 -17.7005 1.4004
-8.8945 -18.3878 1.3862
-7.1585 -18.9483 1.3746
-5.4041 -19.3838 1.3656
-3.6372 -19.7008 1.3596
-1.8612 -19.9031 1.3566
-0.0782 -19.9744 1.3556
1.7051 -19.9149 1.3564
3.4820 -19.7244 1.3593
4.8152 -17.8095 1.2520
6.4014 -17.3544 1.2553
6.8836 -14.5197 1.0905
6.8772 -11.6830 0.9200
6.8724 -9.5989 0.8012
6.8687 -7.9803 0.7145
6.8684 -6.6706 0.6498
7.7356 -6.2743 0.6759
8.5160 -5.7284 0.6965
8.5136 -4.6822 0.6594
8.5114 -3.7347 0.6308
8.5094 -2.8594 0.6092
8.5076 -2.0355 0.5936
8.5057 -1.2466 0.5834
8.5040 -0.4784 0.5780
8.5023 0.2818 0.5773
8.5005 1.0462 0.5812
8.4987 1.8272 0.5899
8.4969 2.6387 0.6038
8.4949 3.4961 0.6234
25.4363 13.2343 1.9459
24.1767 15.4650 1.9477
22.7047 17.5631 1.9480
21.0474 19.5184 1.9480
19.2223 21.3182 1.9480
12.0857 16.0834 1.3653
9.8255 15.8440 1.2652
8.5951 17.0992 1.2988
7.1586 18.1093 1.3215
8.3974 28.4382 2.0123
6.0652 30.2625 2.0946
3.3423 30.6903 2.0951
0.2805 14.6442 0.9940
-2.1646 30.7958 2.0951
-2.3062 14.3363 0.9854
-3.2933 12.9613 0.9076
-10.2414 29.1235 2.0951
-12.7985 28.0938 2.0951
-15.2536 26.8401 2.0951
-9.9743 14.3896 1.1882
-12.7916 15.3279 1.3548
-13.0132 13.0296 1.2497
-20.8241 17.4229 1.8426
-23.3056 16.1979 1.9261
-24.4643 13.9442 1.9110
-24.8651 11.3654 1.8554
-24.8592 8.7770 1.7891
-24.8537 6.3483 1.7408
-25.7791 4.1802 1.7723
-25.7737 1.8442 1.7536
-25.3982 -0.4545 1.7239
-12.9611 -1.3950 0.8847
-9.4863 -1.8888 0.6564
-9.4901 -2.7893 0.6713
-4.5039 -1.7738 0.3285
-4.2317 -2.1204 0.3212
-3.9421 -2.4378 0.3145
-17.7595 -13.3103 1.5062
-16.1482 -14.5238 1.4739
-14.5019 -15.5984 1.4454
-12.8559 -16.5764 1.4236
-11.1846 -17.4367 1.4058
-9.4816 -18.1676 1.3907
-7.7530 -18.7713 1.3783
-6.0043 -19.2492 1.3684
-4.2405 -19.6030 1.3611
-2.4682 -19.8488 1.3574
-0.6868 -19.9648 1.3557
1.0971 -19.9499 1.3559
2.8769 -19.8041 1.3581
4.6476 -19.5335 1.3626
5.8557 -17.4994 1.2523
5.9847 -13.6858 1.0137
6.8791 -12.5456 0.9710
6.8739 -10.2467 0.8374
6.8699 -8.4918 0.7413
6.8667 -7.0881 0.6697
7.2713 -6.2744 0.6518
6.8916 -4.9473 0.5757
8.5144 -5.0264 0.6710
8.5121 -4.0487 0.6397
8.5101 -3.1513 0.6158
8.5082 -2.3119 0.5983
8.5063 -1.5127 0.5863
8.5046 -0.7389 0.5793
8.5029 0.0226 0.5770
8.5011 0.7842 0.5794
8.4994 1.5581 0.5864
8.4975 2.3575 0.5985
8.4956 3.1973 0.6160
8.4936 4.0953 0.6399
24.6297 14.7171 1.9471
23.2292 16.8632 1.9480
21.6323 18.8681 1.9480
5.7735 6.0234 0.5662
17.9352 22.4119 1.9480
5.7092 8.6091 0.7010
9.0222 16.6635 1.2860
7.7437 17.9678 1.3278
6.3678 19.3713 1.3838
6.9861 30.0709 2.0951
4.2758 30.5742 2.0951
1.5313 30.8338 2.0951
-1.2253 30.8475 2.0951
-2.2775 17.5532 1.2012
-2.8751 12.9576 0.9007
-4.1210 12.9687 0.9235
-11.9367 28.4707 2.0951
-14.4288 27.2924 2.0951
-9.6556 14.8784 1.2037
-12.7871 16.3079 1.4064
-12.7995 13.6215 1.2685
-14.6503 13.0365 1.3309
-22.8461 16.9337 1.9299
-24.1071 14.7313 1.9173
-24.8672 12.2957 1.8826
-24.8612 9.6392 1.8096
-24.8555 7.1622 1.7554
-24.1816 4.6814 1.6715
-25.7755 2.6357 1.7583
-25.5364 0.3212 1.7331
-24.7797 -1.9055 1.6866
-9.4850 -1.5898 0.6527
-9.4888 -2.4775 0.6655
-9.4927 -3.4084 0.6845
-4.3267 -2.0055 0.3236
-4.0427 -2.3328 0.3168
-18.2998 -12.8636 1.5180
-16.7022 -14.1257 1.4845
-15.0670 -15.2472 1.4547
-13.4177 -16.2529 1.4303
-11.7586 -17.1578 1.4116
-10.0657 -17.9327 1.3956
-8.3452 -18.5795 1.3822
-6.6028 -19.1002 1.3715
-4.8436 -19.4962 1.3633
-3.0740 -19.7793 1.3584
-1.2951 -19.9400 1.3561
0.4887 -19.9697 1.3556
2.2706 -19.8685 1.3571
4.0442 -19.6364 1.3606
5.3082 -17.6311 1.2496
6.9080 -17.2073 1.2583
6.8813 -13.5104 1.0289
6.8755 -10.9566 0.8778
6.8711 -9.0435 0.7708
6.8677 -7.5356 0.6919
6.8680 -6.3015 0.6325
6.8969 -5.2767 0.5893
8.5152 -5.3833 0.6837
8.5129 -4.3719 0.6494
8.5108 -3.4499 0.6232
8.5088 -2.5929 0.6037
8.5070 -1.7818 0.5898
8.5052 -1.0009 0.5812
8.5034 -0.2366 0.5773
8.5017 0.5236 0.5781
8.5000 1.2919 0.5835
8.4982 2.0811 0.5938
8.4963 2.9053 0.6094
8.4943 3.7812 0.6310
25.0587 13.9554 1.9465
23.7322 16.1476 1.9480
22.1972 18.2003 1.9480
20.4851 20.1078 1.9480
18.6097 21.8551 1.9480
10.6333 15.0199 1.2489
9.4414 16.2359 1.2746
8.1892 17.5133 1.3120
6.8502 18.8793 1.3629
7.7083 29.1235 2.0445
5.2053 30.4298 2.0951
2.4700 30.7728 2.0951
-0.1352 14.6443 0.9939
-3.0376 30.7220 2.0951
-2.4628 12.9540 0.8949
-3.6889 12.9648 0.9148
-11.0637 28.8211 2.0951
-13.5906 27.7193 2.0951
-9.6683 15.9415 1.2653
-10.5860 14.3826 1.2119
-12.7955 14.4769 1.3112
-13.7771 13.0328 1.2870
-22.3627 17.6559 1.9336
-23.7236 15.5089 1.9235
-24.7734 13.2034 1.9051
-24.8632 10.5222 1.8322
-24.8574 7.9906 1.7719
-24.1833 5.4511 1.6824
-25.7774 3.4324 1.7648
-24.1732 1.0413 1.6420
-25.1082 -1.1627 1.7058
-9.6943 -1.3226 0.6640
-9.4874 -2.1707 0.6605
-9.4913 -3.0848 0.6773
-4.4195 -1.8872 0.3261
-4.1415 -2.2244 0.3190
-18.6050 -12.2485 1.5117
-17.2518 -13.7112 1.4955
-15.6286 -14.8801 1.4645
-13.9747 -15.9141 1.4373
-12.3287 -16.8639 1.4177
-10.6466 -17.6828 1.4007
-8.9349 -18.3731 1.3865
-7.1993 -18.9367 1.3749
-5.4453 -19.3751 1.3658
-3.6786 -19.6946 1.3597
-1.9028 -19.8999 1.3566
-0.1200 -19.9743 1.3556
1.6634 -19.9178 1.3564
3.4406 -19.7303 1.3592
4.8059 -17.9238 1.2593
6.3641 -17.3647 1.2551
6.8838 -14.5988 1.0953
6.8773 -11.7392 0.9233
6.8725 -9.6416 0.8035
6.8688 -8.0142 0.7163
6.8684 -6.6986 0.6511
6.9377 -5.6512 0.6073
8.5160 -5.7543 0.6975
8.5136 -4.7054 0.6601
8.5115 -3.7560 0.6314
8.5095 -2.8792 0.6096
8.5076 -2.0543 0.5940
8.5058 -1.2648 0.5836
8.5040 -0.4962 0.5781
8.5023 0.2640 0.5773
8.5006 1.0281 0.5811
8.4988 1.8087 0.5897
8.4969 2.6192 0.6034
8.4950 3.4754 0.6229
25.4632 13.1808 1.9458
24.2086 15.4142 1.9476
22.7414 17.5156 1.9480
21.0882 19.4744 1.9480
19.2669 21.2779 1.9480
12.2895 16.2837 1.3845
9.7988 15.7274 1.2575
8.6247 17.0691 1.2978
7.1961 18.0933 1.3214
8.4473 28.3886 2.0100
6.1283 30.2489 2.0945
3.4064 30.6833 2.0951
0.3111 14.6441 0.9940
-2.1001 30.8003 2.0951
-2.3046 14.5198 0.9977
-3.2644 12.9611 0.9071
-10.1804 29.1449 2.0951
-12.7397 28.1205 2.0951
-15.1974 26.8719 2.0951
-9.9302 14.3901 1.1865
-12.7913 15.3929 1.3582
-12.9587 13.0294 1.2471
-20.8494 17.5183 1.8481
-23.2748 16.2488 1.9264
-24.4406 13.9985 1.9114
-24.8653 11.4284 1.8572
-24.8593 8.8355 1.7904
-24.8538 6.4037 1.7418
-25.7792 4.2356 1.7729
-25.7739 1.8984 1.7539
-25.4190 -0.4017 1.7252
-13.2432 -1.3974 0.9037
-9.4862 -1.8682 0.6561
-9.4900 -2.7677 0.6709
-9.4940 -3.7163 0.6919
-4.2383 -2.1127 0.3214
-3.9490 -2.4307 0.3147
-17.7967 -13.2802 1.5070
-16.1863 -14.4971 1.4746
-14.5407 -15.5748 1.4460
-12.8946 -16.5547 1.4241
-11.2241 -17.4180 1.4062
-9.5218 -18.1520 1.3911
-7.7937 -18.7586 1.3785
-6.0455 -19.2395 1.3686
-4.2819 -19.5961 1.3612
-2.5098 -19.8445 1.3575
-0.7286 -19.9636 1.3557
1.0554 -19.9517 1.3559
2.8354 -19.8090 1.3580
4.6062 -19.5410 1.3625
5.8182 -17.5088 1.2521
5.9507 -13.6860 1.0128
6.8793 -12.6084 0.9747
6.8740 -10.2933 0.8400
6.8700 -8.5283 0.7432
6.8668 -7.1179 0.6712
7.2406 -6.2745 0.6502
6.8873 -4.9660 0.5762
8.5144 -5.0505 0.6718
8.5122 -4.0705 0.6403
8.5101 -3.1715 0.6163
8.5082 -2.3310 0.5987
8.5064 -1.5311 0.5866
8.5046 -0.7568 0.5794
8.5029 0.0048 0.5770
8.5012 0.7662 0.5793
8.4994 1.5398 0.5862
8.4976 2.3384 0.5981
8.4957 3.1771 0.6155
8.4936 4.0735 0.6393
24.6600 14.6652 1.9471
23.2645 16.8145 1.9480
21.6717 18.8228 1.9480
5.7808 6.0058 0.5657
17.9820 22.3743 1.9480
5.7156 8.5797 0.6996
9.0512 16.6339 1.2851
7.7746 17.9363 1.3267
6.4014 19.3371 1.3823
7.0490 30.0563 2.0951
4.3397 30.5652 2.0951
1.5958 30.8305 2.0951
-1.1608 30.8499 2.0951
-3.9082 30.6234 2.0951
-2.8467 12.9574 0.9003
-4.0911 12.9684 0.9228
-11.8771 28.4956 2.0951
-14.3717 27.3225 2.0951
-9.6564 14.9480 1.2077
-12.7868 16.3779 1.4101
-12.7992 13.6784 1.2713
-14.5885 13.0362 1.3277
-22.8137 16.9837 1.9301
-24.0816 14.7850 1.9177
-24.8674 12.3605 1.8846
-24.8613 9.6990 1.8110
-24.8556 7.2186 1.7565
-24.1817 4.7339 1.6722
-25.7757 2.6903 1.7587
-25.5401 0.3747 1.7334
-24.8028 -1.8551 1.6879
-9.4849 -1.5694 0.6524
-9.4887 -2.4563 0.6652
-9.4926 -3.3860 0.6840
-4.3331 -1.9975 0.3238
-4.0495 -2.3255 0.3169
-18.3367 -12.8323 1.5189
-16.7400 -14.0978 1.4852
-15.1056 -15.2225 1.4554
-13.4561 -16.2302 1.4308
-11.7979 -17.1381 1.4120
-10.1057 -17.9160 1.3959
-8.3858 -18.5659 1.3825
-6.6438 -19.0894 1.3717
-4.8849 -19.4884 1.3635
-3.1156 -19.7740 1.3585
-1.3368 -19.9377 1.3561
0.4469 -19.9705 1.3556
2.2290 -19.8724 1.3571
4.0029 -19.6434 1.3605
5.2706 -17.6397 1.2494
6.8708 -17.2186 1.2581
6.8815 -13.5809 1.0332
6.8756 -11.0078 0.8808
6.8712 -9.0830 0.7729
6.8678 -7.5674 0.6935
6.8680 -6.3281 0.6338
6.8970 -5.2997 0.5903
8.5152 -5.4083 0.6846
8.5129 -4.3944 0.6501
8.5108 -3.4706 0.6238
8.5089 -2.6123 0.6040
8.5070 -1.8003 0.5901
8.5052 -1.0189 0.5813
8.5035 -0.2544 0.5773
8.5017 0.5058 0.5780
8.5000 1.2737 0.5833
8.4982 2.0623 0.5935
8.4963 2.8855 0.6089
8.4943 3.7600 0.6304
25.0873 13.9026 1.9465
23.7660 16.0979 1.9480
22.2352 18.1538 1.9480
20.5271 20.0649 1.9480
18.6554 21.8161 1.9480
10.6607 14.9920 1.2484
9.4699 16.2068 1.2738
8.2194 17.4825 1.3110
6.8828 18.8460 1.3616
7.7599 29.0722 2.0420
5.2690 30.4188 2.0951
2.5344 30.7676 2.0951
-0.1045 14.6443 0.9938
-2.9733 30.7283 2.0951
-2.4347 12.9537 0.8945
-3.6595 12.9646 0.9142
-11.0034 28.8442 2.0951
-13.5325 27.7477 2.0951
-9.6693 16.0185 1.2698
-10.5401 14.3831 1.2101
-12.7953 14.5378 1.3143
-13.7192 13.0326 1.2842
-22.3287 17.7050 1.9339
-23.6963 15.5620 1.9239
-24.7514 13.2582 1.9055
-24.8633 10.5836 1.8338
-24.8575 8.0480 1.7731
-24.1834 5.5042 1.6832
-25.7775 3.4873 1.7653
-24.1734 1.0920 1.6422
-25.1300 -1.1110 1.7071
-9.8449 -1.3222 0.6741
-9.4874 -2.1498 0.6602
-9.4912 -3.0629 0.6768
-4.4257 -1.8789 0.3263
-4.1482 -2.2169 0.3192
-3.8538 -2.5256 0.3127
-17.2893 -13.6822 1.4963
-15.6670 -14.8543 1.4651
-14.0128 -15.8903 1.4378
-12.3677 -16.8431 1.4181
-10.6863 -17.6651 1.4011
-8.9752 -18.3584 1.3868
-7.2402 -18.9249 1.3751
-5.4865 -19.3662 1.3660
-3.7200 -19.6882 1.3598
-1.9445 -19.8966 1.3567
-0.1617 -19.9740 1.3556
1.6217 -19.9206 1.3564
3.3991 -19.7362 1.3591
4.8036 -18.0660 1.2686
6.3267 -17.3750 1.2549
6.8840 -14.6786 1.1003
6.8774 -11.7959 0.9266
6.8726 -9.6844 0.8059
6.8689 -8.0483 0.7181
6.8684 -6.7266 0.6524
6.9244 -5.6645 0.6071
8.5161 -5.7804 0.6985
8.5137 -4.7288 0.6609
8.5115 -3.7773 0.6319
8.5095 -2.8991 0.6101
8.5076 -2.0732 0.5943
8.5058 -1.2830 0.5838
8.5041 -0.5141 0.5782
8.5023 0.2462 0.5772
8.5006 1.0101 0.5809
8.4988 1.7901 0.5894
8.4970 2.5998 0.6030
8.4950 3.4547 0.6224
25.4901 13.1272 1.9458
24.2403 15.3632 1.9476
22.7779 17.4679 1.9480
21.1289 19.4302 1.9480
19.3113 21.2376 1.9480
17.3398 22.8756 1.9480
9.7974 15.6521 1.2531
8.6542 17.0389 1.2969
7.2347 18.0802 1.3216
8.4971 28.3390 2.0078
6.1914 30.2352 2.0945
3.4706 30.6761 2.0951
0.3418 14.6441 0.9941
-2.0358 30.8046 2.0951
-2.3029 14.7077 1.0103
-3.2355 12.9608 0.9066
-4.5008 12.9720 0.9318
-12.6809 28.1471 2.0951
-15.1412 26.9036 2.0951
-9.8862 14.3906 1.1849
-12.7910 15.4582 1.3616
-12.9044 13.0292 1.2445
-20.8128 17.5618 1.8481
-23.2439 16.2997 1.9266
-24.4169 14.0527 1.9119
-24.8654 11.4915 1.8590
-24.8595 8.8941 1.7918
-24.8539 6.4592 1.7427
-25.7793 4.2910 1.7736
-25.7740 1.9526 1.7541
-25.4396 -0.3488 1.7266
-13.5378 -1.3998 0.9236
-9.4861 -1.8476 0.6559
-9.4899 -2.7462 0.6704
-9.4939 -3.6934 0.6913
-4.2449 -2.1049 0.3215
-3.9560 -2.4236 0.3148
-17.8339 -13.2500 1.5078
-16.2244 -14.4702 1.4753
-14.5796 -15.5512 1.4466
-12.9333 -16.5329 1.4245
-11.2635 -17.3993 1.4066
-9.5619 -18.1363 1.3914
-7.8344 -18.7458 1.3788
-6.0866 -19.2296 1.3688
-4.3234 -19.5892 1.3614
-2.5514 -19.8402 1.3575
-0.7704 -19.9623 1.3557
1.0136 -19.9535 1.3559
2.7938 -19.8138 1.3579
4.5648 -19.5484 1.3623
5.7806 -17.5182 1.2519
5.9168 -13.6862 1.0119
6.8794 -12.6716 0.9785
6.8741 -10.3403 0.8426
6.8701 -8.5650 0.7451
6.8668 -7.1478 0.6727
6.9478 -6.0462 0.6250
6.8873 -4.9879 0.5771
8.5145 -5.0746 0.6727
8.5122 -4.0925 0.6410
8.5102 -3.1918 0.6168
8.5083 -2.3501 0.5990
8.5064 -1.5495 0.5868
8.5047 -0.7748 0.5795
8.5029 -0.0130 0.5770
8.5012 0.7483 0.5792
8.4994 1.5214 0.5860
8.4976 2.3193 0.5978
8.4957 3.1569 0.6151
8.4937 4.0517 0.6386
24.6900 14.6134 1.9470
23.2995 16.7659 1.9480
21.7110 18.7775 1.9480
5.7881 5.9883 0.5652
