ply
format ascii 1.0
element vertex 2017
property float32 x
property float32 y
property float32 z
end_header
8.5034 -0.1981 -2.8217
8.5016 0.5631 -2.8265
8.4999 1.3330 -2.8542
8.4981 2.1246 -2.9059
8.4962 2.9521 -2.9838
8.4942 3.8324 -3.0914
27.5947 18.9873 -11.1121
26.2172 21.7308 -11.2967
5.9708 5.9247 -2.7904
22.4000 26.6025 -11.5371
5.9164 8.4574 -3.4241
-26.4880 8.2903 -9.2076
-26.6287 5.7844 -9.0399
-26.6231 3.3312 -8.9009
-26.6176 0.9334 -8.8356
-26.4012 -1.4369 -8.7714
-26.6067 -3.8525 -8.9187
-26.6011 -6.3188 -9.0703
-26.3843 -8.8209 -9.2290
8.7032 -14.5086 -5.6127
8.6973 -11.9350 -4.8991
8.6927 -9.9278 -4.3776
8.6890 -8.2951 -3.9852
8.5184 -6.7874 -3.6133
8.5157 -5.6202 -3.3848
8.5134 -4.5841 -3.2077
8.5112 -3.6439 -3.0714
8.5092 -2.7736 -2.9691
8.5074 -1.9531 -2.8957
8.5056 -1.1661 -2.8481
8.5038 -0.3984 -2.8242
8.5021 0.3624 -2.8231
8.5003 1.1288 -2.8447
8.4985 1.9134 -2.8899
8.4967 2.7299 -2.9606
8.4947 3.5945 -3.0600
29.2230 19.1104 -11.5835
27.1554 21.4508 -11.4802
24.8754 23.5480 -11.3633
23.8925 27.0562 -11.9745
5.2435 8.6582 -3.3580
-18.0656 17.6575 -8.3804
-26.4249 8.9585 -9.2564
-26.6302 6.4445 -9.0894
-26.4951 3.9505 -8.8868
-26.6190 1.5613 -8.8459
-26.6136 -0.8209 -8.8331
-26.3972 -3.1899 -8.8208
-26.6026 -5.6613 -9.0229
-26.5227 -8.1785 -9.2076
-16.7662 -22.2517 -9.2428
8.7050 -15.3177 -5.8448
8.6987 -12.5470 -5.0649
8.6938 -10.4137 -4.5003
8.6899 -8.6959 -4.0783
8.6866 -7.2622 -3.7561
8.5164 -5.9130 -3.4395
8.5140 -4.8462 -3.2500
8.5118 -3.8836 -3.1038
8.5097 -2.9971 -2.9930
8.5078 -2.1652 -2.9124
8.5060 -1.3708 -2.8582
8.5043 -0.5993 -2.8282
8.5025 0.1622 -2.8212
8.5008 0.9259 -2.8368
8.4990 1.7044 -2.8756
8.4972 2.5111 -2.9394
8.4952 3.3613 -3.0308
11.8896 8.9457 -4.9361
25.5045 23.0302 -11.4000
24.1275 26.0600 -11.7816
5.4272 8.5034 -3.3465
-26.6317 7.1121 -9.1445
-26.6260 4.6128 -8.9646
-26.6205 2.1910 -8.8610
-26.6150 -0.1944 -8.8296
-26.6096 -2.5820 -8.8690
-26.6041 -5.0104 -8.9809
-26.5983 -7.5212 -9.1698
5.9130 -13.8376 -4.9921
8.5742 -15.9500 -6.0074
8.7429 -13.2669 -5.2710
8.6249 -10.8398 -4.5955
8.6909 -9.1161 -4.1783
8.5912 -7.5328 -3.7905
8.5171 -6.2155 -3.4979
8.5058 -5.1103 -3.2918
8.5123 -4.1285 -3.1385
8.5103 -3.2242 -3.0191
8.5083 -2.3798 -2.9309
8.5065 -1.5770 -2.8701
8.5047 -0.8008 -2.8339
8.5030 -0.0379 -2.8208
8.5013 0.7240 -2.8304
8.4995 1.4974 -2.8631
8.4977 2.2953 -2.9201
8.4958 3.1324 -3.0039
8.4937 4.0263 -3.1183
27.2572 19.5211 -11.1222
26.3902 22.7257 -11.5535
5.8048 5.9810 -2.7650
24.1496 29.8013 -12.7250
5.6968 8.4789 -3.3888
-26.6333 7.7884 -9.2054
-26.6275 5.2613 -9.0043
-26.6219 2.8232 -8.8812
-26.6165 0.4319 -8.8310
-26.6110 -1.9513 -8.8517
-26.6055 -4.3651 -8.9442
-26.5999 -6.8499 -9.1122
-26.3831 -9.3763 -9.2887
-26.7190 -38.7743 -15.6214
8.7018 -13.9061 -5.4420
8.7582 -11.5551 -4.8100
8.6919 -9.5577 -4.2858
8.5921 -7.8988 -3.8718
8.5178 -6.5287 -3.5603
8.5152 -5.3925 -3.3437
8.5129 -4.3791 -3.1758
8.5108 -3.4556 -3.0473
8.5088 -2.5973 -2.9513
8.5070 -1.7851 -2.8836
8.5052 -1.0033 -2.8411
8.5034 -0.2381 -2.8221
8.5017 0.5229 -2.8257
8.5000 1.2921 -2.8522
8.4982 2.0821 -2.9026
8.4963 2.9073 -2.9790
8.4943 3.7844 -3.0849
31.8669 21.7065 -12.7912
26.1673 21.4824 -11.2315
24.7258 24.3050 -11.5020
22.6899 26.6908 -11.6216
-26.4487 8.4149 -9.2076
-26.6290 5.9159 -9.0494
-26.6234 3.4585 -8.9063
-26.6179 1.0589 -8.8373
-26.6125 -1.3227 -8.8394
-26.6070 -3.7247 -8.9128
-26.6014 -6.1867 -9.0604
-26.3846 -8.6831 -9.2148
8.7035 -14.6652 -5.6574
8.6976 -12.0542 -4.9312
8.6773 -10.0048 -4.3935
8.6892 -8.3738 -4.0033
8.6860 -6.9881 -3.6983
8.5159 -5.6780 -3.3955
8.5135 -4.6360 -3.2159
8.5113 -3.6914 -3.0777
8.5093 -2.8180 -2.9737
8.5075 -1.9953 -2.8989
8.5057 -1.2069 -2.8500
8.5039 -0.4386 -2.8249
8.5022 0.3224 -2.8226
8.5004 1.0882 -2.8430
8.4986 1.8714 -2.8869
8.4968 2.6859 -2.9562
8.4948 3.5475 -3.0540
31.6549 20.4886 -12.5090
25.9297 20.2850 -10.9215
25.0646 23.5044 -11.3991
24.5171 27.5016 -12.2225
5.2581 8.5908 -3.3414
-17.9048 17.6659 -8.3443
-26.4252 9.0976 -9.2714
-26.6305 6.5775 -9.1000
-26.6248 4.0980 -8.9366
-26.6193 1.6871 -8.8485
-26.6139 -0.6955 -8.8320
-26.6082 -3.0884 -8.8863
-26.6029 -5.5307 -9.0140
-26.5609 -8.0536 -9.2076
-16.9125 -22.2275 -9.2657
8.7054 -15.4876 -5.8939
8.6898 -12.6611 -5.0944
8.6940 -10.5142 -4.5260
8.6901 -8.7783 -4.0978
8.6868 -7.3320 -3.7711
8.5165 -5.9727 -3.4508
8.5141 -4.8995 -3.2588
8.5119 -3.9321 -3.1105
8.5098 -3.0422 -2.9981
8.5079 -2.2079 -2.9159
8.5061 -1.4119 -2.8605
-26.4291 10.8033 -9.2771
-26.6342 8.1986 -9.0547
-26.6284 5.6532 -8.8449
-26.6228 3.2039 -8.7127
-26.6173 0.8080 -8.6525
-26.4009 -1.5615 -8.5932
-26.6064 -3.9804 -8.7412
-26.6008 -6.4512 -8.8937
-26.5949 -9.0307 -9.1258
-27.3719 -38.5457 -15.3608
8.7028 -14.3544 -5.4543
8.6269 -11.7222 -4.7291
8.6925 -9.8338 -4.2645
8.5926 -8.1261 -3.8427
8.5182 -6.7220 -3.5257
8.5156 -5.5628 -3.3049
8.5132 -4.5324 -3.1337
8.5111 -3.5965 -3.0022
8.5091 -2.7293 -2.9035
8.5073 -1.9110 -2.8331
8.5055 -1.1253 -2.7877
8.5037 -0.3583 -2.7655
8.5020 0.4025 -2.7656
8.5002 1.1696 -2.7879
8.4984 1.9555 -2.8335
8.4966 2.7741 -2.9041
8.4946 3.6417 -3.0030
29.1740 19.2750 -11.3613
25.9910 20.7304 -10.8022
25.2907 24.1679 -11.3662
23.6897 27.0826 -11.6911
-18.2785 17.6980 -8.2668
-26.6358 8.8904 -9.1238
-26.6299 6.3118 -8.8923
-26.6243 3.8417 -8.7403
-26.6188 1.4356 -8.6615
-26.6133 -0.9463 -8.6527
-26.6079 -3.3425 -8.7134
-26.5162 -5.7736 -8.8175
-26.5965 -8.3386 -9.0565
-26.3795 -10.9434 -9.2795
8.7046 -15.1505 -5.6773
8.6984 -12.4213 -4.9271
8.6936 -10.3143 -4.3830
8.5935 -8.5188 -3.9316
8.6865 -7.1928 -3.6644
8.5163 -5.8537 -3.3577
8.5138 -4.7932 -3.1746
8.5117 -3.8352 -3.0334
8.5096 -2.9520 -2.9266
8.5078 -2.1225 -2.8491
8.5059 -1.3297 -2.7973
8.5042 -0.5591 -2.7691
8.5024 0.2022 -2.7634
8.5007 0.9664 -2.7798
8.4989 1.7461 -2.8191
8.4971 2.5546 -2.8829
8.4951 3.4076 -2.9740
11.9165 9.0541 -4.8627
25.3991 23.1530 -11.1669
23.8376 25.9912 -11.4590
5.4232 8.5859 -3.2996
-26.6374 9.5933 -9.1992
-26.6314 6.9779 -8.9452
-26.6257 4.4838 -8.7730
-26.6202 2.0648 -8.6754
-26.6148 -0.3197 -8.6483
-26.6093 -2.7084 -8.6906
-26.6038 -5.1402 -8.8040
-26.5980 -7.6566 -8.9932
-26.4232 -10.2397 -9.2076
-17.4235 -22.2404 -9.1798
5.9834 -13.8221 -4.8938
8.7066 -16.0150 -5.9229
8.7426 -13.1315 -5.1258
8.6933 -10.8208 -4.5100
8.6907 -9.0304 -4.0722
8.6873 -7.5450 -3.7386
8.5169 -6.1542 -3.4142
8.5144 -5.0610 -3.2183
8.5122 -4.0791 -3.0669
8.5102 -3.1785 -2.9517
8.5082 -2.3366 -2.8669
8.5064 -1.5356 -2.8086
8.5046 -0.7604 -2.7743
8.5029 0.0021 -2.7628
8.5012 0.7643 -2.7733
8.4994 1.5387 -2.8065
8.4976 2.3382 -2.8636
8.4957 3.1778 -2.9472
8.4936 4.0753 -3.0610
27.0756 19.5845 -10.8576
26.4166 22.9659 -11.3734
5.7882 6.0204 -2.7136
24.0179 29.9256 -12.4678
5.6460 8.4895 -3.3127
-26.4283 10.2267 -9.2076
-26.6330 7.6524 -9.0037
-26.6272 5.1311 -8.8109
-26.4106 2.6751 -8.6252
-26.6162 0.3066 -8.6487
-26.6108 -2.0773 -8.6727
-26.3943 -4.4582 -8.6975
-26.5996 -6.9836 -8.9356
-26.5936 -9.5923 -9.1857
-26.5467 -38.9152 -15.3061
8.5329 -16.6157 -6.0691
8.6098 -13.6160 -5.2344
8.7579 -11.4425 -4.6819
8.6917 -9.4675 -4.1759
8.6236 -7.8532 -3.7897
8.5176 -6.4651 -3.4745
8.5151 -5.3365 -3.2652
8.5128 -4.3285 -3.1030
8.5107 -3.4090 -2.9789
8.5087 -2.5536 -2.8865
8.5069 -1.7433 -2.8215
8.5051 -0.9627 -2.7811
8.5034 -0.1981 -2.7637
8.5016 0.5631 -2.7684
8.4999 1.3330 -2.7955
8.4981 2.1246 -2.8462
8.4962 2.9521 -2.9225
8.4942 3.8324 -3.0278
29.1243 20.0397 -11.4868
26.1862 21.7051 -11.0512
5.9704 5.9243 -2.7329
22.4964 26.7171 -11.3484
5.9164 8.4574 -3.3536
-26.6345 8.3361 -9.0680
-26.6287 5.7844 -8.8540
-26.6231 3.3312 -8.7178
-26.6176 0.9334 -8.6539
-26.4012 -1.4369 -8.5910
-26.6067 -3.8525 -8.7352
-26.6011 -6.3188 -8.8837
-26.5952 -8.8914 -9.1114
-27.6213 -38.5117 -15.3989
8.7032 -14.5086 -5.4972
8.6973 -11.9350 -4.7983
8.6927 -9.9278 -4.2875
8.5928 -8.2032 -3.8600
8.5184 -6.7874 -3.5390
8.5157 -5.6203 -3.3152
8.5134 -4.5841 -3.1417
8.5112 -3.6439 -3.0082
8.5092 -2.7736 -2.9080
8.5074 -1.9531 -2.8361
8.5056 -1.1661 -2.7895
8.5038 -0.3984 -2.7661
8.5021 0.3624 -2.7650
8.5003 1.1288 -2.7862
8.4985 1.9134 -2.8305
8.4967 2.7299 -2.8997
8.4947 3.5945 -2.9970
29.1864 19.0864 -11.3310
27.1637 21.4573 -11.2475
24.8510 23.5250 -11.1187
23.9993 27.1772 -11.7806
-26.6361 9.0301 -9.1384
-26.6302 6.4445 -8.9024
-26.4951 3.9505 -8.7040
-26.6190 1.5613 -8.6639
-26.6136 -0.8209 -8.6514
-26.3972 -3.1899 -8.6394
-26.6026 -5.6613 -8.8373
-26.5968 -8.2014 -9.0433
-26.3798 -10.7983 -9.2616
8.7050 -15.3177 -5.7246
8.6987 -12.5470 -4.9607
8.6938 -10.4137 -4.4078
8.6899 -8.6959 -3.9944
8.6866 -7.2622 -3.6789
8.5164 -5.9130 -3.3687
8.5140 -4.8462 -3.1831
8.5118 -3.8836 -3.0399
8.5097 -2.9971 -2.9315
8.5078 -2.1652 -2.8525
8.5060 -1.3708 -2.7994
8.5043 -0.5993 -2.7701
8.5025 0.1622 -2.7631
8.5008 0.9259 -2.7784
8.4990 1.7044 -2.8165
8.4972 2.5111 -2.8789
8.4952 3.3613 -2.9685
11.8893 8.9455 -4.8344
25.3655 22.9047 -11.1046
24.1752 26.1114 -11.5621
5.4608 8.5560 -3.2980
-26.6161 9.7274 -9.2076
-26.6317 7.1121 -8.9564
-26.6260 4.6128 -8.7802
-26.6205 2.1910 -8.6788
-26.6150 -0.1944 -8.6480
-26.6096 -2.5820 -8.6866
-26.6041 -5.0104 -8.7961
-26.5983 -7.5212 -8.9812
-26.4712 -10.1151 -9.2076
-17.5783 -22.2217 -9.2062
5.9128 -13.8372 -4.8893
8.7070 -16.1969 -5.9749
8.7429 -13.2669 -5.1625
8.6249 -10.8398 -4.5009
8.6909 -9.1161 -4.0924
8.6874 -7.6172 -3.7541
8.5171 -6.2155 -3.4259
8.5146 -5.1155 -3.2275
8.5123 -4.1285 -3.0740
8.5103 -3.2242 -2.9570
8.5083 -2.3798 -2.8706
8.5065 -1.5770 -2.8110
8.5047 -0.8008 -2.7756
8.5030 -0.0379 -2.7628
8.5013 0.7240 -2.7722
8.4995 1.4974 -2.8042
8.4977 2.2953 -2.8600
8.4958 3.1324 -2.9421
8.4937 4.0263 -3.0541
27.1595 19.4512 -10.8544
26.3912 22.7266 -11.3163
5.8046 5.9809 -2.7080
24.2133 29.8799 -12.4961
5.7001 8.4839 -3.3210
-26.4281 10.3699 -9.2244
-26.6333 7.7884 -9.0161
-26.6275 5.2613 -8.8191
-26.6219 2.8232 -8.6985
-26.6165 0.4319 -8.6494
-26.6110 -1.9513 -8.6697
-26.6055 -4.3651 -8.7602
-26.5999 -6.8499 -8.9248
-26.5939 -9.4512 -9.1703
-26.7189 -38.7741 -15.3000
8.7018 -13.9061 -5.3301
8.7582 -11.5551 -4.7111
8.6919 -9.5577 -4.1976
8.5921 -7.8988 -3.7922
8.5178 -6.5287 -3.4870
8.5152 -5.3925 -3.2749
8.5129 -4.3791 -3.1105
8.5108 -3.4556 -2.9846
8.5088 -2.5973 -2.8906
8.5070 -1.7851 -2.8243
8.5052 -1.0033 -2.7827
8.5034 -0.2381 -2.7640
8.5017 0.5229 -2.7676
8.5000 1.2921 -2.7935
8.4982 2.0821 -2.8429
8.4963 2.9073 -2.9178
8.4943 3.7844 -3.0215
29.1368 19.8469 -11.4548
26.1365 21.4571 -10.9875
24.6603 24.2407 -11.2356
22.7883 26.8066 -11.4319
-26.6348 8.4741 -9.0816
-26.6290 5.9159 -8.8632
-26.6234 3.4585 -8.7231
-26.6179 1.0589 -8.6555
-26.6125 -1.3227 -8.6576
-26.6070 -3.7247 -8.7294
-26.6014 -6.1867 -8.8740
-26.5955 -8.7526 -9.0973
8.7035 -14.6652 -5.5410
8.6976 -12.0542 -4.8298
8.6773 -10.0048 -4.3031
8.5929 -8.2811 -3.8775
8.6860 -6.9881 -3.6222
8.5159 -5.6781 -3.3256
8.5135 -4.6360 -3.1497
8.5113 -3.6914 -3.0144
8.5093 -2.8180 -2.9125
8.5075 -1.9953 -2.8393
8.5057 -1.2069 -2.7913
8.5039 -0.4386 -2.7668
8.5022 0.3224 -2.7645
8.5004 1.0882 -2.7845
8.4986 1.8714 -2.8275
8.4968 2.6859 -2.8954
8.4948 3.5475 -2.9911
29.1987 18.8988 -11.3011
27.7843 21.7359 -11.4620
25.0400 23.4814 -11.1537
24.4791 27.4590 -11.9525
-26.6364 9.1703 -9.1532
-26.6305 6.5775 -8.9128
-26.6248 4.0980 -8.7528
-26.6193 1.6871 -8.6665
-26.6139 -0.6955 -8.6503
-26.6082 -3.0884 -8.7036
-26.6029 -5.5307 -8.8286
-26.5971 -8.0645 -9.0304
-26.3801 -10.6537 -9.2440
8.7054 -15.4876 -5.7727
8.6898 -12.6611 -4.9896
8.6940 -10.5142 -4.4329
8.6901 -8.7783 -4.0135
8.6868 -7.3320 -3.6935
8.5165 -5.9727 -3.3799
8.5141 -4.8995 -3.1917
8.5119 -3.9321 -3.0465
8.5098 -3.0422 -2.9364
8.5079 -2.2079 -2.8560
8.5061 -1.4119 -2.8016
-26.6403 10.8897 -9.1556
-26.6342 8.1986 -8.8653
-26.6284 5.6532 -8.6599
-26.4117 3.1785 -8.4628
-26.5595 0.8062 -8.4531
-26.4009 -1.5615 -8.4134
-26.3955 -3.9488 -8.4904
-26.6008 -6.4512 -8.7076
-26.5949 -9.0307 -8.9349
-26.4659 -11.7166 -9.2076
-27.5154 -38.7478 -15.1183
8.7028 -14.3544 -5.3402
8.6269 -11.7222 -4.6301
8.6925 -9.8338 -4.1753
8.6564 -8.1864 -3.7902
8.5182 -6.7220 -3.4520
8.5156 -5.5628 -3.2358
8.5132 -4.5324 -3.0682
8.5111 -3.5965 -2.9394
8.5091 -2.7293 -2.8428
8.5073 -1.9110 -2.7738
8.5055 -1.1253 -2.7294
8.5037 -0.3583 -2.7076
8.5020 0.4025 -2.7077
8.5002 1.1696 -2.7296
8.4984 1.9555 -2.7742
8.4966 2.7741 -2.8434
8.4946 3.6417 -2.9402
29.1375 19.2509 -11.1097
25.9610 20.7065 -10.5640
25.2234 24.1036 -11.0988
23.7949 27.2028 -11.4974
-26.5264 11.5788 -9.2076
-26.6358 8.8904 -8.9330
-26.6299 6.3118 -8.7063
-26.4131 3.8112 -8.4896
-26.5332 1.4310 -8.4531
-26.5550 -0.9443 -8.4531
-26.3969 -3.3160 -8.4635
-26.5162 -5.7736 -8.6330
-26.5965 -8.3386 -8.8670
-26.5903 -11.0309 -9.1580
8.7046 -15.1505 -5.5586
8.6984 -12.4213 -4.8240
8.6936 -10.3143 -4.2913
8.5935 -8.5188 -3.8494
8.6865 -7.1928 -3.5878
8.5163 -5.8537 -3.2875
8.5138 -4.7932 -3.1082
8.5117 -3.8352 -2.9699
8.5096 -2.9520 -2.8654
8.5078 -2.1225 -2.7895
8.5059 -1.3297 -2.7388
8.5042 -0.5591 -2.7112
8.5024 0.2022 -2.7056
8.5007 0.9664 -2.7217
8.4989 1.7461 -2.7602
8.4971 2.5546 -2.8226
8.4951 3.4076 -2.9118
11.9159 9.0537 -4.7608
25.2613 23.0273 -10.8740
23.8842 26.0420 -11.2412
-26.4325 12.2862 -9.2728
-26.6374 9.5933 -9.0068
-26.6314 6.9779 -8.7581
-26.6257 4.4838 -8.5895
-26.4922 2.0549 -8.4531
-26.5699 -0.3192 -8.4531
-21.1801 -2.1558 -6.7727
-26.6038 -5.1402 -8.6198
-26.5980 -7.6566 -8.8050
-26.5920 -10.3051 -9.0725
5.9832 -13.8216 -4.7913
8.7066 -16.0150 -5.7990
8.7426 -13.1315 -5.0186
8.6933 -10.8208 -4.4157
8.6907 -9.0304 -3.9870
8.6873 -7.5450 -3.6604
8.5169 -6.1542 -3.3427
8.5144 -5.0611 -3.1510
8.5122 -4.0791 -3.0028
8.5102 -3.1785 -2.8899
8.5082 -2.3366 -2.8069
8.5064 -1.5356 -2.7498
8.5046 -0.7604 -2.7163
8.5029 0.0021 -2.7050
8.5012 0.7643 -2.7153
8.4994 1.5387 -2.7478
8.4976 2.3382 -2.8037
8.4957 3.1778 -2.8855
8.4936 4.0753 -2.9969
27.5796 19.9491 -10.8283
26.4177 22.9669 -11.1360
5.7880 6.0202 -2.6567
24.0810 30.0043 -12.2390
5.6749 8.5329 -3.2600
-26.6390 10.3082 -9.0868
-26.6330 7.6524 -8.8154
-26.6272 5.1311 -8.6266
-26.4106 2.6751 -8.4448
-26.5700 0.3061 -8.4531
-26.4912 -2.0679 -8.4531
-26.3943 -4.4582 -8.5156
-26.5996 -6.9836 -8.7487
-26.5936 -9.5923 -8.9935
-26.3764 -12.2759 -9.2552
-26.7812 -39.2589 -15.1183
8.6262 -16.7975 -6.0071
8.6098 -13.6160 -5.1249
8.7579 -11.4425 -4.5840
8.6917 -9.4675 -4.0886
8.6881 -7.9120 -3.7382
8.5176 -6.4651 -3.4018
8.5151 -5.3365 -3.1969
8.5128 -4.3285 -3.0381
8.5107 -3.4090 -2.9166
8.5087 -2.5536 -2.8261
8.5069 -1.7433 -2.7625
8.5051 -0.9627 -2.7229
8.5034 -0.1981 -2.7058
8.5016 0.5631 -2.7105
8.4999 1.3330 -2.7371
8.4981 2.1246 -2.7866
8.4962 2.9521 -2.8613
8.4942 3.8324 -2.9645
29.0875 20.0144 -11.2323
26.1553 21.6795 -10.8073
5.9700 5.9239 -2.6755
22.5934 26.8321 -11.1589
5.9164 8.4574 -3.2835
-18.9205 17.6420 -8.2296
-26.6407 11.0365 -9.1735
-26.6345 8.3361 -8.8784
-26.6287 5.7844 -8.6688
-26.4120 3.3048 -8.4678
-26.5555 0.9313 -8.4531
-26.4012 -1.4369 -8.4112
-26.3957 -3.8219 -8.4846
-26.6011 -6.3188 -8.6979
-26.5952 -8.8914 -8.9208
-26.5207 -11.5919 -9.2076
-27.6975 -38.6179 -15.1183
8.7032 -14.5086 -5.3823
8.6973 -11.9350 -4.6980
8.6927 -9.9278 -4.1978
8.6179 -8.2272 -3.7903
8.5184 -6.7874 -3.4649
8.5157 -5.6203 -3.2459
8.5134 -4.5841 -3.0760
8.5112 -3.6439 -2.9453
8.5092 -2.7736 -2.8471
8.5074 -1.9531 -2.7768
8.5056 -1.1661 -2.7311
8.5038 -0.3984 -2.7082
8.5021 0.3624 -2.7072
8.5003 1.1288 -2.7279
8.4985 1.9134 -2.7713
8.4967 2.7299 -2.8391
8.4947 3.5945 -2.9343
29.1499 19.0626 -11.0801
27.1720 21.4638 -11.0156
24.8268 23.5021 -10.8755
24.3984 27.6292 -11.7260
-26.4716 11.7036 -9.2076
-26.6361 9.0301 -8.9473
-26.6302 6.4445 -8.7162
-26.4134 3.9383 -8.4956
-26.5262 1.5558 -8.4531
-26.5592 -0.8193 -8.4531
-26.3972 -3.1899 -8.4586
-26.6026 -5.6613 -8.6524
-26.5968 -8.2014 -8.8542
-26.5906 -10.8846 -9.1404
8.7050 -15.3177 -5.6048
8.6987 -12.5470 -4.8569
8.6938 -10.4137 -4.3156
8.6899 -8.6959 -3.9109
8.6866 -7.2622 -3.6019
8.5164 -5.9130 -3.2982
8.5140 -4.8462 -3.1165
8.5118 -3.8836 -2.9763
8.5097 -2.9971 -2.8701
8.5078 -2.1652 -2.7928
8.5060 -1.3708 -2.7409
8.5043 -0.5993 -2.7121
8.5025 0.1622 -2.7053
8.5008 0.9259 -2.7203
8.4990 1.7044 -2.7576
8.4972 2.5111 -2.8187
8.4952 3.3613 -2.9064
11.8890 8.9453 -4.7331
25.7827 23.2814 -11.0511
24.2228 26.1629 -11.3425
-26.6377 9.7353 -9.0223
-26.6317 7.1121 -8.7691
-26.6260 4.6128 -8.5965
-26.4822 2.1796 -8.4531
-26.5711 -0.1941 -8.4531
-26.4476 -2.5663 -8.4531
-26.6041 -5.0104 -8.6121
-26.5983 -7.5212 -8.7933
-26.5923 -10.1614 -9.0562
5.9127 -13.8369 -4.7869
8.7070 -16.1969 -5.8499
8.7429 -13.2669 -5.0545
8.6249 -10.8398 -4.4068
8.6909 -9.1161 -4.0068
8.6874 -7.6172 -3.6756
8.5171 -6.2155 -3.3542
8.5146 -5.1155 -3.1599
8.5123 -4.1285 -3.0097
8.5103 -3.2242 -2.8951
8.5083 -2.3798 -2.8106
8.5065 -1.5770 -2.7522
8.5047 -0.8008 -2.7175
8.5030 -0.0379 -2.7050
8.5013 0.7240 -2.7142
8.4995 1.4974 -2.7455
8.4977 2.2953 -2.8002
8.4958 3.1324 -2.8805
8.4937 4.0263 -2.9903
27.6538 19.8052 -10.8208
26.3924 22.7277 -11.0801
5.8045 5.9807 -2.6513
24.2771 29.9586 -12.2669
5.7228 8.5177 -3.2645
-26.6394 10.4528 -9.1036
-26.6333 7.7884 -8.8275
-26.6275 5.2613 -8.6346
-26.4236 2.8022 -8.4531
-26.5683 0.4311 -8.4531
-26.5006 -1.9432 -8.4531
-26.3946 -4.3305 -8.5090
-26.5999 -6.8499 -8.7381
-26.5939 -9.4512 -8.9785
-26.3768 -12.1254 -9.2352
-26.9657 -39.1324 -15.1183
8.7018 -13.9061 -5.2186
8.7582 -11.5551 -4.6125
8.6919 -9.5577 -4.1098
8.6883 -7.9873 -3.7544
8.5178 -6.5287 -3.4141
8.5152 -5.3925 -3.2064
8.5129 -4.3792 -3.0455
8.5108 -3.4556 -2.9221
8.5088 -2.5973 -2.8302
8.5070 -1.7851 -2.7652
8.5052 -1.0033 -2.7245
8.5034 -0.2381 -2.7062
8.5017 0.5229 -2.7097
8.5000 1.2921 -2.7351
8.4982 2.0821 -2.7834
8.4963 2.9073 -2.8567
8.4943 3.7844 -2.9583
29.1000 19.8219 -11.2010
26.1058 21.4319 -10.7450
24.5955 24.1769 -10.9716
22.8872 26.9229 -11.2414
-18.7669 17.6646 -8.1989
-26.6410 11.1838 -9.1916
-26.6348 8.4741 -8.8917
-26.6290 5.9159 -8.6778
-26.4123 3.4311 -8.4729
-26.5508 1.0562 -8.4531
-26.5390 -1.3191 -8.4531
-26.3960 -3.6952 -8.4791
-26.6014 -6.1867 -8.6884
-26.5955 -8.7526 -8.9070
-26.5750 -11.4669 -9.2076
-27.8974 -38.5123 -15.1283
8.6797 -14.6251 -5.4102
8.6976 -12.0542 -4.7287
8.6773 -10.0048 -4.2131
8.5929 -8.2811 -3.7964
8.6860 -6.9881 -3.5465
8.5159 -5.6780 -3.2561
8.5135 -4.6360 -3.0838
8.5113 -3.6914 -2.9513
8.5093 -2.8180 -2.8516
8.5075 -1.9953 -2.7799
8.5057 -1.2069 -2.7329
8.5039 -0.4386 -2.7089
8.5022 0.3224 -2.7067
8.5004 1.0882 -2.7262
8.4986 1.8714 -2.7684
8.4968 2.6859 -2.8349
8.4948 3.5475 -2.9286
29.1623 18.8753 -11.0509
27.1768 21.2606 -10.9768
25.0155 23.4585 -10.9097
23.8088 26.7071 -11.3821
-26.4315 11.8349 -9.2129
-26.6364 9.1703 -8.9618
-26.6305 6.5775 -8.7263
-26.4137 4.0655 -8.5018
-26.5186 1.6807 -8.4531
-26.5627 -0.6942 -8.4531
-26.3975 -3.0639 -8.4540
-26.6029 -5.5307 -8.6439
-26.5971 -8.0646 -8.8415
-26.5910 -10.7388 -9.1230
8.7054 -15.4876 -5.6519
8.6898 -12.6611 -4.8852
8.6940 -10.5142 -4.3402
8.6901 -8.7783 -3.9295
8.6868 -7.3320 -3.6162
8.5165 -5.9727 -3.3092
8.5141 -4.8995 -3.1250
8.5119 -3.9321 -2.9828
8.5098 -3.0422 -2.8750
8.5079 -2.2079 -2.7962
8.5061 -1.4119 -2.7430
-19.1455 17.6840 -8.1147
-26.4357 13.6776 -9.2672
-26.6403 10.8896 -8.9607
-26.6342 8.1986 -8.6766
-26.5577 5.6382 -8.4531
-26.6228 3.2039 -8.3489
-26.6173 0.8080 -8.2912
-26.4009 -1.5615 -8.2343
-26.6064 -3.9804 -8.3762
-26.3899 -6.4000 -8.4547
-26.5949 -9.0307 -8.7447
-26.5886 -11.7710 -9.0534
8.7028 -14.3544 -5.2265
8.6269 -11.7222 -4.5316
8.6925 -9.8338 -4.0865
8.6888 -8.2171 -3.7234
8.5182 -6.7220 -3.3785
8.5156 -5.5628 -3.1669
8.5132 -4.5324 -3.0029
8.5111 -3.5965 -2.8768
8.5091 -2.7293 -2.7823
8.5073 -1.9110 -2.7148
8.5055 -1.1253 -2.6713
8.5037 -0.3583 -2.6500
8.5020 0.4025 -2.6501
8.5002 1.1696 -2.6715
8.4984 1.9555 -2.7152
8.4966 2.7741 -2.7829
8.4946 3.6417 -2.8776
29.1012 19.2269 -10.8597
25.9312 20.6828 -10.3274
25.1567 24.0399 -10.8339
24.3176 27.8004 -11.4999
-26.6420 11.6293 -9.0509
-26.6358 8.8904 -8.7429
-26.4187 6.2618 -8.4534
-26.6243 3.8417 -8.3754
-26.6188 1.4356 -8.2999
-26.6133 -0.9463 -8.2914
-26.6079 -3.3425 -8.3495
-26.5162 -5.7736 -8.4493
-26.5965 -8.3386 -8.6783
-26.5903 -11.0309 -8.9631
-26.3729 -13.8194 -9.2703
8.6345 -15.0284 -5.3964
8.6984 -12.4213 -4.7214
8.6936 -10.3143 -4.2000
8.6466 -8.5714 -3.7907
8.6865 -7.1928 -3.5114
8.5163 -5.8537 -3.2175
8.5138 -4.7932 -3.0420
8.5117 -3.8352 -2.9067
8.5096 -2.9520 -2.8044
8.5078 -2.1225 -2.7301
8.5059 -1.3297 -2.6805
8.5042 -0.5591 -2.6535
8.5024 0.2022 -2.6480
8.5007 0.9664 -2.6638
8.4989 1.7461 -2.7014
8.4971 2.5546 -2.7626
8.4951 3.4076 -2.8498
11.9152 9.0532 -4.6592
25.5639 23.3032 -10.7701
23.9307 26.0927 -11.0234
-26.6438 12.3844 -9.1480
-26.6374 9.5932 -8.8151
-26.4203 6.9226 -8.5037
-26.6257 4.4838 -8.4067
-26.6202 2.0648 -8.3132
-26.6148 -0.3197 -8.2872
-21.1442 -2.1522 -6.6173
-26.6038 -5.1402 -8.4363
-26.5980 -7.6566 -8.6176
-26.5920 -10.3051 -8.8794
-26.5102 -13.1057 -9.2076
5.9830 -13.8210 -4.6891
8.7066 -16.0150 -5.6755
8.7426 -13.1315 -4.9118
8.6933 -10.8208 -4.3217
8.6907 -9.0304 -3.9022
8.6873 -7.5450 -3.5825
8.5169 -6.1542 -3.2716
8.5144 -5.0611 -3.0840
8.5122 -4.0791 -2.9389
8.5102 -3.1785 -2.8284
8.5082 -2.3366 -2.7471
8.5064 -1.5356 -2.6913
8.5046 -0.7604 -2.6585
8.5029 0.0021 -2.6474
8.5012 0.7643 -2.6575
8.4994 1.5387 -2.6893
8.4976 2.3382 -2.7441
8.4957 3.1778 -2.8241
8.4936 4.0753 -2.9332
27.5514 19.9287 -10.5870
26.4189 22.9678 -10.8995
5.7878 6.0200 -2.6001
24.1441 30.0830 -12.0100
5.7127 8.5898 -3.2119
-26.5166 13.0927 -9.2076
-26.6390 10.3082 -8.8934
-26.6330 7.6524 -8.6277
-26.6272 5.1311 -8.4430
-26.4106 2.6751 -8.2651
-26.6162 0.3066 -8.2876
-26.6108 -2.0773 -8.3105
-26.3943 -4.4582 -8.3343
-26.3887 -6.9282 -8.4946
-26.5936 -9.5923 -8.8021
-26.5872 -12.3740 -9.1306
8.6098 -13.6160 -5.0158
8.7579 -11.4425 -4.4864
8.6917 -9.4675 -4.0016
8.6881 -7.9120 -3.6587
8.5176 -6.4651 -3.3294
8.5151 -5.3365 -3.1288
8.5128 -4.3285 -2.9734
8.5107 -3.4090 -2.8545
8.5087 -2.5536 -2.7659
8.5069 -1.7433 -2.7037
8.5051 -0.9627 -2.6650
8.5034 -0.1981 -2.6483
8.5016 0.5631 -2.6528
8.4999 1.3330 -2.6788
8.4981 2.1246 -2.7273
8.4962 2.9521 -2.8004
8.4942 3.8324 -2.9014
29.0508 19.9892 -10.9794
26.1246 21.6541 -10.5649
5.9696 5.9235 -2.6184
22.6907 26.9478 -10.9685
5.9164 8.4574 -3.2136
-26.6407 11.0365 -8.9782
-26.6345 8.3361 -8.6894
-26.5308 5.7632 -8.4531
-26.6231 3.3312 -8.3538
-26.6176 0.9334 -8.2926
-26.4012 -1.4369 -8.2322
-26.6067 -3.8525 -8.3705
-26.4146 -6.2745 -8.4531
-26.5952 -8.8914 -8.7310
-26.5890 -11.6217 -9.0348
8.7032 -14.5086 -5.2677
8.6973 -11.9350 -4.5980
8.6927 -9.9278 -4.1085
8.6890 -8.2951 -3.7402
8.5184 -6.7874 -3.3912
8.5157 -5.6202 -3.1768
8.5134 -4.5841 -3.0105
8.5112 -3.6439 -2.8826
8.5092 -2.7736 -2.7866
8.5074 -1.9531 -2.7177
8.5056 -1.1661 -2.6730
8.5038 -0.3984 -2.6506
8.5021 0.3624 -2.6496
8.5003 1.1288 -2.6698
8.4985 1.9134 -2.7123
8.4967 2.7299 -2.7787
8.4947 3.5945 -2.8719
29.1137 19.0389 -10.8308
27.1802 21.4704 -10.7844
24.8028 23.4793 -10.6338
23.6369 26.7668 -11.1182
-26.6424 11.7791 -9.0697
-26.6361 9.0301 -8.7568
-26.4191 6.3934 -8.4631
-26.4951 3.9505 -8.3405
-26.6190 1.5613 -8.3022
-26.6136 -0.8209 -8.2902
-26.3972 -3.1899 -8.2786
-26.5549 -5.6512 -8.4531
-26.5968 -8.2014 -8.6657
-26.5906 -10.8846 -8.9458
-26.3733 -13.6617 -9.2477
8.6349 -15.1943 -5.4414
8.6987 -12.5470 -4.7535
8.6938 -10.4137 -4.2237
8.6899 -8.6959 -3.8277
8.6866 -7.2622 -3.5253
8.5164 -5.9130 -3.2281
8.5140 -4.8462 -3.0502
8.5118 -3.8836 -2.9130
8.5097 -2.9971 -2.8090
8.5078 -2.1652 -2.7334
8.5060 -1.3708 -2.6825
8.5043 -0.5993 -2.6544
8.5025 0.1622 -2.6478
8.5008 0.9259 -2.6624
8.4990 1.7044 -2.6989
8.4972 2.5111 -2.7587
8.4952 3.3613 -2.8445
11.8887 8.9450 -4.6323
25.7573 23.2585 -10.8053
24.2704 26.2143 -11.1229
-26.6441 12.5375 -9.1682
-26.6377 9.7353 -8.8303
-26.4206 7.0558 -8.5144
-26.6260 4.6128 -8.4136
-26.6205 2.1910 -8.3164
-26.6150 -0.1944 -8.2869
-26.6096 -2.5820 -8.3239
-26.6041 -5.0104 -8.4289
-26.5983 -7.5212 -8.6062
-26.5923 -10.1614 -8.8635
-26.5715 -12.9808 -9.2076
5.9125 -13.8365 -4.6849
8.7070 -16.1969 -5.7254
8.7429 -13.2669 -4.9470
8.6249 -10.8398 -4.3130
8.6909 -9.1161 -3.9215
8.6874 -7.6172 -3.5973
8.5171 -6.2155 -3.2829
8.5146 -5.1155 -3.0927
8.5123 -4.1285 -2.9456
8.5103 -3.2242 -2.8335
8.5083 -2.3798 -2.7508
8.5065 -1.5770 -2.6937
8.5047 -0.8008 -2.6597
8.5030 -0.0379 -2.6475
8.5013 0.7240 -2.6565
8.4995 1.4974 -2.6871
8.4977 2.2953 -2.7406
8.4958 3.1324 -2.8192
8.4937 4.0263 -2.9266
27.6255 19.7850 -10.5796
26.3935 22.7286 -10.8448
5.8043 5.9805 -2.5948
24.3409 30.0374 -12.0374
5.7299 8.5283 -3.1990
-26.4547 13.2174 -9.2076
-26.6394 10.4528 -8.9099
-26.6333 7.7884 -8.6396
-26.6275 5.2613 -8.4508
-26.6219 2.8232 -8.3353
-26.6165 0.4319 -8.2882
-26.6110 -1.9513 -8.3077
-26.6055 -4.3651 -8.3945
-26.3890 -6.7956 -8.4843
-26.5939 -9.4512 -8.7874
-26.5876 -12.2223 -9.1109
-18.4838 -22.2687 -9.0107
8.7018 -13.9061 -5.1075
8.7582 -11.5551 -4.5144
8.6919 -9.5577 -4.0223
8.6883 -7.9873 -3.6745
8.5178 -6.5287 -3.3414
8.5152 -5.3925 -3.1382
8.5129 -4.3792 -2.9806
8.5108 -3.4556 -2.8600
8.5088 -2.5973 -2.7699
8.5070 -1.7851 -2.7064
8.5052 -1.0033 -2.6665
8.5034 -0.2381 -2.6486
8.5017 0.5229 -2.6520
8.5000 1.2921 -2.6769
8.4982 2.0821 -2.7242
8.4963 2.9073 -2.7959
8.4943 3.7844 -2.8953
29.0635 19.7970 -10.9488
26.0754 21.4069 -10.5041
24.5313 24.1138 -10.7101
22.9866 27.0398 -11.0499
-26.6410 11.1838 -8.9960
-26.6348 8.4741 -8.7024
-26.5034 5.8880 -8.4531
-26.6234 3.4585 -8.3589
-26.6179 1.0589 -8.2941
-26.6125 -1.3227 -8.2961
-26.6070 -3.7247 -8.3649
-26.4438 -6.1500 -8.4531
-26.5955 -8.7525 -8.7175
-26.5893 -11.4731 -9.0165
8.6797 -14.6251 -5.2951
8.6976 -12.0542 -4.6281
8.6773 -10.0048 -4.1234
8.6892 -8.3738 -3.7572
8.6860 -6.9881 -3.4710
8.5159 -5.6780 -3.1868
8.5135 -4.6360 -3.0182
8.5113 -3.6914 -2.8885
8.5093 -2.8180 -2.7909
8.5075 -1.9953 -2.7207
8.5057 -1.2069 -2.6748
8.5039 -0.4386 -2.6512
8.5022 0.3224 -2.6491
8.5004 1.0882 -2.6682
8.4986 1.8714 -2.7095
8.4968 2.6859 -2.7745
8.4948 3.5475 -2.8663
29.1262 18.8519 -10.8023
27.1850 21.2670 -10.7464
24.9912 23.4357 -10.6671
23.9735 26.8919 -11.2169
-26.6427 11.9295 -9.0889
-26.6364 9.1703 -8.7710
-26.4193 6.5253 -8.4729
-26.6248 4.0980 -8.3873
-26.6193 1.6871 -8.3046
-26.6139 -0.6955 -8.2891
-26.6081 -3.0884 -8.3401
-26.5812 -5.5262 -8.4531
-26.5971 -8.0645 -8.6534
-26.5910 -10.7388 -8.9288
-26.3736 -13.5048 -9.2254
8.7054 -15.4876 -5.5317
8.6898 -12.6611 -4.7812
8.6940 -10.5142 -4.2478
8.6901 -8.7783 -3.8459
8.6868 -7.3320 -3.5393
8.5165 -5.9727 -3.2387
8.5141 -4.8995 -3.0585
8.5119 -3.9321 -2.9193
8.5098 -3.0422 -2.8138
8.5079 -2.2079 -2.7367
8.5061 -1.4119 -2.6846
-26.6470 13.7869 -9.1390
-26.6403 10.8897 -8.7666
-26.5226 8.1642 -8.4531
-26.6284 5.6532 -8.2920
-26.6228 3.2039 -8.1680
-26.6173 0.8080 -8.1116
-26.4009 -1.5615 -8.0560
-26.6064 -3.9804 -8.1947
-26.6008 -6.4512 -8.3377
-26.3840 -8.9591 -8.4875
-26.5886 -11.7710 -8.8573
-26.4369 -14.6559 -9.2076
-19.0135 -22.2598 -8.9173
8.7028 -14.3544 -5.1133
8.6269 -11.7222 -4.4335
8.6925 -9.8338 -3.9980
8.6888 -8.2171 -3.6428
8.5182 -6.7220 -3.3053
8.5156 -5.5628 -3.0983
8.5132 -4.5324 -2.9378
8.5111 -3.5965 -2.8145
8.5091 -2.7293 -2.7220
8.5073 -1.9110 -2.6560
8.5055 -1.1253 -2.6134
8.5037 -0.3583 -2.5926
8.5020 0.4025 -2.5927
8.5002 1.1696 -2.6136
8.4984 1.9555 -2.6563
8.4966 2.7741 -2.7226
8.4946 3.6417 -2.8153
29.0651 19.2031 -10.6113
25.9016 20.6592 -10.0921
25.0907 23.9768 -10.5714
23.4647 26.8253 -10.8561
-26.5127 14.5183 -9.2076
-26.6420 11.6293 -8.8548
-26.4246 8.8199 -8.4857
-26.6299 6.3119 -8.3364
-26.6243 3.8417 -8.1940
-26.6188 1.4356 -8.1201
-26.6133 -0.9464 -8.1118
-26.6079 -3.3426 -8.1687
-26.5162 -5.7736 -8.2663
-26.4798 -8.3020 -8.4531
-26.5903 -11.0309 -8.7689
-26.3924 -13.8296 -9.0762
8.7414 -15.2146 -5.3450
8.6984 -12.4213 -4.6191
8.6936 -10.3143 -4.1090
8.6897 -8.6142 -3.7271
8.6865 -7.1928 -3.4353
8.5163 -5.8537 -3.1478
8.5138 -4.7932 -2.9761
8.5117 -3.8352 -2.8438
8.5096 -2.9520 -2.7436
8.5078 -2.1225 -2.6710
8.5059 -1.3297 -2.6224
8.5042 -0.5591 -2.5960
8.5024 0.2022 -2.5906
8.5007 0.9664 -2.6061
8.4989 1.7461 -2.6429
8.4971 2.5546 -2.7027
8.4951 3.4076 -2.7881
11.9147 9.0528 -4.5581
25.5389 23.2804 -10.5265
23.9772 26.1434 -10.8056
-26.6438 12.3844 -8.9498
-26.6374 9.5933 -8.6241
-26.6314 6.9779 -8.3860
-26.6257 4.4838 -8.2246
-26.6202 2.0648 -8.1331
-26.6148 -0.3197 -8.1077
-21.2646 -2.1644 -6.5108
-26.6038 -5.1402 -8.2536
-26.5980 -7.6566 -8.4310
-26.5920 -10.3051 -8.6871
-26.5855 -13.1430 -9.0337
5.9828 -13.8205 -4.5874
8.7066 -16.0150 -5.5526
8.7426 -13.1315 -4.8054
8.6933 -10.8208 -4.2281
8.6907 -9.0304 -3.8177
8.6873 -7.5450 -3.5049
8.5169 -6.1542 -3.2007
8.5144 -5.0610 -3.0172
8.5122 -4.0791 -2.8752
8.5102 -3.1785 -2.7672
8.5082 -2.3366 -2.6876
8.5064 -1.5356 -2.6330
8.5046 -0.7604 -2.6009
8.5029 0.0021 -2.5901
8.5012 0.7643 -2.6000
8.4994 1.5387 -2.6311
8.4976 2.3382 -2.6846
8.4957 3.1778 -2.7630
8.4936 4.0753 -2.8696
27.5233 19.9084 -10.3472
26.4200 22.9688 -10.6638
5.7877 6.0199 -2.5437
24.2074 30.1619 -11.7806
5.7127 8.5898 -3.1423
-19.8407 17.6457 -8.0881
-26.6455 13.1564 -9.0519
-26.6390 10.3082 -8.7008
-26.6330 7.6524 -8.4409
-26.6272 5.1311 -8.2601
-26.4106 2.6751 -8.0860
-26.6162 0.3066 -8.1080
-26.6108 -2.0773 -8.1305
-26.3943 -4.4582 -8.1538
-26.5996 -6.9836 -8.3770
-26.5936 -9.5923 -8.6115
-26.5872 -12.3740 -8.9329
-26.3696 -15.2746 -9.2826
8.6098 -13.6160 -4.9072
8.7579 -11.4425 -4.3892
8.5954 -9.3627 -3.8715
8.6881 -7.9120 -3.5794
8.5176 -6.4651 -3.2573
8.5151 -5.3365 -3.0610
8.5128 -4.3285 -2.9090
8.5107 -3.4090 -2.7927
8.5087 -2.5536 -2.7060
8.5069 -1.7433 -2.6451
8.5051 -0.9627 -2.6073
8.5034 -0.1981 -2.5909
8.5016 0.5631 -2.5953
8.4999 1.3330 -2.6208
8.4981 2.1246 -2.6683
8.4962 2.9521 -2.7398
8.4942 3.8324 -2.8385
27.8932 19.1926 -10.3135
26.0054 21.5553 -10.2889
5.9692 5.9231 -2.5615
22.7886 27.0640 -10.7772
5.9164 8.4574 -3.1440
-26.6473 13.9465 -9.1615
-26.6407 11.0365 -8.7838
-26.4838 8.2890 -8.4531
-26.6287 5.7844 -8.3005
-26.6231 3.3312 -8.1728
-26.6176 0.9334 -8.1129
-26.4012 -1.4369 -8.0539
-26.6067 -3.8525 -8.1891
-26.6011 -6.3188 -8.3284
-26.3843 -8.8209 -8.4741
-26.5890 -11.6217 -8.8391
-26.5056 -14.5313 -9.2076
-19.1591 -22.2176 -8.9365
8.7032 -14.5086 -5.1536
8.6973 -11.9350 -4.4984
8.6927 -9.9278 -4.0195
8.6890 -8.2951 -3.6592
8.5184 -6.7874 -3.3177
8.5157 -5.6202 -3.1080
8.5134 -4.5841 -2.9453
8.5112 -3.6439 -2.8202
8.5092 -2.7736 -2.7262
8.5074 -1.9531 -2.6588
8.5056 -1.1661 -2.6151
8.5038 -0.3984 -2.5932
8.5021 0.3624 -2.5922
8.5003 1.1288 -2.6120
8.4985 1.9134 -2.6535
8.4967 2.7299 -2.7185
8.4947 3.5945 -2.8097
29.0777 19.0153 -10.5831
27.1884 21.4768 -10.5540
24.7789 23.4567 -10.3934
23.7994 26.9509 -10.9522
-26.4441 14.6429 -9.2076
-26.6424 11.7791 -8.8733
-26.4249 8.9585 -8.4992
-26.6302 6.4445 -8.3459
-26.4951 3.9505 -8.1599
-26.6190 1.5613 -8.1223
-26.6136 -0.8209 -8.1106
-26.3972 -3.1899 -8.0993
-26.6026 -5.6613 -8.2848
-26.5185 -8.1773 -8.4531
-26.5906 -10.8846 -8.7521
-26.5841 -13.7709 -9.1197
8.6691 -15.2546 -5.3446
8.6987 -12.5470 -4.6506
8.6938 -10.4137 -4.1322
8.6899 -8.6959 -3.7447
8.6866 -7.2622 -3.4489
8.5164 -5.9130 -3.1581
8.5140 -4.8462 -2.9841
8.5118 -3.8836 -2.8499
8.5097 -2.9971 -2.7482
8.5078 -2.1652 -2.6742
8.5060 -1.3708 -2.6244
8.5043 -0.5993 -2.5969
8.5025 0.1622 -2.5904
8.5008 0.9259 -2.6047
8.4990 1.7044 -2.6404
8.4972 2.5111 -2.6990
8.4952 3.3613 -2.7829
11.8884 8.9448 -4.5318
25.7321 23.2357 -10.5609
24.3180 26.2657 -10.9033
-26.6441 12.5375 -8.9696
-26.6377 9.7353 -8.6390
-26.6317 7.1121 -8.3965
-26.6260 4.6128 -8.2313
-26.6205 2.1910 -8.1362
-26.6150 -0.1944 -8.1074
-26.6096 -2.5820 -8.1436
-26.6041 -5.0104 -8.2463
-26.5983 -7.5212 -8.4198
-26.5923 -10.1614 -8.6715
-26.5858 -12.9878 -9.0130
5.9124 -13.8361 -4.5833
8.7070 -16.1969 -5.6014
8.7429 -13.2669 -4.8398
8.6249 -10.8398 -4.2196
8.6909 -9.1161 -3.8365
8.6874 -7.6172 -3.5194
8.5171 -6.2155 -3.2117
8.5146 -5.1155 -3.0257
8.5123 -4.1285 -2.8818
8.5103 -3.2242 -2.7721
8.5083 -2.3798 -2.6912
8.5065 -1.5770 -2.6353
8.5047 -0.8008 -2.6021
8.5030 -0.0379 -2.5901
8.5013 0.7240 -2.5989
8.4995 1.4974 -2.6289
8.4977 2.2953 -2.6812
8.4958 3.1324 -2.7582
8.4937 4.0263 -2.8632
27.5974 19.7648 -10.3399
26.3946 22.7296 -10.6103
5.8041 5.9804 -2.5386
24.4049 30.1163 -11.8076
5.7299 8.5283 -3.1297
-19.6545 17.6465 -8.0459
-26.6459 13.3129 -9.0732
-26.6394 10.4528 -8.7169
-26.6333 7.7884 -8.4525
-26.6275 5.2613 -8.2678
-26.6219 2.8232 -8.1547
-26.6165 0.4319 -8.1087
-26.6110 -1.9513 -8.1277
-26.6055 -4.3651 -8.2126
-26.5999 -6.8499 -8.3669
-26.5939 -9.4512 -8.5971
-26.5876 -12.2223 -8.9135
-26.3700 -15.1094 -9.2576
8.7018 -13.9061 -4.9969
8.7582 -11.5551 -4.4166
8.5956 -9.4519 -3.8916
8.6883 -7.9873 -3.5949
8.5178 -6.5287 -3.2691
8.5152 -5.3925 -3.0702
8.5129 -4.3791 -2.9161
8.5108 -3.4556 -2.7980
8.5088 -2.5973 -2.7099
8.5070 -1.7851 -2.6477
8.5052 -1.0033 -2.6087
8.5034 -0.2381 -2.5912
8.5017 0.5229 -2.5946
8.5000 1.2921 -2.6189
8.4982 2.0821 -2.6652
8.4963 2.9073 -2.7354
8.4943 3.7844 -2.8326
29.0272 19.7723 -10.6983
26.0451 21.3821 -10.2646
25.7401 25.3021 -10.9944
23.0864 27.1573 -10.8575
-26.6477 14.1068 -9.1843
-26.6410 11.1838 -8.8011
-26.4445 8.4136 -8.4531
-26.6290 5.9159 -8.3092
-26.6234 3.4585 -8.1778
-26.6179 1.0589 -8.1144
-26.6125 -1.3227 -8.1164
-26.6070 -3.7247 -8.1837
-26.6014 -6.1867 -8.3193
-26.3846 -8.6832 -8.4610
-26.5893 -11.4731 -8.8211
-26.5737 -14.4063 -9.2076
8.6797 -14.6251 -5.1804
8.6976 -12.0542 -4.5278
8.6773 -10.0048 -4.0341
8.6892 -8.3738 -3.6758
8.6860 -6.9881 -3.3958
8.5159 -5.6781 -3.1177
8.5135 -4.6360 -2.9528
8.5113 -3.6914 -2.8260
8.5093 -2.8180 -2.7304
8.5075 -1.9953 -2.6618
8.5057 -1.2069 -2.6168
8.5039 -0.4386 -2.5938
8.5022 0.3224 -2.5917
8.5004 1.0882 -2.6104
8.4986 1.8714 -2.6508
8.4968 2.6859 -2.7144
8.4948 3.5475 -2.8042
29.0903 18.8286 -10.5553
27.1931 21.2734 -10.5168
24.9671 23.4130 -10.4260
24.1399 27.0785 -11.0501
-26.4383 14.8027 -9.2297
-26.6427 11.9295 -8.8920
-26.4252 9.0976 -8.5130
-26.6305 6.5775 -8.3556
-26.6248 4.0980 -8.2056
-26.6193 1.6871 -8.1247
-26.6139 -0.6955 -8.1096
-26.6081 -3.0884 -8.1595
-26.6029 -5.5307 -8.2767
-26.5568 -8.0523 -8.4531
-26.5910 -10.7388 -8.7354
-26.5844 -13.6127 -9.0977
8.6352 -15.3628 -5.3682
8.6898 -12.6611 -4.6777
8.6940 -10.5142 -4.1558
8.6901 -8.7783 -3.7626
8.6868 -7.3320 -3.4626
8.5165 -5.9727 -3.1686
8.5141 -4.8995 -2.9922
8.5119 -3.9321 -2.8561
8.5098 -3.0422 -2.7528
8.5079 -2.2079 -2.6774
8.5061 -1.4119 -2.6265
-26.6470 13.7869 -8.9374
-26.4291 10.8033 -8.5053
-26.6342 8.1986 -8.3014
-26.6284 5.6532 -8.1091
-26.6228 3.2039 -7.9879
-26.6173 0.8080 -7.9327
-26.4009 -1.5615 -7.8783
-26.6064 -3.9804 -8.0140
-26.6008 -6.4512 -8.1538
-26.5949 -9.0307 -8.3666
-26.5886 -11.7710 -8.6619
-26.5819 -14.7363 -9.0538
8.7028 -14.3544 -5.0005
8.6269 -11.7222 -4.3356
8.5962 -9.7249 -3.8665
8.6888 -8.2171 -3.5624
8.5182 -6.7220 -3.2324
8.5156 -5.5628 -3.0300
8.5132 -4.5324 -2.8730
8.5111 -3.5965 -2.7524
8.5091 -2.7293 -2.6620
8.5073 -1.9110 -2.5974
8.5055 -1.1253 -2.5558
8.5037 -0.3583 -2.5354
8.5020 0.4025 -2.5355
8.5002 1.1696 -2.5560
8.4984 1.9555 -2.5978
8.4966 2.7741 -2.6625
8.4946 3.6417 -2.7532
29.0293 19.1794 -10.3644
25.8722 20.6357 -9.8583
26.3148 25.1466 -10.8426
23.6251 27.0088 -10.6893
-26.6488 14.5928 -9.0507
-26.6420 11.6293 -8.6595
-26.6358 8.8904 -8.3648
-26.6299 6.3119 -8.1525
-26.6243 3.8417 -8.0132
-26.6188 1.4356 -7.9410
-26.6133 -0.9463 -7.9328
-26.6079 -3.3425 -7.9885
-26.5162 -5.7736 -8.0840
-26.5965 -8.3386 -8.3031
-26.3795 -10.9434 -8.5075
-26.3924 -13.8296 -8.8760
8.7666 -15.2584 -5.2421
8.6984 -12.4213 -4.5172
8.6936 -10.3143 -4.0183
8.6897 -8.6142 -3.6449
8.6865 -7.1928 -3.3596
8.5163 -5.8537 -3.0784
8.5138 -4.7932 -2.9105
8.5117 -3.8352 -2.7810
8.5096 -2.9520 -2.6831
8.5078 -2.1225 -2.6120
8.5059 -1.3297 -2.5646
8.5042 -0.5591 -2.5388
8.5024 0.2022 -2.5335
8.5007 0.9664 -2.5486
8.4989 1.7461 -2.5846
8.4971 2.5546 -2.6431
8.4951 3.4076 -2.7266
11.9140 9.0523 -4.4573
25.5141 23.2578 -10.2843
24.0237 26.1941 -10.5877
-26.6438 12.3844 -8.7524
-26.6374 9.5933 -8.4339
-26.6314 6.9779 -8.2010
-26.6257 4.4838 -8.0432
-26.6202 2.0648 -7.9537
-26.6148 -0.3197 -7.9288
-26.6093 -2.7084 -7.9676
-26.6038 -5.1402 -8.0715
-26.5980 -7.6566 -8.2450
-26.4593 -10.2537 -8.4531
-26.5855 -13.1430 -8.8344
-26.3743 -16.1178 -9.2076
5.9826 -13.8200 -4.4860
8.6364 -15.8859 -5.3864
8.7426 -13.1315 -4.6994
8.6933 -10.8208 -4.1348
8.6907 -9.0304 -3.7334
8.6873 -7.5450 -3.4276
8.5169 -6.1542 -3.1301
8.5144 -5.0610 -2.9506
8.5122 -4.0791 -2.8118
8.5102 -3.1785 -2.7061
8.5082 -2.3366 -2.6284
8.5064 -1.5356 -2.5749
8.5046 -0.7604 -2.5435
8.5029 0.0021 -2.5329
8.5012 0.7643 -2.5426
8.4994 1.5387 -2.5730
8.4976 2.3382 -2.6254
8.4957 3.1778 -2.7020
8.4936 4.0753 -2.8063
27.4954 19.8882 -10.1087
26.4211 22.9698 -10.4290
5.7875 6.0197 -2.4875
5.7127 8.5898 -3.0730
-19.9394 17.7334 -7.9490
-26.6455 13.1564 -8.8522
-26.4644 10.2406 -8.4531
-26.6330 7.6524 -8.2547
-26.6272 5.1311 -8.0779
-26.4106 2.6751 -7.9077
-26.6162 0.3066 -7.9292
-26.6108 -2.0773 -7.9512
-26.3943 -4.4582 -7.9739
-26.5996 -6.9836 -8.1923
-26.5936 -9.5923 -8.4215
-26.5872 -12.3740 -8.7358
-26.3696 -15.2746 -9.0779
-26.5467 -38.9152 -14.0328
8.6098 -13.6160 -4.7989
8.7579 -11.4425 -4.2924
8.6091 -9.3776 -3.7922
8.6881 -7.9120 -3.5005
8.5176 -6.4651 -3.1854
8.5151 -5.3365 -2.9935
8.5128 -4.3285 -2.8449
8.5107 -3.4090 -2.7311
8.5087 -2.5536 -2.6463
8.5069 -1.7433 -2.5868
8.5051 -0.9627 -2.5498
8.5034 -0.1981 -2.5337
8.5016 0.5631 -2.5381
8.4999 1.3330 -2.5630
8.4981 2.1246 -2.6094
8.4962 2.9521 -2.6793
8.4942 3.8324 -2.7759
27.8650 19.1732 -10.0758
26.0127 21.5613 -10.0647
5.9688 5.9227 -2.5048
22.8868 27.1807 -10.5849
5.9164 8.4574 -3.0746
-26.6473 13.9465 -8.9594
-26.6407 11.0365 -8.5900
-26.6345 8.3361 -8.3137
-26.6287 5.7844 -8.1174
-26.6231 3.3312 -7.9926
-26.6176 0.9334 -7.9340
-26.4012 -1.4369 -7.8763
-26.6067 -3.8525 -8.0085
-26.6011 -6.3188 -8.1447
-26.5952 -8.8914 -8.3535
-26.5890 -11.6217 -8.6441
-26.5822 -14.5733 -9.0305
8.7032 -14.5086 -5.0399
8.6973 -11.9350 -4.3992
8.5965 -9.8179 -3.8873
8.6890 -8.2951 -3.5785
8.5184 -6.7874 -3.2446
8.5157 -5.6203 -3.0394
8.5134 -4.5841 -2.8803
8.5112 -3.6439 -2.7580
8.5092 -2.7736 -2.6661
8.5074 -1.9531 -2.6002
8.5056 -1.1661 -2.5574
8.5038 -0.3984 -2.5360
8.5021 0.3624 -2.5350
8.5003 1.1288 -2.5544
8.4985 1.9134 -2.5950
8.4967 2.7299 -2.6585
8.4947 3.5945 -2.7477
29.0420 18.9920 -10.3369
27.1966 21.4833 -10.3243
24.7551 23.4342 -10.1544
23.9637 27.1368 -10.7845
-26.6378 14.7502 -9.0704
-26.6424 11.7791 -8.6775
-26.6361 9.0301 -8.3782
-26.6302 6.4445 -8.1618
-26.4951 3.9505 -7.9799
-26.6190 1.5613 -7.9432
-26.6136 -0.8209 -7.9317
-26.3972 -3.1899 -7.9206
-26.6026 -5.6613 -8.1021
-26.5968 -8.2014 -8.2910
-26.3798 -10.7983 -8.4911
-26.5841 -13.7709 -8.9185
8.7670 -15.4268 -5.2857
8.6987 -12.5470 -4.5480
8.6938 -10.4137 -4.0411
8.6899 -8.6959 -3.6621
8.6866 -7.2622 -3.3728
8.5164 -5.9130 -3.0885
8.5140 -4.8462 -2.9183
8.5118 -3.8836 -2.7870
8.5097 -2.9971 -2.6876
8.5078 -2.1652 -2.6152
8.5060 -1.3708 -2.5665
8.5043 -0.5993 -2.5396
8.5025 0.1622 -2.5333
8.5008 0.9259 -2.5473
8.4990 1.7044 -2.5822
8.4972 2.5111 -2.6394
8.4952 3.3613 -2.7215
11.8881 8.9446 -4.4318
25.7070 23.2131 -10.3179
24.1868 26.1241 -10.6053
-26.6441 12.5375 -8.7718
-26.6377 9.7353 -8.4484
-26.6317 7.1121 -8.2113
-26.6260 4.6128 -8.0498
-26.6205 2.1910 -7.9568
-26.6150 -0.1944 -7.9285
-26.6096 -2.5820 -7.9639
-26.6041 -5.0104 -8.0644
-26.5983 -7.5212 -8.2340
-26.5073 -10.1289 -8.4531
-26.5858 -12.9878 -8.8142
-26.4499 -15.9935 -9.2076
5.9122 -13.8358 -4.4821
8.7070 -16.1969 -5.4779
8.7429 -13.2669 -4.7331
8.6249 -10.8398 -4.1265
8.6909 -9.1161 -3.7519
8.6874 -7.6172 -3.4418
8.5171 -6.2155 -3.1409
8.5146 -5.1155 -2.9590
8.5123 -4.1285 -2.8182
8.5103 -3.2242 -2.7110
8.5083 -2.3798 -2.6318
8.5065 -1.5770 -2.5772
8.5047 -0.8008 -2.5447
8.5030 -0.0379 -2.5330
8.5013 0.7240 -2.5416
8.4995 1.4974 -2.5709
8.4977 2.2953 -2.6221
8.4958 3.1324 -2.6973
8.4937 4.0263 -2.8001
27.5694 19.7448 -10.1016
26.2734 22.6252 -10.3286
5.8040 5.9802 -2.4825
5.7299 8.5283 -3.0607
-26.6459 13.3129 -8.8731
-26.4281 10.3699 -8.4570
-26.6333 7.7884 -8.2660
-26.6275 5.2613 -8.0854
-26.6219 2.8232 -7.9749
-26.6165 0.4319 -7.9298
-26.6110 -1.9513 -7.9484
-26.6055 -4.3651 -8.0315
-26.5999 -6.8499 -8.1823
-26.5939 -9.4512 -8.4075
-26.5876 -12.2223 -8.7169
-26.4801 -15.1725 -9.0912
-26.7189 -38.7741 -14.0272
8.7018 -13.9061 -4.8867
8.7582 -11.5551 -4.3192
8.5956 -9.4519 -3.8058
8.6883 -7.9873 -3.5156
8.5178 -6.5287 -3.1970
8.5152 -5.3925 -3.0025
8.5129 -4.3792 -2.8518
8.5108 -3.4556 -2.7363
8.5088 -2.5973 -2.6501
8.5070 -1.7851 -2.5893
8.5052 -1.0033 -2.5512
8.5034 -0.2381 -2.5341
8.5017 0.5229 -2.5374
8.5000 1.2921 -2.5611
8.4982 2.0821 -2.6064
8.4963 2.9073 -2.6750
8.4943 3.7844 -2.7701
28.9911 19.7477 -10.4493
26.0150 21.3574 -10.0266
24.1979 23.7861 -10.1077
23.1867 27.2753 -10.6641
-26.6477 14.1068 -8.9818
-26.6410 11.1838 -8.6070
-26.6348 8.4741 -8.3261
-26.6290 5.9159 -8.1259
-26.6234 3.4585 -7.9975
-26.6179 1.0589 -7.9355
-26.6125 -1.3227 -7.9374
-26.6070 -3.7247 -8.0032
-26.6014 -6.1867 -8.1358
-26.5955 -8.7525 -8.3405
-26.5893 -11.4731 -8.6266
-26.5826 -14.4112 -9.0075
8.6797 -14.6251 -5.0661
8.6976 -12.0542 -4.4280
8.5967 -9.9119 -3.9085
8.6892 -8.3738 -3.5948
8.6860 -6.9881 -3.3209
8.5159 -5.6781 -3.0490
8.5135 -4.6360 -2.8877
8.5113 -3.6914 -2.7636
8.5093 -2.8180 -2.6702
8.5075 -1.9953 -2.6031
8.5057 -1.2069 -2.5591
8.5039 -0.4386 -2.5366
8.5022 0.3224 -2.5345
8.5004 1.0882 -2.5529
8.4986 1.8714 -2.5923
8.4968 2.6859 -2.6545
8.4948 3.5475 -2.7423
29.0546 18.8056 -10.3098
27.2013 21.2798 -10.2879
24.9431 23.3905 -10.1862
24.3079 27.2670 -10.8816
-26.4383 14.8027 -9.0261
-26.6427 11.9295 -8.6959
-26.6364 9.1703 -8.3918
-26.6305 6.5775 -8.1713
-26.6248 4.0980 -8.0246
-26.6193 1.6871 -7.9455
-26.6139 -0.6955 -7.9307
-26.6081 -3.0884 -7.9795
-26.6029 -5.5307 -8.0942
-26.5971 -8.0646 -8.2792
-26.3801 -10.6537 -8.4750
-26.5844 -13.6127 -8.8971
-26.3665 -16.6288 -9.2859
8.7674 -15.5979 -5.3301
8.6898 -12.6611 -4.5745
8.6940 -10.5142 -4.0641
8.6901 -8.7783 -3.6796
8.6868 -7.3320 -3.3862
8.5165 -5.9727 -3.0987
8.5141 -4.8995 -2.9262
8.5119 -3.9321 -2.7931
8.5098 -3.0422 -2.6921
8.5079 -2.2079 -2.6184
8.5061 -1.4119 -2.5686
-26.6470 13.7869 -8.7365
-26.6403 10.8897 -8.3806
-26.6342 8.1986 -8.1149
-26.6284 5.6532 -7.9269
-26.6228 3.2039 -7.8084
-26.6173 0.8080 -7.7544
-26.4009 -1.5615 -7.7012
-26.6064 -3.9804 -7.8339
-26.6008 -6.4512 -7.9705
-26.5949 -9.0307 -8.1786
-26.5441 -11.7512 -8.4531
-26.5819 -14.7363 -8.8504
-26.3637 -17.8673 -9.2739
-27.3719 -38.5457 -13.7664
8.7028 -14.3544 -4.8882
8.6269 -11.7222 -4.2382
8.6264 -9.7591 -3.7929
8.6888 -8.2171 -3.4824
8.5182 -6.7220 -3.1598
8.5156 -5.5628 -2.9619
8.5132 -4.5324 -2.8085
8.5111 -3.5965 -2.6906
8.5091 -2.7293 -2.6022
8.5073 -1.9110 -2.5390
8.5055 -1.1253 -2.4983
8.5037 -0.3583 -2.4784
8.5020 0.4025 -2.4785
8.5002 1.1696 -2.4985
8.4984 1.9555 -2.5394
8.4966 2.7741 -2.6027
8.4946 3.6417 -2.6913
28.9937 19.1559 -10.1191
26.1994 20.8967 -9.7586
26.3386 25.1693 -10.6085
23.7872 27.1940 -10.5208
-26.6488 14.5928 -8.8473
-26.6049 11.6131 -8.4531
-26.6358 8.8904 -8.1768
-26.6299 6.3119 -7.9693
-26.6243 3.8417 -7.8331
-26.6188 1.4356 -7.7625
-26.6133 -0.9463 -7.7546
-26.6079 -3.3426 -7.8090
-26.5162 -5.7736 -7.9023
-26.5965 -8.3386 -8.1165
-26.5903 -11.0309 -8.3828
-26.3924 -13.8296 -8.6765
-26.5764 -17.1130 -9.2045
-19.9668 -22.2916 -8.7144
8.7666 -15.2584 -5.1243
8.6984 -12.4213 -4.4157
8.6936 -10.3143 -3.9280
8.6897 -8.6142 -3.5630
8.6865 -7.1928 -3.2841
8.5163 -5.8537 -3.0092
8.5138 -4.7932 -2.8451
8.5117 -3.8352 -2.7185
8.5096 -2.9520 -2.6228
8.5078 -2.1225 -2.5533
8.5059 -1.3297 -2.5070
8.5042 -0.5591 -2.4817
8.5024 0.2022 -2.4766
8.5007 0.9664 -2.4913
8.4989 1.7461 -2.5265
8.4971 2.5546 -2.5837
8.4951 3.4076 -2.6653
29.0571 18.2304 -9.9887
11.9135 9.0518 -4.3569
25.4614 23.2097 -10.0324
24.0679 26.2423 -10.3688
-26.4325 12.2862 -8.4879
-26.6374 9.5933 -8.2444
-26.6314 6.9779 -8.0167
-26.6257 4.4838 -7.8624
-26.6202 2.0648 -7.7750
-26.6148 -0.3197 -7.7506
-26.6093 -2.7084 -7.7885
-26.6038 -5.1402 -7.8902
-26.5980 -7.6566 -8.0597
-26.5920 -10.3051 -8.3046
-26.5855 -13.1430 -8.6359
-26.5784 -16.2425 -9.0703
-26.0707 -40.2186 -13.9568
5.9823 -13.8195 -4.3851
8.6575 -15.9246 -5.2781
8.7426 -13.1315 -4.5938
8.6933 -10.8208 -4.0419
8.6907 -9.0304 -3.6495
8.6873 -7.5450 -3.3506
8.5169 -6.1542 -3.0598
8.5144 -5.0610 -2.8843
8.5122 -4.0791 -2.7486
8.5102 -3.1785 -2.6453
8.5082 -2.3366 -2.5693
8.5064 -1.5356 -2.5171
8.5046 -0.7604 -2.4864
8.5029 0.0021 -2.4760
8.5012 0.7643 -2.4855
8.4994 1.5387 -2.5152
8.4976 2.3382 -2.5664
8.4957 3.1778 -2.6413
8.4936 4.0753 -2.7433
27.4676 19.8681 -9.8715
26.4658 23.0086 -10.2119
5.7874 6.0195 -2.4316
5.7127 8.5898 -3.0040
-26.6455 13.1564 -8.6533
-26.6390 10.3082 -8.3177
-26.6330 7.6524 -8.0692
-26.6272 5.1311 -7.8964
-26.4106 2.6751 -7.7300
-26.6162 0.3066 -7.7510
-26.6108 -2.0773 -7.7725
-26.3943 -4.4582 -7.7948
-26.5996 -6.9836 -8.0082
-26.5936 -9.5923 -8.2323
-26.3764 -12.2759 -8.4718
-26.3696 -15.2746 -8.8739
-26.5467 -38.9152 -13.7175
8.6098 -13.6160 -4.6911
8.7579 -11.4425 -4.1960
8.6917 -9.4675 -3.7425
8.6881 -7.9120 -3.4218
8.5176 -6.4651 -3.1138
8.5151 -5.3365 -2.9263
8.5128 -4.3285 -2.7809
8.5107 -3.4090 -2.6697
8.5087 -2.5536 -2.5869
8.5069 -1.7433 -2.5286
8.5051 -0.9627 -2.4925
8.5034 -0.1981 -2.4768
8.5016 0.5631 -2.4811
8.4999 1.3330 -2.5054
8.4981 2.1246 -2.5508
8.4962 2.9521 -2.6191
8.4942 3.8324 -2.7136
27.8369 19.1539 -9.8395
26.0199 21.5673 -9.8413
5.9684 5.9223 -2.4484
22.9856 27.2980 -10.3917
5.9164 8.4574 -3.0055
-26.6473 13.9465 -8.7581
-26.6407 11.0365 -8.3970
-26.6345 8.3361 -8.1268
-26.6287 5.7844 -7.9350
-26.6231 3.3312 -7.8130
-26.6176 0.9334 -7.7557
-26.4012 -1.4369 -7.6993
-26.6067 -3.8525 -7.8285
-26.6011 -6.3188 -7.9616
-26.5952 -8.8914 -8.1657
-26.5890 -11.6217 -8.4499
-26.5822 -14.5733 -8.8276
-26.3641 -17.6871 -9.2447
-27.6213 -38.5117 -13.8006
8.7032 -14.5086 -4.9267
8.6973 -11.9350 -4.3003
8.5965 -9.8179 -3.8000
8.6890 -8.2951 -3.4981
8.5184 -6.7874 -3.1716
8.5157 -5.6202 -2.9711
8.5134 -4.5841 -2.8156
8.5112 -3.6439 -2.6960
8.5092 -2.7736 -2.6062
8.5074 -1.9531 -2.5417
8.5056 -1.1661 -2.4999
8.5038 -0.3984 -2.4790
8.5021 0.3624 -2.4780
8.5003 1.1288 -2.4970
8.4985 1.9134 -2.5367
8.4967 2.7299 -2.5988
8.4947 3.5945 -2.6860
29.0064 18.9687 -10.0923
26.9588 21.2955 -10.0041
24.7315 23.4118 -9.9167
24.1295 27.3247 -10.6151
-26.6379 14.7502 -8.8666
-26.5499 11.7382 -8.4531
-26.6361 9.0301 -8.1899
-26.6302 6.4445 -7.9784
-26.4951 3.9505 -7.8005
-26.6190 1.5613 -7.7647
-26.6136 -0.8209 -7.7534
-26.3972 -3.1899 -7.7426
-26.6026 -5.6613 -7.9200
-26.5968 -8.2014 -8.1047
-26.5906 -10.8846 -8.3667
-26.5841 -13.7709 -8.7181
-26.5768 -16.9367 -9.1769
-20.0936 -22.2218 -8.7240
8.7670 -15.4268 -5.1669
8.6987 -12.5470 -4.4458
8.6938 -10.4137 -3.9503
8.6899 -8.6959 -3.5798
8.6866 -7.2622 -3.2970
8.5164 -5.9130 -3.0191
8.5140 -4.8462 -2.8527
8.5118 -3.8836 -2.7244
8.5097 -2.9971 -2.6272
8.5078 -2.1652 -2.5564
8.5060 -1.3708 -2.5089
8.5043 -0.5993 -2.4825
8.5025 0.1622 -2.4763
8.5008 0.9259 -2.4900
8.4990 1.7044 -2.5241
8.4972 2.5111 -2.5801
8.4952 3.3613 -2.6604
11.8877 8.9443 -4.3321
25.2969 22.8427 -9.9251
24.1568 26.0916 -10.3541
-20.5926 17.6315 -7.8941
-26.4329 12.4380 -8.5067
-26.6377 9.7353 -8.2586
-26.6317 7.1121 -8.0268
-26.6260 4.6128 -7.8689
-26.6205 2.1910 -7.7780
-26.6150 -0.1944 -7.7504
-26.6096 -2.5820 -7.7850
-26.6041 -5.0104 -7.8832
-26.5983 -7.5212 -8.0490
-26.5923 -10.1614 -8.2896
-26.5858 -12.9878 -8.6161
-26.5788 -16.0714 -9.0445
-26.1172 -39.8780 -13.8811
5.9121 -13.8354 -4.3812
8.7070 -16.1969 -5.3548
8.7429 -13.2669 -4.6267
8.6249 -10.8398 -4.0338
8.6909 -9.1161 -3.6676
8.6874 -7.6172 -3.3644
8.5171 -6.2155 -3.0703
8.5146 -5.1155 -2.8925
8.5123 -4.1285 -2.7549
8.5103 -3.2242 -2.6500
8.5083 -2.3798 -2.5727
8.5065 -1.5770 -2.5193
8.5047 -0.8008 -2.4875
8.5030 -0.0379 -2.4761
8.5013 0.7240 -2.4845
8.4995 1.4974 -2.5131
8.4977 2.2953 -2.5632
8.4958 3.1324 -2.6367
8.4937 4.0263 -2.7371
27.5416 19.7249 -9.8646
26.3319 22.6755 -10.1190
5.8038 5.9800 -2.4266
5.7299 8.5283 -2.9919
-26.6459 13.3129 -8.6737
-26.6394 10.4528 -8.3330
