ply
format ascii 1.0
element vertex 1997
property float32 x
property float32 y
property float32 z
end_header
8.5019 0.4369 -0.3673
8.5002 1.2036 -0.3704
8.6245 2.0193 -0.3822
8.6201 2.8500 -0.3917
8.6155 3.7305 -0.4051
28.2796 22.7096 -1.5649
25.5136 24.5382 -1.5273
21.6905 24.9531 -1.4265
19.7208 27.2622 -1.4518
15.6638 26.3147 -1.3213
13.3280 27.7611 -1.3287
12.0930 43.8731 -1.9636
-28.0885 22.6481 -1.5568
-24.2078 16.1823 -1.2564
-24.2010 13.2190 -1.1898
-24.1949 10.5335 -1.1386
-24.1892 8.0508 -1.1000
-24.1839 5.7127 -1.0722
-24.1788 3.4726 -1.0539
-24.1738 1.2903 -1.0445
-24.4497 -5.3299 -1.0797
-24.1536 -7.5765 -1.0922
-24.1480 -10.0188 -1.1280
-24.1420 -12.6486 -1.1760
-24.1354 -15.5356 -1.2384
-24.1280 -18.7740 -1.3191
-28.8736 -32.2048 -1.8662
-28.9792 -38.7934 -2.0893
-21.0858 -42.2457 -2.0372
12.0761 -34.0363 -1.5582
6.9411 -15.1243 -0.7180
6.9766 -12.1966 -0.6063
6.9291 -9.9371 -0.5227
8.6937 -10.3587 -0.5835
6.9045 -6.8749 -0.4204
8.6866 -7.2268 -0.4875
8.5163 -5.8840 -0.4466
8.6293 -4.8869 -0.4279
8.5117 -3.8621 -0.4033
8.5097 -2.9780 -0.3890
8.5078 -2.1481 -0.3786
8.5060 -1.3552 -0.3716
8.6195 -0.5929 -0.3728
8.5025 0.1756 -0.3669
8.5008 0.9386 -0.3690
8.6260 1.7422 -0.3797
8.6216 2.5598 -0.3880
8.6170 3.4211 -0.4000
11.8711 8.9478 -0.6414
26.0372 23.5468 -1.5147
22.0406 23.8373 -1.4008
20.0919 26.0527 -1.4195
16.0304 25.1414 -1.2865
14.0416 27.0840 -1.3163
-24.2103 17.2821 -1.2834
-24.2033 14.2016 -1.2108
-24.1970 11.4301 -1.1546
-24.1912 8.8849 -1.1119
-24.1857 6.5030 -1.0806
-24.1805 4.2341 -1.0592
-24.1755 2.0360 -1.0468
-28.7009 -5.3396 -1.2596
-24.1554 -6.7701 -1.0824
-24.1500 -9.1615 -1.1144
-24.1441 -11.7197 -1.1580
-24.1378 -14.5092 -1.2151
-24.1307 -17.6143 -1.2890
-24.1226 -21.1517 -1.3843
-21.1355 -22.1660 -1.3215
-26.8269 -40.6829 -2.1026
12.3018 -38.3706 -1.7386
5.8515 -13.8565 -0.6490
8.7074 -16.3683 -0.8000
8.7005 -13.3317 -0.6869
6.9265 -8.7871 -0.4828
8.6911 -9.2019 -0.5461
8.6876 -7.6909 -0.5006
8.5172 -6.2794 -0.4566
8.5151 -5.1736 -0.4299
8.5132 -4.1824 -0.4093
8.5104 -3.2748 -0.3934
8.5084 -2.4283 -0.3818
8.5066 -1.6245 -0.3737
8.6201 -0.8594 -0.3738
8.5031 -0.0854 -0.3669
8.5014 0.6753 -0.3680
8.4996 1.4467 -0.3720
8.6231 2.2747 -0.3848
8.6187 3.1191 -0.3955
8.6141 4.0192 -0.4101
26.5242 22.5469 -1.5020
5.8316 5.9310 -0.3589
20.6101 25.0926 -1.4011
5.7789 8.4778 -0.4427
14.9525 26.7951 -1.3239
13.2648 29.7302 -1.4046
-21.0789 27.6023 -1.4985
-28.0856 21.3793 -1.5229
-24.2056 15.2203 -1.2337
-24.1991 12.3533 -1.1723
-24.1931 9.7383 -1.1252
-24.1875 7.3065 -1.0902
-24.1823 5.0037 -1.0655
-24.1772 2.7858 -1.0501
-34.6578 -5.3532 -1.5131
-24.1573 -5.9775 -1.0737
-24.1519 -8.3236 -1.1022
-24.1462 -10.8181 -1.1416
-24.1400 -13.5199 -1.1938
-24.1332 -16.5053 -1.2615
-24.1255 -19.8782 -1.3488
-29.1196 -28.7203 -1.7647
-25.5141 -30.1088 -1.7028
-27.6627 -39.2726 -2.0726
12.3160 -42.9020 -1.9258
13.0618 -33.7889 -1.5630
8.1218 -16.4673 -0.7922
6.9589 -11.4136 -0.5768
6.9340 -9.3748 -0.5031
8.6924 -9.7884 -0.5648
6.8997 -6.4966 -0.4089
8.5182 -6.6931 -0.4674
8.5155 -5.5387 -0.4383
8.6286 -4.5731 -0.4213
8.5111 -3.5787 -0.3984
8.5091 -2.7136 -0.3854
8.5072 -1.8969 -0.3761
8.6207 -1.1276 -0.3751
8.6189 -0.3514 -0.3722
8.5020 0.4134 -0.3673
8.5002 1.1797 -0.3703
8.6246 1.9941 -0.3819
8.6202 2.8236 -0.3914
8.6156 3.7023 -0.4046
28.1421 22.4715 -1.5539
25.6525 24.5355 -1.5316
21.7473 24.8795 -1.4258
19.8894 27.3360 -1.4586
15.7333 26.2659 -1.3210
13.6048 28.1380 -1.3485
12.2284 43.8907 -1.9659
-28.0888 22.7766 -1.5603
-24.2080 16.2795 -1.2587
-24.2012 13.3061 -1.1916
-24.1951 10.6131 -1.1400
-24.1894 8.1251 -1.1010
-24.1841 5.7834 -1.0729
-24.1790 3.5409 -1.0544
-24.1740 1.3573 -1.0447
-24.7823 -5.3307 -1.0937
-24.1538 -7.5033 -1.0913
-24.1482 -9.9408 -1.1267
-24.1422 -12.5637 -1.1743
-24.1356 -15.4415 -1.2363
-24.1283 -18.6673 -1.3162
-33.2943 -30.8805 -1.9593
-27.7331 -30.7613 -1.7870
-29.0328 -38.6418 -2.0854
-21.1859 -42.1545 -2.0356
12.2979 -34.9677 -1.5993
7.5032 -16.4687 -0.7808
6.9320 -12.1967 -0.6053
8.6987 -12.5487 -0.6588
6.9282 -8.3015 -0.4665
6.8917 -6.9001 -0.4208
8.6866 -7.2676 -0.4887
8.5164 -5.9190 -0.4475
8.6040 -4.9040 -0.4273
8.5118 -3.8905 -0.4038
8.5098 -3.0045 -0.3894
8.5079 -2.1732 -0.3789
8.5060 -1.3793 -0.3718
8.6196 -0.6168 -0.3729
8.5026 0.1521 -0.3669
8.5008 0.9148 -0.3689
8.6261 1.7174 -0.3795
8.6188 -0.2798 -0.3189
8.5018 0.4840 -0.3149
8.5000 1.2516 -0.3177
8.6242 2.0695 -0.3279
8.6198 2.9028 -0.3363
8.6152 3.7871 -0.3480
28.3958 23.0623 -1.3527
26.5914 25.8592 -1.3715
21.1753 24.6342 -1.2012
19.4580 27.2145 -1.2371
15.2326 25.9151 -1.1115
13.4925 28.5064 -1.1662
-32.4203 30.9605 -1.6576
-28.0879 22.3925 -1.3283
-24.2074 15.9892 -1.0727
-24.2007 13.0456 -1.0166
-24.1946 10.3746 -0.9734
-24.1889 7.9024 -0.9409
-24.1836 5.5718 -0.9177
-24.1785 3.3363 -0.9025
-24.1735 1.1564 -0.8949
-24.1586 -5.4065 -0.9154
-24.1533 -7.7233 -0.9377
-24.1477 -10.1755 -0.9689
-24.1416 -12.8189 -1.0107
-24.1350 -15.7246 -1.0651
-24.1275 -18.9886 -1.1353
-26.9681 -30.4161 -1.5031
-28.9782 -39.2424 -1.8038
12.1997 -33.7908 -1.3284
7.6963 -16.5281 -0.6742
8.7255 -15.0602 -0.6436
8.5906 -12.1758 -0.5510
6.9250 -8.1593 -0.3957
6.9811 -6.8747 -0.3623
8.6864 -7.1458 -0.4159
8.5162 -5.8147 -0.3813
8.6291 -4.8240 -0.3656
8.5116 -3.8055 -0.3448
8.5096 -2.9253 -0.3327
8.5077 -2.0981 -0.3240
8.5059 -1.3070 -0.3182
8.6194 -0.5450 -0.3194
8.5024 0.2226 -0.3145
8.5007 0.9862 -0.3164
8.6257 1.7918 -0.3258
8.6213 2.6116 -0.3331
8.6167 3.4763 -0.3436
29.8567 22.7643 -1.3883
25.8256 23.6164 -1.2940
21.9733 24.0295 -1.2040
19.8482 26.0329 -1.2105
16.0253 25.4425 -1.1118
13.9307 27.2377 -1.1312
9.4783 45.6312 -1.7233
-24.2099 17.0806 -1.0956
-24.2029 14.0221 -1.0343
-24.1966 11.2668 -0.9869
-24.1908 8.7334 -0.9510
-24.1854 6.3598 -0.9247
-24.1802 4.0963 -0.9068
-24.1752 1.9015 -0.8967
-27.8338 -5.3377 -1.0480
-24.1551 -6.9143 -0.9290
-24.1496 -9.3143 -0.9571
-24.1438 -11.8849 -0.9951
-24.1374 -14.6912 -1.0448
-24.1302 -17.8192 -1.1092
-24.1221 -21.3881 -1.1921
-21.0697 -22.3430 -1.1356
-26.8260 -41.1751 -1.8171
12.3041 -37.6606 -1.4650
5.9240 -13.8148 -0.5558
8.7069 -16.1514 -0.6785
8.7001 -13.1714 -0.5837
8.6949 -10.9062 -0.5158
6.9230 -7.2492 -0.3707
8.6874 -7.6055 -0.4269
6.8874 -5.0193 -0.3151
8.5161 -5.1100 -0.3672
8.5123 -4.1237 -0.3497
8.5103 -3.2208 -0.3365
8.5083 -2.3775 -0.3267
8.5065 -1.5757 -0.3199
8.6200 -0.8113 -0.3201
8.5030 -0.0384 -0.3144
8.5013 0.7226 -0.3155
8.4995 1.4951 -0.3191
8.6229 2.3257 -0.3302
8.6184 3.1730 -0.3396
8.6220 4.0810 -0.3527
26.0557 15.3158 -1.1176
32.6728 23.3614 -1.4852
26.8352 23.0679 -1.3085
5.8011 5.9656 -0.3077
20.0686 24.7106 -1.1771
5.7377 8.5181 -0.3797
14.7641 26.8046 -1.1315
-28.0851 21.1348 -1.2997
-24.2052 15.0341 -1.0536
-24.1987 12.1850 -1.0018
-24.1927 9.5831 -0.9622
-24.1872 7.1607 -0.9327
-24.1820 4.8645 -0.9121
-24.1769 2.6504 -0.8993
-33.4145 -5.3504 -1.2513
-24.1569 -6.1193 -0.9215
-24.1516 -8.4732 -0.9464
-24.1458 -10.9786 -0.9808
-24.1396 -13.6954 -1.0263
-24.1328 -16.7015 -1.0852
-24.1250 -20.1027 -1.1612
-25.2859 -30.1762 -1.4558
-26.9072 -38.6521 -1.7414
12.3140 -42.0181 -1.6190
13.2768 -33.7884 -1.3424
8.2801 -16.5570 -0.6845
6.9341 -11.2329 -0.4881
6.9276 -9.2586 -0.4276
8.6921 -9.6798 -0.4811
6.8995 -6.4248 -0.3486
8.5180 -6.6172 -0.3988
8.5154 -5.4718 -0.3743
8.6284 -4.5120 -0.3600
8.5109 -3.5234 -0.3406
8.5090 -2.6618 -0.3297
8.5071 -1.8476 -0.3219
8.6206 -1.0792 -0.3212
8.6188 -0.3036 -0.3189
8.5019 0.4604 -0.3148
8.5001 1.2276 -0.3176
8.6244 2.0444 -0.3277
8.6199 2.8764 -0.3360
8.6153 3.7587 -0.3476
28.2565 22.8198 -1.3430
25.5029 24.6639 -1.3119
21.1811 24.5037 -1.1976
19.5243 27.1483 -1.2365
15.1828 25.6678 -1.1027
13.5574 28.4401 -1.1650
11.9951 43.9922 -1.6861
-28.0882 22.5200 -1.3312
-24.2076 16.0856 -1.0747
-24.2008 13.1322 -1.0181
-24.1947 10.4540 -0.9746
-24.1891 7.9765 -0.9418
-24.1837 5.6422 -0.9182
-24.1786 3.4044 -0.9029
-24.1737 1.2234 -0.8950
-24.1587 -5.3365 -0.9148
-24.1534 -7.6498 -0.9368
-24.1478 -10.0971 -0.9678
-24.1418 -12.7336 -1.0092
-24.1352 -15.6300 -1.0632
-24.1278 -18.8811 -1.1329
-28.9969 -32.5228 -1.6112
-28.9787 -39.0170 -1.7971
12.0944 -33.7911 -1.3271
15.6177 -33.7831 -1.3762
6.9497 -12.0719 -0.5151
6.9531 -9.9129 -0.4477
8.6936 -10.3005 -0.4984
6.9427 -6.8748 -0.3613
8.6865 -7.1862 -0.4169
8.5162 -5.8493 -0.3820
8.6292 -4.8554 -0.3661
8.5117 -3.8337 -0.3452
8.5096 -2.9517 -0.3330
8.5078 -2.1231 -0.3242
8.5059 -1.3311 -0.3183
8.6194 -0.5689 -0.3194
8.5024 0.1991 -0.3145
8.5007 0.9624 -0.3163
8.6258 1.7670 -0.3256
8.6215 2.5857 -0.3328
8.6169 3.4487 -0.3432
11.8786 9.0050 -0.5512
25.9841 23.6298 -1.2987
22.1909 24.1332 -1.2123
19.9892 26.0681 -1.2147
16.2115 25.5811 -1.1199
14.0787 27.3403 -1.1371
-24.2101 17.1812 -1.0977
-24.2031 14.1116 -1.0360
-24.1968 11.3484 -0.9882
-24.1910 8.8091 -0.9520
-24.1856 6.4313 -0.9254
-24.1804 4.1651 -0.9073
-24.1754 1.9688 -0.8969
-28.2607 -5.3386 -1.0635
-24.1553 -6.8422 -0.9283
-24.1498 -9.2378 -0.9561
-24.1440 -11.8022 -0.9937
-24.1376 -14.6000 -1.0431
-24.1305 -17.7166 -1.1069
-24.1223 -21.2696 -1.1892
-21.0754 -22.2256 -1.1326
-26.1208 -39.8516 -1.7619
12.3049 -38.0188 -1.4776
5.8857 -13.8308 -0.5558
6.9360 -12.9519 -0.5432
6.9407 -10.5713 -0.4676
6.9395 -8.7539 -0.4131
8.6909 -9.1510 -0.4667
8.6875 -7.6481 -0.4280
6.8875 -5.0485 -0.3158
8.5156 -5.1418 -0.3678
8.5126 -4.1530 -0.3502
8.5103 -3.2478 -0.3368
8.5084 -2.4029 -0.3269
8.5065 -1.6001 -0.3201
8.6201 -0.8353 -0.3202
8.5030 -0.0619 -0.3144
8.5013 0.6990 -0.3154
8.4995 1.4709 -0.3190
8.6230 2.3002 -0.3300
8.6185 3.1460 -0.3393
8.6139 4.0481 -0.3519
32.7610 23.2879 -1.4863
26.7802 22.8923 -1.3027
5.8108 5.9425 -0.3073
21.0430 25.7646 -1.2301
5.7583 8.4979 -0.3796
14.7890 26.6750 -1.1278
13.2299 29.8736 -1.2081
-21.1700 27.5635 -1.2851
-28.0853 21.2568 -1.3024
-24.2054 15.1270 -1.0554
-24.1989 12.2690 -1.0032
-24.1929 9.6606 -0.9633
-24.1874 7.2335 -0.9335
-24.1821 4.9341 -0.9126
-24.1771 2.7181 -0.8996
-34.0254 -5.3518 -1.2736
-24.1571 -6.0484 -0.9208
-24.1517 -8.3984 -0.9455
-24.1460 -10.8983 -0.9796
-24.1398 -13.6075 -1.0247
-24.1330 -16.6031 -1.0831
-24.1253 -19.9901 -1.1585
-25.3612 -30.0967 -1.4553
-27.0350 -38.6079 -1.7428
12.3150 -42.4554 -1.6346
13.1692 -33.7886 -1.3409
6.9383 -13.9703 -0.5768
8.7024 -14.1850 -0.6154
8.6967 -11.6902 -0.5388
8.6923 -9.7339 -0.4826
8.6886 -8.1358 -0.4401
8.5181 -6.6551 -0.3997
8.5155 -5.5052 -0.3749
8.6285 -4.5425 -0.3606
8.5110 -3.5510 -0.3410
8.5090 -2.6877 -0.3300
8.5072 -1.8722 -0.3221
8.6207 -1.1034 -0.3214
8.6189 -0.3275 -0.3189
8.5019 0.4369 -0.3148
8.5002 1.2036 -0.3174
8.6245 2.0193 -0.3275
8.6201 2.8500 -0.3357
8.6155 3.7305 -0.3472
28.1190 22.5807 -1.3335
25.6419 24.6616 -1.3155
21.1448 24.3254 -1.1918
19.5905 27.0821 -1.2359
15.5527 26.1281 -1.1243
13.0985 27.2830 -1.1191
12.0927 43.8720 -1.6827
-28.0885 22.6481 -1.3342
-24.2078 16.1823 -1.0767
-24.2010 13.2190 -1.0197
-24.1949 10.5335 -0.9758
-24.1892 8.0508 -0.9427
-24.1839 5.7127 -0.9188
-24.1788 3.4726 -0.9032
-24.1738 1.2903 -0.8951
-24.4433 -5.3285 -0.9251
-24.1536 -7.5765 -0.9360
-24.1480 -10.0188 -0.9667
-24.1420 -12.6486 -1.0078
-24.1354 -15.5356 -1.0613
-24.1280 -18.7740 -1.1304
-33.1471 -30.9146 -1.6760
-29.1033 -32.4610 -1.6121
-28.9792 -38.7934 -1.7905
-21.0852 -42.2444 -1.7458
12.0761 -34.0363 -1.3354
6.9411 -15.1243 -0.6153
6.9766 -12.1966 -0.5196
6.9291 -9.9371 -0.4480
8.6937 -10.3587 -0.5001
6.9045 -6.8749 -0.3603
8.6866 -7.2268 -0.4178
8.5163 -5.8840 -0.3828
8.6293 -4.8869 -0.3667
8.5117 -3.8621 -0.3456
8.5097 -2.9780 -0.3334
8.5078 -2.1481 -0.3245
8.5060 -1.3552 -0.3185
8.6195 -0.5929 -0.3195
8.5025 0.1756 -0.3145
8.5008 0.9386 -0.3162
8.6260 1.7422 -0.3254
8.6216 2.5598 -0.3326
8.6170 3.4211 -0.3428
11.8708 8.9476 -0.5497
26.1439 23.6433 -1.3034
22.1431 23.9482 -1.2061
19.9725 25.8977 -1.2093
16.1444 25.3201 -1.1104
14.1569 27.3064 -1.1373
-24.2103 17.2821 -1.0999
-24.2033 14.2016 -1.0376
-24.1970 11.4301 -0.9895
-24.1912 8.8849 -0.9529
-24.1857 6.5030 -0.9261
-24.1805 4.2341 -0.9077
-24.1755 2.0360 -0.8971
-28.7009 -5.3396 -1.0795
-24.1554 -6.7701 -0.9276
-24.1500 -9.1615 -0.9551
-24.1441 -11.7197 -0.9924
-24.1378 -14.5092 -1.0414
-24.1307 -17.6143 -1.1047
-24.1226 -21.1517 -1.1863
-21.1350 -22.1654 -1.1325
-26.1479 -39.6533 -1.7563
12.3057 -38.3827 -1.4904
5.8513 -13.8561 -0.5562
8.7074 -16.3683 -0.6856
8.7005 -13.3317 -0.5887
6.9265 -8.7871 -0.4137
8.6911 -9.2019 -0.4680
8.6876 -7.6909 -0.4290
8.5172 -6.2794 -0.3913
8.5151 -5.1736 -0.3684
8.5132 -4.1824 -0.3507
8.5104 -3.2748 -0.3372
8.5084 -2.4283 -0.3272
8.5066 -1.6245 -0.3202
8.6201 -0.8594 -0.3203
8.5031 -0.0854 -0.3144
8.5014 0.6753 -0.3153
8.4996 1.4467 -0.3188
8.6231 2.2747 -0.3298
8.6187 3.1191 -0.3389
8.6140 4.0191 -0.3515
26.7257 22.7182 -1.2970
5.8315 5.9308 -0.3076
21.3191 25.9557 -1.2420
5.7789 8.4778 -0.3794
14.8049 26.5306 -1.1234
13.2949 29.7975 -1.2065
-21.0784 27.6017 -1.2842
-28.0856 21.3793 -1.3052
-24.2056 15.2203 -1.0573
-24.1991 12.3533 -1.0046
-24.1931 9.7383 -0.9643
-24.1875 7.3065 -0.9343
-24.1823 5.0037 -0.9131
-24.1772 2.7858 -0.8999
-34.6578 -5.3532 -1.2967
-24.1573 -5.9775 -0.9202
-24.1519 -8.3236 -0.9446
-24.1462 -10.8181 -0.9784
-24.1400 -13.5199 -1.0231
-24.1332 -16.5053 -1.0811
-24.1255 -19.8782 -1.1559
-25.4365 -30.0172 -1.4549
-27.1761 -38.5819 -1.7450
12.3160 -42.9020 -1.6504
13.0618 -33.7889 -1.3395
16.6609 -33.7807 -1.3928
6.9589 -11.4136 -0.4943
6.9340 -9.3748 -0.4312
8.6924 -9.7884 -0.4841
8.6887 -8.1811 -0.4413
8.5182 -6.6931 -0.4006
8.5155 -5.5387 -0.3756
8.6286 -4.5731 -0.3611
8.5111 -3.5787 -0.3414
8.5091 -2.7136 -0.3303
8.5072 -1.8969 -0.3223
8.6207 -1.1276 -0.3215
8.6189 -0.3514 -0.3190
8.5020 0.4134 -0.3147
8.5002 1.1797 -0.3173
8.6246 1.9941 -0.3273
8.6202 2.8236 -0.3354
8.6156 3.7023 -0.3467
27.9834 22.3448 -1.3241
25.7818 24.6593 -1.3192
21.6028 24.7142 -1.2137
19.6566 27.0161 -1.2354
15.6218 26.0797 -1.1241
13.2205 27.3430 -1.1230
12.2280 43.8894 -1.6847
-28.0888 22.7766 -1.3372
-24.2080 16.2795 -1.0787
-24.2012 13.3061 -1.0212
-24.1951 10.6131 -0.9769
-24.1894 8.1251 -0.9436
-24.1841 5.7834 -0.9195
-24.1790 3.5409 -0.9036
-24.1740 1.3573 -0.8953
-24.7758 -5.3293 -0.9371
-24.1538 -7.5033 -0.9352
-24.1482 -9.9408 -0.9656
-24.1422 -12.5637 -1.0063
-24.1356 -15.4415 -1.0595
-24.1283 -18.6673 -1.1280
-33.2272 -30.8182 -1.6757
-27.6713 -30.6928 -1.5281
-29.0328 -38.6418 -1.7872
-21.1854 -42.1535 -1.7445
12.0768 -34.3388 -1.3460
15.3919 -33.7836 -1.3727
6.9320 -12.1967 -0.5187
8.6987 -12.5487 -0.5646
6.9282 -8.3015 -0.3998
6.8917 -6.9001 -0.3606
8.6866 -7.2676 -0.4188
8.5164 -5.9190 -0.3835
8.6040 -4.9040 -0.3662
8.5118 -3.8905 -0.3461
8.5098 -3.0045 -0.3337
8.5079 -2.1732 -0.3247
8.5060 -1.3793 -0.3186
8.6196 -0.6168 -0.3195
8.5026 0.1521 -0.3144
8.5008 0.9148 -0.3161
8.6261 1.7174 -0.3252
8.6188 -0.2798 -0.2657
8.5018 0.4840 -0.2624
8.5000 1.2516 -0.2647
8.6242 2.0695 -0.2733
8.6198 2.9028 -0.2802
8.6151 3.7870 -0.2899
28.2333 22.9303 -1.1206
26.4502 25.7219 -1.1367
21.1471 24.6014 -0.9995
19.2556 26.9313 -1.0200
15.3062 26.0403 -0.9306
13.0700 27.6138 -0.9413
-32.4195 30.9597 -1.3811
-28.0879 22.3925 -1.1067
-24.2074 15.9892 -0.8938
-24.2007 13.0456 -0.8470
-24.1945 10.3746 -0.8111
-24.1889 7.9024 -0.7840
-24.1836 5.5718 -0.7646
-24.1785 3.3363 -0.7520
-24.1735 1.1564 -0.7456
-24.1586 -5.4065 -0.7627
-24.1533 -7.7233 -0.7813
-24.1477 -10.1755 -0.8073
-24.1416 -12.8189 -0.8421
-24.1350 -15.7247 -0.8875
-24.1275 -18.9886 -0.9460
-13.5196 -18.3083 -0.7012
-12.8529 -21.1177 -0.7617
12.1997 -33.7908 -1.1069
7.6963 -16.5281 -0.5617
8.7223 -15.0547 -0.5361
8.5906 -12.1758 -0.4591
6.9251 -8.1593 -0.3297
6.9811 -6.8747 -0.3019
8.6864 -7.1458 -0.3465
8.5162 -5.8147 -0.3177
8.6291 -4.8240 -0.3046
8.5116 -3.8054 -0.2873
8.5096 -2.9253 -0.2772
8.5077 -2.0981 -0.2700
8.5059 -1.3070 -0.2651
8.6194 -0.5450 -0.2661
8.5024 0.2226 -0.2620
8.5007 0.9862 -0.2637
8.6257 1.7918 -0.2714
8.6213 2.6116 -0.2775
8.6167 3.4763 -0.2863
29.9445 22.8312 -1.1602
25.9311 23.7128 -1.0826
22.0981 24.1659 -1.0089
20.0362 26.2794 -1.0181
16.1411 25.6264 -0.9331
14.0445 27.4601 -0.9503
9.4780 45.6299 -1.4358
-24.2099 17.0806 -0.9129
-24.2029 14.0221 -0.8618
-24.1966 11.2668 -0.8223
-24.1908 8.7334 -0.7924
-24.1854 6.3598 -0.7705
-24.1802 4.0963 -0.7556
-24.1752 1.9015 -0.7471
-27.8265 -5.3363 -0.8729
-24.1551 -6.9143 -0.7741
-24.1496 -9.3143 -0.7975
-24.1438 -11.8849 -0.8291
-24.1374 -14.6912 -0.8706
-24.1302 -17.8192 -0.9242
-24.1221 -21.3881 -0.9933
-21.0683 -22.3415 -0.9461
-14.4040 -18.3027 -0.7176
-12.8443 -19.7147 -0.7249
12.0828 -36.9832 -1.1987
5.9239 -13.8144 -0.4631
8.7069 -16.1514 -0.5653
8.7001 -13.1714 -0.4863
8.6949 -10.9062 -0.4297
6.9230 -7.2492 -0.3088
8.6874 -7.6055 -0.3557
6.8874 -5.0193 -0.2626
8.5161 -5.1100 -0.3060
8.5123 -4.1237 -0.2914
8.5103 -3.2208 -0.2803
8.5083 -2.3775 -0.2722
8.5065 -1.5757 -0.2665
8.6200 -0.8113 -0.2668
8.5030 -0.0384 -0.2620
8.5013 0.7226 -0.2629
8.4995 1.4951 -0.2659
8.6229 2.3257 -0.2752
8.6184 3.1730 -0.2830
8.6219 4.0810 -0.2939
26.0557 15.3158 -0.9312
33.5496 23.9883 -1.2707
25.8490 22.2202 -1.0502
5.8010 5.9654 -0.2564
20.6476 25.4234 -1.0091
5.7377 8.5181 -0.3164
14.7446 26.7692 -0.9416
-28.0851 21.1348 -1.0829
-24.2052 15.0341 -0.8779
-24.1987 12.1850 -0.8347
-24.1927 9.5831 -0.8017
-24.1872 7.1607 -0.7772
-24.1820 4.8645 -0.7600
-24.1769 2.6504 -0.7493
-33.4146 -5.3504 -1.0426
-24.1569 -6.1193 -0.7678
-24.1516 -8.4732 -0.7886
-24.1458 -10.9786 -0.8172
-24.1396 -13.6954 -0.8551
-24.1328 -16.7015 -0.9042
-24.1250 -20.1026 -0.9675
-25.2107 -30.0865 -1.2094
-12.8365 -18.4395 -0.6922
12.0926 -41.2624 -1.3247
13.2768 -33.7884 -1.1185
8.2801 -16.5570 -0.5703
6.9341 -11.2329 -0.4067
6.9276 -9.2586 -0.3563
8.6921 -9.6798 -0.4008
6.9262 -6.4497 -0.2916
8.5180 -6.6172 -0.3323
8.5154 -5.4718 -0.3119
8.6284 -4.5120 -0.3000
8.5109 -3.5234 -0.2838
8.5090 -2.6618 -0.2747
8.5071 -1.8476 -0.2682
8.6206 -1.0792 -0.2677
8.6188 -0.3036 -0.2657
8.5019 0.4604 -0.2623
8.5001 1.2276 -0.2646
8.6244 2.0444 -0.2731
8.6199 2.8764 -0.2800
8.6153 3.7587 -0.2896
28.0959 22.6901 -1.1127
25.6314 24.7881 -1.0986
21.0640 24.3682 -0.9924
19.3212 26.8659 -1.0196
15.3490 25.9488 -0.9289
13.1929 27.6755 -0.9446
11.9946 43.9905 -1.4048
-28.0882 22.5200 -1.1092
-24.2076 16.0856 -0.8955
-24.2008 13.1322 -0.8483
-24.1947 10.4540 -0.8120
-24.1891 7.9765 -0.7847
-24.1837 5.6422 -0.7651
-24.1786 3.4044 -0.7523
-24.1737 1.2234 -0.7457
-24.1587 -5.3365 -0.7623
-24.1534 -7.6498 -0.7806
-24.1478 -10.0971 -0.8064
-24.1418 -12.7336 -0.8409
-24.1352 -15.6300 -0.8859
-24.1278 -18.8811 -0.9439
-27.1703 -30.4741 -1.2579
-13.5976 -18.3078 -0.7026
-12.8521 -20.9856 -0.7582
12.0944 -33.7911 -1.1058
15.6177 -33.7831 -1.1467
6.9497 -12.0719 -0.4292
6.9530 -9.9129 -0.3731
8.6936 -10.3005 -0.4153
6.9427 -6.8748 -0.3010
8.6865 -7.1862 -0.3473
8.5162 -5.8493 -0.3183
8.6292 -4.8554 -0.3051
8.5117 -3.8337 -0.2876
8.5096 -2.9517 -0.2775
8.5078 -2.1231 -0.2702
8.5059 -1.3311 -0.2653
8.6194 -0.5689 -0.2661
8.5024 0.1991 -0.2620
8.5007 0.9624 -0.2636
8.6258 1.7670 -0.2713
8.6215 2.5857 -0.2773
8.6169 3.4487 -0.2860
11.8780 9.0046 -0.4592
26.0906 23.7267 -1.0865
22.0965 24.0305 -1.0058
19.9412 26.0055 -1.0097
16.3285 25.7658 -0.9398
14.0242 27.2346 -0.9438
-24.2101 17.1812 -0.9146
-24.2031 14.1116 -0.8632
-24.1968 11.3484 -0.8234
-24.1910 8.8091 -0.7932
-24.1856 6.4313 -0.7710
-24.1804 4.1651 -0.7560
-24.1754 1.9688 -0.7473
-28.2533 -5.3372 -0.8859
-24.1553 -6.8422 -0.7735
-24.1498 -9.2378 -0.7966
-24.1440 -11.8022 -0.8280
-24.1376 -14.6000 -0.8691
-24.1304 -17.7166 -0.9223
-24.1223 -21.2696 -0.9908
-21.0749 -22.2250 -0.9437
-14.4857 -18.3021 -0.7191
-12.8436 -19.5949 -0.7218
12.0836 -37.3350 -1.2090
5.8855 -13.8304 -0.4631
6.9360 -12.9519 -0.4527
6.9407 -10.5713 -0.3896
6.9395 -8.7539 -0.3442
8.6909 -9.1510 -0.3888
8.6875 -7.6481 -0.3566
6.8875 -5.0485 -0.2631
8.5156 -5.1418 -0.3065
8.5126 -4.1530 -0.2918
8.5103 -3.2478 -0.2806
8.5084 -2.4029 -0.2724
8.5065 -1.6001 -0.2667
8.6201 -0.8353 -0.2668
8.5030 -0.0619 -0.2620
8.5013 0.6990 -0.2628
8.4995 1.4709 -0.2658
8.6230 2.3002 -0.2750
8.6185 3.1460 -0.2827
8.6138 4.0481 -0.2932
33.6549 23.9233 -1.2722
26.9860 23.0682 -1.0938
5.8106 5.9424 -0.2561
20.7344 25.3867 -1.0099
5.7583 8.4979 -0.3162
14.6966 26.5084 -0.9338
-21.1695 27.5628 -1.0708
-28.0853 21.2568 -1.0852
-24.2054 15.1270 -0.8794
-24.1989 12.2690 -0.8359
-24.1929 9.6606 -0.8026
-24.1874 7.2335 -0.7778
-24.1821 4.9341 -0.7604
-24.1771 2.7181 -0.7496
-34.0254 -5.3518 -1.0612
-24.1571 -6.0484 -0.7672
-24.1517 -8.3984 -0.7878
-24.1460 -10.8983 -0.8162
-24.1398 -13.6075 -0.8538
-24.1330 -16.6031 -0.9025
-24.1253 -19.9901 -0.9653
-25.2894 -30.0115 -1.2092
-12.8358 -18.3304 -0.6894
12.0935 -41.6919 -1.3375
13.1692 -33.7886 -1.1173
6.9383 -13.9703 -0.4806
8.7024 -14.1850 -0.5127
8.6967 -11.6902 -0.4489
8.6923 -9.7339 -0.4021
8.6886 -8.1358 -0.3667
8.5181 -6.6551 -0.3330
8.5155 -5.5052 -0.3124
8.6285 -4.5425 -0.3004
8.5110 -3.5510 -0.2841
8.5090 -2.6877 -0.2749
8.5072 -1.8722 -0.2684
8.6207 -1.1034 -0.2678
8.6189 -0.3275 -0.2657
8.5019 0.4369 -0.2623
8.5002 1.2036 -0.2645
8.6245 2.0193 -0.2729
8.6201 2.8500 -0.2797
8.6154 3.7305 -0.2893
27.9604 22.4533 -1.1048
25.7714 24.7862 -1.1016
21.3061 24.5109 -1.0006
19.3869 26.8006 -1.0191
15.3343 25.7612 -0.9237
13.3167 27.7376 -0.9480
12.0925 43.8710 -1.4021
-28.0885 22.6481 -1.1117
-24.2078 16.1823 -0.8971
-24.2010 13.2190 -0.8496
-24.1949 10.5335 -0.8130
-24.1892 8.0508 -0.7855
-24.1839 5.7127 -0.7656
-24.1788 3.4726 -0.7526
-24.1738 1.2903 -0.7458
-24.4433 -5.3285 -0.7708
-24.1536 -7.5765 -0.7799
-24.1480 -10.0188 -0.8055
-24.1420 -12.6486 -0.8397
-24.1354 -15.5356 -0.8843
-24.1280 -18.7740 -0.9419
-13.6758 -18.3073 -0.7040
-12.8513 -20.8547 -0.7547
-21.0845 -42.2431 -1.4546
12.0761 -34.0363 -1.1127
6.9411 -15.1243 -0.5127
6.9766 -12.1966 -0.4329
6.9291 -9.9371 -0.3732
8.6937 -10.3587 -0.4167
6.9045 -6.8749 -0.3002
8.6866 -7.2268 -0.3481
8.5163 -5.8840 -0.3189
8.6293 -4.8869 -0.3055
8.5117 -3.8621 -0.2880
8.5097 -2.9780 -0.2778
8.5078 -2.1481 -0.2703
8.5060 -1.3552 -0.2654
8.6195 -0.5929 -0.2662
8.5025 0.1756 -0.2620
8.5008 0.9386 -0.2635
8.6260 1.7422 -0.2711
8.6216 2.5598 -0.2771
8.6170 3.4211 -0.2856
11.8706 8.9474 -0.4580
26.2514 23.7406 -1.0905
22.2465 24.0600 -1.0096
20.0468 25.9942 -1.0114
16.2599 25.5013 -0.9318
14.0372 27.0755 -0.9396
-24.2103 17.2821 -0.9165
-24.2033 14.2016 -0.8646
-24.1970 11.4301 -0.8245
-24.1912 8.8849 -0.7940
-24.1857 6.5030 -0.7716
-24.1805 4.2341 -0.7563
-24.1755 2.0360 -0.7475
-28.6934 -5.3383 -0.8992
-24.1554 -6.7701 -0.7729
-24.1500 -9.1615 -0.7958
-24.1441 -11.7198 -0.8269
-24.1378 -14.5092 -0.8677
-24.1307 -17.6143 -0.9205
-24.1226 -21.1517 -0.9885
-21.1344 -22.1649 -0.9436
-14.5677 -18.3016 -0.7207
-12.8428 -19.4761 -0.7188
12.0844 -37.6924 -1.2195
5.8511 -13.8556 -0.4634
8.7074 -16.3683 -0.5712
8.7005 -13.3317 -0.4905
6.9265 -8.7871 -0.3447
8.6911 -9.2019 -0.3900
8.6876 -7.6909 -0.3575
8.5172 -6.2794 -0.3260
8.5151 -5.1736 -0.3070
8.5132 -4.1824 -0.2922
8.5104 -3.2748 -0.2809
8.5084 -2.4283 -0.2726
8.5066 -1.6245 -0.2668
8.6201 -0.8594 -0.2669
8.5031 -0.0854 -0.2620
8.5014 0.6753 -0.2628
8.4996 1.4467 -0.2656
8.6231 2.2747 -0.2748
8.6187 3.1191 -0.2824
8.6140 4.0191 -0.2929
34.4349 24.3348 -1.2991
26.9301 22.8920 -1.0890
5.8314 5.9307 -0.2563
20.8214 25.3498 -1.0107
5.7789 8.4778 -0.3161
14.8029 26.5270 -0.9359
13.2622 29.7242 -1.0028
-21.0779 27.6010 -1.0700
-28.0856 21.3793 -1.0875
-24.2056 15.2203 -0.8809
-24.1991 12.3533 -0.8371
-24.1931 9.7383 -0.8035
-24.1876 7.3065 -0.7785
-24.1823 5.0037 -0.7608
-24.1772 2.7858 -0.7498
-34.6578 -5.3532 -1.0805
-24.1573 -5.9775 -0.7667
-24.1519 -8.3237 -0.7871
-24.1462 -10.8181 -0.8152
-24.1400 -13.5199 -0.8524
-24.1332 -16.5053 -0.9008
-24.1255 -19.8782 -0.9631
-25.3681 -29.9365 -1.2090
-12.8987 -18.3123 -0.6901
12.0945 -42.1305 -1.3505
13.0618 -33.7889 -1.1161
16.6609 -33.7807 -1.1605
6.9589 -11.4136 -0.4119
6.9340 -9.3748 -0.3593
8.6924 -9.7884 -0.4033
8.6887 -8.1811 -0.3677
8.5182 -6.6931 -0.3338
8.5155 -5.5387 -0.3130
8.6286 -4.5731 -0.3009
8.5111 -3.5787 -0.2845
8.5091 -2.7136 -0.2752
8.5072 -1.8969 -0.2685
8.6207 -1.1276 -0.2679
8.6189 -0.3514 -0.2658
8.5020 0.4134 -0.2623
8.5002 1.1797 -0.2644
8.6246 1.9941 -0.2727
8.6202 2.8236 -0.2795
8.6156 3.7023 -0.2889
27.8267 22.2196 -1.0971
25.9124 24.7842 -1.1047
21.2940 24.3609 -0.9969
19.4524 26.7354 -1.0187
15.3140 25.5660 -0.9182
13.4415 27.8003 -0.9514
12.2277 43.8881 -1.4037
-28.0888 22.7766 -1.1142
-24.2080 16.2795 -0.8988
-24.2012 13.3061 -0.8509
-24.1951 10.6131 -0.8140
-24.1894 8.1251 -0.7862
-24.1841 5.7834 -0.7661
-24.1790 3.5409 -0.7529
-24.1740 1.3573 -0.7460
-24.7758 -5.3293 -0.7808
-24.1538 -7.5033 -0.7792
-24.1482 -9.9408 -0.8046
-24.1422 -12.5637 -0.8385
-24.1356 -15.4415 -0.8828
-24.1283 -18.6673 -0.9399
-13.7545 -18.3068 -0.7055
-12.8505 -20.7249 -0.7513
-21.1849 -42.1525 -1.4535
12.0768 -34.3388 -1.1215
15.3919 -33.7836 -1.1438
6.9320 -12.1967 -0.4322
8.6987 -12.5487 -0.4704
6.9282 -8.3015 -0.3331
6.8917 -6.9001 -0.3005
8.6866 -7.2676 -0.3489
8.5164 -5.9190 -0.3195
8.6040 -4.9040 -0.3051
8.5118 -3.8905 -0.2883
8.5098 -3.0045 -0.2780
8.5079 -2.1732 -0.2705
8.5060 -1.3793 -0.2655
8.6196 -0.6168 -0.2662
8.5026 0.1521 -0.2620
8.5008 0.9148 -0.2634
8.6261 1.7174 -0.2710
8.6188 -0.2798 -0.2125
8.5018 0.4840 -0.2099
8.5000 1.2516 -0.2117
8.6242 2.0695 -0.2186
8.6198 2.9028 -0.2242
8.6151 3.7870 -0.2319
28.0728 22.7999 -0.8913
26.3105 25.5861 -0.9045
21.2429 24.7129 -0.8031
19.5829 27.3892 -0.8298
15.5174 26.3996 -0.7547
13.2897 28.0781 -0.7656
-32.4187 30.9590 -1.1047
-28.0872 22.3919 -0.8853
-24.2074 15.9892 -0.7150
-24.2007 13.0456 -0.6776
-24.1946 10.3746 -0.6488
-24.1889 7.9024 -0.6271
-24.1836 5.5718 -0.6116
-24.1785 3.3363 -0.6015
-24.1735 1.1564 -0.5964
-24.1586 -5.4065 -0.6101
-24.1533 -7.7233 -0.6249
-24.1477 -10.1755 -0.6458
-24.1416 -12.8189 -0.6736
-24.1350 -15.7247 -0.7099
-24.1275 -18.9886 -0.7567
-13.5211 -18.3103 -0.5610
-12.8529 -21.1177 -0.6093
12.1997 -33.7908 -0.8854
7.6963 -16.5281 -0.4493
8.7191 -15.0492 -0.4286
8.5906 -12.1758 -0.3672
6.9250 -8.1593 -0.2638
6.9811 -6.8747 -0.2415
8.6864 -7.1458 -0.2772
8.5162 -5.8147 -0.2541
8.6291 -4.8240 -0.2436
8.5116 -3.8055 -0.2298
8.5096 -2.9253 -0.2218
8.5077 -2.0981 -0.2160
8.5059 -1.3070 -0.2121
8.6194 -0.5450 -0.2128
8.5024 0.2226 -0.2096
8.5007 0.9862 -0.2109
8.6257 1.7918 -0.2171
8.6213 2.6116 -0.2220
8.6167 3.4763 -0.2290
30.0327 22.8985 -0.9308
25.1029 22.9555 -0.8383
22.2242 24.3039 -0.8116
19.8749 26.0678 -0.8079
16.2586 25.8129 -0.7518
13.9620 27.2988 -0.7557
9.4778 45.6286 -1.1485
-24.2099 17.0806 -0.7302
-24.2029 14.0221 -0.6893
-24.1966 11.2668 -0.6578
-24.1908 8.7334 -0.6338
-24.1854 6.3598 -0.6163
-24.1802 4.0963 -0.6044
-24.1752 1.9015 -0.5976
-27.8265 -5.3363 -0.6983
-24.1551 -6.9143 -0.6192
-24.1496 -9.3143 -0.6379
-24.1438 -11.8849 -0.6632
-24.1374 -14.6912 -0.6964
-24.1302 -17.8192 -0.7393
-24.1221 -21.3881 -0.7945
-21.0670 -22.3400 -0.7568
-14.4056 -18.3047 -0.5741
-12.8443 -19.7146 -0.5799
12.0828 -36.9832 -0.9589
5.9237 -13.8141 -0.3704
8.7069 -16.1514 -0.4522
8.7001 -13.1714 -0.3890
8.6949 -10.9062 -0.3437
6.9230 -7.2492 -0.2470
8.6874 -7.6055 -0.2846
6.8874 -5.0193 -0.2100
8.5161 -5.1100 -0.2448
8.5123 -4.1237 -0.2331
8.5103 -3.2209 -0.2243
8.5083 -2.3775 -0.2177
8.5065 -1.5757 -0.2132
8.6200 -0.8113 -0.2134
8.5030 -0.0384 -0.2096
8.5013 0.7226 -0.2103
8.4995 1.4951 -0.2127
8.6229 2.3257 -0.2201
8.6184 3.1730 -0.2263
8.6219 4.0810 -0.2351
26.0557 15.3158 -0.7449
33.4946 23.9490 -1.0148
25.9892 22.3408 -0.8446
5.8008 5.9653 -0.2051
20.4681 25.2025 -0.8001
5.7377 8.5181 -0.2532
14.6208 26.5443 -0.7469
-28.0843 21.1343 -0.8662
-24.2052 15.0341 -0.7022
-24.1987 12.1850 -0.6677
-24.1927 9.5831 -0.6413
-24.1872 7.1607 -0.6217
-24.1820 4.8645 -0.6079
-24.1769 2.6504 -0.5994
-33.4058 -5.3490 -0.8338
-24.1569 -6.1193 -0.6141
-24.1516 -8.4732 -0.6308
-24.1458 -10.9786 -0.6537
-24.1396 -13.6954 -0.6840
-24.1328 -16.7015 -0.7233
-24.1250 -20.1027 -0.7739
-25.1639 -30.0306 -0.9656
-12.8364 -18.4395 -0.5537
-12.8615 -22.5252 -0.6393
12.0926 -41.2624 -1.0597
13.2768 -33.7884 -0.8947
8.2801 -16.5570 -0.4562
6.9341 -11.2329 -0.3253
6.9276 -9.2586 -0.2850
8.6921 -9.6798 -0.3206
6.9262 -6.4497 -0.2332
8.5180 -6.6172 -0.2658
8.5154 -5.4718 -0.2495
8.6284 -4.5120 -0.2400
8.5109 -3.5234 -0.2270
8.5090 -2.6618 -0.2197
8.5071 -1.8476 -0.2145
8.6206 -1.0792 -0.2141
8.6188 -0.3036 -0.2125
8.5019 0.4604 -0.2098
8.5001 1.2276 -0.2117
8.6244 2.0444 -0.2184
8.6199 2.8764 -0.2240
8.6153 3.7587 -0.2316
27.9372 22.5620 -0.8850
26.4904 25.6189 -0.9082
21.2118 24.5392 -0.7994
19.6291 27.2939 -0.8285
15.5015 26.2066 -0.7504
13.4155 28.1425 -0.7683
11.9941 43.9888 -1.1237
-28.0875 22.5194 -0.8872
-24.2076 16.0856 -0.7163
-24.2008 13.1322 -0.6786
-24.1947 10.4540 -0.6496
-24.1891 7.9765 -0.6277
-24.1837 5.6422 -0.6120
-24.1786 3.4044 -0.6018
-24.1737 1.2234 -0.5965
-24.1587 -5.3365 -0.6097
-24.1534 -7.6498 -0.6244
-24.1478 -10.0971 -0.6451
-24.1418 -12.7336 -0.6727
-24.1352 -15.6300 -0.7086
-24.1278 -18.8811 -0.7551
-13.5991 -18.3098 -0.5621
-12.8521 -20.9856 -0.6065
12.0944 -33.7911 -0.8845
15.6177 -33.7831 -0.9172
6.9497 -12.0719 -0.3433
6.9531 -9.9129 -0.2984
8.6936 -10.3005 -0.3322
6.9427 -6.8748 -0.2408
8.6865 -7.1862 -0.2778
8.5162 -5.8493 -0.2546
8.6292 -4.8554 -0.2440
8.5117 -3.8337 -0.2301
8.5096 -2.9517 -0.2220
8.5078 -2.1231 -0.2161
8.5059 -1.3311 -0.2122
8.6194 -0.5689 -0.2129
8.5024 0.1991 -0.2096
8.5007 0.9624 -0.2108
8.6258 1.7670 -0.2170
8.6215 2.5857 -0.2218
8.6169 3.4487 -0.2287
11.8775 9.0042 -0.3673
25.2136 22.9291 -0.8399
22.2222 24.1672 -0.8091
19.9077 25.9617 -0.8063
16.2565 25.6521 -0.7485
13.8738 26.9424 -0.7469
-24.2101 17.1812 -0.7316
-24.2031 14.1116 -0.6905
-24.1968 11.3484 -0.6587
-24.1910 8.8091 -0.6345
-24.1856 6.4313 -0.6168
-24.1804 4.1651 -0.6047
-24.1754 1.9688 -0.5978
-28.2533 -5.3372 -0.7086
-24.1553 -6.8422 -0.6187
-24.1498 -9.2378 -0.6372
-24.1440 -11.8022 -0.6623
-24.1376 -14.6000 -0.6952
-24.1304 -17.7166 -0.7378
-24.1223 -21.2696 -0.7926
-21.0743 -22.2245 -0.7548
-14.4873 -18.3042 -0.5753
-12.8435 -19.5949 -0.5774
12.0836 -37.3350 -0.9671
5.8854 -13.8301 -0.3704
6.9360 -12.9519 -0.3621
6.9408 -10.5713 -0.3117
6.9395 -8.7539 -0.2753
8.6909 -9.1510 -0.3110
8.6875 -7.6481 -0.2853
6.8875 -5.0485 -0.2105
8.5156 -5.1418 -0.2452
8.5126 -4.1530 -0.2334
8.5103 -3.2478 -0.2245
8.5084 -2.4029 -0.2179
8.5065 -1.6001 -0.2133
8.6201 -0.8353 -0.2134
8.5030 -0.0619 -0.2096
8.5013 0.6990 -0.2102
8.4995 1.4709 -0.2126
8.6230 2.3002 -0.2199
8.6185 3.1460 -0.2261
8.6138 4.0481 -0.2346
33.5996 23.8840 -1.0160
25.9589 22.1902 -0.8416
5.8105 5.9422 -0.2048
20.5540 25.1659 -0.8008
5.7583 8.4979 -0.2530
14.6979 26.5109 -0.7471
-21.1690 27.5621 -0.8565
-28.0846 21.2563 -0.8680
-24.2054 15.1270 -0.7034
-24.1989 12.2690 -0.6686
-24.1929 9.6606 -0.6420
-24.1874 7.2335 -0.6222
-24.1821 4.9341 -0.6082
-24.1771 2.7181 -0.5996
-34.0165 -5.3504 -0.8486
-24.1571 -6.0484 -0.6137
-24.1517 -8.3984 -0.6302
-24.1460 -10.8983 -0.6529
-24.1398 -13.6075 -0.6829
-24.1330 -16.6031 -0.7219
-24.1253 -19.9901 -0.7721
-25.2424 -29.9558 -0.9654
-12.8358 -18.3304 -0.5515
-12.8606 -22.3800 -0.6361
12.0935 -41.6919 -1.0698
13.1692 -33.7886 -0.8937
6.9383 -13.9703 -0.3844
8.7024 -14.1850 -0.4101
8.6967 -11.6902 -0.3591
8.6923 -9.7339 -0.3216
8.6886 -8.1358 -0.2934
8.5181 -6.6551 -0.2664
8.5155 -5.5052 -0.2499
8.6285 -4.5425 -0.2403
8.5110 -3.5510 -0.2273
8.5090 -2.6877 -0.2199
8.5072 -1.8722 -0.2147
8.6207 -1.1034 -0.2142
8.6189 -0.3275 -0.2126
8.5019 0.4369 -0.2098
8.5002 1.2036 -0.2116
8.6245 2.0193 -0.2183
8.6201 2.8500 -0.2238
8.6154 3.7305 -0.2314
29.7283 23.8730 -0.9396
25.9023 24.9120 -0.8857
21.2575 24.4550 -0.7986
19.1082 26.4153 -0.8035
15.4858 26.0156 -0.7461
13.5423 28.2074 -0.7711
12.0922 43.8700 -1.1215
-28.0878 22.6475 -0.8892
-24.2078 16.1823 -0.7176
-24.2010 13.2190 -0.6796
-24.1949 10.5335 -0.6503
-24.1892 8.0508 -0.6283
-24.1839 5.7127 -0.6124
-24.1788 3.4726 -0.6020
-24.1738 1.2903 -0.5966
-24.4433 -5.3285 -0.6165
-24.1536 -7.5765 -0.6239
-24.1480 -10.0188 -0.6443
-24.1420 -12.6486 -0.6717
-24.1354 -15.5356 -0.7074
-24.1280 -18.7740 -0.7534
-13.6773 -18.3093 -0.5632
-12.8513 -20.8547 -0.6037
-21.0839 -42.2418 -1.1635
12.0761 -34.0363 -0.8901
6.9411 -15.1243 -0.4101
6.9766 -12.1966 -0.3463
6.9291 -9.9371 -0.2986
8.6937 -10.3587 -0.3333
6.9045 -6.8749 -0.2401
8.6866 -7.2268 -0.2785
8.5163 -5.8840 -0.2551
8.6293 -4.8869 -0.2444
8.5117 -3.8621 -0.2304
8.5097 -2.9780 -0.2222
8.5078 -2.1481 -0.2163
8.5060 -1.3552 -0.2123
8.6195 -0.5929 -0.2129
8.5025 0.1756 -0.2096
8.5008 0.9386 -0.2108
8.6260 1.7422 -0.2169
8.6216 2.5598 -0.2216
8.6170 3.4211 -0.2285
11.8703 8.9472 -0.3663
25.3248 22.9026 -0.8415
22.3509 24.1728 -0.8114
19.7893 25.6602 -0.7986
16.3770 25.6851 -0.7507
14.1951 27.3801 -0.7601
-24.2103 17.2821 -0.7331
-24.2033 14.2016 -0.6916
-24.1970 11.4301 -0.6595
-24.1912 8.8849 -0.6351
-24.1857 6.5030 -0.6172
-24.1805 4.2341 -0.6050
-24.1755 2.0360 -0.5979
-28.6934 -5.3383 -0.7193
-24.1554 -6.7701 -0.6182
-24.1500 -9.1615 -0.6366
-24.1441 -11.7198 -0.6614
-24.1378 -14.5092 -0.6941
-24.1307 -17.6143 -0.7363
-24.1226 -21.1517 -0.7907
-21.1339 -22.1643 -0.7548
-14.5693 -18.3036 -0.5765
-12.8428 -19.4761 -0.5749
12.0844 -37.6924 -0.9755
5.8509 -13.8552 -0.3707
8.7074 -16.3683 -0.4569
8.7005 -13.3317 -0.3923
6.9265 -8.7871 -0.2757
8.6911 -9.2019 -0.3119
6.9988 -6.1958 -0.2304
8.5172 -6.2794 -0.2608
8.5151 -5.1736 -0.2456
8.5132 -4.1824 -0.2338
8.5104 -3.2748 -0.2247
8.5084 -2.4283 -0.2181
8.5066 -1.6245 -0.2134
8.6201 -0.8594 -0.2135
8.5031 -0.0854 -0.2096
8.5014 0.6753 -0.2102
8.4996 1.4467 -0.2125
8.6231 2.2747 -0.2198
8.6187 3.1191 -0.2259
8.6140 4.0191 -0.2343
33.7048 23.8189 -1.0171
25.9287 22.0407 -0.8387
5.8312 5.9305 -0.2050
20.6402 25.1292 -0.8014
5.7789 8.4778 -0.2529
14.7068 26.3548 -0.7438
-21.0774 27.6003 -0.8559
-28.0849 21.3787 -0.8699
-24.2056 15.2203 -0.7047
-24.1991 12.3533 -0.6696
-24.1931 9.7383 -0.6427
-24.1875 7.3065 -0.6227
-24.1823 5.0037 -0.6086
-24.1772 2.7858 -0.5998
-34.6487 -5.3518 -0.8640
-24.1573 -5.9775 -0.6133
-24.1519 -8.3237 -0.6296
-24.1462 -10.8181 -0.6521
-24.1400 -13.5199 -0.6819
-24.1332 -16.5053 -0.7206
-24.1255 -19.8782 -0.7704
-25.3210 -29.8809 -0.9653
-12.9001 -18.3142 -0.5521
-12.8597 -22.2358 -0.6330
12.0945 -42.1305 -1.0802
13.0618 -33.7889 -0.8928
16.6609 -33.7807 -0.9283
6.9589 -11.4136 -0.3294
6.9340 -9.3748 -0.2874
8.6924 -9.7884 -0.3226
8.6887 -8.1811 -0.2941
8.5182 -6.6931 -0.2670
8.5155 -5.5387 -0.2503
8.6286 -4.5731 -0.2407
8.5111 -3.5787 -0.2275
8.5091 -2.7136 -0.2201
8.5072 -1.8969 -0.2148
8.6207 -1.1276 -0.2143
8.6189 -0.3514 -0.2126
8.5020 0.4134 -0.2098
8.5002 1.1797 -0.2115
8.6246 1.9941 -0.2182
8.6202 2.8236 -0.2236
8.6155 3.7023 -0.2311
29.7620 23.7650 -0.9386
26.0443 24.9103 -0.8882
21.3082 24.3771 -0.7979
19.2846 26.5047 -0.8078
15.4702 25.8267 -0.7419
13.6700 28.2728 -0.7740
12.2273 43.8868 -1.1228
-28.0881 22.7760 -0.8912
-24.2080 16.2795 -0.7190
-24.2012 13.3061 -0.6806
-24.1951 10.6131 -0.6511
-24.1894 8.1251 -0.6289
-24.1841 5.7834 -0.6128
-24.1790 3.5409 -0.6022
-24.1740 1.3573 -0.5967
-24.7758 -5.3293 -0.6246
-24.1538 -7.5033 -0.6233
-24.1482 -9.9408 -0.6436
-24.1422 -12.5637 -0.6707
-24.1356 -15.4415 -0.7061
-24.1283 -18.6673 -0.7518
-27.4308 -30.4261 -1.0096
-13.7560 -18.3088 -0.5644
-12.8505 -20.7248 -0.6010
-21.1844 -42.1515 -1.1626
12.0768 -34.3388 -0.8971
15.3919 -33.7836 -0.9149
6.9320 -12.1967 -0.3457
8.6987 -12.5487 -0.3763
6.9282 -8.3015 -0.2665
6.8917 -6.9001 -0.2404
8.6866 -7.2676 -0.2791
8.5164 -5.9190 -0.2556
8.6040 -4.9040 -0.2441
8.5118 -3.8905 -0.2306
8.5098 -3.0045 -0.2224
8.5079 -2.1732 -0.2164
8.5060 -1.3793 -0.2124
8.6196 -0.6168 -0.2130
8.5026 0.1521 -0.2096
8.5008 0.9148 -0.2107
8.6261 1.7174 -0.2168
8.6188 -0.2798 -0.1594
8.5018 0.4840 -0.1574
8.5000 1.2516 -0.1588
8.6242 2.0695 -0.1639
8.6198 2.9028 -0.1681
8.6151 3.7870 -0.1739
27.9140 22.6710 -0.6646
26.1724 25.4517 -0.6747
21.3397 24.8254 -0.6050
19.1883 26.8373 -0.6097
15.3020 26.0330 -0.5581
12.9859 27.4360 -0.5610
-32.4179 30.9582 -0.8285
-28.0872 22.3919 -0.6639
-24.2074 15.9892 -0.5362
-24.2007 13.0456 -0.5081
-24.1946 10.3746 -0.4865
-24.1889 7.9024 -0.4703
-24.1836 5.5718 -0.4587
-24.1785 3.3363 -0.4511
-24.1735 1.1564 -0.4473
-24.1586 -5.4065 -0.4575
-24.1533 -7.7233 -0.4687
-24.1477 -10.1755 -0.4843
-24.1416 -12.8189 -0.5052
-24.1350 -15.7247 -0.5324
-24.1275 -18.9886 -0.5675
-13.5225 -18.3123 -0.4207
-12.8529 -21.1177 -0.4569
12.2959 -34.0571 -0.6692
7.6963 -16.5281 -0.3370
8.7159 -15.0437 -0.3213
8.5906 -12.1758 -0.2754
6.9251 -8.1593 -0.1978
6.9811 -6.8747 -0.1811
8.6864 -7.1458 -0.2079
8.5162 -5.8147 -0.1906
8.6291 -4.8240 -0.1827
8.5116 -3.8054 -0.1723
8.5096 -2.9253 -0.1663
8.5077 -2.0981 -0.1620
8.5059 -1.3070 -0.1591
8.6194 -0.5450 -0.1596
8.5024 0.2226 -0.1572
8.5007 0.9862 -0.1582
8.6257 1.7918 -0.1628
8.6213 2.6116 -0.1665
8.6167 3.4763 -0.1717
30.1214 22.9661 -0.7001
25.1634 23.0108 -0.6302
22.4764 24.5796 -0.6156
19.9094 26.1130 -0.6069
16.4019 26.0404 -0.5688
13.9902 27.3541 -0.5678
9.4775 45.6273 -0.8613
-24.2099 17.0806 -0.5476
-24.2029 14.0221 -0.5170
-24.1966 11.2668 -0.4933
-24.1908 8.7334 -0.4753
-24.1854 6.3598 -0.4622
-24.1802 4.0963 -0.4533
-24.1752 1.9015 -0.4482
-27.8265 -5.3363 -0.5237
-24.1551 -6.9143 -0.4644
-24.1496 -9.3143 -0.4784
-24.1438 -11.8849 -0.4974
-24.1374 -14.6912 -0.5222
-24.1302 -17.8192 -0.5544
-24.1221 -21.3881 -0.5958
-21.0656 -22.3386 -0.5675
-14.4072 -18.3067 -0.4306
-12.8443 -19.7146 -0.4349
12.3041 -37.6605 -0.7322
5.9236 -13.8138 -0.2778
8.7069 -16.1515 -0.3391
8.7001 -13.1714 -0.2917
8.6949 -10.9062 -0.2578
6.9230 -7.2492 -0.1853
8.6874 -7.6055 -0.2134
6.8874 -5.0193 -0.1575
8.5161 -5.1100 -0.1836
8.5123 -4.1237 -0.1748
8.5103 -3.2208 -0.1682
8.5083 -2.3775 -0.1633
8.5065 -1.5757 -0.1599
8.6200 -0.8113 -0.1600
8.5030 -0.0384 -0.1572
8.5013 0.7226 -0.1577
8.4995 1.4951 -0.1595
8.6229 2.3257 -0.1651
8.6184 3.1730 -0.1697
8.6219 4.0810 -0.1763
26.0557 15.3158 -0.5586
33.4397 23.9097 -0.7598
24.9178 21.4198 -0.6073
5.8007 5.9651 -0.1538
21.1124 25.9958 -0.6189
5.7377 8.5181 -0.1898
14.9022 27.0552 -0.5709
-28.0843 21.1343 -0.6496
-24.2052 15.0341 -0.5266
-24.1987 12.1850 -0.5007
-24.1927 9.5831 -0.4809
-24.1872 7.1607 -0.4662
-24.1820 4.8645 -0.4559
-24.1769 2.6504 -0.4495
-33.4058 -5.3490 -0.6253
-24.1569 -6.1193 -0.4606
-24.1516 -8.4732 -0.4730
-24.1458 -10.9786 -0.4902
-24.1396 -13.6954 -0.5129
-24.1328 -16.7015 -0.5424
-24.1250 -20.1027 -0.5804
-12.8364 -18.4395 -0.4152
-12.8615 -22.5252 -0.4794
12.3140 -42.0181 -0.8092
13.2768 -33.7884 -0.6710
8.2801 -16.5570 -0.3421
6.9341 -11.2329 -0.2440
6.9276 -9.2586 -0.2137
8.6921 -9.6798 -0.2404
6.9262 -6.4497 -0.1749
8.5180 -6.6172 -0.1994
8.5154 -5.4718 -0.1871
8.6284 -4.5120 -0.1800
8.5109 -3.5234 -0.1702
8.5090 -2.6618 -0.1648
8.5071 -1.8476 -0.1609
8.6206 -1.0792 -0.1606
8.6188 -0.3036 -0.1594
8.5019 0.4604 -0.1574
8.5001 1.2276 -0.1587
8.6244 2.0444 -0.1638
8.6199 2.8764 -0.1679
8.6153 3.7587 -0.1737
29.7832 24.0527 -0.7075
24.5740 23.7656 -0.6318
21.3079 24.6504 -0.6022
19.1209 26.5873 -0.6053
15.6990 26.5404 -0.5699
13.0940 27.4681 -0.5624
11.9937 43.9871 -0.8427
-28.0875 22.5194 -0.6654
-24.2076 16.0856 -0.5372
-24.2008 13.1322 -0.5089
-24.1947 10.4540 -0.4871
-24.1891 7.9765 -0.4707
-24.1837 5.6422 -0.4590
-24.1786 3.4044 -0.4513
-24.1737 1.2234 -0.4473
-24.1587 -5.3365 -0.4573
-24.1534 -7.6498 -0.4683
-24.1478 -10.0971 -0.4837
-24.1418 -12.7336 -0.5044
-24.1352 -15.6300 -0.5314
-24.1278 -18.8811 -0.5662
-13.6005 -18.3118 -0.4216
-12.8520 -20.9856 -0.4548
12.2965 -34.3559 -0.6744
15.6177 -33.7831 -0.6879
6.9497 -12.0719 -0.2574
6.9530 -9.9129 -0.2238
8.6936 -10.3005 -0.2491
6.9427 -6.8748 -0.1806
8.6865 -7.1862 -0.2084
8.5162 -5.8493 -0.1909
8.6292 -4.8554 -0.1830
8.5117 -3.8337 -0.1725
8.5096 -2.9517 -0.1665
8.5078 -2.1231 -0.1621
8.5059 -1.3311 -0.1591
8.6194 -0.5689 -0.1597
8.5024 0.1991 -0.1572
8.5007 0.9624 -0.1581
8.6258 1.7670 -0.1627
8.6215 2.5857 -0.1664
8.6169 3.4486 -0.1715
11.8770 9.0038 -0.2755
25.2745 22.9845 -0.6314
22.3494 24.3055 -0.6103
19.9421 26.0067 -0.6057
16.5313 26.0857 -0.5708
14.2302 27.6347 -0.5745
-24.2101 17.1812 -0.5487
-24.2031 14.1116 -0.5178
-24.1968 11.3484 -0.4939
-24.1910 8.8091 -0.4758
-24.1856 6.4313 -0.4625
-24.1804 4.1651 -0.4535
-24.1754 1.9688 -0.4483
-28.2533 -5.3372 -0.5314
-24.1553 -6.8422 -0.4640
-24.1498 -9.2378 -0.4779
-24.1440 -11.8022 -0.4967
-24.1376 -14.6000 -0.5214
-24.1304 -17.7166 -0.5533
-24.1223 -21.2696 -0.5944
-21.0738 -22.2239 -0.5660
-14.4889 -18.3062 -0.4315
-12.8435 -19.5949 -0.4330
12.3049 -38.0187 -0.7385
5.8852 -13.8298 -0.2778
6.9360 -12.9519 -0.2716
6.9407 -10.5713 -0.2337
6.9395 -8.7539 -0.2065
8.6909 -9.1510 -0.2333
6.9682 -6.1345 -0.1716
6.8875 -5.0485 -0.1578
8.5156 -5.1418 -0.1839
8.5126 -4.1530 -0.1751
8.5103 -3.2478 -0.1684
8.5084 -2.4029 -0.1634
8.5065 -1.6001 -0.1600
8.6201 -0.8353 -0.1601
8.5030 -0.0619 -0.1572
8.5013 0.6990 -0.1577
8.4995 1.4709 -0.1594
8.6230 2.3002 -0.1649
8.6185 3.1460 -0.1696
8.6138 4.0481 -0.1759
33.5445 23.8448 -0.7606
24.8698 21.2592 -0.6047
5.8103 5.9421 -0.1536
20.8748 25.5586 -0.6099
5.7583 8.4979 -0.1897
15.0163 27.0850 -0.5724
-21.1685 27.5615 -0.6423
-28.0846 21.2563 -0.6510
-24.2054 15.1270 -0.5275
-24.1989 12.2690 -0.5014
-24.1929 9.6606 -0.4815
-24.1874 7.2335 -0.4666
-24.1821 4.9341 -0.4561
-24.1771 2.7181 -0.4497
-34.0165 -5.3504 -0.6364
-24.1571 -6.0484 -0.4603
-24.1517 -8.3984 -0.4726
-24.1460 -10.8983 -0.4896
-24.1398 -13.6075 -0.5122
-24.1330 -16.6031 -0.5414
-24.1253 -19.9901 -0.5791
-12.8358 -18.3304 -0.4136
-12.8606 -22.3799 -0.4771
12.3150 -42.4554 -0.8170
13.1692 -33.7886 -0.6702
6.9383 -13.9703 -0.2883
8.7024 -14.1850 -0.3076
8.6967 -11.6902 -0.2693
8.6923 -9.7339 -0.2412
8.6886 -8.1358 -0.2200
8.5181 -6.6551 -0.1998
8.5155 -5.5052 -0.1874
8.6285 -4.5425 -0.1802
8.5110 -3.5510 -0.1704
8.5090 -2.6877 -0.1649
8.5072 -1.8722 -0.1610
8.6207 -1.1034 -0.1606
8.6189 -0.3275 -0.1594
8.5019 0.4369 -0.1573
8.5002 1.2036 -0.1587
8.6245 2.0193 -0.1637
8.6201 2.8500 -0.1678
8.6154 3.7305 -0.1735
29.8170 23.9442 -0.7068
24.1705 23.2464 -0.6198
21.2765 24.4769 -0.5994
19.2674 26.6354 -0.6076
15.7312 26.4280 -0.5685
13.2028 27.5003 -0.5638
12.0919 43.8689 -0.8410
-28.0878 22.6475 -0.6668
-24.2078 16.1823 -0.5382
-24.2010 13.2190 -0.5097
-24.1949 10.5335 -0.4877
-24.1892 8.0508 -0.4712
-24.1839 5.7127 -0.4593
-24.1788 3.4726 -0.4515
-24.1738 1.2903 -0.4474
-24.4433 -5.3285 -0.4624
-24.1536 -7.5765 -0.4679
-24.1480 -10.0188 -0.4832
-24.1420 -12.6486 -0.5037
-24.1354 -15.5356 -0.5305
-24.1280 -18.7740 -0.5650
-27.4332 -30.5982 -0.7595
-13.6788 -18.3113 -0.4224
-12.8512 -20.8546 -0.4527
-21.0832 -42.2405 -0.8725
12.2972 -34.6596 -0.6797
6.9411 -15.1243 -0.3076
6.9766 -12.1966 -0.2597
6.9291 -9.9371 -0.2239
8.6937 -10.3587 -0.2499
6.9045 -6.8749 -0.1801
8.6866 -7.2268 -0.2088
8.5163 -5.8840 -0.1913
8.6293 -4.8869 -0.1833
8.5117 -3.8621 -0.1728
8.5097 -2.9780 -0.1666
8.5078 -2.1481 -0.1622
8.5060 -1.3552 -0.1592
8.6195 -0.5929 -0.1597
8.5025 0.1756 -0.1572
8.5008 0.9386 -0.1581
8.6260 1.7422 -0.1626
8.6216 2.5598 -0.1662
8.6170 3.4211 -0.1714
11.8700 8.9470 -0.2747
25.3861 22.9580 -0.6326
22.4561 24.2867 -0.6113
19.9748 25.9007 -0.6045
16.6616 26.1313 -0.5728
14.3424 27.6642 -0.5759
-24.2103 17.2821 -0.5498
-24.2033 14.2016 -0.5186
-24.1970 11.4301 -0.4946
-24.1912 8.8849 -0.4763
-24.1857 6.5030 -0.4629
-24.1805 4.2341 -0.4537
-24.1755 2.0360 -0.4484
-28.6934 -5.3383 -0.5394
-24.1554 -6.7701 -0.4636
-24.1500 -9.1615 -0.4774
-24.1441 -11.7197 -0.4960
-24.1378 -14.5092 -0.5205
-24.1307 -17.6143 -0.5522
-24.1226 -21.1517 -0.5929
-21.1334 -22.1637 -0.5660
-14.5709 -18.3057 -0.4324
-12.8428 -19.4761 -0.4312
12.3057 -38.3827 -0.7450
5.8507 -13.8547 -0.2780
8.7074 -16.3683 -0.3427
8.7005 -13.3317 -0.2942
6.9265 -8.7871 -0.2068
8.6911 -9.2019 -0.2339
6.9290 -6.1340 -0.1710
8.5172 -6.2794 -0.1956
8.5151 -5.1736 -0.1841
8.5132 -4.1824 -0.1753
8.5104 -3.2748 -0.1685
8.5084 -2.4283 -0.1635
8.5066 -1.6245 -0.1601
8.6201 -0.8594 -0.1601
8.5031 -0.0854 -0.1572
8.5014 0.6753 -0.1576
8.4996 1.4467 -0.1593
8.6231 2.2747 -0.1648
8.6186 3.1191 -0.1694
8.6139 4.0191 -0.1757
33.6494 23.7798 -0.7615
26.0691 22.1601 -0.6324
5.8310 5.9304 -0.1537
20.8074 25.3328 -0.6059
5.7789 8.4778 -0.1896
14.6728 26.2939 -0.5565
-21.0768 27.5997 -0.6418
-28.0849 21.3787 -0.6523
-24.2056 15.2203 -0.5285
-24.1991 12.3533 -0.5022
-24.1931 9.7383 -0.4820
-24.1875 7.3065 -0.4670
-24.1823 5.0037 -0.4564
-24.1772 2.7858 -0.4498
-34.6487 -5.3518 -0.6480
-24.1573 -5.9775 -0.4599
-24.1519 -8.3236 -0.4721
-24.1462 -10.8181 -0.4890
-24.1400 -13.5199 -0.5114
-24.1332 -16.5053 -0.5404
-24.1255 -19.8782 -0.5777
-12.9015 -18.3162 -0.4141
-12.8597 -22.2358 -0.4747
12.3160 -42.9020 -0.8249
13.0618 -33.7889 -0.6695
16.6609 -33.7807 -0.6961
6.9589 -11.4136 -0.2471
6.9340 -9.3748 -0.2155
8.6924 -9.7884 -0.2419
8.6887 -8.1811 -0.2206
8.5182 -6.6931 -0.2002
8.5155 -5.5387 -0.1877
8.6286 -4.5731 -0.1805
8.5111 -3.5787 -0.1706
8.5091 -2.7136 -0.1651
8.5072 -1.8969 -0.1611
8.6207 -1.1276 -0.1607
8.6189 -0.3514 -0.1594
8.5020 0.4134 -0.1573
8.5002 1.1797 -0.1586
8.6246 1.9941 -0.1636
8.6202 2.8236 -0.1676
8.6155 3.7023 -0.1733
29.8507 23.8358 -0.7060
24.2780 23.2209 -0.6209
21.4534 24.5432 -0.6025
19.4149 26.6838 -0.6099
15.6236 26.0828 -0.5619
13.3122 27.5327 -0.5652
12.2269 43.8855 -0.8420
-28.0881 22.7760 -0.6683
-24.2080 16.2795 -0.5392
-24.2012 13.3061 -0.5104
-24.1951 10.6131 -0.4883
-24.1894 8.1251 -0.4716
-24.1841 5.7834 -0.4596
-24.1790 3.5409 -0.4516
-24.1740 1.3573 -0.4475
-24.7758 -5.3293 -0.4684
-24.1538 -7.5033 -0.4675
-24.1482 -9.9408 -0.4826
-24.1422 -12.5637 -0.5030
-24.1356 -15.4415 -0.5296
-24.1283 -18.6673 -0.5638
-27.5108 -30.5148 -0.7593
-13.7575 -18.3108 -0.4233
-12.8505 -20.7248 -0.4507
-21.1840 -42.1506 -0.8719
12.2979 -34.9677 -0.6851
15.3919 -33.7836 -0.6861
6.9320 -12.1967 -0.2593
8.6987 -12.5487 -0.2822
6.9282 -8.3015 -0.1998
6.8917 -6.9001 -0.1803
8.6866 -7.2676 -0.2093
8.5164 -5.9190 -0.1917
8.6040 -4.9040 -0.1830
8.5118 -3.8905 -0.1730
8.5098 -3.0045 -0.1668
8.5079 -2.1732 -0.1623
8.5061 -1.3793 -0.1593
8.6196 -0.6168 -0.1597
8.5026 0.1521 -0.1572
8.5008 0.9148 -0.1580
8.6261 1.7174 -0.1626
8.6188 -0.2798 -0.1062
8.5018 0.4840 -0.1049
8.5000 1.2516 -0.1059
8.6242 2.0695 -0.1093
8.6198 2.9028 -0.1121
8.6151 3.7870 -0.1159
29.8385 24.2339 -0.4736
24.0134 23.3522 -0.4127
21.4231 24.9225 -0.4049
18.9020 26.4368 -0.4004
15.4048 26.2081 -0.3745
12.9930 27.4510 -0.3742
-32.4171 30.9574 -0.5523
-28.0872 22.3919 -0.4426
-24.2074 15.9892 -0.3574
-24.2006 13.0456 -0.3387
-24.1946 10.3746 -0.3243
-24.1889 7.9024 -0.3135
-24.1836 5.5718 -0.3058
-24.1785 3.3363 -0.3007
-24.1735 1.1564 -0.2982
-24.1586 -5.4065 -0.3050
-24.1533 -7.7233 -0.3124
-24.1477 -10.1755 -0.3228
-24.1416 -12.8189 -0.3368
-24.1350 -15.7246 -0.3549
-24.1275 -18.9886 -0.3783
-13.5240 -18.3143 -0.2805
-12.8528 -21.1177 -0.3046
-10.5528 -21.4385 -0.2944
12.2959 -34.0571 -0.4461
7.6963 -16.5281 -0.2246
8.7127 -15.0382 -0.2141
8.5906 -12.1758 -0.1836
6.9250 -8.1593 -0.1319
6.9811 -6.8747 -0.1207
8.6864 -7.1458 -0.1386
8.5162 -5.8147 -0.1270
8.6291 -4.8240 -0.1218
8.5116 -3.8055 -0.1149
8.5096 -2.9253 -0.1109
8.5077 -2.0981 -0.1080
8.5059 -1.3070 -0.1060
8.6194 -0.5450 -0.1064
8.5024 0.2226 -0.1048
8.5007 0.9862 -0.1054
8.6257 1.7918 -0.1085
8.6213 2.6116 -0.1110
8.6167 3.4763 -0.1145
31.3330 23.8899 -0.4854
25.2242 23.0664 -0.4211
22.4725 24.5754 -0.4103
19.8588 26.0467 -0.4035
16.3997 26.0370 -0.3791
14.0186 27.4095 -0.3793
9.4772 45.6260 -0.5741
-24.2099 17.0806 -0.3650
-24.2029 14.0221 -0.3446
-24.1966 11.2668 -0.3288
-24.1908 8.7334 -0.3169
-24.1854 6.3598 -0.3081
-24.1802 4.0963 -0.3022
-24.1752 1.9015 -0.2988
-27.8265 -5.3363 -0.3491
-24.1551 -6.9143 -0.3096
-24.1496 -9.3143 -0.3189
-24.1438 -11.8849 -0.3315
-24.1374 -14.6912 -0.3481
-24.1302 -17.8192 -0.3696
-24.1221 -21.3881 -0.3972
-21.0642 -22.3371 -0.3783
-14.4087 -18.3087 -0.2870
-12.8442 -19.7146 -0.2899
-9.2311 -21.9074 -0.2929
12.3041 -37.6605 -0.4881
5.9234 -13.8135 -0.1852
8.7069 -16.1514 -0.2261
8.7001 -13.1714 -0.1945
8.6949 -10.9062 -0.1718
6.9230 -7.2492 -0.1235
6.9381 -6.0740 -0.1136
