ply
format ascii 1.0
element vertex 1998
property float32 x
property float32 y
property float32 z
end_header
-24.2703 8.3750 -3.6621
-24.2649 6.0124 -3.5657
-24.2598 3.7535 -3.5015
-24.2547 1.5572 -3.4667
-24.7756 -0.6262 -3.5350
-24.7705 -2.8527 -3.5565
-24.7653 -5.1246 -3.6072
-24.2345 -7.3226 -3.6110
-24.2289 -9.7566 -3.7256
-24.1427 -12.3308 -3.8668
-24.1362 -15.1858 -4.0674
-24.9447 -19.0016 -4.4727
-32.2052 -29.4280 -6.2225
-29.9636 -39.2801 -7.0467
12.3877 -35.9780 -5.4274
7.1242 -15.9109 -2.4866
8.5161 -15.2114 -2.4866
8.6576 -12.6612 -2.1878
8.6941 -10.5524 -1.9502
6.8919 -6.9871 -1.3999
8.6869 -7.3596 -1.6239
6.6967 -4.7153 -1.1682
8.6295 -4.9880 -1.4217
8.5119 -3.9524 -1.3386
8.5099 -3.0613 -1.2900
8.5080 -2.2264 -1.2544
8.5062 -1.4300 -1.2303
8.6197 -0.6665 -1.2331
8.5027 0.1039 -1.2129
8.5009 0.8668 -1.2188
8.6264 1.6679 -1.2532
8.6222 2.4829 -1.2798
8.6179 3.3403 -1.3183
11.9407 8.8520 -2.1201
25.9144 23.0663 -4.9485
23.7210 25.2547 -4.9420
9.4141 42.5440 -6.2151
-24.2842 14.4628 -4.0315
-24.2778 11.6606 -3.8416
-24.2719 9.0911 -3.6969
-24.1861 6.6674 -3.5785
-24.2612 4.4049 -3.5171
-24.2562 2.1942 -3.4739
-24.7770 0.0205 -3.5341
-24.7720 -2.1995 -3.5473
-24.7668 -4.4543 -3.5893
-24.2361 -6.6380 -3.5842
-24.2306 -9.0298 -3.6883
-24.2248 -11.5858 -3.8301
-24.2184 -14.3693 -4.0167
-24.9470 -17.9943 -4.3874
-33.1141 -28.7090 -6.2512
-26.8387 -40.2261 -6.8975
12.2460 -38.8300 -5.8074
6.7066 -16.0914 -2.4866
8.1162 -15.4285 -2.4866
8.7008 -13.4656 -2.2867
8.7574 -11.2130 -2.0294
8.6075 -9.1945 -1.7965
8.6878 -7.7588 -1.6614
8.5174 -6.3361 -1.5142
8.0730 -4.9518 -1.3509
8.5141 -4.2269 -1.3558
8.5105 -3.3149 -1.3027
8.5085 -2.4655 -1.2635
8.5067 -1.6594 -1.2362
8.6202 -0.8934 -1.2361
8.5034 -0.1180 -1.2130
8.5014 0.6432 -1.2161
8.4997 1.4144 -1.2290
8.6234 2.2413 -1.2709
8.6192 3.0846 -1.3058
8.6147 3.9828 -1.3537
28.2665 19.8331 -4.9253
25.5565 21.5792 -4.7709
5.8610 5.9223 -1.1885
5.8067 8.4619 -1.4638
-21.0520 27.6927 -4.9617
-24.2058 15.2856 -4.0834
-24.2796 12.4515 -3.8920
-24.2736 9.8214 -3.7349
-24.2680 7.3766 -3.6179
-24.2627 5.0625 -3.5353
-24.2577 2.8344 -3.4835
-24.7785 0.6674 -3.5356
-24.7735 -1.5493 -3.5405
-24.7683 -3.7901 -3.5740
-24.2376 -5.9630 -3.5602
-24.1520 -8.2894 -3.6422
-24.2265 -10.8190 -3.7845
-24.2203 -13.5285 -3.9571
-24.7968 -16.9200 -4.2818
-24.9412 -20.5081 -4.6057
-27.7105 -39.2728 -6.8557
12.0946 -42.1554 -6.2554
13.0584 -33.7889 -5.1669
7.7108 -15.6351 -2.4866
8.7026 -14.2723 -2.3843
8.6455 -11.6860 -2.0734
8.6924 -9.7850 -1.8669
8.6887 -8.1771 -1.7018
8.5182 -6.6890 -1.5448
7.4052 -4.8126 -1.2597
8.6286 -4.5682 -1.3926
8.5111 -3.5736 -1.3166
8.5091 -2.7082 -1.2737
8.5072 -1.8912 -1.2431
8.6207 -1.1215 -1.2400
8.6189 -0.3448 -1.2303
8.5019 0.4204 -1.2142
8.5002 1.1874 -1.2242
8.6246 2.0029 -1.2629
8.6205 2.8335 -1.2943
8.6161 3.7137 -1.3383
33.3291 22.1102 -5.7049
26.4084 21.1431 -4.8253
25.5062 24.4621 -5.0408
26.1990 30.0583 -5.6874
12.1326 43.8430 -6.4886
-25.0262 16.7330 -4.2940
-24.2815 13.2639 -3.9464
-24.2753 10.5674 -3.7764
-24.2696 8.0748 -3.6483
-24.2643 5.7275 -3.5560
-24.2591 3.4784 -3.4956
-24.2541 1.2874 -3.4644
-24.7749 -0.9011 -3.5361
-24.7698 -3.1312 -3.5612
-24.3912 -5.3298 -3.5611
-24.2338 -7.6166 -3.6233
-24.2282 -10.0699 -3.7424
-24.2222 -12.7119 -3.9018
-24.1354 -15.5614 -4.0961
-24.9437 -19.4416 -4.5109
-31.9436 -29.8455 -6.2355
-28.9790 -38.8757 -6.9161
12.0756 -33.8478 -5.1259
7.3002 -15.8310 -2.4866
7.0069 -12.1965 -2.0063
8.5908 -12.2694 -2.1364
8.6936 -10.3165 -1.9243
6.9332 -6.8748 -1.3927
8.6865 -7.1954 -1.6089
6.8564 -4.7149 -1.1869
8.6292 -4.8610 -1.4127
8.5117 -3.8381 -1.3318
8.5096 -2.9551 -1.2849
8.5078 -2.1258 -1.2508
8.5059 -1.3332 -1.2281
8.6194 -0.5704 -1.2321
8.5024 0.1982 -1.2131
8.5007 0.9621 -1.2202
8.6258 1.7673 -1.2559
8.6217 2.5866 -1.2839
8.6174 3.4504 -1.3240
11.8920 9.0219 -2.1291
25.1273 22.8700 -4.8463
25.3612 27.6081 -5.3472
-24.2834 14.0999 -4.0052
-24.2771 11.3308 -3.8214
-24.2712 8.7852 -3.6817
-24.2658 6.4008 -3.5795
-24.2606 4.1275 -3.5101
-24.2556 1.9234 -3.4706
-24.7764 -0.2541 -3.5342
-24.7713 -2.4765 -3.5509
-24.7662 -4.7381 -3.5966
-24.1551 -6.9046 -3.5834
-24.2299 -9.3368 -3.7037
-24.2240 -11.9171 -3.8507
-24.2176 -14.7342 -4.0434
-24.7362 -18.2626 -4.3857
-32.6054 -28.9073 -6.2153
-21.0941 -22.3697 -4.3856
-26.8260 -41.1887 -7.0111
12.3038 -37.5566 -5.6371
5.9385 -13.8153 -2.1449
8.2868 -15.3376 -2.4866
8.6281 -13.0340 -2.2295
8.6459 -10.8209 -1.9756
8.6908 -9.0796 -1.7927
8.5912 -7.5030 -1.6269
6.8874 -5.0059 -1.2145
8.3882 -5.0180 -1.3942
8.5123 -4.1091 -1.3482
8.5102 -3.2066 -1.2972
8.5083 -2.3635 -1.2595
8.5065 -1.5617 -1.2336
8.6200 -0.7968 -1.2348
8.5030 -0.0238 -1.2128
8.5012 0.7380 -1.2171
8.4995 1.5114 -1.2313
8.6229 2.3435 -1.2745
8.6187 3.1926 -1.3110
8.6304 4.1068 -1.3633
28.1860 20.2466 -4.9500
26.9208 23.2472 -5.0734
5.7956 5.9876 -1.1886
5.7253 8.5448 -1.4671
-24.2277 14.9264 -4.0589
-24.2788 12.1130 -3.8701
-24.2729 9.5093 -3.7184
-24.2674 7.0835 -3.6058
-24.2621 4.7823 -3.5272
-24.1767 2.5536 -3.4676
-24.7779 0.3926 -3.5346
-24.7728 -1.8252 -3.5431
-24.7677 -4.0715 -3.5802
-24.2370 -6.2486 -3.5701
-24.2315 -8.6181 -3.6684
-24.2258 -11.1424 -3.8034
-24.2195 -13.8826 -3.9818
-24.9482 -17.4319 -4.3411
-24.9401 -20.9749 -4.6482
-27.1491 -39.3970 -6.8245
12.0907 -40.4450 -6.0212
13.4904 -33.7879 -5.1893
7.8837 -15.5486 -2.4866
8.7018 -13.9215 -2.3417
8.7582 -11.5680 -2.0696
8.6919 -9.5686 -1.8438
8.6883 -7.9970 -1.6843
8.5178 -6.5373 -1.5315
7.6771 -4.8691 -1.2967
8.6283 -4.4463 -1.3845
8.5108 -3.4630 -1.3106
8.5088 -2.6046 -1.2693
8.5070 -1.7925 -1.2400
8.6205 -1.0244 -1.2382
8.6187 -0.2491 -1.2298
8.5017 0.5149 -1.2149
8.5000 1.2836 -1.2261
8.6241 2.1038 -1.2662
8.6199 2.9396 -1.2990
8.6155 3.8273 -1.3447
32.6437 22.1806 -5.6293
26.5491 21.7431 -4.8947
24.7217 24.2414 -4.9386
-23.0184 31.2421 -5.5351
-24.2069 15.7996 -4.1231
-24.2807 12.9160 -3.9228
-24.2746 10.2486 -3.7583
-24.2689 7.7768 -3.6350
-24.2636 5.4440 -3.5469
-24.2585 3.2043 -3.4902
-24.1732 1.0145 -3.4510
-24.7743 -1.1762 -3.5377
-24.7692 -3.4105 -3.5663
-24.1582 -5.5602 -3.5359
-24.2332 -7.9125 -3.6361
-24.2275 -10.3861 -3.7598
-24.2214 -13.0560 -3.9248
-24.9504 -16.4813 -4.2651
-24.9426 -19.8892 -4.5503
-32.0336 -30.6017 -6.3189
-28.6053 -39.2757 -6.9304
5.9810 -33.8269 -4.8998
12.4791 -33.7902 -5.1379
7.4752 -15.7491 -2.4866
8.7038 -14.7685 -2.4451
8.6977 -12.1335 -2.1294
8.6225 -10.0050 -1.8839
8.6893 -8.4272 -1.7265
8.5723 -6.9420 -1.5734
7.0616 -4.7416 -1.2132
8.6289 -4.7356 -1.4040
8.5114 -3.7250 -1.3252
8.5094 -2.8498 -1.2800
8.5075 -2.0258 -1.2474
8.5070 -1.2369 -1.2262
8.6192 -0.4745 -1.2313
8.5022 0.2926 -1.2134
8.5005 1.0576 -1.2218
8.6253 1.8670 -1.2588
8.6212 2.6910 -1.2882
8.6168 3.5616 -1.3299
27.6108 21.4334 -4.9856
25.6570 23.8776 -4.9992
24.8061 27.6121 -5.2944
22.0162 44.0199 -7.0203
-21.1352 17.5773 -3.9209
-24.8161 17.1371 -4.3016
-24.2826 13.7418 -3.9797
-24.2763 11.0043 -3.8018
-24.2705 8.4818 -3.6671
-24.2651 6.1137 -3.5692
-24.2600 3.8511 -3.5037
-24.2550 1.6530 -3.4676
-24.7758 -0.5289 -3.5347
-21.0827 -2.3441 -3.0257
-24.7655 -5.0232 -3.6044
-24.2347 -7.2189 -3.6068
-24.1490 -9.6144 -3.7074
-24.1854 -12.2330 -3.8659
-24.1365 -15.0540 -4.0575
-24.9450 -18.8476 -4.4595
-32.1024 -29.1034 -6.1805
12.3773 -36.4113 -5.4854
7.0617 -15.9388 -2.4866
8.4563 -15.2448 -2.4866
8.6274 -12.7241 -2.1927
8.6943 -10.6374 -1.9596
8.6903 -8.8799 -1.7722
8.6783 -7.4111 -1.6278
6.6413 -4.7154 -1.1618
8.6296 -5.0334 -1.4250
8.5120 -3.9932 -1.3411
8.5100 -3.0992 -1.2918
8.5081 -2.2621 -1.2557
8.5062 -1.4644 -1.2311
8.6197 -0.7005 -1.2335
8.5027 0.0705 -1.2128
8.5010 0.8330 -1.2184
8.6266 1.6329 -1.2523
8.6224 2.4463 -1.2784
8.6181 3.3015 -1.3164
35.0306 17.1482 -5.5632
12.0039 8.8260 -2.1252
25.6507 22.6518 -4.8811
5.8057 6.1326 -1.2045
-24.2845 14.5925 -4.0411
-24.2781 11.7783 -3.8489
-24.2722 9.2000 -3.7024
-24.2667 6.7923 -3.5943
-24.2615 4.5033 -3.5196
-24.2564 2.2904 -3.4752
-24.7773 0.1178 -3.5341
-24.7722 -2.1015 -3.5461
-24.7671 -4.3539 -3.5868
-24.2363 -6.5358 -3.5804
-24.2308 -8.9216 -3.6830
-24.2250 -11.4692 -3.8230
-24.2187 -14.2412 -4.0074
-24.9473 -17.8459 -4.3751
-26.8724 -39.9360 -6.8658
12.0933 -38.8778 -5.8074
6.6503 -16.1345 -2.4892
8.0556 -15.4603 -2.4866
8.7010 -13.5828 -2.3008
8.7576 -11.3045 -2.0397
8.5952 -9.2540 -1.8015
8.6879 -7.8205 -1.6673
8.5175 -6.3883 -1.5186
7.9661 -4.9294 -1.3362
8.5149 -4.2691 -1.3586
8.5106 -3.3534 -1.3047
8.5086 -2.5018 -1.2650
8.5068 -1.6941 -1.2372
8.6203 -0.9276 -1.2367
8.5041 -0.1514 -1.2132
8.5015 0.6096 -1.2157
8.4998 1.3801 -1.2282
8.6236 2.2052 -1.2696
8.6194 3.0465 -1.3040
8.6149 3.9419 -1.3513
28.2948 19.6876 -4.9167
25.8114 21.6213 -4.8026
5.8938 5.9088 -1.1904
5.8484 8.4512 -1.4659
-24.2743 10.1363 -3.5869
-24.2687 7.6717 -3.4706
-24.1830 5.3263 -3.3765
-24.1779 3.0971 -3.3237
-24.7791 0.9424 -3.3812
-24.7741 -1.2738 -3.3825
-24.7690 -3.5097 -3.4111
-24.2383 -5.6789 -3.3945
-24.2329 -8.0180 -3.4805
-24.2272 -10.4988 -3.6004
-24.2211 -13.1788 -3.7599
-24.2144 -16.1321 -3.9674
-24.9423 -20.0497 -4.3636
-32.0877 -30.8952 -6.0738
-27.8184 -38.5121 -6.4780
6.1326 -33.9078 -4.6985
12.6300 -33.7899 -4.9188
7.8842 -16.4436 -2.4866
8.7035 -14.6363 -2.3219
8.6975 -12.0332 -2.0245
8.6911 -10.0048 -1.8071
8.6891 -8.3611 -1.6443
8.5722 -6.8864 -1.4993
7.0810 -4.7144 -1.1600
8.6288 -4.6916 -1.3393
8.5113 -3.6853 -1.2647
8.5093 -2.8126 -1.2220
8.5074 -1.9905 -1.1914
8.5075 -1.2028 -1.1716
8.6192 -0.4405 -1.1768
8.5022 0.3260 -1.1602
8.5004 1.0915 -1.1686
8.6251 1.9025 -1.2044
8.6210 2.7281 -1.2330
8.6166 3.6012 -1.2734
33.4480 21.6589 -5.4335
27.4358 21.4708 -4.7504
25.8815 24.2768 -4.8386
24.6124 27.6138 -5.0438
-24.2892 16.6327 -4.0141
-24.2823 13.6160 -3.7960
-24.2760 10.8895 -3.6279
-24.2703 8.3750 -3.5009
-24.2649 6.0124 -3.4087
-24.1794 3.7410 -3.3362
-24.1842 1.5527 -3.3044
-24.7756 -0.6262 -3.3794
-24.7705 -2.8527 -3.3999
-24.7653 -5.1246 -3.4484
-24.2345 -7.3226 -3.4521
-24.2289 -9.7566 -3.5615
-24.1427 -12.3308 -3.6965
-24.2164 -15.2363 -3.9012
-24.9447 -19.0016 -4.2758
-32.2050 -29.4278 -5.9485
-29.3805 -38.5157 -6.6054
-26.0612 -41.3594 -6.6658
12.3877 -35.9779 -5.1884
7.4523 -16.6437 -2.4866
8.7055 -15.5497 -2.4300
8.6576 -12.6612 -2.0915
8.6941 -10.5524 -1.8643
6.8919 -6.9871 -1.3382
8.6869 -7.3596 -1.5525
6.6967 -4.7153 -1.1168
8.5488 -4.9413 -1.3464
8.5119 -3.9524 -1.2797
8.5099 -3.0613 -1.2332
8.5080 -2.2264 -1.1992
8.5062 -1.4300 -1.1761
8.6197 -0.6665 -1.1788
8.5027 0.1039 -1.1595
8.5009 0.8668 -1.1652
8.6264 1.6679 -1.1980
8.6222 2.4829 -1.2235
8.6179 3.3403 -1.2603
11.9403 8.8517 -2.0267
25.9794 23.1242 -4.7425
23.7139 25.2471 -4.7230
-24.2109 17.5244 -4.0753
-24.2842 14.4628 -3.8540
-24.2778 11.6606 -3.6724
-24.2719 9.0911 -3.5341
-24.1861 6.6674 -3.4209
-24.1809 4.3903 -3.3511
-24.1759 2.1870 -3.3100
-24.7770 0.0205 -3.3785
-24.7720 -2.1995 -3.3911
-24.7668 -4.4543 -3.4313
-24.2361 -6.6380 -3.4264
-24.2306 -9.0298 -3.5259
-24.2248 -11.5858 -3.6615
-24.2184 -14.3693 -3.8398
-24.1312 -17.4058 -4.0571
-33.8650 -29.3601 -6.1115
-26.2543 -39.3501 -6.4502
12.3520 -39.1661 -5.5998
6.9138 -16.5886 -2.4505
8.4900 -16.1391 -2.4866
8.6288 -13.3543 -2.1680
8.7574 -11.2130 -1.9400
8.6075 -9.1945 -1.7174
8.6878 -7.7588 -1.5883
8.5174 -6.3361 -1.4475
7.8282 -4.8017 -1.2522
8.5141 -4.2269 -1.2961
8.5105 -3.3149 -1.2454
8.5085 -2.4655 -1.2079
8.5067 -1.6594 -1.1818
8.6202 -0.8934 -1.1817
8.5034 -0.1180 -1.1596
8.5014 0.6432 -1.1625
8.4997 1.4144 -1.1749
8.6234 2.2413 -1.2149
8.6192 3.0846 -1.2483
8.6147 3.9828 -1.2941
28.2905 19.8499 -4.7124
27.5138 23.2318 -4.9102
5.8608 5.9222 -1.1361
5.8067 8.4619 -1.3994
15.5519 27.6709 -4.3282
-21.0515 27.6919 -4.7431
-24.2862 15.3364 -3.9166
-24.2796 12.4515 -3.7206
-24.2736 9.8214 -3.5705
-24.2680 7.3766 -3.4586
-24.2627 5.0625 -3.3796
-24.1773 2.8250 -3.3191
-24.7785 0.6674 -3.3799
-24.7735 -1.5493 -3.3846
-24.7683 -3.7901 -3.4166
-24.2376 -5.9630 -3.4035
-24.1520 -8.2894 -3.4818
-24.2265 -10.8190 -3.6179
-24.2203 -13.5285 -3.7828
-24.2135 -16.5220 -3.9970
-24.9412 -20.5081 -4.4029
-27.2176 -38.5742 -6.4373
12.0499 -41.9996 -5.9579
13.0584 -33.7889 -4.9394
8.0660 -16.3551 -2.4866
8.7026 -14.2723 -2.2794
8.6455 -11.6860 -1.9821
8.6924 -9.7850 -1.7847
8.6887 -8.1771 -1.6269
8.5182 -6.6890 -1.4768
7.2535 -4.7140 -1.1796
8.6286 -4.5682 -1.3313
8.5111 -3.5736 -1.2587
8.5091 -2.7082 -1.2176
8.5072 -1.8912 -1.1883
8.6207 -1.1215 -1.1854
8.6189 -0.3448 -1.1762
8.5019 0.4204 -1.1607
8.5002 1.1874 -1.1703
8.6246 2.0029 -1.2073
8.6204 2.8335 -1.2373
8.6160 3.7137 -1.2793
33.3340 22.1134 -5.4545
26.4911 21.2092 -4.6273
25.5436 24.4979 -4.8259
26.2115 30.0726 -5.4395
12.1405 43.8715 -6.2069
-24.2883 16.2395 -3.9839
-24.2815 13.2639 -3.7727
-24.2753 10.5674 -3.6101
-24.2696 8.0748 -3.4877
-24.2643 5.7275 -3.3995
-24.1788 3.4669 -3.3306
-24.2000 1.2845 -3.3044
-24.7749 -0.9011 -3.3804
-24.7698 -3.1312 -3.4044
-24.3912 -5.3298 -3.4043
-24.2338 -7.6166 -3.4638
-24.2282 -10.0699 -3.5776
-24.2222 -12.7119 -3.7300
-24.2156 -15.6131 -3.9287
-24.9437 -19.4416 -4.3123
-28.7096 -38.5141 -6.5501
12.0756 -33.8478 -4.9002
7.6364 -16.5601 -2.4866
7.0069 -12.1965 -1.9180
8.5908 -12.2694 -2.0423
8.6936 -10.3165 -1.8396
6.9332 -6.8748 -1.3314
8.6865 -7.1954 -1.5380
6.8564 -4.7149 -1.1346
8.6292 -4.8610 -1.3505
8.5117 -3.8381 -1.2732
8.5096 -2.9551 -1.2283
8.5078 -2.1258 -1.1957
8.5059 -1.3332 -1.1740
8.6194 -0.5704 -1.1779
8.5024 0.1982 -1.1597
8.5007 0.9621 -1.1665
8.6258 1.7673 -1.2006
8.6217 2.5866 -1.2274
8.6174 3.4504 -1.2657
11.8914 9.0215 -2.0353
25.1681 22.9072 -4.6404
23.8095 25.9190 -4.7990
-24.2904 17.1748 -4.0564
-24.2834 14.0999 -3.8289
-24.2771 11.3308 -3.6531
-24.2712 8.7852 -3.5196
-24.2658 6.4008 -3.4219
-24.1803 4.1138 -3.3445
-24.1752 1.9170 -3.3068
-24.7764 -0.2541 -3.3786
-24.7713 -2.4765 -3.3945
-24.7662 -4.7381 -3.4382
-24.1551 -6.9045 -3.4256
-24.2299 -9.3368 -3.5407
-24.2240 -11.9171 -3.6811
-24.2176 -14.7342 -3.8653
-24.1302 -17.8152 -4.0899
-32.7967 -29.0769 -5.9765
-21.0926 -22.3682 -4.1922
-26.0921 -40.0620 -6.5191
12.3038 -37.5567 -5.3889
5.9383 -13.8149 -2.0504
8.6684 -16.0440 -2.4866
8.7000 -13.1426 -2.1491
8.6459 -10.8209 -1.8886
8.6908 -9.0796 -1.7138
8.5912 -7.5030 -1.5553
6.8874 -5.0059 -1.1610
8.1260 -4.8611 -1.2912
8.5123 -4.1091 -1.2889
8.5102 -3.2066 -1.2401
8.5083 -2.3635 -1.2041
8.5065 -1.5617 -1.1793
8.6200 -0.7968 -1.1804
8.5030 -0.0238 -1.1594
8.5012 0.7380 -1.1635
8.4995 1.5114 -1.1771
8.6229 2.3435 -1.2184
8.6186 3.1926 -1.2532
8.6304 4.1068 -1.3032
28.2100 20.2638 -4.7361
27.6823 23.9049 -4.9872
5.7954 5.9874 -1.1362
5.7253 8.5448 -1.4025
-24.2853 14.9619 -3.8894
-24.2788 12.1130 -3.6997
-24.2729 9.5093 -3.5547
-24.2674 7.0835 -3.4471
-24.1817 4.7665 -3.3608
-24.1767 2.5536 -3.3150
-24.7779 0.3926 -3.3790
-24.7728 -1.8252 -3.3871
-24.7677 -4.0715 -3.4225
-24.2370 -6.2486 -3.4129
-24.2315 -8.6181 -3.5069
-24.2258 -11.1425 -3.6360
-24.2195 -13.8826 -3.8065
-24.2126 -16.9179 -4.0276
-24.9402 -20.9749 -4.4435
-26.7195 -38.7737 -6.4208
12.1986 -40.8060 -5.8074
13.4904 -33.7879 -4.9608
8.2468 -16.2647 -2.4866
8.7018 -13.9215 -2.2386
8.7582 -11.5680 -1.9784
8.6919 -9.5686 -1.7627
8.6883 -7.9970 -1.6101
8.5178 -6.5373 -1.4641
7.4534 -4.7272 -1.2035
8.6283 -4.4463 -1.3235
8.5108 -3.4630 -1.2529
8.5088 -2.6046 -1.2134
8.5070 -1.7925 -1.1854
8.6205 -1.0244 -1.1837
8.6187 -0.2491 -1.1757
8.5017 0.5149 -1.1614
8.5000 1.2836 -1.1722
8.6241 2.1038 -1.2104
8.6199 2.9396 -1.2418
8.6155 3.8272 -1.2855
32.5820 22.1387 -5.3713
25.5938 20.9607 -4.5109
24.7143 24.2341 -4.7197
-23.0146 31.2369 -5.2905
-24.2874 15.8521 -3.9547
-24.2807 12.9160 -3.7501
-24.2746 10.2486 -3.5929
-24.2689 7.7768 -3.4749
-24.2636 5.4440 -3.3907
-24.1782 3.1937 -3.3255
-24.1732 1.0145 -3.2990
-24.7743 -1.1762 -3.3819
-24.7692 -3.4105 -3.4093
-24.1582 -5.5602 -3.3802
-24.2332 -7.9125 -3.4760
-24.2275 -10.3861 -3.5943
-24.2214 -13.0560 -3.7520
-24.2147 -15.9953 -3.9571
-24.9426 -19.8892 -4.3500
-32.0102 -30.5793 -6.0363
-28.0496 -38.5126 -6.4966
5.9808 -33.8261 -4.6839
12.4791 -33.7902 -4.9117
7.8195 -16.4744 -2.4866
8.7038 -14.7686 -2.3375
8.6977 -12.1335 -2.0356
8.6225 -10.0050 -1.8010
8.6893 -8.4272 -1.6505
8.5723 -6.9420 -1.5041
7.0213 -4.7145 -1.1532
8.6289 -4.7356 -1.3421
8.5114 -3.7250 -1.2669
8.5094 -2.8498 -1.2236
8.5075 -2.0258 -1.1925
8.5070 -1.2369 -1.1722
8.6192 -0.4745 -1.1771
8.5022 0.2926 -1.1600
8.5005 1.0576 -1.1680
8.6253 1.8670 -1.2033
8.6211 2.6910 -1.2315
8.6168 3.5615 -1.2714
27.9335 21.6839 -4.8218
25.7000 23.9176 -4.7871
24.8063 27.6124 -5.0613
22.0132 44.0141 -6.7103
-21.1346 17.5768 -3.7482
-24.2895 16.7734 -4.0250
-24.2826 13.7418 -3.8045
-24.2763 11.0043 -3.6344
-24.2705 8.4818 -3.5057
-24.2651 6.1137 -3.4121
-24.1796 3.8384 -3.3383
-24.1780 1.6477 -3.3044
-24.7758 -0.5289 -3.3791
-21.0822 -2.3441 -2.8924
-24.7655 -5.0232 -3.4457
-24.2347 -7.2189 -3.4480
-24.1490 -9.6144 -3.5442
-24.1854 -12.2330 -3.6957
-24.2167 -15.1040 -3.8917
-24.1293 -18.2312 -4.1237
-32.3593 -29.3363 -5.9557
-29.6208 -38.5162 -6.6254
-26.0620 -41.0027 -6.6248
12.3773 -36.4113 -5.2439
14.9683 -33.7845 -5.0386
8.7059 -15.6946 -2.4472
8.6274 -12.7241 -2.0962
8.6943 -10.6374 -1.8733
8.6903 -8.8799 -1.6942
8.6783 -7.4111 -1.5561
6.6413 -4.7154 -1.1106
8.4436 -4.9249 -1.3329
8.5120 -3.9932 -1.2820
8.5100 -3.0992 -1.2349
8.5081 -2.2621 -1.2004
8.5062 -1.4644 -1.1769
8.6197 -0.7005 -1.1792
8.5027 0.0705 -1.1594
8.5010 0.8330 -1.1647
8.6266 1.6329 -1.1972
8.6224 2.4463 -1.2221
8.6181 3.3015 -1.2584
35.1496 17.2065 -5.3363
12.0035 8.8258 -2.0316
25.8096 22.7921 -4.6951
5.8053 6.1322 -1.1514
-24.2845 14.5925 -3.8632
-24.2781 11.7783 -3.6795
-24.2722 9.2000 -3.5394
-24.2667 6.7923 -3.4361
-24.1811 4.4884 -3.3535
-24.1761 2.2828 -3.3112
-24.7773 0.1178 -3.3786
-24.7722 -2.1014 -3.3900
-24.7670 -4.3539 -3.4289
-24.2363 -6.5358 -3.4228
-24.2308 -8.9216 -3.5208
-24.2250 -11.4692 -3.6547
-24.2187 -14.2412 -3.8310
-24.1315 -17.2624 -4.0457
-26.3501 -39.1599 -6.4360
12.3084 -39.5693 -5.6505
13.9262 -33.7869 -4.9830
8.4266 -16.1723 -2.4866
8.6291 -13.4705 -2.1813
8.7576 -11.3045 -1.9499
8.5952 -9.2540 -1.7222
8.6879 -7.8205 -1.5939
8.5175 -6.3883 -1.4518
7.7271 -4.7815 -1.2390
8.5149 -4.2691 -1.2988
8.5106 -3.3534 -1.2473
8.5086 -2.5018 -1.2093
8.5068 -1.6941 -1.1827
8.6203 -0.9276 -1.1822
8.5041 -0.1514 -1.1598
8.5015 0.6096 -1.1622
8.4998 1.3801 -1.1742
8.6236 2.2052 -1.2137
8.6194 3.0465 -1.2466
8.6149 3.9419 -1.2918
32.4300 22.5650 -5.3871
26.3933 22.1086 -4.6947
5.8936 5.9087 -1.1380
5.8484 8.4512 -1.4014
-24.2743 10.1363 -3.4220
-24.2206 7.6565 -3.3044
-24.1830 5.3263 -3.2213
-24.2583 3.1074 -3.1814
-26.2110 0.9969 -3.4121
-30.1746 -1.5515 -3.9305
-30.1684 -4.2747 -3.9637
-24.2383 -5.6790 -3.2384
-24.1527 -7.9914 -3.3094
-24.2272 -10.4988 -3.4348
-24.2211 -13.1789 -3.5870
-24.2144 -16.1321 -3.7850
-24.2068 -19.4585 -4.0402
-32.0641 -30.8725 -5.7902
-27.8184 -38.5121 -6.1802
6.1320 -33.9041 -4.4820
12.6300 -33.7899 -4.6926
16.1973 -33.7817 -4.8736
8.6680 -14.5766 -2.2062
8.6975 -12.0332 -1.9314
8.6911 -10.0048 -1.7240
8.6891 -8.3611 -1.5687
8.5722 -6.8864 -1.4304
8.5158 -5.6697 -1.3309
8.6288 -4.6916 -1.2777
8.5113 -3.6853 -1.2065
8.5093 -2.8126 -1.1658
8.5074 -1.9905 -1.1366
8.5075 -1.2028 -1.1177
8.6192 -0.4405 -1.1227
8.5022 0.3260 -1.1068
8.5004 1.0915 -1.1149
8.6251 1.9025 -1.1490
8.6209 2.7281 -1.1763
8.6166 3.6012 -1.2149
33.4528 21.6620 -5.1844
28.7281 22.4821 -4.7455
25.9890 24.3776 -4.6353
24.3504 27.3199 -4.7607
-24.2892 16.6327 -3.8295
-24.2823 13.6160 -3.6215
-24.2760 10.8895 -3.4611
-24.1899 8.3472 -3.3289
-24.2649 6.0124 -3.2520
-24.2598 3.7535 -3.1934
-24.2547 1.5572 -3.1617
-30.1764 -0.7628 -3.9268
-30.1702 -3.4745 -3.9507
-25.7725 -5.3330 -3.4237
-24.2070 -7.3142 -3.2896
-24.2289 -9.7566 -3.3978
-24.1427 -12.3308 -3.5266
-24.2164 -15.2363 -3.7219
-24.2091 -18.4413 -3.9589
-33.4270 -30.5444 -5.8904
-29.3805 -38.5157 -6.3017
-26.0612 -41.3594 -6.3593
12.3877 -35.9780 -4.9499
15.1271 -33.7842 -4.8153
8.7055 -15.5498 -2.3182
8.6576 -12.6612 -1.9953
8.6941 -10.5524 -1.7786
6.8919 -6.9871 -1.2767
8.6869 -7.3596 -1.4811
8.5166 -5.9967 -1.3550
8.2910 -4.7923 -1.2458
8.5119 -3.9524 -1.2208
8.5099 -3.0613 -1.1765
8.5080 -2.2264 -1.1440
8.5062 -1.4300 -1.1221
8.6197 -0.6665 -1.1246
8.5027 0.1039 -1.1062
8.5009 0.8668 -1.1116
8.6264 1.6679 -1.1430
8.6222 2.4829 -1.1672
8.6179 3.3403 -1.2023
37.7932 18.6849 -5.4844
11.9400 8.8515 -1.9335
26.2669 23.3801 -4.5745
23.5904 25.1157 -4.4824
-24.2109 17.5244 -3.8880
-24.2842 14.4628 -3.6768
-24.2778 11.6606 -3.5036
-24.1916 9.0610 -3.3605
-24.1861 6.6674 -3.2636
-24.2612 4.4049 -3.2076
-24.2562 2.1942 -3.1683
-30.1782 0.0250 -3.9258
-30.1720 -2.6790 -3.9404
-25.6433 -4.6119 -3.3894
-24.2361 -6.6380 -3.2689
-24.2306 -9.0298 -3.3638
-24.2248 -11.5858 -3.4932
-24.2184 -14.3693 -3.6633
-24.2113 -17.4637 -3.8834
-31.0064 -38.5194 -6.4325
-26.2543 -39.3501 -6.1537
12.3520 -39.1661 -5.3423
6.9138 -16.5886 -2.3379
8.6677 -16.4768 -2.4219
8.7008 -13.4656 -2.0855
8.7574 -11.2130 -1.8508
8.6075 -9.1945 -1.6384
8.6878 -7.7588 -1.5152
8.5174 -6.3361 -1.3809
7.6837 -4.7130 -1.1726
8.5141 -4.2269 -1.2365
8.5105 -3.3149 -1.1881
8.5085 -2.4655 -1.1524
8.5067 -1.6594 -1.1275
8.6202 -0.8934 -1.1274
8.5034 -0.1180 -1.1063
8.5014 0.6432 -1.1091
8.4997 1.4144 -1.1209
8.6234 2.2413 -1.1591
8.6192 3.0845 -1.1909
8.6147 3.9828 -1.2346
28.3144 19.8668 -4.4995
27.6274 23.3278 -4.7038
5.8607 5.9220 -1.0838
5.8067 8.4619 -1.3350
15.5982 27.7534 -4.1415
-21.0509 27.6912 -4.5249
-24.2862 15.3364 -3.7365
-24.2796 12.4515 -3.5496
-24.2736 9.8214 -3.4063
-24.2680 7.3766 -3.2995
-24.2627 5.0625 -3.2242
-24.2577 2.8344 -3.1770
-25.7448 0.6934 -3.3503
-30.1738 -1.8871 -3.9329
-30.1676 -4.6163 -3.9701
-24.2376 -5.9630 -3.2470
-24.1520 -8.2894 -3.3217
-24.2265 -10.8190 -3.4515
-24.2203 -13.5285 -3.6089
-24.2135 -16.5220 -3.8133
-24.1256 -19.8375 -4.0631
-27.2176 -38.5742 -6.1413
12.2000 -42.5227 -5.7548
13.0584 -33.7889 -4.7123
16.6599 -33.7807 -4.8998
8.7026 -14.2723 -2.1746
8.6455 -11.6860 -1.8910
8.6924 -9.7850 -1.7026
8.6887 -8.1771 -1.5521
8.5182 -6.6890 -1.4089
7.2535 -4.7140 -1.1253
8.6286 -4.5682 -1.2701
8.5111 -3.5736 -1.2008
8.5091 -2.7082 -1.1616
8.5072 -1.8912 -1.1337
8.6207 -1.1215 -1.1309
8.6189 -0.3448 -1.1221
8.5019 0.4204 -1.1073
8.5002 1.1874 -1.1165
8.6246 2.0029 -1.1518
8.6204 2.8335 -1.1804
8.6160 3.7137 -1.2205
31.1459 20.6619 -4.8621
26.5741 21.2757 -4.4284
25.5809 24.5337 -4.6108
24.1355 27.6907 -4.7784
12.1401 43.8702 -5.9214
-24.2883 16.2395 -3.8007
-24.2815 13.2638 -3.5992
-24.2753 10.5674 -3.4441
-24.1892 8.0480 -3.3163
-24.2643 5.7275 -3.2432
-24.2591 3.4784 -3.1880
-24.2541 1.2874 -3.1596
-30.1756 -1.0976 -3.9280
-30.1694 -3.8138 -3.9559
-24.3912 -5.3298 -3.2478
-24.1536 -7.5913 -3.2936
-24.2282 -10.0699 -3.4131
-24.2222 -12.7119 -3.5585
-24.2156 -15.6131 -3.7481
-24.2081 -18.8683 -3.9927
-28.7095 -38.5141 -6.2490
12.0756 -33.8478 -4.6750
15.5785 -33.7831 -4.8395
7.0069 -12.1965 -1.8298
8.5908 -12.2694 -1.9484
8.6936 -10.3165 -1.7550
6.9332 -6.8748 -1.2701
8.6865 -7.1954 -1.4673
8.5163 -5.8563 -1.3445
8.6113 -4.8510 -1.2857
8.5117 -3.8381 -1.2146
8.5096 -2.9551 -1.1718
8.5078 -2.1258 -1.1408
8.5059 -1.3332 -1.1200
8.6194 -0.5704 -1.1237
8.5024 0.1982 -1.1064
8.5007 0.9621 -1.1129
8.6258 1.7673 -1.1454
8.6216 2.5866 -1.1709
8.6173 3.4504 -1.2075
38.8503 19.7465 -5.6692
11.8909 9.0211 -1.9416
25.2090 22.9444 -4.4343
23.7949 25.9030 -4.5755
-24.2904 17.1748 -3.8699
-24.2834 14.0999 -3.6528
-24.2771 11.3308 -3.4851
-24.1909 8.7561 -3.3467
-24.2658 6.4008 -3.2646
-24.2606 4.1275 -3.2013
-24.2556 1.9234 -3.1652
-30.1774 -0.3095 -3.9259
-30.1713 -3.0164 -3.9444
-27.9009 -5.3378 -3.6953
-24.1551 -6.9046 -3.2681
-24.2299 -9.3368 -3.3779
-24.2240 -11.9171 -3.5119
-24.2176 -14.7342 -3.6876
-24.2104 -17.8744 -3.9148
-21.0912 -22.3667 -3.9992
-30.3075 -38.5178 -6.3758
-26.0921 -40.0620 -6.2194
12.3038 -37.5566 -5.1411
5.9382 -13.8146 -1.9561
8.7068 -16.1150 -2.3828
8.7000 -13.1426 -2.0503
8.6459 -10.8209 -1.8018
8.6908 -9.0796 -1.6350
8.5912 -7.5030 -1.4838
6.8874 -5.0059 -1.1076
7.8800 -4.7140 -1.1945
8.5123 -4.1091 -1.2296
8.5102 -3.2066 -1.1830
8.5083 -2.3635 -1.1487
8.5065 -1.5617 -1.1251
8.6200 -0.7968 -1.1261
8.5030 -0.0238 -1.1061
8.5012 0.7380 -1.1101
8.4995 1.5114 -1.1230
8.6229 2.3435 -1.1624
8.6186 3.1926 -1.1956
8.6304 4.1068 -1.2433
28.2341 20.2811 -4.5222
27.7120 23.9305 -4.7630
5.7953 5.9873 -1.0840
5.7253 8.5448 -1.3380
15.3228 27.9852 -4.1505
-24.2853 14.9619 -3.7106
-24.2788 12.1130 -3.5296
-24.2729 9.5093 -3.3912
-24.2674 7.0835 -3.2886
-24.2621 4.7823 -3.2169
-24.1767 2.5536 -3.1625
-30.1792 0.4782 -3.9264
-30.1731 -2.2231 -3.9357
-28.0891 -4.6175 -3.7030
-24.2370 -6.2486 -3.2560
-24.1513 -8.5896 -3.3345
-24.2258 -11.1425 -3.4688
-24.2195 -13.8826 -3.6315
-24.2126 -16.9179 -3.8424
-24.1246 -20.2890 -4.1006
-26.7195 -38.7737 -6.1256
12.3908 -41.4489 -5.6277
13.4904 -33.7879 -4.7327
17.1275 -33.7796 -4.9268
8.7018 -13.9215 -2.1357
8.7582 -11.5680 -1.8875
8.6919 -9.5686 -1.6816
8.6883 -7.9970 -1.5361
8.5178 -6.5373 -1.3968
7.4319 -4.7136 -1.1448
8.6283 -4.4463 -1.2627
8.5108 -3.4630 -1.1953
8.5088 -2.6046 -1.1576
8.5070 -1.7925 -1.1309
8.6205 -1.0244 -1.1293
8.6187 -0.2491 -1.1216
8.5017 0.5149 -1.1080
8.5000 1.2836 -1.1183
8.6240 2.1038 -1.1548
8.6199 2.9396 -1.1847
8.6155 3.8272 -1.2264
31.3042 21.2704 -4.9233
25.6720 21.0247 -4.3166
24.7069 24.2269 -4.5014
-23.0107 31.2318 -5.0465
-24.2874 15.8521 -3.7729
-24.2807 12.9160 -3.5777
-24.2746 10.2486 -3.4277
-24.1904 7.7516 -3.3044
-24.2636 5.4440 -3.2348
-24.2585 3.2043 -3.1831
-24.1732 1.0145 -3.1474
-30.1749 -1.4326 -3.9298
-30.1687 -4.1540 -3.9615
-24.1582 -5.5602 -3.2248
-24.1529 -7.8863 -3.3052
-24.2275 -10.3861 -3.4291
-24.2214 -13.0560 -3.5795
-24.2147 -15.9953 -3.7752
-24.2071 -19.3027 -4.0276
-31.9868 -30.5570 -5.7546
-28.0496 -38.5126 -6.1979
5.9807 -33.8253 -4.4685
12.4791 -33.7902 -4.6858
16.0345 -33.7821 -4.8645
8.6631 -14.6995 -2.2196
8.6977 -12.1335 -1.9421
8.6225 -10.0050 -1.7182
8.6893 -8.4272 -1.5746
8.5723 -6.9420 -1.4349
8.5159 -5.7181 -1.3344
8.6289 -4.7356 -1.2804
8.5114 -3.7250 -1.2086
8.5094 -2.8498 -1.1674
8.5075 -2.0258 -1.1377
8.5070 -1.2369 -1.1183
8.6192 -0.4745 -1.1229
8.5022 0.2926 -1.1067
8.5005 1.0576 -1.1143
8.6253 1.8670 -1.1480
8.6211 2.6910 -1.1749
8.6168 3.5615 -1.2129
33.4930 21.5019 -5.1775
27.9577 21.7027 -4.6041
25.7431 23.9577 -4.5747
24.4262 27.1892 -4.7546
21.9937 43.9749 -6.3961
-21.1340 17.5764 -3.5758
-24.2895 16.7734 -3.8399
-24.2826 13.7418 -3.6296
-24.2763 11.0043 -3.4673
-24.1902 8.4537 -3.3334
-24.2651 6.1137 -3.2552
-24.2600 3.8511 -3.1954
-24.2550 1.6530 -3.1625
-30.1767 -0.6442 -3.9265
-21.0816 -2.3440 -2.7593
-26.2985 -5.3342 -3.4907
-24.2347 -7.2189 -3.2895
-24.1490 -9.6144 -3.3813
-24.1854 -12.2330 -3.5257
-24.2167 -15.1041 -3.7128
-24.2094 -18.2918 -3.9472
-32.5240 -29.4856 -5.7108
-29.6208 -38.5162 -6.3208
-26.0620 -41.0027 -6.3202
12.3773 -36.4113 -5.0028
14.9682 -33.7845 -4.8069
8.7059 -15.6946 -2.3347
8.6274 -12.7241 -1.9998
8.6943 -10.6375 -1.7872
8.6903 -8.8799 -1.6163
8.6783 -7.4111 -1.4846
6.9676 -4.9471 -1.1116
8.1800 -4.7711 -1.2319
8.5120 -3.9932 -1.2231
8.5100 -3.0992 -1.1782
8.5081 -2.2621 -1.1452
8.5062 -1.4644 -1.1228
8.6197 -0.7005 -1.1250
8.5027 0.0705 -1.1061
8.5010 0.8330 -1.1112
8.6266 1.6329 -1.1421
8.6223 2.4463 -1.1659
8.6181 3.3015 -1.2005
35.2692 17.2650 -5.1083
12.0032 8.8255 -1.9381
25.9702 22.9340 -4.5071
5.8049 6.1318 -1.0984
-24.2845 14.5925 -3.6855
-24.2781 11.7783 -3.5103
-24.1918 9.1696 -3.3655
-24.2667 6.7923 -3.2781
-24.2615 4.5033 -3.2100
-24.2564 2.2904 -3.1695
-30.1785 0.1435 -3.9258
-30.1723 -2.5595 -3.9391
-26.2422 -4.6133 -3.4661
-24.2363 -6.5358 -3.2654
-24.1506 -8.8921 -3.3478
-24.2250 -11.4692 -3.4867
-24.2187 -14.2412 -3.6548
-24.2117 -17.3197 -3.8725
-26.3501 -39.1599 -6.1400
12.3084 -39.5693 -5.3907
13.9262 -33.7869 -4.7539
8.5899 -16.4857 -2.4182
8.6829 -13.5544 -2.0940
8.7576 -11.3045 -1.8602
8.5952 -9.2540 -1.6430
8.6879 -7.8205 -1.5206
8.5175 -6.3883 -1.3850
7.6166 -4.7132 -1.1652
8.5149 -4.2691 -1.2391
8.5106 -3.3534 -1.1900
8.5086 -2.5018 -1.1537
8.5068 -1.6941 -1.1283
8.6203 -0.9276 -1.1279
8.5041 -0.1514 -1.1064
8.5015 0.6096 -1.1088
8.4998 1.3801 -1.1202
8.6235 2.2052 -1.1579
8.6193 3.0465 -1.1892
8.6149 3.9419 -1.2324
31.3068 21.7834 -4.9614
26.5117 22.2079 -4.4989
5.8935 5.9085 -1.0856
5.8484 8.4512 -1.3370
15.6955 27.6715 -4.1384
-24.2743 10.1363 -3.2573
-24.2687 7.6717 -3.1517
-24.1830 5.3263 -3.0663
-24.2583 3.1074 -3.0284
-26.2109 0.9969 -3.2480
-30.1746 -1.5515 -3.7414
-30.1684 -4.2747 -3.7730
-24.2383 -5.6789 -3.0826
-24.2329 -8.0180 -3.1607
-24.2272 -10.4988 -3.2696
-24.2211 -13.1788 -3.4144
-24.2144 -16.1321 -3.6029
-24.2068 -19.4585 -3.8458
-33.2506 -32.0149 -5.7156
-27.8184 -38.5121 -5.8828
6.1313 -33.9004 -4.2659
12.6300 -33.7899 -4.4668
16.1973 -33.7817 -4.6391
8.6680 -14.5766 -2.1000
8.6975 -12.0332 -1.8385
8.6911 -10.0048 -1.6410
8.6891 -8.3611 -1.4932
8.5722 -6.8864 -1.3616
8.5158 -5.6697 -1.2668
8.6288 -4.6916 -1.2162
8.5113 -3.6853 -1.1485
8.5093 -2.8126 -1.1097
8.5074 -1.9905 -1.0819
8.5075 -1.2028 -1.0639
8.6192 -0.4405 -1.0687
8.5022 0.3260 -1.0536
8.5004 1.0915 -1.0612
8.6251 1.9025 -1.0937
8.6209 2.7281 -1.1197
8.6166 3.6011 -1.1564
37.8615 19.9648 -5.3001
32.6797 21.1614 -4.8209
28.7888 22.5296 -4.5267
26.0272 24.4135 -4.4188
24.3882 27.3623 -4.5387
-24.2892 16.6327 -3.6452
-24.2823 13.6160 -3.4472
-24.2760 10.8895 -3.2946
-24.2703 8.3750 -3.1792
-24.2649 6.0124 -3.0955
-24.2598 3.7535 -3.0397
-24.2547 1.5572 -3.0096
-30.1764 -0.7628 -3.7378
-30.1702 -3.4745 -3.7606
-25.7725 -5.3330 -3.2589
-24.2345 -7.3226 -3.1349
-24.2289 -9.7566 -3.2343
-24.1427 -12.3308 -3.3569
-24.2164 -15.2363 -3.5428
-24.2091 -18.4413 -3.7684
-29.3805 -38.5157 -5.9985
-26.0612 -41.3594 -6.0533
12.3877 -35.9779 -4.7117
15.1271 -33.7842 -4.5836
8.6648 -15.4771 -2.1964
8.6576 -12.6612 -1.8993
8.6941 -10.5524 -1.6930
6.8919 -6.9871 -1.2153
8.6869 -7.3596 -1.4098
8.5166 -5.9967 -1.2898
8.1519 -4.7120 -1.1659
8.5119 -3.9524 -1.1621
8.5099 -3.0613 -1.1199
8.5080 -2.2264 -1.0890
8.5062 -1.4300 -1.0681
8.6197 -0.6665 -1.0705
8.5027 0.1039 -1.0529
8.5009 0.8668 -1.0581
8.6264 1.6679 -1.0880
8.6221 2.4829 -1.1110
8.6178 3.3403 -1.1445
35.9281 17.7628 -4.9629
33.8299 20.6735 -4.9093
11.9397 8.8513 -1.8404
26.4336 23.5285 -4.3820
23.6997 25.2320 -4.2865
14.9923 28.3853 -3.9750
-24.2109 17.5244 -3.7009
-24.2842 14.4628 -3.4999
-24.1974 11.6220 -3.3240
-24.2719 9.0911 -3.2094
-24.1861 6.6674 -3.1066
-24.2612 4.4049 -3.0533
-24.2562 2.1942 -3.0158
-30.1782 0.0250 -3.7369
-30.1720 -2.6790 -3.7508
-29.7024 -5.3419 -3.7370
-24.2361 -6.6380 -3.1116
-24.2306 -9.0298 -3.2020
-24.1445 -11.5474 -3.3141
-24.2184 -14.3693 -3.4870
-24.2113 -17.4637 -3.6965
-24.2033 -20.9836 -3.9665
-31.0064 -38.5194 -6.1230
-26.2543 -39.3501 -5.8576
12.3520 -39.1661 -5.0853
6.9138 -16.5886 -2.2254
8.6677 -16.4768 -2.3054
8.7008 -13.4656 -1.9852
8.7574 -11.2130 -1.7618
8.6075 -9.1945 -1.5596
8.6878 -7.7588 -1.4423
8.5174 -6.3361 -1.3145
7.6837 -4.7130 -1.1162
8.5141 -4.2269 -1.1770
8.5105 -3.3149 -1.1309
8.5085 -2.4655 -1.0969
8.5067 -1.6594 -1.0732
8.6202 -0.8934 -1.0731
8.5034 -0.1180 -1.0531
8.5014 0.6432 -1.0557
8.4997 1.4144 -1.0670
8.6233 2.2413 -1.1033
8.6191 3.0845 -1.1336
8.6146 3.9828 -1.1752
28.3384 19.8836 -4.2867
26.3599 22.2575 -4.2720
5.8605 5.9219 -1.0317
21.6470 26.1850 -4.2069
5.8067 8.4619 -1.2708
15.4816 27.5459 -3.9127
-21.0503 27.6904 -4.3071
-24.2862 15.3364 -3.5567
-24.2796 12.4515 -3.3788
-24.2736 9.8214 -3.2424
-24.2680 7.3766 -3.1408
-24.2627 5.0625 -3.0691
-24.2577 2.8344 -3.0242
-30.1791 0.8129 -3.7383
-30.1738 -1.8871 -3.7436
-30.1676 -4.6163 -3.7790
-24.2376 -5.9630 -3.0908
-24.1520 -8.2894 -3.1619
-24.2265 -10.8190 -3.2854
-24.2203 -13.5285 -3.4353
-24.2135 -16.5220 -3.6298
-24.2058 -19.9034 -3.8805
-27.2176 -38.5742 -5.8458
12.3161 -42.9274 -5.5300
13.0584 -33.7889 -4.4856
16.6598 -33.7807 -4.6640
8.7026 -14.2723 -2.0699
8.6455 -11.6860 -1.8000
8.6924 -9.7850 -1.6207
8.6887 -8.1771 -1.4774
8.5182 -6.6890 -1.3411
8.5155 -5.5342 -1.2576
8.6286 -4.5682 -1.2090
8.5111 -3.5736 -1.1430
8.5091 -2.7082 -1.1057
8.5072 -1.8912 -1.0791
8.6207 -1.1215 -1.0765
8.6189 -0.3448 -1.0681
8.5019 0.4204 -1.0541
8.5002 1.1874 -1.0628
8.6246 2.0029 -1.0964
8.6204 2.8335 -1.1236
8.6160 3.7136 -1.1618
31.0678 20.6100 -4.6166
26.6575 21.3425 -4.2285
25.6184 24.5696 -4.3954
24.1731 27.7339 -4.5556
16.6298 27.8607 -4.0177
12.1398 43.8689 -5.6363
-24.2883 16.2395 -3.6179
-24.2815 13.2638 -3.4260
-24.2753 10.5674 -3.2784
-24.2696 8.0748 -3.1672
-24.2643 5.7275 -3.0871
-24.2591 3.4784 -3.0346
-24.2541 1.2874 -3.0075
-30.1756 -1.0976 -3.7390
-30.1694 -3.8138 -3.7655
-24.3911 -5.3298 -3.0915
-24.2338 -7.6166 -3.1455
-24.2282 -10.0699 -3.2489
-24.2222 -12.7119 -3.3873
-24.2156 -15.6131 -3.5678
-24.2081 -18.8683 -3.8006
-28.7096 -38.5141 -5.9483
12.0756 -33.8478 -4.4500
15.5785 -33.7831 -4.6066
7.0069 -12.1965 -1.7418
8.5908 -12.2694 -1.8547
8.6936 -10.3165 -1.6706
6.9332 -6.8748 -1.2090
8.6865 -7.1954 -1.3967
8.5163 -5.8564 -1.2798
8.3637 -4.7115 -1.1887
8.5117 -3.8381 -1.1562
8.5096 -2.9551 -1.1155
8.5078 -2.1258 -1.0859
8.5059 -1.3332 -1.0661
8.6194 -0.5704 -1.0697
8.5024 0.1982 -1.0531
8.5007 0.9621 -1.0593
8.6258 1.7673 -1.0903
8.6216 2.5866 -1.1146
8.6173 3.4504 -1.1494
36.3351 18.4681 -5.0471
33.3362 20.8830 -4.8710
11.8903 9.0206 -1.8481
25.2500 22.9817 -4.2278
23.7803 25.8871 -4.3527
9.4698 45.1635 -5.7141
-24.2904 17.1748 -3.6837
-24.2834 14.0999 -3.4771
-24.1967 11.2932 -3.3065
-24.2712 8.7852 -3.1962
-24.2658 6.4008 -3.1075
-24.2606 4.1275 -3.0473
-24.2556 1.9234 -3.0129
-30.1774 -0.3095 -3.7370
-30.1713 -3.0164 -3.7546
-27.9009 -5.3378 -3.5175
-24.1551 -6.9046 -3.1108
-24.2299 -9.3368 -3.2154
-24.1438 -11.8776 -3.3318
-24.2176 -14.7342 -3.5102
-24.2104 -17.8744 -3.7264
-24.2022 -21.4572 -4.0051
-21.0898 -22.3652 -3.8065
-30.3075 -38.5178 -6.0690
-26.0921 -40.0620 -5.9201
12.3038 -37.5567 -4.8937
5.9381 -13.8143 -1.8619
8.7068 -16.1150 -2.2681
8.7000 -13.1426 -1.9517
8.6459 -10.8209 -1.7151
8.6908 -9.0796 -1.5563
8.5912 -7.5030 -1.4124
6.8874 -5.0059 -1.0543
7.8776 -4.7126 -1.1367
8.5123 -4.1091 -1.1704
8.5102 -3.2066 -1.1261
8.5083 -2.3635 -1.0934
8.5065 -1.5617 -1.0709
8.6200 -0.7968 -1.0719
8.5030 -0.0238 -1.0529
8.5012 0.7380 -1.0566
8.4995 1.5114 -1.0690
8.6228 2.3435 -1.1065
8.6186 3.1925 -1.1381
8.6303 4.1068 -1.1835
28.2581 20.2984 -4.3083
27.7417 23.9562 -4.5387
5.7951 5.9871 -1.0318
21.3613 26.4308 -4.2081
5.7253 8.5448 -1.2736
15.3686 28.0689 -3.9626
-24.2853 14.9619 -3.5321
-24.1984 12.0729 -3.3486
-24.2729 9.5093 -3.2281
-24.2674 7.0835 -3.1303
-24.2621 4.7823 -3.0621
-24.1767 2.5536 -3.0104
-30.1792 0.4782 -3.7375
-30.1731 -2.2231 -3.7464
-28.0891 -4.6175 -3.5249
-24.2370 -6.2486 -3.0993
-24.2315 -8.6181 -3.1846
-24.1455 -11.1055 -3.2910
-24.2195 -13.8826 -3.4568
-24.2126 -16.9179 -3.6575
-24.1247 -20.2891 -3.9033
-26.7195 -38.7737 -5.8308
12.4003 -41.4807 -5.3610
13.4904 -33.7879 -4.5050
17.1275 -33.7796 -4.6898
8.7018 -13.9215 -2.0329
8.7582 -11.5680 -1.7967
8.6919 -9.5686 -1.6007
8.6883 -7.9970 -1.4622
8.5178 -6.5373 -1.3296
8.5152 -5.4006 -1.2486
8.6283 -4.4463 -1.2019
8.5108 -3.4630 -1.1378
8.5088 -2.6046 -1.1019
8.5070 -1.7925 -1.0765
8.6205 -1.0244 -1.0750
8.6187 -0.2491 -1.0677
8.5017 0.5149 -1.0547
8.5000 1.2836 -1.0645
8.6240 2.1038 -1.0992
8.6198 2.9396 -1.1277
8.6154 3.8272 -1.1673
31.2406 21.2272 -4.6769
25.7505 21.0890 -4.1215
24.6995 24.2196 -4.2835
23.9562 28.1082 -4.5732
-23.0069 31.2265 -4.8028
-24.2874 15.8521 -3.5913
-24.2807 12.9160 -3.4055
-24.2746 10.2486 -3.2628
-24.2689 7.7768 -3.1557
-24.2636 5.4440 -3.0792
-24.2585 3.2043 -3.0299
-24.1732 1.0145 -2.9959
-30.1749 -1.4326 -3.7407
-30.1687 -4.1540 -3.7709
-24.1582 -5.5602 -3.0696
-24.2332 -7.9125 -3.1566
-24.2275 -10.3861 -3.2641
-24.2214 -13.0560 -3.4072
-24.2147 -15.9953 -3.5935
-24.2071 -19.3027 -3.8338
-33.3427 -31.8523 -5.7099
-28.0496 -38.5126 -5.8997
5.9805 -33.8245 -4.2533
12.4791 -33.7902 -4.4604
16.0345 -33.7821 -4.6304
8.7038 -14.7686 -2.1227
8.6977 -12.1335 -1.8486
8.6225 -10.0050 -1.6355
8.6893 -8.4272 -1.4989
8.5723 -6.9420 -1.3659
8.5159 -5.7181 -1.2702
8.6289 -4.7356 -1.2188
8.5114 -3.7250 -1.1505
8.5094 -2.8497 -1.1112
8.5075 -2.0258 -1.0829
8.5070 -1.2369 -1.0645
8.6192 -0.4745 -1.0689
8.5022 0.2926 -1.0534
8.5005 1.0576 -1.0607
8.6253 1.8670 -1.0928
8.6211 2.6910 -1.1183
8.6167 3.5615 -1.1545
37.7340 19.7085 -5.2714
32.8501 21.0892 -4.8338
27.9820 21.7215 -4.3864
26.1730 24.3578 -4.4273
24.4640 27.2314 -4.5329
22.0134 44.0144 -6.0938
-21.1335 17.5759 -3.4036
-24.2895 16.7734 -3.6551
-24.2826 13.7418 -3.4549
-24.2763 11.0043 -3.3005
-24.2705 8.4818 -3.1836
-24.2651 6.1137 -3.0986
-24.2600 3.8511 -3.0416
-24.2550 1.6530 -3.0104
-30.1767 -0.6442 -3.7375
-21.0810 -2.3439 -2.6265
-26.2985 -5.3342 -3.3228
-24.2347 -7.2189 -3.1312
-24.1490 -9.6144 -3.2186
-24.1430 -12.2115 -3.3502
-24.2167 -15.1040 -3.5341
-24.2095 -18.2918 -3.7573
-24.1210 -21.8676 -4.0315
-29.6208 -38.5162 -6.0166
-26.0620 -41.0027 -6.0161
12.3773 -36.4113 -4.7621
14.9682 -33.7845 -4.5756
8.6652 -15.6213 -2.2120
8.6274 -12.7241 -1.9036
8.6943 -10.6374 -1.7012
8.6903 -8.8799 -1.5385
8.6783 -7.4111 -1.4131
6.9676 -4.9471 -1.0581
8.0788 -4.7121 -1.1581
8.5120 -3.9932 -1.1642
8.5100 -3.0992 -1.1215
8.5081 -2.2621 -1.0901
8.5062 -1.4644 -1.0688
8.6197 -0.7005 -1.0709
8.5027 0.0705 -1.0529
8.5010 0.8330 -1.0577
8.6266 1.6329 -1.0872
8.6223 2.4463 -1.1098
8.6180 3.3015 -1.1428
35.7871 17.5186 -4.9339
12.0029 8.8253 -1.8448
26.1326 23.0774 -4.3171
5.8045 6.1314 -1.0455
15.0910 28.3024 -3.9717
-24.2845 14.5925 -3.5082
-24.1977 11.7393 -3.3303
-24.2722 9.2001 -3.2142
-24.2667 6.7923 -3.1204
-24.2615 4.5033 -3.0555
-24.2564 2.2904 -3.0170
-30.1785 0.1435 -3.7369
-30.1723 -2.5595 -3.7496
-30.1660 -5.3031 -3.7926
-24.2363 -6.5358 -3.1083
-24.2308 -8.9216 -3.1973
-24.1448 -11.4312 -3.3079
-24.2187 -14.2412 -3.4790
-24.2117 -17.3197 -3.6862
-24.2037 -20.8180 -3.9532
-31.2570 -38.5199 -6.1426
-26.3501 -39.1599 -5.8446
12.3084 -39.5693 -5.1313
13.9262 -33.7869 -4.5252
8.5899 -16.4857 -2.3019
8.6829 -13.5544 -1.9933
8.7576 -11.3045 -1.7707
8.5952 -9.2540 -1.5639
8.6879 -7.8205 -1.4475
8.5175 -6.3883 -1.3184
8.5149 -5.2690 -1.2399
8.5149 -4.2691 -1.1795
8.5106 -3.3534 -1.1327
8.5086 -2.5018 -1.0982
8.5068 -1.6941 -1.0741
8.6203 -0.9276 -1.0736
8.5041 -0.1514 -1.0532
8.5015 0.6096 -1.0554
8.4998 1.3801 -1.0663
8.6235 2.2052 -1.1022
8.6193 3.0465 -1.1320
8.6149 3.9419 -1.1731
31.2427 21.7388 -4.7131
26.6311 22.3079 -4.3017
5.8933 5.9084 -1.0333
5.8484 8.4512 -1.2726
15.7423 27.7541 -3.9510
-24.2743 10.1363 -3.0929
-24.2687 7.6717 -2.9926
-24.1830 5.3263 -2.9115
-24.2583 3.1074 -2.8755
-26.2109 0.9969 -3.0840
-30.1746 -1.5515 -3.5525
-30.1684 -4.2747 -3.5825
-24.2383 -5.6790 -2.9270
-24.2329 -8.0180 -3.0011
-24.2272 -10.4988 -3.1045
-24.2211 -13.1789 -3.2421
-24.2144 -16.1321 -3.4210
-24.2068 -19.4585 -3.6517
-32.1623 -30.9670 -5.2495
-27.8184 -38.5121 -5.5859
6.1306 -33.8966 -4.0501
12.6300 -33.7899 -4.2414
16.1973 -33.7817 -4.4049
8.6680 -14.5766 -1.9940
8.6975 -12.0331 -1.7457
8.6911 -10.0048 -1.5582
8.6891 -8.3611 -1.4178
8.5722 -6.8864 -1.2928
8.5158 -5.6697 -1.2029
8.6288 -4.6916 -1.1548
8.5113 -3.6853 -1.0905
8.5093 -2.8126 -1.0537
8.5074 -1.9905 -1.0273
8.5075 -1.2028 -1.0102
8.6192 -0.4405 -1.0147
8.5022 0.3260 -1.0004
8.5004 1.0915 -1.0077
8.6251 1.9025 -1.0385
8.6209 2.7281 -1.0632
8.6165 3.6011 -1.0980
37.8799 19.9745 -5.0351
32.6785 21.1606 -4.5774
28.6607 22.4294 -4.2791
26.0655 24.4494 -4.2019
24.4261 27.4048 -4.3163
16.9641 27.7178 -3.8209
-24.2892 16.6327 -3.4613
-24.2823 13.6160 -3.2733
-24.2760 10.8895 -3.1283
-24.2703 8.3750 -3.0187
-24.2649 6.0124 -2.9393
-24.2598 3.7535 -2.8863
-24.2547 1.5572 -2.8577
-30.1764 -0.7628 -3.5492
-30.1702 -3.4745 -3.5708
-25.7725 -5.3330 -3.0944
-24.2345 -7.3226 -2.9766
-24.2289 -9.7566 -3.0711
-24.1427 -12.3308 -3.1874
-24.2164 -15.2363 -3.3640
-24.2091 -18.4413 -3.5782
-29.3805 -38.5157 -5.6957
-26.0612 -41.3594 -5.7478
12.3316 -35.8148 -4.4536
15.1271 -33.7842 -4.3523
8.7068 -15.5520 -2.0956
8.6576 -12.6612 -1.8034
8.6941 -10.5524 -1.6076
6.8919 -6.9871 -1.1539
8.6869 -7.3596 -1.3387
8.5166 -5.9967 -1.2247
8.5550 -4.9450 -1.1618
8.5119 -3.9524 -1.1034
8.5099 -3.0614 -1.0633
8.5080 -2.2264 -1.0340
8.5062 -1.4300 -1.0142
8.6197 -0.6665 -1.0165
8.5027 0.1039 -0.9998
8.5009 0.8668 -1.0047
8.6264 1.6679 -1.0330
8.6221 2.4829 -1.0550
8.6178 3.3402 -1.0867
36.0522 17.8242 -4.7287
33.8286 20.6727 -4.6614
11.9393 8.8510 -1.7475
26.2424 23.3583 -4.1307
23.6926 25.2245 -4.0689
21.0353 26.8421 -4.0097
15.0374 28.4706 -3.7857
-24.2109 17.5244 -3.5141
-24.2038 14.4149 -3.3123
-24.2778 11.6606 -3.1667
-24.2719 9.0911 -3.0474
-24.1861 6.6674 -2.9498
-24.2612 4.4049 -2.8992
-24.2562 2.1942 -2.8636
-30.1782 0.0250 -3.5483
-30.1720 -2.6790 -3.5615
-29.7024 -5.3419 -3.5483
-24.2361 -6.6380 -2.9546
-24.2306 -9.0298 -3.0404
-24.2248 -11.5858 -3.1573
-24.1382 -14.3217 -3.3000
-24.2113 -17.4637 -3.5100
-24.2033 -20.9836 -3.7663
-31.0064 -38.5194 -5.8140
-26.2543 -39.3501 -5.5619
12.3520 -39.1661 -4.8286
6.9138 -16.5886 -2.1131
8.6677 -16.4768 -2.1890
8.7008 -13.4656 -1.8850
8.7574 -11.2130 -1.6728
8.6075 -9.1945 -1.4809
8.6878 -7.7588 -1.3695
8.5174 -6.3361 -1.2482
8.5148 -5.2228 -1.1745
8.5141 -4.2269 -1.1176
8.5105 -3.3149 -1.0739
8.5085 -2.4655 -1.0416
8.5067 -1.6594 -1.0190
8.6202 -0.8934 -1.0190
8.5034 -0.1180 -0.9999
8.5014 0.6432 -1.0024
8.4997 1.4144 -1.0131
8.6233 2.2413 -1.0476
8.6191 3.0845 -1.0763
8.6146 3.9827 -1.1159
28.3624 19.9004 -4.0738
26.4781 22.3574 -4.0746
5.8604 5.9217 -0.9796
21.7105 26.2619 -4.0063
5.8067 8.4619 -1.2067
15.5720 27.7068 -3.7369
-21.0497 27.6897 -4.0896
-24.2058 15.2856 -3.3660
-24.2796 12.4515 -3.2082
-24.2736 9.8214 -3.0788
-24.2680 7.3766 -2.9823
-24.2627 5.0625 -2.9142
-24.2577 2.8344 -2.8715
-30.1791 0.8129 -3.5497
-30.1738 -1.8871 -3.5547
-30.1676 -4.6163 -3.5883
-24.2376 -5.9630 -2.9348
-24.1520 -8.2894 -3.0023
-24.2265 -10.8190 -3.1196
-24.2203 -13.5285 -3.2619
-24.2135 -16.5220 -3.4466
-24.2058 -19.9034 -3.6846
-31.7924 -31.2974 -5.2454
-27.2176 -38.5742 -5.5508
12.3161 -42.9274 -5.2509
13.0584 -33.7889 -4.2592
16.6599 -33.7807 -4.4286
8.7026 -14.2723 -1.9655
8.6455 -11.6860 -1.7092
8.6924 -9.7850 -1.5389
8.6887 -8.1771 -1.4029
8.5182 -6.6890 -1.2734
8.5155 -5.5342 -1.1941
8.6286 -4.5682 -1.1479
8.5111 -3.5736 -1.0853
8.5091 -2.7082 -1.0499
8.5072 -1.8912 -1.0247
8.6207 -1.1215 -1.0221
8.6189 -0.3448 -1.0142
8.5019 0.4204 -1.0009
8.5002 1.1874 -1.0091
8.6246 2.0029 -1.0410
8.6203 2.8334 -1.0669
8.6160 3.7136 -1.1031
38.3033 20.7437 -5.1216
30.9901 20.5585 -4.3726
26.7412 21.4095 -4.0277
25.6558 24.6055 -4.1796
24.2108 27.7771 -4.3324
15.6645 26.2434 -3.5935
12.1395 43.8678 -5.3517
-24.2883 16.2395 -3.4353
-24.2815 13.2639 -3.2531
-24.2753 10.5674 -3.1129
-24.2696 8.0748 -3.0073
-24.2643 5.7275 -2.9313
-24.2591 3.4784 -2.8815
-24.2541 1.2874 -2.8557
-30.1756 -1.0976 -3.5503
-30.1694 -3.8138 -3.5755
-24.3911 -5.3298 -2.9355
-24.2338 -7.6166 -2.9868
-24.2282 -10.0699 -3.0849
-24.2222 -12.7119 -3.2163
-24.2156 -15.6131 -3.3877
-24.2081 -18.8683 -3.6088
-32.1914 -30.0770 -5.1799
-28.7095 -38.5141 -5.6481
12.0756 -33.8478 -4.2254
15.5785 -33.7831 -4.3741
7.0069 -12.1965 -1.6538
8.5908 -12.2694 -1.7611
8.6936 -10.3165 -1.5862
6.9332 -6.8748 -1.1480
8.6865 -7.1954 -1.3262
8.5163 -5.8563 -1.2152
8.3637 -4.7115 -1.1287
8.5117 -3.8381 -1.0978
8.5096 -2.9551 -1.0592
8.5078 -2.1258 -1.0311
8.5059 -1.3332 -1.0123
8.6194 -0.5704 -1.0157
8.5024 0.1982 -1.0000
8.5007 0.9621 -1.0059
8.6258 1.7673 -1.0353
8.6216 2.5866 -1.0583
8.6173 3.4504 -1.0914
36.4627 18.5329 -4.8092
33.3349 20.8822 -4.6250
11.8898 9.0202 -1.7547
25.2910 23.0190 -4.0209
23.7657 25.8713 -4.1305
17.3425 27.4033 -3.8130
14.7572 28.7062 -3.7951
-24.2904 17.1748 -3.4978
-24.2834 14.0999 -3.3016
-24.2771 11.3308 -3.1500
-24.2712 8.7852 -3.0349
-24.2658 6.4008 -2.9507
-24.2606 4.1275 -2.8935
-24.2556 1.9234 -2.8608
-30.1774 -0.3095 -3.5484
-30.1713 -3.0164 -3.5651
-27.9009 -5.3378 -3.3400
-24.1551 -6.9046 -2.9538
-24.2299 -9.3368 -3.0531
-24.2240 -11.9171 -3.1742
-24.1374 -14.6854 -3.3220
-24.2104 -17.8744 -3.5383
-24.2022 -21.4572 -3.8030
-21.0884 -22.3638 -3.6141
-30.3075 -38.5178 -5.7627
-26.0921 -40.0620 -5.6213
12.3038 -37.5567 -4.6467
5.9379 -13.8139 -1.7679
8.7068 -16.1150 -2.1536
8.7000 -13.1426 -1.8532
8.6459 -10.8209 -1.6285
8.6908 -9.0796 -1.4778
8.5912 -7.5030 -1.3411
6.8874 -5.0059 -1.0011
8.5163 -5.0947 -1.1668
8.5123 -4.1091 -1.1114
8.5102 -3.2066 -1.0693
8.5083 -2.3635 -1.0383
8.5065 -1.5617 -1.0169
8.6200 -0.7968 -1.0178
8.5030 -0.0238 -0.9998
8.5012 0.7380 -1.0033
8.4995 1.5114 -1.0150
8.6228 2.3435 -1.0506
8.6186 3.1925 -1.0806
8.6303 4.1067 -1.1238
28.2821 20.3156 -4.0943
27.7715 23.9819 -4.3143
5.7950 5.9869 -0.9797
21.4239 26.5083 -4.0074
5.7253 8.5448 -1.2093
15.2701 27.8890 -3.7385
-28.0847 20.9780 -4.1216
-24.2049 14.9124 -3.3427
-24.2788 12.1130 -3.1902
-24.2729 9.5093 -3.0651
-24.2674 7.0835 -2.9723
-24.2621 4.7823 -2.9076
-24.1767 2.5536 -2.8584
-30.1792 0.4782 -3.5488
-30.1731 -2.2231 -3.5573
-28.0891 -4.6175 -3.3470
-24.2370 -6.2486 -2.9429
-24.2315 -8.6181 -3.0239
-24.2258 -11.1425 -3.1352
-24.2195 -13.8826 -3.2823
-24.2126 -16.9179 -3.4729
-24.1247 -20.2891 -3.7063
-31.5105 -31.7156 -5.2566
-26.7195 -38.7737 -5.5365
12.4003 -41.4807 -5.0904
13.4904 -33.7879 -4.2776
17.1275 -33.7796 -4.4531
8.7018 -13.9215 -1.9303
8.7582 -11.5680 -1.7060
8.6919 -9.5686 -1.5199
8.6883 -7.9970 -1.3884
8.5178 -6.5373 -1.2625
8.5152 -5.4007 -1.1856
8.6283 -4.4463 -1.1413
8.5108 -3.4630 -1.0803
8.5088 -2.6046 -1.0463
8.5070 -1.7925 -1.0222
8.6205 -1.0244 -1.0207
8.6187 -0.2491 -1.0138
8.5017 0.5149 -1.0014
8.5000 1.2836 -1.0107
8.6240 2.1038 -1.0437
8.6198 2.9396 -1.0708
8.6154 3.8272 -1.1084
31.1774 21.1842 -4.4319
25.8294 21.1536 -3.9254
24.6921 24.2124 -4.0661
23.9936 28.1522 -4.3491
13.6845 29.2453 -3.7964
-23.0046 31.2234 -4.5600
-24.2874 15.8521 -3.4101
-24.2807 12.9160 -3.2336
-24.2746 10.2486 -3.0981
-24.2689 7.7768 -2.9964
-24.2636 5.4440 -2.9238
-24.2585 3.2043 -2.8770
-24.1732 1.0145 -2.8447
-30.1749 -1.4326 -3.5519
-30.1687 -4.1540 -3.5806
-24.1582 -5.5602 -2.9147
-24.2332 -7.9125 -2.9973
-24.2275 -10.3861 -3.0993
-24.2214 -13.0560 -3.2353
-24.2147 -15.9953 -3.4122
-24.2071 -19.3028 -3.6403
-32.2934 -30.8499 -5.2511
-28.0496 -38.5126 -5.6019
5.9804 -33.8236 -4.0386
12.4791 -33.7902 -4.2352
16.0345 -33.7821 -4.3967
8.7038 -14.7686 -2.0156
8.6977 -12.1335 -1.7553
8.6225 -10.0050 -1.5529
8.6893 -8.4272 -1.4232
8.5723 -6.9420 -1.2970
8.5159 -5.7181 -1.2061
8.5840 -4.7110 -1.1513
8.5114 -3.7250 -1.0924
8.5094 -2.8498 -1.0551
8.5075 -2.0258 -1.0283
8.5070 -1.2369 -1.0107
8.6192 -0.4745 -1.0150
8.5022 0.2926 -1.0003
8.5005 1.0576 -1.0072
8.6253 1.8670 -1.0376
8.6211 2.6910 -1.0619
8.6167 3.5615 -1.0963
38.1609 19.9315 -5.0620
32.8488 21.0884 -4.5897
28.0062 21.7403 -4.1686
26.2116 24.3937 -4.2100
24.5020 27.2736 -4.3108
17.1621 27.7956 -3.8409
22.0127 44.0130 -5.7861
-21.1329 17.5754 -3.2318
-24.2895 16.7734 -3.4707
-24.2826 13.7418 -3.2805
-24.2763 11.0043 -3.1339
-24.2705 8.4818 -3.0229
-24.2651 6.1137 -2.9422
-24.2600 3.8511 -2.8881
-24.2550 1.6530 -2.8584
-30.1767 -0.6442 -3.5489
-21.0805 -2.3439 -2.4938
-26.2985 -5.3342 -3.1551
-24.2347 -7.2189 -2.9732
-24.1490 -9.6144 -3.0561
-24.1854 -12.2330 -3.1867
-24.1365 -15.0540 -3.3446
-24.2094 -18.2918 -3.5676
-24.1210 -21.8676 -3.8281
-29.6208 -38.5162 -5.7129
-26.0620 -41.0027 -5.7124
12.3773 -36.4113 -4.5217
14.9683 -33.7845 -4.3447
8.7069 -15.6964 -2.1105
8.6274 -12.7241 -1.8075
8.6943 -10.6374 -1.6153
8.6903 -8.8799 -1.4609
8.6783 -7.4111 -1.3418
6.9676 -4.9471 -1.0047
8.5551 -4.9899 -1.1645
8.5120 -3.9932 -1.1055
8.5100 -3.0992 -1.0649
8.5081 -2.2621 -1.0351
8.5062 -1.4644 -1.0149
8.6197 -0.7005 -1.0168
8.5027 0.0705 -0.9998
8.5010 0.8330 -1.0043
8.6266 1.6329 -1.0323
8.6223 2.4463 -1.0538
8.6180 3.3015 -1.0851
35.9100 17.5787 -4.7009
12.0025 8.8250 -1.7516
26.2969 23.2224 -4.1249
5.8042 6.1310 -0.9927
21.1371 26.7548 -4.0090
15.1364 28.3874 -3.7825
-28.0836 20.4962 -4.0879
-24.2041 14.5441 -3.3201
-24.2781 11.7783 -3.1727
-24.2722 9.2000 -3.0520
-24.2667 6.7923 -2.9629
-24.2615 4.5033 -2.9013
-24.2564 2.2904 -2.8647
