ply
format ascii 1.0
element vertex 2013
property float32 x
property float32 y
property float32 z
end_header
-26.5947 -9.0890 -7.2531
-26.5885 -11.8317 -7.5104
-26.5817 -14.8009 -7.8517
-26.3635 -17.9366 -8.2290
-27.7946 -39.2730 -12.4166
8.7027 -14.3258 -4.3258
8.6970 -11.7969 -3.7823
8.6925 -9.8185 -3.3842
7.0988 -6.7037 -2.5198
8.5182 -6.7128 -2.7989
8.5156 -5.5553 -2.6239
8.5132 -4.5263 -2.4882
8.5111 -3.5914 -2.3840
8.5091 -2.7251 -2.3058
8.5073 -1.9074 -2.2500
8.5055 -1.1223 -2.2140
8.5037 -0.3559 -2.1965
8.5020 0.4045 -2.1966
8.5002 1.1711 -2.2144
8.4984 1.9566 -2.2506
8.4966 2.7747 -2.3067
8.4946 3.6419 -2.3852
28.8190 19.0366 -8.9134
25.6730 20.4708 -8.4738
24.1827 23.0998 -8.6305
24.2188 27.6733 -9.4904
-26.6489 14.6393 -7.8467
-26.6421 11.6735 -7.5066
-26.6359 8.9333 -7.2502
-24.7404 5.9032 -6.5640
-24.7290 3.6075 -6.4494
-24.7239 1.3733 -6.3903
-24.8453 -0.8421 -6.4155
-24.7700 -3.0685 -6.4412
-24.7112 -5.3347 -6.5241
-26.5966 -8.2853 -7.1891
-26.5904 -10.9723 -7.4235
-26.5176 -13.8299 -7.7182
-26.5766 -17.0384 -8.1471
8.7668 -15.3622 -4.5647
8.6986 -12.5002 -3.9301
8.6937 -10.3779 -3.4938
6.6285 -6.6115 -2.4161
8.6866 -7.2388 -2.9181
8.5163 -5.8937 -2.6728
8.5139 -4.8296 -2.5261
8.5117 -3.8690 -2.4129
8.5097 -2.9840 -2.3272
8.5078 -2.1533 -2.2648
8.5060 -1.3598 -2.2230
8.5042 -0.5890 -2.1999
8.5025 0.1719 -2.1947
8.5008 0.9353 -2.2070
8.4990 1.7136 -2.2375
8.4972 2.5202 -2.2873
8.4952 3.3704 -2.3586
32.5607 20.2526 -9.8958
11.8817 8.9540 -3.8395
25.3202 22.8965 -8.8098
23.9968 25.9530 -9.1220
-26.6084 12.5363 -7.5908
-26.6377 9.7514 -7.3205
-26.6318 7.1290 -7.1148
-24.7306 4.3008 -6.4780
-24.7254 2.0524 -6.4028
-24.8590 -0.1629 -6.4155
-24.7715 -2.3834 -6.4223
-24.7102 -4.6317 -6.4880
-26.5984 -7.4949 -7.1316
-26.5924 -10.1320 -7.3439
-26.4419 -12.8839 -7.5908
-26.5789 -16.0324 -8.0105
-21.1105 -22.2147 -7.9087
4.5629 -33.9047 -8.8287
5.8843 -13.8450 -3.8823
8.7072 -16.2752 -4.7634
8.7430 -13.3266 -4.1133
8.6951 -10.9753 -3.6136
6.6335 -6.9882 -2.4866
8.6875 -7.6514 -2.9876
8.5171 -6.2452 -2.7256
8.5146 -5.1425 -2.5670
8.5124 -4.1536 -2.4444
8.5103 -3.2480 -2.3508
8.5084 -2.4026 -2.2816
8.5066 -1.5994 -2.2338
8.5048 -0.8231 -2.2051
8.5030 -0.0605 -2.1944
8.5013 0.7009 -2.2014
8.4995 1.4732 -2.2262
8.4977 2.2697 -2.2699
8.4958 3.1047 -2.3343
8.4938 3.9960 -2.4225
27.4522 19.5353 -8.6953
26.3024 22.5092 -8.9341
5.8139 5.9530 -2.1474
24.1469 29.6043 -9.8591
5.7531 8.5030 -2.6495
-26.4361 13.3496 -7.6429
-26.6397 10.5863 -7.3978
-26.6336 7.9154 -7.1704
-24.7338 5.0013 -6.5122
-24.7270 2.7346 -6.4202
-24.7219 0.5136 -6.3814
-24.8011 -1.7039 -6.4155
-24.7680 -3.9454 -6.4725
-24.7139 -6.2403 -6.5781
-26.5942 -9.3089 -7.2715
-26.5879 -12.0676 -7.5352
-26.5811 -15.0589 -7.8841
-27.3827 -39.3033 -12.3620
8.7022 -14.0893 -4.2737
8.6966 -11.6156 -3.7447
6.6303 -7.3786 -2.5600
7.2505 -6.7463 -2.5558
8.5180 -6.6112 -2.7827
8.5154 -5.4660 -2.6113
8.5130 -4.4459 -2.4785
8.5109 -3.5175 -2.3766
8.5090 -2.6559 -2.3004
8.5071 -1.8415 -2.2463
8.5053 -1.0585 -2.2119
8.5036 -0.2930 -2.1958
8.5018 0.4675 -2.1974
8.5001 1.2352 -2.2167
8.4983 2.0227 -2.2544
8.4964 2.8443 -2.3123
8.4944 3.7163 -2.3928
28.7983 19.3299 -8.9509
26.2577 21.2560 -8.7184
25.6303 24.8473 -9.2124
24.0494 27.8927 -9.5045
-26.6483 14.3837 -7.8150
-26.6416 11.4395 -7.4824
-26.6354 8.7148 -7.2324
-24.7389 5.7101 -6.5522
-24.7286 3.4210 -6.4425
-24.7235 1.1902 -6.3878
-24.8384 -1.0256 -6.4155
-24.7696 -3.2543 -6.4472
-24.7117 -5.5262 -6.5349
-26.4640 -8.4589 -7.1700
-26.4512 -11.1443 -7.4074
-26.5833 -14.1148 -7.7674
-26.5760 -17.3163 -8.1859
8.7662 -15.1008 -4.5061
8.6981 -12.3048 -3.8888
8.6934 -10.2231 -3.4632
6.6927 -6.5776 -2.4217
8.6863 -7.1305 -2.9002
8.5161 -5.8010 -2.6592
8.5137 -4.7467 -2.5156
8.5116 -3.7933 -2.4048
8.5096 -2.9135 -2.3212
8.5077 -2.0865 -2.2606
8.5059 -1.2954 -2.2204
8.5041 -0.5260 -2.1988
8.5024 0.2348 -2.1950
8.5006 0.9989 -2.2089
8.4988 1.7790 -2.2408
8.4970 2.5886 -2.2923
8.4951 3.4432 -2.3656
31.6579 20.0168 -9.6661
26.9068 20.5905 -8.7438
25.0080 22.9522 -8.7600
23.8577 26.1881 -9.1424
-21.0541 17.7702 -7.1101
-26.6436 12.3132 -7.5747
-26.6372 9.5288 -7.3009
-24.7445 6.4283 -6.5978
-24.7301 4.1129 -6.4698
-24.7250 1.8686 -6.3990
-21.0847 17.6103 -6.9094
-26.4320 12.0500 -7.3061
-26.4884 9.3214 -7.0626
-24.7351 6.2896 -6.4191
-24.7298 3.9815 -6.2999
-24.7288 1.7404 -6.2349
-24.9869 -0.4775 -6.2856
-21.0719 -2.2948 -5.3311
-24.7094 -4.9535 -6.3383
-24.7041 -7.2972 -6.4787
-26.5915 -10.5158 -7.1920
-26.5850 -13.3692 -7.4843
-26.5779 -16.4904 -7.8667
8.7681 -15.9056 -4.5680
8.6078 -12.7681 -3.8729
8.6945 -10.6959 -3.4668
6.8960 -7.0845 -2.4866
8.6871 -7.4594 -2.8799
8.5168 -6.0820 -2.6322
8.5143 -4.9975 -2.4831
8.5121 -4.0219 -2.3678
8.5100 -3.1260 -2.2802
8.5081 -2.2876 -2.2159
8.5063 -1.4890 -2.1720
8.5045 -0.7154 -2.1465
8.5028 0.0463 -2.1386
8.5011 0.8084 -2.1478
8.4993 1.5834 -2.1744
8.4975 2.3843 -2.2197
8.4955 3.2261 -2.2856
8.4935 4.1269 -2.3750
27.2287 19.8958 -8.4817
25.9029 22.7369 -8.6686
5.7855 6.0746 -2.1099
-18.1042 27.6622 -8.3149
-26.6453 13.0381 -7.4608
-26.6388 10.2006 -7.1743
-24.7930 7.0309 -6.4816
-24.7314 4.6784 -6.3305
-24.7291 2.4210 -6.2493
-24.9885 0.2054 -6.2851
-24.9834 -2.0319 -6.3043
-24.9782 -4.3010 -6.3747
-24.7058 -6.5693 -6.4297
-26.5934 -9.6850 -7.1183
-26.5870 -12.4721 -7.3861
-26.5801 -15.5023 -7.7391
-26.9267 -39.7024 -12.0655
8.6138 -13.5623 -4.0409
8.6959 -11.3158 -3.5893
6.6998 -7.2703 -2.4866
7.3216 -6.6430 -2.4865
8.5176 -6.4412 -2.6858
8.5150 -5.3160 -2.5247
8.5127 -4.3106 -2.3999
8.5106 -3.3930 -2.3043
8.5087 -2.5390 -2.2333
8.5068 -1.7299 -2.1834
8.5051 -0.9501 -2.1524
8.5033 -0.1861 -2.1392
8.5016 0.5746 -2.1431
8.4998 1.3443 -2.1644
8.4980 2.1358 -2.2038
8.4961 2.9634 -2.2631
8.4941 3.8439 -2.3449
27.6558 19.0711 -8.4492
25.9438 21.5467 -8.4820
5.9471 5.9121 -2.1091
23.3328 27.7588 -9.1204
5.9038 8.4539 -2.5934
-26.6473 13.9541 -7.5654
-26.6407 11.0451 -7.2534
-26.6345 8.3458 -7.0200
-24.7330 5.3826 -6.3662
-24.7290 3.1052 -6.2684
-24.7278 0.8794 -6.2232
-24.7739 -1.3347 -6.2399
-24.9798 -3.6016 -6.3476
-24.7074 -5.8519 -6.3861
-24.7069 -8.2406 -6.5506
-26.5890 -11.5975 -7.2959
-26.4766 -14.4872 -7.5908
-26.5749 -17.7948 -8.0439
-28.2335 -39.2745 -12.1654
8.7033 -14.5681 -4.2681
8.6974 -11.9817 -3.7238
6.6308 -7.6021 -2.5371
6.7540 -6.4731 -2.3529
8.6859 -6.9495 -2.7978
8.5158 -5.6456 -2.5697
8.5134 -4.6074 -2.4347
8.5113 -3.6658 -2.3308
8.5093 -2.7946 -2.2526
8.5074 -1.9736 -2.1965
8.5056 -1.1863 -2.1600
8.5039 -0.4188 -2.1414
8.5021 0.3416 -2.1401
8.5004 1.1072 -2.1560
8.4986 1.8906 -2.1897
8.4967 2.7055 -2.2427
8.4948 3.5679 -2.3173
31.5162 20.4855 -9.4540
26.7211 20.9854 -8.5454
24.4367 22.9996 -8.4402
23.7429 26.7284 -8.9917
-26.4382 14.7788 -7.6179
-26.6427 11.9092 -7.3399
-26.6364 9.1529 -7.0838
-24.7347 6.0953 -6.4071
-24.7294 3.7943 -6.2925
-24.7286 1.5569 -6.2318
-24.9865 -0.6622 -6.2866
-24.9814 -2.9075 -6.3255
-24.7090 -5.1435 -6.3478
-24.7036 -7.4959 -6.4929
-26.5910 -10.7434 -7.2131
-26.5844 -13.6159 -7.5122
-26.5772 -16.7631 -7.9030
5.2604 -33.9520 -8.6412
8.7674 -15.6303 -4.5074
8.6725 -12.6612 -3.8598
8.6941 -10.5354 -3.4355
6.8919 -6.9764 -2.4664
8.6868 -7.3484 -2.8617
8.5166 -5.9874 -2.6184
8.5141 -4.9132 -2.4724
8.5119 -3.9452 -2.3596
8.5099 -3.0548 -2.2740
8.5080 -2.2203 -2.2115
8.5061 -1.4243 -2.1692
8.5044 -0.6522 -2.1452
8.5027 0.1091 -2.1387
8.5009 0.8718 -2.1493
8.4991 1.6484 -2.1775
8.4973 2.4521 -2.2244
8.4954 3.2981 -2.2920
8.5046 4.2102 -2.3867
11.9386 8.8595 -3.7391
25.5840 22.7938 -8.6180
22.7416 24.2339 -8.3586
-18.3999 27.6659 -8.3566
-26.6447 12.7947 -7.4340
-26.6383 9.9754 -7.1541
-24.7926 6.8333 -6.4681
-24.7310 4.4893 -6.3217
-24.7290 2.2367 -6.2450
-24.7770 0.0206 -6.2317
-24.9830 -2.2177 -6.3082
-24.9778 -4.4912 -6.3829
-24.7053 -6.7650 -6.4424
-26.3820 -9.8293 -7.0809
-26.5865 -12.7122 -7.4118
-26.5795 -15.7662 -7.7726
-26.8404 -40.2114 -12.1596
8.7079 -16.5695 -4.7078
8.7435 -13.5444 -4.0547
8.6955 -11.1439 -3.5551
6.7533 -7.2206 -2.4866
7.4796 -6.6863 -2.5233
8.5174 -6.3427 -2.6709
8.5148 -5.2289 -2.5131
8.5126 -4.2318 -2.3910
8.5105 -3.3203 -2.2976
8.5085 -2.4707 -2.2284
8.5067 -1.6646 -2.1801
8.5049 -0.8866 -2.1507
8.5032 -0.1233 -2.1389
8.5014 0.6377 -2.1442
8.4997 1.4087 -2.1669
8.4979 2.2026 -2.2079
8.4960 3.0339 -2.2690
8.4940 3.9197 -2.3528
27.5406 19.2934 -8.4573
26.3146 22.1851 -8.6566
5.8701 5.9223 -2.0972
23.5737 28.4697 -9.2965
5.8153 8.4597 -2.5819
-26.6468 13.7040 -7.5363
-26.4289 10.7292 -7.1740
-26.4229 8.0657 -6.9483
-24.7326 5.1915 -6.3561
-24.7290 2.9199 -6.2628
-24.7275 0.6966 -6.2217
-24.9845 -1.5311 -6.2956
-24.9794 -3.7900 -6.3545
-24.7070 -6.0448 -6.3973
-24.7079 -8.4442 -6.5672
-26.5885 -11.8317 -7.3195
-26.3709 -14.6835 -7.5914
-26.3635 -17.9366 -8.0198
-27.7946 -39.2730 -12.1010
8.7027 -14.3258 -4.2158
8.6970 -11.7969 -3.6862
6.6305 -7.4894 -2.5158
6.9189 -6.5338 -2.3935
8.5182 -6.7128 -2.7277
8.5156 -5.5553 -2.5572
8.5132 -4.5263 -2.4250
8.5111 -3.5914 -2.3234
8.5091 -2.7251 -2.2472
8.5073 -1.9074 -2.1928
8.5055 -1.1223 -2.1578
8.5037 -0.3559 -2.1406
8.5020 0.4045 -2.1408
8.5002 1.1711 -2.1581
8.4984 1.9566 -2.1934
8.4966 2.7747 -2.2480
8.4946 3.6419 -2.3245
30.1041 19.8855 -9.0742
25.5671 20.3863 -8.2243
24.1348 23.0540 -8.3945
24.2025 27.6546 -9.2429
-26.4524 14.5313 -7.5908
-26.6421 11.6735 -7.3158
-26.6359 8.9333 -7.0659
-24.7342 5.9017 -6.3955
-24.7290 3.6075 -6.2854
-24.7284 1.3735 -6.2290
-24.9861 -0.8468 -6.2879
-24.9810 -3.0946 -6.3310
-24.7086 -5.3341 -6.3576
-24.7044 -7.6959 -6.5079
-26.5904 -10.9723 -7.2348
-26.5176 -13.8299 -7.5220
-26.5766 -17.0384 -7.9400
5.5057 -33.8788 -8.6326
8.7668 -15.3622 -4.4486
8.6986 -12.5002 -3.8302
8.6937 -10.3779 -3.4050
6.8927 -6.8749 -2.4485
8.6866 -7.2388 -2.8439
8.5163 -5.8937 -2.6048
8.5139 -4.8296 -2.4619
8.5117 -3.8690 -2.3516
8.5097 -2.9840 -2.2681
8.5078 -2.1533 -2.2073
8.5060 -1.3598 -2.1665
8.5042 -0.5890 -2.1440
8.5025 0.1719 -2.1389
8.5008 0.9353 -2.1509
8.4990 1.7136 -2.1806
8.4972 2.5202 -2.2291
8.4952 3.3704 -2.2987
11.8814 8.9538 -3.7418
25.2689 22.8502 -8.5685
23.9678 25.9216 -8.8794
-26.6441 12.5532 -7.4078
-26.6378 9.7514 -7.1345
-24.7420 6.6232 -6.4419
-24.7306 4.3008 -6.3133
-24.7290 2.0527 -6.2410
-24.9876 -0.1638 -6.2848
-24.9825 -2.4037 -6.3124
-24.7102 -4.6317 -6.3231
-24.7049 -6.9614 -6.4555
-26.5924 -10.1320 -7.1573
-26.5859 -12.9540 -7.4381
-26.5789 -16.0324 -7.8068
-21.1080 -22.2121 -7.7068
5.8841 -13.8446 -3.7835
8.7072 -16.2752 -4.6424
8.7430 -13.3266 -4.0087
8.6951 -10.9753 -3.5217
6.8065 -7.1705 -2.4866
7.6428 -6.7313 -2.5615
8.5171 -6.2452 -2.6563
8.5146 -5.1425 -2.5018
8.5124 -4.1536 -2.3822
8.5103 -3.2480 -2.2910
8.5084 -2.4026 -2.2236
8.5065 -1.5994 -2.1770
8.5048 -0.8231 -2.1490
8.5030 -0.0605 -2.1387
8.5013 0.7009 -2.1454
8.4995 1.4732 -2.1696
8.4977 2.2697 -2.2122
8.4958 3.1047 -2.2750
8.4938 3.9960 -2.3609
27.4252 19.5161 -8.4659
26.3270 22.5302 -8.7152
5.8138 5.9528 -2.0928
24.1027 29.5501 -9.5909
5.7531 8.5030 -2.5821
-26.4361 13.3496 -7.4486
-26.6397 10.5863 -7.2098
-26.6336 7.9154 -6.9882
-24.7322 5.0010 -6.3463
-24.7291 2.7348 -6.2575
-24.7272 0.5137 -6.2205
-24.9841 -1.7165 -6.2986
-24.9401 -3.9728 -6.3518
-24.7065 -6.2385 -6.4090
-24.7089 -8.6489 -6.5843
-26.5879 -12.0676 -7.3437
-26.3704 -14.9395 -7.6228
-27.3827 -39.3033 -12.0477
8.7022 -14.0893 -4.1650
8.6966 -11.6156 -3.6495
6.6303 -7.3786 -2.4950
7.0642 -6.5730 -2.4269
8.5180 -6.6112 -2.7119
8.5154 -5.4659 -2.5450
8.5130 -4.4459 -2.4155
8.5109 -3.5175 -2.3162
8.5090 -2.6559 -2.2419
8.5071 -1.8415 -2.1892
8.5053 -1.0585 -2.1557
8.5036 -0.2930 -2.1400
8.5018 0.4675 -2.1415
8.5001 1.2352 -2.1603
8.4983 2.0227 -2.1971
8.4964 2.8443 -2.2535
8.4944 3.7163 -2.3319
28.7638 19.3067 -8.7129
26.2816 21.2754 -8.5045
25.6620 24.8781 -8.9894
24.0332 27.8739 -9.2566
-26.5590 14.3355 -7.5908
-26.6416 11.4395 -7.2922
-26.6354 8.7148 -7.0485
-24.7338 5.7089 -6.3843
-24.7288 3.4211 -6.2788
-24.7282 1.1904 -6.2266
-24.9857 -1.0317 -6.2895
-24.9805 -3.2820 -6.3368
-24.7081 -5.5254 -6.3678
-24.7053 -7.8967 -6.5233
-26.4512 -11.1443 -7.2191
-26.5833 -14.1148 -7.5700
-26.5760 -17.3163 -7.9778
5.7620 -33.8736 -8.6419
8.7662 -15.1008 -4.3916
8.6981 -12.3048 -3.7899
8.6934 -10.2231 -3.3752
6.6283 -6.5143 -2.3374
8.6863 -7.1305 -2.8265
8.5161 -5.8010 -2.5916
8.5137 -4.7467 -2.4516
8.5116 -3.7933 -2.3437
8.5096 -2.9135 -2.2622
8.5077 -2.0865 -2.2032
8.5059 -1.2954 -2.1640
8.5041 -0.5260 -2.1430
8.5024 0.2348 -2.1392
8.5006 0.9989 -2.1527
8.4988 1.7790 -2.1839
8.4970 2.5886 -2.2341
8.4951 3.4432 -2.3054
31.7017 20.0445 -9.4334
27.6514 21.1602 -8.7573
24.9577 22.9060 -8.5201
23.8288 26.1563 -8.8992
-21.0492 17.7661 -6.9277
-26.6436 12.3132 -7.3821
-26.6372 9.5288 -7.1153
-24.7354 6.4259 -6.4277
-24.7301 4.1128 -6.3053
-24.7289 1.8688 -6.2373
-21.0822 17.6081 -6.7289
-26.4320 12.0500 -7.1162
-24.7969 8.7261 -6.4397
-24.7376 6.2902 -6.2528
-24.7861 3.9906 -6.1501
-24.9920 1.7589 -6.1375
-24.9869 -0.4775 -6.1222
-21.0713 -2.2948 -5.1924
-24.7186 -4.9553 -6.1758
-24.7041 -7.2972 -6.3103
-24.6996 -9.7677 -6.5066
-26.5850 -13.3692 -7.2897
-26.3671 -16.3596 -7.6014
8.7681 -15.9056 -4.4492
8.6995 -12.9041 -3.8124
8.6945 -10.6959 -3.3766
7.0801 -7.2736 -2.4866
7.7188 -6.6279 -2.4923
8.5168 -6.0820 -2.5637
8.5143 -4.9975 -2.4185
8.5121 -4.0219 -2.3063
8.5100 -3.1260 -2.2209
8.5081 -2.2876 -2.1583
8.5063 -1.4890 -2.1155
8.5045 -0.7154 -2.0907
8.5028 0.0463 -2.0830
8.5011 0.8084 -2.0919
8.4993 1.5834 -2.1179
8.4975 2.3843 -2.1620
8.4955 3.2261 -2.2262
8.4935 4.1269 -2.3133
27.2020 19.8763 -8.2531
25.8501 22.6906 -8.4260
5.7852 6.0742 -2.0549
-26.6453 13.0380 -7.2668
-26.6388 10.2006 -6.9878
-25.0042 7.0908 -6.3668
-24.7695 4.6856 -6.1754
-24.9936 2.4469 -6.1520
-24.9885 0.2054 -6.1216
-24.9834 -2.0318 -6.1404
-24.9782 -4.3010 -6.2090
-24.7074 -6.5697 -6.2629
-24.7002 -8.9955 -6.4396
-26.5870 -12.4721 -7.1941
-26.5801 -15.5023 -7.5379
-26.4615 -39.0165 -11.5487
8.6138 -13.5623 -3.9358
8.6959 -11.3158 -3.4960
6.8787 -7.4643 -2.4866
7.1344 -6.4731 -2.3599
8.5176 -6.4412 -2.6160
8.5150 -5.3160 -2.4591
8.5127 -4.3106 -2.3375
8.5106 -3.3930 -2.2444
8.5087 -2.5390 -2.1752
8.5068 -1.7299 -2.1266
8.5051 -0.9501 -2.0965
8.5033 -0.1861 -2.0836
8.5016 0.5746 -2.0874
8.4998 1.3443 -2.1081
8.4980 2.1358 -2.1465
8.4961 2.9634 -2.2043
8.4941 3.8439 -2.2840
27.6288 19.0525 -8.2215
25.9508 21.5525 -8.2637
5.9467 5.9117 -2.0541
23.7283 28.2293 -9.0338
5.9038 8.4539 -2.5260
-26.6473 13.9541 -7.3687
-26.6407 11.0451 -7.0648
-24.9907 7.8308 -6.4155
-24.7399 5.3841 -6.2024
-24.9952 3.1387 -6.1712
-24.7790 0.8812 -6.0740
-24.7739 -1.3347 -6.0777
-24.9798 -3.6016 -6.1826
-24.7126 -5.8531 -6.2213
-24.7019 -8.2390 -6.3790
-26.5890 -11.5975 -7.1062
-26.5823 -14.5451 -7.4230
-26.5749 -17.7948 -7.8348
-28.2335 -39.2745 -11.8491
8.7033 -14.5681 -4.1571
8.6974 -11.9817 -3.6269
6.6721 -7.6495 -2.4866
6.6280 -6.3523 -2.2490
8.6859 -6.9495 -2.7250
8.5158 -5.6456 -2.5029
8.5134 -4.6074 -2.3714
8.5113 -3.6658 -2.2702
8.5093 -2.7946 -2.1941
8.5074 -1.9736 -2.1394
8.5056 -1.1863 -2.1038
8.5039 -0.4188 -2.0857
8.5021 0.3416 -2.0845
8.5004 1.1072 -2.0999
8.4986 1.8906 -2.1328
8.4967 2.7055 -2.1844
8.4948 3.5679 -2.2571
31.5598 20.5139 -9.2209
26.6072 20.8960 -8.2878
24.3882 22.9540 -8.2044
23.5627 26.5256 -8.6915
-26.4382 14.7788 -7.4198
-26.6427 11.9092 -7.1490
-24.7964 8.5207 -6.4230
-24.7381 6.0962 -6.2414
-24.9172 3.8231 -6.1754
-24.9916 1.5735 -6.1343
-24.9865 -0.6622 -6.1231
-24.9814 -2.9075 -6.1610
-24.7174 -5.1453 -6.1848
-24.7036 -7.4959 -6.3241
-24.7008 -9.9798 -6.5262
-26.5844 -13.6159 -7.3169
-26.3665 -16.6302 -7.6365
8.7674 -15.6303 -4.3902
8.6990 -12.7000 -3.7710
6.6318 -8.0364 -2.5524
6.8919 -6.9764 -2.4023
7.8892 -6.6737 -2.5314
8.5166 -5.9874 -2.5503
8.5141 -4.9132 -2.4081
8.5119 -3.9452 -2.2982
8.5099 -3.0548 -2.2149
8.5080 -2.2203 -2.1540
8.5061 -1.4243 -2.1128
8.5044 -0.6522 -2.0894
8.5027 0.1091 -2.0831
8.5009 0.8718 -2.0934
8.4991 1.6484 -2.1208
8.4973 2.4521 -2.1665
8.4954 3.2981 -2.2324
8.5046 4.2102 -2.3247
11.9383 8.8592 -3.6418
25.5322 22.7476 -8.3769
22.9124 24.4159 -8.2024
-26.6447 12.7947 -7.2407
-24.7982 9.2863 -6.4868
-25.0038 6.8915 -6.3536
-24.8035 4.5025 -6.1754
-24.7821 2.2415 -6.0957
-24.7770 0.0206 -6.0696
-24.9830 -2.2177 -6.1442
-24.9778 -4.4912 -6.2169
-24.7059 -6.7651 -6.2750
-24.6997 -9.2025 -6.4570
-26.5865 -12.7123 -7.2191
-26.5795 -15.7662 -7.5705
-26.8404 -40.2114 -11.8434
8.7079 -16.5695 -4.5854
8.6091 -13.3363 -3.8886
8.6955 -11.1439 -3.4627
6.9336 -7.4133 -2.4866
7.2856 -6.5129 -2.3939
8.5174 -6.3427 -2.6015
8.5148 -5.2289 -2.4478
8.5126 -4.2318 -2.3288
8.5105 -3.3203 -2.2379
8.5085 -2.4707 -2.1704
8.5067 -1.6646 -2.1234
8.5049 -0.8866 -2.0947
8.5032 -0.1233 -2.0832
8.5014 0.6377 -2.0885
8.4997 1.4087 -2.1106
8.4979 2.2026 -2.1505
8.4960 3.0339 -2.2100
8.4940 3.9197 -2.2916
27.5137 19.2745 -8.2294
26.3389 22.2056 -8.4393
5.8699 5.9221 -2.0426
23.5578 28.4504 -9.0487
5.8153 8.4597 -2.5148
-26.6468 13.7040 -7.3403
-26.4289 10.7292 -6.9875
-24.8939 7.5990 -6.3761
-24.7403 5.1931 -6.1927
-24.9948 2.9513 -6.1655
-24.7786 0.6980 -6.0724
-24.9845 -1.5311 -6.1320
-24.9794 -3.7900 -6.1892
-24.7113 -6.0458 -6.2321
-24.7015 -8.4420 -6.3948
-26.5885 -11.8317 -7.1292
-26.5817 -14.8009 -7.4531
-26.3635 -17.9366 -7.8113
-27.2905 -38.5607 -11.5726
8.7027 -14.3258 -4.1062
8.6970 -11.7969 -3.5903
6.7285 -7.6000 -2.4866
6.7022 -6.3292 -2.2582
8.5182 -6.7128 -2.6568
8.5156 -5.5553 -2.4907
8.5132 -4.5263 -2.3619
8.5111 -3.5915 -2.2630
8.5091 -2.7251 -2.1888
8.5073 -1.9074 -2.1358
8.5055 -1.1223 -2.1016
8.5037 -0.3559 -2.0850
8.5020 0.4045 -2.0851
8.5002 1.1711 -2.1020
8.4984 1.9566 -2.1363
8.4966 2.7747 -2.1896
8.4946 3.6419 -2.2641
30.1062 19.8869 -8.8389
25.4622 20.3027 -7.9776
24.0872 23.0086 -8.1601
24.1862 27.6360 -8.9965
-26.6489 14.6393 -7.4484
-26.6421 11.6735 -7.1255
-24.8296 8.3275 -6.4155
-24.7387 5.9028 -6.2304
-24.7852 3.6157 -6.1359
-24.7801 1.3764 -6.0798
-24.9861 -0.8468 -6.1244
-24.9810 -3.0946 -6.1664
-24.7162 -5.3358 -6.1942
-24.7032 -7.6955 -6.3384
-24.7021 -10.1931 -6.5462
-26.5176 -13.8299 -7.3264
-26.5766 -17.0384 -7.7335
8.7668 -15.3622 -4.3330
8.6986 -12.5002 -3.7306
6.6315 -7.9162 -2.5298
6.8927 -6.8749 -2.3848
8.0655 -6.7213 -2.5719
8.5163 -5.8937 -2.5371
8.5139 -4.8296 -2.3979
8.5117 -3.8690 -2.2904
8.5097 -2.9840 -2.2091
8.5078 -2.1533 -2.1499
8.5060 -1.3598 -2.1102
8.5042 -0.5890 -2.0883
8.5025 0.1719 -2.0833
8.5008 0.9353 -2.0950
8.4990 1.7136 -2.1239
8.4972 2.5202 -2.1712
8.4952 3.3704 -2.2389
11.8811 8.9536 -3.6444
25.2181 22.8041 -8.3289
23.9390 25.8904 -8.6381
-18.7189 27.6997 -8.1898
-26.6441 12.5531 -7.2152
-24.7977 9.0778 -6.4690
-24.7426 6.6233 -6.2746
-24.8361 4.3192 -6.1754
-24.9928 2.0746 -6.1435
-24.9876 -0.1638 -6.1214
-24.9825 -2.4037 -6.1482
-24.7664 -4.6423 -6.1727
-24.7049 -6.9614 -6.2876
-24.6993 -9.4107 -6.4749
-26.5859 -12.9540 -7.2447
-26.5333 -16.0049 -7.5908
-21.1056 -22.2096 -7.5055
5.8840 -13.8443 -3.6850
8.7072 -16.2752 -4.5217
8.6087 -13.1218 -3.8445
8.6951 -10.9753 -3.4301
6.9882 -7.3619 -2.4866
7.4417 -6.5541 -2.4292
8.5171 -6.2452 -2.5872
8.5146 -5.1425 -2.4367
8.5124 -4.1536 -2.3203
8.5103 -3.2480 -2.2314
8.5084 -2.4026 -2.1658
8.5065 -1.5994 -2.1204
8.5048 -0.8231 -2.0932
8.5030 -0.0605 -2.0830
8.5013 0.7009 -2.0896
8.4995 1.4732 -2.1132
8.4977 2.2697 -2.1547
8.4958 3.1047 -2.2158
8.4938 3.9960 -2.2995
27.3984 19.4970 -8.2377
26.3515 22.5512 -8.4965
5.8136 5.9527 -2.0383
24.0588 29.4963 -9.3245
5.7531 8.5030 -2.5150
-26.4361 13.3496 -7.2549
-26.6397 10.5863 -7.0223
-25.0050 7.4314 -6.3903
-24.7407 5.0027 -6.1834
-24.7832 2.7408 -6.1082
-24.9892 0.5192 -6.1229
-24.9841 -1.7165 -6.1348
-24.9401 -3.9728 -6.1866
-24.7098 -6.2393 -6.2432
-24.7010 -8.6462 -6.4110
-26.5879 -12.0676 -7.1527
-26.5811 -15.0589 -7.4839
-26.9222 -38.6424 -11.5371
8.7022 -14.0893 -4.0567
8.6966 -11.6156 -3.5546
6.7844 -7.5501 -2.4866
6.8670 -6.3895 -2.2978
8.5180 -6.6112 -2.6414
8.5154 -5.4659 -2.4788
8.5130 -4.4459 -2.3527
8.5109 -3.5175 -2.2560
8.5090 -2.6559 -2.1836
8.5071 -1.8415 -2.1323
8.5053 -1.0585 -2.0996
8.5036 -0.2930 -2.0844
8.5018 0.4675 -2.0858
8.5001 1.2352 -2.1041
8.4983 2.0227 -2.1400
8.4964 2.8443 -2.1949
8.4944 3.7163 -2.2713
27.8242 18.6760 -8.2092
26.3056 21.2948 -8.2909
25.6938 24.9089 -8.7665
24.0170 27.8552 -9.0099
-26.6483 14.3837 -7.4183
-26.6416 11.4395 -7.1026
-24.8904 8.1438 -6.4155
-24.7392 5.7102 -6.2197
-24.9710 3.4546 -6.1754
-24.9908 1.2031 -6.1291
-24.9857 -1.0317 -6.1260
-24.9805 -3.2820 -6.1721
-24.7149 -5.5269 -6.2040
-24.7027 -7.8959 -6.3531
-24.7034 -10.4079 -6.5668
-26.5833 -14.1148 -7.3732
-26.5760 -17.3163 -7.7704
8.7662 -15.1008 -4.2774
8.6981 -12.3048 -3.6914
6.6312 -7.7981 -2.5076
6.9950 -6.8747 -2.4026
8.2482 -6.7709 -2.6142
8.5161 -5.8010 -2.5242
8.5137 -4.7467 -2.3879
8.5116 -3.7933 -2.2828
8.5096 -2.9135 -2.2034
8.5077 -2.0865 -2.1459
8.5059 -1.2954 -2.1077
8.5041 -0.5260 -2.0872
8.5024 0.2348 -2.0836
8.5006 0.9989 -2.0967
8.4988 1.7790 -2.1271
8.4970 2.5886 -2.1760
8.4951 3.4432 -2.2455
31.7455 20.0722 -9.2008
27.6544 21.1625 -8.5305
24.9077 22.8601 -8.2820
23.8000 26.1248 -8.6574
-18.9785 27.6413 -8.2137
-21.0443 17.7619 -6.7460
-26.6436 12.3132 -7.1902
-24.7972 8.8706 -6.4516
-24.7372 6.4264 -6.2610
-24.8673 4.1357 -6.1754
-24.9923 1.8887 -6.1398
-21.0593 17.5890 -6.5427
-26.4320 12.0500 -6.9268
-25.0081 8.8005 -6.3217
-24.7914 6.3039 -6.0996
-24.7861 3.9906 -5.9864
-24.9920 1.7589 -5.9741
-24.9869 -0.4775 -5.9592
-21.0707 -2.2947 -5.0540
-24.9766 -5.0070 -6.0742
-24.8372 -7.3365 -6.1754
-24.6985 -9.7672 -6.3331
-26.5850 -13.3692 -7.0956
-26.5779 -16.4904 -7.4583
-26.0625 -40.7844 -11.5411
8.7681 -15.9056 -4.3308
8.6995 -12.9041 -3.7109
6.6321 -8.1588 -2.5071
7.2737 -7.4725 -2.4866
7.5164 -6.4542 -2.3624
8.5168 -6.0820 -2.4955
8.5143 -4.9975 -2.3541
8.5121 -4.0219 -2.2449
8.5100 -3.1260 -2.1618
8.5081 -2.2876 -2.1008
8.5063 -1.4890 -2.0592
8.5045 -0.7154 -2.0351
8.5028 0.0463 -2.0275
8.5011 0.8084 -2.0362
8.4993 1.5834 -2.0615
8.4975 2.3843 -2.1045
8.4955 3.2261 -2.1669
8.4935 4.1269 -2.2517
27.1754 19.8569 -8.0256
25.7977 22.6446 -8.1851
5.7848 6.0738 -2.0001
-26.6453 13.0381 -7.0734
-25.0099 9.5768 -6.3859
-25.0042 7.0908 -6.1974
-24.9988 4.7290 -6.0667
-24.9936 2.4469 -5.9882
-24.9885 0.2054 -5.9587
-24.9834 -2.0318 -5.9770
-24.9782 -4.3010 -6.0437
-24.9729 -6.6403 -6.1617
-24.7013 -8.9959 -6.2685
-26.5870 -12.4721 -7.0026
-26.5801 -15.5023 -7.3372
-26.4615 -39.0165 -11.2414
8.6096 -13.5557 -3.8292
8.6959 -11.3158 -3.4030
7.0668 -7.6684 -2.4866
6.9319 -6.2894 -2.2319
8.5176 -6.4412 -2.5464
8.5150 -5.3160 -2.3936
8.5127 -4.3106 -2.2753
8.5106 -3.3930 -2.1847
8.5087 -2.5390 -2.1173
8.5068 -1.7299 -2.0700
8.5051 -0.9501 -2.0407
8.5033 -0.1861 -2.0281
8.5016 0.5746 -2.0318
8.4998 1.3443 -2.0520
8.4980 2.1358 -2.0894
8.4961 2.9634 -2.1456
8.4941 3.8439 -2.2232
27.6019 19.0339 -7.9949
25.9579 21.5583 -8.0460
5.9463 5.9113 -1.9993
23.7124 28.2104 -8.7875
5.9038 8.4539 -2.4587
-26.6473 13.9541 -7.1726
-24.8064 10.2846 -6.4033
-25.0059 7.8355 -6.2485
-24.7893 5.3949 -6.0494
-24.9952 3.1387 -6.0069
-24.7790 0.8812 -5.9123
-24.7739 -1.3347 -5.9159
-24.9798 -3.6016 -6.0180
-24.9745 -5.9151 -6.1199
-24.7081 -8.2410 -6.2107
-24.6962 -10.7719 -6.4246
-26.5823 -14.5451 -7.2254
-26.4514 -17.7122 -7.5908
-27.6852 -38.5118 -11.3098
8.7033 -14.5681 -4.0465
8.6974 -11.9817 -3.5304
6.8546 -7.8587 -2.4866
6.6280 -6.3523 -2.1891
8.3317 -6.6662 -2.5443
8.5158 -5.6456 -2.4363
8.5134 -4.6074 -2.3083
8.5113 -3.6658 -2.2098
8.5093 -2.7946 -2.1357
8.5074 -1.9736 -2.0825
8.5056 -1.1863 -2.0478
8.5039 -0.4188 -2.0302
8.5021 0.3416 -2.0290
8.5004 1.1072 -2.0440
8.4986 1.8906 -2.0760
8.4967 2.7055 -2.1263
8.4948 3.5679 -2.1970
31.6035 20.5422 -8.9879
26.4947 20.8076 -8.0331
24.3401 22.9087 -7.9703
23.5343 26.4936 -8.4499
-19.4995 27.6499 -8.0678
-26.4382 14.7788 -7.2223
-24.8023 11.0865 -6.4781
-25.0076 8.5932 -6.3053
-25.0021 6.1612 -6.1401
-24.9968 3.8353 -6.0302
-24.9916 1.5735 -5.9711
-24.9865 -0.6622 -5.9601
-24.9814 -2.9075 -5.9970
-24.9762 -5.1992 -6.0832
-24.7824 -7.5198 -6.1754
-24.6980 -9.9786 -6.3518
-26.5844 -13.6159 -7.1221
-26.5772 -16.7631 -7.4926
-29.3167 -38.5155 -11.5419
8.7674 -15.6303 -4.2733
8.6990 -12.7000 -3.6706
6.6373 -8.0430 -2.4866
6.8919 -6.9764 -2.3384
7.6792 -6.4961 -2.3984
8.5166 -5.9874 -2.4824
8.5141 -4.9132 -2.3440
8.5119 -3.9452 -2.2371
8.5099 -3.0548 -2.1560
8.5080 -2.2203 -2.0967
8.5061 -1.4243 -2.0565
8.5044 -0.6522 -2.0338
8.5027 0.1091 -2.0276
8.5009 0.8718 -2.0377
8.4991 1.6484 -2.0644
8.4973 2.4521 -2.1089
8.4954 3.2981 -2.1730
8.5046 4.2102 -2.2628
11.9379 8.8590 -3.5448
25.4807 22.7018 -8.1376
23.0852 24.6001 -8.0443
-26.6447 12.7947 -7.0480
-25.0094 9.3654 -6.3679
-25.0038 6.8915 -6.1845
-24.9984 4.5379 -6.0583
-24.7821 2.2415 -5.9334
-24.7770 0.0206 -5.9081
-24.9830 -2.2177 -5.9806
-24.9778 -4.4912 -6.0515
-24.9724 -6.8381 -6.1739
-24.6997 -9.2026 -6.2852
-26.5865 -12.7123 -7.0270
-26.5795 -15.7662 -7.3690
-26.2587 -39.3399 -11.2784
8.7079 -16.5695 -4.4634
8.6763 -13.4404 -3.8146
6.6328 -8.5005 -2.5710
7.1232 -7.6160 -2.4866
7.1020 -6.3487 -2.2715
8.5174 -6.3427 -2.5322
8.5148 -5.2289 -2.3826
8.5126 -4.2318 -2.2668
8.5105 -3.3203 -2.1783
8.5085 -2.4707 -2.1127
8.5067 -1.6646 -2.0669
8.5049 -0.8866 -2.0390
8.5032 -0.1233 -2.0278
8.5014 0.6377 -2.0329
8.4997 1.4087 -2.0544
8.4979 2.2026 -2.0933
8.4960 3.0339 -2.1512
8.4940 3.9197 -2.2306
27.4869 19.2557 -8.0025
26.3633 22.2262 -8.2223
5.8697 5.9220 -1.9882
23.5419 28.4313 -8.8019
5.8153 8.4597 -2.4479
-26.6468 13.7040 -7.1450
-24.9290 10.1203 -6.4155
-24.8939 7.5990 -6.2064
-25.0000 5.2476 -6.0912
-24.9948 2.9513 -6.0014
-24.7786 0.6980 -5.9108
-24.9845 -1.5311 -5.9687
-24.9794 -3.7900 -6.0245
-24.9741 -6.1101 -6.1307
-24.7063 -8.4436 -6.2258
-24.7519 -11.0144 -6.4601
-26.5817 -14.8009 -7.2547
-26.3635 -17.9366 -7.6034
-27.2905 -38.5607 -11.2646
8.7027 -14.3258 -3.9969
8.6970 -11.7969 -3.4948
6.9124 -7.8078 -2.4866
6.6277 -6.2589 -2.1737
8.5182 -6.7128 -2.5861
8.5156 -5.5553 -2.4244
8.5132 -4.5263 -2.2991
8.5111 -3.5915 -2.2028
8.5091 -2.7251 -2.1305
8.5073 -1.9074 -2.0789
8.5055 -1.1223 -2.0457
8.5037 -0.3559 -2.0295
8.5020 0.4045 -2.0296
8.5002 1.1711 -2.0460
8.4984 1.9566 -2.0795
8.4966 2.7747 -2.1313
8.4946 3.6419 -2.2038
30.1084 19.8883 -8.6043
25.3586 20.2201 -7.7337
24.0399 22.9634 -7.9273
24.1700 27.6176 -8.7512
-26.6489 14.6393 -7.2501
-24.8018 10.8672 -6.4568
-25.0072 8.3871 -6.2894
-25.0016 5.9655 -6.1290
-24.7852 3.6157 -5.9726
-24.7801 1.3764 -5.9179
-24.9861 -0.8468 -5.9614
-24.9810 -3.0946 -6.0023
-24.7648 -5.3463 -6.0412
-24.7261 -7.7026 -6.1754
-24.6975 -10.1912 -6.3708
-26.5176 -13.8299 -7.1314
-26.5766 -17.0384 -7.5277
-28.8692 -38.5145 -11.4774
8.7668 -15.3622 -4.2176
8.6986 -12.5002 -3.6314
6.6965 -7.9938 -2.4866
6.8927 -6.8749 -2.3214
7.8475 -6.5396 -2.4358
8.5163 -5.8937 -2.4696
8.5139 -4.8296 -2.3340
8.5117 -3.8690 -2.2295
8.5097 -2.9840 -2.1503
8.5078 -2.1533 -2.0927
8.5060 -1.3598 -2.0540
8.5042 -0.5890 -2.0327
8.5025 0.1719 -2.0278
8.5008 0.9353 -2.0392
8.4990 1.7136 -2.0674
8.4972 2.5202 -2.1134
8.4952 3.3704 -2.1793
11.8808 8.9533 -3.5473
25.1675 22.7585 -8.0910
23.9103 25.8594 -8.3981
-26.6441 12.5531 -7.0231
-25.0089 9.1552 -6.3504
-25.0033 6.6931 -6.1720
-24.9980 4.3473 -6.0502
-24.9928 2.0746 -5.9800
-24.9876 -0.1638 -5.9584
-24.9825 -2.4037 -5.9846
-24.7664 -4.6423 -6.0084
-24.9274 -7.0241 -6.1754
-24.6993 -9.4107 -6.3026
-26.5859 -12.9540 -7.0519
-26.5789 -16.0324 -7.4015
-21.0830 -22.1858 -7.2979
-26.1305 -39.7812 -11.3492
5.8839 -13.8439 -3.5869
8.7072 -16.2752 -4.4013
8.7003 -13.2615 -3.7820
6.6326 -8.3719 -2.5468
7.1793 -7.5632 -2.4866
7.2514 -6.3865 -2.3041
8.5171 -6.2452 -2.5184
8.5146 -5.1425 -2.3719
8.5124 -4.1536 -2.2585
8.5103 -3.2480 -2.1721
8.5084 -2.4026 -2.1082
8.5065 -1.5994 -2.0639
8.5048 -0.8231 -2.0374
8.5030 -0.0605 -2.0276
8.5013 0.7009 -2.0340
8.4995 1.4732 -2.0569
8.4977 2.2697 -2.0973
8.4958 3.1047 -2.1569
8.4938 3.9960 -2.2383
27.3717 19.4780 -8.0107
26.3761 22.5722 -8.2781
5.8135 5.9525 -1.9840
24.0152 29.4428 -9.0599
5.7531 8.5030 -2.4481
-26.4361 13.3496 -7.0618
-25.0031 9.9359 -6.4155
-25.0050 7.4314 -6.2202
-24.7884 5.0124 -6.0304
-24.7832 2.7408 -5.9456
-24.9892 0.5192 -5.9600
-24.9841 -1.7165 -5.9715
-24.9401 -3.9728 -6.0219
-24.7627 -6.2527 -6.0900
-24.7045 -8.6474 -6.2413
-24.7514 -11.2340 -6.4814
-26.5811 -15.0589 -7.2848
-26.9222 -38.6424 -11.2301
8.7022 -14.0893 -3.9488
8.6966 -11.6156 -3.4600
6.9699 -7.7566 -2.4866
6.6531 -6.1904 -2.1670
8.5180 -6.6112 -2.5711
8.5154 -5.4659 -2.4128
8.5130 -4.4459 -2.2901
8.5109 -3.5175 -2.1959
8.5090 -2.6559 -2.1255
8.5071 -1.8415 -2.0755
8.5053 -1.0585 -2.0437
8.5036 -0.2930 -2.0289
8.5018 0.4675 -2.0303
8.5001 1.2352 -2.0481
8.4983 2.0227 -2.0830
8.4964 2.8443 -2.1365
8.4944 3.7163 -2.2109
29.9839 20.1257 -8.6109
26.3294 21.3141 -8.0776
25.7255 24.9396 -8.5437
24.0009 27.8365 -8.7642
-26.6483 14.3837 -7.2209
-24.8013 10.6493 -6.4360
-25.0067 8.1819 -6.2739
-25.0012 5.7707 -6.1183
-24.9959 3.4580 -6.0171
-24.9908 1.2031 -5.9660
-24.9857 -1.0317 -5.9629
-24.9805 -3.2820 -6.0078
-24.9753 -5.5851 -6.1025
-24.7110 -7.8986 -6.1860
-24.6970 -10.4052 -6.3903
-26.5833 -14.1148 -7.1769
-26.5760 -17.3163 -7.5636
-28.4264 -38.5135 -11.4142
8.7662 -15.1008 -4.1636
8.6981 -12.3048 -3.5931
6.7554 -7.9441 -2.4866
6.9950 -6.8747 -2.3387
8.0217 -6.5849 -2.4747
8.5161 -5.8010 -2.4570
8.5137 -4.7467 -2.3243
8.5116 -3.7933 -2.2220
8.5096 -2.9135 -2.1447
8.5077 -2.0865 -2.0888
8.5059 -1.2954 -2.0516
8.5041 -0.5260 -2.0317
8.5024 0.2348 -2.0282
8.5006 0.9989 -2.0409
8.4988 1.7790 -2.0705
8.4970 2.5886 -2.1181
8.4951 3.4432 -2.1857
31.7893 20.0998 -8.9683
27.6573 21.1648 -8.3044
24.8581 22.8145 -8.0455
23.7715 26.0934 -8.4168
-20.9964 17.7215 -6.5515
-26.6436 12.3132 -6.9988
-24.9955 8.9415 -6.3301
-25.0029 6.4954 -6.1598
-24.9975 4.1573 -6.0425
-24.9923 1.8887 -5.9764
-21.0593 17.5890 -6.3643
-25.0141 11.4036 -6.3765
-25.0081 8.8005 -6.1493
-24.7914 6.3039 -5.9334
-24.7861 3.9906 -5.8232
-24.9920 1.7589 -5.8112
-24.9869 -0.4775 -5.7968
-21.0701 -2.2946 -4.9161
-24.9766 -5.0070 -5.9086
-24.9712 -7.3761 -6.0395
-24.7583 -9.7909 -6.1754
-24.7486 -12.4457 -6.4254
-26.5779 -16.4904 -7.2549
-29.7693 -38.5166 -11.2913
-26.0625 -40.7844 -11.2265
8.7681 -15.9056 -4.2127
8.6995 -12.9041 -3.6098
6.7621 -8.3186 -2.4866
7.4775 -7.6819 -2.4866
7.3249 -6.2898 -2.2394
8.5168 -6.0820 -2.4275
8.5143 -4.9975 -2.2900
8.5121 -4.0219 -2.1837
8.5100 -3.1260 -2.1029
8.5081 -2.2876 -2.0435
8.5063 -1.4890 -2.0030
8.5045 -0.7154 -1.9796
8.5028 0.0463 -1.9723
8.5011 0.8084 -1.9807
8.4993 1.5834 -2.0053
8.4975 2.3843 -2.0471
8.4955 3.2261 -2.1078
8.4935 4.1269 -2.1903
27.1490 19.8376 -7.7992
25.7457 22.5989 -7.9459
5.7844 6.0734 -1.9454
-24.8442 12.1567 -6.4155
-25.0099 9.5768 -6.2118
-25.0042 7.0908 -6.0284
-24.9988 4.7290 -5.9013
-24.9936 2.4469 -5.8250
-24.9885 0.2054 -5.7963
-24.9834 -2.0319 -5.8140
-24.9782 -4.3010 -5.8790
-24.9729 -6.6403 -5.9937
-24.9673 -9.0928 -6.1632
-24.7505 -11.6105 -6.3412
-26.5801 -15.5023 -7.1372
-26.4615 -39.0165 -10.9349
8.7013 -13.7001 -3.7645
6.6331 -8.6316 -2.5250
7.2648 -7.8834 -2.4866
6.7171 -6.0945 -2.1037
8.5176 -6.4412 -2.4770
8.5150 -5.3160 -2.3284
8.5127 -4.3106 -2.2132
8.5106 -3.3930 -2.1251
8.5087 -2.5390 -2.0596
8.5068 -1.7299 -2.0135
8.5051 -0.9501 -1.9850
8.5033 -0.1861 -1.9728
8.5016 0.5746 -1.9764
8.4998 1.3443 -1.9960
8.4980 2.1358 -2.0324
8.4961 2.9634 -2.0871
8.4941 3.8439 -2.1626
29.7738 20.5316 -8.3889
25.9649 21.5642 -7.8287
5.9460 5.9109 -1.9447
23.6965 28.1915 -8.5422
5.9038 8.4539 -2.3917
-24.8067 12.9902 -6.4951
-24.8064 10.2846 -6.2288
-25.0059 7.8355 -6.0782
-24.7893 5.3949 -5.8845
-24.9952 3.1387 -5.8432
-24.7790 0.8812 -5.7511
-24.7739 -1.3347 -5.7546
-24.9798 -3.6016 -5.8540
-24.9745 -5.9151 -5.9531
-24.9690 -8.3280 -6.1052
-24.6989 -10.7731 -6.2502
-26.5823 -14.5451 -7.0284
-26.5749 -17.7948 -7.4183
-27.6852 -38.5118 -11.0014
8.7033 -14.5681 -3.9362
8.6974 -11.9817 -3.4342
7.0467 -8.0789 -2.4866
7.7396 -7.4178 -2.4866
8.1036 -6.4836 -2.4072
8.5158 -5.6456 -2.3699
8.5134 -4.6074 -2.2453
8.5113 -3.6658 -2.1495
8.5093 -2.7946 -2.0774
8.5074 -1.9736 -2.0257
8.5056 -1.1863 -1.9920
8.5039 -0.4188 -1.9749
8.5021 0.3416 -1.9737
8.5004 1.1072 -1.9883
8.4986 1.8906 -2.0194
8.4967 2.7055 -2.0683
8.4948 3.5679 -2.1371
31.6471 20.5705 -8.7549
26.3835 20.7202 -7.7813
24.2923 22.8637 -7.7378
23.5060 26.4617 -8.2097
-26.4382 14.7788 -7.0254
-25.0136 11.1810 -6.3551
-25.0076 8.5932 -6.1334
-25.0021 6.1612 -5.9727
-24.9968 3.8353 -5.8658
-24.9916 1.5735 -5.8083
-24.9865 -0.6622 -5.7977
-24.9814 -2.9075 -5.8335
-24.9762 -5.1992 -5.9174
-24.7865 -7.5210 -6.0081
-24.7067 -9.9821 -6.1808
-24.7481 -12.6754 -6.4494
-26.5772 -16.7631 -7.2884
-29.3167 -38.5155 -11.2272
8.7674 -15.6303 -4.1568
8.6990 -12.7000 -3.5705
6.8233 -8.2684 -2.4866
6.8919 -6.9764 -2.2746
7.4807 -6.3281 -2.2727
8.5166 -5.9874 -2.4147
8.5141 -4.9132 -2.2801
8.5119 -3.9452 -2.1761
8.5099 -3.0548 -2.0972
8.5080 -2.2203 -2.0395
8.5061 -1.4243 -2.0005
8.5044 -0.6522 -1.9784
8.5027 0.1091 -1.9724
8.5009 0.8718 -1.9821
8.4991 1.6484 -2.0081
8.4973 2.4521 -2.0514
8.4954 3.2981 -2.1138
8.5046 4.2102 -2.2011
11.9376 8.8587 -3.4480
25.4296 22.6563 -7.8998
23.2602 24.7866 -7.8843
-24.9333 11.9729 -6.4155
-25.0094 9.3654 -6.1943
-25.0038 6.8915 -6.0159
-24.9984 4.5379 -5.8931
-24.7821 2.2415 -5.7717
-24.7770 0.0206 -5.7470
-24.9830 -2.2177 -5.8176
-24.9778 -4.4912 -5.8865
-24.9724 -6.8381 -6.0056
-24.9486 -9.2952 -6.1754
-24.9532 -11.9313 -6.4155
-26.5795 -15.7662 -7.1681
-26.2587 -39.3399 -10.9709
8.7079 -16.5695 -4.3417
8.7008 -13.4783 -3.7211
6.6328 -8.5005 -2.5009
7.3228 -7.8295 -2.4866
6.8805 -6.1507 -2.1406
8.5174 -6.3427 -2.4632
8.5148 -5.2289 -2.3177
8.5126 -4.2318 -2.2050
8.5105 -3.3203 -2.1189
8.5085 -2.4707 -2.0551
8.5067 -1.6646 -2.0105
8.5049 -0.8866 -1.9834
8.5032 -0.1233 -1.9725
8.5014 0.6377 -1.9775
8.4997 1.4087 -1.9984
8.4979 2.2026 -2.0362
8.4960 3.0339 -2.0925
8.4940 3.9197 -2.1698
28.3912 19.8892 -8.0405
26.3876 22.2467 -8.0055
5.8696 5.9218 -1.9340
23.5261 28.4122 -8.5562
5.8153 8.4597 -2.3811
-21.0723 27.7802 -8.0876
-24.8061 12.7574 -6.4701
-25.0112 10.1537 -6.2612
-24.8939 7.5990 -6.0372
-25.0000 5.2476 -5.9251
-24.9948 2.9513 -5.8378
-24.7786 0.6980 -5.7497
-24.9845 -1.5311 -5.8060
-24.9794 -3.7900 -5.8603
-24.9741 -6.1101 -5.9636
-24.9685 -8.5333 -6.1203
-24.9627 -11.1082 -6.3375
-26.5817 -14.8009 -7.0570
-26.3635 -17.9366 -7.3961
-27.2905 -38.5607 -10.9575
8.7027 -14.3258 -3.8880
8.6970 -11.7969 -3.3995
7.1062 -8.0267 -2.4866
7.7942 -7.3604 -2.4866
8.2859 -6.5297 -2.4470
8.5156 -5.5553 -2.3583
8.5132 -4.5263 -2.2364
8.5111 -3.5914 -2.1427
8.5091 -2.7251 -2.0724
8.5073 -1.9074 -2.0222
8.5055 -1.1223 -1.9899
8.5037 -0.3559 -1.9742
8.5020 0.4045 -1.9743
8.5002 1.1711 -1.9903
8.4984 1.9566 -2.0228
8.4966 2.7747 -2.0732
8.4946 3.6419 -2.1438
30.1106 19.8898 -8.3703
26.3408 21.0033 -7.8143
23.9929 22.9185 -7.6961
24.1539 27.5991 -8.5070
-26.6489 14.6393 -7.0525
-25.0131 10.9597 -6.3343
-25.0072 8.3871 -6.1179
-25.0016 5.9655 -5.9619
-24.7852 3.6157 -5.8098
-24.7801 1.3764 -5.7566
-24.9861 -0.8468 -5.7988
-24.9810 -3.0946 -5.8386
-24.7648 -5.3463 -5.8765
-24.9703 -7.7787 -6.0664
-24.7047 -10.1942 -6.1989
-24.7475 -12.9067 -6.4740
-26.5766 -17.0384 -7.3225
-28.8692 -38.5145 -11.1645
8.7668 -15.3622 -4.1027
8.6986 -12.5002 -3.5324
6.8842 -8.2178 -2.4866
6.8927 -6.8749 -2.2581
7.6415 -6.3680 -2.3072
8.5163 -5.8937 -2.4023
8.5139 -4.8296 -2.2704
8.5117 -3.8690 -2.1687
8.5097 -2.9840 -2.0917
8.5078 -2.1533 -2.0356
8.5060 -1.3598 -1.9980
8.5042 -0.5890 -1.9773
8.5025 0.1719 -1.9726
8.5008 0.9353 -1.9837
8.4990 1.7136 -2.0110
8.4972 2.5202 -2.0558
8.4952 3.3704 -2.1199
31.9420 19.8677 -8.7252
11.8805 8.9531 -3.4506
25.1174 22.7131 -7.8547
23.8817 25.8285 -8.1594
-24.8037 11.6860 -6.3598
-25.0089 9.1551 -6.1773
-25.0033 6.6931 -6.0037
-24.9980 4.3473 -5.8853
-24.9928 2.0746 -5.8170
-24.9876 -0.1638 -5.7960
-24.9825 -2.4037 -5.8215
-24.7664 -4.6423 -5.8446
-24.9720 -7.0366 -6.0178
-24.7555 -9.4321 -6.1447
-24.8644 -12.1152 -6.4155
-26.5789 -16.0324 -7.1997
-21.0830 -22.1858 -7.0990
-26.1305 -39.7812 -11.0398
5.8837 -13.8436 -3.4890
8.7072 -16.2752 -4.2813
8.7003 -13.2615 -3.6789
6.6571 -8.4029 -2.4866
7.3805 -7.7752 -2.4866
7.0502 -6.2094 -2.1791
8.5171 -6.2452 -2.4497
8.5146 -5.1425 -2.3072
8.5124 -4.1536 -2.1970
8.5103 -3.2480 -2.1128
8.5084 -2.4026 -2.0507
8.5065 -1.5994 -2.0077
8.5048 -0.8231 -1.9819
8.5030 -0.0605 -1.9723
8.5013 0.7009 -1.9786
8.4995 1.4732 -2.0009
8.4977 2.2697 -2.0401
8.4958 3.1047 -2.0981
8.4938 3.9960 -2.1773
28.2635 20.1126 -8.0462
26.4006 22.5932 -8.0599
5.8133 5.9523 -1.9299
23.3553 28.6337 -8.5707
5.7531 8.5030 -2.3813
-24.8056 12.5263 -6.4456
-25.0107 9.9390 -6.2425
-25.0050 7.4314 -6.0506
-24.7884 5.0124 -5.8660
-24.7832 2.7408 -5.7835
-24.9892 0.5192 -5.7975
-24.9841 -1.7165 -5.8087
-24.9401 -3.9728 -5.8578
-24.7627 -6.2527 -5.9240
-24.9681 -8.7397 -6.1359
-24.9622 -11.3297 -6.3584
-26.5811 -15.0589 -7.0862
-26.9222 -38.6424 -10.9239
8.7022 -14.0893 -3.8411
6.6337 -8.8603 -2.5673
7.1653 -7.9739 -2.4866
6.6275 -6.1667 -2.0998
8.4748 -6.5777 -2.4884
8.5154 -5.4659 -2.3470
8.5130 -4.4459 -2.2277
8.5109 -3.5175 -2.1361
8.5090 -2.6559 -2.0676
8.5071 -1.8415 -2.0189
8.5053 -1.0585 -1.9880
8.5036 -0.2930 -1.9736
8.5018 0.4675 -1.9750
8.5001 1.2352 -1.9923
8.4983 2.0227 -2.0262
8.4964 2.8443 -2.0782
8.4944 3.7163 -2.1506
29.9860 20.1271 -8.3768
26.3533 21.3334 -7.8645
25.7572 24.9704 -8.3210
23.9849 27.8179 -8.5196
-20.1152 27.6466 -7.9304
-26.6483 14.3837 -7.0240
-25.0126 10.7400 -6.3139
-25.0067 8.1819 -6.1029
-25.0012 5.7706 -5.9515
-24.9959 3.4580 -5.8530
-24.9908 1.2031 -5.8033
-24.9857 -1.0317 -5.8004
-24.9805 -3.2820 -5.8440
-24.9753 -5.5852 -5.9361
-24.9698 -7.9813 -6.0804
-24.7026 -10.4076 -6.2175
-26.5833 -14.1148 -6.9813
-26.5760 -17.3163 -7.3574
-28.4264 -38.5135 -11.1030
8.7662 -15.1008 -4.0501
8.6981 -12.3048 -3.4952
6.9447 -8.1668 -2.4866
6.9950 -6.8747 -2.2749
7.8078 -6.4094 -2.3431
8.5161 -5.8010 -2.3901
8.5137 -4.7467 -2.2609
8.5116 -3.7933 -2.1614
8.5096 -2.9135 -2.0863
8.5077 -2.0865 -2.0318
8.5059 -1.2954 -1.9957
8.5041 -0.5260 -1.9763
8.5024 0.2348 -1.9729
8.5006 0.9989 -1.9853
8.4988 1.7790 -2.0140
8.4970 2.5886 -2.0603
8.4951 3.4432 -2.1261
31.8330 20.1275 -8.7358
27.6603 21.1671 -8.0788
24.8088 22.7693 -7.8106
23.7430 26.0622 -8.1776
-20.9964 17.7216 -6.3729
-25.0144 11.5602 -6.3917
-24.9955 8.9415 -6.1575
-25.0029 6.4954 -5.9919
-24.9975 4.1573 -5.8778
-24.9923 1.8887 -5.8135
-21.0827 17.6085 -6.1933
-24.8092 14.1097 -6.4350
-25.0141 11.4036 -6.1983
-25.0081 8.8005 -5.9775
-24.7914 6.3039 -5.7675
-24.7861 3.9906 -5.6604
-24.9920 1.7589 -5.6488
-24.9869 -0.4775 -5.6348
-21.0695 -2.2946 -4.7786
-24.7657 -4.9647 -5.6949
-24.9712 -7.3761 -5.8707
-24.9655 -9.8728 -6.0531
-24.9594 -12.5517 -6.2991
-26.5779 -16.4904 -7.0522
-29.7693 -38.5166 -10.9757
-26.0625 -40.7844 -10.9128
8.7681 -15.9056 -4.0950
8.6995 -12.9041 -3.5089
6.9565 -8.5578 -2.4866
7.6925 -7.9028 -2.4866
7.1191 -6.1130 -2.1157
8.5168 -6.0820 -2.3596
8.5143 -4.9975 -2.2260
8.5121 -4.0219 -2.1226
8.5100 -3.1260 -2.0441
8.5081 -2.2876 -1.9864
8.5063 -1.4890 -1.9471
8.5045 -0.7154 -1.9243
8.5028 0.0463 -1.9171
8.5011 0.8084 -1.9254
8.4993 1.5834 -1.9493
8.4975 2.3843 -1.9899
8.4955 3.2261 -2.0489
8.4935 4.1269 -2.1291
28.0489 20.4952 -7.8325
25.6940 22.5535 -7.7084
5.7840 6.0730 -1.8909
-25.0160 12.2408 -6.2793
-25.0099 9.5768 -6.0382
-25.0042 7.0908 -5.8599
-24.7877 4.6891 -5.6879
-24.9885 2.4464 -5.6610
-24.9885 0.2054 -5.6343
-24.9834 -2.0319 -5.6515
-24.7673 -4.2647 -5.6664
-24.9729 -6.6403 -5.8262
-24.9673 -9.0928 -5.9910
-24.7505 -11.6105 -6.1639
-24.7441 -14.4314 -6.4585
-26.4615 -39.0165 -10.6293
8.7013 -13.7001 -3.6593
6.7200 -8.7447 -2.4866
7.4737 -8.1100 -2.4866
6.6272 -6.0129 -2.0176
8.5176 -6.4412 -2.4077
8.5150 -5.3160 -2.2633
8.5127 -4.3106 -2.1514
8.5106 -3.3930 -2.0657
8.5087 -2.5390 -2.0020
8.5068 -1.7299 -1.9573
8.5051 -0.9501 -1.9295
8.5033 -0.1861 -1.9177
8.5016 0.5746 -1.9212
8.4998 1.3443 -1.9403
8.4980 2.1358 -1.9756
8.4961 2.9634 -2.0288
8.4941 3.8439 -2.1021
29.7760 20.5331 -8.1550
25.9718 21.5700 -7.6120
5.9456 5.9105 -1.8902
23.6807 28.1726 -8.2979
5.9038 8.4539 -2.3249
-20.6554 27.6525 -7.7821
-24.8067 12.9902 -6.3136
-24.8064 10.2846 -6.0547
-25.0059 7.8355 -5.9083
-24.7893 5.3948 -5.7200
-24.9123 3.1283 -5.6610
-24.7790 0.8812 -5.5904
-24.7739 -1.3347 -5.5938
-24.8510 -3.5830 -5.6610
-24.9745 -5.9151 -5.7867
-24.9690 -8.3280 -5.9346
-24.7523 -10.7964 -6.0886
-24.9569 -13.6557 -6.4142
-26.5749 -17.7948 -7.2110
-27.6852 -38.5118 -10.6940
8.7033 -14.5681 -3.8262
6.6343 -9.1396 -2.5463
7.2493 -8.3112 -2.4866
7.9621 -7.6310 -2.4866
7.8882 -6.3113 -2.2777
8.5158 -5.6456 -2.3036
8.5134 -4.6074 -2.1826
8.5113 -3.6658 -2.0894
8.5093 -2.7946 -2.0194
8.5074 -1.9736 -1.9691
8.5056 -1.1863 -1.9363
8.5039 -0.4188 -1.9197
8.5021 0.3416 -1.9185
8.5004 1.1072 -1.9328
8.4986 1.8906 -1.9630
8.4967 2.7055 -2.0105
8.4948 3.5679 -2.0774
31.6907 20.5989 -8.5220
26.3520 20.6955 -7.5548
24.2448 22.8190 -7.5068
23.4779 26.4301 -7.9707
-24.8371 13.8838 -6.4155
-25.0136 11.1810 -6.1775
-25.0076 8.5932 -5.9620
-25.0021 6.1612 -5.8058
-24.8175 3.8078 -5.6610
-24.9916 1.5735 -5.6460
-24.9865 -0.6622 -5.6356
-24.9396 -2.9026 -5.6610
-24.7652 -5.1552 -5.7035
-24.7865 -7.5210 -5.8402
-24.9650 -10.0865 -6.0709
-24.9589 -12.7833 -6.3226
-26.5772 -16.7631 -7.0847
-32.6018 -29.8551 -9.9671
-29.3167 -38.5155 -10.9135
8.7674 -15.6303 -4.0407
8.6990 -12.7000 -3.4708
7.0195 -8.5062 -2.4866
6.8919 -6.9764 -2.2111
7.2927 -6.1691 -2.1537
8.5166 -5.9874 -2.3473
8.5141 -4.9132 -2.2164
8.5119 -3.9452 -2.1153
8.5099 -3.0548 -2.0386
8.5080 -2.2203 -1.9825
8.5062 -1.4243 -1.9446
8.5044 -0.6522 -1.9231
8.5027 0.1091 -1.9172
8.5009 0.8718 -1.9267
8.4991 1.6484 -1.9520
8.4973 2.4521 -1.9940
8.4954 3.2981 -2.0547
8.5046 4.2102 -2.1396
11.9372 8.8585 -3.3516
25.3789 22.6111 -7.6637
23.9913 25.5657 -7.9048
-25.0155 12.0123 -6.2567
-25.0094 9.3654 -6.0212
-25.0038 6.8915 -5.8477
-24.7873 4.4996 -5.6801
-24.7821 2.2415 -5.6104
-24.7770 0.0206 -5.5864
-24.9830 -2.2177 -5.6550
-24.7668 -4.4532 -5.6737
-24.9724 -6.8381 -5.8377
-24.9668 -9.3020 -6.0072
-24.9608 -11.9349 -6.2381
-24.7435 -14.6771 -6.4865
-26.2587 -39.3399 -10.6643
8.7079 -16.5695 -4.2204
8.7008 -13.4783 -3.6171
6.7844 -8.6948 -2.4866
7.5334 -8.0546 -2.4866
6.6707 -5.9631 -2.0174
8.5174 -6.3427 -2.3944
8.5148 -5.2289 -2.2529
8.5126 -4.2318 -2.1434
8.5105 -3.3203 -2.0597
8.5085 -2.4707 -1.9976
8.5067 -1.6646 -1.9544
8.5049 -0.8866 -1.9280
8.5032 -0.1233 -1.9174
8.5014 0.6377 -1.9222
8.4997 1.4087 -1.9425
8.4979 2.2026 -1.9793
8.4960 3.0339 -2.0340
8.4940 3.9197 -2.1092
28.3943 19.8914 -7.8166
25.7775 21.7323 -7.6019
5.8694 5.9217 -1.8799
23.5104 28.3932 -8.3115
5.8153 8.4597 -2.3146
-20.9623 27.6352 -7.8206
-25.0174 12.8660 -6.3428
-25.0112 10.1537 -6.0862
-24.8939 7.5990 -5.8684
-24.7889 5.2033 -5.7109
-24.9347 2.9442 -5.6610
-24.7786 0.6980 -5.5890
-24.9845 -1.5311 -5.6438
-24.8238 -3.7664 -5.6610
-24.9741 -6.1101 -5.7969
-24.9685 -8.5333 -5.9493
-24.9627 -11.1082 -6.1604
-24.8602 -13.8423 -6.4155
-26.3635 -17.9366 -7.1894
-27.2905 -38.5607 -10.6513
8.7027 -14.3258 -3.7793
6.6340 -8.9986 -2.5206
7.3105 -8.2574 -2.4866
8.0183 -7.5720 -2.4866
8.0621 -6.3534 -2.3143
8.5156 -5.5553 -2.2924
8.5132 -4.5263 -2.1739
8.5111 -3.5915 -2.0828
8.5091 -2.7251 -2.0145
8.5073 -1.9074 -1.9657
8.5055 -1.1223 -1.9343
8.5037 -0.3559 -1.9190
8.5020 0.4045 -1.9191
8.5002 1.1711 -1.9346
8.4984 1.9566 -1.9663
8.4966 2.7747 -2.0153
8.4946 3.6419 -2.0839
30.1127 19.8912 -8.1370
26.3645 21.0221 -7.6027
23.9463 22.8740 -7.4665
24.1379 27.5808 -8.2637
-24.9390 13.6999 -6.4155
-25.0131 10.9597 -6.1572
-25.0072 8.3871 -5.9470
-25.0016 5.9655 -5.7953
-24.7852 3.6157 -5.6474
-24.7801 1.3764 -5.5957
-24.9861 -0.8468 -5.6368
-24.9175 -3.0867 -5.6610
-24.7648 -5.3463 -5.7123
-24.9703 -7.7787 -5.8968
-24.7537 -10.2144 -6.0376
-24.7475 -12.9067 -6.2930
-26.5766 -17.0384 -7.1179
-32.4564 -30.1657 -9.9905
-28.8692 -38.5145 -10.8525
8.7668 -15.3622 -3.9880
8.6986 -12.5002 -3.4336
7.0821 -8.4541 -2.4866
6.8927 -6.8749 -2.1950
7.4467 -6.2056 -2.1855
8.5163 -5.8937 -2.3351
8.5139 -4.8296 -2.2070
8.5117 -3.8690 -2.1081
8.5097 -2.9840 -2.0332
8.5078 -2.1533 -1.9787
8.5060 -1.3598 -1.9422
8.5042 -0.5890 -1.9220
8.5025 0.1719 -1.9174
8.5008 0.9353 -1.9282
8.4990 1.7136 -1.9548
8.4972 2.5202 -1.9983
8.4952 3.3704 -2.0606
31.9858 19.8950 -8.4930
11.8802 8.9529 -3.3540
25.0675 22.6680 -7.6201
23.8533 25.7978 -7.9219
-24.8102 14.5254 -6.4821
-24.8037 11.6860 -6.1820
-25.0089 9.1552 -6.0047
-25.0033 6.6931 -5.8359
-24.7868 4.3106 -5.6725
-24.9928 2.0746 -5.6544
-24.9876 -0.1638 -5.6340
-24.9825 -2.4037 -5.6588
-24.7664 -4.6423 -5.6813
-24.9720 -7.0366 -5.8496
-24.7555 -9.4321 -5.9730
-24.9603 -12.1619 -6.2602
-26.5789 -16.0324 -6.9985
-21.1057 -22.2097 -6.9080
-26.1305 -39.7812 -10.7313
5.8836 -13.8433 -3.3914
8.7072 -16.2752 -4.1617
8.7003 -13.2615 -3.5761
6.8485 -8.6445 -2.4866
7.5927 -7.9987 -2.4866
6.8315 -6.0167 -2.0525
8.5171 -6.2452 -2.3813
8.5146 -5.1425 -2.2427
8.5124 -4.1536 -2.1356
8.5103 -3.2480 -2.0538
8.5084 -2.4026 -1.9934
8.5065 -1.5994 -1.9516
8.5048 -0.8231 -1.9265
8.5030 -0.0605 -1.9172
8.5013 0.7009 -1.9233
8.4995 1.4732 -1.9449
8.4977 2.2697 -1.9831
8.4958 3.1047 -2.0394
8.4938 3.9960 -2.1164
28.2665 20.1147 -7.8221
25.3010 21.6522 -7.5083
5.8132 5.9522 -1.8759
23.3396 28.6145 -8.3256
5.7531 8.5030 -2.3148
-25.0169 12.6329 -6.3189
-25.0107 9.9390 -6.0681
-25.0050 7.4314 -5.8815
-24.7884 5.0124 -5.7021
-24.7832 2.7408 -5.6219
-24.9892 0.5192 -5.6355
-24.9841 -1.7165 -5.6464
-24.7953 -3.9497 -5.6610
-24.7627 -6.2527 -5.7584
-24.9681 -8.7396 -5.9644
-24.9622 -11.3297 -6.1807
-24.7573 -14.0257 -6.4155
-26.9222 -38.6424 -10.6186
8.7022 -14.0893 -3.7338
6.6337 -8.8603 -2.4956
7.3713 -8.2032 -2.4866
8.0740 -7.5126 -2.4866
8.2422 -6.3971 -2.3524
8.5154 -5.4659 -2.2814
8.5130 -4.4459 -2.1654
8.5109 -3.5175 -2.0764
8.5090 -2.6559 -2.0098
8.5071 -1.8415 -1.9625
8.5053 -1.0585 -1.9325
8.5036 -0.2930 -1.9184
8.5018 0.4675 -1.9198
8.5001 1.2352 -1.9366
8.4983 2.0227 -1.9696
8.4964 2.8443 -2.0202
8.4944 3.7163 -2.0905
29.9882 20.1285 -8.1433
26.3772 21.3527 -7.6516
25.7889 25.0011 -8.0984
23.9690 27.7994 -8.2760
-25.0189 13.5042 -6.4102
-25.0126 10.7401 -6.1374
-25.0067 8.1819 -5.9323
-25.0012 5.7706 -5.7852
-24.8711 3.4407 -5.6610
-24.9908 1.2031 -5.6411
-24.9857 -1.0317 -5.6383
-24.8940 -3.2706 -5.6610
-24.7643 -5.5380 -5.7215
-24.9698 -7.9813 -5.9105
-24.9640 -10.5177 -6.1077
-24.9578 -13.2517 -6.3712
-26.5760 -17.3163 -7.1518
-28.4264 -38.5135 -10.7927
8.6341 -14.8733 -3.8775
8.6981 -12.3048 -3.3975
7.1444 -8.4015 -2.4866
6.9950 -6.8747 -2.2113
7.6057 -6.2435 -2.2186
8.5161 -5.8010 -2.3233
8.5137 -4.7467 -2.1978
8.5116 -3.7933 -2.1010
8.5096 -2.9135 -2.0280
8.5077 -2.0865 -1.9750
8.5059 -1.2954 -1.9399
8.5041 -0.5260 -1.9211
8.5024 0.2348 -1.9177
8.5006 0.9989 -1.9298
8.4988 1.7790 -1.9577
8.4970 2.5886 -2.0027
8.4951 3.4432 -2.0667
31.8768 20.1552 -8.5033
27.6633 21.1694 -7.8539
24.7599 22.7244 -7.5773
23.7147 26.0311 -7.9396
-21.0448 17.7624 -6.2091
-24.8096 14.2802 -6.4542
-25.0144 11.5602 -6.2131
-24.9955 8.9415 -5.9854
-25.0029 6.4954 -5.8245
-24.7864 4.1222 -5.6653
-24.9923 1.8887 -5.6510
-21.0821 17.6080 -6.0156
-25.0205 14.2299 -6.3038
-25.0141 11.4036 -6.0206
-25.0081 8.8005 -5.8061
-24.7914 6.3039 -5.6022
-24.7861 3.9906 -5.4981
-24.9920 1.7589 -5.4869
-24.9869 -0.4775 -5.4732
-21.0689 -2.2945 -4.6414
-24.9766 -5.0070 -5.5788
-24.7902 -7.3226 -5.6610
-24.9655 -9.8728 -5.8795
-24.9594 -12.5517 -6.1185
-24.8920 -15.4444 -6.4155
-33.4576 -30.1875 -9.8690
-29.7693 -38.5166 -10.6611
-26.0625 -40.7844 -10.5999
8.7681 -15.9056 -3.9776
8.6995 -12.9041 -3.4083
7.1618 -8.8104 -2.4866
7.9196 -8.1360 -2.4866
6.8991 -5.9241 -1.9915
8.5168 -6.0820 -2.2920
8.5143 -4.9975 -2.1621
8.5121 -4.0219 -2.0618
8.5100 -3.1260 -1.9855
8.5081 -2.2876 -1.9295
8.5063 -1.4890 -1.8912
8.5045 -0.7154 -1.8691
8.5028 0.0463 -1.8622
8.5011 0.8084 -1.8702
8.4993 1.5834 -1.8934
8.4975 2.3843 -1.9328
8.4955 3.2261 -1.9902
8.4935 4.1269 -2.0681
28.0519 20.4974 -7.6088
25.5847 22.4576 -7.4555
5.7836 6.0726 -1.8366
12.0227 36.9994 -8.5200
-25.0226 15.1506 -6.4063
