ply
format ascii 1.0
element vertex 2039
property float32 x
property float32 y
property float32 z
end_header
24.7334 -4.0383 1.2360
24.5646 -1.7835 1.2147
24.7269 0.4177 1.2197
24.7222 2.6369 1.2262
24.5138 4.8576 1.2325
24.7108 7.2395 1.2700
36.3073 14.2649 1.9239
37.6618 18.8348 2.0768
35.8305 22.1209 2.0768
16.5785 12.4071 1.0213
31.3269 28.1385 2.0768
28.6906 30.8221 2.0768
25.4706 32.8030 2.0483
21.1424 32.9225 1.9297
17.7018 33.8782 1.8852
14.9112 36.0571 1.9244
12.5550 40.1934 2.0768
8.9177 41.1536 2.0768
5.2092 41.7852 2.0768
1.4590 42.0834 2.0768
-2.3027 42.0457 2.0768
-6.0460 41.6724 2.0768
-9.0262 37.9600 1.9244
-12.4099 37.0984 1.9294
-15.6745 35.8499 1.9297
-18.7679 34.2285 1.9253
-22.6796 33.8057 2.0078
-26.4869 32.7351 2.0768
-29.3027 30.2406 2.0768
-31.8847 27.5047 2.0768
-34.2122 24.5493 2.0768
-36.2667 21.3979 2.0768
-35.2994 16.7770 1.9276
-36.5175 13.5085 1.9203
-36.5705 9.9223 1.8689
-36.5664 6.4869 1.8316
-35.7859 3.0926 1.7715
-34.7693 -0.1099 1.7148
-33.5466 -3.1129 1.6616
-32.2938 -5.9397 1.6194
-30.9209 -8.5997 1.5829
-29.3335 -11.0623 1.5462
-22.6226 -10.9279 1.2391
-19.1137 -11.4408 1.0987
-19.1088 -13.8954 1.1653
-19.1033 -16.6909 1.2511
-19.1031 -19.9656 1.3628
-16.9518 -21.2238 1.3397
-14.7704 -22.3201 1.3200
-9.5043 -17.5967 0.9864
-10.3223 -24.0212 1.2895
-8.2323 -25.1370 1.3045
-6.3163 -27.3302 1.3834
-3.8355 -27.6663 1.3775
-1.3481 -27.8376 1.3745
1.1417 -27.8449 1.3744
3.6296 -27.6882 1.3773
6.1115 -27.3668 1.3830
8.5830 -26.8792 1.3916
11.0391 -26.2232 1.4032
13.4747 -25.3958 1.4179
15.1900 -23.3278 1.3729
16.7688 -21.3165 1.3376
18.8979 -20.0463 1.3587
20.9717 -18.5990 1.3825
22.9864 -16.9769 1.4094
24.9314 -15.1752 1.4395
24.6926 -12.1543 1.3574
26.4364 -10.1942 1.3974
30.2186 -8.6461 1.5502
24.7344 -4.7391 1.2421
24.5659 -2.4633 1.2177
24.7279 -0.2613 1.2196
24.7239 1.9523 1.2232
24.5529 4.1683 1.2283
24.7126 6.5089 1.2604
36.2082 13.0900 1.8989
35.3653 16.4884 1.9245
36.4244 21.1287 2.0768
19.0208 13.4361 1.1486
32.0877 27.2677 2.0768
29.5261 30.0227 2.0768
26.7288 32.5380 2.0768
22.4150 32.8820 1.9627
19.0388 34.1203 1.9271
15.9098 35.6661 1.9261
13.6538 39.8336 2.0768
10.0442 40.8932 2.0768
6.3545 41.6265 2.0768
2.6140 42.0275 2.0768
-1.1473 42.0931 2.0768
-4.8994 41.8227 2.0768
-8.6125 41.2185 2.0768
-11.3877 37.4291 1.9295
-14.6830 36.2640 1.9296
-17.8345 34.7573 1.9267
-21.3443 33.7849 1.9710
-25.5780 33.4501 2.0768
-28.4613 31.0337 2.0768
-31.1175 28.3697 2.0768
-33.5254 25.4793 2.0768
-35.6655 22.3856 2.0768
-34.7796 17.7167 1.9251
-35.6914 14.3289 1.8969
-36.5891 11.0145 1.8846
-36.7539 7.5666 1.8507
-36.0524 4.1158 1.7897
-35.1050 0.8533 1.7319
-33.9426 -2.2116 1.6776
-32.6694 -5.0857 1.6307
-31.3650 -7.8020 1.5941
-29.8425 -10.3276 1.5575
-24.3121 -10.9312 1.3147
-19.4382 -10.9216 1.0996
-19.1104 -13.1099 1.1430
-19.1051 -15.7887 1.2224
-19.0990 -18.8942 1.3250
-17.6151 -20.8528 1.3463
-15.4443 -22.0010 1.3257
-13.2410 -22.9824 1.3081
-11.0117 -23.8015 1.2934
-8.7630 -24.4650 1.2816
-7.0767 -27.1937 1.3858
-4.5988 -27.5806 1.3790
-2.1128 -27.8024 1.3752
0.3767 -27.8601 1.3742
2.8656 -27.7538 1.3761
5.3498 -27.4832 1.3809
7.8249 -27.0468 1.3886
10.2863 -26.4429 1.3993
12.7288 -25.6685 1.4131
15.1467 -24.7203 1.4299
16.1019 -21.6677 1.3314
18.2502 -20.4566 1.3521
20.3403 -19.0622 1.3749
22.3742 -17.4943 1.4008
24.3418 -15.7483 1.4299
17.6271 -9.2861 0.9826
25.3075 -10.5658 1.3526
29.7226 -9.3944 1.5374
24.7355 -5.4474 1.2492
24.7322 -3.1680 1.2297
24.1677 -0.9195 1.1928
24.7256 1.2705 1.2211
24.1591 3.4219 1.2034
24.7144 5.7886 1.2519
24.7430 8.1841 1.2853
32.4092 14.0400 1.7420
36.9908 20.1205 2.0768
35.0475 23.3416 2.0768
32.8243 26.3764 2.0768
30.3392 29.2007 2.0768
27.6120 31.7919 2.0768
23.7384 32.8480 1.9988
19.9534 33.5595 1.9256
16.8947 35.2398 1.9274
14.5567 38.9467 2.0506
11.1633 40.6020 2.0768
7.4951 41.4363 2.0768
3.7671 41.9398 2.0768
0.0090 42.1087 2.0768
-3.7492 41.9415 2.0768
-7.4774 41.4395 2.0768
-10.3466 37.6937 1.9278
-13.6809 36.6508 1.9294
-16.8857 35.2593 1.9281
-20.0573 33.7668 1.9370
-24.4282 33.8325 2.0581
-27.5985 31.8035 2.0768
-15.3093 14.7472 1.0484
-32.8130 26.3903 2.0768
-35.0374 23.3565 2.0768
-36.9821 20.1362 2.0768
-35.8961 15.5688 1.9297
-36.5771 12.1158 1.9004
-9.4041 2.2069 0.4764
-36.2956 5.1567 1.8081
-35.4203 1.8350 1.7493
-34.3208 -1.2913 1.6939
-33.0260 -4.2163 1.6421
-31.7915 -6.9872 1.6054
-30.3339 -9.5735 1.5688
-26.2229 -10.9350 1.4013
-20.7578 -10.9242 1.1569
-19.1119 -12.3531 1.1223
-19.1068 -14.9264 1.1958
-19.1010 -17.8854 1.2906
-18.2743 -20.4659 1.3532
-16.1152 -21.6662 1.3317
-13.9212 -22.6983 1.3132
-11.6991 -23.5669 1.2976
-9.4557 -24.2772 1.2850
-7.8357 -27.0413 1.3885
-5.3612 -27.4794 1.3808
-2.8773 -27.7518 1.3760
-0.3885 -27.8598 1.3742
2.1011 -27.8039 1.3752
4.5872 -27.5839 1.3791
7.0656 -27.1987 1.3859
9.5317 -26.6465 1.3957
11.9805 -25.9248 1.4085
14.4067 -25.0304 1.4244
16.1651 -18.9021 1.3803
18.0641 -17.6542 1.4017
19.8943 -16.2382 1.4252
21.6562 -14.6633 1.4514
17.5244 -9.7065 1.1118
24.9293 -11.0268 1.5128
26.4142 -8.9616 1.5480
24.7956 -6.0080 1.4159
24.7329 -3.6963 1.3878
24.5639 -1.4505 1.3656
24.7265 0.7515 1.3729
24.7214 2.9747 1.3819
24.1558 5.1264 1.3704
24.7099 7.6027 1.4348
31.5652 12.8959 1.8923
30.8302 15.9418 1.9262
31.5744 20.0866 2.0768
29.6557 22.8244 2.0768
27.5003 25.3800 2.0768
25.1253 27.7330 2.0768
22.5499 29.8648 2.0768
19.7946 31.7581 2.0768
16.8812 33.3980 2.0768
13.8194 34.7369 2.0747
10.6502 35.7852 2.0721
7.4180 36.6128 2.0732
4.1232 37.1509 2.0744
0.7913 37.3805 2.0750
-2.5478 37.2980 2.0748
-5.8722 36.9583 2.0768
-9.1473 36.2867 2.0768
-11.8531 33.9061 1.9934
-15.2542 33.6444 2.0501
-18.4329 32.5673 2.0768
-21.2659 30.7922 2.0768
-23.9293 28.7714 2.0768
-26.4016 26.5210 2.0768
-28.6632 24.0588 2.0768
-30.6960 21.4047 2.0768
-30.1266 17.2314 1.9261
-31.6039 14.5012 1.9297
-32.0211 11.3565 1.8855
-32.1310 8.2540 1.8411
-32.1772 5.2615 1.8095
-31.5767 2.3001 1.7571
-30.7589 -0.5123 1.7073
-29.7482 -3.1658 1.6602
-28.5673 -5.6538 1.6161
-27.2374 -7.9727 1.5750
-25.7777 -10.1207 1.5369
-21.8614 -10.9264 1.3563
-19.1130 -11.7936 1.2464
-19.1080 -14.2930 1.3243
-18.9609 -17.0229 1.4141
-17.0779 -18.3379 1.3907
-15.1447 -19.4948 1.3700
-13.1697 -20.4968 1.3521
-9.2304 -17.6551 1.1056
-9.1247 -22.0497 1.3243
-7.6959 -24.6172 1.4314
-5.4379 -25.0665 1.4235
-3.1676 -25.3597 1.4183
-0.8901 -25.4978 1.4159
1.3894 -25.4813 1.4162
3.6659 -25.3101 1.4193
5.9343 -24.9836 1.4251
8.1893 -24.5006 1.4336
10.4252 -23.8595 1.4450
12.6360 -23.0582 1.4592
14.8147 -22.0938 1.4763
15.5698 -19.2520 1.3741
17.4895 -18.0579 1.3951
19.3387 -16.6901 1.4177
21.1227 -15.1643 1.4430
22.8308 -13.4778 1.4713
24.4510 -11.6282 1.5026
25.9701 -9.6138 1.5368
27.3728 -7.4338 1.5741
24.7339 -4.3939 1.3941
24.5653 -2.1288 1.3684
24.7274 0.0723 1.3723
24.7231 2.2882 1.3779
24.5522 4.5098 1.3854
24.7118 6.8665 1.4234
31.6401 11.9237 1.8765
31.2920 15.1065 1.9284
32.1140 19.2121 2.0768
16.7855 12.1999 1.1516
28.1868 24.6154 2.0768
25.8774 27.0328 2.0768
23.3614 29.2343 2.0768
20.6591 31.2026 2.0768
17.7919 32.9219 2.0768
14.7707 34.3507 2.0751
11.6261 35.4710 2.0716
8.4194 36.3906 2.0729
5.1409 37.0180 2.0741
1.8173 37.3430 2.0749
-1.5228 37.3565 2.0749
-4.8552 37.1056 2.0768
-8.1474 36.5242 2.0768
-10.9660 34.3703 2.0022
-14.1461 33.6262 2.0246
-17.5317 33.0611 2.0768
-20.4124 31.3645 2.0768
-12.2075 15.5257 1.0961
-25.6634 27.2359 2.0768
-27.9918 24.8368 2.0768
-30.0967 22.2394 2.0768
-31.9614 19.4646 2.0768
-31.1938 15.3635 1.9297
-31.9287 12.3207 1.8993
-32.1277 9.2006 1.8547
-32.2218 6.1817 1.8208
-31.7856 3.1948 1.7729
-31.0318 0.3354 1.7223
-30.0779 -2.3678 1.6744
-28.9470 -4.9072 1.6294
-27.6607 -7.2783 1.5873
-26.2390 -9.4788 1.5483
-23.4569 -10.9295 1.4362
-19.1144 -11.0816 1.2262
-19.1096 -13.4921 1.2982
-19.1042 -16.2267 1.3910
-17.6623 -17.9508 1.3976
-15.7435 -19.1560 1.3761
-13.7805 -20.2052 1.3573
-11.7811 -21.1016 1.3412
-9.7526 -21.8490 1.3279
-8.2167 -23.9525 1.4053
-6.1334 -24.9451 1.4256
-3.8662 -25.2861 1.4196
-1.5904 -25.4718 1.4163
0.6890 -25.5028 1.4158
2.9670 -25.3792 1.4180
5.2385 -25.1005 1.4230
7.4981 -24.6658 1.4307
9.7406 -24.0735 1.4412
11.9597 -23.3216 1.4545
14.1491 -22.4077 1.4707
15.2009 -19.8890 1.3892
16.9055 -18.4422 1.3884
18.7770 -17.1271 1.4104
20.5821 -15.6501 1.4349
22.3147 -14.0133 1.4623
23.9633 -12.2140 1.4927
25.5149 -10.2505 1.5260
26.9551 -8.1213 1.5623
24.7350 -5.0984 1.4016
24.1713 -2.7652 1.3502
24.7284 -0.6069 1.3728
24.7248 1.6052 1.3750
24.5536 3.8164 1.3790
24.7135 6.1413 1.4132
24.8501 8.5933 1.4592
31.5421 14.1729 1.9191
32.6294 18.3231 2.0768
30.8639 21.1620 2.0768
28.8520 23.8321 2.0768
26.6099 26.3120 2.0768
24.1553 28.5819 2.0768
21.5081 30.6236 2.0768
18.6891 32.4210 2.0768
15.7210 33.9596 2.0768
12.6003 35.1516 2.0723
9.4139 36.1398 2.0726
6.1542 36.8560 2.0737
2.8417 37.2763 2.0747
-0.4965 37.3857 2.0750
-3.8345 37.2250 2.0768
-7.1415 36.7341 2.0768
-10.1404 35.0817 2.0266
-13.0724 33.6288 2.0023
-16.6176 33.5300 2.0768
-19.5435 31.9132 2.0768
-22.3138 30.0416 2.0768
-24.9059 27.9302 2.0768
-27.2992 25.5960 2.0768
-29.4747 23.0574 2.0768
-31.4150 20.3348 2.0768
-30.7462 16.2069 1.9289
-31.8077 13.2886 1.9131
-32.0976 10.1535 1.8683
-9.4105 2.0748 0.5348
-31.9732 4.1033 1.7890
-31.2859 1.1979 1.7375
-30.3908 -1.5543 1.6888
-29.3120 -4.1446 1.6429
-28.0713 -6.5678 1.5999
-26.6892 -8.8209 1.5600
-25.1841 -10.9030 1.5230
-20.0927 -10.9229 1.2692
-19.1111 -12.7215 1.2741
-19.1060 -15.3453 1.3600
-18.2417 -17.5487 1.4047
-16.3383 -18.8024 1.3824
-14.3879 -19.8992 1.3628
-12.3989 -20.8423 1.3459
-10.3784 -21.6345 1.3316
-8.3341 -22.2818 1.3202
-6.8275 -24.8089 1.4280
-4.5640 -25.1979 1.4211
-2.2903 -25.4312 1.4171
-0.0115 -25.5097 1.4157
2.2675 -25.4336 1.4171
4.5415 -25.2027 1.4212
6.8053 -24.8161 1.4280
9.0537 -24.2724 1.4377
11.2807 -23.5698 1.4501
13.4799 -22.7059 1.4654
15.1866 -21.0437 1.4402
16.3158 -18.8107 1.3819
18.2094 -17.5492 1.4035
20.0346 -16.1209 1.4271
21.7907 -14.5334 1.4536
17.5220 -9.5459 1.1074
25.0493 -10.8714 1.5154
26.5254 -8.7932 1.5508
24.7739 -5.8199 1.4123
24.7327 -3.5199 1.3864
24.5636 -1.2784 1.3650
24.7262 0.9244 1.3732
24.6855 3.1454 1.3810
24.1554 5.3029 1.3725
24.7094 7.7919 1.4379
31.5476 13.1466 1.8967
30.7093 16.1521 1.9256
31.4333 20.3067 2.0768
29.4955 23.0310 2.0768
27.3223 25.5715 2.0768
24.9310 27.9078 2.0768
22.3408 30.0215 2.0768
19.5723 31.8956 2.0768
16.6476 33.5151 2.0768
13.5737 34.8257 2.0743
10.4006 35.8607 2.0722
7.1623 36.6649 2.0733
3.8637 37.1801 2.0745
0.5302 37.3853 2.0750
-2.8110 37.3162 2.0768
-6.1302 36.9164 2.0768
-9.3664 36.0905 2.0693
-12.0896 33.8227 1.9934
-15.5405 33.6491 2.0570
-18.6599 32.4378 2.0768
-21.4812 30.6431 2.0768
-24.1296 28.6036 2.0768
-26.5862 26.3359 2.0768
-28.8305 23.8580 2.0768
-30.8447 21.1897 2.0768
-30.2549 17.0255 1.9267
-31.6576 14.2591 1.9269
-32.0401 11.1120 1.8820
-32.1277 8.0144 1.8376
-32.1387 5.0250 1.8053
-31.5203 2.0748 1.7531
-30.6865 -0.7255 1.7035
-29.6617 -3.3663 1.6567
-28.4685 -5.8412 1.6128
-27.1278 -8.1467 1.5719
-25.6586 -10.2814 1.5340
-21.4833 -10.9256 1.3376
-19.1126 -11.9785 1.2518
-19.1076 -14.5019 1.3312
-18.8158 -17.1314 1.4122
-16.9286 -18.4340 1.3890
-14.9917 -19.5787 1.3685
-13.0138 -20.5687 1.3508
-9.2262 -17.9514 1.1201
-8.9646 -22.0987 1.3235
-7.5200 -24.6579 1.4307
-5.2609 -25.0950 1.4230
-2.9898 -25.3760 1.4180
-0.7119 -25.5021 1.4158
1.5675 -25.4735 1.4164
3.8436 -25.2902 1.4196
6.1111 -24.9515 1.4256
8.3648 -24.4562 1.4344
10.5990 -23.8027 1.4460
12.8075 -22.9887 1.4604
14.9835 -22.0115 1.4777
15.7216 -19.1644 1.3756
17.6362 -17.9566 1.3968
19.4806 -16.5766 1.4195
21.2590 -15.0383 1.4451
22.9607 -13.3391 1.4737
24.5736 -11.4767 1.5052
26.0841 -9.4494 1.5396
27.4770 -7.2564 1.5772
24.7337 -4.2159 1.3924
24.5649 -1.9561 1.3676
24.7272 0.2450 1.3723
24.7227 2.4624 1.3788
24.5518 4.6873 1.3872
24.7113 7.0526 1.4262
31.5998 12.1612 1.8791
31.1766 15.3202 1.9278
31.9791 19.4359 2.0768
16.6030 12.2454 1.1449
28.0141 24.8116 2.0768
25.6879 27.2128 2.0768
23.1567 29.3968 2.0768
20.4407 31.3462 2.0768
17.5615 33.0454 2.0768
14.5288 34.4492 2.0749
11.3788 35.5535 2.0717
8.1653 36.4498 2.0730
4.8824 37.0546 2.0742
1.5564 37.3553 2.0749
-1.7836 37.3444 2.0749
-5.1142 37.0708 2.0768
-8.4023 36.4664 2.0768
-11.1855 34.2307 1.9986
-14.4253 33.6308 2.0309
-17.7622 32.9379 2.0768
-20.6310 31.2212 2.0768
-12.3170 15.4419 1.0962
-25.8530 27.0560 2.0768
-28.1645 24.6407 2.0768
-30.2513 22.0287 2.0768
-29.7425 17.8297 1.9245
-31.3003 15.1453 1.9297
-31.9549 12.0751 1.8958
-32.1310 8.9592 1.8512
-32.2452 5.9530 1.8198
-31.7344 2.9659 1.7688
-30.9642 0.1184 1.7184
-29.9955 -2.5722 1.6708
-28.8518 -5.0986 1.6260
-27.5543 -7.4564 1.5842
-26.1227 -9.6436 1.5454
-23.0337 -10.9287 1.4149
-19.1140 -11.2605 1.2312
-19.1092 -13.6928 1.3047
-19.1038 -16.4574 1.3994
-17.5142 -18.0507 1.3958
-15.5916 -19.2435 1.3745
-13.6255 -20.2807 1.3559
-9.6547 -17.5804 1.1131
-9.5931 -21.9014 1.3269
-8.2101 -24.4895 1.4334
-5.9566 -24.9774 1.4250
-3.6886 -25.3062 1.4192
-1.4123 -25.4798 1.4162
0.8672 -25.4987 1.4159
3.1448 -25.3630 1.4183
5.4156 -25.0722 1.4235
7.6741 -24.6251 1.4314
9.9149 -24.0205 1.4422
12.1320 -23.2561 1.4557
14.3187 -22.3293 1.4721
15.2085 -19.6135 1.3774
17.0548 -18.3461 1.3901
18.9204 -17.0174 1.4122
20.7202 -15.5280 1.4370
22.4467 -13.8785 1.4646
24.0882 -12.0665 1.4952
25.6317 -10.0900 1.5287
27.0625 -7.9479 1.5653
24.7347 -4.9185 1.3996
24.1710 -2.5943 1.3491
24.7282 -0.4341 1.3725
24.7244 1.7786 1.3757
24.5532 3.9921 1.3805
24.7131 6.3247 1.4157
25.1016 8.8770 1.4776
31.5560 14.4449 1.9260
32.5007 18.5505 2.0768
30.7153 21.3771 2.0768
28.6849 24.0330 2.0768
26.4255 26.4972 2.0768
23.9551 28.7499 2.0768
21.2936 30.7731 2.0768
18.4622 32.5507 2.0768
15.4823 34.0660 2.0766
12.3508 35.2279 2.0717
9.1617 36.2063 2.0727
5.8970 36.8999 2.0738
2.5813 37.2961 2.0748
-0.7576 37.3811 2.0750
-4.0945 37.1972 2.0768
-7.3979 36.6834 2.0768
-10.3471 34.8816 2.0192
-13.3386 33.6166 2.0071
-16.8512 33.4132 2.0768
-19.7660 31.7759 2.0768
-22.5230 29.8850 2.0768
-25.1006 27.7557 2.0768
-27.4773 25.4047 2.0768
-29.6350 22.8510 2.0768
-31.5562 20.1150 2.0768
-30.8678 15.9964 1.9294
-31.8412 13.0421 1.9096
-32.1078 9.9106 1.8648
-9.4709 2.0188 0.5374
-31.9274 3.8709 1.7848
-31.2231 0.9772 1.7336
-30.3129 -1.7626 1.6851
-29.2206 -4.3400 1.6394
-27.9681 -6.7500 1.5967
-26.5758 -8.9897 1.5570
-25.0618 -11.0585 1.5202
-19.7613 -10.9223 1.2530
-19.1108 -12.9148 1.2801
-19.1055 -15.5658 1.3676
-18.0948 -17.6524 1.4029
-16.1874 -18.8937 1.3807
-14.2338 -19.9784 1.3614
-12.2421 -20.9096 1.3447
-10.2195 -21.6904 1.3307
-8.2361 -22.4973 1.3296
-6.6511 -24.8449 1.4274
-4.3867 -25.2217 1.4207
-2.1124 -25.4429 1.4169
0.1667 -25.5093 1.4157
2.4455 -25.4211 1.4173
4.7189 -25.1781 1.4216
6.9817 -24.7792 1.4287
9.2286 -24.2232 1.4386
11.4536 -23.5081 1.4512
13.6504 -22.6315 1.4667
15.1904 -20.7421 1.4268
16.4662 -18.7184 1.3835
18.3543 -17.4433 1.4052
20.1745 -16.0026 1.4291
21.9246 -14.4026 1.4558
17.5223 -9.3879 1.1032
25.1687 -10.7149 1.5181
26.6358 -8.6238 1.5537
24.7523 -5.6326 1.4088
24.7324 -3.3437 1.3851
24.1680 -1.0886 1.3426
24.7260 1.0974 1.3736
24.1595 3.2500 1.3528
24.7149 5.6069 1.4064
24.7209 7.9857 1.4417
31.5335 13.3999 1.9015
30.5870 16.3615 1.9251
31.2908 20.5256 2.0768
29.3340 23.2363 2.0768
27.1430 25.7617 2.0768
24.7355 28.0813 2.0768
22.1305 30.1769 2.0768
19.3490 32.0315 2.0768
16.4130 33.6306 2.0768
13.3274 34.9123 2.0739
10.1504 35.9344 2.0723
6.9065 36.7163 2.0734
3.6041 37.2073 2.0746
0.2691 37.3882 2.0750
-3.0715 37.2957 2.0768
-6.3878 36.8727 2.0768
-9.5544 35.7855 2.0556
-12.3312 33.7526 1.9943
-15.8288 33.6537 2.0640
-18.8860 32.3066 2.0768
-21.6937 30.4921 2.0768
-24.3288 28.4344 2.0768
-26.7694 26.1496 2.0768
-28.9965 23.6561 2.0768
-30.9919 20.9739 2.0768
-30.3819 16.8187 1.9272
-31.6986 14.0121 1.9234
-32.0574 10.8677 1.8785
-32.1226 7.7753 1.8342
-32.0987 4.7894 1.8011
-31.4626 1.8505 1.7491
-30.6130 -0.9378 1.6997
-29.5742 -3.5658 1.6532
-28.3687 -6.0275 1.6095
-27.0173 -8.3197 1.5689
-25.5389 -10.4410 1.5312
-21.1156 -10.9249 1.3194
-19.1122 -12.1650 1.2573
-19.1072 -14.7130 1.3383
-18.6703 -17.2390 1.4103
-16.7789 -18.5291 1.3873
-14.8386 -19.6616 1.3670
-12.8577 -20.6396 1.3495
-10.8438 -21.4661 1.3347
-8.8044 -22.1465 1.3226
-7.3440 -24.6977 1.4300
-5.0837 -25.1226 1.4225
-2.8119 -25.3915 1.4178
-0.5338 -25.5054 1.4158
1.7456 -25.4647 1.4165
4.0211 -25.2693 1.4200
6.2878 -24.9184 1.4262
8.5402 -24.4109 1.4352
10.7726 -23.7449 1.4470
12.9788 -22.9182 1.4617
15.1519 -21.9282 1.4792
15.8731 -19.0759 1.3772
17.7825 -17.8544 1.3985
19.6222 -16.4621 1.4214
21.3950 -14.9113 1.4473
23.0901 -13.1995 1.4760
24.6955 -11.3242 1.5077
26.1974 -9.2840 1.5425
25.0830 -6.4371 1.4371
24.7334 -4.0383 1.3908
24.5646 -1.7835 1.3668
24.7269 0.4177 1.3725
24.7222 2.6369 1.3798
24.5138 4.8576 1.3869
24.7108 7.2395 1.4290
31.5577 12.3988 1.8817
31.0598 15.5331 1.9273
31.8425 19.6588 2.0768
16.5785 12.4071 1.1492
27.8402 25.0067 2.0768
25.4972 27.3915 2.0768
22.9508 29.5578 2.0768
20.2213 31.4882 2.0768
17.3303 33.1672 2.0768
14.2893 34.5531 2.0751
11.1309 35.6343 2.0718
7.9109 36.5072 2.0731
4.6238 37.0893 2.0743
1.2955 37.3658 2.0749
-2.0444 37.3304 2.0748
-5.3731 37.0342 2.0768
-8.6569 36.4068 2.0768
-11.4092 34.1068 1.9959
-14.7063 33.6355 2.0373
-17.9928 32.8130 2.0768
-20.8485 31.0763 2.0768
-23.5388 29.0916 2.0768
-26.0413 26.8747 2.0768
-28.3359 24.4434 2.0768
-30.4043 21.8169 2.0768
-29.8748 17.6266 1.9250
-31.4054 14.9263 1.9297
-31.9792 11.8297 1.8923
-32.1327 8.7182 1.8477
-32.2474 5.7207 1.8176
-31.6819 2.7380 1.7648
-30.8953 -0.0977 1.7146
-29.9122 -2.7756 1.6672
-28.7556 -5.2890 1.6226
-27.4470 -7.6335 1.5810
-26.0057 -9.8073 1.5424
-22.6226 -10.9279 1.3943
-19.1137 -11.4408 1.2362
-19.1088 -13.8954 1.3112
-19.1033 -16.6909 1.4078
-17.3656 -18.1496 1.3940
-15.4394 -19.3302 1.3729
-13.4702 -20.3554 1.3546
-9.4956 -17.5806 1.1089
-9.4335 -21.9529 1.3260
-8.0354 -24.5357 1.4328
-5.7798 -25.0087 1.4245
-3.5110 -25.3254 1.4189
-1.2343 -25.4869 1.4161
1.0453 -25.4937 1.4160
3.3225 -25.3459 1.4186
5.5925 -25.0429 1.4240
7.8500 -24.5836 1.4322
10.0891 -23.9665 1.4431
12.3041 -23.1895 1.4569
14.4882 -22.2500 1.4735
15.2758 -19.4186 1.3711
17.2037 -18.2491 1.3918
19.0635 -16.9067 1.4141
20.8579 -15.4049 1.4390
22.5782 -13.7428 1.4669
24.2125 -11.9180 1.4977
25.7478 -9.9286 1.5315
27.1691 -7.7736 1.5683
24.7344 -4.7391 1.3976
24.5659 -2.4633 1.3702
24.7279 -0.2613 1.3724
24.7239 1.9523 1.3764
24.5529 4.1684 1.3821
24.7126 6.5089 1.4182
31.7129 11.4649 1.8714
31.5109 14.6913 1.9295
32.3703 18.7770 2.0768
18.9843 13.4103 1.2899
28.5163 24.2328 2.0768
26.2398 26.6811 2.0768
23.7538 28.9164 2.0768
21.0783 30.9210 2.0768
18.2345 32.6788 2.0768
15.2412 34.1672 2.0763
12.1020 35.3064 2.0713
8.9089 36.2709 2.0728
5.6394 36.9420 2.0739
2.3208 37.3140 2.0748
-1.0187 37.3745 2.0749
-4.3541 37.1677 2.0768
-7.6539 36.6308 2.0768
-10.5541 34.6890 2.0123
-13.6115 33.6174 2.0128
-17.0840 33.2947 2.0768
-19.9873 31.6371 2.0768
-22.7310 29.7270 2.0768
-25.2937 27.5796 2.0768
-27.6541 25.2122 2.0768
-29.6505 22.5344 2.0668
-31.6960 19.8941 2.0768
-30.9837 15.7830 1.9297
-31.8728 12.7959 1.9061
-32.1163 9.6680 1.8614
-32.1750 6.6240 1.8231
-31.8804 3.6395 1.7808
-31.1591 0.7574 1.7297
-30.2338 -1.9700 1.6814
-29.1282 -4.5345 1.6360
-27.8641 -6.9311 1.5935
-26.4616 -9.1576 1.5540
-24.9388 -11.2130 1.5175
-19.4382 -10.9216 1.2374
-19.1104 -13.1099 1.2861
-19.1051 -15.7887 1.3755
-17.9476 -17.7551 1.4011
-16.0363 -18.9841 1.3791
-14.0794 -20.0567 1.3599
-12.0850 -20.9760 1.3435
-10.0604 -21.7454 1.3297
-8.2286 -22.9726 1.3542
-6.4746 -24.8800 1.4267
-4.2093 -25.2446 1.4203
-1.9343 -25.4537 1.4167
0.3449 -25.5080 1.4157
2.6234 -25.4078 1.4175
4.8962 -25.1526 1.4221
7.1580 -24.7415 1.4294
9.4033 -24.1731 1.4394
11.6264 -23.4455 1.4523
13.8207 -22.5562 1.4681
15.1941 -20.4460 1.4137
16.6163 -18.6251 1.3852
18.4988 -17.3364 1.4070
20.3139 -15.8833 1.4311
22.0581 -14.2708 1.4580
17.5970 -9.2703 1.1038
25.2875 -10.5574 1.5208
26.7455 -8.4534 1.5567
24.7355 -5.4474 1.4056
24.7322 -3.1680 1.3838
24.1677 -0.9196 1.3422
24.7256 1.2705 1.3740
24.1591 3.4219 1.3541
24.7144 5.7886 1.4087
24.7430 8.1841 1.4463
31.5252 13.6572 1.9067
30.4633 16.5700 1.9245
31.1466 20.7436 2.0768
29.1709 23.4407 2.0768
26.9624 25.9506 2.0768
24.5387 28.2534 2.0768
21.9192 30.3307 2.0768
19.1248 32.1659 2.0768
16.1777 33.7444 2.0768
13.0802 34.9964 2.0734
9.8997 36.0062 2.0724
6.6503 36.7657 2.0735
3.3443 37.2327 2.0746
0.0080 37.3891 2.0750
-3.3319 37.2733 2.0768
-6.6452 36.8272 2.0768
-9.7494 35.5180 2.0441
-12.5780 33.6962 1.9961
-16.1190 33.6584 2.0711
-19.1112 32.1739 2.0768
-21.9066 30.3399 2.0768
-24.5268 28.2638 2.0768
-15.3084 14.7464 1.1796
-29.1610 23.4530 2.0768
-31.1377 20.7569 2.0768
-30.5075 16.6109 1.9278
-31.7376 13.7652 1.9199
-32.0728 10.6238 1.8750
-9.4038 2.2068 0.5361
-32.0573 4.5546 1.7969
-31.4035 1.6269 1.7451
-30.5383 -1.1490 1.6960
-29.4857 -3.7642 1.6496
-28.2681 -6.2128 1.6062
-26.9061 -8.4916 1.5658
-25.4185 -10.5996 1.5284
-20.7578 -10.9242 1.3018
-19.1119 -12.3531 1.2629
-19.1068 -14.9264 1.3456
-18.5245 -17.3456 1.4084
-16.6289 -18.6232 1.3856
-14.6851 -19.7435 1.3656
-12.7015 -20.7096 1.3483
-10.6851 -21.5244 1.3336
-8.6441 -22.1935 1.3218
-7.1679 -24.7366 1.4293
-4.9065 -25.1492 1.4220
-2.6341 -25.4060 1.4175
-0.3557 -25.5078 1.4157
1.9236 -25.4550 1.4167
4.1987 -25.2475 1.4204
6.4644 -24.8845 1.4268
8.7154 -24.3646 1.4361
10.9460 -23.6861 1.4481
13.1499 -22.8468 1.4629
15.1995 -17.7731 1.4424
16.5615 -16.1857 1.4283
18.2221 -14.8733 1.4508
19.8052 -13.4100 1.4752
17.5057 -9.6961 1.2343
22.7165 -10.0480 1.5320
24.0200 -8.1493 1.5644
24.7956 -6.0080 1.5736
24.7329 -3.6963 1.5424
24.5639 -1.4505 1.5177
24.7265 0.7515 1.5258
24.7214 2.9747 1.5358
24.1558 5.1264 1.5231
24.7099 7.6027 1.5946
28.0178 11.4466 1.8667
27.6553 14.3002 1.9203
26.3253 16.7473 1.9244
26.6837 20.5370 2.0768
24.7442 22.8365 2.0768
22.6074 24.9538 2.0768
20.2901 26.8719 2.0768
17.8109 28.5755 2.0768
15.1135 29.9008 2.0664
12.3824 31.1248 2.0661
9.5439 32.0681 2.0636
6.6459 32.8019 2.0643
3.6931 33.2758 2.0650
0.7087 33.4804 2.0655
-2.2820 33.4070 2.0653
-5.2837 33.2545 2.0768
-8.2306 32.6503 2.0768
-11.1117 31.7854 2.0768
-3.9469 8.7052 0.5895
-16.5058 29.1625 2.0668
-19.1348 27.7063 2.0768
-21.5311 25.8881 2.0768
-23.7557 23.8631 2.0768
-25.7906 21.6477 2.0768
-25.5929 17.8463 1.9244
-27.1587 15.5338 1.9297
-28.0555 12.8731 1.9039
-28.4907 10.1044 1.8645
-28.6630 7.3632 1.8253
-28.7204 4.6963 1.7949
-28.3388 2.0643 1.7525
-27.6852 -0.4611 1.7078
-26.8494 -2.8573 1.6654
-25.8505 -5.1162 1.6253
-24.7069 -7.2320 1.5878
-23.4355 -9.2011 1.5529
-22.0519 -11.0216 1.5205
-19.1130 -11.7936 1.3852
-19.0039 -14.2151 1.4637
-17.3641 -15.5893 1.4393
-15.6616 -16.8171 1.4174
-13.9058 -17.9001 1.3980
-12.1053 -18.8403 1.3812
-9.2254 -17.6457 1.2281
-8.4017 -20.3026 1.3552
-7.0903 -22.6799 1.4656
-5.0122 -23.1040 1.4581
-2.9204 -23.3808 1.4533
-0.8208 -23.5113 1.4510
1.2811 -23.4956 1.4513
3.3797 -23.3338 1.4542
5.4692 -23.0255 1.4597
7.5439 -22.5697 1.4678
9.5976 -21.9655 1.4785
11.6238 -21.2112 1.4918
13.6153 -20.3051 1.5079
15.1866 -18.7782 1.4896
16.0366 -16.5577 1.4217
17.7211 -15.2941 1.4438
19.3268 -13.8750 1.4674
20.8549 -12.3114 1.4937
22.2941 -10.6024 1.5226
23.6315 -8.7482 1.5542
24.8537 -6.7496 1.5884
24.7339 -4.3939 1.5494
24.5653 -2.1288 1.5208
24.7274 0.0723 1.5251
24.7231 2.2882 1.5314
24.5522 4.5098 1.5397
24.7118 6.8665 1.5819
28.1849 10.6216 1.8577
27.7231 13.3836 1.8987
26.7996 16.0327 1.9262
16.7855 12.1999 1.2799
25.3620 22.1485 2.0768
23.2840 24.3236 2.0768
21.0203 26.3046 2.0768
18.5888 28.0757 2.0768
15.9529 29.5191 2.0695
13.2280 30.7630 2.0654
10.4311 31.8250 2.0657
7.5431 32.6033 2.0640
4.6047 33.1572 2.0647
1.6277 33.4471 2.0654
-1.3639 33.4592 2.0654
-4.3686 33.3871 2.0768
-7.3310 32.8639 2.0768
-10.2348 32.0785 2.0768
-13.0569 31.0371 2.0768
-4.4542 8.3997 0.5864
-18.3668 28.2213 2.0768
-12.2075 15.5257 1.2182
-23.0915 24.5064 2.0768
-25.1865 22.3477 2.0768
-27.0805 20.0107 2.0768
-26.7046 16.2632 1.9285
-27.8670 13.7250 1.9159
-28.3856 10.9535 1.8766
-28.6372 8.2010 1.8373
-28.6502 5.4965 1.7993
-28.4999 2.8646 1.7667
-27.9064 0.3016 1.7213
-27.1244 -2.1353 1.6782
-26.1737 -4.4371 1.6374
-25.0727 -6.5973 1.5991
-23.8388 -8.6118 1.5633
-22.4881 -10.4781 1.5302
-19.1144 -11.0816 1.3627
-19.1096 -13.4921 1.4428
-17.8752 -15.1827 1.4465
-16.1908 -16.4553 1.4238
-14.4505 -17.5826 1.4037
-12.6629 -18.5665 1.3861
-10.8360 -19.4088 1.3710
-8.9780 -20.1136 1.3585
-7.7252 -22.5200 1.4684
-5.6525 -22.9893 1.4602
-3.5643 -23.3113 1.4545
-1.4665 -23.4867 1.4514
0.6354 -23.5160 1.4509
2.7355 -23.3991 1.4530
4.8284 -23.1359 1.4577
6.9083 -22.7255 1.4650
8.9692 -22.1670 1.4749
11.0045 -21.4590 1.4874
13.0075 -20.5998 1.5026
14.9705 -19.5874 1.5206
15.5065 -16.9161 1.4154
17.2121 -15.6997 1.4369
18.8412 -14.3264 1.4599
20.3943 -12.8073 1.4853
21.8620 -11.1430 1.5135
23.2322 -9.3334 1.5442
24.4913 -7.3790 1.5776
24.7350 -5.0984 1.5577
24.1713 -2.7652 1.5006
24.7284 -0.6069 1.5257
24.7248 1.6052 1.5282
24.5536 3.8164 1.5326
24.7135 6.1413 1.5706
24.8501 8.5933 1.6217
27.8332 12.5065 1.8820
27.2568 15.3061 1.9281
27.7708 19.0413 2.0768
25.9606 21.4437 2.0768
23.9431 23.6751 2.0768
21.7346 25.7175 2.0768
19.3526 27.5547 2.0768
16.7832 29.1144 2.0727
14.0626 30.3773 2.0646
11.3073 31.5444 2.0668
8.4343 32.3792 2.0637
5.5128 33.0148 2.0645
2.5453 33.3875 2.0653
-0.4447 33.4851 2.0655
-3.4323 33.3204 2.0660
-6.4258 33.0528 2.0768
-9.3501 32.3474 2.0768
-12.1997 31.3839 2.0768
-4.2322 8.5396 0.5878
-17.5850 28.7150 2.0768
-20.0776 27.0310 2.0768
-22.4099 25.1312 2.0768
-15.5192 14.5509 1.3121
-26.5209 20.7467 2.0768
-26.2219 16.9734 1.9266
-27.6523 14.5760 1.9280
-28.2553 11.8045 1.8887
-28.5875 9.0432 1.8493
-9.4103 2.0747 0.5943
-28.6412 3.6757 1.7810
-28.1098 1.0763 1.7350
-27.3836 -1.4005 1.6912
-26.4827 -3.7446 1.6496
-25.4259 -5.9488 1.6106
-24.2311 -8.0085 1.5740
-22.9147 -9.9205 1.5401
-20.0927 -10.9229 1.4106
-19.1111 -12.7215 1.4160
-18.3800 -14.7622 1.4540
-16.7148 -16.0798 1.4305
-14.9907 -17.2515 1.4096
-13.2167 -18.2793 1.3913
-11.4011 -19.1649 1.3754
-9.5519 -19.9116 1.3621
-8.2141 -21.9610 1.4462
-6.2913 -22.8608 1.4624
-4.2072 -23.2280 1.4560
-2.1118 -23.4484 1.4521
-0.0106 -23.5225 1.4508
2.0907 -23.4506 1.4521
4.1864 -23.2324 1.4560
6.2710 -22.8674 1.4625
8.3384 -22.3545 1.4716
10.3822 -21.6926 1.4833
12.3959 -20.8800 1.4977
14.3720 -19.9149 1.5148
15.2027 -17.5274 1.4310
16.6942 -16.0890 1.4300
18.3485 -14.7642 1.4526
19.9256 -13.2895 1.4772
17.5060 -9.5371 1.2296
22.8223 -9.9049 1.5345
24.1171 -7.9949 1.5671
24.7739 -5.8199 1.5696
24.7327 -3.5199 1.5408
24.5636 -1.2784 1.5171
24.7262 0.9244 1.5261
24.6855 3.1454 1.5349
24.1554 5.3029 1.5253
24.7094 7.7919 1.5980
27.9714 11.6563 1.8690
27.6451 14.5404 1.9266
28.2831 18.2716 2.0768
26.5396 20.7229 2.0768
24.5842 23.0088 2.0768
22.4326 25.1110 2.0768
20.1019 27.0129 2.0768
17.6109 28.6992 2.0768
14.8979 29.9927 2.0655
12.1656 31.2130 2.0662
9.3185 32.1298 2.0634
6.4168 32.8484 2.0643
3.4607 33.3017 2.0650
0.4749 33.4847 2.0655
-2.5151 33.3895 2.0652
-5.5159 33.2168 2.0768
-8.4584 32.5919 2.0768
-11.3334 31.7070 2.0768
-4.0053 8.6726 0.5892
-16.7899 29.1870 2.0768
-19.3278 27.5721 2.0768
-21.7118 25.7371 2.0768
-23.9218 23.6966 2.0768
-25.9413 21.4671 2.0768
-25.7207 17.6697 1.9247
-27.2665 15.3438 1.9297
-28.0993 12.6564 1.9008
-28.5135 9.8889 1.8614
-28.6658 7.1508 1.8222
-28.7369 4.4931 1.7940
-28.2947 1.8625 1.7489
-27.6262 -0.6531 1.7044
-26.7769 -3.0389 1.6621
-25.7661 -5.2867 1.6223
-24.6120 -7.3912 1.5850
-23.3312 -9.3488 1.5502
-21.9395 -11.1576 1.5181
-19.1126 -11.9785 1.3912
-18.8782 -14.3278 1.4617
-17.2332 -15.6906 1.4375
-15.5262 -16.9069 1.4158
-13.7666 -17.9787 1.3966
-11.9629 -18.9078 1.3800
-9.2101 -17.9201 1.2427
-8.2547 -20.3486 1.3544
-6.9285 -22.7184 1.4649
-4.8491 -23.1309 1.4577
-2.7566 -23.3963 1.4530
-0.6565 -23.5153 1.4509
1.4453 -23.4882 1.4514
3.5434 -23.3150 1.4545
5.6320 -22.9952 1.4602
7.7053 -22.5279 1.4685
9.7570 -21.9120 1.4794
11.7808 -21.1458 1.4930
13.7692 -20.2272 1.5092
15.1899 -18.5163 1.4772
16.1706 -16.4644 1.4234
17.8491 -15.1883 1.4455
19.4492 -13.7581 1.4694
20.9708 -12.1831 1.4959
22.4024 -10.4627 1.5250
23.7314 -8.5971 1.5568
24.9439 -6.5874 1.5912
24.7337 -4.2159 1.5475
24.5649 -1.9561 1.5199
24.7272 0.2450 1.5252
24.7227 2.4624 1.5324
24.5518 4.6873 1.5417
24.7113 7.0526 1.5850
28.1448 10.8315 1.8600
27.6984 13.6110 1.9035
26.6803 16.2155 1.9257
16.6030 12.2454 1.2725
25.2066 22.3251 2.0768
23.1136 24.4857 2.0768
20.8360 26.4508 2.0768
18.3922 28.2048 2.0768
15.7416 29.6209 2.0689
13.0140 30.8573 2.0656
10.2064 31.8903 2.0652
7.3155 32.6562 2.0641
4.3732 33.1898 2.0648
1.3940 33.4581 2.0654
-1.5976 33.4484 2.0654
-4.6017 33.3557 2.0768
-7.5603 32.8119 2.0768
-10.4586 32.0062 2.0768
-13.2733 30.9451 2.0768
-4.5099 8.3630 0.5860
-18.5634 28.0923 2.0768
-12.3170 15.4419 1.2183
-23.2621 24.3445 2.0768
-25.3419 22.1713 2.0768
-27.2196 19.8210 2.0768
-26.8244 16.0804 1.9290
-27.9174 13.5084 1.9129
-28.4147 10.7373 1.8735
-28.6460 7.9875 1.8342
-28.6694 5.2928 1.7982
-28.4607 2.6600 1.7631
-27.8518 0.1065 1.7179
-27.0560 -2.3201 1.6749
-26.0928 -4.6111 1.6343
-24.9808 -6.7600 1.5962
-23.7372 -8.7630 1.5606
-22.3781 -10.6176 1.5277
-19.1140 -11.2605 1.3683
-19.1092 -13.6928 1.4500
-17.7457 -15.2875 1.4447
-16.0567 -16.5486 1.4222
-14.3124 -17.6646 1.4022
-12.5214 -18.6374 1.3849
-9.6459 -17.5642 1.2359
-8.8316 -20.1629 1.3577
-7.5639 -22.5620 1.4677
-5.4898 -23.0198 1.4596
-3.4006 -23.3303 1.4542
-1.3023 -23.4943 1.4513
0.7996 -23.5121 1.4510
2.8994 -23.3838 1.4533
4.9915 -23.1091 1.4582
7.0702 -22.6872 1.4657
9.1292 -22.1171 1.4758
11.1623 -21.3973 1.4885
13.1624 -20.5262 1.5039
15.1219 -19.5018 1.5221
15.6418 -16.8262 1.4170
17.3429 -15.5985 1.4387
18.9654 -14.2129 1.4618
20.5122 -12.6825 1.4874
21.9728 -11.0068 1.5158
23.3347 -9.1858 1.5467
24.5846 -7.2202 1.5804
24.7347 -4.9185 1.5554
24.1710 -2.5943 1.4994
24.7282 -0.4341 1.5254
24.7244 1.7786 1.5289
24.5532 3.9921 1.5343
24.7131 6.3247 1.5734
25.1016 8.8770 1.6422
27.8171 12.7334 1.8869
27.1423 15.4921 1.9276
27.6371 19.2347 2.0768
25.8102 21.6245 2.0768
23.7772 23.8417 2.0768
21.5544 25.8687 2.0768
19.1597 27.6892 2.0768
16.5708 29.2160 2.0717
13.8514 30.4776 2.0648
11.0865 31.6220 2.0668
8.2083 32.4386 2.0638
5.2822 33.0530 2.0645
2.3120 33.4052 2.0653
-0.6786 33.4810 2.0655
-3.6841 33.4695 2.0768
-6.6565 33.0071 2.0768
-9.5758 32.2813 2.0768
-12.4186 31.2980 2.0768
-4.2891 8.5047 0.5875
-17.7851 28.5915 2.0768
-20.2659 26.8901 2.0768
-22.5849 24.9741 2.0768
-24.7236 22.8587 2.0768
-26.6652 20.5610 2.0768
-26.3464 16.7941 1.9271
-27.7094 14.3597 1.9249
-28.2908 11.5879 1.8856
-28.6024 8.8285 1.8463
-9.4705 2.0188 0.5972
-28.6072 3.4684 1.7774
-28.0598 0.8782 1.7315
-27.3192 -1.5885 1.6878
-26.4055 -3.9219 1.6465
-25.3373 -6.1150 1.6076
-24.1324 -8.1632 1.5713
-22.8071 -10.0636 1.5375
-19.7612 -10.9223 1.3926
-19.1108 -12.9148 1.4226
-18.2521 -14.8705 1.4521
-16.5820 -16.1766 1.4288
-14.8537 -17.3370 1.4081
-13.0762 -18.3536 1.3899
-11.2577 -19.2282 1.3743
-9.4062 -19.9642 1.3612
-8.1973 -22.3915 1.4707
-6.1290 -22.8948 1.4618
-4.0439 -23.2505 1.4556
-1.9477 -23.4594 1.4519
0.1537 -23.5222 1.4508
2.2548 -23.4388 1.4523
4.3499 -23.2092 1.4564
6.4333 -22.8326 1.4631
8.4990 -22.3082 1.4724
10.5408 -21.6345 1.4843
12.5518 -20.8101 1.4989
14.5246 -19.8330 1.5162
15.2086 -17.2888 1.4202
16.8264 -15.9913 1.4317
18.4744 -14.6541 1.4544
20.0455 -13.1682 1.4793
17.5063 -9.3794 1.2250
22.9276 -9.7608 1.5369
24.2134 -7.8395 1.5698
24.7523 -5.6326 1.5657
24.7324 -3.3437 1.5393
24.1680 -1.0886 1.4921
24.7260 1.0974 1.5265
24.1595 3.2500 1.5035
24.7149 5.6069 1.5631
24.7209 7.9857 1.6023
27.9233 11.8658 1.8713
27.5852 14.7558 1.9295
28.1549 18.4686 2.0768
26.3942 20.9076 2.0768
24.4228 23.1800 2.0768
22.2566 25.2671 2.0768
19.9127 27.1527 2.0768
17.4020 28.8083 2.0759
14.6775 30.0744 2.0640
11.9483 31.2996 2.0664
9.0943 32.1956 2.0635
6.1873 32.8932 2.0644
3.2281 33.3260 2.0651
0.2410 33.4873 2.0655
-2.7482 33.3704 2.0652
-5.7477 33.1775 2.0768
-8.6858 32.5321 2.0768
-11.5547 31.6271 2.0768
-4.0635 8.6394 0.5889
-16.9934 29.0690 2.0768
-19.5199 27.4364 2.0768
-21.8907 25.5848 2.0768
-24.0867 23.5289 2.0768
-26.0905 21.2854 2.0768
-25.8499 17.4939 1.9252
-27.3730 15.1530 1.9297
-28.1414 12.4397 1.8977
-28.5346 9.6735 1.8583
-28.6671 6.9389 1.8192
-28.7335 4.2873 1.7918
-28.2495 1.6615 1.7454
-27.5661 -0.8444 1.7010
-26.7035 -3.2196 1.6589
-25.6809 -5.4564 1.6193
-24.5162 -7.5495 1.5822
-23.2262 -9.4955 1.5476
-21.1156 -10.9249 1.4664
-19.1122 -12.1650 1.3973
-18.7522 -14.4396 1.4598
-17.1019 -15.7909 1.4357
-15.3905 -16.9958 1.4142
-13.6271 -18.0564 1.3952
-11.8204 -18.9744 1.3788
-9.9781 -19.7524 1.3649
-8.2306 -20.7031 1.3741
-6.7666 -22.7560 1.4643
-4.6860 -23.1569 1.4572
-2.5926 -23.4108 1.4528
-0.4922 -23.5184 1.4509
1.6095 -23.4800 1.4516
3.7070 -23.2953 1.4549
5.7946 -22.9640 1.4608
7.8665 -22.4851 1.4693
9.9163 -21.8575 1.4804
11.9375 -21.0796 1.4941
13.9229 -20.1496 1.5106
15.1933 -18.2589 1.4651
16.3043 -16.3702 1.4250
17.9768 -15.0817 1.4473
19.5711 -13.6402 1.4714
21.0861 -12.0538 1.4980
22.5101 -10.3221 1.5274
23.8306 -8.4452 1.5594
25.0333 -6.4244 1.5940
24.7334 -4.0383 1.5457
24.5646 -1.7835 1.5191
24.7269 0.4177 1.5253
24.7222 2.6369 1.5335
24.5138 4.8576 1.5414
24.7108 7.2395 1.5882
28.1030 11.0414 1.8623
27.6778 13.8418 1.9087
26.5598 16.3974 1.9252
16.5785 12.4071 1.2772
25.0501 22.5006 2.0768
22.9420 24.6465 2.0768
20.6508 26.5957 2.0768
18.1948 28.3326 2.0768
15.5282 29.7183 2.0681
12.7992 30.9500 2.0657
9.9810 31.9532 2.0647
7.0875 32.7075 2.0642
4.1415 33.2208 2.0649
1.1603 33.4674 2.0654
-1.8311 33.4359 2.0654
-4.8346 33.3228 2.0768
-7.7893 32.7583 2.0768
-10.6818 31.9324 2.0768
-3.8331 8.7670 0.5902
-16.1885 29.5246 2.0768
-18.7592 27.9620 2.0768
-21.1799 26.1762 2.0768
-23.4315 24.1815 2.0768
-25.4962 21.9938 2.0768
-27.3574 19.6305 2.0768
-26.9430 15.8968 1.9295
-27.9662 13.2917 1.9098
-28.4422 10.5213 1.8704
-28.6533 7.7742 1.8312
-28.6870 5.0891 1.7970
-28.4204 2.4561 1.7594
-27.7961 -0.0878 1.7144
-26.9865 -2.5041 1.6716
-26.0111 -4.7842 1.6312
-24.8882 -6.9218 1.5933
-23.6350 -8.9133 1.5580
-22.2674 -10.7563 1.5252
-19.1137 -11.4408 1.3739
-19.1088 -13.8954 1.4573
-17.6159 -15.3913 1.4428
-15.9222 -16.6411 1.4205
-14.1739 -17.7458 1.4008
-12.3797 -18.7074 1.3836
-9.4869 -17.5645 1.2313
-8.6851 -20.2114 1.3568
-7.4025 -22.6030 1.4670
-5.3270 -23.0494 1.4591
-3.2369 -23.3484 1.4539
-1.1381 -23.5009 1.4512
0.9638 -23.5073 1.4511
3.0632 -23.3676 1.4536
5.1545 -23.0815 1.4587
7.2319 -22.6481 1.4664
9.2892 -22.0663 1.4767
11.3200 -21.3347 1.4896
13.3172 -20.4517 1.5053
15.1799 -19.2967 1.5143
15.7768 -16.7355 1.4186
17.4725 -15.4958 1.4404
19.0891 -14.0985 1.4637
20.6296 -12.5568 1.4896
22.0830 -10.8698 1.5181
23.4366 -9.0374 1.5493
24.6771 -7.0606 1.5831
24.7344 -4.7391 1.5533
24.5659 -2.4633 1.5228
24.7279 -0.2613 1.5252
24.7239 1.9523 1.5297
24.5529 4.1683 1.5360
24.7126 6.5089 1.5762
28.2580 10.2159 1.8533
27.7842 12.9538 1.8908
27.0266 15.6773 1.9271
18.9690 13.3995 1.4324
25.6585 21.8042 2.0768
23.6101 24.0072 2.0768
21.3733 26.0186 2.0768
18.9659 27.8223 2.0768
16.3600 29.3195 2.0708
13.6394 30.5764 2.0650
10.8635 31.6933 2.0664
7.9818 32.4964 2.0639
5.0513 33.0896 2.0645
2.0787 33.4211 2.0653
-0.9124 33.4752 2.0655
-3.9178 33.4430 2.0768
-6.8869 32.9598 2.0768
-9.8010 32.2137 2.0768
-12.6369 31.2104 2.0768
-4.3457 8.4693 0.5871
-17.9843 28.4666 2.0768
-20.4531 26.7479 2.0768
-22.7588 24.8157 2.0768
-24.8827 22.6855 2.0768
-26.8080 20.3742 2.0768
-26.4697 16.6138 1.9275
-27.7648 14.1433 1.9219
-28.3247 11.3714 1.8825
-28.6158 8.6143 1.8432
-28.6516 5.8986 1.8042
-28.5718 3.2618 1.7737
-28.0086 0.6808 1.7280
-27.2538 -1.7758 1.6845
-26.3273 -4.0984 1.6434
-25.2479 -6.2804 1.6047
-24.0329 -8.3171 1.5686
-22.6989 -10.2059 1.5350
-19.4382 -10.9216 1.3752
-19.1104 -13.1099 1.4294
-18.1240 -14.9779 1.4502
-16.4490 -16.2725 1.4271
-14.7165 -17.4217 1.4066
-12.9355 -18.4270 1.3886
-11.1140 -19.2907 1.3731
-9.2603 -20.0160 1.3603
-8.0364 -22.4362 1.4699
-5.9666 -22.9279 1.4612
-3.8804 -23.2721 1.4552
-1.7835 -23.4696 1.4517
0.3180 -23.5209 1.4509
2.4188 -23.4261 1.4526
4.5132 -23.1850 1.4568
6.5954 -22.7970 1.4637
8.6595 -22.2609 1.4732
10.6991 -21.5756 1.4854
12.7074 -20.7393 1.5002
14.6770 -19.7502 1.5177
15.2442 -17.0871 1.4123
16.9583 -15.8927 1.4335
18.6000 -14.5432 1.4563
20.1650 -13.0460 1.4813
17.5733 -9.2578 1.2251
23.0321 -9.6158 1.5394
24.3089 -7.6833 1.5724
24.7355 -5.4474 1.5622
24.7322 -3.1680 1.5379
24.1677 -0.9195 1.4917
24.7256 1.2705 1.5270
24.1591 3.4219 1.5050
24.7144 5.7886 1.5656
24.7430 8.1841 1.6074
27.8736 12.0752 1.8736
27.4744 14.9442 1.9290
28.0252 18.6648 2.0768
26.2475 21.0916 2.0768
24.2603 23.3500 2.0768
22.0796 25.4220 2.0768
19.7226 27.2911 2.0768
17.1935 28.9176 2.0750
14.4685 30.1791 2.0643
11.7303 31.3846 2.0665
8.8697 32.2598 2.0636
5.9576 32.9363 2.0644
2.9954 33.3486 2.0652
0.0071 33.4882 2.0655
-2.9811 33.3495 2.0651
-5.9792 33.1365 2.0768
-8.9129 32.4706 2.0768
-11.7753 31.5456 2.0768
-4.1213 8.6058 0.5885
-17.1960 28.9496 2.0768
-19.7111 27.2994 2.0768
-22.0688 25.4312 2.0768
-15.2751 14.7143 1.3082
-26.2386 21.1026 2.0768
-25.9779 17.3173 1.9256
-27.4781 14.9614 1.9297
-28.1819 12.2230 1.8946
-28.5542 9.4583 1.8553
-9.4036 2.2067 0.5957
-28.7033 4.0781 1.7881
-28.2030 1.4611 1.7418
-27.5049 -1.0349 1.6976
-26.6291 -3.3995 1.6558
-25.5947 -5.6253 1.6163
-24.4197 -7.7069 1.5794
-23.1206 -9.6413 1.5450
-20.7578 -10.9242 1.4468
-19.1119 -12.3531 1.4036
-18.6256 -14.5505 1.4578
-16.9702 -15.8903 1.4339
-15.2544 -17.0839 1.4126
-13.4874 -18.1333 1.3939
-11.6776 -19.0402 1.3776
-9.8328 -19.8076 1.3639
-8.2252 -21.1179 1.3978
-6.6046 -22.7926 1.4636
-4.5227 -23.1820 1.4568
-2.4286 -23.4245 1.4525
-0.3280 -23.5207 1.4508
1.7736 -23.4708 1.4518
3.8706 -23.2747 1.4552
5.9572 -22.9319 1.4613
8.0275 -22.4415 1.4700
10.0754 -21.8021 1.4814
12.0941 -21.0124 1.4953
14.9242 -17.4511 1.5583
15.2843 -14.9375 1.4503
16.8032 -13.7152 1.4720
18.2447 -12.3534 1.4953
17.4896 -9.6872 1.3568
20.8632 -9.2283 1.5482
22.0225 -7.4716 1.5782
23.0647 -5.5886 1.6105
23.9762 -3.5832 1.6452
24.2940 -1.4346 1.6516
24.7265 0.7515 1.6788
25.6945 3.0918 1.7563
24.1558 5.1264 1.6758
25.6944 7.9056 1.8244
25.2455 10.3140 1.8507
24.6759 12.7595 1.8852
23.9753 15.2523 1.9284
24.2514 18.6650 2.0768
22.4888 20.7550 2.0768
20.5467 22.6792 2.0768
18.4406 24.4225 2.0768
16.0859 25.8080 2.0638
13.6681 27.0412 2.0562
11.2121 28.1832 2.0584
8.6584 29.0925 2.0599
6.0189 29.7075 2.0570
3.3441 30.1310 2.0574
0.6417 30.3152 2.0578
-2.0663 30.2489 2.0576
-4.8021 30.2233 2.0768
-7.4803 29.6742 2.0768
-2.8329 8.1037 0.5826
-3.5247 7.7741 0.5793
-4.1750 7.3764 0.5752
-17.3906 25.1809 2.0768
-19.5686 23.5283 2.0768
-21.5903 21.6880 2.0768
-23.4398 19.6745 2.0768
-23.3076 16.2527 1.9283
-24.5253 14.0277 1.9174
-25.2146 11.5696 1.8827
-25.6594 9.1003 1.8476
-25.8687 6.6453 1.8126
-25.8535 4.2275 1.7778
-25.7013 1.8722 1.7488
-25.1684 -0.4192 1.7083
-24.4637 -2.6034 1.6696
-23.6040 -4.6716 1.6329
-22.6052 -6.6168 1.5984
-21.4821 -8.4342 1.5662
-20.2490 -10.1205 1.5363
-18.9188 -11.6738 1.5086
-17.5036 -13.0929 1.4834
-16.0145 -14.3776 1.4605
-14.4614 -15.5283 1.4400
-12.8536 -16.5457 1.4219
-11.1995 -17.4306 1.4060
-9.1616 -17.5236 1.3419
-8.2171 -19.8566 1.4584
-6.5727 -21.0242 1.4949
-4.6480 -21.4253 1.4878
-2.7089 -21.6873 1.4832
-0.7614 -21.8108 1.4811
1.1884 -21.7960 1.4813
3.1347 -21.6428 1.4841
5.0715 -21.3509 1.4893
6.9925 -20.9199 1.4969
8.8913 -20.3490 1.5070
10.7612 -19.6371 1.5196
12.5949 -18.7833 1.5347
14.3845 -17.7864 1.5524
15.2004 -15.6943 1.4827
16.3434 -14.1050 1.4651
17.8114 -12.7871 1.4880
19.1928 -11.3302 1.5125
20.4855 -9.7423 1.5394
21.6781 -8.0250 1.5687
22.7577 -6.1804 1.6004
23.7109 -4.2121 1.6343
24.2953 -2.1054 1.6549
24.7274 0.0723 1.6781
24.7231 2.2882 1.6850
24.2824 4.4603 1.6755
25.7860 7.1650 1.8162
25.4082 9.5751 1.8427
24.7971 11.9710 1.8687
24.4021 14.5984 1.9297
16.7855 12.1999 1.4082
23.0502 20.1296 2.0768
21.1617 22.1065 2.0768
19.1042 23.9069 2.0768
16.8236 25.4097 2.0681
14.3999 26.6454 2.0554
11.9782 27.8565 2.0578
9.4525 28.8393 2.0596
6.8316 29.5279 2.0568
4.1701 30.0272 2.0573
1.4738 30.2851 2.0577
-1.2350 30.2960 2.0577
-3.9328 30.0562 2.0571
-6.6627 29.8684 2.0768
-2.6132 8.1905 0.5834
-3.3162 7.8829 0.5804
-3.9800 7.5055 0.5765
-16.6927 25.6489 2.0768
-12.2075 15.5257 1.3403
-20.9867 22.2726 2.0768
-22.8907 20.3107 2.0768
-22.8327 16.8718 1.9267
-24.2634 14.7765 1.9279
-25.0292 12.3273 1.8934
-25.5483 9.8587 1.8584
-25.8288 7.3967 1.8233
-25.8813 4.9653 1.7884
-25.8280 2.5960 1.7616
-25.3512 0.2740 1.7205
-24.6975 -1.9442 1.6813
-23.8837 -4.0489 1.6440
-22.9260 -6.0324 1.6088
-21.8396 -7.8895 1.5759
-20.6388 -9.6164 1.5452
-19.3372 -11.2107 1.5169
-17.9469 -12.6711 1.4909
-16.4793 -13.9971 1.4673
-14.9448 -15.1890 1.4461
-13.3529 -16.2472 1.4272
-11.7123 -17.1727 1.4106
-9.7656 -17.4916 1.3595
-8.3169 -18.6326 1.3847
-7.1602 -20.8730 1.4975
-5.2413 -21.3169 1.4897
-3.3059 -21.6216 1.4844
-1.3604 -21.7876 1.4815
0.5894 -21.8152 1.4810
2.5374 -21.7046 1.4830
4.4777 -21.4554 1.4874
6.4042 -21.0672 1.4943
8.3106 -20.5394 1.5036
10.1901 -19.8709 1.5155
12.0357 -19.0608 1.5298
13.8397 -18.1080 1.5467
15.1888 -16.5695 1.5254
15.8773 -14.4822 1.4584
17.3708 -13.2083 1.4809
18.7772 -11.7918 1.5047
20.0984 -10.2441 1.5309
21.3230 -8.5664 1.5595
22.4388 -6.7606 1.5904
23.4323 -4.8299 1.6236
24.1713 -2.7652 1.6510
24.7284 -0.6069 1.6787
24.7248 1.6052 1.6814
24.2837 3.7744 1.6678
25.8550 6.4250 1.8080
25.5489 8.8349 1.8346
25.0100 11.2378 1.8607
24.4695 13.7409 1.9045
23.4103 16.0514 1.9263
23.5942 19.4891 2.0768
21.7607 21.5171 2.0768
19.7535 23.3733 2.0768
17.5882 25.0425 2.0768
15.1485 26.2789 2.0585
12.7344 27.5081 2.0571
10.2383 28.5622 2.0591
7.6442 29.3462 2.0580
4.9927 29.9000 2.0572
2.3046 30.2313 2.0576
-0.4027 30.3194 2.0578
-3.1064 30.1565 2.0574
-5.8401 30.0400 2.0768
-2.5207 8.7206 0.6160
-3.1040 7.9851 0.5814
-3.7807 7.6286 0.5778
-4.4131 7.2063 0.5735
-18.2475 24.5671 2.0768
-20.3672 22.8405 2.0768
-15.4699 14.5047 1.4391
-22.3418 17.4775 1.9250
-23.8709 15.4516 1.9297
-24.8204 13.0833 1.9041
-25.4146 10.6177 1.8692
-25.7674 8.1511 1.8341
-9.4101 2.0747 0.6539
-25.9174 3.3261 1.7733
-25.5173 0.9770 1.7330
-24.9162 -1.2743 1.6931
-24.1498 -3.4147 1.6552
-23.2347 -5.4361 1.6194
-22.1862 -7.3326 1.5857
-21.0191 -9.0998 1.5544
-19.7471 -10.7350 1.5253
-18.3828 -12.2366 1.4986
-16.9379 -13.6039 1.4743
-15.4229 -14.8370 1.4523
-13.8477 -15.9362 1.4327
-12.2211 -16.9023 1.4155
-10.5513 -17.7365 1.4005
-8.8468 -18.4418 1.3881
-7.7456 -20.7085 1.5004
-5.8330 -21.1953 1.4919
-3.9020 -21.5427 1.4858
-1.9589 -21.7513 1.4821
-0.0098 -21.8214 1.4809
1.9394 -21.7533 1.4821
3.8827 -21.5467 1.4858
5.8141 -21.2013 1.4919
7.7274 -20.7165 1.5005
9.6159 -20.0913 1.5116
11.4727 -19.3249 1.5252
13.2903 -18.4160 1.5412
15.0607 -17.3637 1.5599
15.4052 -14.8468 1.4519
16.9191 -13.6140 1.4737
18.3536 -12.2411 1.4972
17.4899 -9.5284 1.3516
20.9577 -9.0956 1.5504
22.1083 -7.3289 1.5806
23.1409 -5.4362 1.6132
24.0415 -3.4215 1.6480
24.2937 -1.2644 1.6509
24.7262 0.9244 1.6792
25.7141 3.2765 1.7592
24.1554 5.3029 1.6783
25.6677 8.0941 1.8265
25.2006 10.5016 1.8528
24.6319 12.9556 1.8887
23.8628 15.4160 1.9280
24.1205 18.8340 2.0768
22.3433 20.9115 2.0768
20.3878 22.8221 2.0768
18.2696 24.5507 2.0768
15.8993 25.9100 2.0630
13.4802 27.1385 2.0564
11.0158 28.2629 2.0586
8.4537 29.1477 2.0596
5.8114 29.7495 2.0571
3.1335 30.1538 2.0574
0.4300 30.3190 2.0578
-2.2774 30.2332 2.0576
-5.0131 30.1891 2.0768
-7.6874 29.6212 2.0768
-2.8883 8.0806 0.5824
-3.5772 7.7455 0.5790
-4.2239 7.3427 0.5749
-17.5660 25.0589 2.0768
-19.7324 23.3911 2.0768
-21.7413 21.5366 2.0768
-23.5766 19.5103 2.0768
-23.4258 16.0931 1.9288
-24.5881 13.8366 1.9147
-25.2581 11.3767 1.8800
-25.6842 8.9076 1.8449
-25.8755 6.4547 1.8098
-25.8725 4.0452 1.7771
-25.6662 1.6895 1.7456
-25.1192 -0.5939 1.7052
-24.4019 -2.7693 1.6666
-23.5308 -4.8281 1.6302
-22.5217 -6.7634 1.5958
-21.3895 -8.5707 1.5638
-20.1484 -10.2467 1.5340
-18.8111 -11.7895 1.5066
-17.3898 -13.1981 1.4815
-15.8952 -14.4723 1.4588
-14.3376 -15.6126 1.4385
-12.7259 -16.6196 1.4205
-11.0685 -17.4942 1.4049
-9.1384 -17.7806 1.3567
-8.2117 -20.2425 1.4825
-6.4230 -21.0606 1.4942
-4.4969 -21.4508 1.4874
-2.5569 -21.7019 1.4830
-0.6090 -21.8146 1.4810
1.3408 -21.7890 1.4815
3.2865 -21.6250 1.4844
5.2222 -21.3223 1.4898
7.1417 -20.8804 1.4976
9.0386 -20.2984 1.5079
10.9059 -19.5755 1.5207
12.7365 -18.7105 1.5360
14.5222 -17.7024 1.5539
15.2032 -15.4794 1.4724
16.4609 -14.0071 1.4668
17.9223 -12.6780 1.4898
19.2971 -11.2108 1.5145
20.5825 -9.6127 1.5416
21.7667 -7.8854 1.5711
22.8370 -6.0310 1.6029
23.7797 -4.0532 1.6370
24.2950 -1.9346 1.6540
24.7272 0.2450 1.6782
24.7227 2.4624 1.6861
24.2821 4.6358 1.6776
25.7647 7.3533 1.8183
25.3689 9.7632 1.8447
24.7557 12.1651 1.8719
24.2986 14.7679 1.9297
16.6030 12.2454 1.4000
22.9090 20.2901 2.0768
21.0068 22.2538 2.0768
18.9368 24.0398 2.0768
16.6364 25.5122 2.0669
14.2148 26.7480 2.0556
11.7843 27.9416 2.0580
9.2513 28.9062 2.0597
6.6254 29.5758 2.0569
3.9602 30.0558 2.0573
1.2623 30.2950 2.0577
-1.4465 30.2863 2.0577
-4.1461 30.0536 2.0589
-6.8712 29.8211 2.0768
-2.6694 8.1691 0.5832
-3.3696 7.8559 0.5801
-4.0301 7.4733 0.5762
-16.8714 25.5317 2.0768
-12.3170 15.4419 1.3405
-21.1417 22.1255 2.0768
-23.0320 20.1504 2.0768
-22.9550 16.7156 1.9271
-24.3322 14.5864 1.9253
-25.0785 12.1348 1.8907
-25.5787 9.6657 1.8557
-25.8410 7.2054 1.8206
-25.8762 4.7771 1.7857
-25.7975 2.4111 1.7583
-25.3062 0.0967 1.7174
-24.6395 -2.1129 1.6783
-23.8138 -4.2083 1.6411
-22.8455 -6.1822 1.6061
-21.7497 -8.0292 1.5734
-20.5406 -9.7458 1.5429
-19.2315 -11.3297 1.5148
-17.8348 -12.7796 1.4890
-16.3616 -14.0951 1.4656
-14.8224 -15.2765 1.4445
-13.2264 -16.3243 1.4258
-11.5822 -17.2394 1.4094
-9.6058 -17.4913 1.3542
-8.2352 -18.8012 1.3929
-7.0110 -20.9127 1.4968
-5.0905 -21.3457 1.4892
-3.1542 -21.6395 1.4841
-1.2081 -21.7947 1.4813
0.7418 -21.8116 1.4811
2.6894 -21.6901 1.4832
4.6289 -21.4301 1.4879
6.5540 -21.0310 1.4949
8.4585 -20.4922 1.5045
10.3357 -19.8127 1.5165
12.1783 -18.9915 1.5311
13.9787 -18.0275 1.5481
15.1918 -16.3421 1.5142
15.9964 -14.3875 1.4601
17.4836 -13.1025 1.4827
18.8837 -11.6756 1.5067
20.1977 -10.1176 1.5330
21.4143 -8.4298 1.5618
22.5210 -6.6141 1.5929
23.5044 -4.6738 1.6263
24.1710 -2.5943 1.6497
24.7282 -0.4341 1.6784
24.7244 1.7786 1.6822
24.2834 3.9483 1.6696
25.8404 6.6132 1.8101
25.5151 9.0233 1.8366
24.9579 11.4246 1.8628
24.4384 13.9488 1.9096
23.2925 16.2110 1.9259
23.4575 19.6534 2.0768
21.6099 21.6685 2.0768
19.5897 23.5108 2.0768
17.3954 25.1395 2.0747
14.9565 26.3698 2.0574
12.5430 27.5987 2.0573
10.0392 28.6348 2.0592
7.4374 29.3918 2.0575
4.7839 29.9346 2.0573
2.0934 30.2472 2.0576
-0.6144 30.3156 2.0578
-3.3169 30.1332 2.0573
-6.0498 29.9985 2.0768
-2.5233 8.5064 0.6021
-3.1583 7.9598 0.5812
-3.8318 7.5979 0.5775
-4.4604 7.1706 0.5731
-18.4186 24.4390 2.0768
-20.5262 22.6977 2.0768
-22.4701 20.7751 2.0768
-22.4681 17.3248 1.9254
-23.9782 15.2845 1.9297
-24.8757 12.8912 1.9014
-25.4508 10.4246 1.8665
-25.7851 7.9590 1.8313
-9.4701 2.0187 0.6571
-25.9105 3.1415 1.7713
-25.4767 0.7973 1.7298
-24.8620 -1.4456 1.6901
-24.0835 -3.5770 1.6523
-23.1573 -5.5889 1.6167
-22.0991 -7.4754 1.5832
-20.9233 -9.2324 1.5520
-19.6436 -10.8572 1.5232
-18.2726 -12.3484 1.4967
-16.8218 -13.7052 1.4725
-15.3018 -14.9277 1.4507
-13.7223 -16.0165 1.4313
-12.0921 -16.9723 1.4142
-10.4192 -17.7961 1.3995
-8.7123 -18.4915 1.3872
-7.5970 -20.7516 1.4997
-5.6827 -21.2275 1.4913
-3.7505 -21.5640 1.4854
-1.8068 -21.7618 1.4819
0.1426 -21.8211 1.4809
2.0916 -21.7421 1.4823
4.0342 -21.5247 1.4862
5.9644 -21.1685 1.4925
7.8759 -20.6727 1.5013
9.7622 -20.0365 1.5126
11.6162 -19.2590 1.5263
13.4305 -18.3390 1.5426
15.1797 -17.2553 1.5597
15.5258 -14.7553 1.4536
17.0346 -13.5120 1.4755
18.4621 -12.1280 1.4991
17.4903 -9.3708 1.3466
21.0516 -8.9621 1.5527
22.1934 -7.1855 1.5831
23.2162 -5.2831 1.6158
24.1059 -3.2590 1.6508
24.1680 -1.0886 1.6418
24.7260 1.0974 1.6796
