ply
format ascii 1.0
element vertex 1943
property float32 x
property float32 y
property float32 z
end_header
22.6116 3.5728 -2.9780
22.9870 5.7747 -3.0832
34.5217 15.6217 -4.9292
28.4650 16.0855 -4.2532
24.0351 16.5767 -3.7981
24.7227 20.5371 -4.1810
23.9473 23.8134 -4.3933
24.3755 29.0107 -4.9292
-19.1047 9.9789 -2.8039
-19.0985 7.8938 -2.6883
-19.0927 5.9590 -2.6019
-19.0873 4.1305 -2.5405
-28.2963 3.5183 -3.7093
-24.2108 -5.7697 -3.2377
-17.1540 -5.7487 -2.3535
-15.7353 -6.8909 -2.2346
-15.7301 -8.6380 -2.3345
-15.8117 -10.6233 -2.4780
-15.7476 -12.7607 -2.6367
-15.4913 -15.0340 -2.8082
-21.9801 -25.5224 -4.3816
-18.3108 -25.5645 -4.0906
-16.2437 -27.5878 -4.1647
-15.4661 -32.6204 -4.6963
-12.1100 -32.8368 -4.5529
-12.9111 -47.7815 -6.4386
21.5572 -35.8976 -5.4471
21.5120 -29.4913 -4.7486
24.4952 -27.9496 -4.8346
28.7655 -27.4368 -5.1712
34.5580 -27.5110 -5.7461
30.8715 -20.3559 -4.8104
22.7883 -9.7455 -3.2241
22.6399 -7.3697 -3.0972
22.6334 -5.1872 -3.0206
22.6272 -3.0936 -2.9709
22.6254 -1.0521 -2.9464
22.6194 0.9719 -2.9452
22.6133 3.0106 -2.9676
22.6848 5.1149 -3.0251
36.2345 15.3449 -5.1189
30.1695 16.0922 -4.4480
24.2974 15.8986 -3.7773
24.7252 19.5415 -4.0997
24.7157 23.4083 -4.4283
24.7001 27.9842 -4.8556
-19.1065 10.5798 -2.8411
-19.1001 8.4448 -2.7167
-19.0943 6.4737 -2.6228
-19.0888 4.6202 -2.5549
-19.1677 2.8588 -2.5210
-38.1916 2.2423 -4.9768
-27.1648 -5.7785 -3.6128
-18.6643 -5.7532 -2.5407
-15.7366 -6.4395 -2.2119
-15.8189 -8.1919 -2.3174
-15.7644 -10.0432 -2.4315
-15.7197 -12.1160 -2.5818
-15.7126 -14.5227 -2.7833
-23.1373 -25.5788 -4.4868
-19.2718 -25.5673 -4.1650
-9.4136 -15.1324 -2.3183
-16.2300 -32.1831 -4.6888
-12.9381 -32.6129 -4.5641
-12.0865 -40.7611 -5.5307
21.3512 -37.6001 -5.6249
21.3613 -30.8345 -4.8796
23.3194 -27.9531 -4.7355
31.2898 -27.5207 -5.1599
37.5629 -27.5020 -5.7647
29.2276 -17.6223 -4.2261
17.7889 -6.7720 -2.3570
22.6370 -6.3708 -2.9120
22.6306 -4.2334 -2.8509
22.6245 -2.1676 -2.8143
22.6227 -0.1380 -2.8013
22.6166 1.8886 -2.8103
22.6105 3.9446 -2.8421
34.1228 16.1043 -4.6722
26.1162 15.3149 -3.7489
23.9672 17.1025 -3.6459
24.7211 21.2138 -4.0337
24.7092 25.3707 -4.3853
24.6919 30.3612 -4.8459
-9.3494 4.6945 -1.2955
-19.0974 7.5377 -2.5423
-19.0917 5.6248 -2.4645
-21.5230 4.2981 -2.7177
-28.2949 3.0590 -3.5241
-35.8421 -5.8042 -4.4960
-22.5809 -5.7648 -2.8858
-16.2766 -5.7461 -2.1374
-15.7471 -7.1987 -2.1440
-15.7291 -8.9682 -2.2420
-15.8106 -10.9940 -2.3846
-15.8039 -13.2311 -2.5522
-25.5333 -25.5859 -4.4759
-21.2764 -25.5203 -4.1143
-17.6973 -25.5627 -3.8499
-16.2406 -28.6209 -4.0749
-14.8303 -32.6185 -4.4369
-12.1031 -34.5098 -4.5285
21.3131 -42.2296 -5.8574
21.5534 -34.6231 -5.0501
21.5169 -28.5273 -4.4246
24.7360 -27.3292 -4.5644
29.5836 -27.3261 -4.9869
35.4787 -27.3277 -5.5454
28.4781 -18.1304 -4.1804
22.6918 -9.2773 -3.0356
22.6387 -6.9706 -2.9332
22.6323 -4.8069 -2.8650
22.6261 -2.7252 -2.8220
22.6243 -0.6893 -2.8028
22.6183 1.3350 -2.8056
22.6122 3.3798 -2.8311
22.8277 5.5326 -2.9085
36.4024 16.1082 -4.9292
29.0320 16.0878 -4.1100
24.0855 16.3166 -3.6024
23.9599 19.5679 -3.8306
24.2448 23.7102 -4.1991
24.6969 28.9003 -4.7073
-9.4394 24.6429 -3.2677
-19.1053 10.1830 -2.6808
-19.0991 8.0813 -2.5680
-19.0933 6.1344 -2.4833
-19.0919 4.2985 -2.4233
-28.3862 3.7702 -3.5458
-25.1513 -5.7725 -3.1954
-17.6458 -5.7502 -2.2981
-15.7357 -6.7352 -2.1195
-15.7493 -8.4783 -2.2148
-15.8122 -10.4333 -2.3458
-15.7185 -12.5213 -2.4884
-15.6706 -14.9561 -2.6824
-22.3548 -25.5235 -4.2013
-18.6362 -25.5654 -3.9175
-16.2452 -27.0712 -3.9094
-15.8012 -32.6214 -4.4883
-12.3369 -32.6111 -4.3174
-11.9136 -42.6730 -5.4861
21.3472 -36.2295 -5.2070
21.5398 -30.0528 -4.5785
24.0868 -27.9509 -4.5689
28.3845 -27.5294 -4.8963
33.9744 -27.5127 -5.4134
40.8953 -27.4577 -6.0995
22.9234 -10.0303 -3.0984
22.6406 -7.5795 -2.9564
22.6340 -5.3865 -2.8810
22.6278 -3.2863 -2.8313
22.6259 -1.2414 -2.8059
22.6199 0.7830 -2.8026
22.6139 2.8189 -2.8219
22.6580 4.9106 -2.8708
37.0994 15.3475 -4.9715
30.7901 16.0947 -4.3021
24.4548 15.7118 -3.5993
23.9627 18.6162 -3.7574
24.7166 23.0211 -4.1825
24.7017 27.5197 -4.5791
-19.1071 10.7895 -2.7171
-19.1007 8.6363 -2.5957
-19.0948 6.6521 -2.5038
-19.0893 4.7892 -2.4370
-19.0952 3.0111 -2.3937
-33.1360 2.2231 -4.1124
-28.3414 -5.7819 -3.5817
-19.2386 -5.7549 -2.4866
-15.5176 -6.1992 -2.0692
-15.8194 -8.0255 -2.1965
-15.7265 -9.8356 -2.2969
-15.7204 -11.9088 -2.4421
-15.7133 -14.2821 -2.6293
-23.5293 -25.5800 -4.3037
-19.5186 -25.4501 -3.9715
-16.2460 -25.6362 -3.7582
-16.2320 -31.5297 -4.3912
-13.2545 -32.6138 -4.3592
-12.0901 -39.5589 -5.1221
21.3534 -38.3456 -5.4348
21.5446 -31.6603 -4.7420
22.9275 -27.9543 -4.4768
27.0388 -27.5334 -4.7785
32.3374 -27.5176 -5.2578
38.5783 -27.2880 -5.8513
29.7267 -17.2669 -4.2569
22.6424 -8.1985 -2.9819
22.6358 -5.9729 -2.8989
22.6295 -3.8513 -2.8424
22.6276 -1.7950 -2.8107
22.6216 0.2318 -2.8013
22.6155 2.2614 -2.8144
22.6094 4.3265 -2.8504
32.1711 15.8313 -4.4398
25.2308 15.3554 -3.6574
17.6524 13.0371 -2.7173
24.7193 21.9240 -4.0914
24.7063 26.2116 -4.4602
24.6082 31.2897 -4.9292
-12.4947 38.0735 -4.9619
-19.1089 11.4130 -2.7561
-9.5680 4.6100 -1.3151
-19.0964 7.1787 -2.5262
-19.0907 5.2869 -2.4529
-23.8370 4.3562 -3.0005
-28.2936 2.5916 -3.5182
-32.4118 -5.7940 -4.0771
-21.1172 -5.7605 -2.7104
-15.5189 -5.7656 -2.0500
-15.8208 -7.5475 -2.1705
-15.7281 -9.3116 -2.2633
-15.7221 -11.3183 -2.3988
-15.8026 -13.6756 -2.5878
-24.7094 -25.5835 -4.4043
-20.5456 -25.4793 -4.0530
-17.0847 -25.5608 -3.8070
-16.2373 -29.7375 -4.1955
-14.2125 -32.6669 -4.4113
-12.1259 -36.4738 -4.7595
21.5725 -41.0606 -5.7434
21.5497 -33.3879 -4.9207
21.8134 -27.9576 -4.3910
25.7557 -27.5372 -4.6689
30.7909 -27.5222 -5.1138
36.8217 -27.4148 -5.6845
28.8148 -17.6895 -4.1868
17.6617 -6.8860 -2.3473
22.6375 -6.5670 -2.9187
22.6312 -4.4212 -2.8553
22.6250 -2.3505 -2.8167
22.6232 -0.3192 -2.8016
22.6172 1.7064 -2.8086
22.6111 3.7585 -2.8383
23.2734 6.0451 -2.9775
34.8459 16.1057 -4.7534
26.6045 15.3163 -3.8013
23.9994 16.8371 -3.6302
24.7219 20.8732 -4.0064
24.7106 24.9690 -4.3499
24.6936 29.8716 -4.7991
-9.3656 4.7969 -1.3030
-19.0980 7.7152 -2.5505
-19.0922 5.7915 -2.4705
-20.6724 4.3006 -2.6146
-28.2956 3.2884 -3.5273
-23.3690 -5.7672 -2.9805
-16.7050 -5.7474 -2.1875
-15.7348 -7.0414 -2.1346
-15.7296 -8.8024 -2.2320
-15.8111 -10.8077 -2.3715
-15.8046 -13.0178 -2.5354
-15.4906 -15.2760 -2.6940
-21.6259 -25.5214 -4.1422
-18.0023 -25.5636 -3.8716
-16.2422 -28.0973 -4.0187
-15.1469 -32.6194 -4.4534
-12.1688 -33.8279 -4.4516
-12.0528 -46.0664 -5.8963
21.3113 -43.0798 -5.9515
21.3432 -34.9052 -5.0662
21.3249 -28.7484 -4.4323
24.5119 -27.5212 -4.5636
29.3261 -27.5266 -4.9804
35.1291 -27.5093 -5.5250
28.3136 -18.3458 -4.1776
22.7228 -9.5030 -3.0498
22.6393 -7.1697 -2.9406
22.6329 -4.9967 -2.8700
22.6267 -2.9093 -2.8249
22.6248 -0.8706 -2.8036
22.6188 1.1534 -2.8045
22.6128 3.1950 -2.8279
22.7347 5.3178 -2.8912
36.5302 15.8162 -4.9292
29.5924 16.0900 -4.1710
24.1807 16.1002 -3.5972
23.9609 19.2510 -3.8060
24.6375 23.7113 -4.2341
24.6986 28.4380 -4.6641
16.6753 34.7952 -4.7778
-19.1059 10.3806 -2.6925
-19.0996 8.2624 -2.5769
-19.0938 6.3036 -2.4898
-19.0883 4.4586 -2.4273
-20.2630 2.8566 -2.5339
-42.1550 2.1365 -5.2266
-26.1213 -5.7753 -3.3126
-18.1420 -5.7516 -2.3567
-15.7362 -6.5869 -2.1124
-15.8090 -8.3479 -2.2137
-15.8128 -10.2529 -2.3336
-15.7191 -12.3174 -2.4729
-15.7119 -14.7570 -2.6691
-22.7666 -25.5777 -4.2401
-18.9522 -25.5664 -3.9408
-9.3009 -15.2217 -2.2089
-16.1254 -32.6223 -4.5061
-12.6365 -32.6120 -4.3308
-12.0829 -41.9785 -5.4091
21.3793 -36.9573 -5.2869
21.5413 -30.5689 -4.6307
23.7005 -27.9520 -4.5379
27.9349 -27.5307 -4.8566
33.4258 -27.5144 -5.3609
40.2494 -27.4941 -6.0358
23.2476 -10.3947 -3.1533
22.6412 -7.7817 -2.9646
22.6346 -5.5784 -2.8866
22.6283 -3.4715 -2.8348
22.6265 -1.4232 -2.8073
22.6205 0.6018 -2.8020
22.6144 2.6353 -2.8192
22.6324 4.7157 -2.8627
37.9630 15.3501 -5.0706
31.4046 16.0971 -4.3698
24.6484 15.5589 -3.6093
23.9636 18.3112 -3.7345
24.7175 22.6552 -4.1518
24.7033 27.0821 -4.5390
-19.1077 10.9925 -2.7296
-19.1013 8.8214 -2.6053
-19.0953 6.8242 -2.5110
-19.0897 4.9522 -2.4421
-26.5287 4.4012 -3.3299
-29.9351 2.2492 -3.7172
-29.5656 -5.7856 -3.7305
-19.8210 -5.7566 -2.5558
-15.5180 -6.0558 -2.0627
-15.8199 -7.8671 -2.1878
-15.7270 -9.6617 -2.2856
-15.7209 -11.7123 -2.4275
-15.7140 -14.0547 -2.6106
-23.9113 -25.5811 -4.3360
-19.8654 -25.4773 -4.0005
-16.4092 -25.4408 -3.7487
-16.2245 -30.9048 -4.3221
-13.5255 -32.5314 -4.3626
-12.0289 -38.2603 -4.9663
21.5678 -39.4707 -5.5696
21.5212 -32.1767 -4.7934
22.5565 -27.9554 -4.4480
26.6105 -27.5346 -4.7416
31.8194 -27.5191 -5.2092
38.1645 -27.4563 -5.8217
29.5953 -17.5090 -4.2580
22.6430 -8.4043 -2.9907
22.6364 -6.1672 -2.9052
22.6300 -4.0381 -2.8465
22.6281 -1.9775 -2.8126
22.6221 0.0507 -2.8012
22.6161 2.0787 -2.8123
22.6100 4.1392 -2.8462
32.1720 15.5132 -4.4227
25.6213 15.3134 -3.6961
17.8750 12.9817 -2.7355
24.7202 21.5738 -4.0628
24.7078 25.7964 -4.4231
24.7415 30.9462 -4.9061
-19.1096 11.6220 -2.7695
-9.3889 4.6166 -1.2955
-19.0969 7.3540 -2.5340
-19.0912 5.4520 -2.4585
-22.8189 4.3592 -2.8767
-28.2942 2.8202 -3.5209
-34.0080 -5.7988 -4.2719
-21.8109 -5.7625 -2.7935
-15.8505 -5.7448 -2.0877
-15.8213 -7.3929 -2.1624
-15.7286 -9.1426 -2.2527
-15.7639 -11.1579 -2.3915
-15.8033 -13.4563 -2.5702
-25.1094 -25.5847 -4.4389
-20.8852 -25.4804 -4.0796
-17.3829 -25.5617 -3.8278
-16.2390 -29.1825 -4.1354
-14.5026 -32.6175 -4.4202
-12.1023 -35.4520 -4.6387
21.4204 -41.5760 -5.7913
21.5515 -33.9848 -4.9831
21.4564 -27.9587 -4.3640
25.3466 -27.5384 -4.6345
30.0693 -27.3133 -5.0302
36.3329 -27.5057 -5.6428
28.5151 -17.8212 -4.1638
22.6598 -9.0443 -3.0211
22.6381 -6.7641 -2.9257
22.6317 -4.6097 -2.8600
22.6256 -2.5338 -2.8192
22.6237 -0.5003 -2.8021
22.6177 1.5245 -2.8070
22.6116 3.5728 -2.8347
22.9870 5.7747 -2.9348
35.5946 16.1072 -4.8378
28.4650 16.0855 -4.0486
24.0351 16.5767 -3.6154
24.7227 20.5371 -3.9798
23.9473 23.8134 -4.1819
24.6952 29.3912 -4.7536
-19.1047 9.9789 -2.6689
-19.0985 7.8938 -2.5589
-19.0927 5.9590 -2.4767
-19.8842 4.3029 -2.5192
-28.2963 3.5183 -3.5308
-24.2108 -5.7697 -3.0819
-17.1540 -5.7487 -2.2402
-15.7353 -6.8909 -2.1271
-15.7301 -8.6380 -2.2222
-15.8117 -10.6233 -2.3588
-15.7476 -12.7607 -2.5098
-15.4913 -15.0340 -2.6731
-21.9801 -25.5224 -4.1708
-18.3108 -25.5645 -3.8938
-16.2437 -27.5878 -3.9643
-15.4661 -32.6204 -4.4703
-12.1100 -32.8369 -4.3338
-11.3343 -41.9459 -5.3803
21.3139 -43.9674 -6.0503
21.5572 -35.8976 -5.1850
21.5120 -29.4913 -4.5201
24.4952 -27.9496 -4.6020
28.7655 -27.4368 -4.9224
34.5580 -27.5110 -5.4696
29.3356 -19.3432 -4.3511
22.7883 -9.7455 -3.0690
22.6399 -7.3697 -2.9482
22.6334 -5.1872 -2.8753
22.6272 -3.0936 -2.8279
22.6254 -1.0521 -2.8047
22.6194 0.9719 -2.8035
22.6133 3.0106 -2.8248
22.6848 5.1149 -2.8795
36.6557 15.5233 -4.9292
30.1696 16.0922 -4.2340
24.2974 15.8986 -3.5955
23.9618 18.9382 -3.7819
24.7157 23.4083 -4.2152
24.7001 27.9842 -4.6219
-19.1065 10.5798 -2.7044
-19.1001 8.4448 -2.5860
-19.0943 6.4738 -2.4966
-19.0888 4.6202 -2.4320
-19.1677 2.8588 -2.3997
-37.3318 2.1918 -4.6306
-27.1648 -5.7785 -3.4390
-18.6643 -5.7532 -2.4184
-15.7366 -6.4395 -2.1055
-15.8189 -8.1919 -2.2059
-15.7644 -10.0432 -2.3145
-15.7197 -12.1160 -2.4576
-15.7126 -14.5227 -2.6494
-23.1373 -25.5788 -4.2709
-19.2718 -25.5673 -3.9646
-9.4134 -15.1320 -2.2067
-16.2300 -32.1831 -4.4632
-12.9381 -32.6129 -4.3445
-12.0865 -40.7611 -5.2645
21.3512 -37.6001 -5.3542
21.3613 -30.8345 -4.6449
23.3194 -27.9531 -4.5077
31.2898 -27.5207 -4.8995
37.5629 -27.5020 -5.4738
29.2319 -17.6249 -4.0134
17.7883 -6.7718 -2.2379
22.6370 -6.3708 -2.7650
22.6306 -4.2334 -2.7070
22.6245 -2.1676 -2.6723
22.6227 -0.1380 -2.6600
22.6166 1.8886 -2.6684
22.6105 3.9446 -2.6986
34.1228 16.1043 -4.4364
26.1162 15.3149 -3.5597
23.9672 17.1025 -3.4619
23.9570 20.5581 -3.7117
24.7092 25.3707 -4.1640
24.6919 30.3613 -4.6013
-9.3492 4.6944 -1.2300
-19.0974 7.5377 -2.4140
-19.0917 5.6248 -2.3401
-21.5230 4.2981 -2.5806
-28.2949 3.0590 -3.3462
-35.8421 -5.8042 -4.2691
-22.5809 -5.7648 -2.7401
-16.2766 -5.7461 -2.0295
-15.7471 -7.1987 -2.0358
-15.7291 -8.9682 -2.1289
-15.8106 -10.9941 -2.2642
-15.8039 -13.2311 -2.4234
-25.5333 -25.5859 -4.2500
-21.2764 -25.5203 -3.9066
-17.6972 -25.5627 -3.6556
-16.2406 -28.6209 -3.8692
-14.8303 -32.6185 -4.2130
-12.1031 -34.5098 -4.2999
-11.3030 -44.6576 -5.4163
21.4189 -42.4392 -5.5894
21.5534 -34.6232 -4.7952
21.5353 -28.5517 -4.2049
24.7360 -27.3292 -4.3340
29.7991 -27.5251 -4.7697
35.4787 -27.3277 -5.2655
28.4788 -18.1308 -3.9695
22.6918 -9.2773 -2.8824
22.6387 -6.9706 -2.7851
22.6323 -4.8069 -2.7204
22.6261 -2.7252 -2.6795
22.6243 -0.6893 -2.6613
22.6183 1.3350 -2.6640
22.6122 3.3798 -2.6882
22.8277 5.5326 -2.7617
36.4038 16.1088 -4.6806
27.6455 15.3194 -3.7162
24.0855 16.3166 -3.4206
23.9599 19.5680 -3.6373
24.2448 23.7102 -3.9872
24.6969 28.9003 -4.4697
-9.4391 24.6421 -3.1026
-19.1053 10.1830 -2.5455
-19.0991 8.0813 -2.4384
-19.0933 6.1344 -2.3580
-19.0919 4.2985 -2.3010
-21.4725 2.8519 -2.5468
-46.0303 1.9637 -5.4170
-25.1512 -5.7725 -3.0341
-17.6458 -5.7502 -2.1821
-15.7357 -6.7352 -2.0125
-15.7493 -8.4783 -2.1030
-15.8122 -10.4333 -2.2274
-15.7185 -12.5213 -2.3628
-15.6706 -14.9561 -2.5470
-22.3548 -25.5235 -3.9893
-18.6362 -25.5654 -3.7198
-16.2452 -27.0712 -3.7121
-15.8012 -32.6214 -4.2618
-12.3369 -32.6111 -4.0995
-11.9136 -42.6730 -5.2092
21.3472 -36.2295 -4.9442
21.5398 -30.0528 -4.3474
24.0868 -27.9509 -4.3383
28.3845 -27.5294 -4.6492
33.9744 -27.5127 -5.1402
31.5073 -21.1544 -4.4621
22.9234 -10.0303 -2.9420
22.6406 -7.5795 -2.8072
22.6340 -5.3865 -2.7356
22.6278 -3.2863 -2.6884
22.6259 -1.2414 -2.6643
22.6199 0.7830 -2.6612
22.6139 2.8189 -2.6794
22.6580 4.9106 -2.7259
38.7391 16.0258 -4.9292
30.7901 16.0947 -4.0850
24.4547 15.7118 -3.4176
23.9627 18.6162 -3.5678
24.7166 23.0211 -3.9714
24.7017 27.5197 -4.3480
-19.1071 10.7895 -2.5800
-19.1007 8.6363 -2.4647
-19.0948 6.6521 -2.3774
-19.0893 4.7892 -2.3140
-19.0952 3.0111 -2.2729
-33.1360 2.2231 -3.9048
-28.3414 -5.7819 -3.4009
-19.2386 -5.7549 -2.3611
-15.5176 -6.1992 -1.9647
-15.8194 -8.0255 -2.0857
-15.7265 -9.8356 -2.1809
-15.7204 -11.9088 -2.3188
-15.7133 -14.2821 -2.4966
-23.5293 -25.5800 -4.0865
-19.5186 -25.4501 -3.7710
-16.2460 -25.6362 -3.5685
-16.2320 -31.5297 -4.1696
-13.2545 -32.6138 -4.1392
-12.0901 -39.5589 -4.8636
21.3534 -38.3455 -5.1605
21.3326 -31.3488 -4.4584
22.9275 -27.9543 -4.2509
27.0388 -27.5334 -4.5373
32.3014 -27.4870 -4.9869
38.8754 -27.4981 -5.5988
29.7311 -17.2695 -4.0426
22.6424 -8.1985 -2.8314
22.6358 -5.9729 -2.7525
22.6295 -3.8513 -2.6990
22.6276 -1.7950 -2.6688
22.6216 0.2318 -2.6599
22.6155 2.2614 -2.6723
22.6094 4.3265 -2.7066
32.1711 15.8313 -4.2158
25.2308 15.3554 -3.4728
17.6520 13.0367 -2.5801
23.9549 21.2461 -3.7647
24.7063 26.2116 -4.2351
-12.4947 38.0735 -4.7115
-19.1089 11.4130 -2.6170
-9.5642 4.6081 -1.2482
-19.0964 7.1787 -2.3987
-19.0907 5.2869 -2.3291
-23.8370 4.3562 -2.8491
-28.2936 2.5916 -3.3406
-32.4118 -5.7940 -3.8713
-21.1172 -5.7605 -2.5736
-15.5189 -5.7656 -1.9465
-15.8208 -7.5475 -2.0610
-15.7281 -9.3116 -2.1491
-15.7221 -11.3183 -2.2777
-15.8026 -13.6756 -2.4572
-24.7094 -25.5835 -4.1820
-20.5456 -25.4793 -3.8484
-17.0847 -25.5608 -3.6149
-16.2373 -29.7375 -3.9837
-14.2125 -32.6669 -4.1887
-12.1259 -36.4738 -4.5193
21.5725 -41.0606 -5.4535
21.5497 -33.3879 -4.6723
21.8134 -27.9576 -4.1694
25.7557 -27.5372 -4.4332
30.7909 -27.5222 -4.8557
36.8217 -27.4148 -5.3976
28.8155 -17.6899 -3.9755
17.6613 -6.8858 -2.2288
22.6375 -6.5670 -2.7714
22.6312 -4.4212 -2.7112
22.6250 -2.3505 -2.6745
22.6232 -0.3192 -2.6602
22.6172 1.7064 -2.6668
22.6111 3.7585 -2.6950
23.2734 6.0451 -2.8272
34.8459 16.1057 -4.5135
26.6045 15.3163 -3.6094
23.9994 16.8371 -3.4469
23.9579 20.2281 -3.6867
24.7106 24.9690 -4.1304
24.6936 29.8716 -4.5569
-9.3653 4.7967 -1.2372
-19.0980 7.7152 -2.4218
-19.0922 5.7915 -2.3458
-20.6724 4.3006 -2.4826
-28.2956 3.2884 -3.3493
-23.3689 -5.7672 -2.8301
-16.7050 -5.7474 -2.0771
-15.7348 -7.0414 -2.0269
-15.7296 -8.8024 -2.1193
-15.8111 -10.8077 -2.2518
-15.8046 -13.0178 -2.4075
-15.4906 -15.2760 -2.5580
-21.6259 -25.5214 -3.9332
-18.0023 -25.5636 -3.6762
-16.2422 -28.0973 -3.8159
-15.1469 -32.6194 -4.2286
-12.1688 -33.8279 -4.2269
-11.9052 -45.5025 -5.5301
21.5802 -43.6234 -5.7224
21.3432 -34.9052 -4.8105
21.5368 -29.0341 -4.2504
24.5119 -27.5212 -4.3332
29.3261 -27.5266 -4.7291
35.1291 -27.5093 -5.2461
28.3142 -18.3463 -3.9669
22.7228 -9.5030 -2.8959
22.6393 -7.1697 -2.7922
22.6329 -4.9967 -2.7252
22.6267 -2.9093 -2.6823
22.6248 -0.8706 -2.6621
22.6188 1.1534 -2.6629
22.6128 3.1950 -2.6851
22.7347 5.3178 -2.7452
37.2096 16.1104 -4.7675
28.1781 15.3210 -3.7712
24.1807 16.1002 -3.4157
23.9609 19.2510 -3.6139
24.6375 23.7113 -4.0204
24.6986 28.4380 -4.4287
16.6753 34.7952 -4.5367
-19.1059 10.3806 -2.5566
-19.0996 8.2624 -2.4468
-19.0938 6.3036 -2.3642
-19.0883 4.4586 -2.3048
-28.3869 4.0019 -3.3706
-42.4070 2.1493 -4.9925
-26.1213 -5.7753 -3.1454
-18.1420 -5.7516 -2.2377
-15.7362 -6.5869 -2.0058
-15.8090 -8.3479 -2.1020
-15.8128 -10.2529 -2.2158
-15.7191 -12.3174 -2.3480
-15.7119 -14.7570 -2.5344
-22.7666 -25.5777 -4.0261
-18.9522 -25.5664 -3.7419
-9.3007 -15.2212 -2.0973
-16.1254 -32.6223 -4.2787
-12.6365 -32.6120 -4.1122
-12.0829 -41.9785 -5.1361
21.5613 -37.2719 -5.0628
21.5413 -30.5689 -4.3970
23.7006 -27.9520 -4.3089
27.9349 -27.5307 -4.6115
33.4257 -27.5144 -5.0903
40.2494 -27.4941 -5.7311
23.2476 -10.3947 -2.9942
22.6412 -7.7817 -2.8149
22.6346 -5.5784 -2.7409
22.6283 -3.4715 -2.6917
22.6265 -1.4232 -2.6656
22.6205 0.6018 -2.6606
22.6144 2.6353 -2.6769
22.6324 4.7157 -2.7182
38.8661 15.7152 -4.9292
31.4046 16.0971 -4.1493
24.6484 15.5589 -3.4272
23.9636 18.3112 -3.5460
23.9528 21.9544 -3.8203
24.7033 27.0821 -4.3099
-19.1077 10.9925 -2.5919
-19.1013 8.8214 -2.4738
-19.0953 6.8242 -2.3842
-19.0897 4.9522 -2.3188
-26.5287 4.4012 -3.1618
-29.9351 2.2492 -3.5296
-29.5656 -5.7856 -3.5422
-19.8210 -5.7566 -2.4268
-15.5180 -6.0558 -1.9586
-15.8199 -7.8671 -2.0774
-15.7270 -9.6617 -2.1702
-15.7209 -11.7123 -2.3050
-15.7140 -14.0547 -2.4788
-23.9113 -25.5811 -4.1171
-19.8654 -25.4773 -3.7985
-16.4092 -25.4408 -3.5595
-16.2245 -30.9048 -4.1040
-13.5255 -32.5314 -4.1424
-12.0457 -38.3139 -4.7223
21.5612 -39.4586 -5.2869
21.5212 -32.1767 -4.5515
22.5565 -27.9554 -4.2235
26.6105 -27.5346 -4.5023
31.8194 -27.5191 -4.9463
38.1645 -27.4563 -5.5278
29.5997 -17.5116 -4.0437
22.6430 -8.4043 -2.8398
22.6364 -6.1672 -2.7585
22.6300 -4.0381 -2.7028
22.6281 -1.9775 -2.6707
22.6221 0.0507 -2.6598
22.6161 2.0787 -2.6703
22.6100 4.1392 -2.7026
32.1720 15.5132 -4.1995
25.6214 15.3134 -3.5095
17.8731 12.9804 -2.5972
23.9559 20.9068 -3.7385
24.7078 25.7964 -4.1999
24.7415 30.9463 -4.6585
-19.1096 11.6220 -2.6297
-9.3886 4.6165 -1.2301
-19.0969 7.3540 -2.4061
-19.0912 5.4520 -2.3344
-22.8189 4.3592 -2.7315
-28.2942 2.8202 -3.3432
-34.0080 -5.7988 -4.0563
-21.8109 -5.7625 -2.6525
-15.8505 -5.7448 -1.9823
-15.8213 -7.3929 -2.0533
-15.7286 -9.1426 -2.1390
-15.7639 -11.1579 -2.2708
-15.8033 -13.4564 -2.4404
-25.1094 -25.5847 -4.2149
-20.8852 -25.4804 -3.8737
-17.3829 -25.5617 -3.6346
-16.2390 -29.1825 -3.9267
-14.5026 -32.6175 -4.1971
-12.1023 -35.4519 -4.4045
21.4204 -41.5760 -5.4990
21.5515 -33.9848 -4.7316
21.4565 -27.9587 -4.1438
25.3466 -27.5384 -4.4006
30.1079 -27.3483 -4.7824
36.3329 -27.5057 -5.3580
28.6505 -17.9059 -3.9724
22.6598 -9.0442 -2.8686
22.6381 -6.7641 -2.7780
22.6317 -4.6097 -2.7156
22.6256 -2.5338 -2.6769
22.6237 -0.5003 -2.6607
22.6177 1.5245 -2.6654
22.6116 3.5728 -2.6916
22.9870 5.7747 -2.7867
35.5946 16.1072 -4.5937
27.1065 15.3178 -3.6608
24.0351 16.5767 -3.4329
23.9589 19.9026 -3.6622
23.9473 23.8134 -3.9708
24.6952 29.3912 -4.5136
-19.1047 9.9789 -2.5342
-19.0985 7.8938 -2.4298
-19.0927 5.9590 -2.3517
-19.8842 4.3029 -2.3920
-28.2963 3.5183 -3.3526
-24.2108 -5.7697 -2.9263
-17.1540 -5.7487 -2.1272
-15.7353 -6.8909 -2.0197
-15.7301 -8.6380 -2.1100
-15.8117 -10.6233 -2.2397
-15.7476 -12.7607 -2.3831
-15.4913 -15.0340 -2.5381
-21.9801 -25.5224 -3.9603
-18.3108 -25.5645 -3.6973
-16.2437 -27.5878 -3.7642
-15.4661 -32.6204 -4.2447
-12.1100 -32.8369 -4.1151
-11.9095 -44.0746 -5.3680
21.4846 -44.3196 -5.7910
21.5572 -35.8976 -4.9233
21.5120 -29.4913 -4.2920
24.4952 -27.9496 -4.3697
28.7655 -27.4368 -4.6739
34.5580 -27.5110 -5.1935
22.7883 -9.7455 -2.9141
22.6399 -7.3697 -2.7994
22.6334 -5.1872 -2.7302
22.6272 -3.0936 -2.6852
22.6254 -1.0521 -2.6631
22.6194 0.9719 -2.6620
22.6133 3.0106 -2.6823
22.6848 5.1149 -2.7342
38.0461 16.1121 -4.8579
28.7267 15.3226 -3.8280
24.2974 15.8986 -3.4140
23.9618 18.9382 -3.5910
24.7157 23.4083 -4.0025
24.7001 27.9842 -4.3886
-19.1065 10.5798 -2.5679
-19.1001 8.4448 -2.4554
-19.0943 6.4737 -2.3706
-19.0888 4.6202 -2.3092
-19.1677 2.8588 -2.2786
-37.3745 2.1944 -4.4020
-27.1648 -5.7785 -3.2654
-18.6643 -5.7532 -2.2964
-15.7366 -6.4395 -1.9992
-15.8189 -8.1919 -2.0945
-15.7644 -10.0432 -2.1977
-15.7197 -12.1160 -2.3336
-15.7126 -14.5227 -2.5157
-23.1373 -25.5788 -4.0553
-19.2718 -25.5673 -3.7645
-9.4131 -15.1316 -2.0953
-16.2300 -32.1831 -4.2379
-12.9381 -32.6129 -4.1253
-12.0482 -40.6321 -4.9830
21.3512 -37.6001 -5.0840
21.3613 -30.8345 -4.4104
23.3194 -27.9531 -4.2801
31.2898 -27.5207 -4.6395
37.5629 -27.5020 -5.1832
30.1649 -18.1874 -3.9217
17.7876 -6.7716 -2.1191
22.6370 -6.3708 -2.6182
22.6306 -4.2334 -2.5633
22.6245 -2.1676 -2.5305
22.6227 -0.1381 -2.5188
22.6166 1.8886 -2.5268
22.6105 3.9446 -2.5554
34.1228 16.1043 -4.2010
26.1162 15.3149 -3.3708
23.9672 17.1025 -3.2781
23.9570 20.5581 -3.5147
23.9450 24.5860 -3.8210
24.6919 30.3613 -4.3571
8.3511 34.7694 -3.9812
5.1442 34.9089 -3.9286
-9.3490 4.6943 -1.1647
-19.0974 7.5377 -2.2859
-19.0917 5.6248 -2.2159
-21.5230 4.2981 -2.4436
-28.2949 3.0590 -3.1686
-35.8421 -5.8042 -4.0425
-22.5809 -5.7648 -2.5947
-16.2766 -5.7461 -1.9218
-15.7471 -7.1987 -1.9277
-15.7291 -8.9682 -2.0159
-15.8106 -10.9940 -2.1440
-15.8039 -13.2311 -2.2948
-25.5333 -25.5859 -4.0245
-21.2764 -25.5203 -3.6993
-17.6972 -25.5627 -3.4615
-16.2406 -28.6209 -3.6638
-14.8303 -32.6185 -3.9894
-12.1031 -34.5098 -4.0716
-11.9007 -47.0190 -5.4000
21.3953 -42.3925 -5.2869
21.5534 -34.6232 -4.5407
21.5353 -28.5517 -3.9817
24.7360 -27.3292 -4.1040
29.7991 -27.5251 -4.5165
35.4787 -27.3277 -4.9860
28.5403 -18.1699 -3.7669
22.6918 -9.2773 -2.7294
22.6387 -6.9706 -2.6373
22.6323 -4.8069 -2.5760
22.6261 -2.7252 -2.5373
22.6243 -0.6893 -2.5201
22.6183 1.3350 -2.5226
22.6122 3.3797 -2.5455
22.8277 5.5326 -2.6151
36.4038 16.1088 -4.4321
27.6455 15.3194 -3.5189
24.0855 16.3166 -3.2390
23.9599 19.5680 -3.4442
23.9485 23.4204 -3.7294
24.6969 28.9003 -4.2325
9.2575 34.7892 -4.0081
5.9953 34.7878 -3.9302
-9.4388 24.6412 -2.9378
-19.1053 10.1830 -2.4104
-19.0991 8.0813 -2.3089
-19.0933 6.1344 -2.2328
-19.0919 4.2985 -2.1788
-28.3862 3.7702 -3.1882
-46.8942 2.0005 -5.2258
-25.1513 -5.7725 -2.8731
-17.6458 -5.7502 -2.0663
-15.7357 -6.7352 -1.9057
-15.7493 -8.4783 -1.9914
-15.8122 -10.4333 -2.1092
-15.7185 -12.5213 -2.2374
-15.6706 -14.9561 -2.4118
-22.3548 -25.5235 -3.7776
-18.6362 -25.5654 -3.5224
-16.2452 -27.0712 -3.5151
-15.8012 -32.6214 -4.0356
-12.3369 -32.6111 -3.8819
-11.9136 -42.6730 -4.9327
21.3472 -36.2295 -4.6818
21.5398 -30.0528 -4.1166
24.0868 -27.9509 -4.1080
28.3845 -27.5294 -4.4024
33.9744 -27.5127 -4.8673
31.3936 -21.0781 -4.2100
22.9234 -10.0303 -2.7858
22.6406 -7.5795 -2.6582
22.6340 -5.3865 -2.5904
22.6278 -3.2863 -2.5457
22.6259 -1.2414 -2.5229
22.6199 0.7830 -2.5199
22.6139 2.8189 -2.5372
22.6580 4.9106 -2.5812
38.9521 16.1139 -4.6932
29.3165 15.3244 -3.6830
24.4548 15.7118 -3.2362
23.9627 18.6162 -3.3784
23.9518 22.3087 -3.6442
24.7017 27.5197 -4.1172
6.8674 34.7667 -3.9456
-19.1071 10.7895 -2.4431
-19.1007 8.6363 -2.3339
-19.0948 6.6521 -2.2513
-19.0893 4.7892 -2.1912
-19.0952 3.0111 -2.1523
-33.1360 2.2231 -3.6975
-28.3414 -5.7819 -3.2204
-19.2386 -5.7549 -2.2357
-15.5176 -6.1992 -1.8604
-15.8194 -8.0255 -1.9750
-15.7265 -9.8356 -2.0652
-15.7204 -11.9088 -2.1958
-15.7133 -14.2821 -2.3641
-23.5293 -25.5800 -3.8696
-19.5186 -25.4501 -3.5709
-16.2460 -25.6362 -3.3791
-16.2320 -31.5297 -3.9483
-13.2545 -32.6138 -3.9195
-12.0901 -39.5589 -4.6055
21.3534 -38.3455 -4.8866
21.5446 -31.6603 -4.2637
22.9275 -27.9543 -4.0253
26.8322 -27.3229 -4.2636
32.3374 -27.5176 -4.7274
38.8754 -27.4981 -5.3016
29.7355 -17.2720 -3.8286
22.6424 -8.1985 -2.6811
22.6358 -5.9729 -2.6064
22.6295 -3.8513 -2.5557
22.6276 -1.7950 -2.5272
22.6216 0.2318 -2.5187
22.6155 2.2614 -2.5305
22.6094 4.3265 -2.5629
32.1711 15.8313 -3.9920
25.2308 15.3554 -3.2884
17.6515 13.0364 -2.4431
23.9549 21.2461 -3.5649
24.7063 26.2116 -4.0103
7.7511 34.7647 -3.9656
-12.4947 38.0735 -4.4614
-19.1089 11.4130 -2.4781
-9.5603 4.6062 -1.1815
-19.0964 7.1787 -2.2714
-19.0907 5.2869 -2.2055
-23.8371 4.3562 -2.6979
-28.2936 2.5916 -3.1633
-32.4118 -5.7940 -3.6658
-21.1172 -5.7605 -2.4370
-15.5189 -5.7656 -1.8432
-15.8208 -7.5475 -1.9516
-15.7281 -9.3116 -2.0350
-15.7221 -11.3183 -2.1568
-15.8026 -13.6756 -2.3268
-24.7094 -25.5835 -3.9600
-20.5456 -25.4793 -3.6442
-17.0846 -25.5608 -3.4230
-16.2373 -29.7375 -3.7723
-14.2125 -32.6669 -3.9663
-12.1259 -36.4738 -4.2794
21.5725 -41.0606 -5.1641
21.5497 -33.3879 -4.4243
21.8134 -27.9576 -3.9481
25.5589 -27.3267 -4.1658
30.7909 -27.5222 -4.5980
36.8217 -27.4148 -5.1111
29.5238 -18.1247 -3.8571
17.6609 -6.8857 -2.1105
22.6375 -6.5670 -2.6243
22.6312 -4.4212 -2.5673
22.6250 -2.3505 -2.5325
22.6232 -0.3192 -2.5190
22.6172 1.7064 -2.5253
22.6111 3.7584 -2.5520
23.2734 6.0451 -2.6772
34.8460 16.1057 -4.2740
26.6045 15.3163 -3.4178
23.9994 16.8371 -3.2640
23.9579 20.2281 -3.4910
23.9462 24.1966 -3.7902
24.6936 29.8716 -4.3150
8.6474 34.7748 -3.9896
-9.3649 4.7965 -1.1715
-19.0980 7.7152 -2.2932
-19.0922 5.7915 -2.2213
-20.6724 4.3006 -2.3509
-28.2956 3.2884 -3.1715
-23.3689 -5.7672 -2.6799
-16.7050 -5.7474 -1.9669
-15.7348 -7.0414 -1.9193
-15.7296 -8.8024 -2.0068
-15.8111 -10.8077 -2.1323
-15.8046 -13.0178 -2.2797
-15.4906 -15.2760 -2.4222
-21.6259 -25.5214 -3.7244
-18.0023 -25.5636 -3.4811
-16.2422 -28.0973 -3.6133
-15.1469 -32.6194 -4.0042
-12.1688 -33.8279 -4.0026
-9.2287 -35.2726 -4.0593
21.5802 -43.6234 -5.4187
21.3432 -34.9052 -4.5551
21.5368 -29.0341 -4.0248
24.5119 -27.5212 -4.1032
29.3261 -27.5266 -4.4781
35.1291 -27.5093 -4.9677
31.0042 -20.0892 -4.1132
22.7228 -9.5030 -2.7422
22.6393 -7.1697 -2.6440
22.6329 -4.9967 -2.5805
22.6267 -2.9093 -2.5399
22.6248 -0.8706 -2.5208
22.6188 1.1534 -2.5216
22.6128 3.1950 -2.5426
22.7347 5.3178 -2.5995
37.2096 16.1104 -4.5144
28.1781 15.3210 -3.5710
24.1807 16.1002 -3.2344
23.9609 19.2510 -3.4221
23.9496 23.0492 -3.7007
24.6986 28.4380 -4.1936
16.6753 34.7952 -4.2959
9.5606 34.8049 -4.0186
6.2810 34.7799 -3.9349
-19.1059 10.3806 -2.4209
-19.0996 8.2624 -2.3169
-19.0938 6.3036 -2.2387
-19.0883 4.4586 -2.1824
-28.3869 4.0019 -3.1917
-41.1506 2.0856 -4.5874
-26.1213 -5.7753 -2.9785
-18.1420 -5.7516 -2.1189
-15.7362 -6.5869 -1.8993
-15.8090 -8.3479 -1.9904
-15.8128 -10.2529 -2.0982
-15.7191 -12.3174 -2.2234
-15.7119 -14.7570 -2.3999
-22.7666 -25.5777 -3.8124
-18.9522 -25.5664 -3.5433
-9.3004 -15.2208 -1.9859
-16.1254 -32.6223 -4.0516
-12.6365 -32.6120 -3.8940
-12.0044 -41.7058 -4.8319
21.5613 -37.2719 -4.7940
21.5413 -30.5689 -4.1636
23.7006 -27.9520 -4.0802
27.9349 -27.5307 -4.3667
33.4257 -27.5144 -4.8201
31.2372 -21.3379 -4.2118
23.2476 -10.3947 -2.8352
22.6412 -7.7817 -2.6655
22.6346 -5.5784 -2.5955
22.6283 -3.4715 -2.5488
22.6265 -1.4232 -2.5241
22.6205 0.6018 -2.5194
22.6144 2.6353 -2.5348
22.6324 4.7157 -2.5739
29.9004 15.3261 -3.7408
24.6484 15.5589 -3.2453
23.9636 18.3112 -3.3578
23.9528 21.9544 -3.6175
24.7033 27.0821 -4.0812
7.1568 34.7654 -3.9518
-19.1077 10.9925 -2.4543
-19.1013 8.8214 -2.3425
-19.0953 6.8242 -2.2577
-19.0897 4.9522 -2.1957
-26.5287 4.4012 -2.9940
-29.9351 2.2492 -3.3423
-29.5656 -5.7856 -3.3542
-19.8210 -5.7566 -2.2980
-15.5180 -6.0558 -1.8546
-15.8199 -7.8671 -1.9671
-15.7270 -9.6616 -2.0550
-15.7209 -11.7123 -2.1827
-15.7140 -14.0547 -2.3472
-23.9113 -25.5811 -3.8986
-19.8654 -25.4773 -3.5969
-16.4092 -25.4408 -3.3706
-16.2245 -30.9048 -3.8862
-13.5255 -32.5314 -3.9225
-12.0457 -38.3139 -4.4716
21.5678 -39.4707 -5.0078
21.5212 -32.1767 -4.3099
22.5565 -27.9554 -3.9993
26.4072 -27.3242 -4.2307
31.8194 -27.5191 -4.6838
23.7659 -17.0976 -3.2596
29.6042 -17.5142 -3.8296
22.6430 -8.4043 -2.6890
22.6364 -6.1672 -2.6121
22.6300 -4.0381 -2.5593
22.6281 -1.9775 -2.5289
22.6221 0.0507 -2.5187
22.6161 2.0787 -2.5286
22.6100 4.1392 -2.5591
32.1720 15.5132 -3.9766
25.6213 15.3134 -3.3233
17.8713 12.9790 -2.4591
23.9559 20.9068 -3.5400
24.7078 25.7964 -3.9769
24.7415 30.9463 -4.4112
8.0438 34.7642 -3.9728
-19.1096 11.6220 -2.4902
-9.3883 4.6163 -1.1648
-19.0969 7.3540 -2.2784
-19.0912 5.4520 -2.2105
-22.8189 4.3592 -2.5865
-28.2942 2.8202 -3.1658
-34.0080 -5.7988 -3.8410
-21.8109 -5.7625 -2.5117
-15.8505 -5.7448 -1.8771
-15.8213 -7.3929 -1.9443
-15.7286 -9.1426 -2.0255
-15.7639 -11.1579 -2.1503
-15.8033 -13.4563 -2.3109
-25.1094 -25.5847 -3.9912
-20.8852 -25.4804 -3.6681
-17.3829 -25.5617 -3.4417
-16.2390 -29.1825 -3.7182
-14.5026 -32.6175 -3.9743
-12.1023 -35.4520 -4.1708
21.4204 -41.5760 -5.2072
21.3395 -33.6504 -4.4363
21.4565 -27.9587 -3.9238
25.1529 -27.3279 -4.1352
30.1079 -27.3484 -4.5286
36.0552 -27.2955 -5.0348
22.6598 -9.0442 -2.7164
22.6381 -6.7641 -2.6306
22.6317 -4.6097 -2.5715
22.6256 -2.5338 -2.5348
22.6237 -0.5003 -2.5195
22.6177 1.5245 -2.5239
22.6116 3.5729 -2.5487
22.9870 5.7747 -2.6388
35.5946 16.1072 -4.3498
27.1065 15.3178 -3.4665
24.0351 16.5767 -3.2507
23.9589 19.9026 -3.4678
23.9473 23.8134 -3.7601
24.3946 29.0333 -4.2220
8.9450 34.7803 -3.9983
5.7007 34.8111 -3.9274
-19.1047 9.9789 -2.3997
-19.0985 7.8938 -2.3008
-19.0927 5.9590 -2.2268
-19.8842 4.3029 -2.2651
-22.9028 2.8477 -2.5696
-24.2108 -5.7697 -2.7710
-17.1540 -5.7487 -2.0143
-15.7353 -6.8909 -1.9125
-15.7301 -8.6380 -1.9980
-15.8117 -10.6233 -2.1208
-15.7476 -12.7607 -2.2567
-15.4913 -15.0340 -2.4034
-21.9801 -25.5224 -3.7501
-18.3108 -25.5645 -3.5010
-16.2437 -27.5879 -3.5644
-15.4661 -32.6204 -4.0194
-12.1100 -32.8368 -3.8966
-11.9095 -44.0746 -5.0831
21.4846 -44.3196 -5.4836
21.5572 -35.8976 -4.6620
21.5120 -29.4913 -4.0642
24.4952 -27.9496 -4.1378
28.7655 -27.4368 -4.4259
34.5580 -27.5110 -4.9179
31.5567 -20.8077 -4.2084
22.7883 -9.7455 -2.7594
22.6399 -7.3697 -2.6508
22.6334 -5.1872 -2.5853
22.6272 -3.0936 -2.5427
22.6254 -1.0521 -2.5217
22.6194 0.9719 -2.5207
22.6133 3.0106 -2.5399
22.6848 5.1149 -2.5891
38.0460 16.1121 -4.6001
28.7267 15.3226 -3.6249
24.2974 15.8986 -3.2328
23.9618 18.9382 -3.4004
23.9507 22.6838 -3.6727
24.7001 27.9842 -4.1557
9.8655 34.8209 -4.0294
6.5678 34.7735 -3.9400
-19.1065 10.5798 -2.4316
-19.1001 8.4448 -2.3251
-19.0943 6.4738 -2.2447
-19.0888 4.6202 -2.1866
-19.1678 2.8588 -2.1577
-37.3745 2.1944 -4.1683
-27.1648 -5.7785 -3.0921
-18.6643 -5.7532 -2.1745
-15.7366 -6.4395 -1.8931
-15.8189 -8.1919 -1.9834
-15.7644 -10.0432 -2.0811
-15.7197 -12.1160 -2.2097
-15.7126 -14.5227 -2.3822
-23.1373 -25.5788 -3.8401
-19.2718 -25.5673 -3.5647
-9.4129 -15.1313 -1.9840
-16.2300 -32.1831 -4.0130
-12.9381 -32.6129 -3.9063
-12.0482 -40.6321 -4.7185
21.3512 -37.6001 -4.8141
21.3613 -30.8345 -4.1763
23.3194 -27.9531 -4.0530
31.2898 -27.5207 -4.3798
37.5629 -27.5020 -4.8931
30.1681 -18.1894 -3.7025
17.7870 -6.7713 -2.0004
22.6715 -6.3805 -2.4754
23.1506 -4.3306 -2.4754
22.6245 -2.1676 -2.3888
23.3882 -0.1427 -2.4582
23.3809 1.9524 -2.4660
23.1582 4.0402 -2.4708
32.4903 15.3338 -3.7761
26.1162 15.3149 -3.1821
23.9672 17.1025 -3.0946
23.9570 20.5581 -3.3180
23.9450 24.5860 -3.6071
24.6919 30.3612 -4.1132
11.7409 34.8296 -3.8631
5.1442 34.9089 -3.7087
-9.3488 4.6942 -1.0995
-19.0974 7.5377 -2.1579
-19.0917 5.6248 -2.0919
-21.5230 4.2981 -2.3068
-28.2949 3.0590 -2.9912
-35.8421 -5.8042 -3.8162
-22.5809 -5.7648 -2.4495
-16.2766 -5.7461 -1.8142
-15.7471 -7.1987 -1.8198
-15.7291 -8.9682 -1.9030
-15.8106 -10.9941 -2.0240
-15.8039 -13.2311 -2.1663
-25.5333 -25.5859 -3.7992
-21.2764 -25.5203 -3.4922
-17.6972 -25.5627 -3.2678
-16.2406 -28.6209 -3.4587
-14.8303 -32.6185 -3.7661
-12.1030 -34.5098 -3.8437
-11.9007 -47.0190 -5.0977
21.4189 -42.4392 -4.9964
21.5534 -34.6232 -4.2865
20.7150 -27.4640 -3.6156
24.7360 -27.3292 -3.8743
29.5713 -27.3148 -4.2311
35.4787 -27.3277 -4.7069
28.6134 -18.2165 -3.5651
22.6918 -9.2773 -2.5766
22.6387 -6.9706 -2.4897
23.0383 -4.8931 -2.4754
23.3832 -2.8164 -2.4754
23.3902 -0.7126 -2.4596
23.3829 1.3802 -2.4619
23.2497 3.4750 -2.4708
22.8466 5.5372 -2.4708
36.4038 16.1088 -4.1841
27.6455 15.3194 -3.3219
24.0855 16.3166 -3.0577
23.9599 19.5679 -3.2514
23.9485 23.4204 -3.5207
24.6969 28.9003 -3.9956
12.6877 34.8134 -3.8945
-9.4385 24.6404 -2.7733
-19.1053 10.1830 -2.2755
-19.0991 8.0813 -2.1797
-19.0933 6.1344 -2.1078
-19.0919 4.2985 -2.0569
-28.2970 3.7584 -3.0003
-25.1513 -5.7725 -2.7122
-17.6458 -5.7502 -1.9506
-15.7357 -6.7352 -1.7990
-15.7493 -8.4783 -1.8799
-15.8122 -10.4333 -1.9911
-15.7185 -12.5213 -2.1122
-15.6706 -14.9561 -2.2768
-22.3548 -25.5235 -3.5661
-18.6362 -25.5654 -3.3252
-16.2452 -27.0712 -3.3183
-15.8012 -32.6214 -3.8097
-12.3369 -32.6111 -3.6646
-11.9136 -42.6729 -4.6566
21.3472 -36.2295 -4.4197
20.7193 -28.9080 -3.7382
24.0868 -27.9509 -3.8781
28.1676 -27.3190 -4.1242
33.9744 -27.5127 -4.5949
31.2809 -21.0024 -3.9601
30.8120 -16.9075 -3.6940
22.9234 -10.0303 -2.6299
22.6406 -7.5795 -2.5094
22.9123 -5.4527 -2.4754
23.3077 -3.3850 -2.4754
23.3922 -1.2834 -2.4623
23.3849 0.8095 -2.4593
23.3275 2.9078 -2.4708
22.9746 4.9792 -2.4708
38.9521 16.1139 -4.4305
29.3165 15.3244 -3.4769
24.4548 15.7118 -3.0551
23.9627 18.6162 -3.1893
23.9518 22.3087 -3.4402
23.9388 26.6697 -3.7667
-19.1071 10.7895 -2.3063
-19.1007 8.6363 -2.2032
-19.0948 6.6521 -2.1252
-19.0893 4.7892 -2.0685
-19.0952 3.0111 -2.0318
-33.1360 2.2231 -3.4906
-28.3414 -5.7819 -3.0402
-19.2386 -5.7549 -2.1106
-15.5176 -6.1992 -1.7563
-15.8194 -8.0255 -1.8644
-15.7265 -9.8356 -1.9496
-15.7204 -11.9088 -2.0728
-15.7133 -14.2821 -2.2318
-23.5293 -25.5800 -3.6530
-19.5186 -25.4501 -3.3710
-16.2460 -25.6362 -3.1900
-16.2320 -31.5297 -3.7273
-13.2545 -32.6138 -3.7001
-12.0901 -39.5589 -4.3477
21.3534 -38.3455 -4.6130
21.5446 -31.6603 -4.0250
22.3378 -27.2353 -3.7022
26.8322 -27.3229 -4.0250
32.3374 -27.5176 -4.4628
24.3702 -17.2380 -3.1374
29.7399 -17.2746 -3.6148
22.6424 -8.1985 -2.5310
22.7727 -6.0090 -2.4754
23.2183 -3.9516 -2.4754
23.3942 -1.8559 -2.4666
23.3869 0.2397 -2.4582
23.3796 2.3378 -2.4695
23.0891 4.4183 -2.4708
31.1521 15.3298 -3.6492
25.2308 15.3554 -3.1044
17.6511 13.0361 -2.3063
23.9549 21.2461 -3.3654
23.9426 25.4013 -3.6688
11.1253 34.8770 -3.8477
-12.4947 38.0734 -4.2116
-19.1089 11.4130 -2.3394
-9.5564 4.6044 -1.1149
-19.0964 7.1787 -2.1442
-19.0907 5.2869 -2.0820
-23.8370 4.3562 -2.5469
-28.2936 2.5916 -2.9862
-32.4118 -5.7940 -3.4606
-21.1172 -5.7605 -2.3006
-15.5189 -5.7656 -1.7400
-15.8208 -7.5475 -1.8424
-15.7281 -9.3116 -1.9211
-15.7221 -11.3183 -2.0361
-15.8026 -13.6756 -2.1965
-24.7094 -25.5835 -3.7383
-20.5456 -25.4793 -3.4402
-17.0847 -25.5608 -3.2314
-16.2373 -29.7375 -3.5611
-14.2125 -32.6669 -3.7443
-12.1259 -36.4738 -4.0399
21.5725 -41.0606 -4.8750
21.5497 -33.3879 -4.1767
21.2524 -27.2385 -3.6312
25.5589 -27.3267 -3.9327
30.7909 -27.5222 -4.3406
36.8217 -27.4148 -4.8250
29.3194 -17.9992 -3.6160
17.6605 -6.8855 -1.9923
22.6375 -6.5670 -2.4774
23.1152 -4.5158 -2.4754
23.3925 -2.4302 -2.4719
23.3889 -0.3300 -2.4585
23.3816 1.7641 -2.4645
23.1898 3.8546 -2.4708
23.2734 6.0451 -2.5273
33.1803 15.3359 -3.8419
26.6045 15.3163 -3.2265
23.9994 16.8371 -3.0813
23.9579 20.2281 -3.2956
23.9462 24.1965 -3.5780
24.0549 29.0990 -3.9681
12.0475 34.8160 -3.8722
8.6834 34.9194 -3.7819
-9.3646 4.7964 -1.1058
-19.0980 7.7152 -2.1649
-19.0922 5.7915 -2.0970
-20.6724 4.3006 -2.2193
-24.4636 2.8431 -2.5885
-23.3689 -5.7672 -2.5299
-16.7050 -5.7474 -1.8568
-15.7348 -7.0414 -1.8118
-15.7296 -8.8024 -1.8945
-15.8111 -10.8077 -2.0130
-15.8046 -13.0178 -2.1521
-15.4906 -15.2760 -2.2866
-21.6259 -25.5214 -3.5159
-18.0023 -25.5636 -3.2862
-16.2422 -28.0973 -3.4111
-15.1469 -32.6194 -3.7800
-12.1688 -33.8279 -3.7785
-9.2283 -35.2712 -3.8319
21.5802 -43.6234 -5.1154
21.3432 -34.9052 -4.3002
20.7970 -28.0368 -3.6690
24.5119 -27.5212 -3.8736
29.1020 -27.3162 -4.1951
35.1291 -27.5093 -4.6896
28.7227 -18.6110 -3.5972
22.7228 -9.5030 -2.5887
22.6393 -7.1697 -2.4960
22.9984 -5.0774 -2.4754
23.3599 -3.0035 -2.4754
23.3909 -0.9001 -2.4603
23.3836 1.1924 -2.4609
23.2768 3.2888 -2.4708
22.8902 5.3541 -2.4708
37.2096 16.1104 -4.2617
28.1781 15.3210 -3.3711
24.1807 16.1002 -3.0533
23.9609 19.2510 -3.2305
23.9496 23.0492 -3.4936
23.9362 27.5602 -3.8367
16.6753 34.7952 -4.0554
-19.1059 10.3806 -2.2854
-19.0996 8.2624 -2.1872
-19.0938 6.3036 -2.1134
-19.0883 4.4586 -2.0603
-28.2977 3.9893 -3.0036
-41.1506 2.0856 -4.3307
-26.1213 -5.7753 -2.8118
-18.1420 -5.7516 -2.0003
-15.7362 -6.5869 -1.7930
-15.8090 -8.3479 -1.8790
-15.8128 -10.2529 -1.9808
-15.7191 -12.3174 -2.0990
-15.7119 -14.7570 -2.2656
-22.7666 -25.5777 -3.5990
-18.9522 -25.5664 -3.3449
-9.3001 -15.2203 -1.8747
-16.1254 -32.6223 -3.8248
-12.6365 -32.6120 -3.6760
-12.0044 -41.7058 -4.5615
21.5613 -37.2718 -4.5257
21.5413 -30.5689 -3.9305
23.7005 -27.9520 -3.8518
27.7214 -27.3203 -4.0908
33.4257 -27.5144 -4.5503
29.3989 -20.0822 -3.7420
30.6086 -17.1161 -3.6859
23.2476 -10.3947 -2.6765
22.6412 -7.7817 -2.5163
22.8679 -5.6359 -2.4754
23.2798 -3.5714 -2.4754
23.3928 -1.4714 -2.4635
23.3856 0.6221 -2.4588
23.3500 2.7210 -2.4708
23.0137 4.7952 -2.4708
29.9004 15.3261 -3.5314
24.6484 15.5589 -3.0636
23.9636 18.3112 -3.1698
23.9528 21.9544 -3.4150
23.9401 26.2454 -3.7337
-19.1077 10.9925 -2.3169
-19.1013 8.8214 -2.2114
-19.0953 6.8242 -2.1313
-19.0897 4.9522 -2.0728
-25.8299 4.2853 -2.7519
-29.1472 2.1900 -3.0721
-29.5656 -5.7856 -3.1664
-19.8210 -5.7566 -2.1694
-15.5180 -6.0558 -1.7508
-15.8199 -7.8671 -1.8570
-15.7270 -9.6617 -1.9400
-15.7209 -11.7123 -2.0605
-15.7140 -14.0547 -2.2158
-23.9113 -25.5811 -3.6804
-19.8654 -25.4773 -3.3956
-16.4092 -25.4408 -3.1819
-16.2245 -30.9048 -3.6686
-13.5255 -32.5314 -3.7029
-12.0457 -38.3139 -4.2213
21.5678 -39.4707 -4.7275
21.5212 -32.1767 -4.0686
21.9763 -27.2364 -3.6783
26.4072 -27.3242 -3.9939
31.8194 -27.5191 -4.4216
23.9613 -17.2382 -3.1024
22.6430 -8.4043 -2.5385
22.7239 -6.1911 -2.4754
23.1859 -4.1373 -2.4754
23.3948 -2.0445 -2.4683
23.3875 0.0524 -2.4581
23.3802 2.1489 -2.4677
23.1237 4.2333 -2.4708
31.7957 15.3317 -3.7101
25.6214 15.3134 -3.1372
17.8695 12.9777 -2.3212
23.9559 20.9068 -3.3419
23.9438 24.9988 -3.6382
24.7415 30.9462 -4.1643
11.4221 34.8417 -3.8538
-19.1096 11.6220 -2.3508
-9.3880 4.6162 -1.0995
-19.0969 7.3540 -2.1508
-19.0912 5.4520 -2.0868
-22.8189 4.3592 -2.4417
-28.2942 2.8202 -2.9886
-34.0080 -5.7988 -3.6260
-21.8109 -5.7625 -2.3711
-15.8505 -5.7448 -1.7720
-15.8213 -7.3929 -1.8355
-15.7286 -9.1426 -1.9121
-15.7639 -11.1579 -2.0299
-15.8033 -13.4564 -2.1816
-25.1094 -25.5847 -3.7678
-20.8852 -25.4804 -3.4628
-17.3829 -25.5617 -3.2490
-16.2390 -29.1825 -3.5101
-14.5026 -32.6175 -3.7518
-12.1023 -35.4520 -3.9373
21.4204 -41.5760 -4.9157
21.5515 -33.9848 -4.2296
20.9046 -27.2396 -3.6089
25.1529 -27.3279 -3.9037
30.0693 -27.3133 -4.2696
36.3329 -27.5057 -4.7896
22.6598 -9.0443 -2.5643
22.6381 -6.7641 -2.4833
23.0783 -4.7007 -2.4754
23.3930 -2.6198 -2.4741
23.3895 -0.5172 -2.4589
23.3822 1.5760 -2.4631
23.2199 3.6690 -2.4708
22.9870 5.7747 -2.4911
35.5946 16.1072 -4.1063
27.1065 15.3178 -3.2724
24.0351 16.5767 -3.0687
23.9589 19.9026 -3.2737
23.9473 23.8134 -3.5496
24.3946 29.0333 -3.9857
12.3572 34.8066 -3.8820
-19.1047 9.9789 -2.2654
-19.0985 7.8938 -2.1720
-19.0927 5.9590 -2.1022
-19.8842 4.3029 -2.1383
-28.2963 3.5183 -2.9970
-24.2108 -5.7697 -2.6159
-17.1540 -5.7487 -1.9015
-15.7353 -6.8909 -1.8055
-15.7301 -8.6380 -1.8862
-15.8117 -10.6233 -2.0021
-15.7476 -12.7607 -2.1303
-15.4913 -15.0340 -2.2689
-21.9801 -25.5224 -3.5402
-18.3108 -25.5645 -3.3051
-16.2437 -27.5879 -3.3649
-15.4661 -32.6204 -3.7944
-12.1100 -32.8369 -3.6785
-11.9103 -44.0775 -4.7989
21.4846 -44.3196 -5.1767
21.5572 -35.8976 -4.4010
20.7178 -28.4024 -3.6950
24.4952 -27.9496 -3.9061
28.6404 -27.3176 -4.1600
34.5580 -27.5110 -4.6426
28.8093 -18.9962 -3.6270
22.7883 -9.7455 -2.6050
22.6399 -7.3697 -2.5025
22.9570 -5.2613 -2.4754
23.3351 -3.1904 -2.4754
23.3915 -1.0877 -2.4612
23.3842 1.0048 -2.4600
23.3024 3.1024 -2.4708
22.9323 5.1707 -2.4708
37.5829 15.9160 -4.2897
28.7267 15.3226 -3.4219
24.2974 15.8986 -3.0519
23.9618 18.9382 -3.2101
23.9507 22.6838 -3.4671
23.9375 27.1201 -3.8020
-19.1065 10.5798 -2.2955
-19.1001 8.4448 -2.1950
-19.0943 6.4737 -2.1191
-19.0888 4.6202 -2.0642
-19.1677 2.8588 -2.0369
-37.3745 2.1944 -3.9350
-27.1648 -5.7785 -2.9190
-18.6643 -5.7532 -2.0528
-15.7366 -6.4395 -1.7871
-15.8189 -8.1919 -1.8723
-15.7644 -10.0432 -1.9646
-15.7197 -12.1160 -2.0860
-15.7126 -14.5227 -2.2488
-23.1373 -25.5788 -3.6251
-19.2718 -25.5673 -3.3651
-9.4127 -15.1309 -1.8729
-16.2300 -32.1831 -3.7884
-12.9381 -32.6129 -3.6876
-12.0482 -40.6321 -4.4544
21.3512 -37.6001 -4.5446
21.3613 -30.8345 -3.9426
22.7196 -27.2342 -3.7277
31.0506 -27.3104 -4.0889
23.7370 -17.3793 -2.9090
30.1713 -18.1913 -3.4837
17.7864 -6.7711 -1.8819
23.4027 -6.5863 -2.4040
23.3973 -4.3768 -2.3537
22.6245 -2.1676 -2.2474
23.3882 -0.1427 -2.3127
23.3809 1.9524 -2.3200
23.3735 4.0777 -2.3461
32.4903 15.3338 -3.5525
26.1162 15.3149 -2.9936
23.9672 17.1025 -2.9114
23.9570 20.5581 -3.1215
23.9450 24.5860 -3.3935
23.9306 29.4252 -3.7503
11.7742 34.9286 -3.6447
5.1442 34.9089 -3.4891
-9.3485 4.6940 -1.0344
-19.0974 7.5377 -2.0301
-19.0917 5.6248 -1.9680
-21.5230 4.2981 -2.1702
-26.2489 2.8378 -2.6106
-35.8421 -5.8042 -3.5902
-22.5809 -5.7648 -2.3044
-16.2766 -5.7461 -1.7068
-15.7471 -7.1987 -1.7121
-15.7291 -8.9682 -1.7903
-15.8106 -10.9941 -1.9042
-15.8039 -13.2311 -2.0380
-25.5333 -25.5859 -3.5742
-21.2764 -25.5203 -3.2854
-17.6973 -25.5627 -3.0743
-16.2406 -28.6209 -3.2539
-14.8303 -32.6185 -3.5430
-12.1031 -34.5098 -3.6161
-11.9007 -47.0190 -4.7959
21.4189 -42.4392 -4.7006
21.5534 -34.6231 -4.0327
20.7150 -27.4640 -3.4015
24.6448 -27.2284 -3.6314
29.5713 -27.3148 -3.9805
35.4787 -27.3277 -4.4282
23.1729 -9.4740 -2.4754
23.4042 -7.2063 -2.4214
23.3987 -4.9697 -2.3653
23.3934 -2.8176 -2.3299
23.3902 -0.7126 -2.3139
23.3829 1.3802 -2.3161
23.3756 3.4939 -2.3371
24.2847 5.8858 -2.4708
34.6670 15.3403 -3.7485
27.6455 15.3194 -3.1252
24.0855 16.3166 -2.8766
23.9599 19.5679 -3.0589
23.9485 23.4204 -3.3122
23.9348 28.0085 -3.6430
-9.4381 24.6395 -2.6090
-19.1053 10.1830 -2.1407
-19.0991 8.0813 -2.0506
-19.0933 6.1344 -1.9830
-19.0919 4.2985 -1.9351
-28.2970 3.7584 -2.8226
-25.1512 -5.7725 -2.5516
-17.6458 -5.7502 -1.8351
-15.7357 -6.7352 -1.6925
-15.7493 -8.4783 -1.7686
-15.8122 -10.4333 -1.8732
-15.7185 -12.5213 -1.9871
-15.6706 -14.9561 -2.1420
-22.3548 -25.5235 -3.3549
-18.6362 -25.5654 -3.1283
-16.2452 -27.0712 -3.1218
-15.8012 -32.6214 -3.5841
-12.3369 -32.6111 -3.4476
-11.9136 -42.6730 -4.3809
21.3472 -36.2295 -4.1580
20.7193 -28.9080 -3.5168
23.4673 -27.2319 -3.5546
28.1676 -27.3190 -3.8800
24.1728 -19.5753 -3.0757
29.1671 -19.5832 -3.4738
30.8117 -16.9074 -3.4752
22.9353 -10.0355 -2.4754
23.4058 -7.8357 -2.4406
23.4002 -5.5688 -2.3784
23.3949 -3.3977 -2.3376
23.3922 -1.2834 -2.3165
23.3849 0.8095 -2.3137
23.3776 2.9141 -2.3295
23.4560 5.0835 -2.3732
37.5840 15.5479 -4.0217
29.3165 15.3244 -3.2710
24.4548 15.7118 -2.8742
23.9627 18.6162 -3.0004
23.9518 22.3087 -3.2365
23.9388 26.6697 -3.5436
-19.1071 10.7895 -2.1697
-19.1007 8.6363 -2.0728
-19.0948 6.6521 -1.9994
-19.0893 4.7892 -1.9460
-19.0952 3.0111 -1.9115
-33.1360 2.2231 -3.2839
-28.3414 -5.7819 -2.8601
-19.2386 -5.7549 -1.9856
-15.5176 -6.1992 -1.6523
-15.8194 -8.0255 -1.7540
-15.7265 -9.8356 -1.8341
-15.7204 -11.9088 -1.9501
-15.7133 -14.2821 -2.0996
-23.5293 -25.5800 -3.4367
-19.5186 -25.4501 -3.1714
-16.2460 -25.6362 -3.0010
-16.2320 -31.5297 -3.5066
-13.2545 -32.6138 -3.4810
-12.0901 -39.5589 -4.0902
21.3534 -38.3455 -4.3399
20.8045 -30.5728 -3.6566
22.3378 -27.2353 -3.4830
26.8322 -27.3229 -3.7866
32.0902 -27.3073 -4.1664
24.5920 -17.3949 -2.9785
29.7443 -17.2771 -3.4013
23.4074 -8.4754 -2.4616
23.4017 -6.1750 -2.3932
23.3963 -3.9819 -2.3467
23.3942 -1.8559 -2.3205
23.3869 0.2397 -2.3126
23.3796 2.3378 -2.3233
23.3721 4.4724 -2.3530
31.1521 15.3298 -3.4331
25.2308 15.3554 -2.9205
17.6507 13.0358 -2.1697
23.9549 21.2461 -3.1661
23.9426 25.4013 -3.4516
23.9277 30.4244 -3.8273
-12.4947 38.0734 -3.9622
-19.1089 11.4130 -2.2008
-9.5526 4.6026 -1.0485
-19.0964 7.1787 -2.0173
-19.0907 5.2869 -1.9587
-23.8370 4.3562 -2.3960
-28.2936 2.5916 -2.8094
-32.4118 -5.7940 -3.2557
-21.1172 -5.7605 -2.1644
-15.5189 -5.7656 -1.6370
-15.8208 -7.5475 -1.7333
-15.7281 -9.3116 -1.8073
-15.7221 -11.3183 -1.9155
-15.8026 -13.6756 -2.0664
-24.7093 -25.5835 -3.5170
-20.5456 -25.4793 -3.2364
-17.0846 -25.5608 -3.0401
-16.2373 -29.7375 -3.3502
-14.1544 -32.5333 -3.5082
-12.1259 -36.4738 -3.8006
21.5725 -41.0606 -4.5863
21.5497 -33.3879 -3.9293
21.2524 -27.2385 -3.4162
25.4647 -27.2260 -3.6861
30.5556 -27.3119 -4.0524
36.8217 -27.4148 -4.5392
29.5625 -18.1484 -3.4300
17.6601 -6.8853 -1.8743
23.4032 -6.7891 -2.4095
23.3978 -4.5710 -2.3573
23.3925 -2.4302 -2.3255
23.3889 -0.3300 -2.3129
23.3816 1.7641 -2.3185
23.3742 3.8853 -2.3430
24.1852 6.2820 -2.4708
33.1803 15.3359 -3.6144
26.6045 15.3163 -3.0355
23.9994 16.8371 -2.8988
23.9579 20.2281 -3.1004
23.9462 24.1965 -3.3661
23.9320 28.9504 -3.7141
8.6834 34.9194 -3.5580
-9.3643 4.7962 -1.0403
-19.0980 7.7152 -2.0367
-19.0922 5.7915 -1.9728
-20.6724 4.3006 -2.0879
-28.2956 3.2884 -2.8167
-23.3689 -5.7672 -2.3800
-16.7050 -5.7474 -1.7468
-15.7348 -7.0414 -1.7045
-15.7296 -8.8024 -1.7823
-15.8111 -10.8077 -1.8937
-15.8046 -13.0178 -2.0246
-15.4906 -15.2760 -2.1512
-21.6259 -25.5214 -3.3077
-18.0023 -25.5636 -3.0916
-16.2422 -28.0973 -3.2091
-15.1469 -32.6194 -3.5562
-12.0383 -33.4651 -3.5166
-9.2280 -35.2699 -3.6049
21.5802 -43.6234 -4.8124
21.3432 -34.9052 -4.0455
20.7970 -28.0368 -3.4517
24.2522 -27.2296 -3.6056
29.1020 -27.3162 -3.9467
24.5112 -19.1945 -3.0784
28.7174 -18.6075 -3.3836
23.0963 -9.6592 -2.4754
23.4048 -7.4121 -2.4275
23.3992 -5.1659 -2.3694
23.3939 -3.0079 -2.3322
23.3909 -0.9001 -2.3146
23.3836 1.1924 -2.3152
23.3762 3.3028 -2.3344
24.3310 5.6911 -2.4708
35.4361 15.3426 -3.8182
28.1781 15.3210 -3.1715
24.1807 16.1002 -2.8725
23.9609 19.2510 -3.0392
23.9496 23.0493 -3.2867
23.9362 27.5602 -3.6095
16.6753 34.7952 -3.8153
13.0245 34.8676 -3.6804
-19.1059 10.3806 -2.1500
-19.0996 8.2624 -2.0577
-19.0938 6.3036 -1.9882
-19.0883 4.4586 -1.9383
-28.2977 3.9893 -2.8257
-41.1506 2.0856 -4.0742
-26.1213 -5.7753 -2.6453
-18.1420 -5.7516 -1.8819
-15.7362 -6.5869 -1.6868
-15.8090 -8.3479 -1.7678
-15.8128 -10.2529 -1.8635
-15.7191 -12.3174 -1.9747
-15.7119 -14.7570 -2.1314
-22.7666 -25.5777 -3.3859
-18.9522 -25.5664 -3.1469
-9.2998 -15.2199 -1.7637
-16.1254 -32.6223 -3.5983
-12.6365 -32.6120 -3.4583
-12.0044 -41.7058 -4.2913
21.5613 -37.2719 -4.2577
20.8014 -29.5189 -3.5707
23.0909 -27.2330 -3.5305
27.7214 -27.3203 -3.8485
24.0073 -19.7616 -3.0746
29.2128 -19.9550 -3.4982
30.6083 -17.1160 -3.4676
23.2476 -10.3947 -2.5180
23.4063 -8.0447 -2.4473
23.4007 -5.7673 -2.3831
23.3953 -3.5892 -2.3404
23.3928 -1.4714 -2.3177
23.3856 0.6221 -2.3132
23.3782 2.7243 -2.3273
23.4155 4.8789 -2.3650
29.9004 15.3261 -3.3223
24.6484 15.5589 -2.8822
23.9636 18.3112 -2.9821
23.9528 21.9544 -3.2128
23.9401 26.2454 -3.5126
-19.1077 10.9925 -2.1797
-19.1013 8.8214 -2.0804
-19.0953 6.8242 -2.0051
-19.0897 4.9522 -1.9501
-25.8299 4.2853 -2.5890
-30.3763 2.2824 -3.0121
-29.5656 -5.7856 -2.9789
-19.8210 -5.7566 -2.0409
-15.5180 -6.0558 -1.6471
-15.8199 -7.8671 -1.7470
-15.7270 -9.6617 -1.8251
-15.7209 -11.7123 -1.9385
-15.7140 -14.0547 -2.0846
-23.9113 -25.5811 -3.4624
-19.8654 -25.4773 -3.1945
-16.4092 -25.4408 -2.9935
-16.2245 -30.9048 -3.4513
-13.5255 -32.5314 -3.4837
-12.0457 -38.3139 -3.9713
21.4566 -39.2672 -4.4246
20.7254 -30.9869 -3.6862
21.9763 -27.2364 -3.4605
26.3098 -27.2235 -3.7435
22.8970 -19.8025 -2.9933
