ply
format ascii 1.0
element vertex 2176
property float32 x
property float32 y
property float32 z
end_header
-0.9115 1.8245 0.3812
-1.0668 1.7298 0.3799
-1.2122 1.6216 0.3785
-1.3465 1.5009 0.3769
-1.4687 1.3690 0.3753
-1.5779 1.2271 0.3737
-1.6733 1.0765 0.3719
-1.7543 0.9186 0.3702
-1.8205 0.7549 0.3684
-1.8716 0.5867 0.3666
-1.9072 0.4155 0.3649
-9.8531 1.2400 1.8564
-9.9245 0.3564 1.8564
-9.9167 -0.5301 1.8564
-9.8299 -1.4123 1.8564
-9.6648 -2.2833 1.8564
-9.4227 -3.1361 1.8564
-9.1054 -3.9640 1.8564
-8.7156 -4.7602 1.8564
-8.2564 -5.5184 1.8564
-7.7314 -6.2328 1.8564
-7.1447 -6.8974 1.8564
-6.5012 -7.5071 1.8564
-5.8058 -8.0570 1.8564
-5.0641 -8.5426 1.8564
-4.2822 -8.9602 1.8564
-3.4660 -9.3064 1.8564
-2.6223 -9.5784 1.8564
-1.7576 -9.7741 1.8564
-0.8790 -9.8919 1.8564
0.0067 -9.9309 1.8564
0.8923 -9.8907 1.8564
1.7708 -9.7717 1.8564
0.4965 -1.8040 0.3498
0.6571 -1.7570 0.3507
0.8135 -1.6963 0.3517
0.9646 -1.6222 0.3528
1.1093 -1.5350 0.3540
1.2464 -1.4354 0.3554
1.3750 -1.3238 0.3568
1.4939 -1.2010 0.3583
1.6021 -1.0677 0.3599
1.6987 -0.9248 0.3615
1.7827 -0.7732 0.3632
1.8533 -0.6141 0.3650
1.9099 -0.4485 0.3667
9.8318 -1.3992 1.8564
9.9174 -0.5168 1.8564
9.9240 0.3697 1.8564
9.8515 1.2532 1.8564
9.3302 2.0456 1.7855
8.7240 2.7477 1.7098
8.4157 3.5029 1.7040
8.0698 4.2394 1.7040
7.6596 4.9422 1.7040
7.1883 5.6056 1.7040
6.6597 6.2243 1.7040
6.0781 6.7934 1.7040
5.4481 7.3084 1.7040
4.7746 7.7651 1.7040
4.0631 8.1600 1.7040
3.3193 8.4898 1.7040
2.5489 8.7520 1.7040
1.7910 9.1113 1.7358
1.0185 9.6824 1.8199
0.1540 9.9297 1.8564
-0.7322 9.9039 1.8564
-1.6125 9.7991 1.8564
-2.4799 9.6162 1.8564
-0.6863 1.9298 0.3829
-0.8530 1.8552 0.3817
-1.0117 1.7657 0.3804
-1.1608 1.6623 0.3790
-1.2992 1.5460 0.3775
-1.4259 1.4180 0.3759
-1.5399 1.2796 0.3743
-1.6404 1.1319 0.3726
-1.7267 0.9766 0.3708
-1.7983 0.8148 0.3691
-1.8548 0.6481 0.3673
-1.8961 0.4778 0.3655
-1.9219 0.3053 0.3638
-9.9078 0.6771 1.8564
-9.9286 -0.2091 1.8564
-9.8704 -1.0937 1.8564
-9.7336 -1.9696 1.8564
-9.5192 -2.8298 1.8564
-9.2289 -3.6674 1.8564
-8.8650 -4.4758 1.8564
-8.4305 -5.2486 1.8564
-7.9289 -5.9795 1.8564
-7.3641 -6.6628 1.8564
-6.7405 -7.2929 1.8564
-6.0633 -7.8650 1.8564
-5.3377 -8.3744 1.8564
-4.5697 -8.8170 1.8564
-3.7652 -9.1894 1.8564
-2.9307 -9.4886 1.8564
-2.0728 -9.7121 1.8564
-1.1984 -9.8583 1.8564
-0.3145 -9.9259 1.8564
0.5720 -9.9144 1.8564
1.4538 -9.8239 1.8564
0.4375 -1.8176 0.3495
0.5993 -1.7756 0.3503
0.7574 -1.7198 0.3513
0.9105 -1.6505 0.3524
1.0577 -1.5681 0.3536
1.1977 -1.4729 0.3549
1.3295 -1.3656 0.3563
1.4520 -1.2467 0.3577
1.5642 -1.1171 0.3593
1.6651 -0.9776 0.3609
1.7538 -0.8291 0.3626
1.8294 -0.6725 0.3643
1.8911 -0.5092 0.3661
1.9383 -0.3401 0.3679
9.8956 -0.8372 1.8564
9.9308 0.0486 1.8564
9.8869 0.9340 1.8564
9.5607 1.7742 1.8177
8.9357 2.4998 1.7345
8.5246 3.2290 1.7040
8.2026 3.9763 1.7040
7.8154 4.6920 1.7040
7.3658 5.3702 1.7040
6.8575 6.0057 1.7040
6.2946 6.5933 1.7040
5.6816 7.1284 1.7040
5.0232 7.6067 1.7040
4.3249 8.0243 1.7040
3.5920 8.3780 1.7040
2.8306 8.6650 1.7040
2.0544 8.9170 1.7105
1.3071 9.4710 1.7872
0.4749 9.9195 1.8564
-0.4115 9.9223 1.8564
-1.2948 9.8461 1.8564
-2.1677 9.6914 1.8564
-0.6242 1.9530 0.3833
-0.7935 1.8840 0.3821
-0.9552 1.7998 0.3809
-1.1079 1.7013 0.3795
-1.2504 1.5895 0.3781
-1.3814 1.4656 0.3765
-1.5001 1.3308 0.3749
-1.6056 1.1864 0.3732
-1.6971 1.0337 0.3715
-1.7741 0.8740 0.3697
-1.8361 0.7089 0.3679
-1.8829 0.5398 0.3662
-1.9143 0.3679 0.3644
-9.8807 0.9971 1.8564
-9.9302 0.1120 1.8564
-9.9006 -0.7740 1.8564
-9.7922 -1.6538 1.8564
-9.6057 -2.5205 1.8564
-9.3426 -3.3671 1.8564
-9.0051 -4.1868 1.8564
-8.5959 -4.9732 1.8564
-8.1181 -5.7200 1.8564
-7.5757 -6.4211 1.8564
-6.9728 -7.0712 1.8564
-6.3144 -7.6648 1.8564
-5.6058 -8.1974 1.8564
-4.8524 -8.6647 1.8564
-4.0603 -9.0629 1.8564
-3.2360 -9.3888 1.8564
-2.3858 -9.6400 1.8564
-1.5166 -9.8144 1.8564
-0.6353 -9.9105 1.8564
0.2510 -9.9277 1.8564
1.1354 -9.8657 1.8564
2.0107 -9.7252 1.8564
0.5411 -1.7925 0.3500
0.7006 -1.7416 0.3509
0.8557 -1.6772 0.3520
1.0051 -1.5994 0.3531
1.1479 -1.5088 0.3544
1.2828 -1.4058 0.3557
1.4088 -1.2911 0.3572
1.5248 -1.1653 0.3587
1.6299 -1.0292 0.3603
1.7231 -0.8838 0.3620
1.8035 -0.7301 0.3637
1.8704 -0.5690 0.3655
1.9229 -0.4019 0.3672
9.8633 -1.1568 1.8564
9.9272 -0.2726 1.8564
9.9119 0.6138 1.8564
9.7971 1.4922 1.8525
9.1570 2.2452 1.7624
8.6245 2.9516 1.7040
8.3270 3.7090 1.7040
7.9630 4.4368 1.7040
7.5356 5.1292 1.7040
7.0482 5.7808 1.7040
6.5045 6.3863 1.7040
5.9091 6.9410 1.7040
5.2666 7.4403 1.7040
4.5821 7.8803 1.7040
3.8611 8.2575 1.7040
3.1093 8.5689 1.7040
2.3327 8.8121 1.7040
1.5857 9.2665 1.7574
0.7914 9.8484 1.8469
-0.0905 9.9305 1.8564
-0.9757 9.8828 1.8564
-1.8532 9.7564 1.8564
-0.5613 1.9741 0.3836
-0.7330 1.9108 0.3826
-0.8976 1.8320 0.3814
-1.0537 1.7386 0.3800
-1.2001 1.6315 0.3786
-1.3354 1.5118 0.3771
-1.4586 1.3808 0.3755
-1.5690 1.2397 0.3738
-1.6656 1.0898 0.3721
-1.7479 0.9326 0.3703
-1.8154 0.7693 0.3686
-1.8677 0.6014 0.3668
-1.9047 0.4304 0.3650
-9.8433 1.3161 1.8564
-9.9214 0.4331 1.8564
-9.9205 -0.4534 1.8564
-9.8405 -1.3363 1.8564
-9.6822 -2.2085 1.8564
-9.4466 -3.0632 1.8564
-9.1358 -3.8934 1.8564
-8.7522 -4.6927 1.8564
-8.2988 -5.4545 1.8564
-7.7794 -6.1728 1.8564
-7.1979 -6.8420 1.8564
-6.5590 -7.4566 1.8564
-5.8679 -8.0118 1.8564
-5.1300 -8.5032 1.8564
-4.3513 -8.9268 1.8564
-3.5379 -9.2793 1.8564
-2.6962 -9.5578 1.8564
-1.8331 -9.7602 1.8564
-0.9554 -9.8848 1.8564
-0.0701 -9.9306 1.8564
0.8158 -9.8973 1.8564
1.6952 -9.7851 1.8564
0.4824 -1.8074 0.3497
0.6433 -1.7616 0.3506
0.8001 -1.7021 0.3516
0.9517 -1.6291 0.3527
1.0970 -1.5431 0.3539
1.2349 -1.4445 0.3552
1.3642 -1.3339 0.3567
1.4840 -1.2121 0.3582
1.2740 -1.3328 0.3564
1.3934 -1.2188 0.3579
1.5028 -1.0942 0.3594
1.6014 -0.9600 0.3609
1.6882 -0.8170 0.3626
1.7623 -0.6663 0.3642
1.8232 -0.5088 0.3659
1.8700 -0.3458 0.3676
9.5610 -0.8972 1.8564
9.6029 -0.0409 1.8564
9.5683 0.8156 1.8564
9.4574 1.6656 1.8564
8.9862 2.4255 1.7993
8.3912 3.0909 1.7287
7.9695 3.7736 1.7046
7.5985 4.4677 1.7040
7.1698 5.1275 1.7040
6.6840 5.7465 1.7040
6.1449 6.3197 1.7040
5.5569 6.8425 1.7040
4.9245 7.3108 1.7040
4.2529 7.7208 1.7040
3.5475 8.0693 1.7040
2.8137 8.3535 1.7040
2.1227 8.8426 1.7580
1.3851 9.4002 1.8368
0.5471 9.5874 1.8564
-0.3101 9.5980 1.8564
-1.1648 9.5321 1.8564
-2.0102 9.3902 1.8564
-0.5855 1.8915 0.3828
-0.7498 1.8266 0.3817
-0.9068 1.7470 0.3805
-1.0554 1.6535 0.3792
-1.1941 1.5470 0.3778
-1.3221 1.4287 0.3763
-1.4382 1.2996 0.3747
-1.5417 1.1611 0.3731
-1.6318 1.0145 0.3714
-1.7079 0.8610 0.3697
-1.7697 0.7020 0.3680
-1.8167 0.5388 0.3663
-1.8489 0.3729 0.3646
-9.5452 1.0517 1.8564
-9.6010 0.1962 1.8564
-9.5802 -0.6608 1.8564
-9.4831 -1.5125 1.8564
-9.3104 -2.3521 1.8564
-9.0636 -3.1731 1.8564
-8.7445 -3.9687 1.8564
-8.3557 -4.7327 1.8564
-7.9004 -5.4590 1.8564
-7.3820 -6.1418 1.8564
-6.8049 -6.7757 1.8564
-6.1736 -7.3555 1.8564
-5.4930 -7.8768 1.8564
-4.7686 -8.3353 1.8564
-4.0063 -8.7273 1.8564
-3.2121 -9.0498 1.8564
-2.3922 -9.3002 1.8564
-1.5533 -9.4765 1.8564
-0.7020 -9.5773 1.8564
0.1549 -9.6017 1.8564
1.0106 -9.5497 1.8564
1.8582 -9.4215 1.8564
0.5080 -1.7401 0.3504
0.6628 -1.6921 0.3513
0.8133 -1.6309 0.3523
0.9585 -1.5567 0.3534
1.0973 -1.4701 0.3546
1.2286 -1.3714 0.3559
1.3512 -1.2613 0.3573
1.4644 -1.1405 0.3588
1.5670 -1.0097 0.3604
1.6581 -0.8698 0.3620
1.7370 -0.7217 0.3636
1.8027 -0.5666 0.3653
1.8547 -0.4054 0.3670
1.8922 -0.2395 0.3687
9.5966 -0.3514 1.8564
9.5897 0.5058 1.8564
9.5064 1.3590 1.8564
9.2090 2.1687 1.8289
8.6023 2.8563 1.7522
8.0845 3.5126 1.7040
7.7390 4.2196 1.7040
7.3319 4.8930 1.7040
6.8664 5.5273 1.7040
6.3461 6.1176 1.7040
5.7752 6.6592 1.7040
5.1583 7.1477 1.7040
4.5003 7.5792 1.7040
3.8065 7.9504 1.7040
3.0824 8.2581 1.7040
2.3743 8.6483 1.7337
1.6608 9.1980 1.8069
0.8568 9.5647 1.8564
0.0004 9.6030 1.8564
-0.8559 9.5648 1.8564
-1.7055 9.4503 1.8564
-0.5245 1.9112 0.3831
-0.6910 1.8519 0.3821
-0.8508 1.7775 0.3809
-1.0026 1.6889 0.3797
-1.1451 1.5870 0.3783
-1.2771 1.4728 0.3768
-1.3976 1.3475 0.3753
-1.5057 1.2123 0.3737
-1.6007 1.0685 0.3720
-1.6820 0.9173 0.3704
-1.7490 0.7601 0.3687
-1.8014 0.5983 0.3669
-1.8390 0.4333 0.3652
-1.8617 0.2663 0.3636
-9.5896 0.5066 1.8564
-9.5965 -0.3506 1.8564
-9.5271 -1.2050 1.8564
-9.3816 -2.0499 1.8564
-9.1614 -2.8783 1.8564
-8.8683 -3.6839 1.8564
-8.5044 -4.4601 1.8564
-8.0728 -5.2007 1.8564
-7.5768 -5.8999 1.8564
-7.0205 -6.5521 1.8564
-6.4082 -7.1521 1.8564
-5.7448 -7.6950 1.8564
-5.0357 -8.1767 1.8564
-4.2865 -8.5932 1.8564
-3.5030 -8.9412 1.8564
-2.6917 -9.2180 1.8564
-1.8589 -9.4213 1.8564
-1.0113 -9.5496 1.8564
-0.1557 -9.6017 1.8564
0.7012 -9.5773 1.8564
1.5525 -9.4766 1.8564
0.4510 -1.7541 0.3501
0.6071 -1.7110 0.3510
0.7594 -1.6546 0.3519
0.9066 -1.5850 0.3530
1.0479 -1.5029 0.3542
1.1820 -1.4085 0.3555
1.3079 -1.3025 0.3568
1.4246 -1.1854 0.3583
1.5311 -1.0582 0.3598
1.6265 -0.9214 0.3614
1.7099 -0.7762 0.3630
1.7805 -0.6235 0.3647
1.8375 -0.4644 0.3664
1.8803 -0.3001 0.3681
9.5802 -0.6616 1.8564
9.6010 0.1954 1.8564
9.5454 1.0508 1.8564
9.4136 1.8979 1.8564
8.8192 2.6149 1.7782
8.2353 3.2658 1.7126
7.8714 3.9672 1.7040
7.4863 4.6533 1.7040
7.0415 5.3024 1.7040
6.5406 5.9092 1.7040
5.9875 6.4690 1.7040
5.3868 6.9772 1.7040
4.7431 7.4297 1.7040
4.0616 7.8231 1.7040
3.3478 8.1542 1.7040
2.6208 8.4640 1.7129
1.9262 8.9939 1.7781
1.1656 9.5320 1.8564
0.3109 9.5979 1.8564
-0.5462 9.5874 1.8564
-1.3991 9.5005 1.8564
-0.4629 1.9289 0.3835
-0.6314 1.8751 0.3825
-0.7938 1.8061 0.3814
-0.9487 1.7226 0.3802
-1.0946 1.6254 0.3788
-1.2305 1.5155 0.3774
-1.3553 1.3941 0.3759
-1.4681 1.2624 0.3743
-1.5679 1.1215 0.3727
-1.6542 0.9728 0.3710
-1.7264 0.8176 0.3693
-1.7841 0.6574 0.3676
-1.8271 0.4933 0.3659
-1.8552 0.3269 0.3642
-9.5682 0.8164 1.8564
-9.6029 -0.0401 1.8564
-9.5610 -0.8963 1.8564
-9.4430 -1.7454 1.8564
-9.2497 -2.5806 1.8564
-8.9828 -3.3952 1.8564
-8.6442 -4.1827 1.8564
-8.2367 -4.9369 1.8564
-7.7636 -5.6518 1.8564
-7.2287 -6.3216 1.8564
-6.6361 -6.9411 1.8564
-5.9907 -7.5052 1.8564
-5.2975 -8.0096 1.8564
-4.5621 -8.4501 1.8564
-3.7904 -8.8233 1.8564
-2.9884 -9.1262 1.8564
-2.1626 -9.3563 1.8564
-1.3196 -9.5119 1.8564
-0.4661 -9.5917 1.8564
0.3912 -9.5950 1.8564
1.2453 -9.5219 1.8564
0.3938 -1.7664 0.3499
0.5510 -1.7282 0.3507
0.7047 -1.6765 0.3516
0.8539 -1.6117 0.3526
0.9975 -1.5341 0.3537
1.1343 -1.4441 0.3550
1.2633 -1.3422 0.3563
1.3834 -1.2291 0.3577
1.4938 -1.1054 0.3592
1.5933 -0.9720 0.3608
1.6811 -0.8297 0.3624
1.7564 -0.6796 0.3641
1.8185 -0.5227 0.3658
1.8665 -0.3601 0.3675
9.5538 -0.9710 1.8564
9.6023 -0.1152 1.8564
9.5743 0.7416 1.8564
9.4700 1.5925 1.8564
9.0388 2.3649 1.8062
8.4412 3.0354 1.7341
7.9956 3.7106 1.7040
7.6328 4.4088 1.7040
7.2092 5.0719 1.7040
6.7282 5.6946 1.7040
6.1936 6.2720 1.7040
5.6096 6.7993 1.7040
4.7177 6.8883 1.6140
4.3125 7.6877 1.7040
3.6097 8.0416 1.7040
2.8781 8.3315 1.7040
2.1835 8.7957 1.7519
1.4518 9.3513 1.8294
0.6211 9.5829 1.8564
-0.2359 9.6001 1.8564
-1.0911 9.5408 1.8564
-1.9376 9.4055 1.8564
-0.5710 1.8964 0.3829
-0.7358 1.8328 0.3818
-0.8935 1.7544 0.3806
-1.0429 1.6621 0.3793
-1.1826 1.5567 0.3779
-1.3115 1.4393 0.3764
-1.4287 1.3112 0.3749
-1.5333 1.1735 0.3732
-1.6245 1.0275 0.3716
-1.7019 0.8745 0.3699
-1.7649 0.7159 0.3682
-1.8132 0.5531 0.3665
-1.8467 0.3874 0.3648
-9.5368 1.1254 1.8564
-9.5991 0.2704 1.8564
-9.5850 -0.5867 1.8564
-9.4945 -1.4391 1.8564
-9.3283 -2.2801 1.8564
-9.0879 -3.1029 1.8564
-8.7749 -3.9010 1.8564
-8.3921 -4.6680 1.8564
-7.9423 -5.3978 1.8564
-7.4293 -6.0846 1.8564
-6.8571 -6.7229 1.8564
-6.2302 -7.3076 1.8564
-5.5537 -7.8341 1.8564
-4.8329 -8.2982 1.8564
-4.0737 -8.6961 1.8564
-3.2820 -9.0247 1.8564
-2.4640 -9.2815 1.8564
-1.6265 -9.4642 1.8564
-0.7760 -9.5716 1.8564
0.0807 -9.6026 1.8564
0.9367 -9.5572 1.8564
1.7853 -9.4356 1.8564
0.4944 -1.7436 0.3504
0.6495 -1.6968 0.3512
0.8005 -1.6367 0.3522
0.9462 -1.5636 0.3533
1.0856 -1.4781 0.3545
1.2175 -1.3804 0.3558
1.3410 -1.2713 0.3572
1.4550 -1.1514 0.3587
1.5586 -1.0214 0.3602
1.6507 -0.8822 0.3618
1.7307 -0.7348 0.3635
1.7976 -0.5802 0.3652
1.8508 -0.4196 0.3669
1.8896 -0.2540 0.3686
9.5935 -0.4256 1.8564
9.5933 0.4316 1.8564
9.5166 1.2854 1.8564
9.2633 2.1061 1.8364
8.6536 2.7993 1.7582
8.1114 3.4501 1.7040
7.7714 4.1597 1.7040
7.3695 4.8361 1.7040
6.9089 5.4741 1.7040
6.3931 6.0684 1.7040
5.8265 6.6144 1.7040
5.2134 7.1076 1.7040
4.5588 7.5442 1.7040
3.8679 7.9207 1.7040
3.1461 8.2341 1.7040
2.4334 8.6027 1.7283
1.7251 9.1486 1.7997
0.9307 9.5578 1.8564
0.0747 9.6027 1.8564
-0.7820 9.5711 1.8564
-1.6324 9.4632 1.8564
-0.5098 1.9156 0.3832
-0.6769 1.8576 0.3822
-0.8373 1.7845 0.3811
-0.9898 1.6971 0.3798
-1.1331 1.5963 0.3784
-1.2661 1.4832 0.3770
-1.3876 1.3588 0.3754
-1.4969 1.2244 0.3738
-1.5930 1.0812 0.3722
-1.6755 0.9306 0.3705
-1.7438 0.7739 0.3688
-1.7974 0.6125 0.3671
-1.8363 0.4476 0.3654
-1.8603 0.2808 0.3637
-9.5854 0.5807 1.8564
-9.5990 -0.2764 1.8564
-9.5361 -1.1314 1.8564
-9.3972 -1.9773 1.8564
-9.1834 -2.8074 1.8564
-8.8965 -3.6152 1.8564
-8.5386 -4.3942 1.8564
-8.1127 -5.1381 1.8564
-7.6222 -5.8412 1.8564
-7.0709 -6.4976 1.8564
-6.4633 -7.1023 1.8564
-5.8041 -7.6504 1.8564
-5.0988 -8.1375 1.8564
-4.3527 -8.5598 1.8564
-3.5721 -8.9139 1.8564
-2.7629 -9.1969 1.8564
-1.9317 -9.4067 1.8564
-1.0851 -9.5415 1.8564
-0.2299 -9.6002 1.8564
0.6271 -9.5825 1.8564
1.4792 -9.4884 1.8564
0.4374 -1.7572 0.3501
0.5938 -1.7153 0.3509
0.7464 -1.6600 0.3518
0.8941 -1.5916 0.3529
1.0359 -1.5105 0.3541
1.1707 -1.4171 0.3553
1.2973 -1.3121 0.3567
1.4149 -1.1960 0.3581
1.5223 -1.0696 0.3597
1.6187 -0.9336 0.3612
1.7032 -0.7891 0.3629
1.7749 -0.6370 0.3645
1.8331 -0.4784 0.3662
1.8772 -0.3145 0.3679
9.5748 -0.7356 1.8564
9.6022 0.1212 1.8564
9.5532 0.9770 1.8564
9.4280 1.8251 1.8564
8.8719 2.5561 1.7848
8.2821 3.2105 1.7171
7.9019 3.9062 1.7040
7.5220 4.5953 1.7040
7.0823 5.2478 1.7040
6.5860 5.8585 1.7040
6.0373 6.4225 1.7040
5.4405 6.9353 1.7040
4.8004 7.3928 1.7040
4.1220 7.7915 1.7040
3.4107 8.1280 1.7040
2.6796 8.4228 1.7087
1.9884 8.9460 1.7716
1.2374 9.5084 1.8536
0.3851 9.5953 1.8564
-0.4721 9.5914 1.8564
-1.3256 9.5111 1.8564
-2.1685 9.3549 1.8564
-0.6171 1.8804 0.3826
-0.7800 1.8127 0.3815
-0.9356 1.7303 0.3803
-1.0824 1.6343 0.3789
-1.2192 1.5255 0.3775
-1.3450 1.4051 0.3760
-1.4588 1.2741 0.3744
-1.5598 1.1340 0.3728
-1.6473 0.9859 0.3711
-1.7207 0.8313 0.3694
-1.7797 0.6714 0.3677
-1.8240 0.5076 0.3660
-1.8534 0.3414 0.3643
-9.5616 0.8903 1.8564
-9.6029 0.0341 1.8564
-9.5677 -0.8224 1.8564
-9.4562 -1.6724 1.8564
-9.2694 -2.5090 1.8564
-9.0087 -3.3256 1.8564
-8.6762 -4.1158 1.8564
-8.2746 -4.8731 1.8564
-7.8071 -5.5916 1.8564
-7.2773 -6.2656 1.8564
-6.6896 -6.8896 1.8564
-6.0485 -7.4587 1.8564
-5.3593 -7.9684 1.8564
-4.6273 -8.4146 1.8564
-3.8584 -8.7937 1.8564
-3.0589 -9.1028 1.8564
-2.2349 -9.3393 1.8564
-1.3931 -9.5014 1.8564
-0.5402 -9.5878 1.8564
0.3169 -9.5977 1.8564
1.1716 -9.5312 1.8564
0.3800 -1.7691 0.3498
0.5375 -1.7320 0.3506
0.6916 -1.6815 0.3515
0.8412 -1.6178 0.3525
0.9853 -1.5413 0.3536
1.1227 -1.4523 0.3549
1.2524 -1.3515 0.3562
1.3734 -1.2393 0.3576
1.4846 -1.1165 0.3591
1.5851 -0.9839 0.3607
1.6740 -0.8424 0.3623
1.7504 -0.6929 0.3639
1.8136 -0.5365 0.3656
1.8629 -0.3744 0.3673
9.5460 -1.0448 1.8564
9.6011 -0.1894 1.8564
9.5798 0.6676 1.8564
9.4821 1.5193 1.8564
9.0918 2.3038 1.8131
8.4915 2.9796 1.7396
8.0240 3.6486 1.7040
7.6667 4.3497 1.7040
7.2483 5.0160 1.7040
6.7721 5.6425 1.7040
6.2419 6.2239 1.7040
5.6620 6.7558 1.7040
5.0369 7.2337 1.7040
4.3717 7.6541 1.7040
3.6718 8.0135 1.7040
2.9425 8.3090 1.7040
2.2438 8.7491 1.7461
1.5180 9.3028 1.8222
0.6952 9.5778 1.8564
-0.1617 9.6016 1.8564
-1.0173 9.5490 1.8564
-1.8649 9.4202 1.8564
-0.5564 1.9012 0.3829
-0.7218 1.8389 0.3819
-0.8802 1.7618 0.3807
-1.0303 1.6706 0.3794
-1.1709 1.5663 0.3780
-1.3008 1.4499 0.3766
-1.4190 1.3227 0.3750
-1.5247 1.1857 0.3734
-1.6172 1.0404 0.3717
-1.6958 0.8880 0.3700
-1.7600 0.7298 0.3683
-1.8096 0.5673 0.3666
-1.8444 0.4018 0.3649
-9.5278 1.1991 1.8564
-9.5968 0.3446 1.8564
-9.5893 -0.5126 1.8564
-9.5053 -1.3657 1.8564
-9.3457 -2.2079 1.8564
-9.1116 -3.0326 1.8564
-8.8048 -3.8331 1.8564
-8.4279 -4.6030 1.8564
-7.9838 -5.3362 1.8564
-7.4761 -6.0270 1.8564
-6.9088 -6.6697 1.8564
-6.2865 -7.2592 1.8564
-5.6141 -7.7909 1.8564
-4.8970 -8.2606 1.8564
-4.1408 -8.6644 1.8564
-3.3516 -8.9991 1.8564
-2.5357 -9.2621 1.8564
-1.6996 -9.4514 1.8564
-0.8500 -9.5653 1.8564
0.0064 -9.6030 1.8564
0.8628 -9.5641 1.8564
1.7123 -9.4491 1.8564
0.4808 -1.7470 0.3503
0.6362 -1.7014 0.3511
0.7876 -1.6424 0.3521
0.9338 -1.5705 0.3532
1.0738 -1.4860 0.3544
1.2064 -1.3893 0.3557
1.3307 -1.2812 0.3571
1.4455 -1.1621 0.3586
1.5500 -1.0330 0.3601
1.6432 -0.8946 0.3617
1.7242 -0.7479 0.3633
1.7923 -0.5939 0.3650
1.8467 -0.4337 0.3667
1.8868 -0.2685 0.3684
9.5900 -0.4998 1.8564
9.5963 0.3575 1.8564
9.5262 1.2119 1.8564
9.3180 2.0429 1.8441
8.7052 2.7418 1.7643
8.1378 3.3873 1.7040
7.8034 4.0995 1.7040
7.4067 4.7790 1.7040
6.9509 5.4205 1.7040
6.4399 6.0188 1.7040
5.8775 6.5691 1.7040
5.2682 7.0671 1.7040
4.6170 7.5088 1.7040
3.9290 7.8906 1.7040
3.2097 8.2095 1.7040
2.4921 8.5572 1.7230
1.7887 9.0997 1.7928
1.0046 9.5503 1.8564
0.1489 9.6018 1.8564
-0.7080 9.5768 1.8564
-1.5592 9.4756 1.8564
-0.4951 1.9199 0.3833
-0.6626 1.8632 0.3823
-0.8237 1.7914 0.3812
-0.9770 1.7052 0.3799
-1.1211 1.6055 0.3786
-1.2550 1.4934 0.3771
-1.3776 1.3700 0.3756
-1.4879 1.2364 0.3740
-1.5853 1.0939 0.3723
-1.6689 0.9439 0.3707
-1.7384 0.7877 0.3690
-1.7934 0.6266 0.3672
-1.8335 0.4620 0.3655
-1.8588 0.2953 0.3638
-9.5806 0.6548 1.8564
-9.6008 -0.2022 1.8564
-9.5445 -1.0576 1.8564
-9.4122 -1.9046 1.8564
-9.2048 -2.7364 1.8564
-8.9241 -3.5464 1.8564
-8.5723 -4.3281 1.8564
-8.1522 -5.0753 1.8564
-7.6671 -5.7821 1.8564
-7.1209 -6.4428 1.8564
-6.5180 -7.0521 1.8564
-5.8631 -7.6053 1.8564
-5.1615 -8.0979 1.8564
-4.4188 -8.5259 1.8564
-3.6408 -8.8860 1.8564
-2.8339 -9.1753 1.8564
-2.0044 -9.3915 1.8564
-1.1589 -9.5328 1.8564
-0.3041 -9.5982 1.8564
0.5531 -9.5870 1.8564
1.4058 -9.4995 1.8564
0.4237 -1.7602 0.3500
0.5803 -1.7194 0.3508
0.7333 -1.6653 0.3518
0.8815 -1.5980 0.3528
1.0239 -1.5180 0.3540
1.1593 -1.4257 0.3552
1.2867 -1.3216 0.3566
1.4051 -1.2065 0.3580
1.5134 -1.0809 0.3595
1.6108 -0.9457 0.3611
1.6964 -0.8019 0.3627
1.7692 -0.6504 0.3644
1.8286 -0.4923 0.3661
1.8740 -0.3288 0.3678
9.5688 -0.8096 1.8564
9.6029 0.0470 1.8564
9.5605 0.9031 1.8564
9.4418 1.7522 1.8564
8.9244 2.4967 1.7915
8.3312 3.1557 1.7222
7.9318 3.8450 1.7040
7.5573 4.5370 1.7040
7.1226 5.1929 1.7040
6.6312 5.8074 1.7040
6.0868 6.3756 1.7040
5.4940 6.8931 1.7040
4.8574 7.3555 1.7040
4.1821 7.7594 1.7040
3.4734 8.1014 1.7040
2.7377 8.3805 1.7043
2.0502 8.8985 1.7653
1.3054 9.4586 1.8458
0.4593 9.5920 1.8564
-0.3979 9.5947 1.8564
-1.2520 9.5210 1.8564
-2.0961 9.3714 1.8564
-0.6026 1.8855 0.3827
-0.7662 1.8191 0.3816
-0.9224 1.7380 0.3804
-1.0700 1.6431 0.3791
-1.2078 1.5354 0.3776
-1.3346 1.4159 0.3761
-1.4494 1.2858 0.3746
-1.5516 1.1465 0.3729
-1.6402 0.9990 0.3713
-1.7149 0.8449 0.3696
-1.7752 0.6854 0.3679
-1.8207 0.5219 0.3661
-1.8514 0.3558 0.3645
-9.5544 0.9642 1.8564
-9.6024 0.1083 1.8564
-9.5737 -0.7484 1.8564
-9.4689 -1.5992 1.8564
-9.2885 -2.4373 1.8564
-9.0341 -3.2559 1.8564
-8.7078 -4.0486 1.8564
-8.3120 -4.8090 1.8564
-7.8501 -5.5311 1.8564
-7.3255 -6.2091 1.8564
-6.7426 -6.8377 1.8564
-6.1060 -7.4118 1.8564
-5.4207 -7.9267 1.8564
-4.6922 -8.3786 1.8564
-3.9263 -8.7636 1.8564
-3.1291 -9.0789 1.8564
-2.3070 -9.3217 1.8564
-1.4665 -9.4903 1.8564
-0.6143 -9.5833 1.8564
0.2427 -9.5999 1.8564
1.0979 -9.5400 1.8564
0.3663 -1.7717 0.3497
0.5240 -1.7358 0.3505
0.6784 -1.6864 0.3514
0.8285 -1.6239 0.3524
0.9731 -1.5484 0.3535
1.1111 -1.4605 0.3548
1.2416 -1.3606 0.3561
1.3633 -1.2494 0.3575
1.4754 -1.1275 0.3590
1.5769 -0.9958 0.3605
1.6668 -0.8550 0.3621
1.7443 -0.7061 0.3638
1.8087 -0.5503 0.3655
1.8592 -0.3886 0.3672
9.5376 -1.1186 1.8564
9.5994 -0.2636 1.8564
9.5847 0.5935 1.8564
9.4935 1.4459 1.8564
9.1452 2.2423 1.8203
8.5421 2.9234 1.7453
8.0520 3.5865 1.7040
7.7001 4.2903 1.7040
7.2868 4.9599 1.7040
6.8155 5.5900 1.7040
6.2898 6.1755 1.7040
5.7140 6.7118 1.7040
5.0927 7.1946 1.7040
4.4308 7.6201 1.7040
3.7336 7.9849 1.7040
3.0066 8.2860 1.7040
2.3038 8.7028 1.7403
1.5837 9.2546 1.8151
0.7692 9.5721 1.8564
-0.0875 9.6026 1.8564
-0.9435 9.5565 1.8564
-1.7920 9.4343 1.8564
-0.5418 1.9058 0.3830
-0.7077 1.8449 0.3820
-0.8668 1.7690 0.3808
-1.0177 1.6790 0.3795
-1.1591 1.5758 0.3782
-1.2900 1.4605 0.3767
-1.4093 1.3341 0.3751
-1.5161 1.1979 0.3735
-1.6097 1.0533 0.3719
-1.6895 0.9014 0.3702
-1.7550 0.7437 0.3685
-1.8059 0.5815 0.3668
-1.8420 0.4162 0.3651
-1.8632 0.2491 0.3634
-9.5938 0.4188 1.8564
-9.5930 -0.4384 1.8564
-9.5156 -1.2922 1.8564
-9.3625 -2.1356 1.8564
-9.1347 -2.9621 1.8564
-8.8341 -3.7649 1.8564
-8.4632 -4.5377 1.8564
-8.0248 -5.2744 1.8564
-7.5225 -5.9690 1.8564
-6.9602 -6.6161 1.8564
-6.3425 -7.2104 1.8564
-5.6742 -7.7473 1.8564
-4.9607 -8.2225 1.8564
-4.2076 -8.6321 1.8564
-3.4211 -8.9729 1.8564
-2.6072 -9.2423 1.8564
-1.7726 -9.4380 1.8564
-0.9239 -9.5584 1.8564
-0.0678 -9.6027 1.8564
0.7889 -9.5705 1.8564
1.6392 -9.4620 1.8564
0.4672 -1.7503 0.3502
0.6229 -1.7058 0.3511
0.7747 -1.6480 0.3520
0.9214 -1.5772 0.3531
1.0619 -1.4938 0.3543
1.1953 -1.3982 0.3556
1.3203 -1.2910 0.3570
1.4360 -1.1729 0.3584
1.2343 -1.2912 0.3567
1.3497 -1.1806 0.3581
1.4555 -1.0598 0.3596
1.5508 -0.9297 0.3611
1.6346 -0.7911 0.3627
1.7061 -0.6450 0.3643
1.7648 -0.4925 0.3659
1.8098 -0.3347 0.3676
9.2547 -0.8684 1.8564
9.2953 -0.0396 1.8564
9.2618 0.7895 1.8564
9.1544 1.6123 1.8564
8.9742 2.4222 1.8564
8.3808 3.0871 1.7837
7.8092 3.6977 1.7256
7.3551 4.3245 1.7040
6.9401 4.9632 1.7040
6.4699 5.5624 1.7040
5.9481 6.1172 1.7040
5.3788 6.6233 1.7040
4.7667 7.0765 1.7040
4.1167 7.4735 1.7040
3.4338 7.8108 1.7040
2.7971 8.3043 1.7500
2.1200 8.8315 1.8139
1.3550 9.1961 1.8564
0.5295 9.2803 1.8564
-0.3002 9.2905 1.8564
-1.1275 9.2267 1.8564
-1.9458 9.0894 1.8564
-0.5659 1.8282 0.3822
-0.7247 1.7657 0.3812
-0.8767 1.6889 0.3800
-1.0204 1.5986 0.3788
-1.1547 1.4959 0.3774
-1.2786 1.3816 0.3760
-1.3911 1.2570 0.3744
-1.4914 1.1232 0.3729
-1.5787 0.9815 0.3713
-1.6527 0.8331 0.3696
-1.7127 0.6794 0.3680
-1.7585 0.5216 0.3663
-1.7899 0.3610 0.3647
-1.8069 0.1991 0.3630
-9.2934 0.1899 1.8564
-9.2733 -0.6396 1.8564
-9.1793 -1.4640 1.8564
-9.0122 -2.2768 1.8564
-8.7732 -3.0714 1.8564
-8.4644 -3.8416 1.8564
-8.0881 -4.5811 1.8564
-7.6473 -5.2841 1.8564
-7.1456 -5.9451 1.8564
-6.5869 -6.5586 1.8564
-5.9758 -7.1199 1.8564
-5.3170 -7.6245 1.8564
-4.6159 -8.0682 1.8564
-3.8780 -8.4477 1.8564
-3.1092 -8.7599 1.8564
-2.3156 -9.0023 1.8564
-1.5036 -9.1729 1.8564
-0.6795 -9.2705 1.8564
0.1499 -9.2941 1.8564
0.9782 -9.2437 1.8564
0.3393 -1.7202 0.3502
0.4924 -1.6866 0.3509
0.6424 -1.6400 0.3518
0.7882 -1.5805 0.3527
0.9289 -1.5085 0.3538
1.0632 -1.4244 0.3550
1.1902 -1.3286 0.3562
1.3089 -1.2218 0.3576
1.4184 -1.1046 0.3590
1.5175 -0.9778 0.3605
1.6056 -0.8422 0.3621
1.6817 -0.6987 0.3637
1.7451 -0.5484 0.3653
1.7951 -0.3924 0.3670
1.8312 -0.2318 0.3686
9.2891 -0.3402 1.8564
9.2824 0.4896 1.8564
9.2018 1.3154 1.8564
9.0478 2.1308 1.8564
8.5916 2.8527 1.8080
8.0124 3.4813 1.7447
7.4911 4.0844 1.7040
7.0970 4.7362 1.7040
6.6464 5.3503 1.7040
6.1428 5.9217 1.7040
5.5902 6.4459 1.7040
4.9931 6.9187 1.7040
4.3562 7.3364 1.7040
3.6846 7.6957 1.7040
3.0293 8.1160 1.7301
2.3714 8.6376 1.7889
1.6517 9.1474 1.8564
0.8293 9.2583 1.8564
0.0004 9.2954 1.8564
-0.8285 9.2583 1.8564
-1.6509 9.1476 1.8564
-0.5070 1.8472 0.3826
-0.6679 1.7900 0.3816
-0.8225 1.7183 0.3805
-0.9693 1.6328 0.3792
-1.1072 1.5345 0.3779
-1.2350 1.4243 0.3765
-1.3517 1.3033 0.3750
-1.4565 1.1727 0.3734
-1.5486 1.0337 0.3718
-1.6275 0.8875 0.3702
-1.6926 0.7356 0.3686
-1.7435 0.5791 0.3669
-1.7802 0.4194 0.3653
-1.8024 0.2578 0.3636
-9.2824 0.4904 1.8564
-9.2892 -0.3394 1.8564
-9.2219 -1.1664 1.8564
-9.0811 -1.9842 1.8564
-8.8680 -2.7861 1.8564
-8.5842 -3.5659 1.8564
-8.2319 -4.3172 1.8564
-7.8141 -5.0341 1.8564
-7.3341 -5.7109 1.8564
-6.7956 -6.3422 1.8564
-6.2029 -6.9230 1.8564
-5.5608 -7.4485 1.8564
-4.8744 -7.9148 1.8564
-4.1491 -8.3179 1.8564
-3.3908 -8.6548 1.8564
-2.6055 -8.9227 1.8564
-1.7994 -9.1195 1.8564
-0.9789 -9.2436 1.8564
-0.1507 -9.2941 1.8564
0.6787 -9.2705 1.8564
1.5028 -9.1731 1.8564
0.4372 -1.7003 0.3506
0.5885 -1.6584 0.3514
0.7359 -1.6035 0.3524
0.8786 -1.5360 0.3534
1.0153 -1.4562 0.3545
1.1452 -1.3646 0.3558
1.2670 -1.2618 0.3571
1.3799 -1.1482 0.3585
1.4829 -1.0248 0.3600
1.5750 -0.8923 0.3615
1.6555 -0.7515 0.3631
1.7236 -0.6036 0.3647
1.7786 -0.4495 0.3664
1.8198 -0.2904 0.3680
9.2733 -0.6404 1.8564
9.2934 0.1892 1.8564
9.2396 1.0172 1.8564
9.1120 1.8371 1.8564
8.8080 2.6116 1.8348
8.2199 3.2597 1.7660
7.6615 3.8614 1.7134
7.2497 4.5063 1.7048
6.8159 5.1325 1.7040
6.3310 5.7199 1.7040
5.7957 6.2617 1.7040
5.2142 6.7536 1.7040
4.5911 7.1917 1.7040
3.9315 7.5725 1.7040
3.2582 7.9360 1.7133
2.6160 8.4486 1.7663
1.9238 8.9825 1.8346
1.1283 9.2266 1.8564
0.3010 9.2905 1.8564
-0.5287 9.2803 1.8564
-1.3542 9.1962 1.8564
-0.4473 1.8642 0.3829
-0.6103 1.8124 0.3819
-0.7674 1.7459 0.3809
-0.9171 1.6653 0.3797
-1.0584 1.5715 0.3784
-1.1899 1.4655 0.3770
-1.3108 1.3483 0.3755
-1.4200 1.2210 0.3740
-1.5168 1.0849 0.3724
-1.6005 0.9412 0.3708
-1.6706 0.7912 0.3692
-1.7267 0.6362 0.3675
-1.7686 0.4775 0.3659
-1.7960 0.3165 0.3642
-9.2617 0.7903 1.8564
-9.2953 -0.0388 1.8564
-9.2547 -0.8676 1.8564
-9.1405 -1.6895 1.8564
-8.9534 -2.4979 1.8564
-8.6950 -3.2864 1.8564
-8.3673 -4.0487 1.8564
-7.9729 -4.7788 1.8564
-7.5149 -5.4707 1.8564
-6.9971 -6.1191 1.8564
-6.4235 -6.7187 1.8564
-5.7988 -7.2648 1.8564
-5.1278 -7.7530 1.8564
-4.4160 -8.1794 1.8564
-3.6689 -8.5406 1.8564
-2.8927 -8.8338 1.8564
-2.0933 -9.0565 1.8564
-1.2773 -9.2072 1.8564
-0.4512 -9.2844 1.8564
0.3786 -9.2876 1.8564
1.2054 -9.2168 1.8564
0.3817 -1.7123 0.3504
0.5340 -1.6751 0.3511
0.6830 -1.6249 0.3520
0.8275 -1.5619 0.3530
0.9666 -1.4865 0.3541
1.0990 -1.3991 0.3553
1.2238 -1.3003 0.3566
1.3401 -1.1905 0.3580
1.4468 -1.0706 0.3594
1.5429 -0.9413 0.3610
1.6278 -0.8034 0.3625
1.7005 -0.6580 0.3641
1.7602 -0.5059 0.3658
1.8065 -0.3485 0.3674
1.8386 -0.1869 0.3691
9.2947 -0.1115 1.8564
9.2676 0.7179 1.8564
9.1666 1.5415 1.8564
8.9927 2.3528 1.8564
8.4307 3.0316 1.7893
7.8574 3.6464 1.7300
7.3883 4.2676 1.7040
6.9783 4.9095 1.7040
6.5127 5.5122 1.7040
5.9952 6.0710 1.7040
5.4299 6.5815 1.7040
4.7178 6.8883 1.6674
4.1743 7.4414 1.7040
3.4941 7.7840 1.7040
2.8531 8.2589 1.7451
2.1807 8.7847 1.8077
1.4261 9.1853 1.8564
0.6013 9.2759 1.8564
-0.2284 9.2925 1.8564
-1.0561 9.2351 1.8564
-1.8755 9.1042 1.8564
-0.5519 1.8329 0.3823
-0.7112 1.7716 0.3813
-0.8638 1.6961 0.3801
-1.0083 1.6069 0.3789
-1.1435 1.5052 0.3775
-1.2683 1.3920 0.3761
-1.3818 1.2682 0.3746
-1.4832 1.1352 0.3730
-1.5717 0.9941 0.3714
-1.6468 0.8462 0.3698
-1.7080 0.6928 0.3681
-1.7551 0.5353 0.3665
-1.7878 0.3750 0.3648
-1.8060 0.2131 0.3632
-9.2917 0.2618 1.8564
-9.2780 -0.5679 1.8564
-9.1904 -1.3930 1.8564
-9.0295 -2.2071 1.8564
-8.7967 -3.0035 1.8564
-8.4938 -3.7760 1.8564
-8.1232 -4.5185 1.8564
-7.6879 -5.2249 1.8564
-7.1913 -5.8897 1.8564
-6.6374 -6.5075 1.8564
-6.0306 -7.0735 1.8564
-5.3758 -7.5831 1.8564
-4.6781 -8.0323 1.8564
-3.9432 -8.4175 1.8564
-3.1768 -8.7356 1.8564
-2.3851 -8.9841 1.8564
-1.5744 -9.1610 1.8564
-0.7511 -9.2649 1.8564
0.0781 -9.2950 1.8564
0.9067 -9.2510 1.8564
0.3259 -1.7225 0.3501
0.4792 -1.6900 0.3508
0.6295 -1.6445 0.3517
0.7758 -1.5862 0.3526
0.9169 -1.5152 0.3537
1.0518 -1.4321 0.3549
1.1796 -1.3374 0.3561
1.2990 -1.2315 0.3575
1.4093 -1.1152 0.3589
1.5094 -0.9892 0.3604
1.5984 -0.8543 0.3620
1.6756 -0.7114 0.3635
1.7401 -0.5617 0.3652
1.7913 -0.4061 0.3668
1.8286 -0.2458 0.3685
9.2862 -0.4120 1.8564
9.2860 0.4178 1.8564
9.2117 1.2442 1.8564
9.0640 2.0608 1.8564
8.6427 2.7957 1.8141
8.0615 3.4288 1.7496
7.5224 4.0264 1.7040
7.1335 4.6812 1.7040
6.6875 5.2987 1.7040
6.1883 5.8740 1.7040
5.6399 6.4025 1.7040
5.0464 6.8799 1.7040
4.4128 7.3025 1.7040
3.7440 7.6670 1.7040
3.0840 8.0716 1.7257
2.4304 8.5921 1.7833
1.7224 9.1344 1.8564
0.9009 9.2516 1.8564
0.0723 9.2951 1.8564
-0.7569 9.2645 1.8564
-1.5802 9.1601 1.8564
-0.4928 1.8515 0.3826
-0.6542 1.7955 0.3817
-0.8094 1.7250 0.3806
-0.9570 1.6407 0.3793
-1.0956 1.5435 0.3780
-1.2243 1.4343 0.3766
-1.3421 1.3142 0.3751
-1.4479 1.1843 0.3736
-1.5412 1.0460 0.3720
-1.6212 0.9004 0.3704
-1.6875 0.7489 0.3687
-1.7397 0.5928 0.3671
-1.7776 0.4333 0.3654
-1.8011 0.2718 0.3638
-9.2783 0.5621 1.8564
-9.2915 -0.2676 1.8564
-9.2306 -1.0951 1.8564
-9.0961 -1.9139 1.8564
-8.8892 -2.7175 1.8564
-8.6115 -3.4994 1.8564
-8.2651 -4.2534 1.8564
-7.8529 -4.9735 1.8564
-7.3780 -5.6540 1.8564
-6.8444 -6.2895 1.8564
-6.2562 -6.8748 1.8564
-5.6182 -7.4053 1.8564
-4.9354 -7.8769 1.8564
-4.2133 -8.2856 1.8564
-3.4576 -8.6283 1.8564
-2.6744 -8.9023 1.8564
-1.8698 -9.1053 1.8564
-1.0504 -9.2358 1.8564
-0.2225 -9.2927 1.8564
0.6071 -9.2755 1.8564
1.4318 -9.1844 1.8564
0.4240 -1.7033 0.3506
0.5755 -1.6625 0.3514
0.7233 -1.6088 0.3523
0.8665 -1.5423 0.3533
1.0038 -1.4636 0.3544
1.1342 -1.3730 0.3557
1.2568 -1.2711 0.3570
1.3705 -1.1585 0.3584
1.4743 -1.0359 0.3599
1.5675 -0.9041 0.3614
1.6491 -0.7640 0.3630
1.7182 -0.6167 0.3646
1.7744 -0.4630 0.3662
1.8168 -0.3043 0.3679
9.2681 -0.7120 1.8564
9.2946 0.1173 1.8564
9.2471 0.9457 1.8564
9.1259 1.7666 1.8564
8.8606 2.5528 1.8416
8.2702 3.2059 1.7714
7.7065 3.8096 1.7169
7.2810 4.4481 1.7040
6.8554 5.0797 1.7040
6.3750 5.6708 1.7040
5.8440 6.2167 1.7040
5.2662 6.7131 1.7040
4.6466 7.1560 1.7040
3.9899 7.5419 1.7040
3.3129 7.8949 1.7099
2.6736 8.4040 1.7613
1.9859 8.9347 1.8279
1.1996 9.2176 1.8564
0.3728 9.2879 1.8564
-0.4570 9.2841 1.8564
-1.2831 9.2064 1.8564
-0.4330 1.8680 0.3830
-0.5964 1.8175 0.3820
-0.7540 1.7522 0.3810
-0.9045 1.6728 0.3798
-1.0465 1.5801 0.3785
-1.1790 1.4751 0.3771
-1.3008 1.3588 0.3757
-1.4110 1.2324 0.3741
-1.5089 1.0970 0.3726
-1.5938 0.9539 0.3710
-1.6651 0.8044 0.3693
-1.7224 0.6498 0.3677
-1.7655 0.4914 0.3660
-1.7942 0.3305 0.3644
-9.2553 0.8618 1.8564
-9.2953 0.0330 1.8564
-9.2612 -0.7960 1.8564
-9.1533 -1.6188 1.8564
-8.9724 -2.4286 1.8564
-8.7201 -3.2191 1.8564
-8.3983 -3.9839 1.8564
-8.0096 -4.7170 1.8564
-7.5570 -5.4125 1.8564
-7.0442 -6.0649 1.8564
-6.4753 -6.6689 1.8564
-5.8547 -7.2198 1.8564
-5.1876 -7.7131 1.8564
-4.4790 -8.1450 1.8564
-3.7348 -8.5120 1.8564
-2.9609 -8.8112 1.8564
-2.1633 -9.0401 1.8564
-1.3484 -9.1970 1.8564
-0.5229 -9.2806 1.8564
0.3068 -9.2903 1.8564
1.1341 -9.2259 1.8564
0.3684 -1.7149 0.3503
0.5210 -1.6788 0.3511
0.6703 -1.6297 0.3519
0.8153 -1.5678 0.3529
0.9548 -1.4935 0.3540
1.0878 -1.4072 0.3552
1.2134 -1.3093 0.3565
1.3304 -1.2005 0.3579
1.4379 -1.0814 0.3593
1.5351 -0.9528 0.3608
1.6209 -0.8157 0.3624
1.6947 -0.6708 0.3640
1.7556 -0.5193 0.3656
1.8030 -0.3623 0.3673
1.8364 -0.2010 0.3689
9.2935 -0.1833 1.8564
9.2729 0.6462 1.8564
9.1783 1.4706 1.8564
9.0106 2.2832 1.8564
8.4809 2.9759 1.7950
7.9058 3.5949 1.7345
7.4211 4.2103 1.7040
7.0160 4.8553 1.7040
6.5551 5.4617 1.7040
6.0419 6.0245 1.7040
5.4806 6.5393 1.7040
4.8756 7.0020 1.7040
4.2317 7.4089 1.7040
3.5541 7.7568 1.7040
2.9088 8.2138 1.7402
2.2410 8.7382 1.8016
1.4971 9.1740 1.8564
0.6730 9.2710 1.8564
-0.1565 9.2940 1.8564
-0.9847 9.2430 1.8564
-1.8051 9.1184 1.8564
-0.5378 1.8375 0.3824
-0.6977 1.7775 0.3814
-0.8509 1.7031 0.3802
-0.9961 1.6152 0.3790
-1.1322 1.5145 0.3776
-1.2579 1.4022 0.3762
-1.3725 1.2793 0.3747
-1.4749 1.1470 0.3731
-1.5646 1.0066 0.3715
-1.6408 0.8592 0.3699
-1.7033 0.7063 0.3683
-1.7516 0.5491 0.3666
-1.7855 0.3890 0.3649
-1.8050 0.2272 0.3633
-9.2894 0.3336 1.8564
-9.2821 -0.4962 1.8564
-9.2009 -1.3220 1.8564
-9.0463 -2.1372 1.8564
-8.8196 -2.9354 1.8564
-8.5227 -3.7103 1.8564
-8.1579 -4.4556 1.8564
-7.7281 -5.1653 1.8564
-7.2366 -5.8339 1.8564
-6.6875 -6.4560 1.8564
-6.0852 -7.0267 1.8564
-5.4343 -7.5413 1.8564
-4.7400 -7.9959 1.8564
-4.0081 -8.3868 1.8564
-3.2442 -8.7108 1.8564
-2.4545 -8.9654 1.8564
-1.6451 -9.1486 1.8564
-0.8227 -9.2588 1.8564
0.0062 -9.2953 1.8564
0.8352 -9.2577 1.8564
0.3125 -1.7247 0.3500
0.4660 -1.6934 0.3508
0.6167 -1.6490 0.3516
0.7633 -1.5917 0.3525
0.9049 -1.5219 0.3536
1.0404 -1.4398 0.3548
1.1688 -1.3460 0.3560
1.2890 -1.2411 0.3574
1.4001 -1.1256 0.3588
1.5011 -1.0004 0.3603
1.5912 -0.8663 0.3618
1.6694 -0.7241 0.3634
1.7350 -0.5749 0.3650
1.7874 -0.4198 0.3667
1.8260 -0.2599 0.3683
9.2828 -0.4837 1.8564
9.2889 0.3460 1.8564
9.2210 1.1730 1.8564
9.0797 1.9907 1.8564
8.6943 2.7384 1.8204
8.1110 3.3761 1.7546
7.5636 3.9735 1.7063
7.1694 4.6259 1.7040
6.7283 5.2469 1.7040
6.2336 5.8260 1.7040
5.6892 6.3587 1.7040
5.0994 6.8407 1.7040
4.4691 7.2682 1.7040
3.8031 7.6378 1.7040
3.1384 8.0273 1.7213
2.4891 8.5467 1.7778
1.7864 9.0880 1.8497
0.9724 9.2443 1.8564
0.1441 9.2942 1.8564
-0.6853 9.2701 1.8564
-1.5093 9.1720 1.8564
-0.4785 1.8556 0.3827
-0.6405 1.8010 0.3817
-0.7963 1.7317 0.3807
-0.9445 1.6486 0.3794
-1.0840 1.5524 0.3781
-1.2136 1.4442 0.3767
-1.3324 1.3250 0.3753
-1.4393 1.1959 0.3737
-1.5336 1.0583 0.3721
-1.6148 0.9133 0.3705
-1.6823 0.7622 0.3689
-1.7357 0.6064 0.3672
-1.7749 0.4472 0.3655
-1.7996 0.2859 0.3639
-9.2737 0.6338 1.8564
-9.2933 -0.1958 1.8564
-9.2388 -1.0237 1.8564
-9.1107 -1.8436 1.8564
-8.9100 -2.6487 1.8564
-8.6383 -3.4327 1.8564
-8.2977 -4.1894 1.8564
-7.8911 -4.9127 1.8564
-7.4215 -5.5969 1.8564
-6.8928 -6.2364 1.8564
-6.3092 -6.8262 1.8564
-5.6753 -7.3617 1.8564
-4.9961 -7.8385 1.8564
-4.2772 -8.2528 1.8564
-3.5242 -8.6013 1.8564
-2.7431 -8.8814 1.8564
-1.9402 -9.0906 1.8564
-1.1217 -9.2274 1.8564
-0.2944 -9.2907 1.8564
0.5354 -9.2799 1.8564
1.3608 -9.1952 1.8564
0.4107 -1.7062 0.3505
0.5625 -1.6666 0.3513
0.7107 -1.6139 0.3522
0.8543 -1.5486 0.3532
0.9921 -1.4709 0.3543
1.1232 -1.3813 0.3556
1.2465 -1.2804 0.3569
1.3610 -1.1686 0.3583
1.4658 -1.0469 0.3597
1.5599 -0.9158 0.3613
1.6425 -0.7765 0.3628
1.7128 -0.6297 0.3644
1.7700 -0.4766 0.3661
1.8136 -0.3182 0.3677
9.2623 -0.7837 1.8564
9.2952 0.0455 1.8564
9.2542 0.8742 1.8564
9.1393 1.6960 1.8564
8.9130 2.4935 1.8484
8.3208 3.1518 1.7770
7.7525 3.7581 1.7206
7.3152 4.3917 1.7040
6.8944 5.0266 1.7040
6.4187 5.6214 1.7040
5.8918 6.1714 1.7040
5.3180 6.6722 1.7040
4.7018 7.1199 1.7040
4.0481 7.5108 1.7040
3.3673 7.8539 1.7066
2.7304 8.3583 1.7561
2.0476 8.8872 1.8214
1.2708 9.2081 1.8564
0.4445 9.2847 1.8564
-0.3852 9.2874 1.8564
-1.2119 9.2160 1.8564
-0.4186 1.8716 0.3830
-0.5825 1.8225 0.3821
-0.7406 1.7584 0.3811
-0.8918 1.6802 0.3799
-1.0346 1.5887 0.3786
-1.1679 1.4847 0.3773
-1.2907 1.3693 0.3758
-1.4019 1.2437 0.3743
-1.5009 1.1091 0.3727
-1.5870 0.9666 0.3711
-1.6594 0.8176 0.3695
-1.7180 0.6633 0.3678
-1.7624 0.5052 0.3661
-1.7923 0.3445 0.3645
-9.2484 0.9333 1.8564
-9.2947 0.1049 1.8564
-9.2671 -0.7244 1.8564
-9.1655 -1.5480 1.8564
-8.9909 -2.3592 1.8564
-8.7447 -3.1516 1.8564
-8.4289 -3.9189 1.8564
-8.0458 -4.6550 1.8564
-7.5986 -5.3539 1.8564
-7.0908 -6.0102 1.8564
-6.5266 -6.6186 1.8564
-5.9104 -7.1743 1.8564
-5.2470 -7.6728 1.8564
-4.5419 -8.1102 1.8564
-3.8005 -8.4829 1.8564
-3.0289 -8.7880 1.8564
-2.2331 -9.0231 1.8564
-1.4195 -9.1863 1.8564
-0.5946 -9.2763 1.8564
0.2350 -9.2924 1.8564
1.0627 -9.2344 1.8564
0.3551 -1.7174 0.3502
0.5079 -1.6824 0.3510
0.6575 -1.6345 0.3518
0.8029 -1.5737 0.3528
0.9429 -1.5004 0.3539
1.0766 -1.4151 0.3551
1.2028 -1.3182 0.3564
1.3206 -1.2103 0.3577
1.4290 -1.0921 0.3592
1.5271 -0.9643 0.3607
1.6139 -0.8278 0.3623
1.6888 -0.6836 0.3639
1.7508 -0.5327 0.3655
1.7995 -0.3761 0.3671
1.8341 -0.2151 0.3688
9.2919 -0.2552 1.8564
9.2776 0.5745 1.8564
9.1894 1.3996 1.8564
9.0279 2.2135 1.8564
8.5314 2.9197 1.8008
7.9544 3.5430 1.7391
7.4534 4.1529 1.7040
7.0534 4.8010 1.7040
6.5971 5.4109 1.7040
6.0883 5.9776 1.7040
5.5309 6.4968 1.7040
4.9296 6.9641 1.7040
4.2888 7.3760 1.7040
3.6140 7.7291 1.7040
2.9641 8.1689 1.7355
2.3009 8.6920 1.7957
1.5679 9.1622 1.8564
0.7445 9.2655 1.8564
-0.0847 9.2950 1.8564
-0.9133 9.2504 1.8564
-1.7346 9.1321 1.8564
-0.5237 1.8420 0.3825
-0.6841 1.7833 0.3815
-0.8379 1.7101 0.3803
-0.9839 1.6233 0.3791
-1.1208 1.5237 0.3778
-1.2475 1.4124 0.3763
-1.3630 1.2903 0.3748
-1.4665 1.1588 0.3733
-1.5573 1.0190 0.3717
-1.6348 0.8722 0.3700
-1.6984 0.7197 0.3684
-1.7480 0.5628 0.3667
-1.7831 0.4029 0.3651
-1.8039 0.2412 0.3635
-9.2865 0.4054 1.8564
-9.2856 -0.4244 1.8564
-9.2108 -1.2508 1.8564
-9.0625 -2.0672 1.8564
-8.8421 -2.8672 1.8564
-8.5512 -3.6443 1.8564
-8.1921 -4.3924 1.8564
-7.7677 -5.1054 1.8564
-7.2815 -5.7778 1.8564
-6.7372 -6.4041 1.8564
-6.1393 -6.9794 1.8564
-5.4924 -7.4991 1.8564
-4.8017 -7.9591 1.8564
-4.0728 -8.3556 1.8564
-3.3115 -8.6855 1.8564
-2.5237 -8.9462 1.8564
-1.7158 -9.1356 1.8564
-0.8943 -9.2522 1.8564
-0.0656 -9.2951 1.8564
0.7636 -9.2639 1.8564
0.2991 -1.7267 0.3500
0.4528 -1.6966 0.3507
0.6038 -1.6533 0.3515
0.7508 -1.5972 0.3525
0.8929 -1.5284 0.3535
1.0290 -1.4474 0.3547
1.1580 -1.3546 0.3559
1.2790 -1.2506 0.3572
1.3909 -1.1360 0.3587
1.1968 -1.2520 0.3570
1.3086 -1.1446 0.3584
1.4110 -1.0274 0.3598
1.5031 -0.9011 0.3612
1.5842 -0.7667 0.3628
1.6533 -0.6251 0.3643
1.7099 -0.4772 0.3659
1.7533 -0.3242 0.3675
1.7829 -0.1673 0.3691
9.0060 -0.0384 1.8564
8.9736 0.7649 1.8564
8.8696 1.5621 1.8564
8.6950 2.3469 1.8564
8.3705 3.0833 1.8387
7.7998 3.6932 1.7789
7.2526 4.2642 1.7342
6.7273 4.8110 1.7048
6.2686 5.3893 1.7040
5.7714 5.9355 1.7065
5.2115 6.4172 1.7040
4.6184 6.8564 1.7040
4.0158 7.2903 1.7156
3.4220 7.7840 1.7527
2.7937 8.2941 1.8040
2.1022 8.7573 1.8564
1.3129 8.9099 1.8564
0.5131 8.9915 1.8564
-0.2909 9.0014 1.8564
-1.0924 8.9396 1.8564
-0.3885 1.8148 0.3826
-0.5476 1.7689 0.3817
-0.7013 1.7085 0.3807
-0.8484 1.6344 0.3796
-0.9875 1.5472 0.3783
-1.1177 1.4479 0.3770
-1.2378 1.3375 0.3756
-1.3468 1.2170 0.3742
-1.4441 1.0877 0.3727
-1.5289 0.9505 0.3711
-1.6007 0.8069 0.3695
-1.6591 0.6581 0.3679
-1.7037 0.5053 0.3663
-1.7344 0.3498 0.3647
-1.7511 0.1929 0.3631
-9.0042 0.1840 1.8564
-8.9847 -0.6197 1.8564
-8.8937 -1.4185 1.8564
-8.7318 -2.2059 1.8564
-8.5002 -2.9759 1.8564
-8.2010 -3.7220 1.8564
-7.8364 -4.4386 1.8564
-7.4093 -5.1197 1.8564
-6.9232 -5.7601 1.8564
-6.3820 -6.3546 1.8564
-5.7898 -6.8984 1.8564
-5.1516 -7.3872 1.8564
-4.4723 -7.8172 1.8564
-3.7573 -8.1849 1.8564
-3.0125 -8.4873 1.8564
-2.2435 -8.7222 1.8564
-1.4568 -8.8875 1.8564
-0.6584 -8.9820 1.8564
0.1453 -9.0049 1.8564
0.9477 -8.9561 1.8564
0.3291 -1.6689 0.3506
0.4776 -1.6362 0.3513
0.6231 -1.5909 0.3522
0.7646 -1.5331 0.3531
0.9009 -1.4631 0.3542
1.0311 -1.3814 0.3553
1.1542 -1.2884 0.3565
1.2691 -1.1847 0.3579
1.3750 -1.0709 0.3593
1.4710 -0.9478 0.3607
1.5561 -0.8163 0.3622
1.6297 -0.6771 0.3638
1.6909 -0.5314 0.3653
1.7391 -0.3801 0.3669
1.7738 -0.2245 0.3685
9.0001 -0.3296 1.8564
8.9936 0.4743 1.8564
8.9155 1.2745 1.8564
8.7663 2.0645 1.8564
8.5473 2.8380 1.8564
8.0026 3.4771 1.7985
7.4512 4.0627 1.7494
6.9136 4.6138 1.7133
6.4396 5.1838 1.7040
5.9516 5.7374 1.7040
5.4236 6.2538 1.7063
4.8377 6.7034 1.7040
4.2269 7.1187 1.7065
3.6413 7.6052 1.7380
3.0256 8.1062 1.7835
2.3684 8.6269 1.8440
1.6003 8.8628 1.8564
0.8036 8.9702 1.8564
0.0004 9.0061 1.8564
-0.8027 8.9703 1.8564
-1.5995 8.8629 1.8564
-0.4905 1.7872 0.3820
-0.6463 1.7320 0.3811
-0.7959 1.6628 0.3800
-0.9381 1.5802 0.3788
-1.0717 1.4852 0.3775
-1.1955 1.3787 0.3762
-1.3087 1.2618 0.3747
-1.4103 1.1355 0.3732
-1.4997 1.0010 0.3717
-1.5763 0.8596 0.3701
-1.6395 0.7125 0.3685
-1.6892 0.5610 0.3669
-1.7249 0.4064 0.3653
-1.7467 0.2498 0.3637
-8.9936 0.4751 1.8564
-9.0001 -0.3288 1.8564
-8.9349 -1.1301 1.8564
-8.7985 -1.9224 1.8564
-8.5920 -2.6994 1.8564
-8.3171 -3.4549 1.8564
-7.9758 -4.1828 1.8564
-7.5710 -4.8775 1.8564
-7.1059 -5.5332 1.8564
-6.5841 -6.1449 1.8564
-6.0099 -6.7075 1.8564
-5.3878 -7.2168 1.8564
-4.7227 -7.6685 1.8564
-4.0200 -8.0591 1.8564
-3.2853 -8.3855 1.8564
-2.5244 -8.6451 1.8564
-1.7434 -8.8357 1.8564
-0.9485 -8.9560 1.8564
-0.1460 -9.0049 1.8564
0.6576 -8.9821 1.8564
0.2748 -1.6776 0.3504
0.4241 -1.6495 0.3511
0.5709 -1.6088 0.3519
0.7139 -1.5554 0.3528
0.8522 -1.4898 0.3538
0.9847 -1.4123 0.3549
1.1105 -1.3233 0.3561
1.2285 -1.2234 0.3574
1.3378 -1.1132 0.3587
1.4374 -0.9934 0.3602
1.5266 -0.8648 0.3617
1.6044 -0.7283 0.3632
1.6702 -0.5849 0.3648
1.7232 -0.4355 0.3664
1.7628 -0.2813 0.3680
8.9847 -0.6205 1.8564
9.0043 0.1833 1.8564
8.9520 0.9855 1.8564
8.8285 1.7799 1.8564
8.6346 2.5602 1.8564
8.2098 3.2557 1.8205
7.6481 3.8546 1.7654
7.1034 4.4153 1.7240
6.6038 4.9728 1.7040
6.1340 5.5419 1.7040
5.6218 6.0739 1.7060
5.0520 6.5435 1.7040
4.4483 6.9679 1.7040
3.8546 7.4244 1.7243
3.2525 7.9220 1.7652
2.6128 8.4382 1.8208
1.8861 8.8064 1.8564
1.0932 8.9395 1.8564
0.2916 9.0014 1.8564
-0.5123 8.9915 1.8564
-1.3121 8.9100 1.8564
-0.4328 1.8036 0.3823
-0.5905 1.7537 0.3814
-0.7425 1.6894 0.3804
-0.8876 1.6116 0.3792
-1.0244 1.5210 0.3780
-1.1518 1.4186 0.3767
-1.2690 1.3053 0.3752
-1.3749 1.1822 0.3738
-1.4688 1.0506 0.3722
-1.5501 0.9116 0.3707
-1.6182 0.7664 0.3691
-1.6728 0.6163 0.3675
-1.7136 0.4627 0.3659
-1.7404 0.3067 0.3643
-1.7533 0.1496 0.3627
-9.0060 -0.0376 1.8564
-8.9668 -0.8406 1.8564
-8.8561 -1.6369 1.8564
-8.6748 -2.4202 1.8564
-8.4244 -3.1841 1.8564
-8.1069 -3.9227 1.8564
-7.7248 -4.6301 1.8564
-7.2811 -5.3005 1.8564
-6.7794 -5.9287 1.8564
-6.2236 -6.5097 1.8564
-5.6183 -7.0388 1.8564
-4.9682 -7.5118 1.8564
-4.2786 -7.9249 1.8564
-3.5548 -8.2749 1.8564
-2.8026 -8.5589 1.8564
-2.0282 -8.7747 1.8564
-1.2376 -8.9207 1.8564
-0.4371 -8.9955 1.8564
0.3668 -8.9986 1.8564
1.1679 -8.9301 1.8564
0.3703 -1.6612 0.3508
0.5181 -1.6250 0.3516
0.6626 -1.5762 0.3524
0.8027 -1.5150 0.3534
0.9374 -1.4417 0.3545
1.0658 -1.3568 0.3556
1.1867 -1.2608 0.3569
1.2993 -1.1543 0.3582
1.4025 -1.0379 0.3596
1.4956 -0.9124 0.3611
1.5776 -0.7786 0.3626
1.6478 -0.6376 0.3642
1.7055 -0.4902 0.3658
1.7500 -0.3376 0.3674
1.7809 -0.1810 0.3690
9.0055 -0.1080 1.8564
8.9792 0.6955 1.8564
8.8814 1.4935 1.8564
8.7129 2.2796 1.8564
8.4203 3.0279 1.8444
7.8479 3.6420 1.7834
7.2997 4.2164 1.7376
6.7718 4.7642 1.7067
6.3100 5.3407 1.7040
5.8086 5.8821 1.7040
5.2609 6.3767 1.7040
4.6713 6.8204 1.7040
4.0665 7.2492 1.7133
3.4748 7.7410 1.7490
2.8496 8.2488 1.7989
2.1699 8.7408 1.8564
1.3817 8.8995 1.8564
0.5825 8.9873 1.8564
-0.2213 9.0034 1.8564
-1.0233 8.9478 1.8564
-0.3745 1.8181 0.3826
-0.5340 1.7734 0.3818
-0.6882 1.7143 0.3808
-0.8359 1.6413 0.3797
-0.9758 1.5552 0.3785
-1.1068 1.4570 0.3771
-1.2278 1.3475 0.3758
-1.3379 1.2278 0.3743
-1.4362 1.0992 0.3728
-1.5221 0.9627 0.3712
-1.5950 0.8196 0.3696
-1.6546 0.6712 0.3680
-1.7004 0.5187 0.3664
-1.7323 0.3634 0.3648
-1.7502 0.2065 0.3633
-9.0025 0.2536 1.8564
-8.9893 -0.5502 1.8564
-8.9044 -1.3497 1.8564
-8.7486 -2.1384 1.8564
-8.5230 -2.9101 1.8564
-8.2295 -3.6586 1.8564
-7.8704 -4.3779 1.8564
-7.4487 -5.0623 1.8564
-6.9675 -5.7064 1.8564
-6.4309 -6.3050 1.8564
-5.8430 -6.8534 1.8564
-5.2085 -7.3472 1.8564
-4.5325 -7.7824 1.8564
-3.8205 -8.1556 1.8564
-3.0780 -8.4638 1.8564
-2.3109 -8.7046 1.8564
-1.5254 -8.8760 1.8564
-0.7278 -8.9766 1.8564
0.0756 -9.0058 1.8564
0.8785 -8.9632 1.8564
0.3162 -1.6711 0.3506
0.4649 -1.6396 0.3513
0.6107 -1.5953 0.3521
0.7525 -1.5385 0.3530
0.8893 -1.4696 0.3541
1.0201 -1.3889 0.3552
1.1438 -1.2969 0.3564
1.2595 -1.1940 0.3577
1.3662 -1.0811 0.3591
1.4631 -0.9588 0.3606
1.5492 -0.8280 0.3621
1.6238 -0.6894 0.3636
1.6861 -0.5442 0.3652
1.7355 -0.3934 0.3668
1.7714 -0.2381 0.3684
8.9973 -0.3992 1.8564
8.9970 0.4048 1.8564
8.9251 1.2055 1.8564
8.7820 1.9967 1.8564
8.5689 2.7719 1.8564
8.0517 3.4246 1.8035
7.4984 4.0136 1.7531
6.9582 4.5662 1.7155
6.4794 5.1339 1.7040
5.9958 5.6912 1.7040
5.4711 6.2108 1.7061
4.8894 6.6658 1.7040
4.2769 7.0777 1.7046
3.6930 7.5625 1.7348
3.0803 8.0618 1.7789
2.4274 8.5814 1.8383
1.6688 8.8502 1.8564
0.8728 8.9637 1.8564
0.0700 9.0058 1.8564
-0.7334 8.9762 1.8564
-1.5310 8.8750 1.8564
-0.4768 1.7913 0.3821
-0.6330 1.7373 0.3811
-0.7833 1.6693 0.3801
-0.9261 1.5879 0.3789
-1.0605 1.4939 0.3776
-1.1852 1.3884 0.3763
-1.2993 1.2723 0.3748
-1.4020 1.1467 0.3733
-1.4925 1.0129 0.3718
-1.5702 0.8721 0.3702
-1.6346 0.7255 0.3686
-1.6854 0.5743 0.3670
-1.7224 0.4199 0.3654
-1.7453 0.2634 0.3638
-8.9896 0.5446 1.8564
-9.0024 -0.2593 1.8564
-8.9434 -1.0610 1.8564
-8.8131 -1.8544 1.8564
-8.6126 -2.6329 1.8564
-8.3435 -3.3905 1.8564
-8.0079 -4.1211 1.8564
-7.6085 -4.8188 1.8564
-7.1484 -5.4781 1.8564
-6.6314 -6.0938 1.8564
-6.0616 -6.6609 1.8564
-5.4434 -7.1749 1.8564
-4.7819 -7.6318 1.8564
-4.0822 -8.0278 1.8564
-3.3500 -8.3599 1.8564
-2.5912 -8.6253 1.8564
-1.8116 -8.8220 1.8564
-1.0177 -8.9484 1.8564
-0.2156 -9.0035 1.8564
0.5882 -8.9869 1.8564
0.2618 -1.6794 0.3503
0.4113 -1.6525 0.3510
0.5583 -1.6128 0.3518
0.7017 -1.5605 0.3527
0.8404 -1.4960 0.3537
0.9735 -1.4195 0.3548
1.0999 -1.3315 0.3560
1.2186 -1.2325 0.3573
1.3287 -1.1232 0.3586
1.4292 -1.0042 0.3600
1.5193 -0.8763 0.3615
1.5982 -0.7404 0.3631
1.6650 -0.5975 0.3646
1.7191 -0.4486 0.3662
1.7599 -0.2948 0.3678
1.7870 -0.1373 0.3694
9.0054 0.1136 1.8564
8.9594 0.9163 1.8564
8.8420 1.7116 1.8564
8.6541 2.4933 1.8564
8.2600 3.2019 1.8261
7.6955 3.8042 1.7695
7.1500 4.3681 1.7271
6.6420 4.9217 1.7040
6.1767 5.4944 1.7040
5.6691 6.0307 1.7061
5.1024 6.5043 1.7040
4.5020 6.9334 1.7040
3.9050 7.3814 1.7213
3.3060 7.8784 1.7611
2.6704 8.3938 1.8156
1.9541 8.7916 1.8564
1.1623 8.9308 1.8564
0.3612 8.9989 1.8564
-0.4428 8.9952 1.8564
-1.2432 8.9199 1.8564
-0.4189 1.8073 0.3824
-0.5771 1.7586 0.3815
-0.7296 1.6955 0.3805
-0.8753 1.6189 0.3793
-1.0129 1.5293 0.3781
-1.1412 1.4279 0.3768
-1.2593 1.3155 0.3754
-1.3662 1.1932 0.3739
-1.4611 1.0623 0.3724
-1.5435 0.9238 0.3708
-1.6128 0.7792 0.3692
-1.6686 0.6295 0.3676
-1.7106 0.4761 0.3660
-1.7386 0.3202 0.3644
-1.7527 0.1632 0.3628
-9.0060 0.0320 1.8564
-8.9730 -0.7713 1.8564
-8.8685 -1.5684 1.8564
-8.6933 -2.3530 1.8564
-8.4488 -3.1189 1.8564
-8.1370 -3.8600 1.8564
-7.7603 -4.5702 1.8564
-7.3218 -5.2441 1.8564
-6.8250 -5.8761 1.8564
-6.2738 -6.4614 1.8564
-5.6725 -6.9951 1.8564
-5.0262 -7.4731 1.8564
-4.3397 -7.8916 1.8564
-3.6186 -8.2472 1.8564
-2.8687 -8.5370 1.8564
-2.0960 -8.7588 1.8564
-1.3065 -8.9108 1.8564
-0.5066 -8.9918 1.8564
0.2973 -9.0012 1.8564
1.0988 -8.9388 1.8564
0.3574 -1.6637 0.3508
0.5054 -1.6286 0.3515
0.6502 -1.5809 0.3523
0.7908 -1.5207 0.3533
0.9260 -1.4485 0.3544
1.0549 -1.3646 0.3555
1.1766 -1.2696 0.3568
1.2899 -1.1639 0.3581
1.3940 -1.0483 0.3595
1.4879 -0.9236 0.3610
1.5710 -0.7905 0.3625
1.6422 -0.6500 0.3641
1.7010 -0.5032 0.3656
1.7467 -0.3510 0.3672
1.7788 -0.1947 0.3688
9.0044 -0.1776 1.8564
8.9844 0.6261 1.8564
8.8927 1.4248 1.8564
8.7302 2.2122 1.8564
8.4704 2.9722 1.8503
7.8962 3.5905 1.7880
7.3471 4.1684 1.7412
6.8163 4.7171 1.7086
6.3511 5.2918 1.7040
5.8539 5.8371 1.7040
5.3100 6.3359 1.7040
4.7239 6.7841 1.7040
4.1170 7.2082 1.7111
3.5273 7.6982 1.7454
2.9052 8.2038 1.7939
2.2373 8.7238 1.8564
1.4504 8.8886 1.8564
0.6520 8.9825 1.8564
-0.1516 9.0048 1.8564
-0.9541 8.9554 1.8564
-0.3605 1.8212 0.3827
-0.5204 1.7779 0.3818
-0.6751 1.7200 0.3809
-0.8234 1.6482 0.3798
-0.9641 1.5632 0.3786
-1.0959 1.4659 0.3773
-1.2177 1.3574 0.3759
-1.3288 1.2386 0.3744
-1.4282 1.1106 0.3729
-1.5152 0.9748 0.3714
-1.5893 0.8322 0.3698
-1.6500 0.6842 0.3682
-1.6970 0.5320 0.3666
-1.7301 0.3769 0.3650
-1.7492 0.2201 0.3634
-9.0003 0.3232 1.8564
-8.9932 -0.4807 1.8564
-8.9146 -1.2808 1.8564
-8.7648 -2.0707 1.8564
-8.5452 -2.8441 1.8564
-8.2575 -3.5948 1.8564
-7.9041 -4.3169 1.8564
-7.4876 -5.0046 1.8564
-7.0114 -5.6524 1.8564
-6.4794 -6.2551 1.8564
-5.8958 -6.8080 1.8564
-5.2651 -7.3067 1.8564
-4.5926 -7.7471 1.8564
-3.8834 -8.1258 1.8564
-3.1433 -8.4398 1.8564
-2.3781 -8.6865 1.8564
-1.5940 -8.8639 1.8564
-0.7971 -8.9708 1.8564
0.0060 -9.0061 1.8564
0.8092 -8.9697 1.8564
0.3032 -1.6733 0.3505
0.4521 -1.6428 0.3512
0.5982 -1.5996 0.3520
0.7404 -1.5439 0.3530
0.8777 -1.4761 0.3540
1.0090 -1.3963 0.3551
1.1334 -1.3052 0.3563
1.2498 -1.2034 0.3576
1.3574 -1.0913 0.3590
1.4551 -0.9698 0.3604
1.5422 -0.8396 0.3619
1.6178 -0.7017 0.3635
1.6812 -0.5570 0.3651
1.7317 -0.4067 0.3667
1.7688 -0.2517 0.3683
8.9939 -0.4687 1.8564
8.9999 0.3353 1.8564
8.9341 1.1365 1.8564
8.7972 1.9287 1.8564
8.5901 2.7056 1.8564
8.1010 3.3719 1.8087
7.5453 3.9639 1.7568
7.0029 4.5185 1.7179
6.5189 5.0836 1.7040
6.0396 5.6447 1.7040
5.5185 6.1679 1.7060
