ply
format ascii 1.0
element vertex 2028
property float32 x
property float32 y
property float32 z
end_header
24.7343 11.4569 1.1761
24.5620 14.1638 1.2234
24.7194 17.3646 1.3034
24.3976 20.6202 1.3783
-2.5544 22.4630 0.9754
-4.1632 20.2741 0.8930
-12.5025 31.1991 1.4504
-15.4013 30.2865 1.4660
-43.6091 22.4396 2.1161
-45.1442 18.3421 2.1025
-46.5968 14.2418 2.1023
-19.1054 4.0187 0.8424
-19.1002 2.2646 0.8299
-19.0951 0.5484 0.8242
-19.0901 -1.1581 0.8252
-19.0850 -2.8824 0.8328
-9.4550 -2.3058 0.4199
-37.7914 -12.8813 1.7227
-28.5365 -12.6686 1.3471
-22.7722 -12.6516 1.1240
-18.6177 -12.6393 0.9709
-15.7361 -12.8747 0.8772
-15.7287 -15.4056 0.9499
-15.7197 -18.4199 1.0448
-15.7088 -22.1362 1.1711
-18.0078 -30.8853 1.5426
-14.8420 -31.6445 1.5081
-11.1546 -30.6287 1.4064
-8.2893 -31.1658 1.3914
-6.4049 -37.1669 1.6273
-3.0962 -37.9776 1.6440
0.2484 -31.2129 1.3468
3.6954 -37.8757 1.6420
6.9781 -36.9681 1.6232
10.1134 -35.7257 1.6020
13.0716 -34.1905 1.5793
15.2085 -31.1276 1.4948
16.3860 -27.1032 1.3665
19.0367 -25.9410 1.3883
20.9053 -23.7211 1.3642
22.9150 -21.7407 1.3629
17.5548 -13.9023 0.9662
23.4131 -15.3563 1.2081
23.2406 -12.4320 1.1372
23.3999 -9.9456 1.0970
23.3960 -7.5612 1.0609
22.8280 -5.1836 1.0100
23.3807 -3.1515 1.0179
29.9534 -1.3392 1.2937
41.2089 1.8401 1.7798
22.3731 3.0144 0.9740
42.4405 9.6346 1.8778
28.4799 9.2026 1.2914
24.7366 10.5121 1.1597
24.1704 12.9277 1.1827
24.7227 16.2133 1.2756
24.1521 19.1247 1.3292
24.6984 23.4301 1.4689
-3.4914 20.2668 0.8873
-43.2914 24.0546 2.1369
-44.6083 19.8066 2.1059
-46.0792 15.7091 2.1005
-19.1073 4.6608 0.8486
-19.1020 2.8860 0.8335
-19.0969 1.1596 0.8255
-19.0919 -0.5472 0.8241
-19.0868 -2.2620 0.8293
-19.0816 -4.0125 0.8413
-42.1963 -12.8943 1.9037
-31.2048 -12.6765 1.4532
-24.6009 -12.6570 1.1937
-19.9671 -12.6433 1.0197
-16.4881 -12.6330 0.8962
-15.7315 -14.4535 0.9217
-15.7231 -17.2748 1.0079
-15.6937 -20.6825 1.1202
-20.0133 -31.9357 1.6261
-16.2411 -31.9334 1.5458
-12.4343 -31.0239 1.4421
-9.2595 -30.8163 1.3883
-7.5477 -36.7455 1.6185
-3.6923 -32.4541 1.4093
-0.9162 -38.1989 1.6486
2.4900 -38.0645 1.6459
5.8226 -37.3553 1.6312
9.0052 -36.1820 1.6087
12.0394 -34.7817 1.5881
14.8459 -33.0189 1.5620
15.5305 -27.6452 1.3681
17.9971 -26.2418 1.3729
20.9085 -25.3101 1.4165
21.5022 -21.7464 1.3195
25.7084 -21.7305 1.4524
23.6813 -16.6373 1.2487
22.8476 -13.1769 1.1380
23.4021 -10.8414 1.1128
23.3988 -8.3964 1.0726
23.2254 -6.0598 1.0356
23.3833 -3.9157 1.0230
23.4628 -1.8012 1.0153
42.1732 0.5351 1.8198
41.8420 4.2824 1.8148
24.0355 4.6548 1.0563
31.9787 9.2164 1.4359
24.8305 9.6281 1.1491
24.7324 12.2292 1.1904
24.1650 14.7662 1.2219
24.7161 18.3183 1.3274
24.7034 21.9795 1.4267
18.9388 29.1753 1.5008
-2.8273 20.2596 0.8826
-9.5713 17.6933 0.8680
-44.0615 21.2732 2.1111
-45.5598 17.1746 2.1008
-47.0167 13.0726 2.1056
-19.1039 3.5136 0.8381
-19.0987 1.7733 0.8276
-19.0937 0.0626 0.8238
-19.0886 -1.6461 0.8267
-19.0835 -3.3806 0.8362
-47.0984 -12.7630 2.1054
-34.3328 -12.6858 1.5792
-26.6737 -12.6631 1.2740
-21.4609 -12.6477 1.0748
-17.6314 -12.6364 0.9359
-15.7341 -13.5554 0.8961
-15.7263 -16.2071 0.9744
-15.7169 -19.3944 1.0771
-21.2879 -31.6747 1.6466
-16.9688 -30.8822 1.5204
-9.5988 -21.8971 1.0316
-10.2134 -30.4294 1.3849
-8.1947 -34.2987 1.5215
-5.4776 -37.4540 1.6332
-2.1329 -38.1053 1.6467
1.2752 -38.1796 1.6482
4.6455 -37.6733 1.6378
7.8799 -36.6119 1.6158
10.9780 -35.3265 1.5961
13.8713 -33.6879 1.5719
15.2184 -29.2386 1.4222
17.0531 -26.6516 1.3652
19.9247 -25.7517 1.4048
20.9014 -22.5346 1.3261
24.1110 -21.7376 1.4007
28.9135 -21.7246 1.5604
23.4111 -14.5172 1.1886
23.2384 -11.6808 1.1222
23.3982 -9.2497 1.0856
22.8993 -6.7627 1.0302
23.3860 -4.6884 1.0291
23.3786 -2.5478 1.0147
42.1688 -0.8118 1.8198
29.5349 2.0725 1.2775
42.0569 6.7595 1.8379
36.3328 9.2256 1.6174
17.6216 6.1931 0.8059
24.7348 11.2622 1.1726
24.5626 13.9520 1.2188
24.7202 17.1262 1.2976
24.5434 20.4712 1.3790
-2.5406 23.7157 1.0291
-4.0256 20.2726 0.8918
-12.2570 31.1722 1.4452
-43.4936 22.7392 2.1176
-45.0345 18.6398 2.1030
-46.4915 14.5410 2.1018
-19.1058 4.1487 0.8436
-19.1006 2.3908 0.8306
-19.0955 0.6727 0.8244
-19.0904 -1.0336 0.8249
-19.0853 -2.7556 0.8320
-9.3497 -2.2158 0.4146
-38.6195 -12.8838 1.7566
-29.0480 -12.6701 1.3674
-23.1272 -12.6526 1.1374
-18.8820 -12.6401 0.9804
-15.7366 -12.7051 0.8726
-15.7292 -15.2069 0.9440
-15.7205 -18.1799 1.0370
-15.7096 -21.8350 1.1606
-18.9816 -32.0741 1.6081
-15.1238 -31.7069 1.5157
-11.4117 -30.7118 1.4136
-8.4881 -31.0977 1.3908
-6.6397 -37.0865 1.6256
-3.3415 -37.9375 1.6432
0.0554 -38.2202 1.6491
3.4509 -37.9201 1.6429
6.7446 -37.0525 1.6250
9.8897 -35.8228 1.6034
12.8638 -34.3145 1.5812
15.2058 -31.6423 1.5147
16.2133 -27.2159 1.3669
18.8164 -25.9937 1.3846
20.9063 -24.0357 1.3745
22.6197 -21.7419 1.3537
27.0751 -21.7298 1.4979
23.4136 -15.5754 1.2133
23.2412 -12.6275 1.1412
23.4003 -10.1260 1.1001
23.3965 -7.7299 1.0632
23.0783 -5.3986 1.0226
23.3812 -3.3066 1.0189
26.2827 -1.3464 1.1355
41.3957 1.5787 1.7874
22.3990 2.8697 0.9743
25.6168 5.6404 1.1318
29.1344 9.2052 1.3183
24.7371 10.3228 1.1565
24.2402 12.7629 1.1820
24.7232 15.9846 1.2703
24.1529 18.8710 1.3225
24.6994 23.1277 1.4600
-3.3555 20.2653 0.8863
-43.2594 24.4065 2.1431
-44.5010 20.1065 2.1070
-45.9715 16.0069 2.1003
-47.4507 11.9022 2.1108
-19.1024 3.0133 0.8344
-19.0973 1.2844 0.8258
-19.0922 -0.4230 0.8240
-19.0872 -2.1362 0.8287
-19.0820 -3.8832 0.8402
-43.2101 -12.8973 1.9456
-31.8009 -12.6783 1.4771
-25.0017 -12.6582 1.2091
-20.2588 -12.6442 1.0304
-16.7131 -12.6337 0.9040
-15.7320 -14.2664 0.9163
-15.7238 -17.0514 1.0008
-15.6945 -20.4065 1.1107
-20.2751 -31.8905 1.6305
-16.2512 -31.4453 1.5272
-12.7004 -31.1003 1.4494
-9.4552 -30.7405 1.3877
-7.7773 -36.6516 1.6166
-4.5374 -37.6968 1.6382
-1.1645 -38.1859 1.6484
2.2432 -38.0940 1.6465
5.5845 -37.4257 1.6327
8.7767 -36.2686 1.6100
11.8255 -34.8965 1.5898
14.6502 -33.1585 1.5641
15.3539 -27.7522 1.3684
17.7873 -26.3011 1.3700
20.8175 -25.5366 1.4215
21.2253 -21.7475 1.3112
25.3735 -21.7320 1.4414
30.4913 -21.7193 1.6152
23.4091 -13.7044 1.1704
23.4025 -11.0270 1.1162
23.3995 -8.5689 1.0752
23.2258 -6.2216 1.0374
23.3839 -4.0724 1.0241
23.4276 -1.9518 1.0143
42.1775 0.2608 1.8199
41.8831 4.0114 1.8154
42.2320 7.8941 1.8537
32.7865 9.2185 1.4695
24.9137 9.4743 1.1501
24.7329 12.0298 1.1867
24.2476 14.6009 1.2212
24.7170 18.0710 1.3211
24.7044 21.6941 1.4186
-2.6929 20.2581 0.8818
-4.5657 20.2785 0.8969
-9.4398 17.7248 0.8665
-43.9496 21.5728 2.1124
-45.4529 17.4728 2.1011
-46.9097 13.3723 2.1046
-19.1043 3.6423 0.8391
-19.0991 1.8988 0.8281
-19.0940 0.1869 0.8239
-19.0890 -1.5211 0.8262
-19.0839 -3.2527 0.8353
-47.2332 -12.4701 2.1078
-37.3559 -13.5273 1.7142
-27.1307 -12.6645 1.2918
-21.7853 -12.6487 1.0869
-17.8769 -12.6371 0.9446
-15.7347 -13.3785 0.8911
-15.7269 -15.9981 0.9679
-15.7176 -19.1393 1.0686
-21.5439 -31.6095 1.6505
-17.2318 -30.8830 1.5259
-14.0326 -31.4535 1.4860
-10.4172 -30.3797 1.3857
-8.1997 -33.3582 1.4821
-5.7161 -37.3848 1.6318
-2.3799 -38.0771 1.6461
1.0270 -38.1940 1.6485
4.4035 -37.7294 1.6389
7.6509 -36.7070 1.6178
10.7584 -35.4316 1.5977
13.6686 -33.8191 1.5738
15.2160 -29.7043 1.4400
16.8836 -26.7688 1.3655
19.6970 -25.8025 1.4006
20.9024 -22.8319 1.3356
23.7993 -21.7390 1.3908
17.8041 -13.5595 0.9656
23.4116 -14.7293 1.1934
23.2389 -11.8710 1.1259
23.3986 -9.4263 1.0884
22.8330 -6.9049 1.0292
23.3865 -4.8469 1.0305
23.3791 -2.7019 1.0154
42.1600 -1.0860 1.8197
37.0027 2.3547 1.5998
25.6477 3.9511 1.1197
37.3582 9.2276 1.6603
17.6732 6.0823 0.8064
24.7352 11.0687 1.1692
24.5632 13.7418 1.2144
24.7210 16.8898 1.2918
24.5441 20.2026 1.3716
-3.8884 20.2711 0.8906
-43.3752 23.0379 2.1191
-44.9296 18.9397 2.1038
-46.3831 14.8391 2.1012
-19.1061 4.2792 0.8448
-19.1009 2.5172 0.8313
-19.0958 0.7972 0.8246
-19.0908 -0.9091 0.8246
-19.0857 -2.6290 0.8313
-9.3319 -2.1475 0.4132
-39.4807 -12.8863 1.7919
-29.5751 -12.6717 1.3883
-23.4908 -12.6537 1.1512
-19.1516 -12.6409 0.9901
-15.8549 -12.6311 0.8746
-15.7298 -15.0107 0.9381
-15.7211 -17.9434 1.0293
-15.7105 -21.5392 1.1503
-19.2467 -32.0445 1.6128
-15.4072 -31.7675 1.5234
-11.6706 -30.7936 1.4209
-8.6864 -31.0280 1.3902
-6.8735 -37.0033 1.6239
-3.5863 -37.8943 1.6423
-0.1577 -31.2077 1.3465
3.2058 -37.9615 1.6437
6.5102 -37.1341 1.6266
9.6648 -35.9177 1.6048
12.6547 -34.4368 1.5830
15.2030 -32.1710 1.5352
16.0398 -27.3275 1.3672
18.6070 -26.0598 1.3816
20.9048 -24.3521 1.3848
22.3283 -21.7431 1.3447
26.7187 -21.7310 1.4860
23.4178 -15.7989 1.2188
23.0968 -12.7443 1.1382
23.4008 -10.3074 1.1033
23.3971 -7.8993 1.0655
23.2240 -5.5922 1.0307
23.3817 -3.4619 1.0198
23.9282 -1.3820 1.0341
42.1450 1.3328 1.8193
22.4249 2.7248 0.9747
26.3270 5.6174 1.1615
29.8169 9.2078 1.3464
24.7487 10.1391 1.1540
24.6298 12.7640 1.1969
24.7238 15.7579 1.2650
24.4773 18.8694 1.3335
24.7005 22.8290 1.4512
-3.2200 20.2639 0.8853
-43.2250 24.7592 2.1493
-44.3913 20.4058 2.1080
-45.8657 16.3055 2.1003
-47.3377 12.2017 2.1092
-19.1028 3.1409 0.8353
-19.0977 1.4092 0.8262
-19.0926 -0.2988 0.8239
-19.0875 -2.0106 0.8281
-19.0824 -3.7541 0.8391
-44.2692 -12.9004 1.9895
-32.4169 -12.6801 1.5019
-25.4130 -12.6594 1.2250
-20.5568 -12.6450 1.0413
-16.9420 -12.6343 0.9119
-15.7326 -14.0814 0.9110
-15.7244 -16.8310 0.9938
-15.6584 -20.0877 1.0989
-20.5359 -31.8412 1.6348
-16.2526 -30.9529 1.5084
-9.1623 -22.0260 1.0293
-9.6501 -30.6632 1.3870
-8.0056 -36.5549 1.6146
-4.7790 -37.6390 1.6370
-1.4126 -38.1698 1.6480
1.9960 -38.1204 1.6470
5.3454 -37.4933 1.6341
8.5471 -36.3531 1.6113
11.6104 -35.0094 1.5914
14.4529 -33.2965 1.5661
15.2345 -27.9643 1.3740
17.5772 -26.3584 1.3670
20.5886 -25.5941 1.4173
20.9163 -21.7116 1.3008
25.0436 -21.7334 1.4307
30.0773 -21.7207 1.6008
23.4096 -13.9100 1.1749
23.0234 -11.0320 1.1015
23.4000 -8.7421 1.0778
23.2263 -6.3839 1.0393
23.3844 -4.2294 1.0253
23.4108 -2.1039 1.0142
42.1792 -0.0137 1.8199
29.8845 2.6661 1.2945
24.3972 4.3963 1.0696
33.6307 9.2202 1.5046
25.0345 9.3342 1.1528
24.7334 11.8318 1.1830
24.4158 14.4866 1.2249
24.7178 17.8261 1.3149
24.1468 20.9279 1.3787
-2.5770 20.4012 0.8872
-4.4270 20.2770 0.8955
-43.8347 21.8715 2.1137
-45.3495 17.7727 2.1016
-46.7998 13.6706 2.1036
-19.1046 3.7713 0.8402
-19.0995 2.0243 0.8287
-19.0944 0.3111 0.8240
-19.0894 -1.3962 0.8258
-19.0842 -3.1252 0.8344
-47.3648 -12.1760 2.1101
-37.3573 -13.2535 1.7103
-27.6008 -12.6659 1.3103
-22.1172 -12.6496 1.0993
-18.1270 -12.6379 0.9534
-15.7352 -13.2035 0.8863
-15.7275 -15.7919 0.9616
-15.7184 -18.8883 1.0602
-21.7983 -31.5402 1.6542
-17.4965 -30.8838 1.5315
-14.3091 -31.5207 1.4936
-10.6688 -30.4665 1.3928
-8.2046 -32.4656 1.4448
-5.9538 -37.3126 1.6303
-2.6266 -38.0458 1.6454
0.7786 -38.2052 1.6488
4.1607 -37.7825 1.6400
7.4206 -36.7994 1.6197
10.5377 -35.5347 1.5992
13.4646 -33.9485 1.5758
15.2135 -30.1818 1.4583
16.7133 -26.8849 1.3659
19.4697 -25.8517 1.3964
20.9034 -23.1332 1.3452
23.4902 -21.7384 1.3809
17.5865 -13.5754 0.9586
23.4121 -14.9431 1.1984
23.2395 -12.0626 1.1297
23.3991 -9.6039 1.0913
22.8335 -7.0675 1.0313
23.0141 -4.9262 1.0155
23.3796 -2.8562 1.0163
42.1484 -1.3602 1.8195
34.6004 1.9758 1.4954
26.8116 3.9520 1.1693
38.4395 9.2297 1.7057
27.3018 9.1980 1.2430
24.7357 10.8764 1.1659
24.5639 13.5332 1.2101
24.7216 16.6553 1.2861
24.5449 19.9368 1.3644
24.7489 24.0690 1.4895
-3.7517 20.2696 0.8894
-43.3456 23.3850 2.1250
-44.8219 19.2387 2.1045
-46.2767 15.1375 2.1008
-19.1065 4.4099 0.8461
-19.1013 2.6437 0.8320
-19.0962 0.9217 0.8249
-19.0912 -0.7846 0.8244
-19.0861 -2.5026 0.8306
-9.3563 -2.0891 0.4136
-40.3776 -12.8890 1.8288
-30.1187 -12.6733 1.4099
-23.8635 -12.6548 1.1654
-19.4266 -12.6417 1.0000
-16.0692 -12.6318 0.8819
-15.7304 -14.8169 0.9324
-15.7218 -17.7105 1.0218
-15.6921 -21.2228 1.1388
-19.5109 -32.0109 1.6175
-15.6921 -31.8262 1.5310
-11.9314 -30.8741 1.4281
-8.8840 -30.9567 1.3896
-7.1064 -36.9173 1.6221
-3.2834 -32.4424 1.4069
-0.4418 -38.2153 1.6490
2.9602 -37.9998 1.6445
6.2747 -37.2128 1.6283
9.4390 -36.0106 1.6062
12.4444 -34.5572 1.5847
15.2001 -32.7142 1.5564
15.8656 -27.4378 1.3675
18.3976 -26.1240 1.3786
20.9060 -24.6764 1.3954
22.0409 -21.7442 1.3359
26.3678 -21.7322 1.4743
23.4460 -16.0409 1.2257
25.7729 -19.1038 1.5822
23.4105 -14.3069 1.3531
22.8420 -11.2960 1.2568
23.4012 -9.0753 1.2379
23.0820 -6.6537 1.1848
23.3854 -4.5302 1.1748
23.3788 -2.3940 1.1591
34.6887 -0.4421 1.7110
30.3343 2.3270 1.5004
36.0682 6.0379 1.8036
35.3594 9.2236 1.8023
25.6186 9.1913 1.3424
24.7343 11.4569 1.3444
24.5620 14.1638 1.3984
24.7194 17.3646 1.4899
24.3976 20.6202 1.5755
31.3201 31.6723 2.1969
30.3162 36.6943 2.3475
26.9228 39.2518 2.3475
23.3149 41.4965 2.3475
19.5211 43.4104 2.3475
15.5057 44.7876 2.3376
11.4334 45.9272 2.3343
7.2816 46.6984 2.3310
3.0882 47.1677 2.3313
-1.1309 47.2595 2.3315
-2.5543 22.4624 1.1150
-4.1630 20.2727 1.0207
-13.6944 45.5852 2.3475
-12.5025 31.1991 1.6579
-15.3548 30.1951 1.6707
-25.2730 40.3338 2.3475
-28.7695 37.9192 2.3475
-29.9785 32.9407 2.1967
-32.8528 30.1873 2.2005
-34.6255 26.5326 2.1514
-36.2568 22.9608 2.1166
-36.8948 18.9847 2.0464
-37.3708 15.1837 1.9894
-38.2772 11.6990 1.9740
-19.1054 4.0187 0.9629
-19.1002 2.2646 0.9486
-19.0951 0.5484 0.9422
-19.0901 -1.1581 0.9432
-19.0850 -2.8824 0.9519
-9.4536 -2.3054 0.4799
-37.0019 -12.6122 1.9280
-28.5365 -12.6686 1.5399
-22.7722 -12.6516 1.2848
-18.6177 -12.6393 1.1098
-15.7361 -12.8747 1.0028
-15.7287 -15.4056 1.0858
-15.7197 -18.4199 1.1943
-15.7088 -22.1362 1.3387
-14.9779 -25.6888 1.4666
-12.0467 -25.6847 1.3992
-9.4579 -25.9700 1.3631
-7.9948 -30.0585 1.5340
-5.3042 -30.7797 1.5404
-2.5442 -31.2069 1.5442
0.2493 -31.3320 1.5453
3.0395 -31.1530 1.5438
5.7898 -30.6729 1.5395
8.4644 -29.9007 1.5326
11.0360 -28.8660 1.5242
13.5356 -27.7037 1.5207
15.2099 -25.1579 1.4499
16.4256 -22.3830 1.3693
18.8120 -21.3459 1.4033
21.6336 -20.5250 1.4708
17.5368 -13.8880 1.1033
23.4131 -15.3563 1.3809
23.2406 -12.4320 1.2999
23.3999 -9.9456 1.2540
23.3960 -7.5612 1.2126
22.8280 -5.1836 1.1545
23.3807 -3.1515 1.1636
29.9535 -1.3392 1.4788
35.2629 1.5746 1.7409
22.3504 3.0114 1.1123
36.2993 8.2405 1.8358
28.4800 9.2026 1.4761
24.7366 10.5121 1.3256
24.1704 12.9277 1.3519
24.7227 16.2133 1.4581
24.1521 19.1247 1.5194
24.6984 23.4301 1.6790
31.4724 35.7075 2.3475
28.1624 38.3721 2.3475
24.6280 40.7309 2.3475
20.8973 42.7650 2.3475
16.9786 44.4023 2.3446
12.8907 45.5267 2.3336
8.7732 46.4643 2.3321
4.5924 47.0421 2.3311
0.3787 47.2722 2.3315
-3.8392 47.1201 2.3317
-3.4911 20.2654 1.0142
-12.2318 45.9992 2.3475
-16.2854 44.7250 2.3475
-20.2094 43.0944 2.3475
-23.9722 41.1204 2.3475
-27.5440 38.8185 2.3475
-30.8964 36.2073 2.3475
-31.8722 31.2209 2.2005
-34.0526 27.8637 2.1701
-35.5878 24.1629 2.1215
-36.7124 20.3990 2.0714
-37.1007 16.4731 2.0021
-37.9713 12.9450 1.9786
-19.1073 4.6608 0.9700
-19.1020 2.8860 0.9528
-19.0969 1.1596 0.9436
-19.0919 -0.5472 0.9420
-19.0868 -2.2620 0.9479
-19.0816 -4.0125 0.9617
-37.5820 -11.4843 1.9381
-35.8349 -14.5574 1.9076
-24.6009 -12.6570 1.3645
-19.9671 -12.6433 1.1656
-16.4881 -12.6330 1.0244
-15.7315 -14.4535 1.0536
-15.7231 -17.2748 1.1521
-15.6937 -20.6825 1.2805
-16.0636 -25.6331 1.4919
-13.0738 -25.7058 1.4224
-10.2749 -25.6360 1.3621
-8.2063 -27.3111 1.4065
-6.2762 -30.5549 1.5384
-3.5370 -31.0885 1.5432
-0.7512 -31.3222 1.5452
2.0444 -31.2519 1.5446
4.8131 -30.8787 1.5413
7.5188 -30.2097 1.5354
10.1270 -29.2567 1.5269
12.6551 -28.1461 1.5220
15.0761 -26.8364 1.5181
15.6862 -22.8721 1.3678
17.8218 -21.5737 1.3801
20.6166 -20.8507 1.4462
23.6823 -20.0179 1.5294
23.6813 -16.6373 1.4275
22.8476 -13.1769 1.3008
23.4021 -10.8414 1.2720
23.3988 -8.3964 1.2261
23.2254 -6.0598 1.1838
23.3833 -3.9157 1.1693
23.4628 -1.8012 1.1606
34.9651 0.4437 1.7246
35.7104 3.6548 1.7704
24.0598 4.6595 1.2087
31.9787 9.2164 1.6414
24.8305 9.6281 1.3135
24.7324 12.2292 1.3608
24.1650 14.7662 1.3967
24.7161 18.3183 1.5173
24.7034 21.9795 1.6308
30.4804 32.4327 2.1951
29.3733 37.4533 2.3475
18.9229 29.1507 1.7141
22.2521 42.0759 2.3475
18.4109 43.8928 2.3475
14.3332 45.0775 2.3329
10.2636 46.2111 2.3347
6.0921 46.8707 2.3311
1.8879 47.2342 2.3314
-2.3321 47.2132 2.3314
-2.8271 20.2582 1.0088
-10.7568 46.3663 2.3475
-14.8491 45.2222 2.3475
-18.8230 43.7177 2.3475
-9.5709 17.6927 0.9921
-26.2904 39.6781 2.3475
-29.7243 37.1753 2.3475
-30.8348 32.1974 2.1987
-33.4262 29.1819 2.1884
-35.0436 25.4653 2.1365
-36.4794 21.8224 2.0965
-37.0050 17.8663 2.0267
-37.6448 14.1909 1.9842
-38.5072 10.7066 1.9712
-19.1039 3.5136 0.9580
-19.0987 1.7733 0.9460
-19.0937 0.0626 0.9417
-19.0886 -1.6461 0.9449
-19.0835 -3.3806 0.9558
-38.1096 -10.3272 1.9473
-36.5037 -13.4879 1.9193
-26.6737 -12.6631 1.4563
-21.4609 -12.6477 1.2286
-17.6314 -12.6364 1.0698
-15.7341 -13.5554 1.0243
-15.7263 -16.2071 1.1138
-15.7169 -19.3944 1.2312
-17.1663 -25.5422 1.5178
-14.1264 -25.7092 1.4468
-9.5903 -21.8778 1.1781
-8.7993 -26.2162 1.3639
-7.2377 -30.2931 1.5361
-4.5238 -30.9318 1.5418
-1.7505 -31.2734 1.5448
1.0458 -31.3120 1.5452
3.8284 -31.0466 1.5428
6.5606 -30.4823 1.5378
9.2075 -29.6292 1.5302
11.7594 -28.5589 1.5232
14.2253 -27.3306 1.5196
15.2209 -23.7881 1.3928
17.0042 -21.9771 1.3705
19.6082 -21.1403 1.4221
22.5291 -20.3114 1.4960
25.6098 -19.2423 1.5799
23.4111 -14.5172 1.3586
23.2384 -11.6808 1.2828
23.3982 -9.2497 1.2409
22.8993 -6.7627 1.1777
23.3860 -4.6884 1.1763
23.3786 -2.5478 1.1599
34.6839 -0.6677 1.7109
35.4755 2.4893 1.7539
36.0388 5.7922 1.8002
36.3329 9.2256 1.8488
17.6212 6.1930 0.9212
24.7348 11.2622 1.3404
24.5626 13.9520 1.3932
24.7202 17.1262 1.4832
24.5434 20.4712 1.5763
31.5329 31.4753 2.1974
30.5543 36.4963 2.3475
27.1776 39.0758 2.3475
23.5844 41.3439 2.3475
19.8031 43.2826 2.3475
15.8075 44.7165 2.3392
11.7313 45.8496 2.3342
7.5851 46.6492 2.3310
3.3949 47.1455 2.3312
-0.8234 47.2662 2.3315
-2.5406 23.7150 1.1763
-4.0254 20.2712 1.0193
-13.3976 45.6733 2.3475
-12.2570 31.1722 1.6520
-15.2582 30.4944 1.6818
-25.0101 40.4974 2.3475
-28.5221 38.1055 2.3475
-29.7566 33.1273 2.1962
-32.6558 30.4004 2.2005
-34.5132 26.8046 2.1553
-36.1475 23.2224 2.1190
-36.8617 19.2719 2.0515
-37.2959 15.4368 1.9908
-38.2151 11.9524 1.9748
-19.1058 4.1487 0.9643
-19.1006 2.3908 0.9494
-19.0955 0.6727 0.9424
-19.0904 -1.0336 0.9429
-19.0853 -2.7556 0.9510
-9.3495 -2.2157 0.4739
-37.1242 -12.3849 1.9302
-29.0480 -12.6701 1.5630
-23.1272 -12.6526 1.3002
-18.8820 -12.6401 1.1207
-15.7366 -12.7051 0.9975
-15.7292 -15.2069 1.0790
-15.7205 -18.1799 1.1854
-15.7096 -21.8350 1.3267
-15.1977 -25.6802 1.4717
-12.2533 -25.6891 1.4037
-9.6253 -25.9042 1.3629
-8.1848 -29.9863 1.5330
-5.5030 -30.7369 1.5400
-2.7468 -31.1858 1.5440
0.0455 -31.3332 1.5453
2.8372 -31.1762 1.5440
5.5915 -30.7179 1.5399
8.2729 -29.9666 1.5332
10.8496 -28.9414 1.5244
13.3575 -27.7962 1.5210
15.2072 -25.5271 1.4655
16.2761 -22.4845 1.3690
18.6094 -21.3950 1.3985
21.4258 -20.5944 1.4657
24.6160 -19.7562 1.5567
23.4136 -15.5754 1.3869
23.2412 -12.6275 1.3045
23.4003 -10.1260 1.2575
23.3965 -7.7299 1.2153
23.0783 -5.3986 1.1689
23.3812 -3.3066 1.1646
26.2828 -1.3464 1.2980
35.2050 1.3426 1.7376
22.3763 2.8668 1.1126
25.6023 5.6372 1.2929
29.1344 9.2052 1.5069
24.7371 10.3228 1.3220
24.2402 12.7629 1.3511
24.7232 15.9846 1.4520
24.1529 18.8710 1.5117
24.6994 23.1277 1.6688
31.7041 35.5020 2.3475
28.4115 38.1881 2.3475
24.8925 40.5697 2.3475
21.1750 42.6282 2.3475
17.2802 44.3246 2.3463
13.1858 45.4391 2.3335
9.0780 46.4200 2.3328
4.8984 47.0113 2.3311
0.6863 47.2686 2.3315
-3.5316 47.1347 2.3312
-3.3553 20.2640 1.0130
-11.9323 46.0778 2.3475
-15.9942 44.8300 2.3475
-19.9286 43.2249 2.3475
-23.7042 41.2753 2.3475
-27.2909 38.9968 2.3475
-30.6601 36.4076 2.3475
-31.6684 31.4276 2.2005
-33.9294 28.1333 2.1738
-35.4430 24.4030 2.1223
-36.6690 20.6882 2.0765
-37.0850 16.7558 2.0071
-37.9044 13.1980 1.9795
-38.7279 9.7142 1.9692
-19.1024 3.0133 0.9538
-19.0973 1.2844 0.9440
-19.0922 -0.4230 0.9419
-19.0872 -2.1362 0.9473
-19.0820 -3.8832 0.9604
-37.6939 -11.2508 1.9401
-35.9750 -14.3423 1.9101
-25.0016 -12.6582 1.3821
-20.2588 -12.6442 1.1778
-16.7131 -12.6337 1.0333
-15.7320 -14.2664 1.0474
-15.7238 -17.0514 1.1440
-15.6945 -20.4065 1.2697
-16.2869 -25.6176 1.4972
-13.2866 -25.7091 1.4273
-10.4551 -25.6022 1.3639
-8.2135 -26.7036 1.3779
-6.4729 -30.5047 1.5380
-3.7385 -31.0597 1.5429
-0.9550 -31.3154 1.5452
1.8412 -31.2673 1.5448
4.6131 -30.9160 1.5417
7.3246 -30.2682 1.5359
9.9410 -29.3354 1.5276
12.4738 -28.2326 1.5223
14.9042 -26.9394 1.5184
15.5338 -22.9689 1.3676
17.6221 -21.6169 1.3755
20.4105 -20.9127 1.4412
23.4457 -20.0808 1.5225
26.2422 -18.6927 1.5890
23.4091 -13.7044 1.3378
23.4025 -11.0271 1.2759
23.3995 -8.5689 1.2290
23.2258 -6.2216 1.1859
23.3839 -4.0724 1.1706
23.4276 -1.9518 1.1594
34.9003 0.2158 1.7213
35.6655 3.4159 1.7671
24.3426 4.5502 1.2214
32.7865 9.2185 1.6797
24.9137 9.4743 1.3146
24.7329 12.0298 1.3565
24.2476 14.6009 1.3959
24.7170 18.0710 1.5101
24.7044 21.6941 1.6215
30.6946 32.2377 2.1954
29.6164 37.2614 2.3475
19.2676 29.2630 1.7280
22.5254 41.9303 2.3475
18.6961 43.7721 2.3475
14.6251 44.9801 2.3327
10.5636 46.1415 2.3346
6.3968 46.8297 2.3311
2.1952 47.2203 2.3314
-2.0249 47.2281 2.3314
-2.6927 20.2568 1.0079
-4.5654 20.2771 1.0251
-14.5546 45.3179 2.3475
-18.5382 43.8392 2.3475
-9.4396 17.7243 0.9904
-26.0317 39.8484 2.3475
-29.4820 37.3680 2.3475
-30.6174 32.3896 2.1982
-33.2921 29.4486 2.1921
-34.9399 25.7389 2.1403
-36.4256 22.1132 2.1016
-36.9797 18.1516 2.0317
-37.5758 14.4448 1.9854
-38.4473 10.9600 1.9718
-19.1043 3.6423 0.9592
-19.0991 1.8988 0.9466
-19.0940 0.1869 0.9418
-19.0890 -1.5211 0.9445
-19.0839 -3.2527 0.9548
-38.2105 -10.0880 1.9491
-36.6341 -13.2659 1.9216
-27.1306 -12.6645 1.4767
-21.7853 -12.6487 1.2424
-17.8769 -12.6371 1.0797
-15.7347 -13.3785 1.0186
-15.7269 -15.9981 1.1064
-15.7176 -19.1394 1.2215
-17.3930 -25.5192 1.5231
-14.3432 -25.7060 1.4518
-11.4495 -25.6636 1.3860
-8.9685 -26.1548 1.3637
-7.4320 -30.2353 1.5356
-4.7238 -30.8951 1.5414
-1.9537 -31.2587 1.5447
0.8422 -31.3195 1.5452
3.6269 -31.0761 1.5431
6.3641 -30.5333 1.5383
9.0183 -29.7008 1.5309
11.5751 -28.6393 1.5235
14.0499 -27.4278 1.5199
15.2182 -24.1282 1.4069
16.8570 -22.0823 1.3702
19.4039 -21.1950 1.4172
22.2969 -20.3666 1.4894
17.7806 -13.5416 1.1023
23.4116 -14.7293 1.3642
23.2389 -11.8710 1.2870
23.3986 -9.4263 1.2441
22.8330 -6.9049 1.1765
23.3865 -4.8469 1.1779
23.3791 -2.7019 1.1607
34.6770 -0.8933 1.7108
35.4232 2.2542 1.7506
25.6477 3.9511 1.2799
36.3958 8.9899 1.8490
17.6726 6.0821 0.9218
24.7352 11.0687 1.3365
24.5632 13.7418 1.3882
24.7210 16.8898 1.4766
24.5441 20.2026 1.5678
31.7444 31.2769 2.1979
30.7910 36.2968 2.3475
27.4312 38.8982 2.3475
23.8528 41.1897 2.3475
20.0842 43.1528 2.3475
16.1037 44.6283 2.3400
12.0288 45.7700 2.3340
7.8883 46.5980 2.3309
3.7015 47.1213 2.3312
-0.5159 47.2708 2.3315
-4.7620 47.3589 2.3475
-3.8882 20.2697 1.0179
-13.1002 45.7596 2.3475
-17.1290 44.4088 2.3475
-21.0213 42.7042 2.3475
-24.7461 40.6592 2.3475
-28.1532 38.1271 2.3375
-29.5337 33.3125 2.1957
-32.4573 30.6122 2.2005
-34.3985 27.0763 2.1591
-36.0043 23.4627 2.1195
-36.8265 19.5597 2.0566
-37.2234 15.6912 1.9923
-38.1529 12.2061 1.9756
-19.1061 4.2792 0.9657
-19.1009 2.5172 0.9502
-19.0958 0.7971 0.9426
-19.0908 -0.9091 0.9426
-19.0857 -2.6290 0.9502
-9.3317 -2.1475 0.4723
-37.2444 -12.1564 1.9323
-29.5751 -12.6717 1.5869
-23.4908 -12.6537 1.3160
-19.1516 -12.6409 1.1317
-15.8549 -12.6311 0.9998
-15.7298 -15.0107 1.0723
-15.7211 -17.9434 1.1766
-15.7105 -21.5392 1.3149
-15.4182 -25.6702 1.4769
-12.4607 -25.6922 1.4083
-9.7921 -25.8372 1.3627
-8.1902 -29.2556 1.4984
-5.7013 -30.6927 1.5396
-2.9492 -31.1633 1.5438
-0.1584 -31.3328 1.5453
2.6346 -31.1979 1.5441
5.3930 -30.7613 1.5403
8.0808 -30.0309 1.5338
10.6641 -29.0198 1.5248
13.1787 -27.8875 1.5212
15.2046 -25.9045 1.4814
16.1260 -22.5850 1.3687
18.4072 -21.4427 1.3938
21.2183 -20.6622 1.4607
24.3759 -19.8256 1.5496
23.4178 -15.7989 1.3932
23.0968 -12.7443 1.3010
23.4008 -10.3074 1.2611
23.3971 -7.8993 1.2179
23.2240 -5.5922 1.1781
23.3817 -3.4619 1.1658
23.9281 -1.3820 1.1821
35.1457 1.1114 1.7342
22.4022 2.7221 1.1130
36.2258 7.7296 1.8269
29.8169 9.2078 1.5391
24.7487 10.1391 1.3191
24.6298 12.7640 1.3682
24.7238 15.7579 1.4460
24.4773 18.8694 1.5243
24.7005 22.8290 1.6588
31.9343 35.2951 2.3475
28.6593 38.0025 2.3475
25.1559 40.4070 2.3475
21.4519 42.4895 2.3475
17.5770 44.2334 2.3475
13.4803 45.3495 2.3334
9.3824 46.3724 2.3334
5.2041 46.9783 2.3311
0.9938 47.2628 2.3315
-3.2249 47.1578 2.3313
-3.2198 20.2625 1.0119
-11.6323 46.1544 2.3475
-15.7023 44.9331 2.3475
-19.6470 43.3536 2.3475
-23.4359 41.4287 2.3475
-27.0366 39.1735 2.3475
-30.4226 36.6063 2.3475
-31.4607 31.6304 2.2003
-33.8039 28.4025 2.1776
-35.3330 24.6676 2.1253
-36.6236 20.9779 2.0816
-37.0673 17.0391 2.0121
-37.8411 13.4527 1.9807
-38.6698 9.9675 1.9695
-19.1028 3.1409 0.9548
-19.0977 1.4092 0.9445
-19.0926 -0.2988 0.9418
-19.0875 -2.0106 0.9466
-19.0824 -3.7541 0.9592
-37.8034 -11.0162 1.9420
-36.1131 -14.1259 1.9125
-25.4130 -12.6594 1.4003
-20.5568 -12.6450 1.1903
-16.9420 -12.6343 1.0423
-15.7326 -14.0814 1.0413
-15.7244 -16.8310 1.1360
-15.6584 -20.0877 1.2562
-16.5110 -25.6005 1.5024
-13.5002 -25.7109 1.4322
-9.1434 -21.9805 1.1741
-8.3046 -26.3879 1.3644
-6.6692 -30.4528 1.5375
-3.9398 -31.0293 1.5426
-1.1586 -31.3070 1.5451
1.6379 -31.2810 1.5449
4.4128 -30.9517 1.5420
7.1299 -30.3252 1.5364
9.7543 -29.4126 1.5283
12.2919 -28.3179 1.5225
14.7316 -27.0412 1.5187
15.3898 -23.0783 1.3681
17.4365 -21.6756 1.3720
20.2048 -20.9730 1.4363
23.2099 -20.1421 1.5157
26.0820 -18.8355 1.5867
23.4096 -13.9100 1.3430
23.0234 -11.0320 1.2591
23.4000 -8.7421 1.2320
23.2263 -6.3839 1.1880
23.3844 -4.2294 1.1720
23.4108 -2.1039 1.1593
34.8342 -0.0113 1.7180
29.8670 2.6646 1.4789
24.4288 4.4020 1.2242
33.6307 9.2202 1.7199
25.0345 9.3342 1.3177
24.7334 11.8318 1.3522
24.4158 14.4866 1.4002
24.7178 17.8261 1.5030
24.1468 20.9279 1.5760
30.9107 32.0447 2.1959
29.8581 37.0680 2.3475
26.4333 39.5831 2.3475
22.7977 41.7828 2.3475
18.9805 43.6495 2.3475
14.9298 44.9211 2.3347
10.8631 46.0698 2.3345
6.7013 46.7865 2.3311
2.5023 47.2042 2.3314
-1.7176 47.2409 2.3315
-2.5769 20.4007 1.0142
-4.4267 20.2756 1.0235
-14.2595 45.4116 2.3475
-18.2527 43.9589 2.3475
-22.1004 42.1559 2.3475
-25.7720 40.0168 2.3475
-29.2382 37.5590 2.3475
-30.3988 32.5804 2.1977
-33.1556 29.7146 2.1958
-34.8339 26.0122 2.1442
-36.3697 22.4044 2.1068
-36.9525 18.4376 2.0368
-37.5075 14.6993 1.9868
-38.3894 11.2138 1.9725
-19.1046 3.7713 0.9604
-19.0995 2.0243 0.9473
-19.0944 0.3111 0.9419
-19.0894 -1.3962 0.9440
-19.0842 -3.1252 0.9538
-38.3089 -9.8480 1.9508
-36.7625 -13.0424 1.9238
-27.6008 -12.6659 1.4977
-22.1172 -12.6496 1.2566
-18.1270 -12.6379 1.0898
-15.7352 -13.2035 1.0131
-15.7275 -15.7919 1.0992
-15.7184 -18.8883 1.2119
-17.6201 -25.4947 1.5285
-14.5606 -25.7014 1.4569
-11.6541 -25.6722 1.3905
-9.1371 -26.0924 1.3635
-7.6260 -30.1759 1.5351
-4.9237 -30.8569 1.5411
-2.1569 -31.2425 1.5445
0.6384 -31.3253 1.5453
3.4252 -31.1041 1.5433
6.1671 -30.5828 1.5387
8.8285 -29.7709 1.5315
11.3903 -28.7185 1.5237
13.8737 -27.5238 1.5202
15.2154 -24.4753 1.4214
16.7094 -22.1865 1.3698
19.2001 -21.2482 1.4124
22.0658 -20.4203 1.4828
17.5683 -13.5613 1.0946
23.4121 -14.9431 1.3698
23.2395 -12.0626 1.2914
23.3991 -9.6039 1.2475
22.8335 -7.0675 1.1789
23.0141 -4.9262 1.1608
23.3796 -2.8562 1.1617
34.6680 -1.1188 1.7107
34.5618 1.9736 1.7073
35.9752 5.3027 1.7935
36.3641 8.7314 1.8444
27.3018 9.1980 1.4209
24.7357 10.8764 1.3327
24.5639 13.5332 1.3832
24.7216 16.6553 1.4702
24.5449 19.9368 1.5596
24.7489 24.0690 1.7026
31.0265 36.0957 2.3475
27.6837 38.7189 2.3475
24.1203 41.0336 2.3475
20.3646 43.0212 2.3475
16.4002 44.5401 2.3409
12.3257 45.6883 2.3339
8.1912 46.5447 2.3309
4.0079 47.0952 2.3311
-0.2085 47.2733 2.3315
-4.4540 47.3889 2.3475
-3.7514 20.2683 1.0166
-12.8022 45.8437 2.3475
-16.8397 44.5193 2.3475
-20.7430 42.8400 2.3475
-24.4811 40.8194 2.3475
-28.0239 38.4734 2.3475
-29.3096 33.4964 2.1952
-32.2574 30.8227 2.2005
-34.2817 27.3475 2.1628
-35.8614 23.7035 2.1201
-36.7892 19.8479 2.0617
-37.1490 15.9453 1.9938
-38.0927 12.4604 1.9767
-19.1065 4.4099 0.9671
-19.1013 2.6437 0.9511
-19.0962 0.9217 0.9429
-19.0912 -0.7846 0.9424
-19.0861 -2.5026 0.9494
-9.3560 -2.0891 0.4728
-37.3625 -11.9265 1.9343
-35.5623 -14.9638 1.9029
-23.8635 -12.6548 1.3322
-19.4266 -12.6417 1.1431
-16.0692 -12.6318 1.0081
-15.7304 -14.8169 1.0658
-15.7218 -17.7105 1.1680
-15.6921 -21.2228 1.3018
-15.6393 -25.6589 1.4820
-12.6696 -25.6962 1.4130
-9.9586 -25.7691 1.3625
-8.1958 -28.5584 1.4653
-5.8993 -30.6468 1.5392
-3.1515 -31.1392 1.5436
-0.3622 -31.3306 1.5453
2.4319 -31.2180 1.5443
5.1940 -30.8032 1.5407
7.8881 -30.0938 1.5344
10.4801 -29.1026 1.5256
12.9993 -27.9776 1.5215
15.2018 -26.2900 1.4978
15.9754 -22.6846 1.3684
18.2056 -21.4890 1.3891
21.0113 -20.7285 1.4557
24.1367 -19.8933 1.5426
23.4460 -16.0409 1.4011
22.1371 -16.4088 1.5292
23.4105 -14.3069 1.5226
22.8420 -11.2960 1.4142
23.4012 -9.0753 1.3929
23.0820 -6.6537 1.3331
23.3854 -4.5302 1.3219
23.3788 -2.3940 1.3042
30.5456 -0.3893 1.6953
30.3409 2.3275 1.6888
31.7815 5.3203 1.7883
32.1171 8.3779 1.8420
17.6189 6.3212 1.0388
24.7343 11.4569 1.5128
24.5620 14.1638 1.5735
24.7194 17.3647 1.6765
24.3976 20.6202 1.7728
27.1001 27.4048 2.1389
25.2505 30.5628 2.2001
22.3730 32.6185 2.1951
20.7199 36.8779 2.3475
17.3012 38.4739 2.3411
13.6693 39.4832 2.3188
10.1013 40.5763 2.3206
6.4449 41.3321 2.3215
2.7293 41.6868 2.3184
-0.9992 41.7583 2.3181
-2.5542 22.4618 1.2546
-4.1627 20.2713 1.1485
-12.1702 40.5115 2.3475
-12.5026 31.1992 1.8652
-15.3410 30.1678 1.8783
-22.4601 35.8446 2.3475
-23.9608 31.5812 2.2000
-26.4457 29.0589 2.1805
-28.3880 26.0847 2.1395
-29.9826 22.9749 2.0963
-31.3809 19.8730 2.0614
-32.0761 16.5051 2.0020
-32.4403 13.1805 1.9433
-32.6796 9.9882 1.8964
-19.1054 4.0187 1.0835
-19.1002 2.2646 1.0674
-19.0951 0.5484 1.0602
-19.0901 -1.1581 1.0614
-19.0850 -2.8824 1.0712
-9.4522 -2.3051 0.5399
-31.1182 -10.6067 1.8245
-29.6162 -13.1479 1.7983
-22.7722 -12.6516 1.4457
-18.6177 -12.6393 1.2488
-15.7361 -12.8747 1.1283
-15.7287 -15.4056 1.2218
-15.7197 -18.4199 1.3439
-15.3229 -21.5924 1.4694
-12.9727 -22.2496 1.4293
-10.5004 -22.3877 1.3723
-8.4295 -23.1461 1.3671
-7.0254 -26.4140 1.5168
-4.6467 -26.9644 1.5185
-2.2248 -27.2887 1.5195
0.2179 -27.3835 1.5197
2.6585 -27.2478 1.5193
5.0744 -26.8829 1.5183
7.4431 -26.2928 1.5165
9.7428 -25.4836 1.5141
11.9871 -24.5343 1.5154
14.1578 -23.4177 1.5187
15.2163 -20.7350 1.4273
16.6204 -18.8590 1.3951
18.8076 -17.8438 1.4388
17.5187 -13.8737 1.2402
23.2941 -15.2782 1.5460
23.2406 -12.4320 1.4627
23.3999 -9.9456 1.4110
23.3960 -7.5612 1.3645
22.8280 -5.1836 1.2991
23.3807 -3.1515 1.3093
29.9534 -1.3392 1.6640
30.9742 1.3831 1.7207
22.3278 3.0083 1.2503
32.0258 7.2703 1.8226
28.4800 9.2026 1.6610
24.7366 10.5121 1.4916
24.1704 12.9277 1.5212
24.7227 16.2133 1.6408
24.1521 19.1247 1.7097
24.6984 23.4301 1.8893
25.9062 29.3926 2.1744
23.4194 31.9095 2.1966
21.8868 36.1974 2.3475
18.5713 38.0051 2.3475
14.9345 39.0566 2.3206
11.3892 40.2237 2.3200
7.7605 41.1011 2.3213
4.0594 41.5819 2.3186
0.3347 41.7694 2.3181
-3.3914 41.6264 2.3178
-3.4909 20.2641 1.1412
-10.8704 40.8794 2.3475
-14.4729 39.7471 2.3475
-17.9601 38.2979 2.3475
-21.3041 36.5435 2.3475
-22.9196 32.3012 2.1980
-25.6679 30.0802 2.1945
-27.7331 27.1664 2.1545
-29.4524 24.0995 2.1120
-31.0257 21.0654 2.0812
-31.8667 17.7065 2.0232
-32.3466 14.3622 1.9641
-32.5103 11.0829 1.9062
-19.1073 4.6608 1.0915
-19.1020 2.8860 1.0721
-19.0969 1.1596 1.0618
-19.0919 -0.5472 1.0600
-19.0868 -2.2620 1.0667
-19.0816 -4.0125 1.0821
-31.5798 -9.6501 1.8326
-30.1876 -12.2633 1.8083
-24.6009 -12.6570 1.5354
-19.9671 -12.6433 1.3116
-16.4881 -12.6330 1.1527
-15.7315 -14.4535 1.1856
-15.7231 -17.2749 1.2963
-15.6937 -20.6825 1.4409
-13.7691 -21.9717 1.4390
-11.3764 -22.3684 1.3927
-9.1696 -22.8782 1.3678
-7.8614 -26.1633 1.5161
-5.5035 -26.7933 1.5180
-3.0945 -27.1990 1.5192
-0.6566 -27.3761 1.5197
1.7874 -27.3228 1.5196
4.2147 -27.0395 1.5187
6.6028 -26.5293 1.5172
8.9297 -25.7977 1.5150
11.1899 -24.8876 1.5144
13.3920 -23.8385 1.5174
15.2031 -22.1677 1.4918
15.9628 -19.3233 1.3910
17.8931 -18.0964 1.4123
20.4880 -17.3179 1.4888
22.6586 -15.9188 1.5368
22.8476 -13.1769 1.4637
23.4021 -10.8414 1.4313
23.3988 -8.3964 1.3796
23.2254 -6.0598 1.3321
23.3833 -3.9157 1.3158
23.4628 -1.8012 1.3059
30.7476 0.3902 1.7065
31.3951 3.2132 1.7514
31.9022 6.1783 1.8034
31.9787 9.2164 1.8469
24.8305 9.6281 1.4780
24.7324 12.2292 1.5312
24.1650 14.7662 1.5716
24.7161 18.3183 1.7073
24.7034 21.9795 1.8351
26.5753 28.2775 2.1536
24.4476 31.1726 2.1986
18.9070 29.1262 1.9271
19.7754 37.3928 2.3475
16.2433 38.7251 2.3305
12.6641 39.8283 2.3194
9.0676 40.8263 2.3209
5.3918 41.4829 2.3215
1.6683 41.7404 2.3183
-2.0607 41.7174 2.3180
-2.8269 20.2569 1.1351
-9.5595 41.2057 2.3475
-13.1964 40.1889 2.3475
-16.7280 38.8519 2.3475
-9.5706 17.6920 1.1163
-21.8577 32.9882 2.1961
-24.7611 30.9680 2.2005
-27.0340 28.2286 2.1691
-28.8776 25.2108 2.1274
-30.3730 22.0713 2.0836
-31.6139 18.9117 2.0444
-32.2125 15.5524 1.9851
-32.4868 12.2465 1.9268
-32.8284 9.1276 1.8910
-19.1039 3.5136 1.0780
-19.0987 1.7733 1.0645
-19.0937 0.0626 1.0596
-19.0886 -1.6461 1.0633
-19.0835 -3.3806 1.0756
-31.9988 -8.6712 1.8399
-30.7214 -11.3513 1.8176
-29.1355 -13.8318 1.7899
-21.4609 -12.6477 1.3824
-17.6314 -12.6364 1.2038
-15.7341 -13.5554 1.1526
-15.7263 -16.2071 1.2533
-15.7169 -19.3944 1.3854
-14.6325 -21.7721 1.4558
-12.2650 -22.3215 1.4135
-9.5565 -21.8006 1.3210
-8.2018 -24.4359 1.4305
-6.3538 -26.5934 1.5174
-3.9604 -27.0800 1.5188
-1.5303 -27.3392 1.5196
0.9141 -27.3683 1.5197
3.3500 -27.1671 1.5191
5.7547 -26.7375 1.5178
8.1059 -26.0843 1.5159
10.3830 -25.2162 1.5134
12.6143 -24.2355 1.5163
14.7587 -23.0657 1.5197
15.2944 -19.7673 1.3870
17.1360 -18.4750 1.3984
19.5478 -17.6236 1.4606
17.9970 -13.5223 1.2493
23.4111 -14.5172 1.5288
23.2384 -11.6808 1.4434
23.3982 -9.2497 1.3963
22.8993 -6.7627 1.3251
23.3860 -4.6884 1.3237
23.3786 -2.5478 1.3051
30.4910 -0.5869 1.6925
31.1594 2.1865 1.7335
26.4244 4.2470 1.4853
32.1012 8.1511 1.8380
17.5961 6.1841 1.0351
24.7348 11.2622 1.5083
24.5626 13.9520 1.5677
24.7202 17.1262 1.6690
24.5434 20.4712 1.7737
27.2512 27.2014 2.1368
25.4524 30.4022 2.2005
22.5854 32.4732 2.1952
20.9593 36.7423 2.3475
17.5861 38.4370 2.3458
13.9248 39.3907 2.3186
10.3646 40.5080 2.3205
6.7134 41.2886 2.3215
3.0005 41.6686 2.3185
-0.7275 41.7642 2.3181
-2.5405 23.7143 1.3236
-4.0251 20.2698 1.1469
-11.9064 40.5898 2.3475
-12.2570 31.1722 1.8589
-15.2309 30.4397 1.8890
-22.2264 35.9900 2.3475
-23.7504 31.7305 2.1996
-26.2908 29.2689 2.1834
-28.2582 26.3065 2.1426
-29.8782 23.2049 2.0995
-31.3167 20.1189 2.0657
-32.0369 16.7494 2.0063
-32.4244 13.4204 1.9475
-32.6379 10.2080 1.8978
-19.1058 4.1487 1.0850
-19.1006 2.3908 1.0683
-19.0955 0.6727 1.0604
-19.0904 -1.0336 1.0610
-19.0853 -2.7556 1.0702
-9.3492 -2.2156 0.5332
-31.2156 -10.4138 1.8262
-29.7356 -12.9700 1.8004
-23.1272 -12.6526 1.4630
-18.8820 -12.6401 1.2610
-15.7366 -12.7051 1.1224
-15.7292 -15.2069 1.2142
-15.7205 -18.1799 1.3338
-15.4996 -21.5431 1.4728
-13.1334 -22.1922 1.4311
-10.6778 -22.3859 1.3764
-8.5809 -23.0934 1.3672
-7.1964 -26.3652 1.5167
-4.8217 -26.9319 1.5184
-2.4022 -27.2728 1.5194
0.0397 -27.3844 1.5197
2.4812 -27.2654 1.5194
4.8997 -26.9171 1.5184
7.2726 -26.3432 1.5166
9.5781 -25.5498 1.5143
11.8255 -24.6082 1.5152
14.0028 -23.5054 1.5184
15.2136 -21.0166 1.4399
16.4873 -18.9552 1.3942
18.6195 -17.8970 1.4333
21.2446 -17.0503 1.5118
23.1665 -15.4110 1.5441
23.2412 -12.6275 1.4679
23.4003 -10.1260 1.4150
23.3965 -7.7299 1.3675
23.0783 -5.3986 1.3153
23.3812 -3.3066 1.3105
26.2827 -1.3464 1.4605
30.9305 1.1796 1.7178
22.3537 2.8639 1.2507
25.5878 5.6340 1.4541
29.1344 9.2052 1.6957
24.7371 10.3228 1.4876
24.2402 12.7629 1.5203
24.7232 15.9846 1.6339
24.1529 18.8710 1.7010
24.6994 23.1277 1.8779
26.0390 29.1579 2.1695
23.6306 31.7620 2.1970
22.1219 36.0543 2.3475
18.8182 37.8836 2.3475
15.2026 38.9954 2.3228
11.6499 40.1466 2.3199
8.0275 41.0486 2.3212
4.3311 41.5675 2.3194
0.6065 41.7664 2.3181
-3.1205 41.6485 2.3178
-3.3551 20.2626 1.1398
-10.6043 40.9492 2.3475
-14.2140 39.8404 2.3475
-17.7105 38.4139 2.3475
-21.0659 36.6814 2.3475
-22.7049 32.4438 2.1976
-25.5041 30.2851 2.1973
-27.5943 27.3844 2.1575
-29.3389 24.3270 2.1151
-30.8937 21.2707 2.0816
-31.8187 17.9518 2.0275
-32.3226 14.6040 1.9684
-32.5089 11.3194 1.9104
-32.9620 8.2680 1.8860
-19.1024 3.0133 1.0732
-19.0973 1.2844 1.0622
-19.0922 -0.4230 1.0598
-19.0872 -2.1362 1.0659
-19.0820 -3.8832 1.0807
-31.6687 -9.4524 1.8341
-30.2995 -12.0796 1.8102
-25.0016 -12.6582 1.5552
-20.2588 -12.6442 1.3253
-16.7131 -12.6337 1.1627
-15.7320 -14.2664 1.1786
-15.7238 -17.0514 1.2872
-15.6945 -20.4065 1.4287
-13.9431 -21.9310 1.4422
-11.5564 -22.3611 1.3969
-9.0650 -22.1983 1.3307
-8.0305 -26.1088 1.5159
-5.6773 -26.7549 1.5179
-3.2712 -27.1771 1.5191
-0.8347 -27.3710 1.5197
1.6096 -27.3344 1.5196
4.0389 -27.0678 1.5188
6.4307 -26.5740 1.5173
8.7627 -25.8583 1.5152
11.0263 -24.9565 1.5142
13.2345 -23.9214 1.5172
15.2004 -22.4760 1.5058
15.8274 -19.4153 1.3901
17.7223 -18.1583 1.4081
20.2956 -17.3828 1.4830
22.5266 -16.0460 1.5349
23.4091 -13.7044 1.5054
23.4025 -11.0270 1.4357
23.3995 -8.5689 1.3829
23.2258 -6.2216 1.3344
23.3839 -4.0724 1.3173
23.4276 -1.9518 1.3047
30.6977 0.1898 1.7037
31.3493 3.0025 1.7477
31.8732 5.9578 1.7995
32.1555 9.0411 1.8537
24.9137 9.4743 1.4792
24.7329 12.0298 1.5263
24.2476 14.6009 1.5708
24.7170 18.0710 1.6992
24.7044 21.6941 1.8246
26.6652 28.0057 2.1460
24.6543 31.0185 2.1990
19.2138 29.1814 1.9390
20.0182 37.2633 2.3475
16.5075 38.6482 2.3323
12.9221 39.7426 2.3192
9.3327 40.7649 2.3209
5.6617 41.4481 2.3216
1.9399 41.7293 2.3183
-1.7892 41.7306 2.3180
-2.6925 20.2554 1.1340
-4.5651 20.2757 1.1534
-12.9346 40.2739 2.3475
-16.4749 38.9599 2.3475
-9.4393 17.7239 1.1144
-21.6389 33.1241 2.1958
-24.5592 31.1284 2.2005
-26.8861 28.4423 2.1721
-28.7550 25.4353 2.1305
-30.2758 22.3030 2.0869
-31.5570 19.1575 2.0488
-32.1802 15.7958 1.9894
-32.4772 12.4848 1.9310
-32.7904 9.3474 1.8923
-19.1043 3.6423 1.0793
-19.0991 1.8988 1.0652
-19.0940 0.1869 1.0597
-19.0890 -1.5211 1.0627
-19.0839 -3.2527 1.0744
-32.0789 -8.4692 1.8413
-30.8253 -11.1624 1.8194
-29.2605 -13.6587 1.7921
-21.7853 -12.6487 1.3980
-17.8769 -12.6371 1.2150
-15.7347 -13.3785 1.1462
-15.7269 -15.9981 1.2450
-15.7176 -19.1393 1.3744
-14.8091 -21.7281 1.4593
-12.4475 -22.3085 1.4177
-9.7298 -21.8090 1.3253
-8.2070 -23.9342 1.4042
-6.5260 -26.5493 1.5173
-4.1363 -27.0522 1.5188
-1.7081 -27.3281 1.5196
0.7361 -27.3740 1.5197
3.1733 -27.1895 1.5192
5.5811 -26.7764 1.5179
7.9369 -26.1393 1.5160
10.2194 -25.2848 1.5135
12.4545 -24.3134 1.5160
14.6057 -23.1572 1.5194
15.2300 -19.9510 1.3929
17.0048 -18.5745 1.3976
19.3577 -17.6819 1.4550
17.7572 -13.5238 1.2387
23.4116 -14.7293 1.5350
23.2389 -11.8710 1.4482
23.3986 -9.4263 1.4000
22.8330 -6.9049 1.3238
23.3865 -4.8469 1.3255
23.3791 -2.7019 1.3061
30.4351 -0.7840 1.6896
31.1080 1.9795 1.7299
25.6477 3.9511 1.4402
32.0838 7.9248 1.8341
17.6103 6.0607 1.0336
24.7352 11.0687 1.5039
24.5632 13.7418 1.5620
24.7210 16.8898 1.6616
24.5441 20.2026 1.7642
27.4006 26.9971 2.1347
25.5620 30.1327 2.1929
22.7999 32.3310 2.1956
21.1979 36.6051 2.3475
17.8488 38.3498 2.3475
14.1798 39.2964 2.3185
10.6274 40.4378 2.3204
6.9818 41.2432 2.3214
3.2716 41.6484 2.3185
-0.4558 41.7681 2.3181
-4.1781 41.5515 2.3176
-3.8879 20.2684 1.1453
-11.6421 40.6664 2.3475
-15.2225 39.4660 2.3475
-18.6816 37.9512 2.3475
-21.9919 36.1338 2.3475
-23.5392 31.8785 2.1992
-26.1341 29.4779 2.1863
-28.1265 26.5276 2.1457
-29.7719 23.4345 2.1027
-31.2506 20.3649 2.0701
-31.9959 16.9940 2.0106
-32.4069 13.6609 1.9517
-32.5957 10.4282 1.8993
-19.1061 4.2792 1.0866
-19.1009 2.5172 1.0692
-19.0958 0.7972 1.0607
-19.0908 -0.9091 1.0607
-19.0857 -2.6290 1.0692
-9.3314 -2.1474 0.5314
-31.3113 -10.2198 1.8279
-29.8534 -12.7909 1.8024
-23.4908 -12.6537 1.4808
-19.1516 -12.6409 1.2735
-15.8549 -12.6311 1.1250
-15.7298 -15.0107 1.2066
-15.7211 -17.9434 1.3239
-15.6763 -21.4924 1.4763
-13.2936 -22.1330 1.4328
-10.8558 -22.3831 1.3806
-8.7319 -23.0397 1.3674
-7.3670 -26.3152 1.5166
-4.9965 -26.8982 1.5183
-2.5794 -27.2557 1.5194
-0.1384 -27.3841 1.5197
2.3039 -27.2819 1.5194
4.7248 -26.9502 1.5185
7.1017 -26.3925 1.5168
9.4129 -25.6149 1.5145
11.6635 -24.6812 1.5150
13.8472 -23.5920 1.5181
15.2108 -21.3032 1.4527
16.3537 -19.0506 1.3934
18.4319 -17.9488 1.4278
21.0504 -17.1208 1.5058
23.0379 -15.5426 1.5423
23.0968 -12.7443 1.4640
23.4008 -10.3074 1.4191
23.3971 -7.8993 1.3705
23.2240 -5.5922 1.3257
23.3817 -3.4619 1.3118
23.9281 -1.3820 1.3301
30.8856 0.9767 1.7149
22.3795 2.7193 1.2511
31.9792 6.8235 1.8147
29.8169 9.2078 1.7318
24.7487 10.1391 1.4843
24.6298 12.7640 1.5395
24.7238 15.7579 1.6271
24.4773 18.8694 1.7152
24.7005 22.8290 1.8666
26.1742 28.9290 2.1651
23.8409 31.6132 2.1974
22.3560 35.9097 2.3475
19.0642 37.7603 2.3475
15.4724 38.9370 2.3252
11.9102 40.0677 2.3198
8.2942 40.9944 2.3212
4.6029 41.5499 2.3200
0.8781 41.7620 2.3182
-2.8495 41.6689 2.3179
-3.2196 20.2611 1.1385
-10.3377 41.0174 2.3475
-13.9546 39.9320 2.3475
-17.4603 38.5283 2.3475
-20.8267 36.8176 2.3475
-22.4894 32.5851 2.1973
-25.3386 30.4889 2.2001
-27.4536 27.6017 2.1605
-29.2236 24.5540 2.1183
-30.7617 21.4762 2.0821
-31.7689 18.1972 2.0318
-32.2969 14.8462 1.9727
-32.5055 11.5559 1.9146
-32.9299 8.4880 1.8872
-19.1028 3.1409 1.0744
-19.0977 1.4092 1.0627
-19.0926 -0.2988 1.0597
-19.0875 -2.0106 1.0652
-19.0824 -3.7541 1.0793
-31.7557 -9.2539 1.8356
-30.4097 -11.8949 1.8121
-25.4130 -12.6594 1.5756
-20.5568 -12.6450 1.3394
-16.9420 -12.6343 1.1729
-15.7326 -14.0814 1.1718
-15.7244 -16.8310 1.2783
-15.6584 -20.0877 1.4135
-14.1194 -21.8923 1.4457
-11.7369 -22.3527 1.4011
-9.0845 -21.8388 1.3127
-8.1861 -26.0111 1.5133
-5.8507 -26.7153 1.5177
-3.4477 -27.1540 1.5191
-1.0127 -27.3646 1.5197
1.4318 -27.3449 1.5196
3.8629 -27.0950 1.5189
6.2582 -26.6176 1.5175
8.5953 -25.9178 1.5154
10.8623 -25.0245 1.5140
13.0765 -24.0032 1.5169
15.1976 -22.7900 1.5202
15.6917 -19.5066 1.3893
17.5515 -18.2189 1.4039
20.1037 -17.4464 1.4772
22.3935 -16.1718 1.5329
23.4096 -13.9100 1.5112
23.0234 -11.0320 1.4168
23.4000 -8.7421 1.3863
23.2263 -6.3839 1.3368
23.3844 -4.2294 1.3188
23.4108 -2.1039 1.3045
30.6466 -0.0100 1.7008
29.8813 2.6659 1.6649
26.0712 4.6979 1.4702
32.1436 8.8125 1.8497
25.0345 9.3342 1.4828
24.7334 11.8318 1.5216
24.4158 14.4866 1.5756
24.7178 17.8261 1.6913
24.1468 20.9279 1.7733
26.8071 27.7906 2.1429
24.8602 30.8632 2.1994
23.4912 35.1774 2.3475
20.2603 37.1324 2.3475
16.7739 38.5751 2.3344
13.1796 39.6551 2.3191
9.5974 40.7018 2.3208
5.9312 41.4100 2.3216
2.2114 41.7165 2.3184
-1.5176 41.7419 2.3181
-2.5769 20.4003 1.1411
-4.4264 20.2742 1.1517
-12.6724 40.3572 2.3475
-16.2211 39.0662 2.3475
-19.6406 37.4639 2.3475
-21.4195 33.2585 2.1954
-24.3561 31.2876 2.2005
-26.7365 28.6552 2.1750
-28.6306 25.6592 2.1336
-30.1767 22.5345 2.0901
-31.4982 19.4035 2.0531
-32.1460 16.0394 1.9937
-32.4660 12.7236 1.9352
-32.7541 9.5677 1.8937
-19.1046 3.7713 1.0807
-19.0995 2.0243 1.0659
-19.0944 0.3111 1.0598
-19.0894 -1.3963 1.0622
-19.0842 -3.1252 1.0732
-32.1569 -8.2665 1.8426
-30.9276 -10.9723 1.8212
-29.3842 -13.4842 1.7942
-22.1172 -12.6496 1.4140
-18.1270 -12.6379 1.2263
-15.7352 -13.2035 1.1399
-15.7275 -15.7919 1.2369
-15.7184 -18.8883 1.3637
-14.9856 -21.6828 1.4627
-12.6303 -22.2943 1.4220
-10.1973 -22.4630 1.3691
-8.2138 -23.4557 1.3792
-6.6980 -26.5039 1.5171
-4.3119 -27.0232 1.5187
-1.8858 -27.3157 1.5195
0.5579 -27.3784 1.5197
2.9965 -27.2107 1.5192
5.4071 -26.8142 1.5180
7.7675 -26.1932 1.5162
10.0560 -25.3542 1.5137
12.2942 -24.3903 1.5158
14.4522 -23.2477 1.5192
15.2213 -20.2107 1.4041
16.8732 -18.6730 1.3967
19.1682 -17.7388 1.4494
17.5577 -13.5531 1.2309
23.4121 -14.9431 1.5414
23.2395 -12.0626 1.4531
23.3991 -9.6039 1.4037
22.8335 -7.0675 1.3265
23.0141 -4.9262 1.3061
23.3796 -2.8562 1.3071
30.3781 -0.9804 1.6868
31.0555 1.7734 1.7263
31.6758 4.6690 1.7769
32.0652 7.6992 1.8301
17.9067 6.0328 1.0486
24.7357 10.8764 1.4996
24.5639 13.5332 1.5564
24.7216 16.6553 1.6543
24.5449 19.9368 1.7549
24.7489 24.0690 1.9159
25.6759 29.8712 2.1860
23.0137 32.1874 2.1959
21.4357 36.4665 2.3475
18.0979 38.2329 2.3475
14.4341 39.2004 2.3183
10.8898 40.3659 2.3203
7.2499 41.1961 2.3214
3.5425 41.6266 2.3185
-0.1842 41.7703 2.3181
-3.9079 41.5790 2.3177
-3.7511 20.2669 1.1438
-11.3773 40.7413 2.3475
-14.9654 39.5643 2.3475
-18.3558 37.9097 2.3375
-21.7563 36.2761 2.3475
-23.3270 32.0251 2.1988
-25.9755 29.6860 2.1891
-27.9930 26.7480 2.1487
-29.6639 23.6637 2.1059
-31.1827 20.6109 2.0744
-31.9532 17.2388 2.0149
-32.3877 13.9017 1.9560
-32.5538 10.6486 1.9008
-19.1065 4.4099 1.0882
-19.1013 2.6437 1.0702
-19.0962 0.9217 1.0610
-19.0912 -0.7846 1.0604
-19.0861 -2.5026 1.0683
-9.3558 -2.0890 0.5320
-31.4053 -10.0249 1.8295
-29.9698 -12.6106 1.8045
-23.8635 -12.6548 1.4990
-19.4266 -12.6417 1.2863
-16.0692 -12.6318 1.1343
-15.7304 -14.8169 1.1993
-15.7218 -17.7105 1.3143
-15.6921 -21.2228 1.4648
-13.4531 -22.0721 1.4345
-11.0342 -22.3791 1.3847
-8.8827 -22.9851 1.3675
-7.5373 -26.2641 1.5164
-5.1710 -26.8633 1.5182
-2.7566 -27.2374 1.5193
-0.3166 -27.3825 1.5197
2.1264 -27.2971 1.5195
4.5496 -26.9820 1.5185
6.9305 -26.4407 1.5169
9.2472 -25.6788 1.5147
11.5011 -24.7531 1.5148
13.6913 -23.6777 1.5179
15.2081 -21.5950 1.4658
16.2198 -19.1451 1.3925
18.2449 -17.9993 1.4223
20.8567 -17.1899 1.4999
22.9084 -15.6730 1.5404
19.3985 -14.3789 1.4893
20.9057 -12.7761 1.5111
22.2433 -10.9999 1.5305
23.4012 -9.0753 1.5481
23.0820 -6.6537 1.4816
23.3854 -4.5302 1.4692
23.3788 -2.3940 1.4495
27.4314 -0.3496 1.6920
28.0588 2.1524 1.7357
28.4882 4.7690 1.7815
28.6997 7.4864 1.8294
17.5573 6.2991 1.1505
24.7343 11.4569 1.6813
24.5620 14.1638 1.7488
24.7194 17.3646 1.8632
25.6495 21.6783 2.0714
23.9332 24.2023 2.0994
21.9232 26.5355 2.1230
19.8117 28.8843 2.1603
17.2263 30.6599 2.1691
15.3848 34.2124 2.3137
12.2430 35.3635 2.3082
9.0466 36.3396 2.3098
5.7717 37.0149 2.3106
2.4475 37.3830 2.3106
-0.8951 37.4058 2.3078
-2.5542 22.4612 1.3943
-4.1624 20.2699 1.2763
-10.9505 36.4516 2.3475
-12.5025 31.1991 2.0729
-15.3272 30.1407 2.0856
-18.8384 30.0647 2.1883
-21.1582 27.8873 2.1591
-23.2066 25.4997 2.1266
-24.9685 22.9426 2.0914
-26.4354 20.2568 2.0541
-27.6586 17.5157 2.0192
-28.3684 14.5973 1.9678
-28.7880 11.6966 1.9165
-28.9351 8.8437 1.8662
-19.1054 4.0187 1.2042
-19.1002 2.2646 1.1863
-19.0951 0.5484 1.1782
-19.0901 -1.1581 1.1796
-19.0850 -2.8824 1.1905
-9.4508 -2.3048 0.6000
-26.8464 -9.1507 1.7494
-25.6011 -11.3654 1.7276
-24.1178 -13.3992 1.7017
-18.6177 -12.6393 1.3879
-15.7361 -12.8747 1.2540
-15.7287 -15.4056 1.3579
-15.7197 -18.4199 1.4936
-13.6352 -19.2141 1.4532
-11.5038 -19.7304 1.4087
-9.5179 -20.2930 1.3825
-8.1946 -22.5011 1.4770
-6.3245 -23.7788 1.5176
-4.1750 -24.2271 1.5163
-1.9966 -24.4905 1.5155
0.1955 -24.5673 1.5153
2.3862 -24.4571 1.5156
4.5605 -24.1606 1.5165
6.7033 -23.6795 1.5179
8.7997 -23.0167 1.5198
10.8348 -22.1759 1.5223
12.8084 -21.1858 1.5269
14.7399 -20.0858 1.5366
15.2281 -17.2792 1.4206
16.8309 -15.9684 1.4310
17.4672 -13.8329 1.3743
20.3848 -13.3701 1.5036
21.7861 -11.6540 1.5239
23.0009 -9.7760 1.5415
23.3960 -7.5612 1.5165
22.8280 -5.1836 1.4438
23.3807 -3.1515 1.4551
27.1626 -1.2144 1.6770
27.8562 1.2439 1.7198
22.3053 3.0053 1.3882
28.6504 6.5041 1.8121
28.4800 9.2026 1.8460
24.7366 10.5121 1.6578
24.1704 12.9277 1.6906
24.7227 16.2133 1.8235
24.1521 19.1248 1.9001
24.5880 23.3254 2.0904
22.6718 25.7226 2.1148
20.5815 28.0429 2.1455
18.2898 30.2485 2.1802
16.5506 33.8698 2.3251
13.3616 34.9431 2.3074
10.2002 36.0247 2.3093
6.9500 36.8084 2.3104
3.6401 37.2869 2.3107
0.2998 37.4204 2.3081
-3.0376 37.2840 2.3072
-3.4906 20.2627 1.2682
-9.7810 36.7826 2.3475
-13.0224 35.7638 2.3475
-15.1290 32.2611 2.1977
-17.9468 30.7847 2.1978
-20.3588 28.6922 2.1699
-22.5063 26.3751 2.1385
-24.3720 23.8740 2.1043
-25.9449 21.2295 2.0677
-27.3315 18.5572 2.0376
-28.1487 15.6406 1.9862
-28.6702 12.7299 1.9348
-28.9126 9.8567 1.8840
-19.1073 4.6608 1.2131
