ply
format ascii 1.0
element vertex 2131
property float32 x
property float32 y
property float32 z
end_header
-13.2142 0.7421 1.8878
-13.2277 -0.4394 1.8878
-13.1358 -1.6174 1.8878
-12.9392 -2.7825 1.8878
-12.6395 -3.9254 1.8878
-2.4126 -0.9929 0.3721
-11.7410 -6.1086 1.8878
-11.1494 -7.1314 1.8878
-10.4689 -8.0974 1.8878
-9.6516 -8.9494 1.8774
-8.7844 -9.7405 1.8709
-7.9519 -10.5799 1.8878
-6.9765 -11.2469 1.8878
-5.9457 -11.8243 1.8878
-4.8674 -12.3075 1.8878
-3.7503 -12.6926 1.8878
-2.6033 -12.9765 1.8878
-1.4356 -13.1569 1.8878
-0.2564 -13.2325 1.8878
0.9248 -13.2027 1.8878
2.0986 -13.0676 1.8878
3.2557 -12.8283 1.8878
4.3869 -12.4868 1.8878
3.6471 -8.0123 1.2557
6.5356 -11.5088 1.8878
7.5360 -10.8800 1.8878
8.4763 -10.1645 1.8878
9.3491 -9.3680 1.8878
10.1474 -8.4968 1.8878
10.4398 -6.5257 1.8335
2.1495 -1.0901 0.3589
2.2376 -0.8938 0.3588
2.3082 -0.6906 0.3588
2.3608 -0.4821 0.3588
12.2208 -1.3760 1.8315
12.2962 -0.2806 1.8317
12.2752 0.8174 1.8322
12.1579 1.9096 1.8328
2.3437 0.5862 0.3598
2.2843 0.7937 0.3601
2.2068 0.9954 0.3605
10.7517 6.0568 1.8378
10.1784 6.9983 1.8396
9.5237 7.8865 1.8415
8.7924 8.7144 1.8436
7.9899 9.4755 1.8459
7.1222 10.1635 1.8483
6.1958 10.7728 1.8508
5.2176 11.2984 1.8534
4.1952 11.7357 1.8561
3.1365 12.0810 1.8588
2.0495 12.3310 1.8616
0.8902 11.7842 1.7600
-0.1744 12.5365 1.8672
-1.2937 12.4894 1.8700
-2.4059 12.3421 1.8727
-3.5020 12.0952 1.8753
-4.5730 11.7505 1.8778
-5.6035 11.2973 1.8781
-6.5877 10.7509 1.8778
-7.5281 10.1309 1.8797
-8.4096 9.4281 1.8815
-9.2248 8.6478 1.8831
-9.9669 7.7965 1.8845
-10.6312 6.8821 1.8861
-11.2104 5.9106 1.8874
-2.3140 0.9672 0.3735
-2.3914 0.7570 0.3736
-2.4492 0.5407 0.3735
-12.5723 1.6178 1.8878
-12.6665 0.4901 1.8878
-12.6597 -0.6416 1.8878
-12.5520 -1.7681 1.8878
-2.4362 -0.5685 0.3726
-2.3734 -0.7827 0.3722
-2.2916 -0.9902 0.3718
-11.1413 -6.0457 1.8878
-10.5578 -7.0152 1.8878
-9.8900 -7.9289 1.8878
-9.1434 -8.7794 1.8878
-8.3238 -9.5599 1.8878
-7.4382 -10.2642 1.8878
-6.4931 -10.8867 1.8878
-5.4962 -11.4224 1.8878
-4.4556 -11.8671 1.8878
-3.3794 -12.2172 1.8878
-2.2764 -12.4699 1.8878
-1.1551 -12.6232 1.8878
-0.0246 -12.6759 1.8878
1.1060 -12.6276 1.8878
2.2278 -12.4786 1.8878
3.3319 -12.2302 1.8878
3.2433 -8.7416 1.3886
3.7316 -7.8329 1.2921
6.4507 -10.9118 1.8878
7.3981 -10.2930 1.8878
8.2867 -9.5922 1.8878
9.1092 -8.8149 1.8878
9.6860 -7.8274 1.8546
10.2303 -6.8552 1.8340
10.7935 -5.9114 1.8327
2.2083 -0.9644 0.3589
2.2852 -0.7635 0.3588
2.3442 -0.5566 0.3588
12.1710 -1.7627 1.8315
12.2805 -0.6702 1.8316
12.2937 0.4278 1.8320
12.2105 1.5230 1.8326
2.3604 0.5115 0.3597
2.3075 0.7206 0.3600
2.2364 0.9245 0.3604
10.9348 5.7111 1.8372
10.3914 6.6698 1.8389
9.7651 7.5777 1.8408
9.0604 8.4278 1.8428
8.2826 9.2133 1.8450
7.4373 9.9280 1.8474
6.5310 10.5658 1.8499
5.5703 11.1217 1.8525
4.5628 11.5909 1.8551
3.5160 11.9692 1.8578
2.4381 12.2533 1.8606
1.2800 11.9050 1.7832
0.2230 12.5291 1.8662
-0.8967 12.5176 1.8690
-2.0125 12.4058 1.8717
-3.1153 12.1942 1.8744
-4.1962 11.8840 1.8769
-5.2429 11.4701 1.8782
-6.2423 10.9520 1.8774
-7.2006 10.3608 1.8790
-8.1039 9.6868 1.8809
-8.9434 8.9333 1.8825
-9.7122 8.1064 1.8840
-10.4048 7.2137 1.8855
-11.0149 6.2616 1.8869
-2.2820 1.0400 0.3735
-2.3661 0.8325 0.3735
-2.4310 0.6181 0.3736
-12.5147 2.0155 1.8878
-12.6446 0.8914 1.8878
-12.6737 -0.2399 1.8878
-12.6017 -1.3693 1.8878
-2.4537 -0.4911 0.3727
-2.3979 -0.7074 0.3723
-2.3228 -0.9174 0.3719
-11.3274 -5.6894 1.8878
-10.7749 -6.6770 1.8878
-10.1364 -7.6114 1.8878
-9.4171 -8.4851 1.8878
-8.6229 -9.2912 1.8878
-7.7598 -10.0233 1.8878
-6.8349 -10.6754 1.8878
-5.8556 -11.2424 1.8878
-4.8295 -11.7199 1.8878
-3.7650 -12.1039 1.8878
-2.6705 -12.3915 1.8878
-1.5547 -12.5803 1.8878
-0.4265 -12.6688 1.8878
0.7052 -12.6563 1.8878
1.8311 -12.5430 1.8878
2.9425 -12.3297 1.8878
4.0304 -12.0181 1.8878
3.5741 -8.1589 1.3265
6.1016 -11.1108 1.8878
7.0682 -10.5224 1.8878
7.9785 -9.8501 1.8878
8.8252 -9.0992 1.8878
9.5922 -8.2678 1.8859
10.0217 -7.1859 1.8365
10.6031 -6.2520 1.8331
2.1768 -1.0340 0.3589
2.2599 -0.8356 0.3588
2.3253 -0.6307 0.3588
2.3726 -0.4208 0.3589
12.2526 -1.0592 1.8315
12.3001 0.0379 1.8318
12.2511 1.1351 1.8323
2.3747 0.4363 0.3596
2.3284 0.6469 0.3599
2.2637 0.8528 0.3603
2.1811 1.0525 0.3607
10.5941 6.3349 1.8383
9.9967 7.2616 1.8401
9.3193 8.1331 1.8421
8.5668 8.9423 1.8442
7.7447 9.6827 1.8465
6.8593 10.3485 1.8490
5.9171 10.9341 1.8515
4.9254 11.4345 1.8542
3.8916 11.8455 1.8569
2.8238 12.1634 1.8596
1.7303 12.3853 1.8624
0.6197 12.5091 1.8652
-0.4991 12.5332 1.8680
-1.6174 12.4570 1.8707
-2.7258 12.2807 1.8734
-3.8155 12.0053 1.8760
-4.8768 11.6307 1.8782
-5.8934 11.1470 1.8778
-6.8660 10.5799 1.8783
-7.7901 9.9354 1.8802
-8.6531 9.2095 1.8820
-9.4478 8.4080 1.8835
-10.1680 7.5377 1.8850
-10.8081 6.6060 1.8865
-11.3618 5.6194 1.8877
-2.3384 0.9070 0.3735
-2.4102 0.6949 0.3736
-2.4623 0.4771 0.3735
-12.6099 1.2917 1.8878
-12.6749 0.1619 1.8878
-12.6388 -0.9692 1.8878
-2.4688 -0.4132 0.3728
-2.4200 -0.6312 0.3725
-2.3517 -0.8437 0.3721
-2.2644 -1.0488 0.3717
-10.9811 -6.3321 1.8878
-10.3726 -7.2862 1.8878
-9.6814 -8.1823 1.8878
-8.9130 -9.0132 1.8878
-8.0736 -9.7722 1.8878
-7.1699 -10.4533 1.8878
-6.2090 -11.0511 1.8878
-5.1986 -11.5609 1.8878
-4.1468 -11.9785 1.8878
-3.0620 -12.3006 1.8878
-1.9527 -12.5246 1.8878
-0.8279 -12.6489 1.8878
0.3036 -12.6723 1.8878
1.4326 -12.5947 1.8878
2.5502 -12.4168 1.8878
3.6474 -12.1399 1.8878
3.4078 -8.5030 1.3642
4.0640 -7.9908 1.3351
6.7311 -10.7412 1.8878
7.6622 -10.0980 1.8878
8.5323 -9.3744 1.8878
9.3344 -8.5760 1.8878
9.8284 -7.5303 1.8439
10.4022 -6.5866 1.8336
10.9415 -5.6291 1.8325
2.2324 -0.9068 0.3588
2.3041 -0.7040 0.3588
2.3579 -0.4958 0.3588
12.2126 -1.4470 1.8315
12.2942 -0.3521 1.8317
12.2795 0.7460 1.8321
12.1685 1.8389 1.8328
2.3470 0.5726 0.3598
2.2887 0.7804 0.3601
2.2124 0.9824 0.3605
10.7861 5.9939 1.8377
10.2182 6.9386 1.8394
9.5687 7.8305 1.8414
8.8422 8.6625 1.8435
8.0442 9.4281 1.8457
7.1805 10.1211 1.8481
6.2577 10.7357 1.8506
5.2827 11.2669 1.8532
4.2630 11.7101 1.8559
3.2063 12.0614 1.8586
2.1209 12.3177 1.8614
1.0154 12.4765 1.8642
-0.1015 12.5361 1.8670
-1.2210 12.4955 1.8698
-2.3340 12.3547 1.8725
-3.4314 12.1143 1.8751
-4.5042 11.7759 1.8777
-5.5378 11.3298 1.8781
-6.5247 10.7882 1.8776
-7.4686 10.1739 1.8796
-8.3542 9.4762 1.8814
-9.1739 8.7008 1.8830
-9.9209 7.8539 1.8844
-10.5905 6.9434 1.8860
-11.1754 5.9754 1.8873
-2.3084 0.9806 0.3735
-2.3869 0.7709 0.3736
-2.4461 0.5549 0.3735
-12.5626 1.6908 1.8878
-12.6634 0.5637 1.8878
-12.6632 -0.5680 1.8878
-12.5621 -1.6952 1.8878
-2.4396 -0.5544 0.3726
-2.3781 -0.7690 0.3722
-2.2975 -0.9769 0.3718
-11.1763 -5.9808 1.8878
-10.5984 -6.9538 1.8878
-9.9359 -7.8713 1.8878
-9.1943 -8.7261 1.8878
-8.3792 -9.5114 1.8878
-7.4977 -10.2208 1.8878
-6.5562 -10.8488 1.8878
-5.5625 -11.3903 1.8878
-4.5245 -11.8410 1.8878
-3.4504 -12.1973 1.8878
-2.3488 -12.4564 1.8878
-1.2284 -12.6163 1.8878
-0.0983 -12.6756 1.8878
1.0326 -12.6338 1.8878
2.1553 -12.4914 1.8878
3.2608 -12.2494 1.8878
3.2130 -8.8164 1.3975
3.7033 -7.8914 1.2982
6.3872 -10.9491 1.8878
7.3383 -10.3358 1.8878
8.2309 -9.6402 1.8878
9.0578 -8.8677 1.8878
9.6748 -7.9117 1.8613
10.1908 -6.9149 1.8341
10.7594 -5.9742 1.8328
2.2027 -0.9772 0.3589
2.2807 -0.7767 0.3588
2.3409 -0.5703 0.3588
12.1605 -1.8334 1.8315
12.2763 -0.7416 1.8316
12.2958 0.3563 1.8319
12.2189 1.4520 1.8325
2.3632 0.4977 0.3597
2.3115 0.7072 0.3600
2.2415 0.9115 0.3604
10.9672 5.6472 1.8371
10.4294 6.6088 1.8388
9.8083 7.5203 1.8407
9.1086 8.3745 1.8427
8.3353 9.1643 1.8449
7.4942 9.8837 1.8472
6.5916 10.5268 1.8497
5.6344 11.0881 1.8523
4.6296 11.5630 1.8549
3.5851 11.9474 1.8577
2.5090 12.2378 1.8604
1.4097 12.4314 1.8632
0.2957 12.5264 1.8660
-0.8239 12.5214 1.8688
-1.9402 12.4161 1.8715
-3.0441 12.2110 1.8742
-4.1267 11.9071 1.8768
-5.1762 11.5005 1.8782
-6.1789 10.9886 1.8775
-7.1398 10.4017 1.8789
-8.0470 9.7331 1.8808
-8.8909 8.9846 1.8824
-9.6645 8.1623 1.8839
-10.3622 7.2737 1.8854
-10.9778 6.3252 1.8868
-2.2759 1.0532 0.3735
-2.3612 0.8462 0.3735
-2.4273 0.6322 0.3736
-2.4737 0.4132 0.3735
-12.6392 0.9648 1.8878
-12.6748 -0.1663 1.8878
-12.6095 -1.2961 1.8878
-2.4567 -0.4769 0.3727
-2.4022 -0.6935 0.3724
-2.3283 -0.9040 0.3720
-11.3603 -5.6235 1.8878
-10.8135 -6.6142 1.8878
-10.1804 -7.5524 1.8878
-9.4663 -8.4303 1.8878
-8.6766 -9.2410 1.8878
-7.8179 -9.9780 1.8878
-6.8968 -10.6355 1.8878
-5.9208 -11.2082 1.8878
-4.8976 -11.6916 1.8878
-3.8353 -12.0818 1.8878
-2.7425 -12.3757 1.8878
-1.6278 -12.5710 1.8878
-0.5001 -12.6661 1.8878
0.6316 -12.6602 1.8878
1.7582 -12.5534 1.8878
2.8708 -12.3466 1.8878
3.9606 -12.0413 1.8878
3.5443 -8.2205 1.3332
6.0369 -11.1461 1.8878
7.0069 -10.5633 1.8878
7.9211 -9.8962 1.8878
8.7722 -9.1503 1.8878
9.5533 -8.3315 1.8878
9.9884 -7.2503 1.8381
10.5671 -6.3138 1.8332
2.1708 -1.0466 0.3589
2.2550 -0.8487 0.3588
2.3216 -0.6442 0.3588
2.3701 -0.4346 0.3588
12.2462 -1.1303 1.8315
12.2999 -0.0336 1.8318
12.2572 1.0638 1.8323
2.3771 0.4224 0.3596
2.3319 0.6333 0.3599
2.2684 0.8396 0.3602
2.1870 1.0398 0.3606
10.6301 6.2728 1.8382
10.0381 7.2029 1.8400
9.3657 8.0782 1.8420
8.6179 8.8916 1.8441
7.8002 9.6368 1.8464
6.9187 10.3076 1.8488
5.9800 10.8985 1.8514
4.9912 11.4046 1.8540
3.9600 11.8215 1.8567
2.8942 12.1456 1.8594
1.8021 12.3739 1.8622
0.6724 12.1431 1.8112
-0.4263 12.5346 1.8678
-1.5448 12.4650 1.8706
-2.6542 12.2952 1.8733
-3.7454 12.0262 1.8759
-4.8091 11.6588 1.8782
-5.8287 11.1814 1.8779
-6.8039 10.6189 1.8782
-7.7318 9.9799 1.8801
-8.5990 9.2591 1.8819
-9.3983 8.4623 1.8834
-10.1234 7.5963 1.8849
-10.7691 6.6683 1.8864
-11.3285 5.6851 1.8876
-2.3331 0.9206 0.3735
-2.4061 0.7089 0.3736
-2.4595 0.4914 0.3735
-12.6022 1.3650 1.8878
-12.6737 0.2356 1.8878
-12.6443 -0.8957 1.8878
-2.4713 -0.3989 0.3728
-2.4238 -0.6172 0.3725
-2.3567 -0.8300 0.3721
-2.2707 -1.0357 0.3717
-11.0177 -6.2682 1.8878
-10.4147 -7.2259 1.8878
-9.7288 -8.1259 1.8878
-8.9653 -8.9613 1.8878
-8.1303 -9.7252 1.8878
-7.2305 -10.4115 1.8878
-6.2731 -11.0149 1.8878
-5.2657 -11.5305 1.8878
-4.2164 -11.9542 1.8878
-3.1334 -12.2826 1.8878
-2.0254 -12.5131 1.8878
-0.9013 -12.6439 1.8878
0.2300 -12.6739 1.8878
1.3594 -12.6029 1.8878
2.4780 -12.4314 1.8878
3.5768 -12.1608 1.8878
3.3763 -8.5682 1.3715
3.9873 -7.9541 1.3251
6.6685 -10.7801 1.8878
7.6034 -10.1424 1.8878
8.4777 -9.4238 1.8878
9.2844 -8.6302 1.8878
9.7905 -7.5920 1.8451
10.3642 -6.6472 1.8337
10.9089 -5.6928 1.8325
2.2271 -0.9198 0.3588
2.3000 -0.7174 0.3588
2.3550 -0.5095 0.3588
12.2040 -1.5179 1.8315
12.2919 -0.4235 1.8317
12.2834 0.6747 1.8321
12.1786 1.7681 1.8327
2.3501 0.5589 0.3598
2.2931 0.7670 0.3601
2.2179 0.9695 0.3605
10.8201 5.9308 1.8376
10.2577 6.8786 1.8393
9.6133 7.7742 1.8412
8.8917 8.6103 1.8433
8.0982 9.3804 1.8456
7.2386 10.0783 1.8479
6.3194 10.6982 1.8504
5.3476 11.2349 1.8530
4.3305 11.6840 1.8557
3.2760 12.0414 1.8585
2.1923 12.3040 1.8612
1.0658 12.2161 1.8262
-0.0287 12.5352 1.8668
-1.1483 12.5012 1.8696
-2.2619 12.3669 1.8723
-3.3607 12.1329 1.8749
-4.4354 11.8009 1.8775
-5.4720 11.3620 1.8781
-6.4614 10.8252 1.8775
-7.4089 10.2164 1.8795
-8.2985 9.5240 1.8813
-9.1228 8.7535 1.8829
-9.8747 7.9110 1.8843
-10.5494 7.0045 1.8859
-11.1401 6.0400 1.8872
-2.3026 0.9940 0.3735
-2.3824 0.7848 0.3736
-2.4428 0.5692 0.3735
-12.5526 1.7638 1.8878
-12.6599 0.6372 1.8878
-12.6663 -0.4944 1.8878
-12.5717 -1.6221 1.8878
-2.4429 -0.5402 0.3726
-2.3827 -0.7552 0.3722
-2.3033 -0.9636 0.3718
-11.2108 -5.9158 1.8878
-10.6385 -6.8921 1.8878
-9.9815 -7.8135 1.8878
-9.2448 -8.6725 1.8878
-8.4345 -9.4625 1.8878
-7.5569 -10.1771 1.8878
-6.6191 -10.8105 1.8878
-5.6286 -11.3578 1.8878
-4.5932 -11.8145 1.8878
-3.5212 -12.1771 1.8878
-2.4211 -12.4426 1.8878
-1.3017 -12.6089 1.8878
-0.1719 -12.6748 1.8878
0.9592 -12.6396 1.8878
2.0826 -12.5037 1.8878
3.1895 -12.2681 1.8878
3.1822 -8.8923 1.4066
3.6748 -7.9504 1.3044
6.3235 -10.9861 1.8878
7.2781 -10.3783 1.8878
8.1747 -9.6878 1.8878
9.0061 -8.9201 1.8878
9.6684 -8.0007 1.8689
10.1510 -6.9743 1.8342
10.7249 -6.0368 1.8329
2.1970 -0.9900 0.3589
2.2762 -0.7900 0.3588
2.3375 -0.5838 0.3588
12.1497 -1.9041 1.8315
12.2717 -0.8129 1.8316
12.2975 0.2849 1.8319
12.2268 1.3810 1.8325
2.3659 0.4840 0.3596
2.3154 0.6937 0.3600
2.2466 0.8983 0.3603
10.9992 5.5830 1.8370
10.4669 6.5477 1.8387
9.8512 7.4627 1.8405
9.1564 8.3207 1.8426
8.3877 9.1150 1.8448
7.5509 9.8392 1.8471
6.6521 10.4874 1.8495
5.6982 11.0542 1.8521
4.6963 11.5349 1.8548
3.6541 11.9252 1.8575
2.5798 12.2218 1.8603
1.4817 12.4218 1.8630
0.3685 12.5232 1.8658
-0.7510 12.5248 1.8686
-1.8678 12.4260 1.8714
-2.9729 12.2273 1.8740
-4.0571 11.9299 1.8766
-5.1094 11.5304 1.8782
-6.1152 11.0249 1.8776
-7.0787 10.4424 1.8788
-7.9898 9.7791 1.8806
-8.8381 9.0356 1.8823
-9.6164 8.2179 1.8838
-10.3192 7.3333 1.8853
-10.9404 6.3886 1.8868
-2.2697 1.0664 0.3735
-2.3562 0.8599 0.3735
-2.4236 0.6463 0.3736
-2.4713 0.4275 0.3735
-12.6333 1.0382 1.8878
-12.6756 -0.0927 1.8878
-12.6168 -1.2228 1.8878
-2.4595 -0.4626 0.3727
-2.4063 -0.6795 0.3724
-2.3337 -0.8905 0.3720
-11.3927 -5.5574 1.8878
-10.8517 -6.5514 1.8878
-10.2241 -7.4931 1.8878
-9.5151 -8.3751 1.8878
-8.7302 -9.1904 1.8878
-7.8758 -9.9324 1.8878
-6.9585 -10.5952 1.8878
-5.9858 -11.1736 1.8878
-4.9654 -11.6630 1.8878
-3.9054 -12.0593 1.8878
-2.8143 -12.3596 1.8878
-1.7008 -12.5613 1.8878
-0.5737 -12.6630 1.8878
0.5580 -12.6637 1.8878
1.6853 -12.5634 1.8878
2.7991 -12.3631 1.8878
3.8905 -12.0642 1.8878
3.5142 -8.2828 1.3400
5.9720 -11.1810 1.8878
6.9454 -10.6038 1.8878
7.8635 -9.9421 1.8878
8.7189 -9.2011 1.8878
9.5047 -8.3869 1.8878
9.9541 -7.3141 1.8396
10.5307 -6.3753 1.8333
2.1647 -1.0593 0.3589
2.2501 -0.8618 0.3588
2.3178 -0.6576 0.3588
2.3675 -0.4483 0.3588
12.2393 -1.2015 1.8315
12.2993 -0.1051 1.8318
12.2629 0.9926 1.8322
12.1303 2.0831 1.8330
2.3355 0.6197 0.3598
2.2731 0.8264 0.3602
2.1928 1.0269 0.3606
10.6657 6.2105 1.8381
10.0791 7.1440 1.8399
9.4118 8.0231 1.8418
8.6687 8.8407 1.8440
7.8554 9.5905 1.8462
6.9779 10.2663 1.8487
6.0427 10.8626 1.8512
5.0570 11.3743 1.8538
4.0282 11.7972 1.8565
2.9644 12.1274 1.8593
1.8738 12.3620 1.8621
0.7252 11.8496 1.7680
-0.3534 12.5357 1.8676
-1.4722 12.4726 1.8704
-2.5825 12.3093 1.8731
-3.6751 12.0467 1.8757
-4.7412 11.6865 1.8782
-5.7638 11.2154 1.8779
-6.7417 10.6575 1.8781
-7.6731 10.0240 1.8800
-8.5445 9.3084 1.8818
-9.3485 8.5163 1.8833
-10.0786 7.6545 1.8848
-10.7296 6.7305 1.8863
-11.2948 5.7506 1.8876
-2.3277 0.9341 0.3735
-2.4019 0.7228 0.3736
-2.4566 0.5057 0.3735
-12.5941 1.4382 1.8878
-12.6722 0.3092 1.8878
-12.6492 -0.8223 1.8878
-2.4737 -0.3845 0.3728
-2.4274 -0.6031 0.3725
-2.3616 -0.8164 0.3721
-2.2768 -1.0226 0.3717
-11.0539 -6.2041 1.8878
-10.4565 -7.1653 1.8878
-9.7758 -8.0693 1.8878
-9.0172 -8.9090 1.8878
-8.1867 -9.6777 1.8878
-7.2909 -10.3693 1.8878
-6.3370 -10.9783 1.8878
-5.3326 -11.4997 1.8878
-4.2857 -11.9295 1.8878
-3.2047 -12.2642 1.8878
-2.0981 -12.5011 1.8878
-0.9748 -12.6384 1.8878
0.1563 -12.6750 1.8878
1.2862 -12.6105 1.8878
2.4058 -12.4456 1.8878
3.5062 -12.1814 1.8878
3.3445 -8.6341 1.3789
3.9117 -7.9179 1.3152
6.6058 -10.8187 1.8878
7.5444 -10.1864 1.8878
8.4228 -9.4729 1.8878
9.2341 -8.6839 1.8878
9.7519 -7.6532 1.8462
10.3259 -6.7077 1.8338
10.8760 -5.7563 1.8326
2.2217 -0.9327 0.3588
2.2958 -0.7308 0.3588
2.3519 -0.5231 0.3588
12.1949 -1.5888 1.8315
12.2891 -0.4949 1.8316
12.2869 0.6032 1.8320
12.1883 1.6973 1.8327
2.3532 0.5452 0.3597
2.2973 0.7536 0.3601
2.2233 0.9565 0.3605
10.8537 5.8674 1.8375
10.2968 6.8185 1.8392
9.6576 7.7176 1.8411
8.9409 8.5579 1.8432
8.1518 9.3325 1.8454
7.2964 10.0352 1.8478
6.3809 10.6603 1.8503
5.4123 11.2026 1.8529
4.3979 11.6575 1.8555
3.3456 12.0210 1.8583
2.2635 12.2898 1.8611
1.1129 11.9541 1.7880
0.0441 12.5340 1.8667
-1.0755 12.5065 1.8694
-2.1898 12.3787 1.8721
-3.2898 12.1512 1.8748
-4.3663 11.8254 1.8773
-5.4060 11.3938 1.8782
-6.3980 10.8617 1.8774
-7.3489 10.2586 1.8793
-8.2425 9.5715 1.8812
-9.0713 8.8059 1.8828
-9.8281 7.9679 1.8842
-10.5081 7.0653 1.8858
-11.1043 6.1043 1.8871
-2.2967 1.0073 0.3735
-2.3778 0.7986 0.3736
-2.4395 0.5833 0.3735
-12.5422 1.8367 1.8878
-12.6560 0.7108 1.8878
-12.6689 -0.4209 1.8878
-12.5809 -1.5491 1.8878
-2.4461 -0.5260 0.3726
-2.3872 -0.7414 0.3723
-2.3091 -0.9503 0.3719
-11.2450 -5.8506 1.8878
-10.6784 -6.8301 1.8878
-10.0267 -7.7554 1.8878
-9.2950 -8.6187 1.8878
-8.4893 -9.4134 1.8878
-7.6160 -10.1330 1.8878
-6.6818 -10.7719 1.8878
-5.6945 -11.3249 1.8878
-4.6618 -11.7876 1.8878
-3.5919 -12.1564 1.8878
-2.4933 -12.4283 1.8878
-1.3750 -12.6012 1.8878
-0.2456 -12.6736 1.8878
0.8857 -12.6450 1.8878
2.0100 -12.5156 1.8878
3.1182 -12.2864 1.8878
3.1510 -8.9691 1.4158
3.6460 -8.0100 1.3107
6.2595 -11.0226 1.8878
7.2176 -10.4204 1.8878
8.1183 -9.7352 1.8878
8.9542 -8.9723 1.8878
9.6616 -8.0901 1.8767
10.0216 -6.2644 1.8346
2.0638 -1.0467 0.3592
2.1484 -0.8582 0.3591
2.2162 -0.6631 0.3591
2.2667 -0.4629 0.3591
2.2995 -0.2589 0.3592
2.3143 -0.0528 0.3593
2.3109 0.1539 0.3595
2.2895 0.3596 0.3598
2.2501 0.5628 0.3600
2.1930 0.7620 0.3604
2.1185 0.9555 0.3608
10.3207 5.8140 1.8388
9.7699 6.7175 1.8405
9.1411 7.5697 1.8423
8.4388 8.3640 1.8444
7.6683 9.0940 1.8465
6.8351 9.7538 1.8488
5.9457 10.3380 1.8512
5.0068 10.8418 1.8537
4.0254 11.2608 1.8563
3.0093 11.5914 1.8590
1.9663 11.8305 1.8616
0.9012 11.9299 1.8572
-0.1673 12.0262 1.8670
-1.2410 11.9803 1.8696
-2.3077 11.8383 1.8722
-3.3589 11.6009 1.8748
-4.3857 11.2693 1.8771
-5.3726 10.8318 1.8769
-6.3177 10.3102 1.8770
-7.2192 9.7153 1.8789
-8.0642 9.0409 1.8806
-8.8457 8.2924 1.8821
-9.5570 7.4759 1.8835
-10.1936 6.5989 1.8850
-10.7487 5.6672 1.8862
-2.2183 0.9272 0.3732
-2.2924 0.7257 0.3732
-2.3478 0.5183 0.3732
-2.3842 0.3068 0.3732
-2.4012 0.0929 0.3730
-2.3987 -0.1216 0.3728
-2.3768 -0.3348 0.3726
-2.3356 -0.5450 0.3723
-2.2755 -0.7504 0.3719
-2.1972 -0.9494 0.3715
-10.6890 -5.8002 1.8878
-10.1291 -6.7304 1.8878
-9.4885 -7.6070 1.8878
-8.7722 -8.4229 1.8878
-7.9860 -9.1717 1.8878
-7.1362 -9.8474 1.8878
-6.2294 -10.4447 1.8878
-5.2731 -10.9586 1.8878
-4.2747 -11.3853 1.8878
-3.2422 -11.7211 1.8878
-2.1839 -11.9636 1.8878
-1.1082 -12.1107 1.8878
-0.0236 -12.1613 1.8878
1.0611 -12.1149 1.8878
2.1374 -11.9720 1.8878
3.1966 -11.7337 1.8878
3.2423 -8.7387 1.4469
3.7309 -7.8314 1.3466
6.1888 -10.4688 1.8878
7.0978 -9.8751 1.8878
7.9503 -9.2027 1.8878
8.7393 -8.4570 1.8878
9.2524 -7.4770 1.8466
9.8205 -6.5805 1.8350
10.3613 -5.6746 1.8338
2.1203 -0.9260 0.3591
2.1941 -0.7331 0.3591
2.2508 -0.5345 0.3591
2.2899 -0.3316 0.3592
2.3111 -0.1261 0.3593
2.3142 0.0805 0.3594
2.2992 0.2868 0.3597
2.2662 0.4911 0.3599
2.2153 0.6918 0.3603
2.1469 0.8875 0.3606
2.0615 1.0767 0.3610
9.9746 6.4022 1.8398
9.3731 7.2734 1.8417
8.6963 8.0891 1.8436
7.9493 8.8426 1.8457
7.1377 9.5280 1.8480
6.2675 10.1396 1.8504
5.3453 10.6724 1.8528
4.3782 11.1220 1.8554
3.3736 11.4843 1.8580
2.3392 11.7563 1.8607
1.2832 11.9352 1.8634
0.2139 12.0194 1.8660
-0.8601 12.0076 1.8687
-1.9304 11.8997 1.8713
-2.9880 11.6960 1.8739
-4.0245 11.3978 1.8763
-5.0270 10.9978 1.8771
-5.9855 10.5014 1.8763
-6.9052 9.9358 1.8782
-7.7712 9.2891 1.8800
-8.5759 8.5662 1.8816
-9.3128 7.7731 1.8830
-9.9767 6.9169 1.8845
-10.5613 6.0037 1.8858
-2.1876 0.9969 0.3732
-2.2682 0.7980 0.3732
-2.3303 0.5925 0.3732
-2.3735 0.3823 0.3732
-2.3974 0.1690 0.3731
-2.4019 -0.0455 0.3729
-2.3868 -0.2593 0.3727
-2.3524 -0.4708 0.3724
-2.2990 -0.6782 0.3721
-2.2271 -0.8796 0.3717
-2.1373 -1.0735 0.3713
-10.3374 -6.4059 1.8878
-9.7248 -7.3024 1.8878
-9.0348 -8.1406 1.8878
-8.2727 -8.9140 1.8878
-7.4447 -9.6163 1.8878
-6.5574 -10.2419 1.8878
-5.6178 -10.7860 1.8878
-4.6335 -11.2440 1.8878
-3.6122 -11.6125 1.8878
-2.5621 -11.8883 1.8878
-1.4916 -12.0695 1.8878
-0.4092 -12.1544 1.8878
0.6765 -12.1425 1.8878
1.7568 -12.0337 1.8878
2.8230 -11.8291 1.8878
3.8668 -11.5302 1.8878
3.5731 -8.1565 1.3823
5.8538 -10.6597 1.8878
6.7812 -10.0951 1.8878
7.6545 -9.4501 1.8878
8.4669 -8.7298 1.8878
9.1340 -7.8728 1.8718
9.6094 -6.8903 1.8355
10.1785 -6.0016 1.8342
2.0901 -0.9928 0.3592
2.1699 -0.8023 0.3591
2.2327 -0.6055 0.3591
2.2781 -0.4040 0.3591
2.3056 -0.1993 0.3592
2.3152 0.0071 0.3594
2.3066 0.2137 0.3596
2.2799 0.4189 0.3598
2.2354 0.6211 0.3601
2.1732 0.8187 0.3605
2.0937 1.0104 0.3609
10.1693 6.0808 1.8393
9.5955 6.9701 1.8410
8.9449 7.8063 1.8429
8.2222 8.5826 1.8450
7.4329 9.2928 1.8472
6.5828 9.9312 1.8495
5.6782 10.4926 1.8520
4.7262 10.9722 1.8545
3.7340 11.3659 1.8571
2.7093 11.6702 1.8597
1.6601 11.8824 1.8624
0.5945 12.0004 1.8651
-0.4788 12.0228 1.8678
-1.5514 11.9490 1.8704
-2.6145 11.7792 1.8730
-3.6595 11.5144 1.8755
-4.6761 11.1521 1.8771
-5.6504 10.6875 1.8766
-6.5845 10.1461 1.8776
-7.4704 9.5277 1.8794
-8.2977 8.8312 1.8810
-9.0594 8.0623 1.8825
-9.7497 7.2277 1.8839
-10.3632 6.3340 1.8854
-2.1547 1.0657 0.3731
-2.2416 0.8694 0.3732
-2.3104 0.6661 0.3732
-2.3604 0.4574 0.3732
-2.3912 0.2450 0.3731
-2.4025 0.0307 0.3730
-2.3944 -0.1836 0.3728
-2.3668 -0.3961 0.3725
-2.3201 -0.6051 0.3722
-2.2547 -0.8089 0.3718
-2.1711 -1.0056 0.3714
-10.5352 -6.0750 1.8878
-9.9514 -6.9904 1.8878
-9.2883 -7.8501 1.8878
-8.5512 -8.6472 1.8878
-7.7458 -9.3755 1.8878
-6.8788 -10.0289 1.8878
-5.9569 -10.6025 1.8878
-4.9876 -11.0915 1.8878
-3.9785 -11.4921 1.8878
-2.9377 -11.8012 1.8878
-1.8734 -12.0161 1.8878
-0.7943 -12.1353 1.8878
0.2912 -12.1578 1.8878
1.3744 -12.0834 1.8878
2.4466 -11.9126 1.8878
3.4993 -11.6470 1.8878
3.4068 -8.5004 1.4215
4.0641 -7.9911 1.3917
6.4577 -10.3050 1.8878
7.3511 -9.6880 1.8878
8.1859 -8.9938 1.8878
8.9554 -8.2278 1.8878
9.4167 -7.2149 1.8415
9.9855 -6.3228 1.8346
2.0577 -1.0587 0.3592
2.1434 -0.8707 0.3591
2.2124 -0.6760 0.3591
2.2640 -0.4760 0.3591
2.2979 -0.2723 0.3592
2.3139 -0.0663 0.3593
2.3117 0.1404 0.3595
2.2915 0.3463 0.3597
2.2532 0.5497 0.3600
2.1972 0.7492 0.3604
2.1239 0.9431 0.3607
10.3537 5.7536 1.8387
9.8082 6.6602 1.8404
9.1843 7.5160 1.8422
8.4867 8.3142 1.8442
7.7204 9.0486 1.8464
6.8911 9.7131 1.8487
6.0052 10.3024 1.8511
5.0692 10.8116 1.8536
4.0904 11.2362 1.8562
3.0764 11.5726 1.8588
2.0349 11.8178 1.8615
0.9742 11.9694 1.8641
-0.0974 12.0259 1.8668
-1.1712 11.9862 1.8695
-2.2387 11.8504 1.8721
-3.2912 11.6192 1.8746
-4.3199 11.2940 1.8770
-5.3097 10.8631 1.8769
-6.2573 10.3460 1.8769
-7.1622 9.7564 1.8788
-8.0111 9.0871 1.8805
-8.7969 8.3432 1.8820
-9.5129 7.5309 1.8834
-10.1546 6.6577 1.8849
-10.7152 5.7293 1.8861
-2.2128 0.9400 0.3732
-2.2881 0.7390 0.3732
-2.3448 0.5320 0.3732
-2.3824 0.3207 0.3732
-2.4007 0.1069 0.3730
-2.3995 -0.1076 0.3728
-2.3788 -0.3210 0.3726
-2.3388 -0.5315 0.3723
-2.2800 -0.7373 0.3720
-2.2028 -0.9367 0.3716
-10.7225 -5.7380 1.8878
-10.1680 -6.6715 1.8878
-9.5325 -7.5517 1.8878
-8.8210 -8.3718 1.8878
-8.0392 -9.1252 1.8878
-7.1933 -9.8058 1.8878
-6.2900 -10.4083 1.8878
-5.3367 -10.9278 1.8878
-4.3408 -11.3602 1.8878
-3.3103 -11.7021 1.8878
-2.2534 -11.9507 1.8878
-1.1786 -12.1041 1.8878
-0.0943 -12.1609 1.8878
0.9907 -12.1209 1.8878
2.0677 -11.9842 1.8878
3.1284 -11.7520 1.8878
3.2119 -8.8135 1.4561
3.7023 -7.8891 1.3528
6.1279 -10.5046 1.8878
7.0403 -9.9162 1.8878
7.8967 -9.2487 1.8878
8.6901 -8.5076 1.8878
9.2139 -7.5349 1.8476
9.7825 -6.6378 1.8351
10.3285 -5.7350 1.8339
2.1149 -0.9383 0.3592
2.1899 -0.7458 0.3591
2.2477 -0.5475 0.3591
2.2879 -0.3449 0.3592
2.3103 -0.1396 0.3593
2.3146 0.0671 0.3594
2.3007 0.2734 0.3597
2.2688 0.4779 0.3599
2.2191 0.6789 0.3602
2.1519 0.8750 0.3606
2.0676 1.0646 0.3610
10.0110 6.3438 1.8397
9.4145 7.2184 1.8415
8.7425 8.0378 1.8435
7.9999 8.7956 1.8456
7.1923 9.4856 1.8478
6.3258 10.1022 1.8502
5.4068 10.6403 1.8527
4.4424 11.0954 1.8552
3.4399 11.4635 1.8579
2.4072 11.7414 1.8605
1.3524 11.9264 1.8632
0.2837 12.0168 1.8659
-0.7903 12.0113 1.8685
-1.8610 11.9096 1.8712
-2.9198 11.7121 1.8737
-3.9579 11.4201 1.8762
-4.9631 11.0270 1.8771
-5.9240 10.5352 1.8762
-6.8470 9.9751 1.8781
-7.7166 9.3335 1.8799
-8.5256 8.6155 1.8815
-9.2671 7.8267 1.8829
-9.9358 6.9744 1.8844
-10.5258 6.0648 1.8857
-2.1817 1.0096 0.3732
-2.2635 0.8111 0.3732
-2.3268 0.6061 0.3732
-2.3713 0.3961 0.3732
-2.3965 0.1829 0.3731
-2.4022 -0.0315 0.3729
-2.3883 -0.2455 0.3727
-2.3552 -0.4572 0.3724
-2.3030 -0.6648 0.3721
-2.2323 -0.8667 0.3717
-2.1437 -1.0611 0.3713
-10.3744 -6.3458 1.8878
-9.7671 -7.2457 1.8878
-9.0819 -8.0880 1.8878
-8.3243 -8.8658 1.8878
-7.5005 -9.5728 1.8878
-6.6168 -10.2037 1.8878
-5.6804 -10.7531 1.8878
-4.6987 -11.2169 1.8878
-3.6796 -11.5913 1.8878
-2.6311 -11.8733 1.8878
-1.5617 -12.0606 1.8878
-0.4798 -12.1518 1.8878
0.6059 -12.1462 1.8878
1.6868 -12.0437 1.8878
2.7543 -11.8453 1.8878
3.7997 -11.5524 1.8878
3.5433 -8.2181 1.3892
5.7918 -10.6936 1.8878
6.7224 -10.1344 1.8878
7.5995 -9.4944 1.8878
8.4160 -8.7788 1.8878
9.1239 -7.9570 1.8792
9.5697 -6.9464 1.8356
10.1439 -6.0609 1.8343
2.0843 -1.0049 0.3592
2.1652 -0.8149 0.3591
2.2291 -0.6185 0.3591
2.2756 -0.4173 0.3591
2.3044 -0.2127 0.3592
2.3151 -0.0063 0.3594
2.3077 0.2003 0.3596
2.2822 0.4056 0.3598
2.2388 0.6080 0.3601
2.1777 0.8060 0.3605
2.0994 0.9981 0.3608
10.2038 6.0213 1.8391
9.6352 6.9138 1.8409
8.9894 7.7536 1.8428
8.2713 8.5340 1.8448
7.4861 9.2487 1.8470
6.6398 9.8920 1.8494
5.7386 10.4585 1.8518
4.7895 10.9436 1.8543
3.7997 11.3429 1.8569
2.7768 11.6532 1.8596
1.7289 11.8715 1.8622
0.6642 11.9956 1.8649
-0.4089 12.0243 1.8676
-1.4818 11.9567 1.8702
-2.5458 11.7931 1.8728
-3.5923 11.5345 1.8753
-4.6112 11.1791 1.8771
-5.5885 10.7206 1.8767
-6.5250 10.1836 1.8774
-7.4144 9.5703 1.8793
-8.2458 8.8788 1.8809
-9.0120 8.1144 1.8824
-9.7070 7.2838 1.8838
-10.3258 6.3938 1.8853
-2.1484 1.0782 0.3731
-2.2365 0.8825 0.3732
-2.3065 0.6795 0.3732
-2.3577 0.4711 0.3732
-2.3898 0.2588 0.3731
-2.4024 0.0447 0.3730
-2.3955 -0.1697 0.3728
-2.3692 -0.3824 0.3725
-2.3237 -0.5917 0.3722
-2.2595 -0.7958 0.3719
-2.1771 -0.9931 0.3714
-10.5703 -6.0137 1.8878
-9.9919 -6.9325 1.8878
-9.3338 -7.7960 1.8878
-8.6013 -8.5974 1.8878
-7.8002 -9.3303 1.8878
-6.9369 -9.9888 1.8878
-6.0184 -10.5677 1.8878
-5.0520 -11.0623 1.8878
-4.0452 -11.4688 1.8878
-3.0062 -11.7839 1.8878
-1.9432 -12.0050 1.8878
-0.8647 -12.1305 1.8878
0.2206 -12.1593 1.8878
1.3042 -12.0912 1.8878
2.3774 -11.9266 1.8878
3.4316 -11.6671 1.8878
3.3753 -8.5656 1.4291
3.9874 -7.9544 1.3812
6.3978 -10.3424 1.8878
7.2947 -9.7305 1.8878
8.1335 -9.0412 1.8878
8.9074 -8.2798 1.8878
9.3810 -7.2744 1.8427
9.9490 -6.3810 1.8347
2.0516 -1.0706 0.3592
2.1384 -0.8831 0.3591
2.2084 -0.6889 0.3591
2.2611 -0.4892 0.3591
2.2962 -0.2856 0.3592
2.3134 -0.0797 0.3593
2.3124 0.1270 0.3595
2.2933 0.3330 0.3597
2.2563 0.5366 0.3600
2.2014 0.7363 0.3603
2.1292 0.9307 0.3607
10.3863 5.6930 1.8386
9.8461 6.6027 1.8402
9.2272 7.4620 1.8421
8.5342 8.2642 1.8441
7.7722 9.0029 1.8462
6.9469 9.6721 1.8485
6.0644 10.2665 1.8509
5.1315 10.7810 1.8534
4.1553 11.2112 1.8560
3.1432 11.5535 1.8586
2.1033 11.8047 1.8613
1.0436 11.9624 1.8640
-0.0275 12.0251 1.8666
-1.1015 11.9917 1.8693
-2.1696 11.8622 1.8719
-3.2233 11.6371 1.8744
-4.2539 11.3180 1.8769
-5.2466 10.8941 1.8770
-6.1966 10.3815 1.8768
-7.1050 9.7973 1.8786
-7.9578 9.1329 1.8804
-8.7478 8.3938 1.8819
-9.4686 7.5857 1.8833
-10.1153 6.7163 1.8848
-10.6813 5.7913 1.8861
-2.2073 0.9529 0.3732
-2.2838 0.7523 0.3732
-2.3417 0.5456 0.3732
-2.3806 0.3345 0.3732
-2.4001 0.1208 0.3730
-2.4002 -0.0937 0.3729
-2.3807 -0.3072 0.3726
-2.3420 -0.5179 0.3723
-2.2844 -0.7240 0.3720
-2.2084 -0.9239 0.3716
-10.7556 -5.6756 1.8878
-10.2066 -6.6122 1.8878
-9.5762 -7.4962 1.8878
-8.8695 -8.3204 1.8878
-8.0920 -9.0783 1.8878
-7.2501 -9.7639 1.8878
-6.3504 -10.3716 1.8878
-5.4001 -10.8966 1.8878
-4.4067 -11.3348 1.8878
-3.3782 -11.6827 1.8878
-2.3228 -11.9374 1.8878
-1.2488 -12.0970 1.8878
-0.1650 -12.1602 1.8878
0.9203 -12.1264 1.8878
1.9981 -11.9960 1.8878
3.0600 -11.7700 1.8878
3.1811 -8.8893 1.4656
3.6738 -7.9481 1.3592
6.0667 -10.5400 1.8878
6.9826 -9.9569 1.8878
7.8428 -9.2945 1.8878
8.6405 -8.5580 1.8878
9.1869 -7.6023 1.8510
9.7442 -6.6948 1.8352
10.2955 -5.7951 1.8339
2.1095 -0.9506 0.3592
2.1855 -0.7585 0.3591
2.2444 -0.5606 0.3591
2.2858 -0.3582 0.3592
2.3093 -0.1530 0.3593
2.3148 0.0536 0.3594
2.3022 0.2600 0.3596
2.2715 0.4647 0.3599
2.2229 0.6660 0.3602
2.1568 0.8624 0.3606
2.0736 1.0525 0.3610
10.0471 6.2851 1.8396
9.4557 7.1631 1.8414
8.7884 7.9863 1.8434
8.0503 8.7483 1.8455
7.2468 9.4428 1.8477
6.3838 10.0644 1.8501
5.4680 10.6077 1.8525
4.5063 11.0683 1.8551
3.5061 11.4422 1.8577
2.4752 11.7261 1.8603
1.4215 11.9173 1.8630
0.3535 12.0138 1.8657
-0.7204 12.0146 1.8684
-1.7916 11.9191 1.8710
-2.8514 11.7279 1.8735
-3.8912 11.4419 1.8760
-4.8990 11.0557 1.8771
-5.8630 10.5702 1.8763
-6.7884 10.0141 1.8780
-7.6618 9.3776 1.8798
-8.4750 8.6644 1.8814
-9.2210 7.8800 1.8828
-9.8947 7.0316 1.8843
-10.4900 6.1255 1.8856
-2.1758 1.0223 0.3732
-2.2587 0.8243 0.3732
-2.3233 0.6196 0.3732
-2.3690 0.4098 0.3732
-2.3954 0.1969 0.3731
-2.4024 -0.0176 0.3729
-2.3898 -0.2316 0.3727
-2.3579 -0.4435 0.3724
-2.3070 -0.6515 0.3721
-2.2374 -0.8538 0.3717
-2.1499 -1.0488 0.3713
-10.4111 -6.2854 1.8878
-9.8090 -7.1889 1.8878
-9.1288 -8.0351 1.8878
-8.3758 -8.8172 1.8878
-7.5559 -9.5291 1.8878
-6.6760 -10.1651 1.8878
-5.7428 -10.7200 1.8878
-4.7638 -11.1894 1.8878
-3.7469 -11.5697 1.8878
-2.7001 -11.8578 1.8878
-1.6317 -12.0513 1.8878
-0.5504 -12.1488 1.8878
0.5354 -12.1495 1.8878
1.6168 -12.0533 1.8878
2.6854 -11.8611 1.8878
3.7325 -11.5743 1.8878
3.5132 -8.2803 1.3963
5.7295 -10.7270 1.8878
6.6634 -10.1733 1.8878
7.5442 -9.5384 1.8878
8.3649 -8.8276 1.8878
9.0929 -8.0235 1.8824
9.5328 -7.0046 1.8363
10.1089 -6.1200 1.8344
2.0784 -1.0170 0.3592
2.1604 -0.8275 0.3591
2.2255 -0.6314 0.3591
2.2732 -0.4305 0.3591
2.3031 -0.2261 0.3592
2.3150 -0.0198 0.3594
2.3087 0.1869 0.3596
2.2844 0.3923 0.3598
2.2422 0.5950 0.3601
2.1822 0.7933 0.3604
2.1050 0.9858 0.3608
10.2380 5.9616 1.8390
9.6746 6.8573 1.8408
9.0337 7.7007 1.8426
8.3201 8.4852 1.8447
7.5391 9.2044 1.8469
6.6966 9.8524 1.8492
5.7988 10.4241 1.8516
4.8525 10.9145 1.8542
3.8652 11.3197 1.8567
2.8442 11.6358 1.8594
1.7977 11.8601 1.8621
0.7263 11.8670 1.8456
-0.3390 12.0253 1.8674
-1.4122 11.9640 1.8701
-2.4770 11.8067 1.8726
-3.5249 11.5542 1.8751
-4.5461 11.2056 1.8771
-5.5263 10.7533 1.8767
-6.4653 10.2206 1.8773
-7.3583 9.6127 1.8792
-8.1936 8.9261 1.8808
-8.9642 8.1663 1.8823
-9.6641 7.3397 1.8837
-10.2880 6.4534 1.8852
-2.1421 1.0906 0.3731
-2.2313 0.8954 0.3732
-2.3025 0.6929 0.3732
-2.3550 0.4848 0.3732
-2.3883 0.2727 0.3731
-2.4021 0.0586 0.3730
-2.3965 -0.1558 0.3728
-2.3715 -0.3686 0.3725
-2.3272 -0.5782 0.3722
-2.2642 -0.7827 0.3719
-2.1830 -0.9805 0.3715
-10.6051 -5.9522 1.8878
-10.0320 -6.8743 1.8878
-9.3789 -7.7417 1.8878
-8.6511 -8.5473 1.8878
-7.8543 -9.2848 1.8878
-6.9949 -9.9483 1.8878
-6.0797 -10.5325 1.8878
-5.1161 -11.0328 1.8878
-4.1117 -11.4451 1.8878
-3.0746 -11.7662 1.8878
-2.0129 -11.9936 1.8878
-0.9352 -12.1253 1.8878
0.1499 -12.1604 1.8878
1.2339 -12.0985 1.8878
2.3080 -11.9403 1.8878
3.3638 -11.6868 1.8878
3.3434 -8.6315 1.4369
3.9118 -7.9181 1.3709
6.3376 -10.3794 1.8878
7.2380 -9.7728 1.8878
8.0808 -9.0883 1.8878
8.8592 -8.3314 1.8878
9.3446 -7.3336 1.8439
9.9122 -6.4389 1.8348
2.0454 -1.0825 0.3592
2.1332 -0.8956 0.3591
2.2044 -0.7017 0.3591
2.2583 -0.5023 0.3591
2.2945 -0.2989 0.3592
2.3128 -0.0931 0.3593
2.3130 0.1136 0.3595
2.2951 0.3196 0.3597
2.2592 0.5234 0.3600
2.2055 0.7235 0.3603
2.1344 0.9183 0.3607
10.4187 5.6323 1.8385
9.8837 6.5449 1.8401
9.2698 7.4078 1.8420
8.5814 8.2138 1.8439
7.8238 8.9569 1.8461
7.0024 9.6308 1.8484
6.1234 10.2302 1.8508
5.1936 10.7500 1.8533
4.2199 11.1858 1.8558
3.2100 11.5339 1.8584
2.1716 11.7912 1.8611
1.1129 11.9551 1.8638
0.0423 12.0239 1.8665
-1.0317 11.9968 1.8691
-2.1005 11.8735 1.8717
-3.1553 11.6546 1.8743
-4.1877 11.3416 1.8767
-5.1833 10.9245 1.8770
-6.1358 10.4166 1.8766
-7.0475 9.8378 1.8785
-7.9041 9.1785 1.8803
-8.6985 8.4440 1.8818
-9.4239 7.6402 1.8832
-10.0756 6.7746 1.8847
-10.6470 5.8530 1.8860
-2.2017 0.9656 0.3732
-2.2793 0.7655 0.3732
-2.3385 0.5592 0.3732
-2.3786 0.3483 0.3732
-2.3994 0.1348 0.3730
-2.4007 -0.0797 0.3729
-2.3826 -0.2934 0.3726
-2.3451 -0.5043 0.3723
-2.2887 -0.7108 0.3720
-2.2139 -0.9111 0.3716
-10.7885 -5.6130 1.8878
-10.2448 -6.5529 1.8878
-9.6196 -7.4405 1.8878
-8.9177 -8.2688 1.8878
-8.1447 -9.0311 1.8878
-7.3067 -9.7216 1.8878
-6.4106 -10.3345 1.8878
-5.4633 -10.8651 1.8878
-4.4725 -11.3090 1.8878
-3.4460 -11.6628 1.8878
-2.3921 -11.9237 1.8878
-1.3191 -12.0895 1.8878
-0.2356 -12.1590 1.8878
0.8498 -12.1316 1.8878
1.9284 -12.0074 1.8878
2.9916 -11.7876 1.8878
3.1500 -8.9661 1.4752
3.6450 -8.0077 1.3657
6.0054 -10.5751 1.8878
6.9246 -9.9973 1.8878
7.7887 -9.3399 1.8878
8.5906 -8.6080 1.8878
9.1629 -7.6725 1.8551
9.6349 -6.0226 1.8355
1.9846 -1.0065 0.3595
2.0660 -0.8253 0.3594
2.1312 -0.6377 0.3594
2.1797 -0.4451 0.3594
2.2112 -0.2490 0.3595
2.2254 -0.0508 0.3596
2.2222 0.1480 0.3598
2.2015 0.3458 0.3600
2.1635 0.5412 0.3603
2.1085 0.7326 0.3606
2.0368 0.9187 0.3610
9.9221 5.5895 1.8397
9.3924 6.4579 1.8413
8.7875 7.2769 1.8431
8.1120 8.0401 1.8451
7.3710 8.7414 1.8471
6.5698 9.3752 1.8493
5.7146 9.9362 1.8517
4.8119 10.4199 1.8541
3.8686 10.8220 1.8566
2.8919 11.1390 1.8591
1.8895 11.3683 1.8617
0.8693 11.5074 1.8642
-0.1607 11.5550 1.8668
-1.1923 11.5102 1.8694
-2.2171 11.3732 1.8718
-3.2267 11.1445 1.8743
-4.2120 10.8230 1.8761
-5.1596 10.4023 1.8758
-6.0685 9.9035 1.8763
-6.9342 9.3316 1.8781
-7.7456 8.6836 1.8797
-8.4958 7.9644 1.8812
-9.1789 7.1801 1.8826
-9.7899 6.3375 1.8840
-2.0415 1.0764 0.3728
-2.1299 0.8902 0.3729
-2.2011 0.6968 0.3730
-2.2543 0.4977 0.3729
-2.2893 0.2946 0.3729
-2.3057 0.0892 0.3727
-2.3033 -0.1167 0.3726
-2.2823 -0.3215 0.3723
-2.2428 -0.5234 0.3720
-2.1852 -0.7207 0.3717
-2.1101 -0.9117 0.3713
-10.2712 -5.5735 1.8878
-9.7332 -6.4673 1.8878
-9.1175 -7.3096 1.8878
-8.4293 -8.0937 1.8878
-7.6738 -8.8132 1.8878
-6.8570 -9.4625 1.8878
-5.9860 -10.0364 1.8878
-5.0670 -10.5303 1.8878
-4.1076 -10.9402 1.8878
-3.1155 -11.2630 1.8878
-2.0986 -11.4959 1.8878
-1.0649 -11.6373 1.8878
-0.0227 -11.6859 1.8878
1.0196 -11.6414 1.8878
2.0538 -11.5040 1.8878
3.0717 -11.2750 1.8878
3.2412 -8.7358 1.5052
3.7310 -7.8317 1.4014
5.9469 -10.0596 1.8878
6.8203 -9.4891 1.8878
7.6395 -8.8430 1.8878
8.3977 -8.1264 1.8878
8.8798 -7.1760 1.8443
9.4414 -6.3266 1.8360
1.9519 -1.0690 0.3595
2.0389 -0.8904 0.3594
2.1099 -0.7049 0.3594
2.1644 -0.5140 0.3594
2.2020 -0.3189 0.3594
2.2224 -0.1213 0.3595
2.2253 0.0774 0.3597
2.2108 0.2758 0.3599
2.1790 0.4722 0.3602
2.1300 0.6652 0.3605
2.0642 0.8533 0.3608
1.9820 1.0352 0.3612
9.5892 6.1549 1.8407
9.0106 6.9922 1.8424
8.3596 7.7759 1.8443
7.6412 8.4999 1.8464
6.8607 9.1583 1.8486
6.0240 9.7457 1.8508
5.1374 10.2573 1.8532
4.2077 10.6888 1.8557
3.2420 11.0364 1.8582
2.2478 11.2971 1.8607
1.2330 11.4684 1.8633
0.2055 11.5486 1.8659
-0.8264 11.5367 1.8685
-1.8546 11.4324 1.8710
-2.8705 11.2361 1.8734
-3.8661 10.9491 1.8758
-4.8278 10.5620 1.8760
-5.7494 10.0873 1.8756
-6.6327 9.5436 1.8775
-7.4641 8.9221 1.8792
-8.2369 8.2275 1.8807
-8.9443 7.4655 1.8821
-9.5817 6.6430 1.8835
-10.1429 5.7659 1.8848
-2.1005 0.9572 0.3729
-2.1778 0.7662 0.3730
-2.2375 0.5689 0.3730
-2.2790 0.3670 0.3729
-2.3020 0.1623 0.3728
-2.3063 -0.0437 0.3726
-2.2919 -0.2490 0.3724
-2.2589 -0.4521 0.3721
-2.2077 -0.6512 0.3718
-2.1387 -0.8447 0.3715
-2.0526 -1.0310 0.3711
-9.9333 -6.1555 1.8878
-9.3447 -7.0169 1.8878
-8.6816 -7.8224 1.8878
-7.9494 -8.5655 1.8878
-7.1540 -9.2404 1.8878
-6.3011 -9.8416 1.8878
-5.3982 -10.3644 1.8878
-4.4523 -10.8045 1.8878
-3.4710 -11.1585 1.8878
-2.4619 -11.4236 1.8878
-1.4333 -11.5977 1.8878
-0.3932 -11.6793 1.8878
0.6501 -11.6678 1.8878
1.6881 -11.5633 1.8878
2.7127 -11.3667 1.8878
3.7157 -11.0795 1.8878
3.5520 -8.1083 1.4301
5.6250 -10.2431 1.8878
6.5160 -9.7005 1.8878
7.3553 -9.0807 1.8878
8.1359 -8.3885 1.8878
8.6903 -7.4904 1.8534
9.2385 -6.6244 1.8364
9.7858 -5.7701 1.8352
2.0098 -0.9547 0.3594
2.0866 -0.7715 0.3594
2.1470 -0.5823 0.3594
2.1906 -0.3885 0.3594
2.2171 -0.1917 0.3595
2.2263 0.0069 0.3596
2.2180 0.2055 0.3598
2.1923 0.4028 0.3601
2.1493 0.5972 0.3604
2.0894 0.7872 0.3607
2.0130 0.9714 0.3611
9.7765 5.8460 1.8401
9.2245 6.7007 1.8418
8.5987 7.5042 1.8437
7.9037 8.2501 1.8456
7.1446 8.9324 1.8478
6.3271 9.5456 1.8500
5.4575 10.0846 1.8524
4.5422 10.5450 1.8548
3.5885 10.9228 1.8573
2.6036 11.2147 1.8598
1.5952 11.4179 1.8624
0.5713 11.5307 1.8650
-0.4601 11.5515 1.8676
-1.4905 11.4800 1.8701
-2.5118 11.3162 1.8726
-3.5155 11.0612 1.8749
-4.4908 10.7103 1.8761
-5.4263 10.2635 1.8755
-6.3247 9.7458 1.8768
-7.1753 9.1514 1.8786
-7.9697 8.4821 1.8802
-8.7010 7.7434 1.8816
-9.3638 6.9416 1.8830
-9.9527 6.0831 1.8843
-2.0689 1.0232 0.3729
-2.1523 0.8348 0.3729
-2.2184 0.6396 0.3730
-2.2664 0.4391 0.3729
-2.2960 0.2352 0.3728
-2.3069 0.0295 0.3727
-2.2991 -0.1763 0.3725
-2.2727 -0.3804 0.3722
-2.2279 -0.5811 0.3719
-2.1652 -0.7768 0.3716
-2.0851 -0.9658 0.3712
-10.1234 -5.8376 1.8878
-9.5624 -6.7172 1.8878
-8.9252 -7.5433 1.8878
-8.2169 -8.3092 1.8878
-7.4430 -9.0090 1.8878
-6.6099 -9.6369 1.8878
-5.7241 -10.1880 1.8878
-4.7926 -10.6579 1.8878
-3.8230 -11.0429 1.8878
-2.8228 -11.3399 1.8878
-1.8002 -11.5464 1.8878
-0.7632 -11.6610 1.8878
0.2799 -11.6826 1.8878
1.3207 -11.6110 1.8878
2.3510 -11.4470 1.8878
3.3626 -11.1917 1.8878
3.4058 -8.4979 1.4789
4.0575 -7.9782 1.4459
6.2053 -9.9022 1.8878
7.0638 -9.3093 1.8878
7.8659 -8.6422 1.8878
8.5846 -7.8872 1.8832
9.0340 -6.9217 1.8385
9.6002 -6.0788 1.8356
1.9787 -1.0180 0.3595
2.0612 -0.8373 0.3594
2.1275 -0.6501 0.3594
2.1771 -0.4578 0.3594
2.2097 -0.2618 0.3595
2.2250 -0.0637 0.3596
2.2229 0.1351 0.3598
2.2034 0.3330 0.3600
2.1665 0.5286 0.3603
2.1126 0.7203 0.3606
2.0420 0.9068 0.3609
9.9539 5.5315 1.8396
9.4291 6.4028 1.8412
8.8290 7.2252 1.8430
8.1580 7.9923 1.8449
7.4210 8.6978 1.8470
6.6236 9.3361 1.8492
5.7718 9.9020 1.8515
4.8719 10.3908 1.8539
3.9310 10.7984 1.8564
2.9563 11.1211 1.8589
1.9554 11.3561 1.8615
0.9360 11.5011 1.8641
-0.0936 11.5547 1.8666
-1.1253 11.5159 1.8692
-2.1508 11.3849 1.8717
-3.1617 11.1621 1.8741
-4.1491 10.8473 1.8761
-5.0992 10.4324 1.8758
-6.0105 9.9379 1.8762
-6.8794 9.3712 1.8780
-7.6946 8.7280 1.8796
-8.4490 8.0133 1.8811
-9.1365 7.2329 1.8825
-9.7525 6.3940 1.8839
-2.0352 1.0882 0.3728
-2.1247 0.9026 0.3729
-2.1970 0.7096 0.3730
-2.2514 0.5108 0.3729
-2.2876 0.3079 0.3729
-2.3052 0.1026 0.3728
-2.3040 -0.1034 0.3726
-2.2842 -0.3082 0.3723
-2.2459 -0.5103 0.3721
-2.1895 -0.7080 0.3717
-2.1155 -0.8995 0.3714
-2.0245 -1.0834 0.3709
-9.7706 -6.4107 1.8878
-9.1599 -7.2565 1.8878
-8.4762 -8.0446 1.8878
-7.7249 -8.7685 1.8878
-6.9121 -9.4225 1.8878
-6.0442 -10.0014 1.8878
-5.1281 -10.5006 1.8878
-4.1711 -10.9162 1.8878
-3.1809 -11.2447 1.8878
-2.1653 -11.4835 1.8878
-1.1325 -11.6309 1.8878
-0.0906 -11.6856 1.8878
0.9520 -11.6471 1.8878
1.9869 -11.5158 1.8878
3.0061 -11.2927 1.8878
3.2108 -8.8106 1.5149
3.6804 -7.8426 1.3996
5.8883 -10.0940 1.8878
6.7651 -9.5286 1.8878
7.5880 -8.8872 1.8878
8.3504 -8.1751 1.8878
8.8433 -7.2318 1.8454
9.4049 -6.3816 1.8360
1.9457 -1.0804 0.3595
2.0337 -0.9023 0.3594
2.1058 -0.7172 0.3594
2.1614 -0.5265 0.3594
2.2001 -0.3317 0.3594
2.2216 -0.1342 0.3595
2.2256 0.0645 0.3597
2.2123 0.2629 0.3599
2.1816 0.4595 0.3602
2.1337 0.6528 0.3605
2.0690 0.8413 0.3608
1.9878 1.0236 0.3612
9.6243 6.0987 1.8406
9.0505 6.9391 1.8423
8.4041 7.7267 1.8442
7.6899 8.4547 1.8462
6.9133 9.1175 1.8484
6.0800 9.7097 1.8507
5.1965 10.2264 1.8531
4.2693 10.6632 1.8555
3.3058 11.0164 1.8580
2.3132 11.2828 1.8606
1.2995 11.4600 1.8632
0.2726 11.5462 1.8657
-0.7593 11.5403 1.8683
-1.7879 11.4419 1.8708
-2.8050 11.2516 1.8733
-3.8021 10.9705 1.8756
-4.7664 10.5900 1.8760
-5.6904 10.1198 1.8755
-6.5767 9.5814 1.8774
-7.4118 8.9648 1.8791
-8.1885 8.2748 1.8806
-8.9004 7.5170 1.8820
-9.5425 6.6983 1.8834
-10.1088 5.8245 1.8847
-2.0948 0.9694 0.3729
-2.1733 0.7788 0.3729
-2.2342 0.5819 0.3730
-2.2769 0.3803 0.3729
-2.3011 0.1756 0.3728
-2.3066 -0.0303 0.3726
-2.2934 -0.2357 0.3724
-2.2616 -0.4390 0.3722
-2.2116 -0.6384 0.3718
-2.1437 -0.8323 0.3715
-2.0587 -1.0191 0.3711
-9.9689 -6.0977 1.8878
-9.3853 -6.9625 1.8878
-8.7269 -7.7718 1.8878
-7.9990 -8.5192 1.8878
-7.2075 -9.1987 1.8878
-6.3582 -9.8048 1.8878
-5.4584 -10.3328 1.8878
-4.5151 -10.7785 1.8878
-3.5357 -11.1382 1.8878
-2.5283 -11.4091 1.8878
-1.5006 -11.5892 1.8878
-0.4610 -11.6768 1.8878
0.5823 -11.6714 1.8878
1.6209 -11.5729 1.8878
2.6466 -11.3823 1.8878
3.6512 -11.1009 1.8878
3.5423 -8.2157 1.4453
5.5654 -10.2756 1.8878
6.4596 -9.7382 1.8878
7.3025 -9.1233 1.8878
8.0870 -8.4357 1.8878
8.6649 -7.5567 1.8573
9.2003 -6.6782 1.8365
9.7525 -5.8271 1.8353
2.0043 -0.9664 0.3594
2.0821 -0.7836 0.3594
2.1436 -0.5948 0.3594
2.1883 -0.4012 0.3594
2.2159 -0.2045 0.3595
2.2262 -0.0061 0.3596
2.2190 0.1926 0.3598
2.1945 0.3900 0.3601
2.1526 0.5846 0.3603
2.0938 0.7750 0.3607
2.0185 0.9596 0.3610
9.8097 5.7888 1.8400
9.2627 6.6466 1.8417
8.6416 7.4536 1.8435
7.9509 8.2034 1.8455
7.1958 8.8900 1.8476
6.3819 9.5079 1.8499
5.5155 10.0519 1.8522
4.6030 10.5175 1.8546
3.6516 10.9008 1.8571
2.6684 11.1983 1.8597
1.6613 11.4075 1.8622
0.6382 11.5261 1.8648
-0.3929 11.5530 1.8674
-1.4237 11.4874 1.8699
-2.4457 11.3297 1.8724
-3.4509 11.0806 1.8748
-4.4285 10.7363 1.8761
-5.3668 10.2953 1.8756
-6.2675 9.7818 1.8767
-7.1216 9.1924 1.8785
-7.9199 8.5278 1.8801
-8.6555 7.7935 1.8815
-9.3228 6.9955 1.8829
-9.9168 6.1406 1.8842
-2.0629 1.0352 0.3728
-2.1474 0.8473 0.3729
-2.2146 0.6525 0.3730
-2.2638 0.4523 0.3729
-2.2946 0.2485 0.3728
-2.3068 0.0429 0.3727
-2.3002 -0.1629 0.3725
-2.2750 -0.3672 0.3723
-2.2314 -0.5682 0.3720
-2.1698 -0.7642 0.3716
-2.0908 -0.9537 0.3712
-10.1572 -5.7786 1.8878
-9.6013 -6.6615 1.8878
-8.9689 -7.4913 1.8878
-8.2650 -8.2614 1.8878
-7.4953 -8.9656 1.8878
-6.6658 -9.5983 1.8878
-5.7831 -10.1546 1.8878
-4.8545 -10.6299 1.8878
-3.8871 -11.0205 1.8878
-2.8887 -11.3233 1.8878
-1.8672 -11.5358 1.8878
-0.8309 -11.6563 1.8878
0.2120 -11.6840 1.8878
1.2532 -11.6185 1.8878
2.2845 -11.4605 1.8878
3.2975 -11.2110 1.8878
3.3743 -8.5630 1.4868
3.9875 -7.9546 1.4374
6.1477 -9.9381 1.8878
7.0096 -9.3502 1.8878
7.8155 -8.6878 1.8878
8.5513 -7.9488 1.8860
9.0010 -6.9798 1.8400
9.5651 -6.1347 1.8357
1.9728 -1.0295 0.3595
2.0563 -0.8493 0.3594
2.1236 -0.6624 0.3594
2.1744 -0.4704 0.3594
2.2081 -0.2746 0.3594
2.2245 -0.0766 0.3596
2.2236 0.1221 0.3597
2.2052 0.3202 0.3600
2.1695 0.5159 0.3602
2.1166 0.7080 0.3606
2.0471 0.8948 0.3609
1.9613 1.0750 0.3613
9.4656 6.3475 1.8411
8.8703 7.1733 1.8429
8.2037 7.9442 1.8448
7.4709 8.6539 1.8469
6.6772 9.2967 1.8491
5.8287 9.8675 1.8514
4.9318 10.3615 1.8538
3.9934 10.7744 1.8562
3.0206 11.1027 1.8588
2.0211 11.3435 1.8613
1.0028 11.4944 1.8639
-0.0264 11.5540 1.8665
-1.0583 11.5213 1.8690
-2.0844 11.3962 1.8715
-3.0965 11.1794 1.8740
-4.0860 10.8712 1.8761
-5.0386 10.4621 1.8759
-5.9522 9.9720 1.8761
-6.8244 9.4105 1.8779
-7.6433 8.7720 1.8795
-8.4019 8.0618 1.8810
-9.0938 7.2855 1.8824
-9.7147 6.4503 1.8838
-10.2580 5.5618 1.8850
-2.1194 0.9149 0.3729
-2.1928 0.7223 0.3730
-2.2484 0.5239 0.3729
-2.2858 0.3212 0.3729
-2.3046 0.1160 0.3728
-2.3047 -0.0900 0.3726
-2.2861 -0.2950 0.3724
-2.2489 -0.4973 0.3721
-2.1937 -0.6953 0.3718
-2.1208 -0.8873 0.3714
-2.0309 -1.0717 0.3710
-9.8076 -6.3538 1.8878
-9.2019 -7.2032 1.8878
-8.5228 -7.9952 1.8878
-7.7757 -8.7235 1.8878
-6.9667 -9.3822 1.8878
-6.1022 -9.9662 1.8878
-5.1889 -10.4707 1.8878
-4.2345 -10.8917 1.8878
-3.2462 -11.2260 1.8878
-2.2320 -11.4708 1.8878
-1.2000 -11.6241 1.8878
-0.1585 -11.6848 1.8878
0.8843 -11.6524 1.8878
1.9200 -11.5271 1.8878
2.9404 -11.3099 1.8878
3.1801 -8.8863 1.5247
3.6521 -7.9012 1.4062
5.8296 -10.1280 1.8878
6.7096 -9.5677 1.8878
7.5362 -8.9312 1.8878
8.3027 -8.2235 1.8878
8.8062 -7.2872 1.8465
9.3681 -6.4364 1.8361
1.9394 -1.0917 0.3595
2.0285 -0.9141 0.3594
2.1016 -0.7294 0.3594
2.1583 -0.5391 0.3594
2.1981 -0.3445 0.3594
2.2207 -0.1471 0.3595
2.2259 0.0516 0.3597
2.2137 0.2500 0.3599
2.1841 0.4468 0.3601
2.1373 0.6403 0.3604
2.0737 0.8292 0.3608
1.9936 1.0119 0.3612
9.6590 6.0423 1.8405
9.0900 6.8861 1.8422
8.4482 7.6772 1.8441
7.7383 8.4093 1.8461
6.9656 9.0765 1.8483
6.1358 9.6734 1.8505
5.2554 10.1952 1.8529
4.3308 10.6373 1.8553
3.3694 10.9960 1.8579
2.3785 11.2682 1.8604
1.3659 11.4512 1.8630
0.3397 11.5434 1.8656
-0.6922 11.5435 1.8681
-1.7213 11.4512 1.8706
-2.7393 11.2668 1.8731
-3.7380 10.9915 1.8755
-4.7049 10.6176 1.8761
-5.6311 10.1521 1.8754
-6.5205 9.6189 1.8772
-7.3591 9.0072 1.8790
-8.1399 8.3218 1.8805
-8.8562 7.5683 1.8819
-9.5030 6.7533 1.8833
-10.0744 5.8829 1.8846
-2.0891 0.9815 0.3729
-2.1687 0.7915 0.3729
-2.2308 0.5949 0.3730
-2.2746 0.3935 0.3729
-2.3001 0.1890 0.3728
-2.3068 -0.0169 0.3727
-2.2948 -0.2224 0.3724
-2.2642 -0.4259 0.3722
-2.2154 -0.6256 0.3719
-2.1487 -0.8199 0.3715
-2.0647 -1.0072 0.3711
-10.0041 -6.0397 1.8878
-9.4256 -6.9079 1.8878
-8.7720 -7.7210 1.8878
-8.0484 -8.4726 1.8878
-7.2605 -9.1566 1.8878
-6.4150 -9.7677 1.8878
-5.5183 -10.3009 1.8878
-4.5776 -10.7521 1.8878
-3.6004 -11.1174 1.8878
-2.5945 -11.3943 1.8878
-1.5679 -11.5802 1.8878
-0.5288 -11.6739 1.8878
0.5144 -11.6746 1.8878
1.5536 -11.5822 1.8878
2.5804 -11.3974 1.8878
3.5866 -11.1219 1.8878
3.5122 -8.2779 1.4526
5.5056 -10.3077 1.8878
6.4030 -9.7756 1.8878
7.2493 -9.1656 1.8878
8.0379 -8.4825 1.8878
8.6524 -7.6347 1.8641
9.1617 -6.7319 1.8366
9.7189 -5.8839 1.8353
1.9987 -0.9780 0.3595
2.0775 -0.7957 0.3594
2.1401 -0.6072 0.3594
2.1859 -0.4139 0.3594
2.2146 -0.2174 0.3595
2.2261 -0.0190 0.3596
2.2200 0.1797 0.3598
2.1966 0.3772 0.3600
2.1559 0.5721 0.3603
2.0982 0.7628 0.3607
2.0239 0.9478 0.3610
9.8427 5.7313 1.8399
9.3006 6.5923 1.8416
8.6841 7.4028 1.8434
7.9978 8.1565 1.8454
7.2467 8.8474 1.8475
6.4365 9.4699 1.8497
5.5734 10.0188 1.8520
4.6637 10.4897 1.8545
3.7145 10.8784 1.8570
2.7332 11.1817 1.8595
1.7274 11.3966 1.8621
0.7050 11.5212 1.8647
-0.3257 11.5540 1.8672
-1.3567 11.4945 1.8698
-2.3797 11.3427 1.8722
-3.3862 11.0995 1.8746
-4.3661 10.7618 1.8761
-5.3071 10.3267 1.8756
-6.2102 9.8174 1.8766
-7.0677 9.2331 1.8784
-7.8697 8.5733 1.8800
-8.6096 7.8433 1.8814
-9.2816 7.0492 1.8828
-9.8805 6.1978 1.8842
-2.0568 1.0472 0.3728
-2.1425 0.8598 0.3729
-2.2108 0.6653 0.3730
-2.2612 0.4654 0.3729
-2.2932 0.2619 0.3729
-2.3065 0.0563 0.3727
-2.3012 -0.1496 0.3725
-2.2772 -0.3540 0.3723
-2.2348 -0.5552 0.3720
-2.1744 -0.7517 0.3716
-2.0965 -0.9416 0.3713
-10.1906 -5.7195 1.8878
-9.6398 -6.6056 1.8878
-9.0123 -7.4391 1.8878
-8.3129 -8.2132 1.8878
-7.5473 -8.9219 1.8878
-6.7216 -9.5594 1.8878
-5.8421 -10.1208 1.8878
-4.9161 -10.6015 1.8878
-3.9510 -10.9977 1.8878
-2.9544 -11.3063 1.8878
-1.9343 -11.5247 1.8878
-0.8987 -11.6513 1.8878
0.1441 -11.6850 1.8878
1.1857 -11.6256 1.8878
2.2178 -11.4735 1.8878
3.2323 -11.2300 1.8878
3.3424 -8.6289 1.4949
3.9120 -7.9184 1.4268
6.0899 -9.9737 1.8878
6.9551 -9.3908 1.8878
7.7649 -8.7330 1.8878
8.5129 -8.0057 1.8878
8.9669 -7.0371 1.8414
9.5297 -6.1905 1.8358
1.9669 -1.0410 0.3595
2.0514 -0.8612 0.3594
2.1198 -0.6747 0.3594
2.1716 -0.4830 0.3594
2.2064 -0.2875 0.3594
2.2240 -0.0896 0.3596
2.2242 0.1092 0.3597
2.2069 0.3073 0.3599
2.1723 0.5033 0.3602
2.1206 0.6956 0.3605
2.0521 0.8829 0.3609
1.9674 1.0636 0.3613
9.5018 6.2920 1.8410
8.9113 7.1212 1.8427
8.2492 7.8958 1.8447
7.5205 8.6097 1.8467
6.7306 9.2571 1.8489
5.8854 9.8327 1.8512
4.9915 10.3317 1.8536
4.0555 10.7500 1.8561
3.0848 11.0840 1.8586
2.0868 11.3305 1.8612
1.0694 11.4874 1.8637
0.0407 11.5529 1.8663
-0.9912 11.5262 1.8689
-2.0180 11.4071 1.8714
-3.0313 11.1962 1.8738
-4.0227 10.8947 1.8761
-4.9779 10.4914 1.8759
-5.8938 10.0058 1.8759
-6.7693 9.4494 1.8778
-7.5918 8.8158 1.8794
-8.3545 8.1101 1.8809
-9.0509 7.3379 1.8823
-9.6767 6.5063 1.8837
-10.2252 5.6211 1.8849
-2.1140 0.9272 0.3729
-2.1886 0.7351 0.3730
-2.2454 0.5369 0.3729
-2.2839 0.3345 0.3729
-2.3039 0.1294 0.3728
-2.3052 -0.0766 0.3726
-2.2878 -0.2817 0.3724
-2.2519 -0.4843 0.3721
-2.1978 -0.6826 0.3718
-2.1261 -0.8750 0.3714
-2.0373 -1.0600 0.3710
-9.8444 -6.2967 1.8878
-9.2436 -7.1496 1.8878
-8.5691 -7.9456 1.8878
-7.8263 -8.6781 1.8878
-7.0211 -9.3416 1.8878
-6.1600 -9.9305 1.8878
-5.2497 -10.4404 1.8878
-4.2976 -10.8670 1.8878
-3.3113 -11.2070 1.8878
-2.2986 -11.4576 1.8878
-1.2676 -11.6170 1.8878
-0.2264 -11.6837 1.8878
0.8166 -11.6573 1.8878
1.8530 -11.5381 1.8878
2.8747 -11.3268 1.8878
