ply
format ascii 1.0
element vertex 2040
property float32 x
property float32 y
property float32 z
end_header
10.3443 -0.0722 -0.0000
12.1058 1.0002 -0.0000
12.1035 2.1007 -0.0000
10.3385 2.7643 -0.0000
12.0987 4.4258 -0.0000
10.3037 4.8520 -0.0000
12.0414 7.0475 -0.0000
11.9232 8.4928 -0.0000
11.9196 10.2111 -0.0000
11.9155 12.2139 -0.0000
12.0337 14.7715 0.0000
24.9065 36.8626 0.0000
17.3640 39.3721 0.0000
-20.7886 26.9173 0.0000
-20.7793 22.4377 0.0000
-20.7717 18.7518 0.0000
-20.7653 15.6199 0.0000
-20.7596 12.8855 0.0000
-25.5374 12.8465 0.0000
-32.4413 12.8323 0.0000
-20.7457 6.1287 0.0000
-20.7417 4.1579 0.0000
-20.7378 2.2572 0.0000
-20.7339 0.3941 0.0000
-20.7301 -1.4621 0.0000
-20.7262 -3.3411 0.0000
-20.7222 -5.2746 0.0000
-20.7180 -7.2975 0.0000
-20.7136 -9.4516 0.0000
-32.8198 -27.4384 0.0000
-27.4102 -27.4291 0.0000
-23.4682 -28.1105 -0.0000
-22.8589 -32.9707 -0.0000
-23.4046 -41.1818 -0.0000
15.7202 -31.1959 -0.0000
15.7080 -25.2679 -0.0000
16.5280 -21.9407 -0.0000
19.8285 -21.9340 -0.0000
23.7086 -21.9260 -0.0000
16.2517 -12.5335 -0.0000
16.2472 -10.3572 -0.0000
16.2432 -8.4174 -0.0000
11.4944 -4.7072 -0.0000
12.1268 -3.7417 -0.0000
9.2962 -1.9800 -0.0000
12.1108 -1.4657 -0.0000
12.0013 -0.3725 -0.0000
10.3429 0.6047 -0.0000
12.1041 1.8022 -0.0000
12.1018 2.9260 -0.0000
12.0994 4.0990 -0.0000
11.9298 5.2712 -0.0000
11.9271 6.6008 -0.0000
11.9240 8.0685 -0.0000
11.9206 9.7249 -0.0000
11.9185 11.6434 0.0000
12.0373 14.0710 0.0000
25.9081 36.4258 0.0000
22.3572 38.2604 0.0000
18.2976 38.9264 0.0000
-17.8179 29.4456 0.0000
-20.7914 28.3023 0.0000
-20.7816 23.5514 0.0000
-20.7737 19.6803 0.0000
-20.7669 16.4176 0.0000
-20.7611 13.5884 0.0000
-17.7042 9.4461 0.0000
-30.3017 12.8367 0.0000
-20.7428 4.6794 0.0000
-20.7388 2.7633 0.0000
-20.7349 0.8931 0.0000
-20.7311 -0.9620 0.0000
-20.7273 -2.8319 0.0000
-20.7233 -4.7474 0.0000
-20.7192 -6.7426 0.0000
-20.7148 -8.8567 0.0000
-34.4494 -18.5279 0.0000
-34.4736 -27.4402 -0.0000
-28.7652 -27.4333 0.0000
-24.0520 -27.4409 -0.0000
-22.8623 -31.3389 0.0000
-23.2459 -38.7056 -0.0000
19.0805 -40.2438 -0.0000
15.7109 -26.6824 -0.0000
15.7168 -21.9424 -0.0000
18.8921 -21.9359 -0.0000
22.5962 -21.9282 -0.0000
16.2530 -13.1696 -0.0000
16.3186 -10.9633 -0.0000
16.2442 -8.9196 -0.0000
10.3535 -4.5337 -0.0000
10.3513 -3.4685 -0.0000
9.2644 -2.2074 -0.0000
12.1115 -1.7622 -0.0000
12.1092 -0.6675 -0.0000
12.1070 0.4160 -0.0000
12.1047 1.5059 -0.0000
12.1024 2.6198 -0.0000
10.3375 3.2272 -0.0000
11.9841 4.9543 -0.0000
10.3381 5.4010 -0.0000
11.9258 7.6583 0.0000
11.9216 9.2574 -0.0000
12.0328 11.2025 -0.0000
11.9133 13.2668 0.0000
15.4692 20.6779 0.0000
23.3727 37.8775 0.0000
19.1205 38.2595 0.0000
-19.7223 42.9229 0.0000
-24.6711 35.3332 0.0000
-20.7841 24.7280 0.0000
-20.7757 20.6523 0.0000
-20.7686 17.2463 0.0000
-20.7626 14.3141 0.0000
-22.7536 12.8523 0.0000
-28.3905 12.8407 0.0000
-20.7438 5.2068 0.0000
-20.7399 3.2727 0.0000
-20.7360 1.3933 0.0000
-20.7321 -0.4630 0.0000
-20.7283 -2.3259 0.0000
-20.7244 -4.2261 0.0000
-20.7203 -6.1962 0.0000
-20.7160 -8.2741 0.0000
-24.3632 -18.4535 -0.0000
-30.1909 -27.4376 0.0000
-25.2270 -27.4225 -0.0000
-23.4238 -30.5387 -0.0000
-23.4155 -36.9458 -0.0000
19.1285 -42.9852 -0.0000
15.7141 -28.2183 -0.0000
15.6469 -22.9929 -0.0001
17.9934 -21.9377 -0.0000
24.3594 -21.9246 0.2019
16.2510 -12.1863 0.1251
16.2466 -10.0507 0.1177
16.2426 -8.1405 0.1119
11.8764 -4.6773 0.0786
12.1241 -3.5621 0.0778
12.1128 -2.4093 0.0761
10.3465 -1.1106 0.0641
12.1083 -0.2121 0.0746
12.1060 0.8720 0.0748
12.1038 1.9697 0.0755
12.1014 3.0995 0.0770
12.0990 4.2820 0.0791
10.3344 4.7342 0.0700
11.9674 6.8360 0.0849
11.9236 8.3053 0.0895
11.9201 9.9958 0.0958
11.9160 11.9599 0.1040
12.0353 14.4598 0.1159
25.3355 36.6595 0.2745
23.4711 41.4425 0.2934
9.2153 20.3132 0.1374
-21.3994 28.3197 0.2187
-21.4501 23.6568 0.1967
-21.4421 19.7707 0.1797
-21.4378 16.4821 0.1666
-20.7603 13.1907 0.1515
-24.8838 12.8479 0.1725
-31.4733 12.8343 0.2094
-20.7462 6.3672 0.1337
-21.2695 4.4971 0.1339
-20.7382 2.4785 0.1287
-21.2615 0.6281 0.1310
-21.2576 -1.2745 0.1312
-21.2537 -3.1969 0.1324
-21.2496 -5.1712 0.1347
-21.2453 -7.2327 0.1382
-20.7141 -9.1895 0.1396
-33.5322 -27.4392 0.2669
-27.9955 -27.4309 0.2414
-23.6152 -27.6886 0.2242
-23.1888 -32.7056 0.2470
-17.6837 -30.3665 0.2165
19.7502 -40.2424 0.2761
15.7092 -25.8736 0.1865
16.1692 -21.9415 0.1679
19.4134 -21.9348 0.1804
23.2145 -21.9270 0.1967
16.2522 -12.8091 0.1275
16.2417 -10.5960 0.1195
16.2437 -8.6357 0.1133
10.3532 -4.3677 0.0692
12.1248 -3.8813 0.0784
9.2346 -2.0688 0.0583
12.1111 -1.5953 0.0752
10.3146 -0.4289 0.0636
12.1066 0.5799 0.0747
10.3413 1.4286 0.0643
12.1021 2.7915 0.0765
10.3372 3.3811 0.0670
10.3653 4.4501 0.0695
10.3112 5.5655 0.0722
10.2997 6.8124 0.0761
11.9210 9.5180 0.0940
12.0322 11.5093 0.1026
12.0388 13.7764 0.1127
27.5112 37.8299 0.2881
22.6959 37.9178 0.2722
18.4729 38.2479 0.2617
-20.7927 28.9378 0.2195
-21.4526 24.8340 0.2022
-21.4441 20.7483 0.1838
-20.7677 16.7765 0.1645
-22.3626 14.9754 0.1658
-23.4864 12.8508 0.1649
-29.4388 12.8385 0.1978
-21.2706 5.0345 0.1347
-21.2666 3.0619 0.1324
-21.2626 1.1403 0.1312
-21.2587 -0.7622 0.1310
-21.2547 -2.6763 0.1320
-21.2507 -4.6333 0.1340
-21.2465 -6.6676 0.1372
-21.2421 -8.8188 0.1417
-24.0860 -18.7610 0.1881
-29.3806 -27.4351 0.2476
-24.5494 -27.4204 0.2267
-23.1138 -30.9929 0.2382
-22.8543 -37.1613 0.2687
19.0603 -41.3197 0.2803
15.7122 -27.3393 0.1942
15.7021 -22.4168 0.1686
18.4940 -21.9367 0.1767
22.1262 -21.9292 0.1919
26.4776 -21.9203 0.2117
16.3192 -11.2148 0.1220
16.2447 -9.1439 0.1148
10.3233 -4.6506 0.0697
12.1165 -4.2024 0.0790
12.1230 -3.0237 0.0770
10.3475 -1.6170 0.0645
12.1095 -0.7955 0.0748
10.3437 0.2464 0.0637
12.1050 1.3766 0.0750
12.1027 2.4868 0.0761
12.1003 3.6382 0.0778
10.3356 4.1460 0.0686
10.3384 5.2633 0.0714
12.0403 7.5540 0.0876
11.9220 9.0581 0.0922
12.0333 10.9687 0.1003
11.9139 12.9896 0.1086
12.0288 15.7311 0.1220
23.7159 37.5433 0.2735
9.1822 17.8995 0.1239
16.7004 41.2644 0.2742
-17.6399 39.4815 0.2664
-21.4551 26.0790 0.2080
-21.4463 21.7727 0.1883
-21.4389 18.1876 0.1732
-22.3642 15.7683 0.1686
-22.2062 12.8534 0.1581
-27.6158 12.8423 0.1876
-21.2718 5.5780 0.1355
-21.2676 3.5859 0.1329
-21.2637 1.6538 0.1314
-21.2597 -0.2508 0.1310
-21.2558 -2.1587 0.1316
-21.2518 -4.1010 0.1333
-21.2477 -6.1109 0.1362
-21.2433 -8.2263 0.1403
-37.0356 -27.4430 0.2840
-30.8394 -27.4396 0.2543
-25.7670 -27.4241 0.2318
-23.4249 -29.8830 0.2339
-23.4177 -36.1025 0.2651
9.5057 -21.9813 0.1475
15.7155 -28.9335 0.2028
15.6852 -23.5792 0.1744
17.6109 -21.9385 0.1733
21.0892 -21.9313 0.1874
25.2209 -21.9228 0.2058
16.2469 -11.7500 0.1235
16.2458 -9.6660 0.1164
16.2419 -7.7919 0.1110
12.1172 -4.5318 0.0797
12.1237 -3.3354 0.0775
12.1123 -2.1923 0.0758
12.1101 -1.0885 0.0749
12.1078 -0.0027 0.0746
12.1056 1.0826 0.0749
12.1033 2.1850 0.0758
12.1010 3.3233 0.0773
10.3362 3.8604 0.0680
10.3035 4.9373 0.0704
12.0412 7.1570 0.0863
11.9229 8.6147 0.0906
11.9193 10.3513 0.0972
11.9152 12.3798 0.1058
12.0326 14.9757 0.1183
24.4694 36.7487 0.2720
22.8322 41.9909 0.2944
17.1159 39.5306 0.2654
-21.4579 27.3992 0.2144
-21.4485 22.8485 0.1931
-21.4407 19.0944 0.1769
-22.2202 16.4805 0.1704
-21.0276 12.8558 0.1518
-25.9712 12.8457 0.1785
-33.0899 12.8310 0.2186
-20.7454 5.9766 0.1330
-21.2687 4.1142 0.1335
-20.7375 2.1155 0.1284
-21.2608 0.2604 0.1310
-21.2569 -1.6437 0.1313
-21.2529 -3.5735 0.1328
-21.2488 -5.5618 0.1353
-21.2445 -7.6447 0.1391
-20.7133 -9.6210 0.1407
-17.7832 -10.2826 0.1265
-32.3724 -27.4379 0.2614
-27.0412 -27.4280 0.2373
-23.4287 -28.4518 0.2270
-23.4181 -34.2696 0.2557
-23.4032 -41.8348 0.2953
15.7191 -30.6765 0.2123
15.7072 -24.8899 0.1813
16.7612 -21.9403 0.1701
20.0990 -21.9334 0.1832
24.0316 -21.9253 0.2004
16.2513 -12.3590 0.1258
16.2469 -10.2033 0.1182
16.2429 -8.2785 0.1123
11.6898 -4.6953 0.0776
10.3722 -3.1237 0.0667
10.3486 -2.1312 0.0651
12.1107 -1.3828 0.0751
10.3447 -0.2511 0.0637
12.1062 0.7898 0.0747
12.1039 1.8859 0.0755
12.1016 3.0126 0.0768
12.0992 4.1903 0.0789
11.9296 5.3677 0.0806
11.9278 6.7069 0.0843
11.9238 8.1864 0.0891
11.9204 9.8596 0.0953
11.9164 11.7997 0.1033
12.0363 14.2639 0.1150
25.7381 36.7093 0.2762
9.3964 20.3459 0.1378
-21.1008 28.3203 0.2176
-21.4508 23.9812 0.1982
-21.4427 20.0410 0.1808
-21.1414 16.4827 0.1651
-20.7607 13.3888 0.1522
-24.4782 12.8487 0.1703
-30.8779 12.8355 0.2060
-20.7466 6.5210 0.1340
-21.2698 4.6475 0.1341
-20.7385 2.6208 0.1288
-21.2618 0.7719 0.1311
-21.2579 -1.1304 0.1311
-21.2540 -3.0503 0.1323
-21.2499 -5.0195 0.1345
-21.2457 -7.0730 0.1379
-20.7145 -9.0226 0.1392
-34.3765 -18.7892 0.2413
-33.9990 -27.4397 0.2691
-28.3777 -27.4321 0.2431
-23.7842 -27.5080 0.2240
-23.2554 -32.3344 0.2453
-23.0282 -38.9369 0.2786
19.4142 -40.2431 0.2752
15.7100 -26.2735 0.1886
15.9419 -21.9419 0.1671
19.1512 -21.9353 0.1794
22.9032 -21.9276 0.1953
16.2526 -12.9883 0.1282
16.3183 -10.8038 0.1205
16.2439 -8.7772 0.1137
10.8877 -4.6801 0.0730
12.1185 -3.9697 0.0785
9.2337 -2.1342 0.0584
10.3471 -1.4342 0.0643
12.1090 -0.5855 0.0747
10.3433 0.4254 0.0638
12.1045 1.5889 0.0752
12.1022 2.7055 0.0764
12.0999 3.8673 0.0782
11.9474 5.0340 0.0799
10.3646 5.5042 0.0723
10.3939 6.7743 0.0764
11.9213 9.3870 0.0935
12.0325 11.3550 0.1019
12.0397 13.5911 0.1118
15.3043 20.7484 0.1588
23.1223 38.0446 0.2742
18.9601 38.5886 0.2649
-20.7936 29.3555 0.2216
-21.4533 25.1767 0.2038
-21.4447 21.0312 0.1850
-20.7681 17.0101 0.1654
-22.3631 15.1956 0.1666
-23.1155 12.8515 0.1629
-28.9066 12.8396 0.1949
-21.2709 5.1865 0.1349
-21.2669 3.2088 0.1325
-21.2629 1.2844 0.1312
-21.2590 -0.6184 0.1310
-21.2550 -2.5306 0.1319
-21.2510 -4.4832 0.1338
-21.2468 -6.5104 0.1369
-21.2424 -8.6511 0.1413
-24.1574 -18.5558 0.1876
-29.7827 -27.4363 0.2494
-24.8862 -27.4215 0.2281
-23.4232 -30.9690 0.2392
-23.1642 -37.1010 0.2694
19.1868 -42.3438 0.2864
15.7131 -27.7734 0.1966
15.7028 -22.7433 0.1702
18.2423 -21.9372 0.1757
21.8297 -21.9298 0.1906
26.1173 -21.9210 0.2100
16.3195 -11.3782 0.1225
16.2450 -9.2891 0.1153
10.3234 -4.7348 0.0700
10.3517 -3.6688 0.0676
10.3497 -2.6558 0.0658
12.1119 -1.9766 0.0756
12.1096 -0.8777 0.0748
12.1074 0.2066 0.0746
10.3419 1.1054 0.0641
12.1029 2.4017 0.0760
12.1005 3.5493 0.0777
12.0980 4.7583 0.0801
11.9284 5.9716 0.0822
12.0406 7.4412 0.0872
11.9223 8.9319 0.0918
12.0336 10.8210 0.0997
11.9143 12.8151 0.1078
12.0299 15.5140 0.1209
23.9624 37.3719 0.2735
9.2683 17.7708 0.1235
-21.4559 26.4421 0.2098
-21.4469 22.0696 0.1896
-21.4394 18.4385 0.1742
-22.3647 15.9959 0.1694
-21.8654 12.8541 0.1562
-27.1368 12.8432 0.1849
-21.2721 5.7320 0.1357
-21.2680 3.7339 0.1330
-21.2640 1.7985 0.1315
-21.2600 -0.1072 0.1310
-21.2561 -2.0137 0.1315
-21.2521 -3.9523 0.1332
-21.2480 -5.9558 0.1359
-21.2436 -8.0618 0.1400
-20.7124 -10.0595 0.1418
-37.5641 -27.4435 0.2866
-31.2590 -27.4367 0.2562
-26.1190 -27.4252 0.2333
-23.4255 -29.4715 0.2319
-23.4191 -35.5760 0.2624
9.4968 -41.9614 0.2650
9.3301 -21.9816 0.1471
15.7165 -29.4074 0.2054
15.6859 -23.9293 0.1762
17.3688 -21.9390 0.1724
20.8064 -21.9319 0.1862
24.8801 -21.9235 0.2043
16.2504 -11.9206 0.1241
16.2461 -9.8154 0.1169
16.2422 -7.9274 0.1113
12.1173 -4.6254 0.0799
12.1238 -3.4237 0.0776
10.3482 -1.9453 0.0649
12.1102 -1.1710 0.0749
10.3443 -0.0722 0.0637
12.1058 1.0002 0.0748
12.1035 2.1007 0.0757
10.3385 2.7643 0.0659
12.0987 4.4258 0.0794
10.3037 4.8520 0.0702
12.0414 7.0474 0.0859
11.9232 8.4928 0.0902
11.9196 10.2111 0.0967
11.9155 12.2139 0.1051
12.0337 14.7715 0.1174
25.2019 37.2999 0.2773
17.3500 39.3404 0.2649
-21.4587 27.7849 0.2163
-21.4491 23.1609 0.1945
-21.4413 19.3562 0.1779
-21.9102 16.4811 0.1689
-20.7596 12.8855 0.1505
-25.5374 12.8465 0.1761
-32.4413 12.8323 0.2149
-20.7457 6.1287 0.1333
-21.2690 4.2636 0.1336
-20.7378 2.2572 0.1285
-21.2611 0.4041 0.1310
-21.2572 -1.4993 0.1313
-21.2532 -3.4261 0.1326
-21.2491 -5.4087 0.1351
-21.2448 -7.4831 0.1388
-20.7136 -9.4516 0.1403
-32.8198 -27.4384 0.2635
-27.4102 -27.4291 0.2389
-23.4682 -28.1105 0.2256
-22.8589 -32.9707 0.2471
-23.4046 -41.1818 0.2918
15.7202 -31.1959 0.2152
15.7080 -25.2679 0.1833
16.5280 -21.9407 0.1692
19.8285 -21.9340 0.1821
23.7086 -21.9260 0.1989
16.2517 -12.5335 0.1264
16.2472 -10.3572 0.1187
16.2432 -8.4174 0.1127
11.4944 -4.7072 0.0765
12.1245 -3.7409 0.0782
9.2959 -1.9800 0.0585
12.1108 -1.4657 0.0751
12.0013 -0.3725 0.0740
10.3429 0.6047 0.0638
12.1041 1.8022 0.0754
12.1018 2.9260 0.0767
12.0994 4.0990 0.0787
11.9298 5.2712 0.0803
11.9271 6.6008 0.0840
11.9240 8.0685 0.0887
11.9206 9.7249 0.0948
11.9185 11.6434 0.1026
12.0373 14.0710 0.1141
25.9044 36.4206 0.2753
23.7991 40.7280 0.2906
18.2211 38.7635 0.2639
15.3545 42.0651 0.2759
-17.8172 29.4445 0.2120
-20.8051 28.3209 0.2165
-21.4515 24.3105 0.1997
-21.4433 20.3147 0.1820
-20.8501 16.4833 0.1637
-22.3619 14.6362 0.1646
-17.7036 9.4458 0.1236
-30.3017 12.8367 0.2027
-21.2701 4.7984 0.1343
-20.7388 2.7633 0.1289
-21.2621 0.9158 0.1311
-21.2582 -0.9864 0.1311
-21.2543 -2.9039 0.1321
-21.2502 -4.8681 0.1343
-21.2460 -6.9141 0.1376
-20.9015 -8.9366 0.1400
-34.3697 -18.4850 0.2404
-34.4736 -27.4402 0.2714
-28.7652 -27.4333 0.2449
-24.0520 -27.4409 0.2248
-22.8623 -31.3389 0.2390
-23.2459 -38.7056 0.2781
19.0805 -40.2438 0.2743
15.7109 -26.6824 0.1907
15.7168 -21.9424 0.1663
18.8921 -21.9359 0.1783
22.5962 -21.9282 0.1940
16.2530 -13.1696 0.1289
16.3186 -10.9633 0.1211
16.2442 -8.9196 0.1142
10.3535 -4.5337 0.0696
10.3513 -3.4685 0.0672
9.2642 -2.2073 0.0587
12.1115 -1.7622 0.0754
12.1092 -0.6675 0.0747
12.1070 0.4160 0.0746
12.1047 1.5059 0.0751
12.1024 2.6198 0.0763
10.3375 3.2272 0.0667
11.9841 4.9543 0.0799
10.3381 5.4010 0.0719
11.9258 7.6583 0.0873
11.9216 9.2574 0.0930
12.0328 11.2025 0.1013
11.9133 13.2668 0.1098
15.4685 20.6770 0.1591
23.3690 37.8716 0.2741
18.9049 37.8282 0.2605
-19.7217 42.9215 0.2910
-24.6711 35.3332 0.2655
-21.4540 25.5250 0.2054
-21.4453 21.3179 0.1863
-20.7686 17.2463 0.1663
-22.3635 15.4178 0.1673
-22.7536 12.8523 0.1610
-28.3905 12.8407 0.1920
-21.2713 5.3392 0.1351
-21.2672 3.3559 0.1326
-21.2632 1.4287 0.1313
-21.2593 -0.4748 0.1310
-21.2553 -2.3850 0.1318
-21.2513 -4.3335 0.1336
-21.2472 -6.3537 0.1366
-21.2428 -8.4844 0.1409
-24.3218 -18.4222 0.1880
-30.1909 -27.4376 0.2513
-25.2270 -27.4225 0.2295
-23.4238 -30.5387 0.2371
-23.4155 -36.9458 0.2694
19.1285 -42.9852 0.2898
15.7141 -28.2183 0.1990
15.6469 -22.9929 0.1713
17.9934 -21.9377 0.1748
24.3594 -21.9246 0.4038
16.2510 -12.1863 0.2503
16.2466 -10.0507 0.2354
16.2426 -8.1405 0.2238
11.8765 -4.6773 0.1573
12.1218 -3.5614 0.1557
12.1128 -2.4093 0.1522
10.3465 -1.1106 0.1282
12.1083 -0.2121 0.1492
12.1060 0.8720 0.1495
12.1038 1.9697 0.1511
12.1014 3.0995 0.1539
12.0990 4.2820 0.1581
10.3344 4.7342 0.1400
11.9674 6.8360 0.1698
11.9236 8.3053 0.1790
11.9201 9.9958 0.1917
11.9160 11.9599 0.2080
12.0353 14.4598 0.2318
23.4067 33.8686 0.5072
20.6749 36.5053 0.5169
9.2153 20.3132 0.2748
-21.3994 28.3197 0.4373
-21.4501 23.6568 0.3935
-21.4421 19.7707 0.3593
-21.4378 16.4821 0.3332
-20.7603 13.1908 0.3030
-24.8838 12.8479 0.3450
-31.4733 12.8343 0.4188
-20.7462 6.3672 0.2674
-21.2695 4.4971 0.2679
-20.7382 2.4785 0.2573
-21.2615 0.6281 0.2621
-21.2576 -1.2745 0.2624
-21.2537 -3.1969 0.2648
-21.2496 -5.1712 0.2694
-21.2453 -7.2327 0.2765
-20.7141 -9.1895 0.2792
-33.5322 -27.4392 0.5338
-27.9954 -27.4309 0.4829
-23.6152 -27.6886 0.4484
-23.1888 -32.7056 0.4940
-17.6832 -30.3656 0.4329
2.8075 -28.3872 0.3514
19.7502 -40.2424 0.5523
15.7092 -25.8736 0.3729
16.1692 -21.9415 0.3358
19.4135 -21.9348 0.3609
23.2145 -21.9270 0.3934
16.2522 -12.8091 0.2549
16.2417 -10.5960 0.2389
16.2437 -8.6357 0.2267
10.3532 -4.3677 0.1384
12.1225 -3.8805 0.1568
9.2344 -2.0688 0.1166
12.1111 -1.5953 0.1505
10.3146 -0.4289 0.1272
12.1066 0.5799 0.1493
10.3413 1.4286 0.1286
12.1021 2.7915 0.1530
10.3372 3.3811 0.1340
10.3653 4.4501 0.1390
10.3377 5.5798 0.1447
10.2997 6.8124 0.1521
11.9211 9.5180 0.1879
12.0322 11.5093 0.2051
12.0388 13.7764 0.2254
24.1012 33.1408 0.5049
21.4357 35.8124 0.5142
18.6511 38.6167 0.5284
15.6929 41.6256 0.5481
-10.6183 39.0663 0.4988
-20.7927 28.9378 0.4390
-21.4526 24.8340 0.4043
-21.4441 20.7483 0.3676
-20.7677 16.7765 0.3289
-22.3626 14.9754 0.3316
-17.6815 9.6746 0.2483
-29.4388 12.8385 0.3957
-21.2706 5.0345 0.2693
-21.2666 3.0619 0.2647
-21.2626 1.1403 0.2624
-21.2587 -0.7622 0.2621
-21.2547 -2.6763 0.2639
-21.2507 -4.6333 0.2680
-21.2465 -6.6676 0.2744
-21.2421 -8.8188 0.2834
-23.9978 -18.6924 0.3748
-29.3806 -27.4351 0.4953
-24.5494 -27.4204 0.4534
-23.1138 -30.9929 0.4763
-22.8543 -37.1613 0.5375
2.4031 -32.1805 0.3976
19.0603 -41.3198 0.5606
15.7122 -27.3393 0.3885
15.7021 -22.4168 0.3372
18.4940 -21.9367 0.3535
22.1262 -21.9292 0.3838
26.4776 -21.9203 0.4235
16.3192 -11.2148 0.2440
16.2447 -9.1439 0.2297
10.3233 -4.6506 0.1395
12.1165 -4.2024 0.1580
12.1207 -3.0231 0.1539
10.3475 -1.6170 0.1290
12.1095 -0.7955 0.1495
10.3437 0.2464 0.1275
12.1050 1.3766 0.1501
12.1027 2.4868 0.1522
12.1003 3.6382 0.1557
10.3356 4.1460 0.1372
10.3384 5.2633 0.1429
12.0403 7.5540 0.1751
11.9220 9.0581 0.1845
12.0333 10.9687 0.2006
11.9139 12.9896 0.2172
12.0288 15.7310 0.2440
22.1525 35.0683 0.5111
9.1808 17.8968 0.2478
16.5121 40.7991 0.5423
-17.6393 39.4803 0.5328
-21.4551 26.0790 0.4161
-21.4463 21.7727 0.3765
-21.4389 18.1876 0.3464
-22.3642 15.7683 0.3372
-22.2062 12.8534 0.3161
-27.6158 12.8423 0.3752
-21.2718 5.5780 0.2709
-21.2676 3.5859 0.2657
-21.2637 1.6538 0.2628
-21.2597 -0.2508 0.2620
-21.2558 -2.1587 0.2632
-21.2518 -4.1010 0.2667
-21.2477 -6.1109 0.2724
-21.2433 -8.2263 0.2807
-37.0356 -27.4430 0.5679
-30.8394 -27.4396 0.5086
-25.7670 -27.4241 0.4636
-23.4249 -29.8830 0.4678
-23.4177 -36.1025 0.5302
3.9980 -28.3886 0.3532
9.5054 -21.9806 0.2950
15.7155 -28.9335 0.4057
15.6852 -23.5792 0.3489
17.6109 -21.9385 0.3466
21.0892 -21.9313 0.3749
25.2209 -21.9228 0.4117
16.2469 -11.7500 0.2470
16.2458 -9.6660 0.2329
16.2419 -7.7919 0.2219
12.1172 -4.5318 0.1594
12.1214 -3.3348 0.1549
12.1123 -2.1923 0.1517
12.1101 -1.0885 0.1498
12.1078 -0.0027 0.1492
12.1056 1.0826 0.1497
12.1033 2.1850 0.1515
12.1010 3.3233 0.1546
10.3362 3.8604 0.1359
10.3035 4.9373 0.1408
12.0412 7.1570 0.1726
11.9229 8.6147 0.1812
11.9193 10.3513 0.1945
11.9152 12.3798 0.2117
12.0326 14.9757 0.2367
22.8367 34.2966 0.5077
20.1543 37.0659 0.5198
17.1250 39.5517 0.5310
-21.4579 27.3992 0.4288
-21.4485 22.8485 0.3861
-21.4407 19.0944 0.3537
-22.2202 16.4805 0.3409
-21.0275 12.8558 0.3037
-25.9712 12.8457 0.3570
-33.0899 12.8310 0.4373
-20.7454 5.9766 0.2660
-21.2687 4.1142 0.2669
-20.7375 2.1155 0.2568
-21.2608 0.2604 0.2620
-21.2569 -1.6437 0.2627
-21.2529 -3.5735 0.2655
-21.2488 -5.5618 0.2706
-21.2445 -7.6447 0.2782
-20.7133 -9.6210 0.2814
-17.7827 -10.2823 0.2531
-32.3724 -27.4379 0.5228
-27.0412 -27.4280 0.4745
-23.4287 -28.4518 0.4541
-23.4181 -34.2696 0.5114
-23.4032 -41.8348 0.5906
3.3040 -28.3878 0.3521
15.7191 -30.6764 0.4247
15.7072 -24.8899 0.3626
16.7611 -21.9403 0.3402
20.0990 -21.9334 0.3665
24.0316 -21.9253 0.4008
16.2513 -12.3590 0.2515
16.2469 -10.2033 0.2364
16.2429 -8.2784 0.2246
11.6898 -4.6953 0.1552
10.3722 -3.1237 0.1335
10.3486 -2.1312 0.1302
12.1107 -1.3828 0.1502
10.3447 -0.2511 0.1275
12.1062 0.7898 0.1495
12.1039 1.8859 0.1509
12.1016 3.0126 0.1536
12.0992 4.1903 0.1578
11.9296 5.3677 0.1612
11.9278 6.7069 0.1686
11.9238 8.1864 0.1782
11.9204 9.8596 0.1906
11.9164 11.7997 0.2066
12.0363 14.2639 0.2299
23.6041 33.6656 0.5066
20.9143 36.3528 0.5167
9.3965 20.3459 0.2761
-21.1008 28.3203 0.4351
-21.4508 23.9812 0.3964
-21.4427 20.0410 0.3616
-21.1414 16.4827 0.3303
-20.7607 13.3888 0.3044
-24.4782 12.8487 0.3406
-30.8779 12.8355 0.4120
-20.7466 6.5210 0.2679
-21.2698 4.6475 0.2682
-20.7385 2.6208 0.2575
-21.2618 0.7719 0.2621
-21.2579 -1.1304 0.2623
-21.2540 -3.0503 0.2645
-21.2499 -5.0195 0.2690
-21.2457 -7.0730 0.2759
-20.7145 -9.0226 0.2784
-34.1901 -18.6873 0.4801
-33.9990 -27.4397 0.5383
-28.3777 -27.4321 0.4863
-23.7842 -27.5080 0.4480
-23.2554 -32.3344 0.4907
-23.0282 -38.9369 0.5574
2.6139 -28.3869 0.3512
19.4142 -40.2431 0.5505
15.7100 -26.2735 0.3772
15.9419 -21.9419 0.3341
19.1512 -21.9353 0.3588
22.9032 -21.9276 0.3906
16.2526 -12.9883 0.2563
16.3183 -10.8038 0.2411
16.2439 -8.7772 0.2275
10.8877 -4.6801 0.1460
12.1162 -3.9690 0.1571
9.2334 -2.1342 0.1168
10.3471 -1.4342 0.1287
12.1090 -0.5855 0.1494
10.3433 0.4254 0.1275
12.1045 1.5889 0.1504
12.1022 2.7055 0.1528
12.0999 3.8673 0.1565
11.9474 5.0340 0.1597
10.3702 5.5072 0.1447
10.3939 6.7743 0.1528
11.9213 9.3870 0.1869
12.0325 11.3550 0.2038
12.0397 13.5911 0.2237
15.3039 20.7478 0.3176
21.6531 35.6271 0.5137
18.8775 38.4205 0.5274
15.8912 41.3040 0.5453
-10.3548 39.1394 0.4988
-20.7936 29.3555 0.4432
-21.4533 25.1767 0.4075
-21.4447 21.0312 0.3701
-20.7681 17.0101 0.3308
-22.3631 15.1956 0.3331
-23.1155 12.8515 0.3259
-28.9066 12.8396 0.3897
-21.2709 5.1865 0.2698
-21.2669 3.2088 0.2650
-21.2629 1.2844 0.2625
-21.2590 -0.6184 0.2620
-21.2550 -2.5306 0.2637
-21.2510 -4.4832 0.2676
-21.2468 -6.5104 0.2738
-21.2424 -8.6511 0.2826
-24.1390 -18.5416 0.3750
-29.7826 -27.4363 0.4989
-24.8862 -27.4215 0.4562
-23.4232 -30.9690 0.4784
-23.1642 -37.1010 0.5389
19.1868 -42.3438 0.5727
15.7131 -27.7734 0.3931
15.7028 -22.7433 0.3405
18.2423 -21.9372 0.3515
21.8297 -21.9298 0.3812
26.1172 -21.9210 0.4201
16.3195 -11.3782 0.2451
16.2450 -9.2891 0.2306
10.3234 -4.7348 0.1399
10.3517 -3.6688 0.1353
10.3497 -2.6558 0.1316
12.1119 -1.9766 0.1512
12.1096 -0.8777 0.1496
12.1074 0.2066 0.1492
10.3419 1.1054 0.1281
12.1029 2.4017 0.1520
12.1005 3.5493 0.1554
12.0980 4.7583 0.1602
11.9284 5.9716 0.1643
12.0406 7.4412 0.1744
11.9223 8.9319 0.1835
12.0336 10.8210 0.1994
11.9143 12.8151 0.2156
12.0299 15.5140 0.2419
22.3755 34.8968 0.5107
9.2681 17.7704 0.2469
16.6800 40.4263 0.5388
-21.4559 26.4421 0.4196
-21.4469 22.0696 0.3792
-21.4394 18.4385 0.3484
-22.3647 15.9959 0.3388
-21.8654 12.8541 0.3125
-27.1368 12.8432 0.3699
-21.2721 5.7320 0.2714
-21.2680 3.7339 0.2660
-21.2640 1.7985 0.2629
-21.2600 -0.1072 0.2619
-21.2561 -2.0137 0.2631
-21.2521 -3.9523 0.2663
-21.2480 -5.9558 0.2719
-21.2436 -8.0618 0.2799
-20.7124 -10.0595 0.2837
-37.5641 -27.4435 0.5732
-31.2590 -27.4367 0.5124
-26.1190 -27.4252 0.4666
-23.4255 -29.4715 0.4638
-23.4191 -35.5760 0.5248
3.8025 -28.3884 0.3529
9.4965 -41.9602 0.5300
9.3298 -21.9811 0.2942
15.7165 -29.4074 0.4108
15.6859 -23.9294 0.3525
17.3688 -21.9390 0.3447
20.8064 -21.9319 0.3725
24.8801 -21.9235 0.4086
16.2504 -11.9206 0.2483
16.2461 -9.8154 0.2339
16.2422 -7.9274 0.2227
12.1173 -4.6254 0.1598
12.1215 -3.4231 0.1552
10.3482 -1.9453 0.1297
12.1102 -1.1710 0.1499
10.3443 -0.0722 0.1274
12.1058 1.0002 0.1497
12.1035 2.1007 0.1513
10.3385 2.7643 0.1318
12.0987 4.4258 0.1587
10.3037 4.8520 0.1403
12.0414 7.0475 0.1719
11.9232 8.4928 0.1804
11.9196 10.2111 0.1934
11.9155 12.2139 0.2102
12.0337 14.7715 0.2347
23.0754 34.1525 0.5078
20.3287 36.7921 0.5179
17.4160 39.4900 0.5318
-21.4587 27.7849 0.4325
-21.4491 23.1609 0.3889
-21.4413 19.3562 0.3559
-21.9102 16.4811 0.3378
-20.7596 12.8855 0.3010
-25.5374 12.8465 0.3522
-32.4413 12.8323 0.4298
-20.7457 6.1287 0.2665
-21.2690 4.2636 0.2673
-20.7378 2.2572 0.2570
-21.2611 0.4041 0.2620
-21.2572 -1.4993 0.2626
-21.2532 -3.4261 0.2652
-21.2491 -5.4087 0.2702
-21.2448 -7.4831 0.2775
-20.7136 -9.4516 0.2805
-32.8198 -27.4384 0.5271
-27.4102 -27.4291 0.4778
-23.4682 -28.1105 0.4512
-22.8589 -32.9707 0.4943
-23.4046 -41.1819 0.5836
3.1097 -28.3875 0.3518
15.7202 -31.1959 0.4304
15.7080 -25.2679 0.3665
16.5280 -21.9407 0.3384
19.8285 -21.9340 0.3643
23.7086 -21.9260 0.3979
16.2517 -12.5335 0.2529
16.2472 -10.3572 0.2374
16.2432 -8.4174 0.2254
11.4944 -4.7072 0.1530
12.1222 -3.7402 0.1563
9.2955 -1.9799 0.1171
12.1108 -1.4657 0.1503
12.0013 -0.3725 0.1479
10.3429 0.6047 0.1276
12.1041 1.8022 0.1508
12.1018 2.9260 0.1534
12.0994 4.0990 0.1574
11.9298 5.2712 0.1607
10.3109 5.7063 0.1452
11.9240 8.0685 0.1774
11.9206 9.7249 0.1895
11.9185 11.6434 0.2053
12.0373 14.0710 0.2281
23.7584 33.4033 0.5050
21.0798 36.0742 0.5148
18.2521 38.8295 0.5286
15.3147 41.9561 0.5503
-11.0281 38.9488 0.4987
-17.8165 29.4433 0.4240
-20.8051 28.3209 0.4330
-21.4515 24.3105 0.3995
-21.4433 20.3147 0.3639
-20.8501 16.4833 0.3275
-22.3619 14.6362 0.3293
-17.7031 9.4455 0.2472
-30.3017 12.8367 0.4055
-21.2701 4.7984 0.2687
-20.7388 2.7633 0.2578
-21.2621 0.9158 0.2622
-21.2582 -0.9864 0.2622
-21.2543 -2.9039 0.2643
-21.2502 -4.8681 0.2686
-21.2460 -6.9141 0.2753
-20.9015 -8.9366 0.2801
-34.1894 -18.3881 0.4783
-34.4736 -27.4402 0.5429
-28.7652 -27.4333 0.4897
-24.0520 -27.4409 0.4496
-22.8623 -31.3389 0.4779
-23.2459 -38.7056 0.5563
2.4206 -28.3867 0.3510
19.0805 -40.2438 0.5487
15.7109 -26.6824 0.3815
15.7168 -21.9424 0.3325
18.8921 -21.9359 0.3567
22.5962 -21.9282 0.3879
16.2530 -13.1696 0.2577
16.3186 -10.9633 0.2422
16.2442 -8.9197 0.2283
10.3535 -4.5337 0.1393
10.3513 -3.4685 0.1345
9.2639 -2.2072 0.1173
12.1115 -1.7622 0.1508
12.1092 -0.6675 0.1494
12.1070 0.4160 0.1492
12.1047 1.5059 0.1503
12.1024 2.6198 0.1526
10.3375 3.2272 0.1334
11.9841 4.9543 0.1598
10.3381 5.4010 0.1437
11.9258 7.6583 0.1746
11.9216 9.2574 0.1860
12.0328 11.2025 0.2026
11.9133 13.2668 0.2197
15.4678 20.6760 0.3181
21.8652 35.4345 0.5130
19.0159 38.0501 0.5241
16.1449 41.1322 0.5444
-10.0907 39.2106 0.4989
-19.7211 42.9202 0.5820
-24.6711 35.3332 0.5310
-21.4540 25.5250 0.4108
-21.4453 21.3179 0.3726
-20.7686 17.2463 0.3326
-22.3635 15.4178 0.3347
-22.7536 12.8523 0.3220
-28.3905 12.8407 0.3839
-21.2713 5.3392 0.2702
-21.2672 3.3559 0.2653
-21.2632 1.4287 0.2626
-21.2593 -0.4748 0.2620
-21.2553 -2.3850 0.2635
-21.2513 -4.3335 0.2672
-21.2472 -6.3537 0.2732
-21.2428 -8.4844 0.2818
-24.2508 -18.3684 0.3748
-30.1909 -27.4376 0.5026
-25.2270 -27.4225 0.4591
-23.4238 -30.5387 0.4742
-23.4155 -36.9458 0.5389
4.3034 -28.3890 0.3538
19.1285 -42.9852 0.5797
15.7141 -28.2183 0.3979
15.6469 -22.9929 0.3427
17.9934 -21.9377 0.3496
24.3594 -21.9246 0.6057
16.2510 -12.1863 0.3754
16.2466 -10.0507 0.3531
16.2426 -8.1405 0.3358
11.8764 -4.6773 0.2359
12.1195 -3.5607 0.2335
12.1128 -2.4093 0.2283
10.3465 -1.1106 0.1923
12.1083 -0.2121 0.2238
12.1060 0.8720 0.2243
12.1038 1.9697 0.2266
12.1014 3.0995 0.2309
12.0990 4.2820 0.2372
10.3344 4.7342 0.2101
11.9674 6.8360 0.2547
11.9236 8.3053 0.2686
11.9201 9.9958 0.2875
11.9160 11.9599 0.3120
11.7797 14.1527 0.3403
23.3477 33.7832 0.7590
20.6440 36.4507 0.7742
9.2153 20.3132 0.4123
-10.9777 36.8631 0.7109
-21.3994 28.3197 0.6560
-21.4501 23.6568 0.5902
-21.4421 19.7707 0.5391
-21.4378 16.4821 0.4998
-20.7603 13.1908 0.4546
-24.8838 12.8479 0.5176
-31.4733 12.8343 0.6282
-20.7462 6.3672 0.4011
-21.2695 4.4971 0.4018
-20.7382 2.4785 0.3860
-21.2615 0.6281 0.3931
-21.2576 -1.2745 0.3936
-21.2537 -3.1969 0.3972
-21.2496 -5.1712 0.4042
-21.2453 -7.2327 0.4148
-20.7141 -9.1895 0.4188
-33.5322 -27.4392 0.8008
-27.9955 -27.4309 0.7244
-23.6152 -27.6886 0.6726
-23.1887 -32.7056 0.7410
-17.6827 -30.3647 0.6494
2.8072 -28.3846 0.5272
19.7502 -40.2424 0.8285
15.7092 -25.8736 0.5594
16.1692 -21.9415 0.5037
19.4135 -21.9348 0.5414
23.2145 -21.9270 0.5902
16.2522 -12.8091 0.3824
16.2417 -10.5960 0.3584
16.2437 -8.6357 0.3400
10.3532 -4.3677 0.2077
12.1201 -3.8798 0.2352
9.2342 -2.0687 0.1749
12.1111 -1.5953 0.2258
10.3146 -0.4289 0.1908
12.1066 0.5799 0.2240
10.3413 1.4286 0.1929
12.1021 2.7915 0.2295
10.3372 3.3811 0.2010
10.3653 4.4501 0.2085
11.9274 6.4379 0.2505
10.2997 6.8124 0.2282
11.9211 9.5180 0.2819
11.9193 11.4013 0.3048
11.7661 13.4644 0.3305
24.0911 33.1269 0.7570
21.4317 35.8056 0.7712
18.5896 38.4893 0.7900
15.6666 41.5558 0.8208
-10.0364 36.9252 0.7072
-20.7927 28.9378 0.6586
-21.4526 24.8340 0.6065
-21.4441 20.7483 0.5515
-20.7677 16.7765 0.4934
-22.3626 14.9754 0.4974
-17.6808 9.6742 0.3725
-29.4388 12.8385 0.5936
-21.2706 5.0345 0.4040
-21.2666 3.0619 0.3971
-21.2626 1.1403 0.3935
-21.2587 -0.7622 0.3932
-21.2547 -2.6763 0.3959
-21.2507 -4.6333 0.4020
-21.2465 -6.6676 0.4116
-21.2421 -8.8188 0.4251
-24.0766 -18.7537 0.5640
-29.3806 -27.4351 0.7429
-24.5494 -27.4204 0.6802
-23.1138 -30.9929 0.7146
-22.8543 -37.1613 0.8063
2.4031 -32.1805 0.5964
19.0603 -41.3197 0.8410
15.7122 -27.3393 0.5828
15.7021 -22.4168 0.5058
18.4940 -21.9367 0.5303
22.1262 -21.9292 0.5757
26.4776 -21.9203 0.6353
16.3192 -11.2148 0.3660
16.2447 -9.1439 0.3445
10.3233 -4.6506 0.2093
12.1165 -4.2024 0.2370
12.1184 -3.0226 0.2308
10.3475 -1.6170 0.1936
12.1095 -0.7955 0.2243
10.3437 0.2464 0.1912
12.1050 1.3766 0.2252
12.1027 2.4868 0.2284
12.1003 3.6382 0.2335
10.3356 4.1460 0.2058
10.3384 5.2633 0.2144
12.0403 7.5540 0.2627
11.9220 9.0581 0.2767
11.9205 10.8659 0.2981
11.9139 12.9896 0.3258
11.8055 15.4390 0.3592
22.1192 35.0156 0.7655
9.1805 17.8963 0.3717
16.5181 40.8140 0.8138
-17.6388 39.4790 0.7992
-21.4551 26.0790 0.6242
-21.4463 21.7727 0.5648
-21.4389 18.1876 0.5196
-22.3642 15.7683 0.5058
-22.2062 12.8534 0.4742
-27.6158 12.8423 0.5629
-21.2718 5.5780 0.4064
-21.2676 3.5859 0.3986
-21.2637 1.6538 0.3942
-21.2597 -0.2508 0.3930
-21.2558 -2.1587 0.3949
-21.2518 -4.1010 0.4000
-21.2477 -6.1109 0.4086
-21.2433 -8.2263 0.4210
-37.0356 -27.4430 0.8519
-30.8394 -27.4396 0.7629
-25.7670 -27.4241 0.6955
-23.4249 -29.8830 0.7018
-23.4177 -36.1025 0.7953
3.9976 -28.3860 0.5298
9.5050 -21.9799 0.4426
15.7155 -28.9335 0.6085
15.6852 -23.5792 0.5234
17.6109 -21.9385 0.5199
21.0892 -21.9313 0.5623
25.2209 -21.9228 0.6176
16.2469 -11.7500 0.3706
16.2458 -9.6660 0.3494
16.2419 -7.7919 0.3329
12.1172 -4.5318 0.2391
12.1191 -3.3342 0.2323
12.1123 -2.1923 0.2275
12.1101 -1.0885 0.2247
12.1078 -0.0027 0.2238
12.1056 1.0826 0.2246
12.1033 2.1850 0.2273
12.1010 3.3233 0.2319
10.3362 3.8604 0.2039
10.3035 4.9373 0.2112
12.0412 7.1570 0.2589
11.9229 8.6147 0.2719
11.9193 10.3513 0.2918
11.9152 12.3798 0.3176
11.7899 14.6736 0.3479
22.8383 34.2990 0.7616
20.1109 36.9861 0.7781
17.1555 39.6219 0.7980
-21.4579 27.3992 0.6432
-21.4485 22.8485 0.5792
-21.4407 19.0944 0.5306
-22.2202 16.4805 0.5113
-21.0276 12.8558 0.4555
-25.9712 12.8457 0.5355
-33.0899 12.8310 0.6560
-20.7454 5.9766 0.3990
-21.2687 4.1142 0.4004
-20.7375 2.1155 0.3853
-21.2608 0.2604 0.3930
-21.2569 -1.6437 0.3940
-21.2529 -3.5735 0.3983
-21.2488 -5.5618 0.4060
-21.2445 -7.6447 0.4173
-20.7133 -9.6210 0.4221
-17.7822 -10.2820 0.3796
-32.3724 -27.4379 0.7843
-27.0412 -27.4280 0.7119
-23.4287 -28.4518 0.6812
-23.4181 -34.2696 0.7671
-23.4032 -41.8348 0.8860
3.3037 -28.3852 0.5282
15.7191 -30.6764 0.6371
15.7072 -24.8899 0.5440
16.7611 -21.9403 0.5103
20.0990 -21.9334 0.5498
24.0316 -21.9253 0.6012
16.2513 -12.3590 0.3773
16.2469 -10.2033 0.3546
16.2429 -8.2785 0.3369
11.6898 -4.6953 0.2328
10.3722 -3.1237 0.2002
10.3486 -2.1312 0.1953
12.1107 -1.3828 0.2253
10.3447 -0.2511 0.1912
12.1062 0.7898 0.2242
12.1039 1.8859 0.2264
12.1016 3.0126 0.2305
12.0992 4.1903 0.2366
11.9296 5.3677 0.2418
11.9278 6.7069 0.2529
11.9238 8.1864 0.2673
11.9204 9.8596 0.2859
11.9164 11.7997 0.3099
11.7758 13.9551 0.3375
23.6163 33.6830 0.7603
20.9247 36.3710 0.7755
9.3965 20.3459 0.4140
-10.7122 36.8806 0.7098
-21.1008 28.3203 0.6527
-21.4508 23.9812 0.5947
-21.4427 20.0410 0.5425
-21.1414 16.4827 0.4955
-20.7607 13.3888 0.4566
-24.4782 12.8487 0.5110
-30.8779 12.8355 0.6180
-20.7466 6.5210 0.4019
-21.2698 4.6475 0.4024
-20.7385 2.6208 0.3863
-21.2618 0.7719 0.3932
-21.2579 -1.1304 0.3935
-21.2540 -3.0503 0.3968
-21.2499 -5.0195 0.4036
-21.2457 -7.0730 0.4139
-20.7145 -9.0226 0.4176
-34.2915 -18.7427 0.7223
-33.9990 -27.4397 0.8075
-28.3777 -27.4321 0.7295
-23.7841 -27.5080 0.6721
-23.2554 -32.3344 0.7361
-23.0282 -38.9369 0.8361
2.6137 -28.3843 0.5268
19.4142 -40.2431 0.8258
15.7100 -26.2735 0.5658
15.9419 -21.9419 0.5013
19.1512 -21.9353 0.5382
22.9032 -21.9276 0.5860
16.2526 -12.9883 0.3845
16.3183 -10.8038 0.3617
16.2439 -8.7772 0.3412
10.8877 -4.6801 0.2190
12.1160 -3.9689 0.2356
9.2332 -2.1341 0.1751
10.3471 -1.4342 0.1931
12.1090 -0.5855 0.2241
10.3433 0.4254 0.1913
12.1045 1.5889 0.2256
12.1022 2.7055 0.2292
12.0999 3.8673 0.2348
11.9474 5.0340 0.2396
10.3702 5.5072 0.2170
10.3939 6.7743 0.2293
11.9213 9.3870 0.2804
11.9196 11.2484 0.3029
11.7989 13.3193 0.3289
11.8175 16.0212 0.3679
21.5973 35.5354 0.7686
18.8497 38.3638 0.7900
15.8660 41.2387 0.8167
-9.7736 36.9425 0.7063
-20.7936 29.3555 0.6649
-21.4533 25.1767 0.6113
-21.4447 21.0312 0.5551
-20.7681 17.0101 0.4962
-22.3631 15.1956 0.4997
-23.1155 12.8515 0.4888
-28.9066 12.8396 0.5846
-21.2709 5.1865 0.4047
-21.2669 3.2088 0.3975
-21.2629 1.2844 0.3937
-21.2590 -0.6184 0.3931
-21.2550 -2.5306 0.3956
-21.2510 -4.4832 0.4014
-21.2468 -6.5104 0.4107
-21.2424 -8.6511 0.4239
-24.0782 -18.4949 0.5611
-29.7826 -27.4363 0.7484
-24.8862 -27.4215 0.6844
-23.4232 -30.9690 0.7176
-23.1642 -37.1010 0.8084
19.0644 -42.0738 0.8537
15.7131 -27.7734 0.5898
15.7028 -22.7433 0.5108
18.2423 -21.9372 0.5273
21.8297 -21.9298 0.5719
26.1172 -21.9210 0.6302
16.3195 -11.3782 0.3677
16.2450 -9.2891 0.3459
10.3234 -4.7348 0.2099
10.3517 -3.6688 0.2030
10.3497 -2.6558 0.1975
12.1119 -1.9766 0.2268
12.1096 -0.8777 0.2244
12.1074 0.2066 0.2238
10.3419 1.1054 0.1922
12.1029 2.4017 0.2280
12.1005 3.5493 0.2331
12.0980 4.7583 0.2403
11.9284 5.9716 0.2465
12.0406 7.4412 0.2616
11.9223 8.9319 0.2753
11.9208 10.7196 0.2963
11.9143 12.8151 0.3234
11.8010 15.2188 0.3559
22.3338 34.8318 0.7647
9.2679 17.7700 0.3704
16.6960 40.4650 0.8090
-21.4559 26.4421 0.6294
-21.4469 22.0696 0.5688
-21.4394 18.4385 0.5226
-22.3647 15.9959 0.5082
-21.8654 12.8541 0.4688
-27.1368 12.8432 0.5549
-21.2721 5.7320 0.4072
-21.2680 3.7339 0.3991
-21.2640 1.7985 0.3944
-21.2600 -0.1072 0.3929
-21.2561 -2.0137 0.3946
-21.2521 -3.9523 0.3995
-21.2480 -5.9558 0.4078
-21.2436 -8.0618 0.4199
-20.7124 -10.0595 0.4256
-37.5641 -27.4435 0.8598
-31.2590 -27.4367 0.7687
-26.1190 -27.4252 0.7000
-23.4255 -29.4715 0.6958
-23.4191 -35.5760 0.7872
3.8022 -28.3858 0.5293
9.4963 -41.9590 0.7951
9.3296 -21.9805 0.4413
15.7165 -29.4074 0.6163
15.6859 -23.9294 0.5288
17.3688 -21.9390 0.5172
20.8064 -21.9319 0.5587
24.8801 -21.9235 0.6129
16.2504 -11.9206 0.3725
16.2461 -9.8154 0.3508
16.2422 -7.9274 0.3340
12.0954 -4.6170 0.2393
12.1192 -3.4224 0.2327
10.3482 -1.9453 0.1946
12.1102 -1.1710 0.2249
10.3443 -0.0722 0.1912
12.1058 1.0002 0.2245
12.1035 2.1007 0.2270
10.3385 2.7643 0.1978
12.0987 4.4258 0.2381
10.3037 4.8520 0.2105
12.0414 7.0475 0.2579
11.9232 8.4928 0.2706
11.9196 10.2111 0.2901
11.9155 12.2139 0.3154
11.7859 14.4673 0.3449
23.0222 34.0737 0.7600
20.3327 36.7993 0.7770
17.3935 39.4391 0.7967
-21.4587 27.7849 0.6489
-21.4491 23.1609 0.5834
-21.4413 19.3562 0.5339
-21.9102 16.4811 0.5067
-20.7596 12.8855 0.4516
-25.5374 12.8465 0.5283
-32.4413 12.8323 0.6448
-20.7457 6.1287 0.3998
-21.2690 4.2636 0.4009
-20.7378 2.2572 0.3855
-21.2611 0.4041 0.3930
-21.2572 -1.4993 0.3939
-21.2532 -3.4261 0.3979
-21.2491 -5.4087 0.4053
-21.2448 -7.4831 0.4163
-20.7136 -9.4516 0.4208
-32.8198 -27.4384 0.7906
-27.4102 -27.4291 0.7167
-23.4682 -28.1105 0.6768
-22.8589 -32.9707 0.7415
-23.4046 -41.1819 0.8755
3.1094 -28.3849 0.5277
15.7202 -31.1959 0.6456
15.7080 -25.2679 0.5499
16.5280 -21.9407 0.5077
19.8285 -21.9340 0.5465
23.7086 -21.9260 0.5968
16.2517 -12.5335 0.3793
16.2472 -10.3572 0.3561
16.2432 -8.4174 0.3381
11.4944 -4.7072 0.2296
12.1199 -3.7395 0.2344
9.2951 -1.9798 0.1756
12.1108 -1.4657 0.2255
12.0013 -0.3725 0.2219
10.3429 0.6047 0.1915
12.1041 1.8022 0.2262
12.1018 2.9260 0.2301
12.0994 4.0990 0.2361
11.9298 5.2712 0.2411
10.3109 5.7063 0.2178
11.9240 8.0686 0.2661
11.9206 9.7249 0.2843
11.9185 11.6434 0.3079
11.7719 13.7608 0.3347
23.7250 33.3563 0.7565
21.0764 36.0685 0.7721
18.1777 38.6712 0.7898
15.3242 41.9822 0.8260
-10.4474 36.8981 0.7088
-17.8158 29.4421 0.6360
-20.8051 28.3209 0.6495
-21.4515 24.3105 0.5992
-21.4433 20.3147 0.5459
-20.8501 16.4833 0.4912
-22.3619 14.6362 0.4940
-17.7026 9.4452 0.3708
-30.3017 12.8367 0.6082
-21.2701 4.7984 0.4030
-20.7388 2.7633 0.3867
-21.2621 0.9158 0.3933
-21.2582 -0.9864 0.3933
-21.2543 -2.9039 0.3965
-21.2502 -4.8681 0.4029
-21.2460 -6.9141 0.4129
-20.9015 -8.9366 0.4201
-34.3669 -18.4835 0.7212
-34.4736 -27.4402 0.8143
-28.7652 -27.4333 0.7347
-24.0520 -27.4409 0.6744
-22.8623 -31.3389 0.7170
-23.2459 -38.7056 0.8345
2.4204 -28.3841 0.5265
19.0805 -40.2438 0.8231
15.7109 -26.6824 0.5723
15.7168 -21.9424 0.4988
18.8921 -21.9359 0.5350
22.5962 -21.9282 0.5819
16.2530 -13.1696 0.3866
16.3186 -10.9633 0.3633
16.2442 -8.9197 0.3425
10.3535 -4.5337 0.2089
10.3513 -3.4685 0.2018
9.2636 -2.2072 0.1760
12.1115 -1.7622 0.2262
12.1092 -0.6675 0.2241
12.1070 0.4160 0.2239
12.1047 1.5059 0.2254
12.1024 2.6198 0.2289
10.3375 3.2272 0.2002
11.9841 4.9543 0.2397
10.3381 5.4010 0.2156
11.9258 7.6583 0.2619
11.9216 9.2574 0.2790
11.9200 11.0974 0.3010
11.9133 13.2668 0.3296
11.8127 15.7903 0.3645
21.8677 35.4386 0.7696
18.9365 37.8913 0.7829
16.1082 41.0385 0.8148
-9.7901 38.0429 0.7260
-19.7205 42.9189 0.8730
-24.6711 35.3332 0.7965
-21.4540 25.5250 0.6163
-21.4453 21.3180 0.5589
-20.7686 17.2463 0.4989
-22.3635 15.4178 0.5020
-22.7536 12.8523 0.4830
-28.3905 12.8407 0.5759
-21.2713 5.3392 0.4053
-21.2672 3.3559 0.3979
-21.2632 1.4287 0.3939
-21.2593 -0.4748 0.3930
-21.2553 -2.3850 0.3953
-21.2513 -4.3335 0.4009
-21.2472 -6.3537 0.4099
-21.2428 -8.4844 0.4228
-24.2499 -18.3677 0.5622
-30.1909 -27.4376 0.7540
-25.2270 -27.4225 0.6887
-23.4238 -30.5387 0.7113
-23.4155 -36.9458 0.8084
4.3030 -28.3864 0.5306
19.0646 -42.8414 0.8666
15.7141 -28.2183 0.5969
15.6469 -22.9929 0.5142
17.9934 -21.9377 0.5244
24.3594 -21.9246 0.8077
16.2510 -12.1863 0.5006
16.2466 -10.0507 0.4708
16.2426 -8.1405 0.4478
10.3276 -4.0673 0.2735
10.3255 -3.0337 0.2652
10.3235 -2.0534 0.2594
10.3215 -1.1079 0.2558
10.3196 -0.1807 0.2544
10.3177 0.7432 0.2549
10.3158 1.6787 0.2576
10.3138 2.6416 0.2624
10.3117 3.6494 0.2696
10.3095 4.7228 0.2795
11.9281 6.8135 0.3385
11.9236 8.3053 0.3581
11.9201 9.9958 0.3834
11.9160 11.9599 0.4161
11.9112 14.3107 0.4589
23.3572 33.7970 1.0125
20.6566 36.4729 1.0330
9.2153 20.3132 0.5497
-7.8734 38.8368 0.9766
-10.9777 36.8630 0.9479
-21.3994 28.3197 0.8748
-21.4501 23.6568 0.7870
-21.4421 19.7707 0.7188
-21.4378 16.4821 0.6664
-20.7603 13.1908 0.6062
-24.8838 12.8479 0.6902
-31.4734 12.8343 0.8377
-20.7462 6.3672 0.5348
-21.2695 4.4971 0.5358
-20.7382 2.4785 0.5147
-21.2615 0.6281 0.5242
-21.2576 -1.2745 0.5248
-21.2537 -3.1969 0.5297
-21.2496 -5.1712 0.5390
-21.2453 -7.2327 0.5531
-20.7141 -9.1895 0.5585
-33.5322 -27.4392 1.0678
-27.9955 -27.4309 0.9659
-23.6152 -27.6886 0.8969
-23.1888 -32.7056 0.9881
-17.6088 -30.2378 0.8624
0.2205 -24.0603 0.5930
2.8070 -28.3819 0.7029
19.7502 -40.2424 1.1048
15.7092 -25.8736 0.7460
16.1692 -21.9415 0.6717
19.4135 -21.9348 0.7219
23.2145 -21.9270 0.7870
16.2522 -12.8091 0.5100
16.2417 -10.5960 0.4779
16.2437 -8.6357 0.4534
10.3282 -4.3572 0.2763
10.3260 -3.3055 0.2672
9.2340 -2.0687 0.2332
10.3220 -1.3597 0.2566
10.3146 -0.4289 0.2544
10.3182 0.4942 0.2546
10.3163 1.4252 0.2567
10.3143 2.3791 0.2609
10.3123 3.3729 0.2674
10.3101 4.4264 0.2765
11.9274 6.4379 0.3340
10.2997 6.8124 0.3043
11.9210 9.5180 0.3759
11.9175 11.3996 0.4064
11.9126 13.6320 0.4462
24.0258 33.0371 1.0067
21.4228 35.7909 1.0280
18.5731 38.4551 1.0525
15.6676 41.5585 1.0946
-6.9257 38.9490 0.9750
-10.0364 36.9251 0.9430
-20.7927 28.9378 0.8782
-21.4526 24.8340 0.8088
-21.4441 20.7483 0.7354
-20.7677 16.7765 0.6580
-22.3626 14.9754 0.6633
-17.6802 9.6739 0.4967
-29.4388 12.8385 0.7915
-21.2706 5.0345 0.5387
-21.2666 3.0619 0.5295
-21.2626 1.1403 0.5248
-21.2587 -0.7622 0.5243
-21.2547 -2.6763 0.5280
-21.2507 -4.6333 0.5360
-21.2465 -6.6676 0.5488
-21.2421 -8.8188 0.5668
-24.1410 -18.8039 0.7541
-29.3806 -27.4351 0.9907
-24.5494 -27.4204 0.9070
-23.1138 -30.9929 0.9528
-22.8543 -37.1613 1.0752
-0.3580 -24.0604 0.5930
2.4031 -32.1805 0.7953
19.0603 -41.3197 1.1214
15.7122 -27.3393 0.7771
15.7021 -22.4168 0.6745
18.4940 -21.9367 0.7071
22.1262 -21.9292 0.7677
26.4776 -21.9203 0.8471
16.3192 -11.2148 0.4880
16.2447 -9.1439 0.4594
10.3233 -4.6506 0.2790
10.3266 -3.5816 0.2694
10.3245 -2.5751 0.2622
10.3226 -1.6131 0.2575
10.3206 -0.6780 0.2549
10.3187 0.2458 0.2544
10.3168 1.1732 0.2559
10.3149 2.1194 0.2595
10.3128 3.1007 0.2654
10.3107 4.1360 0.2738
10.3384 5.2633 0.2859
11.9266 7.4826 0.3470
11.9220 9.0581 0.3690
11.9187 10.8643 0.3975
11.9139 12.9896 0.4344
11.9086 15.5738 0.4832
22.1182 35.0140 1.0207
9.1802 17.8957 0.4957
16.4853 40.7328 1.0830
-5.9781 39.0437 0.9734
-10.0434 40.8026 1.0356
-17.6382 39.4777 1.0656
-21.4551 26.0790 0.8323
-21.4463 21.7727 0.7532
-21.4389 18.1876 0.6929
-22.3642 15.7683 0.6744
-22.2062 12.8534 0.6323
-27.6158 12.8423 0.7506
-21.2718 5.5780 0.5420
-21.2676 3.5859 0.5315
-21.2637 1.6538 0.5256
-21.2597 -0.2508 0.5240
-21.2558 -2.1587 0.5265
-21.2518 -4.1010 0.5334
-21.2477 -6.1109 0.5449
-21.2433 -8.2263 0.5614
-37.0356 -27.4430 1.1360
-30.8394 -27.4396 1.0173
-25.7670 -27.4241 0.9274
-23.4249 -29.8830 0.9358
-23.4177 -36.1025 1.0605
3.9972 -28.3834 0.7064
9.5047 -21.9791 0.5901
15.7155 -28.9335 0.8115
15.6852 -23.5792 0.6979
17.6109 -21.9385 0.6933
21.0892 -21.9313 0.7498
25.2209 -21.9228 0.8236
16.2469 -11.7500 0.4941
16.2458 -9.6660 0.4659
16.2419 -7.7919 0.4440
10.3272 -3.8623 0.2717
10.3251 -2.8406 0.2639
10.3231 -1.8684 0.2585
10.3211 -0.9277 0.2554
10.3192 -0.0023 0.2543
10.3173 0.9227 0.2553
10.3154 1.8623 0.2583
10.3134 2.8324 0.2636
10.3113 3.8511 0.2713
10.3035 4.9373 0.2816
11.9275 7.0894 0.3420
11.9229 8.6147 0.3625
11.9193 10.3513 0.3891
11.9152 12.3798 0.4235
11.9101 14.8232 0.4686
22.8333 34.2915 1.0153
20.1438 37.0465 1.0392
17.2814 39.9127 1.0719
-21.4579 27.3992 0.8577
-21.4485 22.8485 0.7723
-21.4407 19.0944 0.7076
-22.2202 16.4805 0.6818
-21.0276 12.8558 0.6074
-25.9712 12.8457 0.7141
-33.0899 12.8310 0.8747
-20.7454 5.9766 0.5321
-21.2687 4.1142 0.5339
-20.7375 2.1155 0.5137
-21.2608 0.2604 0.5240
-21.2569 -1.6437 0.5254
-21.2529 -3.5735 0.5311
-21.2488 -5.5618 0.5413
-21.2445 -7.6447 0.5564
-20.7133 -9.6210 0.5629
-17.7817 -10.2817 0.5062
-32.3724 -27.4379 1.0458
-27.0412 -27.4280 0.9492
-23.4287 -28.4518 0.9083
-23.4181 -34.2696 1.0229
-23.4032 -41.8348 1.1814
3.3034 -28.3825 0.7042
15.7191 -30.6764 0.8495
15.7072 -24.8899 0.7253
16.7612 -21.9403 0.6804
20.0990 -21.9334 0.7332
24.0316 -21.9253 0.8017
16.2513 -12.3590 0.5032
16.2469 -10.2033 0.4728
16.2429 -8.2785 0.4493
10.3278 -4.1482 0.2743
10.3256 -3.1096 0.2658
10.3236 -2.1261 0.2598
10.3217 -1.1785 0.2560
10.3197 -0.2505 0.2544
10.3178 0.6731 0.2548
10.3159 1.6073 0.2573
10.3139 2.5676 0.2619
10.3119 3.5713 0.2689
10.3097 4.6389 0.2786
10.3107 5.7976 0.2915
11.9238 8.1864 0.3565
11.9204 9.8596 0.3812
11.9164 11.7997 0.4133
11.9116 14.1161 0.4552
23.5673 33.6132 1.0117
20.8848 36.3016 1.0321
9.3965 20.3459 0.5526
-7.6071 38.8701 0.9761
-10.7122 36.8805 0.9465
-21.1008 28.3203 0.8704
-21.4508 23.9812 0.7930
-21.4427 20.0410 0.7233
-21.1414 16.4827 0.6607
-20.7607 13.3888 0.6088
-24.4782 12.8487 0.6813
-30.8779 12.8355 0.8241
-20.7466 6.5210 0.5360
-21.2698 4.6475 0.5366
-20.7385 2.6208 0.5152
-21.2618 0.7719 0.5243
-21.2579 -1.1304 0.5246
-21.2540 -3.0503 0.5292
-21.2499 -5.0195 0.5381
-21.2457 -7.0730 0.5519
-20.7145 -9.0226 0.5568
-34.3251 -18.7611 0.9641
-33.9990 -27.4397 1.0768
-28.3777 -27.4321 0.9727
-23.7842 -27.5080 0.8962
-23.2554 -32.3344 0.9816
-17.8691 -30.2136 0.8651
0.0579 -24.0603 0.5930
2.6135 -28.3817 0.7024
19.4142 -40.2431 1.1012
15.7100 -26.2735 0.7544
15.9419 -21.9419 0.6684
19.1512 -21.9353 0.7176
22.9032 -21.9276 0.7814
16.2526 -12.9883 0.5127
16.3183 -10.8038 0.4823
16.2439 -8.7772 0.4550
10.3284 -4.4397 0.2771
10.3262 -3.3826 0.2678
9.2329 -2.1340 0.2335
10.3222 -1.4307 0.2568
10.3203 -0.4990 0.2546
10.3184 0.4244 0.2545
10.3164 1.3542 0.2564
10.3145 2.3058 0.2605
10.3124 3.2960 0.2668
10.3103 4.3442 0.2757
10.3702 5.5072 0.2894
10.3939 6.7743 0.3058
11.9213 9.3870 0.3739
11.9178 11.2467 0.4038
11.9130 13.4480 0.4428
15.3031 20.7467 0.6353
21.6094 35.5552 1.0254
18.8316 38.3271 1.0524
15.8646 41.2351 1.0889
-6.6594 38.9773 0.9745
-9.7735 36.9424 0.9418
-20.7936 29.3555 0.8866
-21.4533 25.1767 0.8152
-21.4447 21.0312 0.7403
-20.7681 17.0101 0.6616
-22.3631 15.1956 0.6663
-23.1155 12.8515 0.6518
-28.9066 12.8396 0.7795
-21.2709 5.1865 0.5396
-21.2669 3.2088 0.5301
-21.2629 1.2844 0.5250
-21.2590 -0.6184 0.5242
-21.2550 -2.5306 0.5275
-21.2510 -4.4832 0.5353
-21.2468 -6.5104 0.5477
-21.2424 -8.6511 0.5653
-24.1108 -18.5200 0.7493
-29.7826 -27.4363 0.9980
-24.8862 -27.4215 0.9126
-23.4232 -30.9690 0.9569
-23.1642 -37.1010 1.0779
19.0619 -42.0681 1.1382
15.7131 -27.7734 0.7864
15.7028 -22.7433 0.6811
18.2423 -21.9372 0.7031
21.8297 -21.9298 0.7626
26.1173 -21.9210 0.8403
16.3195 -11.3782 0.4903
16.2450 -9.2891 0.4612
10.3234 -4.7348 0.2799
10.3268 -3.6600 0.2700
10.3247 -2.6494 0.2627
10.3227 -1.6846 0.2578
10.3208 -0.7480 0.2550
10.3189 0.1761 0.2543
10.3170 1.1027 0.2557
10.3150 2.0469 0.2592
10.3130 3.0250 0.2649
10.3109 4.0554 0.2731
11.9284 5.9716 0.3288
11.9268 7.3709 0.3455
11.9223 8.9319 0.3671
11.9191 10.7180 0.3950
11.9143 12.8151 0.4312
11.9090 15.3582 0.4790
22.2851 34.7559 1.0175
9.2677 17.7696 0.4939
16.7075 40.4931 1.0796
-5.9474 40.6791 1.0132
-9.7678 40.8706 1.0356
-21.4559 26.4421 0.8392
-21.4469 22.0696 0.7584
-21.4394 18.4385 0.6969
-22.3647 15.9959 0.6777
-21.8654 12.8541 0.6251
-27.1368 12.8432 0.7399
-21.2721 5.7320 0.5430
-21.2680 3.7339 0.5322
-21.2640 1.7985 0.5259
-21.2600 -0.1072 0.5240
-21.2561 -2.0137 0.5262
-21.2521 -3.9523 0.5327
-21.2480 -5.9558 0.5438
-21.2436 -8.0618 0.5600
-20.7124 -10.0595 0.5675
-37.5641 -27.4435 1.1465
-31.2590 -27.4367 1.0250
-26.1190 -27.4252 0.9334
-23.4255 -29.4715 0.9278
-23.4191 -35.5760 1.0497
3.8018 -28.3831 0.7057
9.4788 -41.8819 1.0583
9.3294 -21.9800 0.5885
15.7165 -29.4074 0.8217
15.6859 -23.9293 0.7051
17.3688 -21.9390 0.6896
20.8064 -21.9319 0.7450
24.8801 -21.9235 0.8172
16.2504 -11.9206 0.4967
16.2461 -9.8154 0.4678
16.2422 -7.9274 0.4454
10.3274 -3.9422 0.2724
10.3252 -2.9158 0.2644
10.3232 -1.9406 0.2589
10.3213 -0.9980 0.2556
10.3194 -0.0720 0.2543
10.3175 0.8524 0.2551
10.3155 1.7904 0.2580
10.3136 2.7576 0.2631
10.3115 3.7720 0.2706
10.3037 4.8520 0.2807
11.9277 6.9809 0.3406
11.9232 8.4928 0.3608
11.9196 10.2111 0.3868
11.9155 12.2139 0.4205
11.9105 14.6203 0.4647
23.0755 34.1527 1.0158
20.3525 36.8352 1.0372
17.5059 39.6938 1.0692
-21.4587 27.7849 0.8652
-21.4491 23.1609 0.7780
-21.4413 19.3562 0.7119
-21.9102 16.4811 0.6757
-20.7596 12.8855 0.6022
-25.5374 12.8465 0.7045
-32.4413 12.8323 0.8598
-20.7457 6.1287 0.5331
-21.2690 4.2636 0.5346
-20.7378 2.2572 0.5141
-21.2611 0.4041 0.5241
-21.2572 -1.4993 0.5252
-21.2532 -3.4261 0.5305
-21.2491 -5.4087 0.5404
-21.2448 -7.4831 0.5551
-20.7136 -9.4516 0.5611
-32.8198 -27.4384 1.0543
-27.4102 -27.4291 0.9557
-23.4682 -28.1105 0.9025
-22.8589 -32.9707 0.9887
-23.4046 -41.1818 1.1674
3.1091 -28.3823 0.7037
15.7202 -31.1959 0.8609
15.7080 -25.2679 0.7332
16.5280 -21.9407 0.6770
19.8285 -21.9340 0.7287
23.7086 -21.9260 0.7959
16.2517 -12.5335 0.5058
16.2472 -10.3572 0.4748
16.2432 -8.4174 0.4509
10.3279 -4.2295 0.2750
10.3258 -3.1860 0.2663
9.2947 -1.9797 0.2342
10.3218 -1.2492 0.2562
10.3199 -0.3203 0.2545
10.3180 0.6032 0.2547
10.3161 1.5360 0.2570
10.3141 2.4937 0.2615
10.3120 3.4935 0.2683
10.3099 4.5554 0.2778
10.3598 5.7334 0.2918
11.9240 8.0686 0.3548
11.9206 9.7249 0.3791
11.9169 11.6418 0.4106
11.9120 13.9245 0.4516
23.7572 33.4017 1.0102
21.0812 36.0767 1.0298
18.1846 38.6858 1.0535
15.3242 41.9822 1.1014
-7.3408 38.9021 0.9757
-10.4474 36.8980 0.9451
-17.8151 29.4410 0.8481
-20.8051 28.3209 0.8661
-21.4515 24.3105 0.7990
-21.4433 20.3147 0.7280
-20.8501 16.4833 0.6550
-22.3619 14.6362 0.6587
-17.7020 9.4450 0.4945
-30.3017 12.8367 0.8110
-21.2701 4.7984 0.5374
-20.7388 2.7633 0.5156
-21.2621 0.9158 0.5245
-21.2582 -0.9864 0.5245
-21.2543 -2.9039 0.5287
-21.2502 -4.8681 0.5373
-21.2460 -6.9141 0.5506
-20.9015 -8.9366 0.5602
-34.3251 -18.4611 0.9605
-34.4736 -27.4402 1.0859
-28.7652 -27.4333 0.9796
-24.0520 -27.4409 0.8993
-22.8623 -31.3389 0.9560
-23.2459 -38.7056 1.1127
-0.1047 -24.0603 0.5930
