ply
format ascii 1.0
element vertex 2177
property float32 x
property float32 y
property float32 z
end_header
4.2646 3.9978 1.8596
3.8907 4.3625 1.8596
3.4858 4.6924 1.8596
3.0530 4.9848 1.8596
2.5958 5.2374 1.8596
2.1179 5.4482 1.8596
1.6231 5.6156 1.8596
0.2223 1.1434 0.3706
0.1192 1.1580 0.3703
0.0154 1.1633 0.3701
-0.0885 1.1591 0.3698
-0.1914 1.1456 0.3695
-0.2926 1.1229 0.3691
-0.3913 1.0912 0.3688
-0.4866 1.0508 0.3684
-0.5779 1.0021 0.3680
-0.6643 0.9454 0.3676
-0.7451 0.8813 0.3671
-0.8198 0.8103 0.3667
-0.8878 0.7330 0.3662
-0.9485 0.6500 0.3658
-1.0016 0.5620 0.3654
-1.0465 0.4698 0.3649
-1.0830 0.3741 0.3645
-1.1108 0.2756 0.3641
-1.1297 0.1752 0.3637
-1.1397 0.0736 0.3633
-1.1406 -0.0284 0.3630
-1.1324 -0.1300 0.3626
-1.1154 -0.2304 0.3623
-1.0896 -0.3288 0.3620
-1.0551 -0.4245 0.3618
-1.0125 -0.5167 0.3616
-0.9618 -0.6047 0.3614
-0.9037 -0.6879 0.3613
-4.3166 -3.9416 1.8596
-3.9475 -4.3112 1.8596
-3.5469 -4.6463 1.8596
-3.1179 -4.9444 1.8596
-2.6641 -5.2030 1.8596
-2.1890 -5.4200 1.8596
-1.6965 -5.5938 1.8596
-0.2315 -1.1128 0.3616
-0.1313 -1.1296 0.3618
-0.0299 -1.1376 0.3620
0.0718 -1.1365 0.3623
0.1731 -1.1265 0.3626
0.2732 -1.1076 0.3629
0.3714 -1.0798 0.3633
0.4667 -1.0434 0.3636
0.5586 -0.9987 0.3640
0.6463 -0.9459 0.3644
0.7290 -0.8854 0.3649
0.8061 -0.8178 0.3653
0.8769 -0.7435 0.3657
0.9409 -0.6630 0.3662
0.9976 -0.5771 0.3666
1.0464 -0.4863 0.3671
1.0869 -0.3914 0.3675
1.1188 -0.2932 0.3679
1.1417 -0.1924 0.3683
1.1556 -0.0898 0.3687
1.1602 0.0138 0.3691
1.1554 0.1174 0.3694
1.1413 0.2202 0.3698
1.1179 0.3215 0.3701
1.0855 0.4203 0.3703
1.0443 0.5158 0.3705
0.9946 0.6073 0.3707
0.9368 0.6939 0.3709
4.3678 3.8848 1.8596
4.0036 4.2591 1.8596
3.6074 4.5995 1.8596
3.1824 4.9032 1.8596
2.7320 5.1677 1.8596
2.2598 5.3909 1.8596
1.7696 5.5711 1.8596
0.2521 1.1374 0.3706
0.1495 1.1547 0.3704
0.0458 1.1627 0.3702
-0.0581 1.1613 0.3699
-0.1614 1.1505 0.3696
-0.2632 1.1305 0.3692
-0.3627 1.1014 0.3689
-0.4591 1.0635 0.3685
-0.5516 1.0172 0.3681
-0.6395 0.9628 0.3677
-0.7220 0.9008 0.3673
-0.7986 0.8317 0.3668
-0.8686 0.7562 0.3664
-0.9315 0.6748 0.3659
-0.9869 0.5883 0.3655
-1.0342 0.4972 0.3651
-1.0732 0.4025 0.3646
-1.1036 0.3047 0.3642
-1.1251 0.2048 0.3638
-1.1377 0.1034 0.3634
-1.1412 0.0014 0.3631
-1.1358 -0.1004 0.3627
-1.1213 -0.2012 0.3624
-1.0980 -0.3003 0.3621
-1.0661 -0.3968 0.3619
-1.0258 -0.4901 0.3617
-0.9775 -0.5794 0.3615
-0.9215 -0.6641 0.3613
-4.4182 -3.8273 1.8596
-4.0589 -4.2064 1.8596
-3.6672 -4.5519 1.8596
-3.2463 -4.8611 1.8596
-2.7994 -5.1315 1.8596
-2.3301 -5.3609 1.8596
-1.8423 -5.5475 1.8596
-0.2605 -1.1062 0.3615
-0.1608 -1.1256 0.3617
-0.0597 -1.1362 0.3619
0.0420 -1.1378 0.3622
0.1435 -1.1304 0.3625
0.2441 -1.1140 0.3628
0.3429 -1.0888 0.3632
0.4392 -1.0550 0.3635
0.5321 -1.0126 0.3639
0.6211 -0.9622 0.3643
0.7053 -0.9039 0.3647
0.7841 -0.8383 0.3652
0.8569 -0.7659 0.3656
0.9229 -0.6872 0.3661
0.9818 -0.6028 0.3665
1.0329 -0.5134 0.3669
1.0759 -0.4196 0.3674
1.1103 -0.3223 0.3678
1.1360 -0.2221 0.3682
1.1525 -0.1200 0.3686
1.1598 -0.0166 0.3690
1.1577 0.0871 0.3693
1.1464 0.1902 0.3697
1.1257 0.2920 0.3700
1.0959 0.3916 0.3702
1.0573 0.4882 0.3705
1.0100 0.5810 0.3707
0.9545 0.6691 0.3708
4.4680 3.7691 1.8596
4.1137 4.1529 1.8596
3.7265 4.5036 1.8596
3.3096 4.8182 1.8596
2.8663 5.0944 1.8596
2.4001 5.3300 1.8596
1.9148 5.5229 1.8596
1.4141 5.6718 1.8596
0.1797 1.1506 0.3705
0.0762 1.1613 0.3702
-0.0277 1.1627 0.3700
-0.1313 1.1546 0.3697
-0.2336 1.1373 0.3694
-0.3339 1.1108 0.3690
-0.4313 1.0755 0.3686
-0.5250 1.0316 0.3682
-0.6143 0.9795 0.3678
-0.6985 0.9197 0.3674
-0.7769 0.8527 0.3670
-0.8488 0.7790 0.3665
-0.9139 0.6992 0.3661
-0.9715 0.6141 0.3656
-1.0212 0.5243 0.3652
-1.0627 0.4306 0.3647
-1.0956 0.3336 0.3643
-1.1197 0.2342 0.3639
-1.1349 0.1332 0.3635
-1.1411 0.0313 0.3632
-1.1383 -0.0706 0.3628
-1.1265 -0.1718 0.3625
-1.1057 -0.2715 0.3622
-1.0763 -0.3688 0.3619
-1.0384 -0.4631 0.3617
-0.9924 -0.5537 0.3615
-0.9386 -0.6398 0.3614
-0.8775 -0.7208 0.3612
-4.1676 -4.0987 1.8596
-3.7851 -4.4544 1.8596
-3.3724 -4.7745 1.8596
-2.9327 -5.0565 1.8596
-2.4696 -5.2981 1.8596
-1.9868 -5.4974 1.8596
-1.4882 -5.6528 1.8596
-0.1901 -1.1208 0.3617
-0.0894 -1.1340 0.3619
0.0122 -1.1382 0.3621
0.1139 -1.1335 0.3624
0.2148 -1.1198 0.3627
0.3142 -1.0971 0.3630
0.4113 -1.0658 0.3634
0.5053 -1.0259 0.3638
0.5955 -0.9777 0.3642
0.6812 -0.9217 0.3646
0.7616 -0.8583 0.3650
0.8362 -0.7878 0.3655
0.9043 -0.7109 0.3659
0.9653 -0.6281 0.3664
1.0188 -0.5400 0.3668
1.0642 -0.4475 0.3673
1.1012 -0.3511 0.3677
1.1294 -0.2517 0.3681
1.1486 -0.1500 0.3685
1.1586 -0.0469 0.3689
1.1593 0.0567 0.3692
1.1507 0.1601 0.3696
1.1327 0.2624 0.3699
1.1056 0.3628 0.3702
1.0695 0.4603 0.3704
1.0247 0.5543 0.3706
0.9716 0.6438 0.3708
0.9106 0.7282 0.3709
4.2209 4.0439 1.8596
3.8431 4.4045 1.8596
3.4346 4.7300 1.8596
2.9987 5.0177 1.8596
2.5388 5.2653 1.8596
2.0586 5.4709 1.8596
1.5620 5.6329 1.8596
0.2098 1.1457 0.3705
0.1066 1.1592 0.3703
0.0027 1.1632 0.3701
-0.1010 1.1579 0.3698
-0.2038 1.1433 0.3694
-0.3048 1.1195 0.3691
-0.4031 1.0867 0.3687
-0.4980 1.0453 0.3683
-0.5886 0.9956 0.3679
-0.6744 0.9380 0.3675
-0.7545 0.8730 0.3671
-0.8285 0.8012 0.3666
-0.8956 0.7232 0.3662
-0.9554 0.6396 0.3657
-1.0075 0.5510 0.3653
-1.0514 0.4584 0.3649
-1.0868 0.3623 0.3644
-1.1136 0.2635 0.3640
-1.1314 0.1629 0.3636
-1.1403 0.0612 0.3633
-1.1401 -0.0408 0.3629
-1.1309 -0.1423 0.3626
-1.1127 -0.2425 0.3623
-1.0858 -0.3406 0.3620
-1.0504 -0.4359 0.3618
-1.0067 -0.5276 0.3616
-0.9552 -0.6151 0.3614
-0.8961 -0.6976 0.3613
-4.2735 -3.9882 1.8596
-3.9004 -4.3538 1.8596
-3.4962 -4.6846 1.8596
-3.0640 -4.9780 1.8596
-2.6074 -5.2316 1.8596
-2.1300 -5.4435 1.8596
-1.6356 -5.6119 1.8596
-0.2194 -1.1153 0.3616
-0.1190 -1.1311 0.3618
-0.0176 -1.1379 0.3620
0.0841 -1.1358 0.3623
0.1854 -1.1247 0.3626
0.2853 -1.1047 0.3629
0.3831 -1.0758 0.3633
0.4781 -1.0384 0.3637
0.5695 -0.9927 0.3641
0.6566 -0.9389 0.3645
0.7387 -0.8776 0.3649
0.8150 -0.8091 0.3654
0.8851 -0.7340 0.3658
0.9482 -0.6529 0.3662
1.0039 -0.5663 0.3667
1.0517 -0.4750 0.3671
1.0912 -0.3797 0.3676
1.1220 -0.2811 0.3680
1.1439 -0.1800 0.3684
1.1566 -0.0772 0.3688
1.1601 0.0264 0.3691
1.1542 0.1299 0.3695
1.1389 0.2326 0.3698
1.1145 0.3336 0.3701
1.0810 0.4321 0.3703
1.0387 0.5272 0.3706
0.9880 0.6181 0.3707
0.9292 0.7041 0.3709
4.3254 3.9320 1.8596
3.9571 4.3024 1.8596
3.5572 4.6385 1.8596
3.1289 4.9375 1.8596
2.6757 5.1971 1.8596
2.2011 5.4152 1.8596
1.7089 5.5900 1.8596
0.2398 1.1400 0.3706
0.1370 1.1562 0.3704
0.0332 1.1630 0.3701
-0.0707 1.1605 0.3699
-0.1739 1.1486 0.3695
-0.2755 1.1274 0.3692
-0.3746 1.0972 0.3688
-0.4706 1.0583 0.3685
-0.5626 1.0110 0.3681
-0.6498 0.9556 0.3676
-0.7317 0.8928 0.3672
-0.8075 0.8229 0.3668
-0.8767 0.7466 0.3663
-0.9387 0.6646 0.3659
-0.9930 0.5774 0.3654
-1.0394 0.4859 0.3650
-1.0773 0.3907 0.3646
-1.1067 0.2927 0.3642
-1.1271 0.1925 0.3638
-1.1386 0.0910 0.3634
-1.1411 -0.0110 0.3630
-1.1345 -0.1127 0.3627
-1.1189 -0.2133 0.3624
-1.0946 -0.3121 0.3621
-1.0616 -0.4083 0.3618
-1.0203 -0.5012 0.3616
-0.9711 -0.5899 0.3615
-0.9142 -0.6740 0.3613
-4.3764 -3.8750 1.8596
-4.0130 -4.2502 1.8596
-3.6176 -4.5915 1.8596
-3.1933 -4.8961 1.8596
-2.7434 -5.1616 1.8596
-2.2717 -5.3859 1.8596
-1.7819 -5.5672 1.8596
-0.2484 -1.1090 0.3615
-0.1485 -1.1274 0.3617
-0.0473 -1.1369 0.3620
0.0544 -1.1374 0.3622
0.1558 -1.1289 0.3625
0.2562 -1.1115 0.3628
0.3547 -1.0852 0.3632
0.4506 -1.0503 0.3636
0.5432 -1.0069 0.3640
0.6316 -0.9555 0.3644
0.7152 -0.8963 0.3648
0.7933 -0.8299 0.3652
0.8653 -0.7567 0.3657
0.9305 -0.6772 0.3661
0.9884 -0.5922 0.3666
1.0386 -0.5022 0.3670
1.0806 -0.4080 0.3674
1.1139 -0.3102 0.3679
1.1385 -0.2098 0.3683
1.1539 -0.1074 0.3687
1.1600 -0.0040 0.3690
1.1569 0.0997 0.3694
1.1443 0.2027 0.3697
1.1226 0.3043 0.3700
1.0917 0.4036 0.3703
1.0520 0.4997 0.3705
1.0037 0.5919 0.3707
0.9472 0.6795 0.3708
4.4267 3.8174 1.8596
4.0683 4.1974 1.8596
3.6774 4.5438 1.8596
3.2571 4.8539 1.8596
2.8108 5.1253 1.8596
2.3421 5.3557 1.8596
1.8546 5.5434 1.8596
0.2696 1.1335 0.3706
0.1672 1.1524 0.3704
0.0636 1.1620 0.3702
-0.0403 1.1622 0.3699
-0.1438 1.1530 0.3696
-0.2459 1.1346 0.3693
-0.3459 1.1070 0.3690
-0.4429 1.0706 0.3686
-0.5361 1.0257 0.3682
-0.6248 0.9726 0.3678
-0.7083 0.9119 0.3673
-0.7860 0.8441 0.3669
-0.8571 0.7696 0.3665
-0.9213 0.6892 0.3660
-0.9779 0.6034 0.3656
-1.0267 0.5131 0.3651
-1.0671 0.4189 0.3647
-1.0990 0.3216 0.3643
-1.1221 0.2220 0.3639
-1.1362 0.1208 0.3635
-1.1413 0.0189 0.3631
-1.1373 -0.0830 0.3628
-1.1244 -0.1840 0.3625
-1.1026 -0.2834 0.3622
-1.0722 -0.3805 0.3619
-1.0333 -0.4744 0.3617
-0.9863 -0.5644 0.3615
-0.9316 -0.6499 0.3614
-4.4763 -3.7592 1.8596
-4.1229 -4.1438 1.8596
-3.7365 -4.4953 1.8596
-3.3203 -4.8108 1.8596
-2.8776 -5.0880 1.8596
-2.4119 -5.3246 1.8596
-1.9270 -5.5186 1.8596
-1.4266 -5.6686 1.8596
-0.1780 -1.1229 0.3617
-0.0771 -1.1350 0.3619
0.0246 -1.1381 0.3622
0.1262 -1.1323 0.3624
0.2270 -1.1175 0.3628
0.3261 -1.0938 0.3631
0.4229 -1.0614 0.3635
0.5165 -1.0205 0.3638
0.6062 -0.9714 0.3642
0.6913 -0.9144 0.3647
0.7710 -0.8501 0.3651
0.8449 -0.7788 0.3655
0.9121 -0.7011 0.3660
0.9722 -0.6176 0.3664
1.0247 -0.5290 0.3669
1.0691 -0.4359 0.3673
1.1051 -0.3392 0.3677
1.1322 -0.2394 0.3681
1.1503 -0.1376 0.3685
1.1592 -0.0344 0.3689
1.1588 0.0693 0.3693
1.1490 0.1726 0.3696
1.1299 0.2747 0.3699
1.1017 0.3748 0.3702
1.0645 0.4719 0.3704
1.0187 0.5654 0.3706
0.9646 0.6544 0.3708
4.5251 3.7003 1.8596
4.1768 4.0895 1.8596
3.7950 4.4460 1.8596
3.3830 4.7670 1.8596
2.9440 5.0500 1.8596
2.4814 5.2926 1.8596
1.9991 5.4930 1.8596
1.5008 5.6495 1.8596
0.1973 1.1478 0.3705
0.0940 1.1602 0.3703
-0.0099 1.1631 0.3700
-0.1136 1.1567 0.3697
-0.2162 1.1409 0.3694
-0.3169 1.1160 0.3691
-0.4148 1.0822 0.3687
-0.5092 1.0397 0.3683
-0.5993 0.9890 0.3679
-0.6844 0.9305 0.3675
-0.7639 0.8646 0.3670
-0.8370 0.7920 0.3666
-0.9033 0.7133 0.3661
-0.9622 0.6291 0.3657
-1.0132 0.5400 0.3653
-1.0561 0.4469 0.3648
-1.0906 0.3504 0.3644
-1.1162 0.2514 0.3640
-1.1330 0.1506 0.3636
-1.1407 0.0488 0.3632
-1.1394 -0.0532 0.3629
-1.1291 -0.1546 0.3625
-1.1099 -0.2545 0.3623
-1.0820 -0.3524 0.3620
-1.0455 -0.4472 0.3618
-1.0009 -0.5385 0.3616
-0.9484 -0.6254 0.3614
-0.8884 -0.7073 0.3613
-4.2299 -4.0344 1.8596
-3.8529 -4.3959 1.8596
-3.4451 -4.7223 1.8596
-3.0098 -5.0110 1.8596
-2.5504 -5.2597 1.8596
-2.0707 -5.4663 1.8596
-1.5745 -5.6294 1.8596
-0.2072 -1.1177 0.3616
-0.1067 -1.1324 0.3618
-0.0052 -1.1382 0.3621
0.0965 -1.1349 0.3624
0.1976 -1.1227 0.3627
0.2973 -1.1016 0.3630
0.3948 -1.0717 0.3633
0.4894 -1.0333 0.3637
0.5804 -0.9866 0.3641
0.6669 -0.9319 0.3645
0.7483 -0.8697 0.3650
0.8239 -0.8003 0.3654
0.8931 -0.7245 0.3658
0.9554 -0.6426 0.3663
1.0102 -0.5555 0.3667
1.0570 -0.4636 0.3672
1.0954 -0.3678 0.3676
1.1252 -0.2689 0.3680
1.1460 -0.1676 0.3684
1.1576 -0.0647 0.3688
1.1599 0.0390 0.3692
1.1528 0.1425 0.3695
1.1364 0.2450 0.3698
1.1109 0.3458 0.3701
1.0763 0.4438 0.3704
1.0330 0.5384 0.3706
0.9813 0.6288 0.3708
0.9216 0.7142 0.3709
4.2824 3.9787 1.8596
3.9101 4.3451 1.8596
3.5066 4.6768 1.8596
3.0751 4.9712 1.8596
2.6191 5.2258 1.8596
2.1421 5.4388 1.8596
1.6481 5.6083 1.8596
0.2273 1.1425 0.3706
0.1244 1.1575 0.3704
0.0205 1.1632 0.3701
-0.0833 1.1595 0.3698
-0.1863 1.1465 0.3695
-0.2877 1.1242 0.3692
-0.3865 1.0930 0.3688
-0.4820 1.0530 0.3684
-0.5734 1.0047 0.3680
-0.6601 0.9484 0.3676
-0.7412 0.8846 0.3672
-0.8163 0.8140 0.3667
-0.8846 0.7370 0.3663
-0.9457 0.6542 0.3658
-0.9991 0.5665 0.3654
-1.0444 0.4745 0.3649
-1.0814 0.3789 0.3645
-1.1096 0.2806 0.3641
-1.1290 0.1802 0.3637
-1.1394 0.0786 0.3633
-1.1407 -0.0234 0.3630
-1.1331 -0.1250 0.3626
-1.1164 -0.2255 0.3623
-1.0910 -0.3240 0.3621
-1.0571 -0.4198 0.3618
-1.0148 -0.5122 0.3616
-0.9645 -0.6004 0.3614
-0.9067 -0.6839 0.3613
-4.3340 -3.9224 1.8596
-3.9666 -4.2936 1.8596
-3.5675 -4.6305 1.8596
-3.1399 -4.9305 1.8596
-2.6872 -5.1911 1.8596
-2.2131 -5.4103 1.8596
-1.7213 -5.5862 1.8596
-0.2364 -1.1117 0.3616
-0.1363 -1.1290 0.3618
-0.0350 -1.1374 0.3620
0.0667 -1.1368 0.3623
0.1681 -1.1272 0.3626
0.2683 -1.1087 0.3629
0.3665 -1.0814 0.3632
0.4621 -1.0454 0.3636
0.5542 -1.0011 0.3640
0.6420 -0.9487 0.3644
0.7250 -0.8886 0.3648
0.8024 -0.8213 0.3653
0.8736 -0.7473 0.3657
0.9379 -0.6672 0.3662
0.9949 -0.5815 0.3666
1.0441 -0.4910 0.3670
1.0851 -0.3963 0.3675
1.1174 -0.2982 0.3679
1.1408 -0.1974 0.3683
1.1551 -0.0949 0.3687
1.1601 0.0086 0.3691
1.1558 0.1122 0.3694
1.1422 0.2151 0.3697
1.1193 0.3165 0.3700
1.0873 0.4154 0.3703
1.0466 0.5112 0.3705
0.9973 0.6028 0.3707
0.9398 0.6897 0.3709
4.3850 3.8653 1.8596
4.0225 4.2413 1.8596
3.6278 4.5835 1.8596
3.2042 4.8890 1.8596
2.7550 5.1555 1.8596
2.2837 5.3809 1.8596
1.7943 5.5632 1.8596
0.2572 1.1363 0.3706
0.1547 1.1541 0.3704
0.0510 1.1625 0.3702
-0.0530 1.1616 0.3699
-0.1563 1.1513 0.3696
-0.2582 1.1317 0.3693
-0.3579 1.1030 0.3689
-0.4544 1.0656 0.3685
-0.5471 1.0197 0.3681
-0.6353 0.9657 0.3677
-0.7181 0.9040 0.3673
-0.7950 0.8353 0.3668
-0.8653 0.7601 0.3664
-0.9286 0.6790 0.3660
-0.9843 0.5927 0.3655
-1.0320 0.5018 0.3651
-1.0715 0.4072 0.3646
-1.1023 0.3096 0.3642
-1.1243 0.2098 0.3638
-1.1373 0.1084 0.3634
-1.1413 0.0065 0.3631
-1.1363 -0.0953 0.3627
-1.1222 -0.1962 0.3624
-1.0994 -0.2954 0.3621
-1.0679 -0.3921 0.3619
-1.0280 -0.4855 0.3617
-0.9800 -0.5751 0.3615
-0.9244 -0.6600 0.3613
-4.4352 -3.8076 1.8596
-4.0776 -4.1883 1.8596
-3.6874 -4.5356 1.8596
-3.2678 -4.8466 1.8596
-2.8221 -5.1190 1.8596
-2.3539 -5.3505 1.8596
-1.8669 -5.5393 1.8596
-0.2654 -1.1050 0.3615
-0.1658 -1.1249 0.3617
-0.0647 -1.1359 0.3619
0.0370 -1.1379 0.3622
0.1385 -1.1310 0.3625
0.2391 -1.1151 0.3628
0.3380 -1.0903 0.3631
0.4344 -1.0568 0.3635
0.5276 -1.0149 0.3639
0.6168 -0.9649 0.3643
0.7013 -0.9070 0.3647
0.7803 -0.8418 0.3651
0.8534 -0.7697 0.3656
0.9198 -0.6912 0.3660
0.9790 -0.6071 0.3665
1.0306 -0.5179 0.3669
1.0740 -0.4244 0.3674
1.1088 -0.3272 0.3678
1.1349 -0.2272 0.3682
1.1519 -0.1251 0.3686
1.1596 -0.0218 0.3690
1.1581 0.0819 0.3693
1.1471 0.1851 0.3697
1.1270 0.2870 0.3700
1.0976 0.3868 0.3702
1.0594 0.4835 0.3705
1.0126 0.5765 0.3707
0.9575 0.6648 0.3708
4.4847 3.7492 1.8596
4.1321 4.1346 1.8596
3.7465 4.4869 1.8596
3.3310 4.8035 1.8596
2.8889 5.0816 1.8596
2.4238 5.3192 1.8596
1.9393 5.5144 1.8596
1.4393 5.6655 1.8596
0.1848 1.1498 0.3705
0.0814 1.1610 0.3703
-0.0225 1.1628 0.3700
-0.1261 1.1552 0.3697
-0.2286 1.1384 0.3694
-0.3290 1.1124 0.3690
-0.4265 1.0775 0.3686
-0.5204 1.0340 0.3682
-0.6100 0.9823 0.3678
-0.6944 0.9229 0.3674
-0.7731 0.8562 0.3670
-0.8454 0.7828 0.3665
-0.9108 0.7033 0.3661
-0.9688 0.6185 0.3656
-1.0189 0.5289 0.3652
-1.0608 0.4353 0.3648
-1.0941 0.3385 0.3643
-1.1187 0.2392 0.3639
-1.1344 0.1382 0.3635
-1.1410 0.0364 0.3632
-1.1387 -0.0656 0.3628
-1.1273 -0.1668 0.3625
-1.1070 -0.2666 0.3622
-1.0780 -0.3641 0.3620
-1.0405 -0.4585 0.3617
-0.9949 -0.5493 0.3615
-0.9415 -0.6356 0.3614
-0.8807 -0.7169 0.3613
-4.1858 -4.0802 1.8596
-3.8049 -4.4375 1.8596
-3.3936 -4.7595 1.8596
-2.9551 -5.0434 1.8596
-2.4931 -5.2871 1.8596
-2.0112 -5.4885 1.8596
-1.5132 -5.6461 1.8596
-0.1951 -1.1199 0.3616
-0.0944 -1.1336 0.3619
0.0072 -1.1382 0.3621
0.1088 -1.1339 0.3624
0.2098 -1.1207 0.3627
0.3093 -1.0985 0.3630
0.4065 -1.0675 0.3634
0.5007 -1.0281 0.3638
0.5911 -0.9803 0.3642
0.8777 -0.7055 0.3659
0.9382 -0.6251 0.3663
0.9915 -0.5394 0.3667
1.0369 -0.4493 0.3672
1.0741 -0.3554 0.3676
1.1027 -0.2584 0.3680
1.1226 -0.1591 0.3684
1.1335 -0.0583 0.3688
1.1353 0.0432 0.3691
1.1279 0.1445 0.3695
1.1114 0.2448 0.3698
1.0859 0.3433 0.3700
1.0516 0.4391 0.3703
1.0088 0.5316 0.3705
0.9578 0.6198 0.3707
0.8989 0.7030 0.3708
0.8328 0.7807 0.3709
3.8094 4.2712 1.8596
3.4129 4.5942 1.8596
2.9891 4.8805 1.8596
2.5415 5.1279 1.8596
2.0736 5.3343 1.8596
0.3167 1.0959 0.3706
0.2176 1.1192 0.3705
0.1167 1.1335 0.3703
0.0151 1.1387 0.3700
-0.0866 1.1346 0.3697
-0.1874 1.1214 0.3694
-0.2865 1.0992 0.3691
-0.3831 1.0682 0.3687
-0.4764 1.0287 0.3683
-0.5657 0.9810 0.3679
-0.6503 0.9255 0.3675
-0.7295 0.8628 0.3671
-0.8027 0.7933 0.3667
-0.8692 0.7176 0.3662
-0.9287 0.6364 0.3658
-0.9807 0.5503 0.3654
-1.0247 0.4600 0.3649
-1.0604 0.3663 0.3645
-1.0877 0.2699 0.3641
-1.1063 0.1715 0.3637
-1.1160 0.0720 0.3634
-1.1169 -0.0279 0.3630
-1.1090 -0.1273 0.3627
-1.0923 -0.2256 0.3624
-1.0670 -0.3220 0.3621
-1.0333 -0.4157 0.3619
-0.9915 -0.5060 0.3617
-0.9420 -0.5922 0.3615
-0.8850 -0.6737 0.3614
-0.8211 -0.7498 0.3613
-3.8649 -4.2210 1.8596
-3.4727 -4.5491 1.8596
-3.0527 -4.8410 1.8596
-2.6084 -5.0942 1.8596
-2.1432 -5.3067 1.8596
-0.3229 -1.0647 0.3615
-0.2267 -1.0898 0.3617
-0.1286 -1.1063 0.3619
-0.0293 -1.1140 0.3621
0.0703 -1.1130 0.3624
0.1695 -1.1032 0.3627
0.2676 -1.0846 0.3630
0.3637 -1.0574 0.3633
0.4570 -1.0217 0.3637
0.5470 -0.9779 0.3641
0.6328 -0.9262 0.3645
0.7138 -0.8670 0.3649
0.7892 -0.8007 0.3653
0.8586 -0.7279 0.3657
0.9212 -0.6492 0.3662
0.9767 -0.5650 0.3666
1.0244 -0.4761 0.3670
1.0641 -0.3832 0.3675
1.0953 -0.2870 0.3679
1.1177 -0.1883 0.3683
1.1312 -0.0879 0.3687
1.1357 0.0135 0.3690
1.1310 0.1149 0.3694
1.1172 0.2156 0.3697
1.0943 0.3147 0.3700
1.0626 0.4114 0.3702
1.0222 0.5049 0.3704
0.9735 0.5944 0.3706
0.9169 0.6792 0.3708
0.8529 0.7586 0.3709
3.9198 4.1701 1.8596
3.5320 4.5033 1.8596
3.1159 4.8006 1.8596
2.6749 5.0596 1.8596
2.2125 5.2782 1.8596
1.7325 5.4546 1.8596
0.2468 1.1133 0.3705
0.1464 1.1303 0.3703
0.0448 1.1381 0.3701
-0.0569 1.1367 0.3698
-0.1580 1.1262 0.3695
-0.2577 1.1066 0.3692
-0.3551 1.0782 0.3688
-0.4495 1.0411 0.3685
-0.5400 0.9958 0.3681
-0.6261 0.9426 0.3677
-0.7069 0.8819 0.3672
-0.7819 0.8143 0.3668
-0.8504 0.7404 0.3664
-0.9120 0.6607 0.3659
-0.9662 0.5760 0.3655
-1.0126 0.4869 0.3651
-1.0508 0.3941 0.3647
-1.0806 0.2984 0.3642
-1.1017 0.2005 0.3638
-1.1141 0.1012 0.3635
-1.1176 0.0014 0.3631
-1.1122 -0.0983 0.3628
-1.0981 -0.1970 0.3625
-1.0753 -0.2940 0.3622
-1.0440 -0.3886 0.3620
-1.0046 -0.4799 0.3617
-0.9573 -0.5674 0.3616
-0.9024 -0.6503 0.3614
-0.8405 -0.7281 0.3613
-3.9740 -4.1184 1.8596
-3.5905 -4.4567 1.8596
-3.1784 -4.7594 1.8596
-2.7408 -5.0242 1.8596
-2.2814 -5.2488 1.8596
-1.8037 -5.4315 1.8596
-0.2551 -1.0833 0.3616
-0.1574 -1.1023 0.3618
-0.0584 -1.1127 0.3620
0.0411 -1.1142 0.3623
0.1406 -1.1070 0.3626
0.2390 -1.0909 0.3629
0.3358 -1.0662 0.3632
0.4300 -1.0330 0.3636
0.5211 -0.9916 0.3640
0.6082 -0.9421 0.3644
0.6906 -0.8851 0.3648
0.7678 -0.8208 0.3652
0.8390 -0.7499 0.3656
0.9036 -0.6728 0.3661
0.9612 -0.5902 0.3665
1.0113 -0.5026 0.3669
1.0533 -0.4108 0.3673
1.0870 -0.3155 0.3678
1.1121 -0.2174 0.3682
1.1282 -0.1174 0.3686
1.1353 -0.0163 0.3689
1.1333 0.0852 0.3693
1.1221 0.1862 0.3696
1.1019 0.2859 0.3699
1.0728 0.3834 0.3701
1.0349 0.4779 0.3704
0.9886 0.5687 0.3706
0.9343 0.6549 0.3707
0.8724 0.7359 0.3708
4.0276 4.0661 1.8596
3.6486 4.4094 1.8596
3.2404 4.7174 1.8596
2.8064 4.9879 1.8596
2.3499 5.2185 1.8596
1.8747 5.4074 1.8596
0.2759 1.1066 0.3706
0.1759 1.1263 0.3704
0.0746 1.1368 0.3702
-0.0271 1.1381 0.3699
-0.1285 1.1302 0.3696
-0.2287 1.1133 0.3693
-0.3268 1.0874 0.3689
-0.4222 1.0528 0.3686
-0.5139 1.0099 0.3682
-0.6014 0.9589 0.3678
-0.6838 0.9004 0.3674
-0.7606 0.8348 0.3669
-0.8311 0.7627 0.3665
-0.8948 0.6846 0.3661
-0.9512 0.6013 0.3656
-0.9999 0.5134 0.3652
-1.0405 0.4216 0.3648
-1.0728 0.3266 0.3644
-1.0964 0.2293 0.3640
-1.1114 0.1304 0.3636
-1.1175 0.0306 0.3632
-1.1147 -0.0692 0.3629
-1.1031 -0.1683 0.3626
-1.0828 -0.2658 0.3623
-1.0541 -0.3612 0.3620
-1.0170 -0.4536 0.3618
-0.9719 -0.5423 0.3616
-0.9192 -0.6266 0.3615
-0.8594 -0.7059 0.3613
-4.0805 -4.0130 1.8596
-3.7059 -4.3612 1.8596
-3.3018 -4.6746 1.8596
-2.8714 -4.9507 1.8596
-2.4180 -5.1873 1.8596
-1.9453 -5.3824 1.8596
-0.2833 -1.0761 0.3616
-0.1862 -1.0977 0.3617
-0.0875 -1.1105 0.3620
0.0120 -1.1147 0.3622
0.1115 -1.1100 0.3625
0.2103 -1.0965 0.3628
0.3077 -1.0744 0.3631
0.4027 -1.0436 0.3635
0.4948 -1.0045 0.3638
0.5831 -0.9574 0.3642
0.6670 -0.9025 0.3646
0.7458 -0.8404 0.3651
0.8188 -0.7713 0.3655
0.8854 -0.6960 0.3659
0.9451 -0.6149 0.3664
0.9974 -0.5287 0.3668
1.0419 -0.4381 0.3672
1.0780 -0.3437 0.3676
1.1056 -0.2464 0.3681
1.1244 -0.1469 0.3684
1.1342 -0.0460 0.3688
1.1348 0.0555 0.3692
1.1264 0.1567 0.3695
1.1088 0.2569 0.3698
1.0822 0.3551 0.3701
1.0469 0.4506 0.3703
1.0030 0.5425 0.3705
0.9510 0.6302 0.3707
0.8913 0.7128 0.3708
4.1326 3.9593 1.8596
3.7627 4.3123 1.8596
3.3628 4.6310 1.8596
2.9359 4.9127 1.8596
2.4857 5.1552 1.8596
2.0156 5.3565 1.8596
0.3048 1.0992 0.3706
0.2054 1.1214 0.3704
0.1044 1.1346 0.3702
0.0027 1.1387 0.3700
-0.0989 1.1335 0.3697
-0.1995 1.1192 0.3694
-0.2984 1.0959 0.3690
-0.3946 1.0639 0.3687
-0.4875 1.0233 0.3683
-0.5763 0.9747 0.3679
-0.6602 0.9183 0.3675
-0.7387 0.8547 0.3671
-0.8111 0.7844 0.3666
-0.8768 0.7080 0.3662
-0.9354 0.6262 0.3658
-0.9864 0.5395 0.3653
-1.0294 0.4488 0.3649
-1.0642 0.3547 0.3645
-1.0904 0.2580 0.3641
-1.1079 0.1595 0.3637
-1.1166 0.0599 0.3633
-1.1164 -0.0400 0.3630
-1.1074 -0.1394 0.3627
-1.0897 -0.2375 0.3624
-1.0634 -0.3336 0.3621
-1.0287 -0.4269 0.3619
-0.9859 -0.5167 0.3617
-0.9354 -0.6024 0.3615
-0.8776 -0.6832 0.3614
-0.8129 -0.7586 0.3613
-3.8188 -4.2627 1.8596
-3.4230 -4.5866 1.8596
-2.9999 -4.8739 1.8596
-2.5529 -5.1222 1.8596
-2.0855 -5.3296 1.8596
-0.3113 -1.0682 0.3615
-0.2148 -1.0922 0.3617
-0.1165 -1.1077 0.3619
-0.0172 -1.1144 0.3621
0.0824 -1.1123 0.3624
0.1815 -1.1014 0.3627
0.2794 -1.0817 0.3630
0.3752 -1.0535 0.3634
0.4682 -1.0168 0.3637
0.5577 -0.9720 0.3641
0.6429 -0.9194 0.3645
0.7233 -0.8593 0.3649
0.7980 -0.7922 0.3654
0.8666 -0.7187 0.3658
0.9284 -0.6392 0.3662
0.9829 -0.5544 0.3667
1.0297 -0.4650 0.3671
1.0683 -0.3717 0.3675
1.0985 -0.2752 0.3679
1.1198 -0.1762 0.3683
1.1323 -0.0756 0.3687
1.1356 0.0258 0.3691
1.1298 0.1272 0.3694
1.1149 0.2277 0.3697
1.0909 0.3266 0.3700
1.0581 0.4229 0.3702
1.0167 0.5160 0.3705
0.9671 0.6050 0.3706
0.9095 0.6892 0.3708
0.8446 0.7678 0.3709
3.8743 4.2124 1.8596
3.4828 4.5414 1.8596
3.0635 4.8342 1.8596
2.6197 5.0884 1.8596
2.1551 5.3019 1.8596
0.3335 1.0910 0.3707
0.2347 1.1159 0.3705
0.1341 1.1317 0.3703
0.0325 1.1384 0.3700
-0.0692 1.1359 0.3698
-0.1702 1.1243 0.3695
-0.2697 1.1036 0.3691
-0.3667 1.0741 0.3688
-0.4607 1.0360 0.3684
-0.5507 0.9897 0.3680
-0.6362 0.9356 0.3676
-0.7163 0.8740 0.3672
-0.7906 0.8057 0.3668
-0.8583 0.7310 0.3663
-0.9190 0.6507 0.3659
-0.9723 0.5654 0.3654
-1.0177 0.4758 0.3650
-1.0549 0.3826 0.3646
-1.0836 0.2866 0.3642
-1.1037 0.1885 0.3638
-1.1150 0.0891 0.3634
-1.1174 -0.0108 0.3631
-1.1110 -0.1104 0.3627
-1.0958 -0.2089 0.3624
-1.0719 -0.3057 0.3622
-1.0397 -0.3999 0.3619
-0.9993 -0.4908 0.3617
-0.9510 -0.5778 0.3615
-0.8953 -0.6601 0.3614
-0.8325 -0.7372 0.3613
-3.9291 -4.1613 1.8596
-3.5419 -4.4955 1.8596
-3.1265 -4.7937 1.8596
-2.6861 -5.0536 1.8596
-2.2242 -5.2732 1.8596
-0.3391 -1.0596 0.3615
-0.2433 -1.0861 0.3616
-0.1455 -1.1041 0.3618
-0.0464 -1.1133 0.3621
0.0533 -1.1138 0.3623
0.1526 -1.1055 0.3626
0.2509 -1.0884 0.3629
0.3474 -1.0627 0.3633
0.4413 -1.0284 0.3636
0.5319 -0.9860 0.3640
0.6185 -0.9356 0.3644
0.7003 -0.8776 0.3648
0.7767 -0.8126 0.3652
0.8472 -0.7409 0.3657
0.9110 -0.6631 0.3661
0.9677 -0.5798 0.3665
1.0168 -0.4917 0.3670
1.0579 -0.3994 0.3674
1.0905 -0.3037 0.3678
1.1145 -0.2054 0.3682
1.1296 -0.1052 0.3686
1.1356 -0.0039 0.3690
1.1324 0.0975 0.3693
1.1202 0.1984 0.3696
1.0988 0.2978 0.3699
1.0686 0.3950 0.3702
1.0297 0.4891 0.3704
0.9824 0.5794 0.3706
0.9272 0.6651 0.3707
0.8644 0.7454 0.3709
3.9832 4.1096 1.8596
3.6005 4.4487 1.8596
3.1890 4.7524 1.8596
2.7520 5.0181 1.8596
2.2931 5.2437 1.8596
1.8158 5.4274 1.8596
0.2638 1.1095 0.3706
0.1637 1.1280 0.3704
0.0623 1.1374 0.3701
-0.0395 1.1376 0.3699
-0.1408 1.1287 0.3696
-0.2407 1.1106 0.3692
-0.3386 1.0837 0.3689
-0.4336 1.0481 0.3685
-0.5248 1.0041 0.3681
-0.6117 0.9522 0.3677
-0.6934 0.8928 0.3673
-0.7695 0.8264 0.3669
-0.8392 0.7535 0.3664
-0.9020 0.6747 0.3660
-0.9575 0.5908 0.3656
-1.0052 0.5024 0.3651
-1.0449 0.4102 0.3647
-1.0761 0.3149 0.3643
-1.0987 0.2174 0.3639
-1.1126 0.1183 0.3635
-1.1176 0.0185 0.3632
-1.1138 -0.0813 0.3628
-1.1011 -0.1802 0.3625
-1.0798 -0.2776 0.3623
-1.0500 -0.3726 0.3620
-1.0119 -0.4646 0.3618
-0.9659 -0.5527 0.3616
-0.9123 -0.6365 0.3614
-0.8516 -0.7152 0.3613
-4.0366 -4.0571 1.8596
-3.6583 -4.4012 1.8596
-3.2508 -4.7102 1.8596
-2.8174 -4.9816 1.8596
-2.3614 -5.2132 1.8596
-1.8867 -5.4032 1.8596
-0.2716 -1.0792 0.3616
-0.1743 -1.0997 0.3618
-0.0755 -1.1115 0.3620
0.0241 -1.1146 0.3622
0.1236 -1.1088 0.3625
0.2223 -1.0943 0.3628
0.3193 -1.0711 0.3632
0.4141 -1.0393 0.3635
0.5057 -0.9992 0.3639
0.5936 -0.9511 0.3643
0.6769 -0.8954 0.3647
0.7550 -0.8323 0.3651
0.8272 -0.7625 0.3655
0.8930 -0.6864 0.3660
0.9519 -0.6047 0.3664
1.0032 -0.5179 0.3668
1.0467 -0.4268 0.3673
1.0818 -0.3320 0.3677
1.1084 -0.2344 0.3681
1.1261 -0.1347 0.3685
1.1348 -0.0336 0.3689
1.1343 0.0679 0.3692
1.1247 0.1690 0.3695
1.1060 0.2689 0.3698
1.0784 0.3669 0.3701
1.0420 0.4619 0.3703
0.9971 0.5534 0.3705
0.9442 0.6405 0.3707
0.8835 0.7225 0.3708
4.0894 4.0039 1.8596
3.7157 4.3530 1.8596
3.3122 4.6673 1.8596
2.8824 4.9443 1.8596
2.4295 5.1819 1.8596
1.9573 5.3781 1.8596
0.2928 1.1024 0.3706
0.1932 1.1235 0.3704
0.0920 1.1356 0.3702
-0.0097 1.1385 0.3699
-0.1112 1.1322 0.3697
-0.2116 1.1168 0.3693
-0.3102 1.0925 0.3690
-0.4061 1.0594 0.3686
-0.4985 1.0178 0.3682
-0.5867 0.9682 0.3678
-0.6701 0.9109 0.3674
-0.7478 0.8465 0.3670
-0.8195 0.7754 0.3666
-0.8844 0.6984 0.3661
-0.9420 0.6159 0.3657
-0.9921 0.5287 0.3653
-1.0341 0.4375 0.3648
-1.0678 0.3431 0.3644
-1.0930 0.2461 0.3640
-1.1094 0.1474 0.3636
-1.1170 0.0477 0.3633
-1.1158 -0.0521 0.3629
-1.1057 -0.1514 0.3626
-1.0869 -0.2493 0.3623
-1.0596 -0.3451 0.3621
-1.0239 -0.4380 0.3618
-0.9802 -0.5274 0.3616
-0.9288 -0.6125 0.3615
-0.8701 -0.6927 0.3614
-0.8046 -0.7674 0.3613
-3.7723 -4.3040 1.8596
-3.3730 -4.6235 1.8596
-2.9468 -4.9062 1.8596
-2.4971 -5.1496 1.8596
-2.0274 -5.3520 1.8596
-0.2997 -1.0716 0.3615
-0.2030 -1.0946 0.3617
-0.1045 -1.1090 0.3619
-0.0051 -1.1146 0.3622
0.0945 -1.1114 0.3624
0.1935 -1.0995 0.3627
0.2911 -1.0788 0.3631
0.3866 -1.0495 0.3634
0.4793 -1.0118 0.3638
0.5683 -0.9660 0.3642
0.6530 -0.9125 0.3646
0.7327 -0.8515 0.3650
0.8067 -0.7836 0.3654
0.8745 -0.7093 0.3659
0.9354 -0.6292 0.3663
0.9890 -0.5438 0.3667
1.0348 -0.4539 0.3672
1.0724 -0.3601 0.3676
1.1015 -0.2632 0.3680
1.1218 -0.1640 0.3684
1.1332 -0.0633 0.3688
1.1354 0.0381 0.3691
1.1285 0.1395 0.3694
1.1124 0.2398 0.3698
1.0874 0.3384 0.3700
1.0535 0.4344 0.3703
1.0111 0.5271 0.3705
0.9605 0.6155 0.3707
0.9020 0.6990 0.3708
0.8363 0.7770 0.3709
3.8283 4.2542 1.8596
3.4333 4.5790 1.8596
3.0108 4.8672 1.8596
2.5643 5.1165 1.8596
2.0973 5.3250 1.8596
0.3216 1.0945 0.3706
0.2225 1.1183 0.3705
0.1217 1.1330 0.3703
0.0201 1.1386 0.3700
-0.0815 1.1350 0.3697
-0.1824 1.1223 0.3694
-0.2816 1.1005 0.3691
-0.3783 1.0699 0.3687
-0.4719 1.0308 0.3684
-0.5614 0.9835 0.3680
-0.6462 0.9285 0.3676
-0.7257 0.8661 0.3671
-0.7992 0.7969 0.3667
-0.8661 0.7215 0.3663
-0.9259 0.6406 0.3658
-0.9783 0.5547 0.3654
-1.0227 0.4646 0.3650
-1.0588 0.3710 0.3646
-1.0865 0.2747 0.3641
-1.1055 0.1765 0.3638
-1.1157 0.0770 0.3634
-1.1171 -0.0229 0.3630
-1.1096 -0.1224 0.3627
-1.0933 -0.2208 0.3624
-1.0685 -0.3173 0.3621
-1.0352 -0.4111 0.3619
-0.9938 -0.5016 0.3617
-0.9446 -0.5880 0.3615
-0.8880 -0.6698 0.3614
-0.8245 -0.7461 0.3613
-3.8836 -4.2038 1.8596
-3.4929 -4.5337 1.8596
-3.0742 -4.8274 1.8596
-2.6310 -5.0825 1.8596
-2.1668 -5.2971 1.8596
-0.3276 -1.0632 0.3615
-0.2315 -1.0887 0.3617
-0.1335 -1.1056 0.3619
-0.0343 -1.1139 0.3621
0.0654 -1.1133 0.3623
0.1646 -1.1039 0.3626
0.2627 -1.0857 0.3630
0.3589 -1.0589 0.3633
0.4525 -1.0237 0.3637
0.5426 -0.9803 0.3640
0.6287 -0.9289 0.3645
0.7099 -0.8701 0.3649
0.7856 -0.8042 0.3653
0.8553 -0.7317 0.3657
0.9183 -0.6532 0.3662
0.9741 -0.5693 0.3666
1.0222 -0.4807 0.3670
1.0623 -0.3879 0.3675
1.0939 -0.2919 0.3679
1.1168 -0.1933 0.3683
1.1308 -0.0929 0.3687
1.1357 0.0084 0.3690
1.1314 0.1099 0.3694
1.1181 0.2106 0.3697
1.0956 0.3098 0.3700
1.0643 0.4066 0.3702
1.0244 0.5003 0.3704
0.9761 0.5901 0.3706
0.9199 0.6751 0.3708
0.8562 0.7548 0.3709
3.9383 4.1526 1.8596
3.5519 4.4876 1.8596
3.1371 4.7867 1.8596
2.6973 5.0477 1.8596
2.2360 5.2683 1.8596
1.7568 5.4469 1.8596
0.2518 1.1122 0.3705
0.1514 1.1297 0.3703
0.0499 1.1379 0.3701
-0.0518 1.1370 0.3698
-0.1530 1.1269 0.3695
-0.2528 1.1078 0.3692
-0.3503 1.0798 0.3688
-0.4448 1.0432 0.3685
-0.5356 0.9982 0.3681
-0.6219 0.9454 0.3677
-0.7030 0.8851 0.3673
-0.7783 0.8178 0.3668
-0.8472 0.7442 0.3664
-0.9092 0.6648 0.3660
-0.9637 0.5803 0.3655
-1.0105 0.4914 0.3651
-1.0491 0.3988 0.3647
-1.0793 0.3032 0.3643
-1.1009 0.2054 0.3639
-1.1137 0.1062 0.3635
-1.1176 0.0064 0.3631
-1.1127 -0.0934 0.3628
-1.0990 -0.1921 0.3625
-1.0766 -0.2893 0.3622
-1.0458 -0.3840 0.3620
-1.0067 -0.4755 0.3618
-0.9598 -0.5632 0.3616
-0.9053 -0.6463 0.3614
-0.8438 -0.7244 0.3613
-3.9923 -4.1007 1.8596
-3.6103 -4.4407 1.8596
-3.1995 -4.7453 1.8596
-2.7631 -5.0119 1.8596
-2.3047 -5.2386 1.8596
-1.8278 -5.4234 1.8596
-0.2599 -1.0821 0.3616
-0.1623 -1.1016 0.3618
-0.0634 -1.1124 0.3620
0.0362 -1.1144 0.3623
0.1356 -1.1075 0.3625
0.2341 -1.0919 0.3629
0.3310 -1.0677 0.3632
0.4254 -1.0349 0.3636
0.5166 -0.9938 0.3639
0.6039 -0.9448 0.3643
0.6866 -0.8881 0.3647
0.7641 -0.8242 0.3652
0.8356 -0.7536 0.3656
0.9006 -0.6768 0.3660
0.9585 -0.5944 0.3665
1.0090 -0.5071 0.3669
1.0514 -0.4155 0.3673
1.0855 -0.3203 0.3677
1.1110 -0.2224 0.3682
1.1276 -0.1224 0.3685
1.1352 -0.0213 0.3689
1.1336 0.0802 0.3693
1.1229 0.1812 0.3696
1.1031 0.2810 0.3699
1.0744 0.3786 0.3701
1.0370 0.4733 0.3704
0.9911 0.5643 0.3706
0.9372 0.6507 0.3707
0.8756 0.7320 0.3708
4.0456 4.0481 1.8596
3.6681 4.3931 1.8596
3.2613 4.7030 1.8596
2.8285 4.9754 1.8596
2.3731 5.2080 1.8596
1.8987 5.3990 1.8596
0.2808 1.1054 0.3706
0.1809 1.1255 0.3704
0.0797 1.1365 0.3702
-0.0221 1.1382 0.3699
-0.1235 1.1308 0.3696
-0.2237 1.1143 0.3693
-0.3220 1.0889 0.3690
-0.4175 1.0548 0.3686
-0.5095 1.0122 0.3682
-0.5971 0.9616 0.3678
-0.6798 0.9035 0.3674
-0.7569 0.8382 0.3670
-0.8277 0.7664 0.3665
-0.8918 0.6886 0.3661
-0.9485 0.6055 0.3656
-0.9976 0.5178 0.3652
-1.0387 0.4262 0.3648
-1.0714 0.3314 0.3644
-1.0955 0.2342 0.3640
-1.1108 0.1353 0.3636
-1.1174 0.0356 0.3632
-1.1150 -0.0642 0.3629
-1.1039 -0.1634 0.3626
-1.0841 -0.2610 0.3623
-1.0557 -0.3565 0.3620
-1.0190 -0.4491 0.3618
-0.9743 -0.5379 0.3616
-0.9220 -0.6225 0.3615
-0.8625 -0.7021 0.3613
-0.7962 -0.7761 0.3613
-3.7253 -4.3447 1.8596
-3.3226 -4.6599 1.8596
-2.8933 -4.9379 1.8596
-2.4410 -5.1765 1.8596
-1.9692 -5.3737 1.8596
-0.2881 -1.0748 0.3616
-0.1911 -1.0968 0.3617
-0.0925 -1.1101 0.3619
0.0070 -1.1147 0.3622
0.1066 -1.1104 0.3625
0.2054 -1.0974 0.3628
0.3029 -1.0757 0.3631
0.3981 -1.0453 0.3634
0.4903 -1.0067 0.3638
0.5788 -0.9599 0.3642
0.8596 -0.6910 0.3659
0.9189 -0.6122 0.3663
0.9710 -0.5283 0.3667
1.0155 -0.4400 0.3671
1.0519 -0.3480 0.3676
1.0799 -0.2530 0.3680
1.0994 -0.1558 0.3684
1.1100 -0.0571 0.3687
1.1117 0.0423 0.3691
1.1045 0.1415 0.3694
1.0883 0.2397 0.3697
1.0633 0.3361 0.3700
1.0297 0.4300 0.3702
0.9878 0.5205 0.3704
0.9378 0.6069 0.3706
0.8802 0.6884 0.3707
0.8154 0.7644 0.3708
0.7441 0.8343 0.3708
3.3427 4.4997 1.8596
2.9277 4.7801 1.8596
2.4892 5.0224 1.8596
0.4049 1.0415 0.3707
0.3102 1.0730 0.3705
0.2130 1.0959 0.3704
0.1143 1.1099 0.3702
0.0147 1.1150 0.3699
-0.0848 1.1110 0.3696
-0.1835 1.0981 0.3693
-0.2805 1.0764 0.3690
-0.3751 1.0461 0.3687
-0.4666 1.0074 0.3683
-0.5540 0.9607 0.3679
-0.6369 0.9064 0.3675
-0.7144 0.8450 0.3671
-0.7861 0.7769 0.3667
-0.8513 0.7029 0.3662
-0.9096 0.6233 0.3658
-0.9605 0.5390 0.3654
-1.0036 0.4506 0.3650
-1.0387 0.3588 0.3646
-1.0654 0.2644 0.3642
-1.0836 0.1680 0.3638
-1.0932 0.0706 0.3634
-1.0941 -0.0273 0.3631
-1.0864 -0.1247 0.3628
-1.0700 -0.2210 0.3625
-1.0453 -0.3155 0.3622
-1.0123 -0.4072 0.3620
-0.9714 -0.4957 0.3618
-0.9228 -0.5802 0.3616
-0.8670 -0.6600 0.3615
-0.8044 -0.7346 0.3614
-0.7355 -0.8033 0.3613
-3.4012 -4.4556 1.8596
-2.9899 -4.7414 1.8596
-2.5547 -4.9894 1.8596
-0.4080 -1.0103 0.3615
-0.3163 -1.0431 0.3616
-0.2221 -1.0676 0.3618
-0.1259 -1.0838 0.3619
-0.0287 -1.0914 0.3622
0.0689 -1.0903 0.3624
0.1661 -1.0807 0.3627
0.2621 -1.0625 0.3630
0.3562 -1.0358 0.3634
0.4477 -1.0009 0.3637
0.5358 -0.9579 0.3641
0.6199 -0.9072 0.3645
0.6991 -0.8492 0.3649
0.7730 -0.7843 0.3653
0.8409 -0.7130 0.3658
0.9023 -0.6358 0.3662
0.9565 -0.5534 0.3666
1.0033 -0.4663 0.3670
1.0421 -0.3753 0.3674
1.0726 -0.2811 0.3678
1.0946 -0.1844 0.3682
1.1078 -0.0861 0.3686
1.1121 0.0132 0.3690
1.1075 0.1125 0.3693
1.0940 0.2111 0.3696
1.0715 0.3081 0.3699
1.0405 0.4028 0.3701
1.0009 0.4944 0.3703
0.9533 0.5820 0.3705
0.8978 0.6651 0.3707
0.8351 0.7428 0.3708
0.7656 0.8145 0.3708
3.4593 4.4107 1.8596
3.0518 4.7019 1.8596
2.6198 4.9555 1.8596
0.4320 1.0306 0.3707
0.3382 1.0647 0.3706
0.2417 1.0901 0.3704
0.1433 1.1068 0.3702
0.0439 1.1144 0.3700
-0.0557 1.1131 0.3697
-0.1547 1.1028 0.3694
-0.2523 1.0837 0.3691
-0.3477 1.0558 0.3688
-0.4402 1.0196 0.3684
-0.5289 0.9752 0.3680
-0.6131 0.9231 0.3676
-0.6923 0.8637 0.3672
-0.7658 0.7975 0.3668
-0.8329 0.7251 0.3664
-0.8933 0.6471 0.3659
-0.9464 0.5642 0.3655
-0.9918 0.4769 0.3651
-1.0293 0.3860 0.3647
-1.0585 0.2923 0.3643
-1.0792 0.1964 0.3639
-1.0913 0.0992 0.3635
-1.0948 0.0014 0.3632
-1.0895 -0.0963 0.3629
-1.0757 -0.1930 0.3626
-1.0534 -0.2880 0.3623
-1.0228 -0.3807 0.3620
-0.9842 -0.4702 0.3618
-0.9378 -0.5559 0.3617
-0.8841 -0.6371 0.3615
-0.8234 -0.7133 0.3614
-0.7563 -0.7838 0.3613
-3.5167 -4.3650 1.8596
-3.1130 -4.6615 1.8596
-2.6844 -4.9208 1.8596
-0.4343 -0.9992 0.3614
-0.3435 -1.0343 0.3616
-0.2499 -1.0613 0.3617
-0.1542 -1.0799 0.3619
-0.0573 -1.0900 0.3621
0.0403 -1.0915 0.3624
0.1377 -1.0844 0.3626
0.2341 -1.0687 0.3629
0.3289 -1.0445 0.3633
0.4212 -1.0119 0.3636
0.5104 -0.9713 0.3640
0.5957 -0.9228 0.3644
0.6765 -0.8669 0.3648
0.7520 -0.8040 0.3652
0.8217 -0.7345 0.3656
0.8850 -0.6590 0.3661
0.9414 -0.5780 0.3665
0.9904 -0.4922 0.3669
1.0316 -0.4023 0.3673
1.0645 -0.3090 0.3677
1.0890 -0.2129 0.3681
1.1049 -0.1150 0.3685
1.1118 -0.0159 0.3689
1.1098 0.0835 0.3692
1.0988 0.1824 0.3695
1.0790 0.2799 0.3698
1.0504 0.3754 0.3701
1.0134 0.4679 0.3703
0.9680 0.5568 0.3705
0.9148 0.6413 0.3706
0.8542 0.7206 0.3707
0.7866 0.7941 0.3708
3.5735 4.3186 1.8596
3.1737 4.6204 1.8596
2.7486 4.8853 1.8596
2.3016 5.1111 1.8596
0.3660 1.0556 0.3706
0.2702 1.0836 0.3705
0.1723 1.1028 0.3703
0.0731 1.1131 0.3701
-0.0266 1.1144 0.3698
-0.1258 1.1068 0.3695
-0.2239 1.0902 0.3692
-0.3201 1.0649 0.3689
-0.4134 1.0310 0.3685
-0.5033 0.9890 0.3681
-0.5890 0.9391 0.3677
-0.6697 0.8818 0.3673
-0.7449 0.8176 0.3669
-0.8140 0.7469 0.3665
-0.8764 0.6705 0.3661
-0.9316 0.5889 0.3656
-0.9793 0.5028 0.3652
-1.0192 0.4129 0.3648
-1.0508 0.3200 0.3644
-1.0740 0.2246 0.3640
-1.0887 0.1277 0.3636
-1.0946 0.0300 0.3633
-1.0920 -0.0678 0.3629
-1.0806 -0.1648 0.3626
-1.0608 -0.2604 0.3624
-1.0326 -0.3538 0.3621
-0.9963 -0.4443 0.3619
-0.9522 -0.5312 0.3617
-0.9006 -0.6138 0.3616
-0.8419 -0.6916 0.3614
-0.7766 -0.7638 0.3614
-0.7053 -0.8300 0.3613
-3.2339 -4.5785 1.8596
-2.8123 -4.8489 1.8596
-2.3682 -5.0806 1.8596
-0.3704 -1.0249 0.3615
-0.2775 -1.0542 0.3617
-0.1824 -1.0753 0.3618
-0.0857 -1.0879 0.3620
0.0117 -1.0920 0.3623
0.1092 -1.0874 0.3625
0.2060 -1.0742 0.3628
0.3014 -1.0524 0.3632
0.3945 -1.0223 0.3635
0.4847 -0.9840 0.3639
0.5712 -0.9378 0.3643
0.6533 -0.8840 0.3647
0.7305 -0.8231 0.3651
0.8019 -0.7555 0.3655
0.8672 -0.6817 0.3659
0.9257 -0.6023 0.3664
0.9769 -0.5178 0.3668
1.0203 -0.4290 0.3672
1.0558 -0.3366 0.3676
1.0828 -0.2413 0.3680
1.1011 -0.1438 0.3684
1.1107 -0.0450 0.3688
1.1113 0.0544 0.3691
1.1030 0.1535 0.3694
1.0857 0.2515 0.3697
1.0597 0.3477 0.3700
1.0251 0.4412 0.3702
0.9821 0.5312 0.3704
0.9312 0.6170 0.3706
0.8727 0.6979 0.3707
0.8071 0.7733 0.3708
0.7350 0.8423 0.3709
3.2936 4.5358 1.8596
2.8755 4.8117 1.8596
2.4345 5.0491 1.8596
0.3935 1.0458 0.3707
0.2985 1.0763 0.3705
0.2011 1.0981 0.3703
0.1022 1.1110 0.3701
0.0026 1.1150 0.3699
-0.0969 1.1099 0.3696
-0.1954 1.0960 0.3693
-0.2922 1.0732 0.3690
-0.3864 1.0418 0.3686
-0.4774 1.0021 0.3682
-0.5644 0.9545 0.3679
-0.6466 0.8993 0.3675
-0.7235 0.8371 0.3670
-0.7944 0.7683 0.3666
-0.8588 0.6935 0.3662
-0.9162 0.6133 0.3658
-0.9662 0.5285 0.3653
-1.0083 0.4396 0.3649
-1.0424 0.3475 0.3645
-1.0681 0.2527 0.3641
-1.0853 0.1562 0.3637
-1.0938 0.0587 0.3634
-1.0936 -0.0392 0.3630
-1.0848 -0.1365 0.3627
-1.0675 -0.2326 0.3624
-1.0417 -0.3268 0.3622
-1.0077 -0.4182 0.3620
-0.9659 -0.5062 0.3618
-0.9164 -0.5901 0.3616
-0.8598 -0.6693 0.3615
-0.7964 -0.7432 0.3614
-0.7268 -0.8112 0.3613
-3.3526 -4.4923 1.8596
-2.9382 -4.7736 1.8596
-2.5004 -5.0168 1.8596
-0.3971 -1.0147 0.3615
-0.3050 -1.0465 0.3616
-0.2105 -1.0700 0.3618
-0.1142 -1.0851 0.3620
-0.0169 -1.0917 0.3622
0.0807 -1.0896 0.3625
0.1778 -1.0789 0.3628
0.2737 -1.0597 0.3631
0.3675 -1.0320 0.3634
0.4586 -0.9961 0.3638
0.5463 -0.9521 0.3642
0.6298 -0.9005 0.3646
0.7084 -0.8417 0.3650
0.7816 -0.7760 0.3654
0.8488 -0.7039 0.3658
0.9093 -0.6261 0.3662
0.9626 -0.5430 0.3667
1.0084 -0.4554 0.3671
1.0462 -0.3640 0.3675
1.0757 -0.2695 0.3679
1.0967 -0.1725 0.3683
1.1088 -0.0740 0.3687
1.1120 0.0253 0.3690
1.1063 0.1245 0.3693
1.0917 0.2230 0.3696
1.0682 0.3198 0.3699
1.0361 0.4141 0.3702
0.9956 0.5053 0.3704
0.9469 0.5924 0.3705
0.8906 0.6748 0.3707
0.8270 0.7518 0.3708
0.7567 0.8228 0.3708
3.4111 4.4480 1.8596
3.0005 4.7348 1.8596
2.5658 4.9837 1.8596
0.4208 1.0352 0.3707
0.3266 1.0682 0.3706
0.2298 1.0926 0.3704
0.1313 1.1082 0.3702
0.0318 1.1148 0.3700
-0.0678 1.1123 0.3697
-0.1667 1.1010 0.3694
-0.2641 1.0807 0.3691
-0.3591 1.0519 0.3687
-0.4512 1.0146 0.3684
-0.5394 0.9693 0.3680
-0.6230 0.9162 0.3676
-0.7015 0.8560 0.3672
-0.7743 0.7891 0.3667
-0.8406 0.7159 0.3663
-0.9001 0.6373 0.3659
-0.9523 0.5538 0.3655
-0.9968 0.4660 0.3650
-1.0333 0.3747 0.3646
-1.0614 0.2807 0.3642
-1.0811 0.1846 0.3638
-1.0922 0.0873 0.3635
-1.0946 -0.0105 0.3631
-1.0883 -0.1081 0.3628
-1.0734 -0.2047 0.3625
-1.0501 -0.2995 0.3623
-1.0185 -0.3917 0.3620
-0.9789 -0.4808 0.3618
-0.9317 -0.5660 0.3616
-0.8771 -0.6467 0.3615
-0.8156 -0.7222 0.3614
-0.7478 -0.7920 0.3613
-3.4691 -4.4030 1.8596
-3.0621 -4.6951 1.8596
-2.6308 -4.9497 1.8596
-0.4234 -1.0039 0.3615
-0.3322 -1.0380 0.3616
-0.2384 -1.0640 0.3617
-0.1425 -1.0816 0.3619
-0.0454 -1.0907 0.3621
0.0522 -1.0911 0.3624
0.1495 -1.0830 0.3627
0.2458 -1.0662 0.3630
0.3403 -1.0410 0.3633
0.4323 -1.0074 0.3637
0.5210 -0.9658 0.3640
0.6058 -0.9164 0.3644
0.6859 -0.8596 0.3648
0.7608 -0.7959 0.3653
0.8298 -0.7256 0.3657
0.8923 -0.6494 0.3661
0.9478 -0.5678 0.3665
0.9958 -0.4815 0.3670
1.0360 -0.3911 0.3674
1.0680 -0.2974 0.3678
1.0914 -0.2011 0.3682
1.1062 -0.1030 0.3686
1.1120 -0.0038 0.3689
1.1089 0.0955 0.3692
1.0969 0.1943 0.3696
1.0760 0.2917 0.3698
1.0464 0.3868 0.3701
1.0083 0.4790 0.3703
0.9620 0.5673 0.3705
0.9079 0.6512 0.3706
0.8464 0.7299 0.3708
0.7780 0.8027 0.3708
3.5264 4.3572 1.8596
3.1234 4.6546 1.8596
2.6954 4.9148 1.8596
2.2459 5.1358 1.8596
0.3544 1.0594 0.3706
0.2584 1.0864 0.3705
0.1603 1.1046 0.3703
0.0610 1.1138 0.3700
-0.0387 1.1140 0.3698
-0.1378 1.1052 0.3695
-0.2357 1.0876 0.3692
-0.3316 1.0612 0.3688
-0.4246 1.0264 0.3685
-0.5140 0.9833 0.3681
-0.5990 0.9325 0.3677
-0.6791 0.8744 0.3673
-0.7536 0.8093 0.3669
-0.8219 0.7380 0.3664
-0.8835 0.6609 0.3660
-0.9378 0.5787 0.3656
-0.9846 0.4921 0.3652
-1.0234 0.4018 0.3647
-1.0541 0.3085 0.3643
-1.0762 0.2129 0.3640
-1.0898 0.1159 0.3636
-1.0948 0.0181 0.3632
-1.0910 -0.0796 0.3629
-1.0787 -0.1765 0.3626
-1.0578 -0.2719 0.3623
-1.0286 -0.3650 0.3621
-0.9913 -0.4551 0.3619
-0.9463 -0.5415 0.3617
-0.8938 -0.6236 0.3615
-0.8343 -0.7006 0.3614
-0.7683 -0.7722 0.3614
-0.6962 -0.8376 0.3613
-3.1840 -4.6133 1.8596
-2.7595 -4.8791 1.8596
-0.4495 -0.9924 0.3614
-0.3593 -1.0289 0.3615
-0.2661 -1.0573 0.3617
-0.1707 -1.0773 0.3619
-0.0739 -1.0889 0.3621
0.0236 -1.0919 0.3623
0.1211 -1.0862 0.3626
0.2177 -1.0720 0.3629
0.3128 -1.0492 0.3632
0.4056 -1.0181 0.3636
0.4954 -0.9788 0.3639
0.5814 -0.9317 0.3643
0.6630 -0.8770 0.3647
0.7395 -0.8152 0.3651
0.8102 -0.7468 0.3656
0.8747 -0.6723 0.3660
0.9323 -0.5923 0.3664
0.9826 -0.5073 0.3668
1.0251 -0.4180 0.3673
1.0595 -0.3252 0.3677
1.0855 -0.2296 0.3681
1.1028 -0.1319 0.3684
1.1112 -0.0329 0.3688
1.1108 0.0665 0.3691
1.1014 0.1655 0.3695
1.0830 0.2633 0.3698
1.0560 0.3592 0.3700
1.0203 0.4523 0.3702
0.9764 0.5419 0.3704
0.9245 0.6272 0.3706
0.8651 0.7074 0.3707
0.7987 0.7820 0.3708
3.6392 4.2634 1.8596
3.2441 4.5713 1.8596
2.8231 4.8426 1.8596
2.3795 5.0753 1.8596
0.3821 1.0499 0.3707
0.2867 1.0794 0.3705
0.1891 1.1002 0.3703
0.0901 1.1120 0.3701
-0.0095 1.1149 0.3699
-0.1089 1.1087 0.3696
-0.2073 1.0936 0.3693
-0.3038 1.0698 0.3689
-0.3977 1.0374 0.3686
-0.4882 0.9968 0.3682
-0.5746 0.9482 0.3678
-0.6562 0.8921 0.3674
-0.7324 0.8290 0.3670
-0.8026 0.7595 0.3666
-0.8662 0.6840 0.3661
-0.9227 0.6032 0.3657
-0.9717 0.5179 0.3653
-1.0129 0.4286 0.3649
-1.0460 0.3361 0.3645
-1.0706 0.2411 0.3641
-1.0868 0.1444 0.3637
-1.0942 0.0468 0.3633
-1.0930 -0.0510 0.3630
-1.0832 -0.1483 0.3627
-1.0648 -0.2442 0.3624
-1.0380 -0.3380 0.3622
-1.0031 -0.4291 0.3619
-0.9603 -0.5166 0.3617
-0.9099 -0.6000 0.3616
-0.8524 -0.6786 0.3615
-0.7883 -0.7518 0.3614
-0.7179 -0.8191 0.3613
-3.3036 -4.5284 1.8596
-2.8862 -4.8053 1.8596
-2.4457 -5.0437 1.8596
-0.3860 -1.0190 0.3615
-0.2936 -1.0498 0.3616
-0.1988 -1.0723 0.3618
-0.1024 -1.0864 0.3620
-0.0050 -1.0919 0.3622
0.0926 -1.0888 0.3625
0.1895 -1.0771 0.3628
0.2852 -1.0568 0.3631
0.3787 -1.0281 0.3635
0.4695 -0.9911 0.3638
0.5566 -0.9463 0.3642
0.6396 -0.8938 0.3646
0.7176 -0.8340 0.3650
0.7901 -0.7675 0.3654
0.8565 -0.6947 0.3659
0.9161 -0.6162 0.3663
0.9686 -0.5326 0.3667
1.0135 -0.4445 0.3671
1.0503 -0.3527 0.3675
1.0787 -0.2578 0.3679
1.0986 -0.1606 0.3683
1.1097 -0.0620 0.3687
1.1118 0.0373 0.3691
1.1050 0.1366 0.3694
1.0893 0.2349 0.3697
1.0648 0.3314 0.3699
1.0316 0.4254 0.3702
0.9901 0.5161 0.3704
0.9405 0.6027 0.3706
0.8832 0.6845 0.3707
0.8188 0.7608 0.3708
0.7478 0.8310 0.3708
3.3626 4.4848 1.8596
2.9489 4.7671 1.8596
2.5115 5.0113 1.8596
0.4095 1.0397 0.3707
0.3149 1.0717 0.3706
0.2179 1.0950 0.3704
0.1192 1.1095 0.3702
0.0197 1.1149 0.3699
-0.0799 1.1114 0.3697
-0.1786 1.0990 0.3694
-0.2758 1.0777 0.3690
-0.3705 1.0478 0.3687
-0.4621 1.0095 0.3683
-0.5498 0.9632 0.3679
-0.6329 0.9093 0.3675
-0.7107 0.8482 0.3671
-0.7827 0.7805 0.3667
-0.8482 0.7067 0.3663
-0.9069 0.6274 0.3658
-0.9582 0.5433 0.3654
-1.0017 0.4551 0.3650
-1.0372 0.3634 0.3646
-1.0643 0.2691 0.3642
-1.0829 0.1729 0.3638
-1.0929 0.0754 0.3634
-1.0943 -0.0224 0.3631
-1.0870 -0.1199 0.3628
-1.0711 -0.2163 0.3625
-1.0467 -0.3108 0.3622
-1.0141 -0.4027 0.3620
-0.9736 -0.4914 0.3618
-0.9254 -0.5761 0.3616
-0.8700 -0.6561 0.3615
-0.8077 -0.7310 0.3614
-0.7391 -0.8000 0.3613
-3.4210 -4.4404 1.8596
-3.0110 -4.7281 1.8596
-2.5769 -4.9780 1.8596
-0.4125 -1.0085 0.3615
-0.3210 -1.0416 0.3616
-0.2268 -1.0666 0.3617
-0.1307 -1.0832 0.3619
-0.0336 -1.0912 0.3622
0.0640 -1.0906 0.3624
0.1613 -1.0814 0.3627
0.2574 -1.0636 0.3630
0.3516 -1.0373 0.3634
0.4432 -1.0028 0.3637
0.5315 -0.9602 0.3641
0.6158 -0.9099 0.3645
0.6953 -0.8523 0.3649
0.7695 -0.7877 0.3653
0.8377 -0.7167 0.3657
0.8994 -0.6398 0.3662
0.9540 -0.5576 0.3666
1.0011 -0.4707 0.3670
1.0403 -0.3799 0.3674
1.0713 -0.2858 0.3678
1.0937 -0.1893 0.3682
1.1074 -0.0910 0.3686
1.1121 0.0082 0.3690
1.1080 0.1076 0.3693
1.0948 0.2062 0.3696
1.0729 0.3034 0.3699
1.0422 0.3982 0.3701
1.0031 0.4899 0.3703
0.9558 0.5778 0.3705
0.9008 0.6611 0.3707
0.8384 0.7390 0.3708
0.7692 0.8111 0.3708
3.4789 4.3953 1.8596
3.0726 4.6883 1.8596
2.6418 4.9438 1.8596
0.4366 1.0287 0.3707
0.3429 1.0632 0.3706
0.2465 1.0891 0.3704
0.1482 1.1061 0.3702
0.0489 1.1143 0.3700
-0.0508 1.1134 0.3697
-0.1498 1.1035 0.3695
-0.2475 1.0848 0.3691
-0.3430 1.0574 0.3688
-0.4356 1.0216 0.3684
-0.5245 0.9776 0.3680
-0.6091 0.9258 0.3676
-0.6885 0.8668 0.3672
-0.7623 0.8010 0.3668
-0.8298 0.7289 0.3664
-0.8905 0.6511 0.3660
-0.9439 0.5684 0.3655
-0.9898 0.4813 0.3651
-1.0276 0.3906 0.3647
-1.0572 0.2970 0.3643
-1.0784 0.2012 0.3639
-1.0909 0.1040 0.3635
-1.0948 0.0062 0.3632
-1.0900 -0.0914 0.3629
-1.0766 -0.1882 0.3626
-1.0547 -0.2834 0.3623
-1.0245 -0.3761 0.3621
-0.9863 -0.4658 0.3618
-0.9403 -0.5517 0.3617
-0.8869 -0.6332 0.3615
-0.8266 -0.7096 0.3614
-0.7598 -0.7805 0.3613
-3.5360 -4.3494 1.8596
-3.1337 -4.6476 1.8596
-2.7063 -4.9088 1.8596
-0.4387 -0.9973 0.3614
-0.3481 -1.0328 0.3615
-0.2546 -1.0601 0.3617
-0.1590 -1.0792 0.3619
-0.0621 -1.0897 0.3621
0.0355 -1.0917 0.3623
0.1329 -1.0850 0.3626
0.2294 -1.0697 0.3629
0.3242 -1.0459 0.3633
0.4167 -1.0137 0.3636
0.5061 -0.9735 0.3640
0.5916 -0.9254 0.3644
0.6726 -0.8699 0.3648
0.7484 -0.8073 0.3652
0.8184 -0.7381 0.3656
0.8820 -0.6629 0.3660
0.9388 -0.5822 0.3665
0.9882 -0.4966 0.3669
1.0297 -0.4069 0.3673
1.0631 -0.3137 0.3677
1.0880 -0.2178 0.3681
1.1043 -0.1199 0.3685
1.1117 -0.0209 0.3688
1.1101 0.0785 0.3692
1.0996 0.1775 0.3695
1.0802 0.2751 0.3698
1.0521 0.3707 0.3700
1.0154 0.4634 0.3703
0.9705 0.5525 0.3705
0.9177 0.6372 0.3706
0.8574 0.7168 0.3707
0.7902 0.7906 0.3708
3.5927 4.3027 1.8596
3.1942 4.6063 1.8596
2.7703 4.8730 1.8596
2.3243 5.1008 1.8596
0.3707 1.0540 0.3706
0.2750 1.0824 0.3705
0.1772 1.1021 0.3703
0.0780 1.1128 0.3701
-0.0216 1.1146 0.3698
-0.1209 1.1074 0.3695
-0.2191 1.0912 0.3692
-0.3153 1.0663 0.3689
-0.4089 1.0329 0.3685
-0.4989 0.9913 0.3682
-0.5848 0.9418 0.3678
-0.6658 0.8848 0.3674
-0.7413 0.8209 0.3669
-0.8107 0.7506 0.3665
-0.8734 0.6745 0.3661
-0.9291 0.5931 0.3657
-0.9772 0.5072 0.3652
-1.0174 0.4175 0.3648
-1.0494 0.3246 0.3644
-1.0731 0.2294 0.3640
-1.0881 0.1326 0.3636
-1.0945 0.0349 0.3633
-1.0923 -0.0629 0.3630
-1.0814 -0.1600 0.3627
-1.0620 -0.2557 0.3624
-1.0342 -0.3493 0.3621
-0.9983 -0.4399 0.3619
-0.9545 -0.5270 0.3617
-0.9033 -0.6099 0.3616
-0.8450 -0.6878 0.3614
-0.7800 -0.7603 0.3614
-0.7090 -0.8268 0.3613
-3.2542 -4.5640 1.8596
-2.8338 -4.8363 1.8596
-2.3908 -5.0700 1.8596
-0.3749 -1.0232 0.3615
-0.2822 -1.0530 0.3616
-0.1872 -1.0745 0.3618
-0.0906 -1.0875 0.3620
0.0069 -1.0920 0.3623
0.1044 -1.0878 0.3625
0.2013 -1.0750 0.3628
0.2967 -1.0537 0.3632
0.3899 -1.0240 0.3635
0.4803 -0.9861 0.3639
0.5670 -0.9403 0.3643
0.8422 -0.6770 0.3659
0.9003 -0.5998 0.3663
0.9513 -0.5176 0.3667
0.9949 -0.4311 0.3671
1.0305 -0.3410 0.3675
1.0580 -0.2479 0.3679
1.0770 -0.1526 0.3683
1.0874 -0.0559 0.3687
1.0890 0.0414 0.3690
1.0819 0.1386 0.3693
1.0661 0.2348 0.3696
1.0416 0.3293 0.3699
1.0087 0.4212 0.3701
0.9676 0.5098 0.3703
0.9186 0.5944 0.3705
0.8622 0.6743 0.3706
0.7987 0.7488 0.3707
0.7288 0.8172 0.3708
0.6530 0.8790 0.3708
0.5719 0.9337 0.3707
0.4862 0.9809 0.3707
0.3966 1.0201 0.3706
0.3038 1.0511 0.3705
0.2087 1.0735 0.3703
0.1119 1.0872 0.3701
0.0144 1.0922 0.3698
-0.0831 1.0883 0.3696
-0.1797 1.0757 0.3693
-0.2748 1.0544 0.3690
-0.3675 1.0248 0.3686
-0.4570 0.9869 0.3682
-0.5428 0.9412 0.3679
-0.6239 0.8880 0.3675
-0.6999 0.8278 0.3671
-0.7702 0.7612 0.3667
-0.8341 0.6886 0.3662
-0.8912 0.6107 0.3658
-0.9411 0.5281 0.3654
-0.9834 0.4415 0.3650
-1.0178 0.3516 0.3646
-1.0440 0.2590 0.3642
-1.0618 0.1647 0.3638
-1.0712 0.0691 0.3635
-1.0722 -0.0267 0.3631
-1.0646 -0.1222 0.3628
-1.0486 -0.2166 0.3625
-1.0243 -0.3091 0.3623
-0.9920 -0.3991 0.3621
-0.9519 -0.4858 0.3619
-0.9044 -0.5686 0.3617
-0.8497 -0.6468 0.3616
-0.7884 -0.7199 0.3615
-0.7208 -0.7873 0.3614
-0.6477 -0.8484 0.3614
-0.5694 -0.9029 0.3614
-0.4866 -0.9502 0.3615
-0.3999 -0.9901 0.3616
-0.3100 -1.0222 0.3617
-0.2176 -1.0463 0.3618
-0.1234 -1.0621 0.3620
-0.0281 -1.0695 0.3623
0.0675 -1.0685 0.3625
0.1627 -1.0590 0.3628
0.2568 -1.0411 0.3631
0.3491 -1.0150 0.3634
0.4387 -0.9807 0.3638
0.5250 -0.9386 0.3641
0.6074 -0.8889 0.3645
0.6850 -0.8321 0.3649
0.7574 -0.7685 0.3653
0.8239 -0.6986 0.3658
0.8840 -0.6229 0.3662
0.9372 -0.5422 0.3666
0.9829 -0.4568 0.3670
1.0209 -0.3677 0.3674
1.0508 -0.2754 0.3678
1.0723 -0.1807 0.3682
1.0852 -0.0843 0.3686
1.0895 0.0129 0.3689
1.0849 0.1102 0.3692
1.0716 0.2068 0.3695
1.0496 0.3018 0.3698
1.0192 0.3946 0.3700
0.9804 0.4843 0.3703
0.9337 0.5701 0.3704
0.8794 0.6514 0.3706
0.8180 0.7275 0.3707
0.7499 0.7978 0.3707
0.6758 0.8616 0.3708
0.5961 0.9185 0.3708
0.5117 0.9679 0.3707
0.4232 1.0095 0.3706
0.3312 1.0429 0.3705
