-1.8128314018249512 -9.552617073059082 1.879616618156433
-0.9536915421485901 -9.676214218139648 1.879616618156433
-0.08697135746479034 -9.722723007202148 1.879616618156433
0.780498206615448 -9.6917142868042 1.879616618156433
1.6415783166885376 -9.583483695983887 1.879616618156433
2.489811897277832 -9.398900985717773 1.879616618156433
3.3180758953094482 -9.139420509338379 1.879616618156433
4.119908809661865 -8.807084083557129 1.879616618156433
4.8889360427856445 -8.404550552368164 1.879616618156433
5.6189165115356445 -7.935044765472412 1.879616618156433
6.304241180419922 -7.402346611022949 1.8796168565750122
6.852938175201416 -6.725878715515137 1.8562276363372803
1.446108341217041 -1.1856223344802856 0.36150023341178894
1.5450738668441772 -1.051236867904663 0.36126279830932617
1.631765365600586 -0.908760130405426 0.36106306314468384
1.7055397033691406 -0.7592792510986328 0.3609025478363037
1.7658716440200806 -0.6039535403251648 0.36078277230262756
1.8123044967651367 -0.44395965337753296 0.3607040345668793
1.844491720199585 -0.28053614497184753 0.3606671094894409
1.862183690071106 -0.11493228375911713 0.36067259311676025
1.8652591705322266 0.05160754919052124 0.3607198894023895
1.8536813259124756 0.21780014038085938 0.36080917716026306
1.8275338411331177 0.38238784670829773 0.360939621925354
1.7869879007339478 0.54410320520401 0.3611099123954773
1.7323548793792725 0.7017021179199219 0.3613194227218628
1.6640095710754395 0.8539824485778809 0.3615661561489105
8.070822715759277 5.099000930786133 1.845510721206665
7.590348720550537 5.803342819213867 1.8470696210861206
7.04897928237915 6.463010787963867 1.8487529754638672
6.450777530670166 7.072754383087158 1.8505480289459229
5.800247669219971 7.627636432647705 1.8524410724639893
5.102299213409424 8.123190879821777 1.854417324066162
4.362341403961182 8.555277824401855 1.8564618825912476
3.586038112640381 8.920287132263184 1.8585584163665771
2.7794275283813477 9.215107917785645 1.8606908321380615
1.9488005638122559 9.437158584594727 1.862842321395874
1.1004117727279663 9.582467079162598 1.8646131753921509
0.24155005812644958 9.64544677734375 1.8652000427246094
-0.6196190714836121 9.628694534301758 1.8652278184890747
-1.4771063327789307 9.543275833129883 1.8668314218521118
-2.324561357498169 9.382688522338867 1.8686562776565552
-3.155041456222534 9.146539688110352 1.8704051971435547
-3.961668014526367 8.836548805236816 1.8720638751983643
-4.737858295440674 8.455056190490723 1.873618245124817
-5.4772162437438965 8.004989624023438 1.8750555515289307
-6.174397945404053 7.490763187408447 1.8765981197357178
-6.82292366027832 6.915449142456055 1.878003478050232
-7.417436122894287 6.28364372253418 1.8792623281478882
-1.5686630010604858 1.1046466827392578 0.3708907961845398
-1.6619044542312622 0.9609159827232361 0.37110885977745056
-1.7418115139007568 0.8092591762542725 0.371286004781723
-1.8077013492584229 0.6509356498718262 0.37142089009284973
-1.8590043783187866 0.4872469902038574 0.3715122938156128
-1.8952903747558594 0.3195599615573883 0.3715592920780182
-1.916254997253418 0.14926494657993317 0.371561735868454
-1.921708583831787 -0.02222450263798237 0.3715192973613739
-1.9116257429122925 -0.19346655905246735 0.3714327812194824
-1.886093258857727 -0.36305591464042664 0.3713024854660034
-1.8453421592712402 -0.5295609831809998 0.37112975120544434
-1.789730191230774 -0.6916243433952332 0.37091612815856934
-1.719744086265564 -0.8479035496711731 0.3706631362438202
-8.302556991577148 -5.060266494750977 1.879616618156433
-7.818202972412109 -5.780525207519531 1.879616618156433
-7.271548271179199 -6.454721450805664 1.879616618156433
-6.666899681091309 -7.0775041580200195 1.879616618156433
-6.00916862487793 -7.643874168395996 1.879616618156433
-5.30354118347168 -8.14930534362793 1.879616618156433
-4.555661678314209 -8.589815139770508 1.879616618156433
-3.7714552879333496 -8.961846351623535 1.879616618156433
-2.957277774810791 -9.262496948242188 1.879616618156433
-2.11936616897583 -9.489302635192871 1.879616618156433
-1.264664888381958 -9.640494346618652 1.879616618156433
-0.39986908435821533 -9.714873313903809 1.879616618156433
0.4681133031845093 -9.711825370788574 1.879616618156433
1.3323713541030884 -9.631363868713379 1.879616618156433
2.1862497329711914 -9.474201202392578 1.879616618156433
3.0221898555755615 -9.241476058959961 1.879616618156433
3.8343005180358887 -8.935136795043945 1.879616618156433
4.615873336791992 -8.55757999420166 1.879616618156433
5.3607072830200195 -8.111838340759277 1.879616618156433
6.062735080718994 -7.601431846618652 1.879616618156433
6.714516639709473 -7.028438091278076 1.8790850639343262
7.170477867126465 -6.275505065917969 1.8420584201812744
1.5107742547988892 -1.1006730794906616 0.36134397983551025
1.6019659042358398 -0.960985541343689 0.36113065481185913
1.680471658706665 -0.8138975501060486 0.3609558045864105
1.7457101345062256 -0.6605518460273743 0.3608212172985077
1.7971869707107544 -0.502101480960846 0.3607275187969208
1.8345474004745483 -0.3397741913795471 0.3606756627559662
1.8574843406677246 -0.17480306327342987 0.3606657385826111
1.8658450841903687 -0.008458117954432964 0.3606979250907898
1.8595455884933472 0.15800218284130096 0.3607720732688904
1.8386300802230835 0.32331496477127075 0.36088791489601135
1.8032499551773071 0.4862149655818939 0.3610439896583557
1.7536553144454956 0.6454355716705322 0.36123961210250854
1.6901921033859253 0.7997778058052063 0.36147308349609375
1.6133418083190918 0.9480277299880981 0.36174285411834717
7.77080774307251 5.5542521476745605 1.8464925289154053
7.25090217590332 6.230686664581299 1.848132610321045
6.672689437866211 6.85901403427124 1.8498889207839966
6.040497779846191 7.434219837188721 1.8517481088638306
5.359058856964111 7.951650619506836 1.8536962270736694
4.63358211517334 8.407066345214844 1.8557180166244507
3.8697192668914795 8.796643257141113 1.857797622680664
3.0733089447021484 9.117087364196777 1.8599190711975098
2.250593900680542 9.36563777923584 1.8620656728744507
1.4080233573913574 9.54005241394043 1.8642202615737915
0.5518088340759277 9.63190746307373 1.8650449514389038
-0.30939674377441406 9.644023895263672 1.8652983903884888
-1.1687599420547485 9.582418441772461 1.86615788936615
-2.020658493041992 9.449359893798828 1.8680065870285034
-2.8580217361450195 9.240285873413086 1.8697843551635742
-3.674046516418457 8.956684112548828 1.8714771270751953
-4.461979389190674 8.600662231445312 1.8730705976486206
-5.2153215408325195 8.17492961883545 1.8745516538619995
-5.928340911865234 7.683422565460205 1.876057744026184
-6.5950493812561035 7.129640579223633 1.87751305103302
-7.209675312042236 6.517602920532227 1.8788261413574219
-1.53193199634552 1.154289722442627 0.3708026111125946
-1.6297904253005981 1.0137052536010742 0.3710348308086395
-1.7145882844924927 0.8647735118865967 0.3712269365787506
-1.7855995893478394 0.7087000608444214 0.37137725949287415
-1.84222412109375 0.5467929244041443 0.3714843690395355
-1.8839668035507202 0.380391389131546 0.37154754996299744
-1.9104751348495483 0.2108709216117859 0.37156614661216736
-1.9215295314788818 0.039651431143283844 0.37153974175453186
-1.9170488119125366 -0.13185128569602966 0.371469110250473
-1.897066354751587 -0.30219852924346924 0.3713543713092804
-1.86176598072052 -0.46997392177581787 0.3711968958377838
-1.8114632368087769 -0.633795440196991 0.3709976077079773
-1.7465943098068237 -0.7923064827919006 0.3707588016986847
-1.6677305698394775 -0.9442141652107239 0.3704821765422821
-8.00020694732666 -5.5258941650390625 1.879616618156433
-7.475531578063965 -6.217329502105713 1.879616618156433
-6.89127779006958 -6.85923957824707 1.879616618156433
-6.252121925354004 -7.446466445922852 1.879616618156433
-5.563101768493652 -7.974381446838379 1.879616618156433
-4.829770088195801 -8.438720703125 1.879616618156433
-4.057817459106445 -8.835841178894043 1.879616618156433
-3.253824472427368 -9.162494659423828 1.879616618156433
-2.4237008094787598 -9.416182518005371 1.879616618156433
-1.5742759704589844 -9.594816207885742 1.879616618156433
-0.7123563885688782 -9.696969032287598 1.879616618156433
0.1552674025297165 -9.72184944152832 1.879616618156433
1.0215892791748047 -9.669278144836426 1.879616618156433
1.8799422979354858 -9.539627075195312 1.879616618156433
2.723179340362549 -9.333969116210938 1.879616618156433
3.5447278022766113 -9.053926467895508 1.879616618156433
4.338046073913574 -8.701726913452148 1.879616618156433
5.096761226654053 -8.280189514160156 1.879616618156433
5.8149261474609375 -7.792630672454834 1.879616618156433
6.486708164215088 -7.242999076843262 1.8796169757843018
1.4856765270233154 -1.0334906578063965 0.36143842339515686
1.5710721015930176 -0.8963906764984131 0.3612406849861145
1.644020915031433 -0.7523790597915649 0.36108091473579407
1.7039949893951416 -0.602565586566925 0.36096006631851196
1.750549554824829 -0.44809892773628235 0.3608790636062622
1.7833350896835327 -0.2901582717895508 0.3608386218547821
1.8021150827407837 -0.1299649327993393 0.36083921790122986
1.8067232370376587 0.03127134218811989 0.36088043451309204
1.7971476316452026 0.19231364130973816 0.3609622120857239
1.7734360694885254 0.3519378900527954 0.361083984375
1.7357548475265503 0.5089163780212402 0.36124464869499207
1.6843719482421875 0.6620592474937439 0.3614431619644165
1.619671106338501 0.8101533055305481 0.3616781532764435
1.5421160459518433 0.952085018157959 0.361947625875473
7.40618896484375 5.5419721603393555 1.8473769426345825
6.888460636138916 6.185791015625 1.8489938974380493
6.315249443054199 6.7817888259887695 1.8507202863693237
5.690868854522705 7.3251824378967285 1.8525431156158447
5.020076274871826 7.811537265777588 1.8544481992721558
4.308001518249512 8.236857414245605 1.8564207553863525
3.560168743133545 8.597599029541016 1.8584455251693726
2.7822964191436768 8.890698432922363 1.8605066537857056
1.9805495738983154 9.113579750061035 1.8625880479812622
1.1607236862182617 9.260566711425781 1.8639332056045532
0.3303271532058716 9.329747200012207 1.8644436597824097
-0.5030582547187805 9.322465896606445 1.8645316362380981
-1.3337377309799194 9.249532699584961 1.8663625717163086
-2.1553595066070557 9.102375030517578 1.8681360483169556
-2.9612276554107666 8.881973266601562 1.8698376417160034
-3.744774580001831 8.589912414550781 1.871453046798706
-4.499551773071289 8.228384971618652 1.8729692697525024
-5.219356536865234 7.800175666809082 1.8743737936019897
-5.898936748504639 7.309494972229004 1.8758808374404907
-6.53208589553833 6.7592387199401855 1.877256155014038
-7.113530158996582 6.1538262367248535 1.8784908056259155
-1.5065133571624756 1.0843877792358398 0.3707064688205719
-1.5981473922729492 0.94626384973526 0.37092161178588867
-1.676963448524475 0.800341010093689 0.37109771370887756
-1.742292881011963 0.6478410363197327 0.37123289704322815
-1.7935736179351807 0.489997535943985 0.3713262975215912
-1.8303699493408203 0.3281371295452118 0.371376633644104
-1.852383017539978 0.16360200941562653 0.3713839650154114
-1.8594096899032593 -0.0022451782133430243 0.371348112821579
-1.8514126539230347 -0.168032705783844 0.37126922607421875
-1.8284492492675781 -0.33235853910446167 0.3711480498313904
-1.7907423973083496 -0.4938902258872986 0.3709857165813446
-1.738609790802002 -0.6512652635574341 0.3707835376262665
-1.672515630722046 -0.8032025098800659 0.37054336071014404
-1.5930356979370117 -0.9484477043151855 0.37026718258857727
-7.625254154205322 -5.516704082489014 1.879616618156433
-7.102884769439697 -6.174748420715332 1.879616618156433
-6.523922443389893 -6.78358793258667 1.879616618156433
-5.892958641052246 -7.338370323181152 1.879616618156433
-5.215035915374756 -7.834671974182129 1.879616618156433
-4.495553970336914 -8.268539428710938 1.879616618156433
-3.7402522563934326 -8.636495590209961 1.879616618156433
-2.9549977779388428 -8.935662269592285 1.879616618156433
-2.1464788913726807 -9.163575172424316 1.879616618156433
-1.3206806182861328 -9.318495750427246 1.879616618156433
-0.4843873083591461 -9.39914321899414 1.879616618156433
0.35576146841049194 -9.404878616333008 1.879616618156433
1.1930654048919678 -9.335677146911621 1.879616618156433
2.0208985805511475 -9.19207763671875 1.879616618156433
2.832597255706787 -8.975214958190918 1.879616618156433
3.621741533279419 -8.686847686767578 1.879616618156433
4.3820013999938965 -8.329238891601562 1.879616618156433
5.107334613800049 -7.905241966247559 1.879616618156433
5.792008399963379 -7.418267726898193 1.879616618156433
6.422115802764893 -6.863283634185791 1.8771979808807373
6.8775858879089355 -6.146059036254883 1.8420761823654175
1.4519661664962769 -1.081018328666687 0.36151885986328125
1.541689395904541 -0.9466682076454163 0.36130768060684204
1.6191868782043457 -0.8050188422203064 0.36113402247428894
1.6839019060134888 -0.6571667194366455 0.3609989881515503
1.7353429794311523 -0.5042454600334167 0.36090362071990967
1.7731226682662964 -0.3474201261997223 0.3608485460281372
1.7969670295715332 -0.1878979504108429 0.3608343303203583
1.8066983222961426 -0.026897219941020012 0.3608608841896057
1.8022381067276 0.13436245918273926 0.3609280288219452
1.7836030721664429 0.2946409285068512 0.36103546619415283
1.7509299516677856 0.45271384716033936 0.36118224263191223
1.704454779624939 0.6073653101921082 0.3613671660423279
1.6445062160491943 0.7574182152748108 0.36158934235572815
1.5715218782424927 0.9017024636268616 0.36184659600257874
7.578469753265381 5.299123287200928 1.8468233346939087
7.081715106964111 5.958933353424072 1.8483977317810059
6.528014183044434 6.572763442993164 1.8500862121582031
5.921581268310547 7.135631084442139 1.85187566280365
5.266939163208008 7.64303731918335 1.853752851486206
4.569146156311035 8.09079647064209 1.8557027578353882
3.8335235118865967 8.475197792053223 1.8577104806900024
3.0658068656921387 8.793001174926758 1.8597605228424072
2.2719643115997314 9.041449546813965 1.861836314201355
1.4579827785491943 9.216988563537598 1.8636460304260254
0.6304154396057129 9.313612937927246 1.8643102645874023
-0.2027161419391632 9.333683967590332 1.864502191543579
-1.0349738597869873 9.284417152404785 1.8657084703445435
-1.8606235980987549 9.163942337036133 1.867504358291626
-2.6729369163513184 8.969797134399414 1.8692333698272705
-3.4652912616729736 8.703351020812988 1.87088143825531
-4.231165885925293 8.366568565368652 1.8724349737167358
-4.964262962341309 7.962034702301025 1.8738809823989868
-5.658992767333984 7.493460655212402 1.8753527402877808
-6.309518337249756 6.964225769042969 1.8767759799957275
-6.910182476043701 6.378137111663818 1.8780627250671387
-1.47048819065094 1.1320466995239258 0.3706195056438446
-1.5665485858917236 0.9970179796218872 0.3708483874797821
-1.6500647068023682 0.8537693619728088 0.3710388243198395
-1.7203311920166016 0.7034985423088074 0.3711889684200287
-1.7767369747161865 0.5474338531494141 0.3712974488735199
-1.8188024759292603 0.3868672847747803 0.3713635206222534
-1.8461685180664062 0.223144069314003 0.37138640880584717
-1.8586145639419556 0.05760529264807701 0.3713659644126892
-1.8560229539871216 -0.10835698992013931 0.37130263447761536
-1.8384445905685425 -0.2733708918094635 0.37119659781455994
-1.8060189485549927 -0.43606436252593994 0.37104886770248413
-1.7590359449386597 -0.5950878262519836 0.37086090445518494
-1.6979175806045532 -0.7491353154182434 0.37063413858413696
-1.623187780380249 -0.896929144859314 0.3703707754611969
-7.79888391494751 -5.268406391143799 1.879616618156433
-7.2979559898376465 -5.9429240226745605 1.879616618156433
-6.738882064819336 -6.570074081420898 1.879616618156433
-6.126125335693359 -7.1448893547058105 1.879616618156433
-5.4644975662231445 -7.662737846374512 1.879616618156433
-4.759383678436279 -8.11954116821289 1.879616618156433
-4.016286373138428 -8.511629104614258 1.879616618156433
-3.2411067485809326 -8.835916519165039 1.879616618156433
-2.4403252601623535 -9.08974552154541 1.879616618156433
-1.61995267868042 -9.271166801452637 1.879616618156433
-0.7866795063018799 -9.378687858581543 1.879616618156433
0.052808456122875214 -9.41146183013916 1.879616618156433
0.8919730186462402 -9.369251251220703 1.879616618156433
1.7239892482757568 -9.25235652923584 1.879616618156433
2.5422401428222656 -9.061758995056152 1.879616618156433
3.3402509689331055 -8.798914909362793 1.879616618156433
4.1116461753845215 -8.465975761413574 1.879616618156433
4.85024356842041 -8.065552711486816 1.879616618156433
5.55024528503418 -7.6008524894714355 1.879616618156433
6.205972671508789 -7.075596809387207 1.8796169757843018
6.696957111358643 -6.384030818939209 1.847804069519043
1.4167470932006836 -1.1274611949920654 0.36160367727279663
1.5107135772705078 -0.9959989786148071 0.3613795340061188
1.5926933288574219 -0.8568615317344666 0.3611923158168793
1.6620739698410034 -0.711119532585144 0.3610430955886841
1.7183561325073242 -0.5598859190940857 0.3609333634376526
1.7610929012298584 -0.40432894229888916 0.3608636260032654
1.7899922132492065 -0.2456439882516861 0.36083465814590454
1.8048293590545654 -0.08503410965204239 0.36084654927253723
1.8054852485656738 0.07627582550048828 0.3608991801738739
1.791947841644287 0.23704883456230164 0.36099210381507874
1.76431405544281 0.3960553705692291 0.3611248731613159
1.722780704498291 0.5520839095115662 0.36129623651504517
1.6676445007324219 0.7039313912391663 0.3615051209926605
1.5993027687072754 0.8504227995872498 0.3617498576641083
7.742857456207275 5.0509724617004395 1.8462861776351929
7.267560958862305 5.726104736328125 1.8478164672851562
6.73395299911499 6.357090950012207 1.8494651317596436
6.145994663238525 6.938875675201416 1.8512197732925415
5.508187294006348 7.466780185699463 1.8530669212341309
4.8253583908081055 7.936487197875977 1.8549922704696655
4.102734088897705 8.344141006469727 1.8569810390472412
3.345909357070923 8.686293601989746 1.8590176105499268
2.5607564449310303 8.960034370422363 1.861086130142212
1.753440499305725 9.16296100616455 1.8631700277328491
0.9297916293144226 9.287535667419434 1.8641183376312256
0.09781753271818161 9.335386276245117 1.8645038604736328
-0.7353301644325256 9.309616088867188 1.8650474548339844
-1.5641618967056274 9.21591854095459 1.8668638467788696
-2.3820643424987793 9.048209190368652 1.8686186075210571
-3.1823534965515137 8.807622909545898 1.8702975511550903
-3.9584994316101074 8.495938301086426 1.8718867301940918
-4.704152584075928 8.115497589111328 1.8733729124069214
-5.4132914543151855 7.669501781463623 1.874808430671692
-6.08046817779541 7.161796569824219 1.876278042793274
-6.699715614318848 6.595692157745361 1.8776153326034546
-1.4329290390014648 1.1785000562667847 0.3705279529094696
-1.5333213806152344 1.0467033386230469 0.37077024579048157
-1.6214509010314941 0.9062861204147339 0.37097471952438354
-1.6965665817260742 0.7584116458892822 0.3711395263671875
-1.7580307722091675 0.6042851805686951 0.3712631165981293
-1.8053148984909058 0.4451935589313507 0.37134459614753723
-1.838015079498291 0.2824471890926361 0.37138304114341736
-1.8558504581451416 0.11740010231733322 0.3713783323764801
-1.8586939573287964 -0.04856647551059723 0.37133026123046875
-1.846498966217041 -0.21408192813396454 0.3712396025657654
-1.819404125213623 -0.37776458263397217 0.3711068630218506
-1.7776294946670532 -0.5382626056671143 0.3709333837032318
-1.7215567827224731 -0.6942553520202637 0.3707202076911926
-1.6516683101654053 -0.8444498777389526 0.37046995759010315
-7.964416980743408 -5.014646053314209 1.879616618156433
-7.485478401184082 -5.704936981201172 1.879616618156433
-6.9468913078308105 -6.349759578704834 1.879616618156433
-6.35291051864624 -6.94399356842041 1.879616618156433
-5.708334445953369 -7.4828715324401855 1.879616618156433
-5.018233776092529 -7.962141990661621 1.879616618156433
-4.2881879806518555 -8.37794303894043 1.879616618156433
-3.523956775665283 -8.726996421813965 1.879616618156433
-2.7316222190856934 -9.00649356842041 1.879616618156433
-1.9175349473953247 -9.214201927185059 1.879616618156433
-1.088146686553955 -9.348505973815918 1.879616618156433
-0.25011229515075684 -9.408289909362793 1.879616618156433
0.5898957848548889 -9.39311408996582 1.879616618156433
1.4252643585205078 -9.303054809570312 1.879616618156433
2.2492423057556152 -9.13889217376709 1.879616618156433
3.0552995204925537 -8.901872634887695 1.879616618156433
3.836998462677002 -8.593921661376953 1.879616618156433
4.588123321533203 -8.217500686645508 1.879616618156433
5.302689075469971 -7.775569438934326 1.879616618156433
5.975015640258789 -7.271689414978027 1.8796168565750122
6.528378963470459 -6.637370586395264 1.859316110610962
1.380064845085144 -1.1727656126022339 0.361693412065506
1.4781891107559204 -1.0443388223648071 0.3614563047885895
1.5645678043365479 -0.9078415632247925 0.3612554967403412
1.6385489702224731 -0.7643495798110962 0.3610925078392029
1.6996047496795654 -0.614963173866272 0.36096832156181335
1.7472716569900513 -0.4608287811279297 0.3608841001987457
1.7811890840530396 -0.303134024143219 0.36084043979644775
1.8011131286621094 -0.1430799514055252 0.3608376979827881
1.806885838508606 0.018113041296601295 0.36087554693222046
1.7984577417373657 0.17922207713127136 0.3609539568424225
1.775895357131958 0.33901122212409973 0.3610725402832031
1.739344596862793 0.49625495076179504 0.36123016476631165
1.689062476158142 0.649744987487793 0.36142560839653015
1.625435471534729 0.7982974648475647 0.3616577088832855
1.5489048957824707 0.940771758556366 0.3619244396686554
7.445828914642334 5.487532138824463 1.8472504615783691
6.932809829711914 6.135019779205322 1.8488578796386719
6.363945007324219 6.735121250152588 1.8505758047103882
5.743585586547852 7.28295373916626 1.8523913621902466
5.076375484466553 7.774131774902344 1.8542901277542114
4.367491245269775 8.20455551147461 1.8562577962875366
3.6223320960998535 8.570685386657715 1.8582788705825806
2.846695899963379 8.869388580322266 1.860337734222412
2.046649217605591 9.098087310791016 1.8624180555343628
1.2281166315078735 9.251556396484375 1.8638761043548584
0.3982306718826294 9.32698917388916 1.8644219636917114
-0.43514296412467957 9.325372695922852 1.8644318580627441
-1.2662729024887085 9.25827407836914 1.8662153482437134
-2.0888843536376953 9.117135047912598 1.8679940700531006
-2.896284818649292 8.9026517868042 1.8697017431259155
-3.6818907260894775 8.616365432739258 1.871324896812439
-4.439262390136719 8.260395050048828 1.8728498220443726
-5.162121295928955 7.8375091552734375 1.8742637634277344
-5.845181941986084 7.351767539978027 1.875762939453125
-6.482339382171631 6.806224822998047 1.8771491050720215
-7.0681681632995605 6.205141544342041 1.878395676612854
-1.4985015392303467 1.0952651500701904 0.3706870973110199
-1.591149091720581 0.9578258395195007 0.37090545892715454
-1.6710370779037476 0.812505841255188 0.37108489871025085
-1.7374818325042725 0.6604858040809631 0.37122344970703125
-1.7899260520935059 0.5030393004417419 0.3713201880455017
-1.8279201984405518 0.341452032327652 0.3713741898536682
-1.8511430025100708 0.17708320915699005 0.3713851869106293
-1.8594022989273071 0.011287001892924309 0.3713526725769043
-1.8526195287704468 -0.15454988181591034 0.3712773025035858
-1.830875039100647 -0.3190522789955139 0.3711596727371216
-1.794358491897583 -0.480852335691452 0.3710004985332489
-1.7433902025222778 -0.6386164426803589 0.37080153822898865
-1.6784131526947021 -0.7910465002059937 0.37056440114974976
-1.6000031232833862 -0.9368880987167358 0.370291143655777
-7.665218830108643 -5.461048603057861 1.879616618156433
-7.147659778594971 -6.122872829437256 1.879616618156433
-6.573123455047607 -6.735909938812256 1.879616618156433
-5.946236610412598 -7.295282363891602 1.879616618156433
-5.271962642669678 -7.796477317810059 1.879616618156433
-4.555618762969971 -8.235583305358887 1.879616618156433
-3.803023338317871 -8.609040260314941 1.879616618156433
-3.019986391067505 -8.913912773132324 1.879616618156433
-2.2132034301757812 -9.147703170776367 1.879616618156433
-1.3885064125061035 -9.308621406555176 1.879616618156433
-0.5527946949005127 -9.395365715026855 1.879616618156433
0.28729116916656494 -9.40721607208252 1.879616618156433
1.125113606452942 -9.344118118286133 1.879616618156433
1.9539260864257812 -9.20654582977295 1.879616618156433
2.7671937942504883 -8.995619773864746 1.879616618156433
3.558403968811035 -8.712970733642578 1.879616618156433
4.321267604827881 -8.360922813415527 1.879616618156433
5.049724102020264 -7.942243576049805 1.879616618156433
5.7378363609313965 -7.4602370262146 1.8796164989471436
6.380308151245117 -6.91879940032959 1.8796170949935913
6.837983131408691 -6.2010178565979 1.8436199426651
1.444132924079895 -1.0916210412979126 0.36153778433799744
1.5348254442214966 -0.9579112529754639 0.3613235354423523
1.6133408546447754 -0.8168193101882935 0.3611466884613037
1.6791142225265503 -0.6694309115409851 0.36100858449935913
1.7316546440124512 -0.516869843006134 0.36090973019599915
1.7705628871917725 -0.360319584608078 0.36085158586502075
1.7955561876296997 -0.20097655057907104 0.36083388328552246
1.8064391613006592 -0.04004715010523796 0.360857218503952
1.8031307458877563 0.12122968584299088 0.3609210252761841
1.7856500148773193 0.28163307905197144 0.36102524399757385
1.754112958908081 0.4399312436580658 0.3611688017845154
1.708756685256958 0.5949181318283081 0.3613506853580475
1.6498873233795166 0.7453894019126892 0.36156997084617615
1.5779534578323364 0.8901839256286621 0.3618243336677551
7.616338729858398 5.243459224700928 1.8467004299163818
7.124396800994873 5.906803607940674 1.8482650518417358
6.575198650360107 6.524551868438721 1.8499445915222168
5.972874641418457 7.091769695281982 1.8517265319824219
5.32198429107666 7.603847980499268 1.8535969257354736
4.627520561218262 8.056620597839355 1.855541467666626
3.8947854042053223 8.446308135986328 1.8575451374053955
3.1294732093811035 8.769641876220703 1.8595921993255615
2.3374922275543213 9.023859977722168 1.8616666793823242
1.5250002145767212 9.205790519714355 1.8635767698287964
0.698169469833374 9.308577537536621 1.864272117614746
-0.1347866803407669 9.334976196289062 1.8645086288452148
-0.967294454574585 9.290972709655762 1.865559458732605
-1.7937356233596802 9.176532745361328 1.867360234260559
-2.607379198074341 8.988350868225098 1.8690952062606812
-3.4016005992889404 8.727727890014648 1.8707505464553833
-4.169853210449219 8.39659595489502 1.872312307357788
-4.905885696411133 7.997474670410156 1.8737674951553345
-5.603941917419434 7.533979415893555 1.875231146812439
-6.258257865905762 7.009561538696289 1.8766648769378662
-6.863211631774902 6.427942752838135 1.8779630661010742
-1.4621233940124512 1.1426581144332886 0.3705992102622986
-1.5591840744018555 1.0083420276641846 0.37083128094673157
-1.6437482833862305 0.8657328486442566 0.3710247576236725
-1.7151157855987549 0.7159797549247742 0.3711782693862915
-1.772662878036499 0.5603389739990234 0.3712901175022125
-1.815919280052185 0.40010368824005127 0.37135955691337585
-1.844491720199585 0.2365758717060089 0.3713861107826233
-1.858155369758606 0.0711355209350586 0.37136930227279663
-1.8567941188812256 -0.09484481811523438 0.3713094890117645
-1.8404291868209839 -0.2599867880344391 0.3712068200111389
-1.8092097043991089 -0.42291730642318726 0.37106260657310486
-1.7634061574935913 -0.5822888612747192 0.3708776831626892
-1.7034200429916382 -0.7367881536483765 0.3706541359424591
-1.6297762393951416 -0.8851470947265625 0.3703935146331787
-7.837032794952393 -5.211472034454346 1.879616618156433
-7.341038703918457 -5.8896484375 1.879616618156433
-6.786550521850586 -6.520839214324951 1.879616618156433
-6.177980422973633 -7.100085258483887 1.879616618156433
-5.520162105560303 -7.6227707862854 1.879616618156433
-4.818358421325684 -8.084683418273926 1.879616618156433
-4.078143119812012 -8.48217487335205 1.879616618156433
-3.30527925491333 -8.812077522277832 1.879616618156433
-2.5063858032226562 -9.071737289428711 1.879616618156433
-1.6873955726623535 -9.259124755859375 1.879616618156433
-0.8549357652664185 -9.372705459594727 1.879616618156433
-0.015755537897348404 -9.411587715148926 1.879616618156433
0.8237495422363281 -9.375490188598633 1.879616618156433
1.6565808057785034 -9.26468276977539 1.879616618156433
2.4762048721313477 -9.08001708984375 1.879616618156433
3.276111602783203 -8.82300090789795 1.879616618156433
4.049899578094482 -8.495668411254883 1.879616618156433
4.7914228439331055 -8.10065746307373 1.879616618156433
5.494767189025879 -7.641072750091553 1.879616618156433
6.154277324676514 -7.120598793029785 1.8796169757843018
6.654261112213135 -6.4363603591918945 1.8488634824752808
1.408578872680664 -1.1378097534179688 0.36162352561950684
1.5034910440444946 -1.0070246458053589 0.361396461725235
1.5864769220352173 -0.868462860584259 0.3612060546875
1.6569112539291382 -0.7232233285903931 0.3610537648200989
1.7142677307128906 -0.5723962783813477 0.3609408438205719
1.7581298351287842 -0.41714349389076233 0.3608679175376892
1.7881654500961304 -0.25866568088531494 0.36083555221557617
1.8041496276855469 -0.09816592931747437 0.36084410548210144
1.8059628009796143 0.06312119960784912 0.3608933985233307
1.7935763597488403 0.22399009764194489 0.3609829545021057
1.7670934200286865 0.3831808865070343 0.36111265420913696
1.7266845703125 0.5395048260688782 0.3612808287143707
1.6726425886154175 0.6917297840118408 0.36148664355278015
1.6053588390350342 0.8387107849121094 0.36172881722450256
7.778915882110596 4.994146823883057 1.846166968345642
7.308559894561768 5.672645568847656 1.847687005996704
6.779539585113525 6.307433128356934 1.8493266105651855
6.195876121520996 6.893400192260742 1.851073145866394
5.561936378479004 7.425870418548584 1.8529131412506104
4.882561683654785 7.900478363037109 1.8548328876495361
4.163000583648682 8.313314437866211 1.8568170070648193
3.4087395668029785 8.66092586517334 1.8588502407073975
2.625692367553711 8.940340042114258 1.8609164953231812
1.8199517726898193 9.149112701416016 1.8630000352859497
0.9973605275154114 9.280255317687988 1.864065408706665
0.16573257744312286 9.334381103515625 1.864491581916809
-0.667485773563385 9.313980102539062 1.8648971319198608
-1.4969096183776855 9.22634506225586 1.86671781539917
-2.315953016281128 9.064620971679688 1.8684781789779663
-3.1179144382476807 8.829930305480957 1.8701637983322144
-3.896303653717041 8.523953437805176 1.8717608451843262
-4.6446661949157715 8.149018287658691 1.8732558488845825
-5.356973171234131 7.708201885223389 1.874683141708374
-6.027798175811768 7.205424785614014 1.8761630058288574
-6.651144027709961 6.64392614364624 1.8775113821029663
-1.4242314100265503 1.1888378858566284 0.3705064356327057
-1.5255820751190186 1.0577787160873413 0.3707519471645355
-1.6147466897964478 0.9180288314819336 0.37095946073532104
-1.6909492015838623 0.770709753036499 0.3711276054382324
-1.7535396814346313 0.6170546412467957 0.371254563331604
-1.802001953125 0.45832228660583496 0.3713395595550537
-1.8359028100967407 0.29581987857818604 0.3713815212249756
-1.8549607992172241 0.13091112673282623 0.3713802993297577
-1.8590209484100342 -0.035035762935876846 0.37133604288101196
-1.84805428981781 -0.2006383091211319 0.3712487816810608
-1.822161078453064 -0.3645191490650177 0.3711192309856415
-1.7815810441970825 -0.525324285030365 0.3709489405155182
-1.726646900177002 -0.681738555431366 0.3707391321659088
-1.6578681468963623 -0.8324463963508606 0.370491623878479
-1.5758154392242432 -0.976233184337616 0.37020859122276306
-7.52680778503418 -5.65031623840332 1.879616618156433
-6.992895126342773 -6.299022197723389 1.879616618156433
-6.403303146362305 -6.897556781768799 1.879616618156433
-5.762667179107666 -7.441117763519287 1.879616618156433
-5.076109409332275 -7.925384521484375 1.879616618156433
-4.349025249481201 -8.34652042388916 1.879616618156433
-3.5873777866363525 -8.701119422912598 1.879616618156433
-2.797118663787842 -8.986367225646973 1.879616618156433
-1.9846060276031494 -9.199999809265137 1.879616618156433
-1.1561840772628784 -9.340327262878418 1.879616618156433
-0.3185844421386719 -9.406214714050293 1.879616618156433
0.5214309096336365 -9.39714241027832 1.879616618156433
1.3575423955917358 -9.313201904296875 1.879616618156433
2.182652473449707 -9.15501594543457 1.879616618156433
2.9904322624206543 -8.923881530761719 1.879616618156433
3.774365186691284 -8.621637344360352 1.879616618156433
4.528193950653076 -8.25068187713623 1.879616618156433
5.2458953857421875 -7.813959121704102 1.879616618156433
5.921919822692871 -7.314999103546143 1.879616618156433
6.503185749053955 -6.708731651306152 1.8660001754760742
1.371572494506836 -1.1828515529632568 0.3617141544818878
1.4706207513809204 -1.0551190376281738 0.36147430539131165
1.5579807758331299 -0.919243574142456 0.3612704277038574
1.6329917907714844 -0.7762908935546875 0.3611041307449341
1.695119857788086 -0.6273303627967834 0.36097684502601624
1.743896722793579 -0.4735475778579712 0.36088958382606506
1.778946042060852 -0.3160988390445709 0.36084258556365967
1.8000128269195557 -0.15619368851184845 0.3608361780643463
1.8069406747817993 0.00495708454400301 0.36087095737457275
1.7996784448623657 0.1661209762096405 0.3609461784362793
1.7782539129257202 0.32606634497642517 0.3610613942146301
1.7428416013717651 0.4835548400878906 0.3612158000469208
1.6936707496643066 0.6374006867408752 0.3614082336425781
1.6311070919036865 0.7864029407501221 0.3616374135017395
1.5556193590164185 0.9294078350067139 0.36190155148506165
7.485073089599609 5.43281364440918 1.8471245765686035
6.976770877838135 6.083944797515869 1.8487224578857422
6.412332534790039 6.688075542449951 1.8504319190979004
5.795966625213623 7.240365982055664 1.852239966392517
5.1324005126953125 7.736306190490723 1.8541326522827148
4.4267072677612305 8.171828269958496 1.8560951948165894
3.6842973232269287 8.543317794799805 1.8581124544143677
2.910935878753662 8.847625732421875 1.8601688146591187
2.1126255989074707 9.082118034362793 1.8622480630874634
1.2953661680221558 9.24206256866455 1.8638100624084473
0.4660896062850952 9.323750495910645 1.86439847946167
-0.3672315180301666 9.32841682434082 1.8644541501998901
-1.198736310005188 9.266520500183105 1.86606764793396
-2.022308588027954 9.13139820098877 1.8678514957427979
-2.831188917160034 8.92285442352295 1.869565725326538
-3.6188061237335205 8.642339706420898 1.8711961507797241
-4.378708839416504 8.291967391967773 1.8727294206619263
-5.104632377624512 7.874396324157715 1.8741528987884521
-5.791164875030518 7.3936614990234375 1.8756440877914429
-6.432240009307861 6.852846622467041 1.877041220664978
-7.022471904754639 6.256108283996582 1.8782994747161865
-1.4904067516326904 1.1060937643051147 0.3706677258014679
-1.584058165550232 0.9693381190299988 0.370889276266098
-1.6650179624557495 0.8246209621429443 0.3710717558860779
-1.7325854301452637 0.6731013059616089 0.3712136745452881
-1.7861840724945068 0.5160507559776306 0.37131378054618835
-1.8253732919692993 0.3547559380531311 0.37137144804000854
-1.8498156070709229 0.19055454432964325 0.371385782957077
-1.859285831451416 0.024826526641845703 0.3713568150997162
-1.8537369966506958 -0.14105750620365143 0.37128493189811707
-1.8332105875015259 -0.3057267963886261 0.37117063999176025
-1.7978848218917847 -0.4678049385547638 0.3710150122642517
-1.74807870388031 -0.6259387731552124 0.37081924080848694
-1.6842275857925415 -0.778850793838501 0.37058502435684204
-1.606885313987732 -0.925269365310669 0.3703146278858185
-7.704782962799072 -5.4050750732421875 1.879616618156433
-7.1920366287231445 -6.070688724517822 1.879616618156433
-6.621980667114258 -6.687887191772461 1.879616618156433
-5.999182224273682 -7.251780033111572 1.879616618156433
-5.328561782836914 -7.757908344268799 1.879616618156433
-4.615476608276367 -8.202187538146973 1.879616618156433
-3.8655848503112793 -8.581128120422363 1.879616618156433
-3.0848803520202637 -8.89167308807373 1.879616618156433
-2.279707193374634 -9.131354331970215 1.879616618156433
-1.4562395811080933 -9.2982759475708 1.879616618156433
-0.6212151050567627 -9.391095161437988 1.879616618156433
0.21864311397075653 -9.409042358398438 1.879616618156433
1.0570884943008423 -9.352078437805176 1.879616618156433
1.8868498802185059 -9.220541000366211 1.879616618156433
2.701622247695923 -9.01551342010498 1.879616618156433
3.4948997497558594 -8.738651275634766 1.879616618156433
4.260291576385498 -8.3921480178833 1.879616618156433
4.991745471954346 -7.978769779205322 1.879616618156433
5.683391571044922 -7.501832008361816 1.8796164989471436
6.329765319824219 -6.965081691741943 1.8796170949935913
6.798032760620117 -6.255318641662598 1.8449679613113403
1.4362189769744873 -1.1021555662155151 0.36155667901039124
1.5278785228729248 -0.9691056609153748 0.3613397181034088
1.6074120998382568 -0.828571081161499 0.36115965247154236
1.674242377281189 -0.681656002998352 0.3610183596611023
1.7278797626495361 -0.529474675655365 0.3609164357185364
1.767905831336975 -0.37320807576179504 0.36085477471351624
1.7940387725830078 -0.21404309570789337 0.3608337342739105
1.8060810565948486 -0.05320550873875618 0.36085373163223267
1.8039350509643555 0.10809705406427383 0.36091428995132446
1.787598729133606 0.26862654089927673 0.36101531982421875
1.7572064399719238 0.42713919281959534 0.3611556887626648
1.712956190109253 0.5824333429336548 0.36133453249931335
1.655184268951416 0.7333112359046936 0.36155059933662415
1.5842911005020142 0.878616988658905 0.3618023693561554
7.653797626495361 5.18754243850708 1.8465783596038818
7.16671085357666 5.854366302490234 1.848132848739624
6.62202262878418 6.476017475128174 1.8498035669326782
6.023868083953857 7.047520160675049 1.8515775203704834
5.376740455627441 7.564278602600098 1.8534414768218994
4.685630798339844 8.022027015686035 1.8553805351257324
3.955822706222534 8.416996002197266 1.8573799133300781
3.1929423809051514 8.745842933654785 1.859424114227295
2.4029147624969482 9.00577163696289 1.8614968061447144
1.5918939113616943 9.194106101989746 1.8635066747665405
0.765908420085907 9.303061485290527 1.8642328977584839
-0.06681472808122635 9.33569049835205 1.8645087480545044
-0.8995345234870911 9.297021865844727 1.8654102087020874
-1.7267347574234009 9.188643455505371 1.867215633392334
-2.5416908264160156 9.00640869140625 1.8689565658569336
-3.33772611618042 8.751646995544434 1.8706188201904297
-4.108355522155762 8.42617416381836 1.872188687324524
-4.847230911254883 8.032500267028809 1.8736530542373657
-5.548578262329102 7.574065208435059 1.8751085996627808
-6.206727027893066 7.054503440856934 1.876552939414978
-6.8158698081970215 6.477383136749268 1.8778626918792725
-1.4536863565444946 1.153212070465088 0.3705786168575287
-1.5517163276672363 1.019624948501587 0.3708137571811676
-1.6373403072357178 0.8776367902755737 0.371010422706604
-1.7098057270050049 0.728430449962616 0.37116730213165283
-1.7685027122497559 0.5732244253158569 0.3712826371192932
-1.812931776046753 0.4133085608482361 0.3713555932044983
-1.8427180051803589 0.24999670684337616 0.37138548493385315
-1.8576085567474365 0.08465584367513657 0.37137237191200256
-1.8574769496917725 -0.08133281767368317 0.37131574749946594
-1.8423243761062622 -0.246593177318573 0.37121671438217163
-1.812309980392456 -0.4097510576248169 0.37107589840888977
-1.7676749229431152 -0.5694621801376343 0.37089431285858154
-1.7088308334350586 -0.7244120836257935 0.370673805475235
-1.6362805366516113 -0.8733156323432922 0.3704161047935486
-7.874760627746582 -5.154290676116943 1.879616618156433
-7.38372802734375 -5.836012840270996 1.879616618156433
-6.833808898925781 -6.471287250518799 1.879616618156433
-6.229471206665039 -7.054929733276367 1.879616618156433
-5.575492858886719 -7.582369327545166 1.879616618156433
-4.877077579498291 -8.049383163452148 1.879616618156433
-4.139788627624512 -8.45224380493164 1.879616618156433
-3.369351387023926 -8.787787437438965 1.879616618156433
-2.572314977645874 -9.053261756896973 1.879616618156433
-1.754763126373291 -9.246590614318848 1.879616618156433
-0.9231565594673157 -9.366236686706543 1.879616618156433
-0.08430221676826477 -9.411214828491211 1.879616618156433
0.7554926872253418 -9.381242752075195 1.879616618156433
1.589092493057251 -9.276497840881348 1.879616618156433
2.410036563873291 -9.097800254821777 1.879616618156433
3.211778402328491 -8.84663200378418 1.879616618156433
3.9879157543182373 -8.524941444396973 1.879616618156433
4.732358455657959 -8.1353120803833 1.879616618156433
5.438974380493164 -7.680863857269287 1.879616618156433
6.102293968200684 -7.16520357131958 1.8796169757843018
6.610631942749023 -6.488081932067871 1.849861979484558
1.4003397226333618 -1.148091435432434 0.3616436719894409
1.4961973428726196 -1.0179831981658936 0.36141371726989746
1.5801763534545898 -0.8800252079963684 0.3612200915813446
1.6516450643539429 -0.7352859377861023 0.36106476187705994
1.710084319114685 -0.5848762392997742 0.36094847321510315
1.7550610303878784 -0.4299362897872925 0.3608724772930145
1.7862414121627808 -0.2716764509677887 0.36083677411079407
1.8033719062805176 -0.11129649728536606 0.3608418107032776
1.8063430786132812 0.04997754842042923 0.360887736082077
1.7951247692108154 0.21092067658901215 0.36097443103790283
1.7697737216949463 0.37029796838760376 0.3611004650592804
1.7304868698120117 0.5268979072570801 0.36126571893692017
1.6775498390197754 0.6795089840888977 0.36146849393844604
1.6113303899765015 0.8269493579864502 0.36170774698257446
1.5323200225830078 0.9680922627449036 0.36198118329048157
7.34913444519043 5.6189165115356445 1.8475584983825684
6.82476282119751 6.2574381828308105 1.8491888046264648
6.2454142570495605 6.847570419311523 1.8509271144866943
5.6154046058654785 7.384554386138916 1.8527599573135376
4.939532279968262 7.864058494567871 1.8546737432479858
4.223021507263184 8.282052993774414 1.8566532135009766
3.471409797668457 8.635104179382324 1.8586829900741577
2.690457820892334 8.920178413391113 1.8607473373413086
1.8863391876220703 9.134778022766113 1.8628298044204712
1.0648260116577148 9.272496223449707 1.864011526107788
0.233702152967453 9.332815170288086 1.8644726276397705
-0.5995997190475464 9.317843437194824 1.8647464513778687
-1.429586410522461 9.23626708984375 1.8665714263916016
-2.2496988773345947 9.080556869506836 1.8683371543884277
-3.0533626079559326 8.851752281188965 1.8700295686721802
-3.8338844776153564 8.551511764526367 1.8716343641281128
-4.584924697875977 8.182097434997559 1.8731380701065063
-5.300329685211182 7.746476650238037 1.8745571374893188
-5.974849224090576 7.248659133911133 1.876047134399414
-6.602242469787598 6.691780090332031 1.8774067163467407
-7.177378177642822 6.080277442932129 1.8786243200302124
-1.5177695751190186 1.0688062906265259 0.3707333207130432
-1.6079496145248413 0.9297218322753906 0.3709440529346466
-1.6852372884750366 0.7829774022102356 0.37111541628837585
-1.748964548110962 0.6297851204872131 0.3712458610534668
-1.7985851764678955 0.4714098572731018 0.3713342249393463
-1.8336838483810425 0.30918052792549133 0.37137970328330994
-1.8539633750915527 0.14441977441310883 0.3713821470737457
-1.859249472618103 -0.02150636538863182 0.3713410794734955
-1.8495105504989624 -0.18718625605106354 0.37125730514526367
-1.8248287439346313 -0.35126417875289917 0.3711312711238861
-1.78543221950531 -0.5123679637908936 0.3709643483161926
-1.7316538095474243 -0.6691821813583374 0.37075772881507874
-1.6639752388000488 -0.8204043507575989 0.3705131411552429
-1.5829838514328003 -0.9647983908653259 0.37023285031318665
-7.567743301391602 -5.595346450805664 1.879616618156433
-7.038585662841797 -6.24793815612793 1.879616618156433
-6.453312873840332 -6.850779056549072 1.879616618156433
-5.816672325134277 -7.398989677429199 1.879616618156433
-5.1336469650268555 -7.888242244720459 1.879616618156433
-4.4097208976745605 -8.31462287902832 1.879616618156433
-3.6506545543670654 -8.674748420715332 1.879616618156433
-2.862374782562256 -8.965765953063965 1.879616618156433
-2.0515615940093994 -9.18529987335205 1.879616618156433
-1.2241469621658325 -9.331665992736816 1.879616618156433
-0.3870588541030884 -9.40363883972168 1.879616618156433
0.4530876874923706 -9.400703430175781 1.879616618156433
1.2897899150848389 -9.322834968566895 1.879616618156433
2.115959882736206 -9.170655250549316 1.879616618156433
2.9253716468811035 -8.945425033569336 1.879616618156433
3.7114791870117188 -8.648892402648926 1.879616618156433
4.467987537384033 -8.283438682556152 1.879616618156433
5.188882827758789 -7.851932048797607 1.879616618156433
5.8685150146484375 -7.357920169830322 1.879616618156433
6.477427005767822 -6.780234336853027 1.872713565826416
1.362998366355896 -1.1928789615631104 0.3617352247238159
1.4629790782928467 -1.0658514499664307 0.3614923059940338
1.551310658454895 -0.9305971264839172 0.3612856864929199
1.6273624897003174 -0.7881748080253601 0.36111631989479065
1.6905486583709717 -0.6396780014038086 0.3609858751296997
1.7404258251190186 -0.486245721578598 0.3608950674533844
1.7766070365905762 -0.3290429711341858 0.3608448803424835
1.7988264560699463 -0.16928784549236298 0.3608352541923523
1.806908130645752 -0.008188953623175621 0.3608665466308594
1.80079984664917 0.15301145613193512 0.3609384000301361
1.7805315256118774 0.31310123205184937 0.36105039715766907
1.7462480068206787 0.47083547711372375 0.36120176315307617
1.6981874704360962 0.6250274777412415 0.3613912761211395
1.6367052793502808 0.7744675874710083 0.36161741614341736
1.5622408390045166 0.9180053472518921 0.3618786633014679
7.52392053604126 5.377799987792969 1.8469996452331543
7.020355701446533 6.032571792602539 1.8485878705978394
6.460331916809082 6.640719413757324 1.85028874874115
5.848047733306885 7.19739294052124 1.8520891666412354
5.1881632804870605 7.698075771331787 1.853975534439087
4.48567008972168 8.138686180114746 1.8559330701828003
3.746046304702759 8.515521049499512 1.8579463958740234
2.9749858379364014 8.825397491455078 1.8600001335144043
2.178509473800659 9.065677642822266 1.862078070640564
1.3625798225402832 9.232075691223145 1.8637429475784302
0.5339414477348328 9.319927215576172 1.8643627166748047
-0.29934927821159363 9.330945014953613 1.864474892616272
-1.1311691999435425 9.274252891540527 1.865919589996338
-1.955627679824829 9.145195960998535 1.867708444595337
-2.7659404277801514 8.942584037780762 1.8694288730621338
-3.555576801300049 8.667850494384766 1.871066689491272
-4.317962169647217 8.323081016540527 1.8726084232330322
-5.046853542327881 7.910886764526367 1.874041199684143
-5.736790180206299 7.435165882110596 1.8755244016647339
-6.381789207458496 6.899104595184326 1.8769323825836182
-6.976383686065674 6.306717395782471 1.8782024383544922
-1.482242226600647 1.116845726966858 0.37064802646636963
-1.576893925666809 0.9808026552200317 0.37087249755859375
-1.6589062213897705 0.8366862535476685 0.3710583448410034
-1.727595329284668 0.6856768131256104 0.37120360136032104
-1.7823576927185059 0.5290231704711914 0.37130722403526306
-1.822731852531433 0.3680294454097748 0.371368408203125
-1.8483816385269165 0.20401379466056824 0.3713861107826233
-1.8590809106826782 0.03836585953831673 0.37136077880859375
-1.854756236076355 -0.1275664120912552 0.3712924122810364
-1.8354357481002808 -0.2923842668533325 0.3711816370487213
-1.8013076782226562 -0.4547102153301239 0.3710293471813202
-1.7526746988296509 -0.6132224798202515 0.3708367943763733
-1.6899480819702148 -0.7666067481040955 0.37060546875
-1.6136746406555176 -0.9136120676994324 0.37033796310424805
-7.743907928466797 -5.348865032196045 1.879616618156433
-7.236059188842773 -6.018161296844482 1.879616618156433
-6.670519828796387 -6.639496803283691 1.879616618156433
-6.051829814910889 -7.2079081535339355 1.879616618156433
-5.384886741638184 -7.718908309936523 1.879616618156433
-4.675044059753418 -8.1683931350708 1.879616618156433
-3.9279558658599854 -8.552745819091797 1.879616618156433
-3.149477481842041 -8.868985176086426 1.879616618156433
-2.346203565597534 -9.114505767822266 1.879616618156433
-1.523858666419983 -9.287443161010742 1.879616618156433
-0.6895384192466736 -9.386314392089844 1.879616618156433
0.1503009796142578 -9.410421371459961 1.879616618156433
0.988906979560852 -9.35951042175293 1.879616618156433
