ply
format ascii 1.0
element vertex 2176
property float32 x
property float32 y
property float32 z
end_header
-0.5063 0.4959 0.3750
-0.5473 0.4477 0.3741
-0.5835 0.3961 0.3731
-0.6149 0.3415 0.3721
-0.6411 0.2845 0.3711
-0.6620 0.2255 0.3700
-0.6774 0.1650 0.3689
-0.6873 0.1036 0.3677
-0.6916 0.0417 0.3666
-0.6904 -0.0201 0.3654
-0.6837 -0.0814 0.3643
-0.6717 -0.1416 0.3632
-0.6544 -0.2004 0.3621
-0.6321 -0.2572 0.3611
-0.6049 -0.3117 0.3600
-0.5731 -0.3635 0.3591
-0.5371 -0.4121 0.3582
-0.4970 -0.4573 0.3573
-0.4532 -0.4988 0.3566
-0.4061 -0.5362 0.3559
-0.3560 -0.5693 0.3553
-0.3034 -0.5979 0.3547
-0.2485 -0.6218 0.3543
-0.1918 -0.6409 0.3539
-0.1338 -0.6549 0.3537
-0.0748 -0.6639 0.3535
-0.0152 -0.6678 0.3534
0.0444 -0.6666 0.3534
0.1037 -0.6602 0.3536
0.1623 -0.6486 0.3538
0.2197 -0.6321 0.3541
0.2756 -0.6107 0.3545
0.3294 -0.5844 0.3549
0.3809 -0.5536 0.3555
0.4295 -0.5184 0.3562
0.4750 -0.4789 0.3569
0.5170 -0.4356 0.3577
0.5552 -0.3887 0.3586
0.5892 -0.3385 0.3595
0.6187 -0.2853 0.3605
0.6435 -0.2296 0.3615
0.6634 -0.1718 0.3626
0.6781 -0.1123 0.3637
0.6876 -0.0515 0.3648
0.6916 0.0101 0.3659
0.6901 0.0720 0.3671
0.6830 0.1337 0.3682
0.6704 0.1947 0.3694
0.6523 0.2545 0.3705
0.6288 0.3126 0.3715
0.6001 0.3685 0.3726
0.5663 0.4217 0.3736
0.5277 0.4717 0.3745
0.4847 0.5181 0.3753
0.4374 0.5604 0.3761
0.3864 0.5983 0.3768
0.3320 0.6315 0.3775
0.2747 0.6595 0.3780
0.2150 0.6821 0.3784
0.1534 0.6992 0.3787
0.0905 0.7105 0.3789
0.0267 0.7159 0.3790
-0.0372 0.7154 0.3790
-0.1009 0.7090 0.3789
-0.1637 0.6968 0.3787
-0.2250 0.6788 0.3784
-0.2843 0.6553 0.3779
-0.3412 0.6264 0.3774
-0.3951 0.5925 0.3768
-0.4455 0.5538 0.3761
-0.4921 0.5108 0.3753
-0.5345 0.4638 0.3744
-0.5723 0.4132 0.3735
-0.6053 0.3595 0.3725
-0.6332 0.3032 0.3714
-0.6558 0.2448 0.3703
-0.6730 0.1848 0.3692
-0.6847 0.1236 0.3681
-0.6908 0.0618 0.3670
-0.6914 -0.0001 0.3658
-0.6865 -0.0616 0.3647
-0.6762 -0.1222 0.3636
-0.6606 -0.1815 0.3625
-0.6399 -0.2390 0.3614
-0.6142 -0.2943 0.3604
-0.5839 -0.3470 0.3594
-0.5492 -0.3967 0.3585
-0.5104 -0.4431 0.3576
-0.4678 -0.4858 0.3568
-0.4218 -0.5245 0.3561
-0.3726 -0.5590 0.3555
-0.3207 -0.5891 0.3549
-0.2665 -0.6146 0.3544
-0.2104 -0.6352 0.3540
-0.1528 -0.6509 0.3537
-0.0940 -0.6616 0.3535
-0.0346 -0.6671 0.3534
0.0251 -0.6675 0.3534
0.0845 -0.6628 0.3535
0.1434 -0.6529 0.3537
0.2013 -0.6380 0.3540
0.2576 -0.6182 0.3543
0.3122 -0.5935 0.3548
0.3644 -0.5641 0.3553
0.4140 -0.5303 0.3559
0.4606 -0.4922 0.3566
0.5038 -0.4501 0.3574
0.5432 -0.4043 0.3583
0.5786 -0.3551 0.3592
0.6096 -0.3029 0.3601
0.6360 -0.2480 0.3612
0.6575 -0.1908 0.3622
0.6739 -0.1318 0.3633
0.6851 -0.0713 0.3644
0.6909 -0.0100 0.3656
0.6912 0.0519 0.3667
0.6859 0.1137 0.3679
0.6751 0.1750 0.3690
0.6588 0.2352 0.3701
0.6370 0.2939 0.3712
0.6100 0.3506 0.3722
0.5778 0.4047 0.3732
0.5408 0.4558 0.3742
0.4991 0.5034 0.3751
0.4532 0.5471 0.3759
0.4034 0.5865 0.3766
0.3500 0.6212 0.3773
0.2936 0.6509 0.3778
0.2346 0.6754 0.3783
0.1736 0.6943 0.3786
0.1110 0.7074 0.3789
0.0475 0.7148 0.3790
-0.0165 0.7162 0.3790
-0.0803 0.7117 0.3790
-0.1434 0.7014 0.3788
-0.2053 0.6853 0.3785
-0.2653 0.6635 0.3781
-0.3230 0.6363 0.3776
-0.3779 0.6040 0.3770
-0.4295 0.5669 0.3763
-0.4774 0.5252 0.3755
-0.5212 0.4794 0.3747
-0.5605 0.4300 0.3738
-0.5951 0.3772 0.3728
-0.6247 0.3218 0.3718
-0.6490 0.2640 0.3707
-0.6680 0.2044 0.3696
-0.6815 0.1435 0.3685
-0.6894 0.0819 0.3673
-0.6918 0.0200 0.3662
-0.6887 -0.0417 0.3650
-0.6801 -0.1026 0.3639
-0.6662 -0.1624 0.3628
-0.6472 -0.2206 0.3617
-0.6231 -0.2766 0.3607
-0.5943 -0.3302 0.3597
-0.5610 -0.3809 0.3588
-0.5235 -0.4284 0.3579
-0.4821 -0.4723 0.3571
-0.4371 -0.5124 0.3563
-0.3889 -0.5483 0.3557
-0.3379 -0.5799 0.3551
-0.2844 -0.6068 0.3546
-0.2288 -0.6290 0.3542
-0.1716 -0.6464 0.3538
-0.1132 -0.6587 0.3536
-0.0539 -0.6659 0.3535
0.0057 -0.6680 0.3534
0.0653 -0.6649 0.3535
0.1244 -0.6567 0.3536
0.1826 -0.6434 0.3539
0.2395 -0.6252 0.3542
0.2947 -0.6020 0.3546
0.3477 -0.5741 0.3551
0.3983 -0.5417 0.3557
0.4458 -0.5050 0.3564
0.4902 -0.4642 0.3572
0.5308 -0.4196 0.3580
0.5676 -0.3714 0.3589
0.6000 -0.3202 0.3598
0.6279 -0.2661 0.3608
0.6511 -0.2096 0.3619
0.6692 -0.1511 0.3630
0.6820 -0.0911 0.3641
0.6896 -0.0300 0.3652
0.6917 0.0318 0.3663
0.6882 0.0937 0.3675
0.6792 0.1552 0.3686
0.6647 0.2158 0.3697
0.6447 0.2751 0.3708
0.6193 0.3325 0.3719
0.5888 0.3875 0.3729
0.5533 0.4396 0.3739
0.5131 0.4884 0.3748
0.4686 0.5334 0.3756
0.4199 0.5742 0.3764
0.3677 0.6105 0.3771
0.3122 0.6419 0.3776
0.2540 0.6680 0.3781
0.1936 0.6887 0.3785
0.1315 0.7038 0.3788
0.0682 0.7130 0.3790
0.0043 0.7164 0.3790
-0.0596 0.7138 0.3790
-0.1230 0.7054 0.3788
-0.1854 0.6911 0.3786
-0.2460 0.6712 0.3782
-0.3046 0.6457 0.3777
-0.3604 0.6151 0.3772
-0.4132 0.5795 0.3765
-0.4623 0.5392 0.3758
-0.5075 0.4947 0.3750
-0.5483 0.4464 0.3741
-0.5844 0.3947 0.3731
-0.6156 0.3401 0.3721
-0.6417 0.2830 0.3710
-0.6624 0.2239 0.3700
-0.6777 0.1634 0.3688
-0.6875 0.1020 0.3677
-0.6917 0.0401 0.3666
-0.6903 -0.0217 0.3654
-0.6835 -0.0829 0.3643
-0.6713 -0.1432 0.3632
-0.6539 -0.2019 0.3621
-0.6314 -0.2587 0.3610
-0.6041 -0.3131 0.3600
-0.5723 -0.3648 0.3591
-0.5361 -0.4133 0.3582
-0.4959 -0.4585 0.3573
-0.4521 -0.4998 0.3566
-0.4049 -0.5371 0.3559
-0.3547 -0.5701 0.3552
-0.3020 -0.5986 0.3547
-0.2471 -0.6224 0.3543
-0.1904 -0.6413 0.3539
-0.1323 -0.6552 0.3537
-0.0733 -0.6641 0.3535
-0.0137 -0.6679 0.3534
0.0459 -0.6665 0.3534
0.1053 -0.6599 0.3536
0.1638 -0.6483 0.3538
0.2212 -0.6316 0.3541
0.2770 -0.6101 0.3545
0.3308 -0.5837 0.3550
0.3821 -0.5527 0.3555
0.4307 -0.5174 0.3562
0.4762 -0.4779 0.3569
0.5181 -0.4345 0.3577
0.5561 -0.3874 0.3586
0.5900 -0.3371 0.3595
0.6194 -0.2839 0.3605
0.6441 -0.2282 0.3615
0.6638 -0.1703 0.3626
0.6784 -0.1107 0.3637
0.6877 -0.0499 0.3648
0.6916 0.0117 0.3660
0.6900 0.0736 0.3671
0.6828 0.1353 0.3683
0.6700 0.1963 0.3694
0.6518 0.2560 0.3705
0.6281 0.3141 0.3716
0.5993 0.3699 0.3726
0.5654 0.4230 0.3736
0.5267 0.4729 0.3745
0.4835 0.5192 0.3754
0.4361 0.5615 0.3762
0.3850 0.5992 0.3769
0.3306 0.6322 0.3775
0.2732 0.6601 0.3780
0.2135 0.6826 0.3784
0.1518 0.6995 0.3787
0.0888 0.7107 0.3789
0.0251 0.7160 0.3790
-0.0389 0.7153 0.3790
-0.1025 0.7088 0.3789
-0.1653 0.6964 0.3787
-0.2265 0.6783 0.3783
-0.2858 0.6546 0.3779
-0.3426 0.6256 0.3774
-0.3964 0.5915 0.3767
-0.4468 0.5528 0.3760
-0.4932 0.5096 0.3752
-0.5355 0.4625 0.3744
-0.5732 0.4118 0.3734
-0.6060 0.3581 0.3724
-0.6338 0.3017 0.3714
-0.6563 0.2433 0.3703
-0.6734 0.1832 0.3692
-0.6849 0.1220 0.3681
-0.6909 0.0602 0.3669
-0.6914 -0.0017 0.3658
-0.6863 -0.0631 0.3646
-0.6759 -0.1237 0.3635
-0.6601 -0.1830 0.3624
-0.6393 -0.2405 0.3614
-0.6135 -0.2957 0.3603
-0.5831 -0.3483 0.3594
-0.5483 -0.3979 0.3584
-0.5094 -0.4442 0.3576
-0.4667 -0.4868 0.3568
-0.4205 -0.5255 0.3561
-0.3713 -0.5599 0.3554
-0.3194 -0.5898 0.3549
-0.2651 -0.6152 0.3544
-0.2089 -0.6357 0.3540
-0.1513 -0.6513 0.3537
-0.0925 -0.6618 0.3535
-0.0331 -0.6672 0.3534
0.0266 -0.6675 0.3534
0.0861 -0.6626 0.3535
0.1449 -0.6526 0.3537
0.2027 -0.6376 0.3540
0.2591 -0.6176 0.3543
0.3136 -0.5928 0.3548
0.3658 -0.5633 0.3553
0.4153 -0.5293 0.3560
0.4618 -0.4911 0.3567
0.5049 -0.4490 0.3574
0.5442 -0.4031 0.3583
0.5794 -0.3538 0.3592
0.6103 -0.3015 0.3602
0.6366 -0.2465 0.3612
0.6580 -0.1893 0.3622
0.6743 -0.1302 0.3633
0.6853 -0.0698 0.3645
0.6909 -0.0084 0.3656
0.6911 0.0535 0.3667
0.6857 0.1153 0.3679
0.6748 0.1766 0.3690
0.6583 0.2368 0.3701
0.6364 0.2954 0.3712
0.6092 0.3520 0.3723
0.5769 0.4061 0.3733
0.5398 0.4571 0.3742
0.4980 0.5046 0.3751
0.4520 0.5482 0.3759
0.4020 0.5875 0.3766
0.3486 0.6221 0.3773
0.2921 0.6516 0.3778
0.2331 0.6759 0.3783
0.1720 0.6947 0.3786
0.1094 0.7077 0.3789
0.0458 0.7149 0.3790
-0.0181 0.7162 0.3790
-0.0819 0.7116 0.3790
-0.1450 0.7010 0.3788
-0.2068 0.6848 0.3785
-0.2668 0.6629 0.3781
-0.3245 0.6356 0.3776
-0.3793 0.6031 0.3770
-0.4308 0.5659 0.3763
-0.4786 0.5241 0.3755
-0.5223 0.4782 0.3747
-0.5615 0.4286 0.3737
-0.5959 0.3759 0.3728
-0.6254 0.3203 0.3717
-0.6496 0.2625 0.3707
-0.6684 0.2029 0.3696
-0.6818 0.1420 0.3684
-0.6896 0.0803 0.3673
-0.6918 0.0184 0.3662
-0.6885 -0.0433 0.3650
-0.6798 -0.1042 0.3639
-0.6658 -0.1639 0.3628
-0.6466 -0.2220 0.3617
-0.6224 -0.2780 0.3607
-0.5935 -0.3315 0.3597
-0.5601 -0.3822 0.3587
-0.5225 -0.4296 0.3579
-0.4809 -0.4734 0.3570
-0.4359 -0.5134 0.3563
-0.3876 -0.5492 0.3556
-0.3365 -0.5806 0.3551
-0.2830 -0.6075 0.3546
-0.2274 -0.6296 0.3541
-0.1701 -0.6467 0.3538
-0.1117 -0.6589 0.3536
-0.0524 -0.6660 0.3535
0.0072 -0.6680 0.3534
0.0668 -0.6648 0.3535
0.1259 -0.6564 0.3536
0.1841 -0.6430 0.3539
0.2410 -0.6246 0.3542
0.2961 -0.6014 0.3546
0.3491 -0.5734 0.3552
0.3995 -0.5408 0.3558
0.4470 -0.5040 0.3564
0.4913 -0.4631 0.3572
0.5318 -0.4184 0.3580
0.5685 -0.3702 0.3589
0.6008 -0.3188 0.3599
0.6286 -0.2647 0.3609
0.6516 -0.2081 0.3619
0.6696 -0.1496 0.3630
0.6823 -0.0895 0.3641
0.6897 -0.0284 0.3652
0.6917 0.0334 0.3664
0.6881 0.0953 0.3675
0.6789 0.1568 0.3686
0.6642 0.2174 0.3698
0.6441 0.2766 0.3709
0.6186 0.3339 0.3719
0.5880 0.3888 0.3729
0.5523 0.4409 0.3739
0.5120 0.4896 0.3748
0.4674 0.5345 0.3756
0.4186 0.5752 0.3764
0.3663 0.6114 0.3771
0.3108 0.6426 0.3777
0.2525 0.6686 0.3781
0.1920 0.6892 0.3785
0.1299 0.7041 0.3788
0.0666 0.7132 0.3790
0.0027 0.7164 0.3790
-0.0613 0.7137 0.3790
-0.1247 0.7051 0.3788
-0.1869 0.6907 0.3786
-0.2476 0.6706 0.3782
-0.3061 0.6450 0.3777
-0.3618 0.6142 0.3772
-0.4145 0.5785 0.3765
-0.4635 0.5381 0.3758
-0.5086 0.4935 0.3749
-0.5493 0.4451 0.3740
-0.5853 0.3933 0.3731
-0.6164 0.3386 0.3721
-0.6423 0.2815 0.3710
-0.6629 0.2224 0.3699
-0.6780 0.1619 0.3688
-0.6876 0.1004 0.3677
-0.6917 0.0385 0.3665
-0.6902 -0.0233 0.3654
-0.6833 -0.0845 0.3642
-0.6709 -0.1447 0.3631
-0.6534 -0.2034 0.3620
-0.6308 -0.2601 0.3610
-0.6034 -0.3145 0.3600
-0.5714 -0.3661 0.3590
-0.5351 -0.4146 0.3581
-0.4948 -0.4596 0.3573
-0.4509 -0.5008 0.3565
-0.4036 -0.5380 0.3558
-0.3534 -0.5709 0.3552
-0.3006 -0.5993 0.3547
-0.2456 -0.6229 0.3543
-0.1889 -0.6417 0.3539
-0.1308 -0.6555 0.3537
-0.0717 -0.6643 0.3535
-0.0122 -0.6679 0.3534
0.0475 -0.6664 0.3534
0.1068 -0.6597 0.3536
0.1653 -0.6479 0.3538
0.2227 -0.6311 0.3541
0.2784 -0.6094 0.3545
0.3321 -0.5830 0.3550
0.3834 -0.5519 0.3555
0.4319 -0.5164 0.3562
0.4773 -0.4768 0.3569
0.5191 -0.4333 0.3577
0.5570 -0.3862 0.3586
0.5908 -0.3358 0.3595
0.6201 -0.2825 0.3605
0.6447 -0.2267 0.3616
0.6643 -0.1688 0.3626
0.6788 -0.1092 0.3637
0.6879 -0.0483 0.3649
0.6916 0.0133 0.3660
0.6898 0.0752 0.3671
0.6825 0.1369 0.3683
0.6696 0.1978 0.3694
0.6512 0.2575 0.3705
0.6275 0.3155 0.3716
0.5985 0.3713 0.3726
0.5644 0.4243 0.3736
0.5256 0.4742 0.3745
0.4823 0.5204 0.3754
0.4349 0.5625 0.3762
0.3837 0.6002 0.3769
0.3291 0.6330 0.3775
0.2717 0.6608 0.3780
0.2119 0.6831 0.3784
0.1502 0.6999 0.3787
0.0872 0.7109 0.3789
0.0234 0.7160 0.3790
-0.0405 0.7152 0.3790
-0.1042 0.7085 0.3789
-0.1669 0.6960 0.3787
-0.2281 0.6777 0.3783
-0.2873 0.6539 0.3779
-0.3440 0.6248 0.3774
-0.3978 0.5906 0.3767
-0.4480 0.5517 0.3760
-0.4944 0.5084 0.3752
-0.5365 0.4612 0.3743
-0.5741 0.4105 0.3734
-0.6068 0.3567 0.3724
-0.6345 0.3003 0.3714
-0.6568 0.2417 0.3703
-0.6737 0.1816 0.3692
-0.6851 0.1204 0.3680
-0.6910 0.0586 0.3669
-0.6913 -0.0032 0.3658
-0.6861 -0.0647 0.3646
-0.6755 -0.1253 0.3635
-0.6596 -0.1845 0.3624
-0.6387 -0.2419 0.3613
-0.6128 -0.2971 0.3603
-0.5823 -0.3496 0.3593
-0.5473 -0.3992 0.3584
-0.5083 -0.4454 0.3576
-0.4655 -0.4879 0.3568
-0.4193 -0.5264 0.3561
-0.3700 -0.5607 0.3554
-0.3180 -0.5906 0.3549
-0.2637 -0.6158 0.3544
-0.2075 -0.6361 0.3540
-0.1498 -0.6516 0.3537
-0.0910 -0.6620 0.3535
-0.0315 -0.6673 0.3534
0.0281 -0.6674 0.3534
0.0876 -0.6624 0.3535
0.1464 -0.6523 0.3537
0.2042 -0.6371 0.3540
0.2605 -0.6170 0.3543
0.3149 -0.5921 0.3548
0.3671 -0.5625 0.3554
0.4165 -0.5284 0.3560
0.5085 -0.4305 0.3578
0.5462 -0.3843 0.3586
0.5798 -0.3349 0.3596
0.6090 -0.2826 0.3605
0.6336 -0.2277 0.3615
0.6533 -0.1708 0.3626
0.6679 -0.1122 0.3637
0.6773 -0.0523 0.3648
0.6813 0.0084 0.3659
0.6800 0.0694 0.3670
0.6731 0.1301 0.3682
0.6608 0.1903 0.3693
0.6431 0.2492 0.3704
0.6201 0.3065 0.3714
0.5919 0.3616 0.3724
0.5587 0.4140 0.3734
0.5208 0.4633 0.3743
0.4785 0.5091 0.3752
0.4320 0.5509 0.3760
0.3819 0.5884 0.3767
0.3284 0.6211 0.3773
0.2720 0.6488 0.3778
0.2133 0.6712 0.3782
0.1527 0.6881 0.3785
0.0907 0.6994 0.3787
0.0279 0.7049 0.3788
-0.0351 0.7046 0.3788
-0.0978 0.6984 0.3787
-0.1596 0.6865 0.3785
-0.2200 0.6690 0.3782
-0.2785 0.6460 0.3777
-0.3346 0.6177 0.3772
-0.3877 0.5844 0.3766
-0.4375 0.5465 0.3759
-0.4835 0.5042 0.3751
-0.5254 0.4580 0.3743
-0.5628 0.4083 0.3734
-0.5954 0.3555 0.3724
-0.6230 0.3001 0.3714
-0.6455 0.2427 0.3703
-0.6626 0.1836 0.3692
-0.6743 0.1233 0.3681
-0.6805 0.0625 0.3670
-0.6813 0.0015 0.3658
-0.6766 -0.0591 0.3647
-0.6666 -0.1189 0.3636
-0.6514 -0.1774 0.3625
-0.6311 -0.2341 0.3615
-0.6060 -0.2887 0.3605
-0.5763 -0.3407 0.3595
-0.5423 -0.3898 0.3586
-0.5041 -0.4356 0.3577
-0.4622 -0.4777 0.3570
-0.4169 -0.5161 0.3563
-0.3686 -0.5502 0.3556
-0.3175 -0.5800 0.3551
-0.2641 -0.6052 0.3546
-0.2089 -0.6257 0.3542
-0.1521 -0.6413 0.3539
-0.0942 -0.6519 0.3537
-0.0356 -0.6576 0.3536
0.0232 -0.6581 0.3536
0.0818 -0.6535 0.3537
0.1399 -0.6439 0.3539
0.1969 -0.6294 0.3541
0.2526 -0.6099 0.3545
0.3064 -0.5857 0.3549
0.3579 -0.5568 0.3555
0.4069 -0.5236 0.3561
0.4529 -0.4861 0.3568
0.4955 -0.4447 0.3575
0.5344 -0.3997 0.3584
0.5694 -0.3513 0.3593
0.6000 -0.2999 0.3602
0.6261 -0.2458 0.3612
0.6474 -0.1895 0.3622
0.6637 -0.1314 0.3633
0.6748 -0.0718 0.3644
0.6806 -0.0114 0.3655
0.6810 0.0495 0.3667
0.6760 0.1105 0.3678
0.6654 0.1708 0.3689
0.6494 0.2302 0.3700
0.6281 0.2881 0.3711
0.6016 0.3439 0.3721
0.5700 0.3973 0.3731
0.5336 0.4477 0.3740
0.4927 0.4947 0.3749
0.4475 0.5378 0.3757
0.3985 0.5767 0.3764
0.3461 0.6110 0.3771
0.2906 0.6404 0.3776
0.2326 0.6645 0.3781
0.1725 0.6833 0.3784
0.1109 0.6964 0.3787
0.0484 0.7038 0.3788
-0.0146 0.7053 0.3788
-0.0775 0.7011 0.3788
-0.1396 0.6910 0.3786
-0.2006 0.6753 0.3783
-0.2598 0.6540 0.3779
-0.3167 0.6274 0.3774
-0.3708 0.5957 0.3768
-0.4218 0.5593 0.3762
-0.4690 0.5184 0.3754
-0.5123 0.4734 0.3746
-0.5512 0.4248 0.3737
-0.5854 0.3730 0.3727
-0.6146 0.3184 0.3717
-0.6388 0.2615 0.3707
-0.6576 0.2029 0.3696
-0.6711 0.1430 0.3685
-0.6791 0.0823 0.3673
-0.6816 0.0213 0.3662
-0.6787 -0.0395 0.3651
-0.6704 -0.0996 0.3640
-0.6569 -0.1585 0.3629
-0.6383 -0.2159 0.3618
-0.6147 -0.2712 0.3608
-0.5865 -0.3241 0.3598
-0.5538 -0.3742 0.3589
-0.5169 -0.4211 0.3580
-0.4762 -0.4645 0.3572
-0.4320 -0.5041 0.3565
-0.3846 -0.5396 0.3558
-0.3344 -0.5708 0.3552
-0.2817 -0.5975 0.3547
-0.2270 -0.6196 0.3543
-0.1706 -0.6368 0.3540
-0.1131 -0.6490 0.3538
-0.0547 -0.6563 0.3536
0.0041 -0.6585 0.3536
0.0628 -0.6556 0.3536
0.1211 -0.6476 0.3538
0.1785 -0.6347 0.3540
0.2347 -0.6168 0.3544
0.2891 -0.5941 0.3548
0.3415 -0.5667 0.3553
0.3913 -0.5349 0.3559
0.4383 -0.4987 0.3565
0.4820 -0.4586 0.3573
0.5222 -0.4147 0.3581
0.5585 -0.3673 0.3590
0.5906 -0.3169 0.3599
0.6182 -0.2636 0.3609
0.6410 -0.2080 0.3619
0.6590 -0.1504 0.3630
0.6718 -0.0913 0.3641
0.6793 -0.0311 0.3652
0.6815 0.0297 0.3663
0.6782 0.0907 0.3674
0.6694 0.1513 0.3685
0.6552 0.2111 0.3697
0.6356 0.2695 0.3707
0.6108 0.3261 0.3718
0.5808 0.3803 0.3728
0.5460 0.4317 0.3737
0.5065 0.4798 0.3746
0.4627 0.5242 0.3755
0.4149 0.5646 0.3762
0.3635 0.6004 0.3769
0.3089 0.6314 0.3775
0.2517 0.6573 0.3779
0.1922 0.6778 0.3783
0.1311 0.6927 0.3786
0.0688 0.7020 0.3788
0.0059 0.7055 0.3788
-0.0571 0.7031 0.3788
-0.1196 0.6949 0.3786
-0.1810 0.6810 0.3784
-0.2408 0.6615 0.3780
-0.2985 0.6366 0.3776
-0.3536 0.6066 0.3770
-0.4056 0.5716 0.3764
-0.4541 0.5321 0.3757
-0.4987 0.4884 0.3748
-0.5390 0.4410 0.3740
-0.5748 0.3901 0.3730
-0.6057 0.3364 0.3720
-0.6315 0.2802 0.3710
-0.6521 0.2221 0.3699
-0.6673 0.1625 0.3688
-0.6771 0.1020 0.3677
-0.6814 0.0411 0.3666
-0.6803 -0.0198 0.3654
-0.6737 -0.0802 0.3643
-0.6619 -0.1396 0.3632
-0.6449 -0.1975 0.3622
-0.6229 -0.2535 0.3611
-0.5961 -0.3072 0.3601
-0.5649 -0.3582 0.3592
-0.5293 -0.4062 0.3583
-0.4898 -0.4508 0.3575
-0.4467 -0.4916 0.3567
-0.4003 -0.5285 0.3560
-0.3510 -0.5612 0.3554
-0.2990 -0.5894 0.3549
-0.2450 -0.6129 0.3544
-0.1891 -0.6317 0.3541
-0.1319 -0.6456 0.3538
-0.0737 -0.6545 0.3537
-0.0150 -0.6583 0.3536
0.0438 -0.6571 0.3536
0.1023 -0.6507 0.3537
0.1600 -0.6394 0.3539
0.2166 -0.6231 0.3542
0.2716 -0.6019 0.3546
0.3247 -0.5761 0.3551
0.3754 -0.5457 0.3557
0.4234 -0.5109 0.3563
0.4682 -0.4720 0.3570
0.5096 -0.4293 0.3578
0.5471 -0.3831 0.3587
0.5806 -0.3336 0.3596
0.6097 -0.2812 0.3605
0.6341 -0.2263 0.3616
0.6537 -0.1693 0.3626
0.6682 -0.1106 0.3637
0.6775 -0.0507 0.3648
0.6814 0.0099 0.3659
0.6799 0.0709 0.3671
0.6729 0.1317 0.3682
0.6604 0.1918 0.3693
0.6426 0.2507 0.3704
0.6194 0.3079 0.3714
0.5911 0.3630 0.3725
0.5578 0.4153 0.3734
0.5198 0.4646 0.3744
0.4773 0.5102 0.3752
0.4308 0.5519 0.3760
0.3805 0.5893 0.3767
0.3270 0.6219 0.3773
0.2705 0.6494 0.3778
0.2117 0.6717 0.3782
0.1511 0.6885 0.3785
0.0891 0.6996 0.3787
0.0263 0.7050 0.3788
-0.0367 0.7045 0.3788
-0.0994 0.6982 0.3787
-0.1612 0.6862 0.3785
-0.2216 0.6685 0.3782
-0.2800 0.6453 0.3777
-0.3360 0.6169 0.3772
-0.3891 0.5835 0.3766
-0.4388 0.5454 0.3759
-0.4847 0.5031 0.3751
-0.5264 0.4568 0.3743
-0.5637 0.4070 0.3733
-0.5962 0.3541 0.3724
-0.6237 0.2987 0.3713
-0.6460 0.2412 0.3703
-0.6630 0.1820 0.3692
-0.6745 0.1218 0.3681
-0.6806 0.0609 0.3669
-0.6812 -0.0001 0.3658
-0.6764 -0.0607 0.3647
-0.6663 -0.1204 0.3636
-0.6509 -0.1789 0.3625
-0.6306 -0.2355 0.3615
-0.6053 -0.2900 0.3604
-0.5755 -0.3420 0.3595
-0.5413 -0.3910 0.3586
-0.5031 -0.4367 0.3577
-0.4611 -0.4788 0.3569
-0.4157 -0.5170 0.3562
-0.3673 -0.5510 0.3556
-0.3162 -0.5807 0.3550
-0.2627 -0.6058 0.3546
-0.2074 -0.6261 0.3542
-0.1506 -0.6416 0.3539
-0.0927 -0.6522 0.3537
-0.0341 -0.6576 0.3536
0.0247 -0.6580 0.3536
0.0833 -0.6534 0.3537
0.1414 -0.6436 0.3539
0.1984 -0.6289 0.3541
0.2540 -0.6093 0.3545
0.3077 -0.5850 0.3549
0.3592 -0.5560 0.3555
0.4081 -0.5227 0.3561
0.4540 -0.4851 0.3568
0.4965 -0.4436 0.3575
0.5354 -0.3985 0.3584
0.5702 -0.3500 0.3593
0.6008 -0.2985 0.3602
0.6267 -0.2444 0.3612
0.6479 -0.1880 0.3623
0.6641 -0.1298 0.3633
0.6750 -0.0703 0.3644
0.6807 -0.0098 0.3656
0.6810 0.0511 0.3667
0.6758 0.1120 0.3678
0.6651 0.1724 0.3689
0.6490 0.2317 0.3700
0.6275 0.2896 0.3711
0.6008 0.3454 0.3721
0.5691 0.3986 0.3731
0.5326 0.4489 0.3741
0.4916 0.4958 0.3749
0.4463 0.5389 0.3757
0.3972 0.5776 0.3765
0.3447 0.6118 0.3771
0.2891 0.6410 0.3776
0.2311 0.6651 0.3781
0.1710 0.6837 0.3784
0.1093 0.6966 0.3787
0.0468 0.7039 0.3788
-0.0162 0.7053 0.3788
-0.0791 0.7009 0.3788
-0.1412 0.6907 0.3786
-0.2021 0.6748 0.3783
-0.2613 0.6534 0.3779
-0.3181 0.6267 0.3774
-0.3722 0.5949 0.3768
-0.4230 0.5583 0.3761
-0.4702 0.5173 0.3754
-0.5133 0.4722 0.3745
-0.5521 0.4235 0.3736
-0.5862 0.3716 0.3727
-0.6153 0.3169 0.3717
-0.6393 0.2600 0.3706
-0.6580 0.2014 0.3695
-0.6714 0.1414 0.3684
-0.6792 0.0807 0.3673
-0.6816 0.0197 0.3662
-0.6786 -0.0411 0.3651
-0.6702 -0.1011 0.3639
-0.6565 -0.1600 0.3629
-0.6377 -0.2173 0.3618
-0.6140 -0.2726 0.3608
-0.5857 -0.3254 0.3598
-0.5529 -0.3754 0.3589
-0.5159 -0.4222 0.3580
-0.4751 -0.4655 0.3572
-0.4308 -0.5050 0.3565
-0.3833 -0.5404 0.3558
-0.3330 -0.5716 0.3552
-0.2803 -0.5982 0.3547
-0.2256 -0.6201 0.3543
-0.1692 -0.6372 0.3540
-0.1116 -0.6493 0.3538
-0.0532 -0.6564 0.3536
0.0056 -0.6585 0.3536
0.0643 -0.6554 0.3536
0.1226 -0.6473 0.3538
0.1800 -0.6343 0.3540
0.2361 -0.6162 0.3544
0.2905 -0.5934 0.3548
0.3428 -0.5659 0.3553
0.3925 -0.5340 0.3559
0.4394 -0.4978 0.3565
0.4831 -0.4575 0.3573
0.5232 -0.4135 0.3581
0.5594 -0.3661 0.3590
0.5913 -0.3155 0.3599
0.6188 -0.2622 0.3609
0.6416 -0.2065 0.3619
0.6594 -0.1489 0.3630
0.6720 -0.0898 0.3641
0.6794 -0.0295 0.3652
0.6815 0.0313 0.3663
0.6780 0.0923 0.3675
0.6691 0.1529 0.3686
0.6548 0.2126 0.3697
0.6351 0.2710 0.3708
0.6101 0.3275 0.3718
0.5800 0.3816 0.3728
0.5450 0.4330 0.3738
0.5054 0.4810 0.3747
0.4615 0.5253 0.3755
0.4136 0.5655 0.3762
0.3621 0.6012 0.3769
0.3075 0.6321 0.3775
0.2502 0.6579 0.3779
0.1907 0.6782 0.3783
0.1295 0.6931 0.3786
0.0672 0.7022 0.3788
0.0042 0.7055 0.3788
-0.0587 0.7030 0.3788
-0.1212 0.6946 0.3786
-0.1825 0.6806 0.3784
-0.2423 0.6610 0.3780
-0.2999 0.6359 0.3776
-0.3550 0.6057 0.3770
-0.4069 0.5707 0.3764
-0.4553 0.5311 0.3756
-0.4998 0.4873 0.3748
-0.5400 0.4397 0.3739
-0.5756 0.3888 0.3730
-0.6064 0.3350 0.3720
-0.6321 0.2787 0.3710
-0.6526 0.2206 0.3699
-0.6676 0.1610 0.3688
-0.6773 0.1005 0.3677
-0.6815 0.0395 0.3665
-0.6802 -0.0214 0.3654
-0.6735 -0.0817 0.3643
-0.6615 -0.1411 0.3632
-0.6444 -0.1989 0.3621
-0.6223 -0.2549 0.3611
-0.5954 -0.3086 0.3601
-0.5640 -0.3595 0.3592
-0.5284 -0.4074 0.3583
-0.4888 -0.4519 0.3574
-0.4456 -0.4926 0.3567
-0.3991 -0.5294 0.3560
-0.3496 -0.5619 0.3554
-0.2977 -0.5900 0.3549
-0.2435 -0.6135 0.3544
-0.1876 -0.6321 0.3541
-0.1304 -0.6459 0.3538
-0.0722 -0.6546 0.3537
-0.0135 -0.6583 0.3536
0.0453 -0.6570 0.3536
0.1038 -0.6505 0.3537
0.1615 -0.6390 0.3539
0.2181 -0.6226 0.3542
0.2730 -0.6013 0.3546
0.3260 -0.5754 0.3551
0.3767 -0.5448 0.3557
0.4246 -0.5100 0.3563
0.4693 -0.4710 0.3570
0.5106 -0.4282 0.3578
0.5481 -0.3818 0.3587
0.5814 -0.3323 0.3596
0.6104 -0.2798 0.3606
0.6347 -0.2249 0.3616
0.6541 -0.1678 0.3626
0.6685 -0.1091 0.3637
0.6776 -0.0492 0.3648
0.6814 0.0115 0.3660
0.6798 0.0725 0.3671
0.6726 0.1333 0.3682
0.6600 0.1933 0.3693
0.6420 0.2522 0.3704
0.6188 0.3094 0.3715
0.5903 0.3643 0.3725
0.5569 0.4166 0.3735
0.5187 0.4658 0.3744
0.4762 0.5114 0.3752
0.4295 0.5530 0.3760
0.3792 0.5902 0.3767
0.3255 0.6226 0.3773
0.2690 0.6501 0.3778
0.2102 0.6722 0.3782
0.1495 0.6889 0.3785
0.0875 0.6998 0.3787
0.0247 0.7050 0.3788
-0.0383 0.7044 0.3788
-0.1010 0.6980 0.3787
-0.1628 0.6858 0.3785
-0.2231 0.6679 0.3782
-0.2815 0.6446 0.3777
-0.3374 0.6161 0.3772
-0.3904 0.5826 0.3766
-0.4400 0.5444 0.3759
-0.4858 0.5019 0.3751
-0.5274 0.4555 0.3742
-0.5646 0.4056 0.3733
-0.5970 0.3527 0.3723
-0.6243 0.2972 0.3713
-0.6465 0.2397 0.3702
-0.6633 0.1805 0.3692
-0.6748 0.1202 0.3680
-0.6807 0.0593 0.3669
-0.6812 -0.0016 0.3658
-0.6762 -0.0622 0.3647
-0.6660 -0.1219 0.3636
-0.6505 -0.1803 0.3625
-0.6300 -0.2370 0.3614
-0.6046 -0.2914 0.3604
-0.5747 -0.3433 0.3595
-0.5404 -0.3922 0.3585
-0.5020 -0.4378 0.3577
-0.4600 -0.4798 0.3569
-0.4145 -0.5179 0.3562
-0.3660 -0.5519 0.3556
-0.3148 -0.5814 0.3550
-0.2613 -0.6064 0.3546
-0.2060 -0.6266 0.3542
-0.1491 -0.6420 0.3539
-0.0912 -0.6524 0.3537
-0.0326 -0.6577 0.3536
0.0262 -0.6580 0.3536
0.0848 -0.6532 0.3537
0.1429 -0.6433 0.3539
0.1998 -0.6285 0.3541
0.2554 -0.6088 0.3545
0.3091 -0.5843 0.3550
0.3605 -0.5552 0.3555
0.4093 -0.5218 0.3561
0.4551 -0.4841 0.3568
0.4976 -0.4425 0.3576
0.5363 -0.3973 0.3584
0.5711 -0.3487 0.3593
0.6015 -0.2971 0.3603
0.6273 -0.2430 0.3613
0.6484 -0.1865 0.3623
0.6644 -0.1283 0.3634
0.6753 -0.0687 0.3645
0.6808 -0.0082 0.3656
0.6809 0.0527 0.3667
0.6755 0.1136 0.3679
0.6647 0.1739 0.3690
0.6485 0.2332 0.3701
0.6269 0.2910 0.3711
0.6001 0.3468 0.3722
0.5683 0.4000 0.3732
0.5316 0.4502 0.3741
0.4905 0.4970 0.3750
0.4451 0.5399 0.3758
0.3959 0.5786 0.3765
0.3433 0.6126 0.3771
0.2877 0.6417 0.3776
0.2295 0.6656 0.3781
0.1694 0.6841 0.3784
0.1077 0.6969 0.3787
0.0451 0.7040 0.3788
-0.0179 0.7053 0.3788
-0.0807 0.7007 0.3788
-0.1428 0.6904 0.3786
-0.2037 0.6743 0.3783
-0.2628 0.6528 0.3779
-0.3196 0.6259 0.3774
-0.3735 0.5940 0.3768
-0.4243 0.5573 0.3761
-0.4714 0.5162 0.3754
-0.5144 0.4710 0.3745
-0.5530 0.4222 0.3736
-0.5870 0.3702 0.3727
-0.6160 0.3155 0.3716
-0.6399 0.2585 0.3706
-0.6585 0.1998 0.3695
-0.6716 0.1399 0.3684
-0.6794 0.0791 0.3673
-0.6816 0.0181 0.3661
-0.6784 -0.0426 0.3650
-0.6699 -0.1027 0.3639
-0.6561 -0.1615 0.3628
-0.6372 -0.2188 0.3618
-0.6134 -0.2740 0.3607
-0.5849 -0.3267 0.3598
-0.5520 -0.3767 0.3588
-0.5149 -0.4234 0.3580
-0.4740 -0.4666 0.3572
-0.4296 -0.5060 0.3564
-0.3821 -0.5413 0.3558
-0.3317 -0.5723 0.3552
-0.2789 -0.5988 0.3547
-0.2241 -0.6206 0.3543
-0.1677 -0.6375 0.3540
-0.1101 -0.6495 0.3538
-0.0517 -0.6565 0.3536
0.0071 -0.6584 0.3536
0.0658 -0.6553 0.3537
0.1241 -0.6471 0.3538
0.1815 -0.6339 0.3540
0.2375 -0.6157 0.3544
0.2919 -0.5928 0.3548
0.3441 -0.5652 0.3553
0.3938 -0.5331 0.3559
0.4406 -0.4968 0.3566
0.4842 -0.4564 0.3573
0.5242 -0.4123 0.3581
0.5602 -0.3648 0.3590
0.5921 -0.3142 0.3599
0.6195 -0.2608 0.3609
0.6421 -0.2051 0.3620
0.6598 -0.1474 0.3630
0.6723 -0.0882 0.3641
0.6796 -0.0280 0.3652
0.6815 0.0329 0.3664
0.6779 0.0939 0.3675
0.6688 0.1544 0.3686
0.6543 0.2141 0.3697
0.6345 0.2725 0.3708
0.6094 0.3289 0.3718
0.5791 0.3830 0.3728
0.5440 0.4342 0.3738
0.5043 0.4822 0.3747
0.4603 0.5264 0.3755
0.4123 0.5665 0.3762
0.3607 0.6021 0.3769
0.3060 0.6328 0.3775
0.2487 0.6585 0.3780
0.1891 0.6787 0.3783
0.1279 0.6934 0.3786
0.0655 0.7023 0.3788
0.0026 0.7055 0.3788
-0.0603 0.7028 0.3788
-0.1228 0.6943 0.3786
-0.1841 0.6802 0.3784
-0.2438 0.6604 0.3780
-0.3014 0.6352 0.3776
-0.3563 0.6049 0.3770
-0.4082 0.5697 0.3763
-0.4565 0.5300 0.3756
-0.5009 0.4861 0.3748
-0.5410 0.4384 0.3739
-0.5765 0.3874 0.3730
-0.6071 0.3335 0.3720
-0.6327 0.2773 0.3709
-0.6530 0.2191 0.3699
-0.6680 0.1594 0.3688
-0.6775 0.0989 0.3676
-0.6815 0.0380 0.3665
-0.6801 -0.0229 0.3654
-0.6732 -0.0833 0.3643
-0.6611 -0.1426 0.3632
-0.6439 -0.2004 0.3621
-0.6216 -0.2563 0.3611
-0.5946 -0.3099 0.3601
-0.5631 -0.3608 0.3591
-0.5274 -0.4086 0.3582
-0.4877 -0.4530 0.3574
-0.4444 -0.4936 0.3567
-0.3978 -0.5303 0.3560
-0.3483 -0.5627 0.3554
-0.2963 -0.5907 0.3549
-0.2421 -0.6140 0.3544
-0.1862 -0.6326 0.3541
-0.1289 -0.6462 0.3538
-0.0707 -0.6548 0.3537
-0.0120 -0.6584 0.3536
0.0468 -0.6569 0.3536
0.1053 -0.6503 0.3537
0.1630 -0.6387 0.3540
0.2195 -0.6221 0.3543
0.2744 -0.6007 0.3547
0.3274 -0.5746 0.3551
0.3780 -0.5440 0.3557
0.4257 -0.5090 0.3563
0.4704 -0.4699 0.3571
0.5116 -0.4270 0.3579
0.5490 -0.3806 0.3587
0.5822 -0.3309 0.3596
0.6111 -0.2784 0.3606
0.6353 -0.2234 0.3616
0.6546 -0.1663 0.3627
0.6688 -0.1076 0.3638
0.6778 -0.0476 0.3649
0.6814 0.0131 0.3660
0.6796 0.0741 0.3671
0.6724 0.1348 0.3682
0.6596 0.1949 0.3694
0.6415 0.2537 0.3704
0.6181 0.3108 0.3715
0.5895 0.3657 0.3725
0.5560 0.4179 0.3735
0.5177 0.4670 0.3744
0.4750 0.5125 0.3752
0.4283 0.5540 0.3760
0.3778 0.5911 0.3767
0.3241 0.6234 0.3773
0.2676 0.6507 0.3778
0.2087 0.6727 0.3782
0.1479 0.6892 0.3785
0.0859 0.7000 0.3787
0.0231 0.7051 0.3788
-0.0399 0.7043 0.3788
-0.1026 0.6977 0.3787
-0.1643 0.6854 0.3785
-0.2246 0.6674 0.3781
-0.2830 0.6440 0.3777
-0.3388 0.6153 0.3772
-0.3917 0.5816 0.3766
-0.4412 0.5434 0.3759
-0.4869 0.5008 0.3751
-0.5285 0.4543 0.3742
-0.5655 0.4043 0.3733
-0.5977 0.3513 0.3723
-0.6250 0.2958 0.3713
-0.6470 0.2381 0.3702
-0.6637 0.1789 0.3691
-0.6750 0.1186 0.3680
-0.6808 0.0578 0.3669
-0.6811 -0.0032 0.3658
-0.6760 -0.0638 0.3646
-0.6656 -0.1235 0.3635
-0.6500 -0.1818 0.3624
-0.6294 -0.2384 0.3614
-0.6039 -0.2928 0.3604
-0.5738 -0.3446 0.3594
-0.5394 -0.3934 0.3585
-0.5010 -0.4389 0.3577
-0.4588 -0.4808 0.3569
-0.4133 -0.5188 0.3562
-0.3647 -0.5527 0.3556
-0.3135 -0.5821 0.3550
-0.2599 -0.6070 0.3546
-0.2045 -0.6271 0.3542
-0.1476 -0.6423 0.3539
-0.0897 -0.6526 0.3537
-0.0311 -0.6578 0.3536
0.0277 -0.6579 0.3536
0.0863 -0.6530 0.3537
0.1443 -0.6430 0.3539
0.2013 -0.6280 0.3541
0.2568 -0.6082 0.3545
0.3104 -0.5836 0.3550
0.3618 -0.5544 0.3555
0.4105 -0.5208 0.3561
0.5013 -0.4243 0.3579
0.5384 -0.3788 0.3587
0.5715 -0.3301 0.3596
0.6002 -0.2785 0.3606
0.6244 -0.2245 0.3616
0.6438 -0.1683 0.3626
0.6582 -0.1105 0.3637
0.6674 -0.0515 0.3648
0.6714 0.0083 0.3659
0.6700 0.0683 0.3670
0.6632 0.1282 0.3681
0.6511 0.1875 0.3692
0.6336 0.2455 0.3703
0.6109 0.3019 0.3713
0.5831 0.3562 0.3723
0.5504 0.4078 0.3733
0.5130 0.4564 0.3742
0.4713 0.5015 0.3750
0.4256 0.5426 0.3758
0.3761 0.5795 0.3765
0.3234 0.6117 0.3771
0.2679 0.6390 0.3776
0.2101 0.6611 0.3780
0.1504 0.6777 0.3783
0.0893 0.6888 0.3785
0.0275 0.6942 0.3786
-0.0345 0.6939 0.3786
-0.0963 0.6879 0.3785
-0.1572 0.6762 0.3783
-0.2167 0.6589 0.3780
-0.2743 0.6362 0.3776
-0.3296 0.6084 0.3771
-0.3819 0.5756 0.3765
-0.4310 0.5383 0.3758
-0.4763 0.4966 0.3750
-0.5176 0.4512 0.3742
-0.5544 0.4022 0.3733
-0.5866 0.3502 0.3723
-0.6138 0.2957 0.3713
-0.6359 0.2391 0.3702
-0.6528 0.1809 0.3692
-0.6644 0.1215 0.3681
-0.6706 0.0616 0.3670
-0.6713 0.0015 0.3658
-0.6668 -0.0583 0.3647
-0.6569 -0.1172 0.3636
-0.6420 -0.1748 0.3626
-0.6220 -0.2307 0.3615
-0.5973 -0.2845 0.3605
-0.5680 -0.3358 0.3596
-0.5345 -0.3842 0.3587
-0.4969 -0.4293 0.3579
-0.4556 -0.4709 0.3571
-0.4110 -0.5087 0.3564
-0.3633 -0.5424 0.3558
-0.3130 -0.5718 0.3552
-0.2604 -0.5966 0.3548
-0.2059 -0.6168 0.3544
-0.1499 -0.6322 0.3541
-0.0929 -0.6427 0.3539
-0.0351 -0.6483 0.3538
0.0229 -0.6488 0.3538
0.0807 -0.6443 0.3539
0.1379 -0.6348 0.3540
0.1941 -0.6205 0.3543
0.2490 -0.6013 0.3546
0.3020 -0.5774 0.3551
0.3528 -0.5489 0.3556
0.4011 -0.5161 0.3562
0.4464 -0.4792 0.3569
0.4884 -0.4384 0.3576
0.5268 -0.3940 0.3585
0.5612 -0.3462 0.3593
0.5914 -0.2955 0.3603
0.6171 -0.2423 0.3613
0.6380 -0.1868 0.3623
0.6541 -0.1295 0.3634
0.6650 -0.0708 0.3644
0.6707 -0.0112 0.3655
0.6710 0.0488 0.3667
0.6660 0.1088 0.3678
0.6556 0.1683 0.3689
0.6399 0.2268 0.3699
0.6188 0.2838 0.3710
0.5927 0.3388 0.3720
0.5615 0.3914 0.3730
0.5257 0.4410 0.3739
0.4853 0.4873 0.3748
0.4408 0.5297 0.3756
0.3926 0.5680 0.3763
0.3409 0.6018 0.3769
0.2862 0.6307 0.3774
0.2291 0.6545 0.3779
0.1699 0.6729 0.3782
0.1093 0.6859 0.3785
0.0477 0.6931 0.3786
-0.0144 0.6947 0.3786
-0.0763 0.6905 0.3786
-0.1375 0.6806 0.3784
-0.1976 0.6651 0.3781
-0.2559 0.6442 0.3777
-0.3119 0.6180 0.3772
-0.3653 0.5868 0.3767
-0.4154 0.5509 0.3760
-0.4620 0.5106 0.3753
-0.5046 0.4663 0.3744
-0.5429 0.4185 0.3736
-0.5766 0.3674 0.3726
-0.6055 0.3137 0.3716
-0.6293 0.2577 0.3706
-0.6479 0.1999 0.3695
-0.6612 0.1409 0.3684
-0.6691 0.0811 0.3673
-0.6717 0.0210 0.3662
-0.6688 -0.0389 0.3651
-0.6607 -0.0981 0.3640
-0.6474 -0.1562 0.3629
-0.6290 -0.2128 0.3619
-0.6059 -0.2673 0.3609
-0.5780 -0.3194 0.3599
-0.5458 -0.3688 0.3590
-0.5095 -0.4150 0.3581
-0.4694 -0.4578 0.3573
-0.4258 -0.4969 0.3566
-0.3791 -0.5319 0.3560
-0.3296 -0.5627 0.3554
-0.2777 -0.5891 0.3549
-0.2238 -0.6108 0.3545
-0.1682 -0.6278 0.3542
-0.1115 -0.6399 0.3539
-0.0539 -0.6470 0.3538
0.0040 -0.6492 0.3538
0.0619 -0.6463 0.3538
0.1194 -0.6385 0.3540
0.1760 -0.6257 0.3542
0.2313 -0.6080 0.3545
0.2850 -0.5856 0.3549
0.3366 -0.5587 0.3554
0.3857 -0.5272 0.3560
0.4320 -0.4916 0.3567
0.4752 -0.4520 0.3574
0.5147 -0.4088 0.3582
0.5505 -0.3621 0.3591
0.5821 -0.3123 0.3600
0.6093 -0.2598 0.3609
0.6318 -0.2050 0.3620
0.6494 -0.1482 0.3630
0.6620 -0.0900 0.3641
0.6694 -0.0306 0.3652
0.6715 0.0293 0.3663
0.6682 0.0894 0.3674
0.6596 0.1491 0.3685
0.6456 0.2080 0.3696
0.6262 0.2655 0.3707
0.6017 0.3212 0.3717
0.5722 0.3746 0.3727
0.5378 0.4252 0.3736
0.4989 0.4726 0.3745
0.4557 0.5164 0.3753
0.4086 0.5561 0.3761
0.3580 0.5913 0.3767
0.3043 0.6219 0.3773
0.2479 0.6473 0.3777
0.1893 0.6675 0.3781
0.1291 0.6823 0.3784
0.0677 0.6914 0.3786
0.0058 0.6948 0.3786
-0.0562 0.6925 0.3786
-0.1178 0.6844 0.3785
-0.1782 0.6707 0.3782
-0.2371 0.6515 0.3778
-0.2940 0.6270 0.3774
-0.3483 0.5974 0.3769
-0.3995 0.5630 0.3762
-0.4473 0.5241 0.3755
-0.4912 0.4811 0.3747
-0.5310 0.4344 0.3738
-0.5662 0.3843 0.3729
-0.5967 0.3314 0.3719
-0.6221 0.2761 0.3709
-0.6425 0.2188 0.3699
-0.6575 0.1601 0.3688
-0.6672 0.1005 0.3677
-0.6714 0.0405 0.3666
-0.6703 -0.0195 0.3655
-0.6639 -0.0790 0.3644
-0.6523 -0.1375 0.3633
-0.6355 -0.1946 0.3622
-0.6139 -0.2498 0.3612
-0.5876 -0.3028 0.3602
-0.5568 -0.3531 0.3593
-0.5218 -0.4004 0.3584
-0.4828 -0.4443 0.3576
-0.4404 -0.4846 0.3568
-0.3946 -0.5210 0.3562
-0.3460 -0.5532 0.3556
-0.2948 -0.5810 0.3550
-0.2415 -0.6043 0.3546
-0.1864 -0.6228 0.3543
-0.1300 -0.6365 0.3540
-0.0727 -0.6452 0.3538
-0.0148 -0.6490 0.3538
0.0432 -0.6478 0.3538
0.1008 -0.6415 0.3539
0.1578 -0.6304 0.3541
0.2135 -0.6143 0.3544
0.2678 -0.5934 0.3548
0.3201 -0.5679 0.3553
0.3701 -0.5379 0.3558
0.4173 -0.5036 0.3564
0.4615 -0.4653 0.3571
0.5023 -0.4232 0.3579
0.5393 -0.3776 0.3588
0.5723 -0.3288 0.3597
0.6009 -0.2771 0.3606
0.6250 -0.2230 0.3616
0.6442 -0.1669 0.3627
0.6585 -0.1090 0.3637
0.6676 -0.0500 0.3648
0.6714 0.0098 0.3659
0.6699 0.0699 0.3670
0.6630 0.1298 0.3682
0.6507 0.1890 0.3692
0.6331 0.2470 0.3703
0.6102 0.3034 0.3714
0.5823 0.3576 0.3724
0.5495 0.4091 0.3733
0.5120 0.4576 0.3742
0.4702 0.5026 0.3751
0.4243 0.5437 0.3758
0.3748 0.5804 0.3765
0.3220 0.6125 0.3771
0.2665 0.6396 0.3776
0.2085 0.6616 0.3780
0.1488 0.6781 0.3783
0.0878 0.6890 0.3785
0.0259 0.6943 0.3786
-0.0361 0.6938 0.3786
-0.0979 0.6876 0.3785
-0.1587 0.6758 0.3783
-0.2182 0.6584 0.3780
-0.2758 0.6356 0.3776
-0.3310 0.6076 0.3770
-0.3832 0.5747 0.3764
-0.4322 0.5372 0.3757
-0.4774 0.4955 0.3750
-0.5186 0.4499 0.3741
-0.5553 0.4009 0.3732
-0.5873 0.3489 0.3723
-0.6144 0.2943 0.3713
-0.6364 0.2376 0.3702
-0.6532 0.1793 0.3691
-0.6646 0.1200 0.3680
-0.6706 0.0600 0.3669
-0.6713 -0.0001 0.3658
-0.6666 -0.0598 0.3647
-0.6566 -0.1187 0.3636
-0.6415 -0.1763 0.3625
-0.6215 -0.2321 0.3615
-0.5966 -0.2859 0.3605
-0.5672 -0.3371 0.3596
-0.5336 -0.3854 0.3587
-0.4959 -0.4304 0.3578
-0.4545 -0.4719 0.3571
-0.4098 -0.5096 0.3564
-0.3621 -0.5432 0.3557
-0.3117 -0.5725 0.3552
-0.2590 -0.5972 0.3547
-0.2045 -0.6173 0.3544
-0.1485 -0.6326 0.3541
-0.0914 -0.6429 0.3539
-0.0336 -0.6483 0.3538
0.0244 -0.6487 0.3538
0.0822 -0.6441 0.3539
0.1394 -0.6345 0.3540
0.1956 -0.6200 0.3543
0.2504 -0.6007 0.3547
0.3033 -0.5767 0.3551
0.3541 -0.5481 0.3556
0.4023 -0.5152 0.3562
0.4475 -0.4782 0.3569
0.4894 -0.4373 0.3577
0.5277 -0.3928 0.3585
0.5620 -0.3450 0.3594
0.5921 -0.2942 0.3603
0.6177 -0.2409 0.3613
0.6385 -0.1853 0.3623
0.6544 -0.1280 0.3634
0.6652 -0.0693 0.3645
0.6708 -0.0097 0.3656
0.6710 0.0504 0.3667
0.6658 0.1104 0.3678
0.6553 0.1699 0.3689
0.6394 0.2283 0.3700
0.6182 0.2853 0.3710
0.5919 0.3402 0.3720
0.5607 0.3927 0.3730
0.5247 0.4422 0.3739
0.4842 0.4884 0.3748
0.4396 0.5308 0.3756
0.3913 0.5690 0.3763
0.3395 0.6026 0.3769
0.2848 0.6314 0.3775
0.2276 0.6550 0.3779
0.1684 0.6733 0.3782
0.1077 0.6861 0.3785
0.0461 0.6932 0.3786
-0.0160 0.6946 0.3786
-0.0779 0.6903 0.3786
-0.1391 0.6803 0.3784
-0.1991 0.6646 0.3781
-0.2573 0.6435 0.3777
-0.3133 0.6172 0.3772
-0.3666 0.5859 0.3766
-0.4167 0.5499 0.3760
-0.4632 0.5095 0.3752
-0.5057 0.4651 0.3744
-0.5439 0.4172 0.3735
-0.5774 0.3661 0.3726
-0.6062 0.3122 0.3716
-0.6299 0.2562 0.3706
-0.6483 0.1984 0.3695
-0.6615 0.1393 0.3684
-0.6693 0.0795 0.3673
-0.6717 0.0194 0.3662
-0.6687 -0.0405 0.3651
-0.6604 -0.0997 0.3640
-0.6470 -0.1577 0.3629
-0.6285 -0.2142 0.3618
-0.6052 -0.2687 0.3608
-0.5773 -0.3207 0.3599
-0.5449 -0.3700 0.3590
-0.5085 -0.4162 0.3581
-0.4683 -0.4589 0.3573
-0.4247 -0.4978 0.3566
-0.3779 -0.5328 0.3559
-0.3283 -0.5634 0.3554
-0.2763 -0.5897 0.3549
-0.2224 -0.6113 0.3545
-0.1668 -0.6281 0.3542
-0.1100 -0.6401 0.3539
-0.0524 -0.6471 0.3538
0.0055 -0.6491 0.3538
0.0634 -0.6462 0.3538
0.1209 -0.6382 0.3540
0.1775 -0.6253 0.3542
0.2328 -0.6075 0.3545
0.2864 -0.5850 0.3549
0.3379 -0.5579 0.3554
0.3870 -0.5264 0.3560
0.4332 -0.4907 0.3567
0.4762 -0.4510 0.3574
0.5157 -0.4076 0.3582
0.5513 -0.3608 0.3591
0.5828 -0.3110 0.3600
0.6099 -0.2584 0.3610
0.6323 -0.2036 0.3620
0.6498 -0.1468 0.3630
0.6623 -0.0884 0.3641
0.6695 -0.0291 0.3652
0.6715 0.0309 0.3663
0.6681 0.0909 0.3674
0.6593 0.1506 0.3685
0.6451 0.2095 0.3696
0.6257 0.2670 0.3707
0.6010 0.3226 0.3717
0.5713 0.3760 0.3727
0.5369 0.4265 0.3736
0.4978 0.4738 0.3745
0.4545 0.5175 0.3753
0.4074 0.5570 0.3761
0.3566 0.5922 0.3767
0.3028 0.6226 0.3773
0.2464 0.6479 0.3778
0.1878 0.6680 0.3781
0.1275 0.6826 0.3784
0.0661 0.6915 0.3786
0.0042 0.6948 0.3786
-0.0578 0.6923 0.3786
-0.1193 0.6841 0.3784
-0.1798 0.6703 0.3782
-0.2386 0.6510 0.3778
-0.2954 0.6263 0.3774
-0.3496 0.5966 0.3768
-0.4008 0.5621 0.3762
-0.4485 0.5231 0.3755
-0.4923 0.4800 0.3747
-0.5319 0.4331 0.3738
-0.5671 0.3830 0.3729
-0.5974 0.3300 0.3719
-0.6227 0.2746 0.3709
-0.6429 0.2173 0.3698
-0.6578 0.1586 0.3687
-0.6673 0.0990 0.3676
-0.6715 0.0389 0.3665
-0.6702 -0.0211 0.3654
-0.6637 -0.0805 0.3643
-0.6519 -0.1390 0.3632
-0.6350 -0.1961 0.3622
-0.6133 -0.2512 0.3612
-0.5868 -0.3041 0.3602
-0.5559 -0.3544 0.3592
-0.5208 -0.4016 0.3584
-0.4818 -0.4454 0.3576
-0.4392 -0.4856 0.3568
-0.3934 -0.5219 0.3561
-0.3447 -0.5540 0.3555
-0.2934 -0.5817 0.3550
-0.2401 -0.6048 0.3546
-0.1850 -0.6232 0.3543
-0.1286 -0.6368 0.3540
-0.0712 -0.6454 0.3538
-0.0133 -0.6490 0.3538
0.0446 -0.6477 0.3538
0.1023 -0.6413 0.3539
0.1592 -0.6300 0.3541
0.2150 -0.6138 0.3544
0.2692 -0.5928 0.3548
0.3214 -0.5672 0.3553
0.3713 -0.5371 0.3558
0.4185 -0.5027 0.3565
0.4626 -0.4643 0.3572
0.5033 -0.4221 0.3579
0.5402 -0.3764 0.3588
0.5731 -0.3275 0.3597
0.6016 -0.2758 0.3606
0.6255 -0.2216 0.3616
0.6447 -0.1654 0.3627
0.6588 -0.1075 0.3638
0.6678 -0.0485 0.3649
0.6714 0.0114 0.3660
0.6698 0.0714 0.3671
0.6627 0.1313 0.3682
0.6503 0.1905 0.3693
0.6326 0.2485 0.3703
0.6096 0.3048 0.3714
0.5815 0.3589 0.3724
0.5486 0.4104 0.3733
0.5110 0.4588 0.3742
0.4690 0.5037 0.3751
0.4231 0.5447 0.3758
0.3735 0.5813 0.3765
0.3206 0.6133 0.3771
0.2650 0.6403 0.3776
0.2070 0.6621 0.3780
0.1472 0.6785 0.3783
0.0862 0.6893 0.3785
0.0243 0.6944 0.3786
-0.0377 0.6938 0.3786
-0.0995 0.6874 0.3785
-0.1603 0.6754 0.3783
-0.2197 0.6579 0.3780
-0.2772 0.6349 0.3775
-0.3323 0.6068 0.3770
-0.3845 0.5738 0.3764
-0.4334 0.5362 0.3757
-0.4785 0.4944 0.3750
-0.5196 0.4487 0.3741
-0.5562 0.3996 0.3732
-0.5881 0.3475 0.3722
-0.6151 0.2928 0.3712
-0.6369 0.2361 0.3702
-0.6536 0.1778 0.3691
-0.6648 0.1184 0.3680
-0.6707 0.0585 0.3669
-0.6712 -0.0016 0.3658
-0.6664 -0.0613 0.3647
-0.6563 -0.1202 0.3636
-0.6411 -0.1777 0.3625
-0.6209 -0.2335 0.3615
-0.5959 -0.2872 0.3605
-0.5664 -0.3383 0.3595
-0.5326 -0.3866 0.3587
-0.4949 -0.4316 0.3578
-0.4534 -0.4730 0.3570
-0.4086 -0.5105 0.3564
-0.3608 -0.5440 0.3557
-0.3103 -0.5732 0.3552
-0.2576 -0.5978 0.3547
-0.2030 -0.6177 0.3544
-0.1470 -0.6329 0.3541
-0.0899 -0.6431 0.3539
-0.0321 -0.6484 0.3538
0.0258 -0.6487 0.3538
0.0836 -0.6439 0.3539
0.1408 -0.6342 0.3540
0.1970 -0.6196 0.3543
0.2518 -0.6001 0.3547
0.3047 -0.5760 0.3551
0.3554 -0.5473 0.3556
0.4035 -0.5143 0.3562
0.4487 -0.4772 0.3569
0.4905 -0.4362 0.3577
0.5286 -0.3916 0.3585
0.5629 -0.3437 0.3594
0.5928 -0.2929 0.3603
0.6183 -0.2394 0.3613
0.6390 -0.1839 0.3623
0.6548 -0.1265 0.3634
0.6654 -0.0677 0.3645
0.6708 -0.0081 0.3656
0.6709 0.0519 0.3667
0.6656 0.1119 0.3678
0.6549 0.1714 0.3689
0.6389 0.2298 0.3700
0.6176 0.2867 0.3711
0.5912 0.3416 0.3721
0.5598 0.3940 0.3730
0.5237 0.4435 0.3740
0.4831 0.4895 0.3748
0.4384 0.5318 0.3756
0.3900 0.5699 0.3763
0.3381 0.6034 0.3769
0.2833 0.6321 0.3775
0.2261 0.6556 0.3779
0.1668 0.6737 0.3782
0.1061 0.6864 0.3785
0.0445 0.6933 0.3786
-0.0176 0.6946 0.3786
-0.0795 0.6901 0.3786
-0.1407 0.6799 0.3784
-0.2006 0.6642 0.3781
-0.2588 0.6429 0.3777
-0.3147 0.6165 0.3772
-0.3679 0.5850 0.3766
-0.4179 0.5489 0.3760
-0.4643 0.5084 0.3752
-0.5067 0.4640 0.3744
-0.5448 0.4159 0.3735
-0.5783 0.3647 0.3726
-0.6069 0.3108 0.3716
-0.6304 0.2547 0.3705
-0.6487 0.1969 0.3695
-0.6618 0.1378 0.3684
-0.6694 0.0780 0.3673
-0.6716 0.0179 0.3661
-0.6685 -0.0420 0.3650
-0.6601 -0.1012 0.3639
-0.6466 -0.1592 0.3629
-0.6280 -0.2156 0.3618
-0.6045 -0.2700 0.3608
-0.5765 -0.3221 0.3598
-0.5441 -0.3713 0.3589
-0.5076 -0.4173 0.3581
-0.4673 -0.4599 0.3573
-0.4235 -0.4988 0.3566
-0.3766 -0.5336 0.3559
-0.3270 -0.5642 0.3554
-0.2750 -0.5903 0.3549
-0.2210 -0.6118 0.3545
-0.1653 -0.6285 0.3542
-0.1085 -0.6404 0.3539
-0.0509 -0.6472 0.3538
0.0070 -0.6491 0.3538
0.0649 -0.6460 0.3538
0.1224 -0.6379 0.3540
0.1789 -0.6249 0.3542
0.2342 -0.6070 0.3545
0.2877 -0.5844 0.3550
0.3392 -0.5571 0.3555
0.3882 -0.5255 0.3560
0.4343 -0.4897 0.3567
0.4773 -0.4499 0.3574
0.5167 -0.4064 0.3582
0.5522 -0.3596 0.3591
0.5836 -0.3097 0.3600
0.6105 -0.2570 0.3610
0.6328 -0.2021 0.3620
0.6502 -0.1453 0.3631
0.6625 -0.0869 0.3641
0.6697 -0.0276 0.3652
0.6715 0.0324 0.3663
0.6679 0.0925 0.3675
0.6590 0.1522 0.3686
0.6447 0.2110 0.3697
0.6251 0.2684 0.3707
0.6003 0.3240 0.3717
0.5705 0.3773 0.3727
0.5359 0.4278 0.3737
0.4968 0.4750 0.3745
0.4534 0.5185 0.3754
0.4061 0.5580 0.3761
0.3553 0.5930 0.3767
0.3014 0.6233 0.3773
0.2449 0.6485 0.3778
0.1862 0.6684 0.3781
0.1260 0.6829 0.3784
0.0645 0.6917 0.3786
0.0026 0.6948 0.3786
-0.0594 0.6922 0.3786
-0.1209 0.6839 0.3784
-0.1813 0.6699 0.3782
-0.2401 0.6504 0.3778
-0.2968 0.6256 0.3774
-0.3510 0.5958 0.3768
-0.4021 0.5611 0.3762
-0.4497 0.5220 0.3755
-0.4934 0.4788 0.3747
-0.5329 0.4319 0.3738
-0.5679 0.3816 0.3729
-0.5981 0.3286 0.3719
-0.6233 0.2732 0.3709
-0.6434 0.2158 0.3698
-0.6581 0.1571 0.3687
-0.6675 0.0975 0.3676
-0.6715 0.0374 0.3665
-0.6701 -0.0226 0.3654
-0.6634 -0.0821 0.3643
-0.6515 -0.1405 0.3632
-0.6345 -0.1975 0.3622
-0.6127 -0.2526 0.3611
-0.5861 -0.3055 0.3602
-0.5551 -0.3556 0.3592
-0.5198 -0.4027 0.3584
-0.4807 -0.4465 0.3575
-0.4381 -0.4866 0.3568
-0.3922 -0.5228 0.3561
-0.3434 -0.5547 0.3555
-0.2921 -0.5823 0.3550
-0.2387 -0.6053 0.3546
-0.1836 -0.6236 0.3542
-0.1271 -0.6370 0.3540
-0.0697 -0.6456 0.3538
-0.0118 -0.6491 0.3538
0.0461 -0.6476 0.3538
0.1038 -0.6411 0.3539
0.1607 -0.6297 0.3541
0.2164 -0.6133 0.3544
0.2705 -0.5922 0.3548
0.3227 -0.5665 0.3553
0.3726 -0.5363 0.3558
0.4197 -0.5018 0.3565
0.4637 -0.4632 0.3572
0.5043 -0.4209 0.3580
0.5411 -0.3751 0.3588
0.5739 -0.3262 0.3597
0.6023 -0.2744 0.3607
0.6261 -0.2202 0.3617
0.6451 -0.1639 0.3627
0.6591 -0.1060 0.3638
0.6679 -0.0469 0.3649
0.6715 0.0129 0.3660
0.6697 0.0730 0.3671
0.6625 0.1328 0.3682
0.6499 0.1920 0.3693
0.6320 0.2499 0.3704
0.6089 0.3062 0.3714
0.5807 0.3603 0.3724
0.5477 0.4117 0.3734
0.5100 0.4600 0.3743
0.4679 0.5048 0.3751
0.4219 0.5457 0.3759
0.3722 0.5822 0.3765
0.3192 0.6140 0.3771
0.2635 0.6409 0.3776
0.2055 0.6626 0.3780
0.1457 0.6788 0.3783
0.0846 0.6895 0.3785
0.0227 0.6944 0.3786
-0.0393 0.6937 0.3786
-0.1010 0.6872 0.3785
-0.1618 0.6750 0.3783
-0.2212 0.6573 0.3780
-0.2787 0.6343 0.3775
-0.3337 0.6060 0.3770
-0.3858 0.5729 0.3764
-0.4346 0.5352 0.3757
-0.4796 0.4933 0.3749
-0.5206 0.4475 0.3741
-0.5570 0.3983 0.3732
-0.5888 0.3461 0.3722
-0.6157 0.2914 0.3712
-0.6374 0.2346 0.3702
-0.6539 0.1763 0.3691
-0.6651 0.1169 0.3680
-0.6708 0.0569 0.3669
-0.6712 -0.0032 0.3658
-0.6662 -0.0628 0.3646
-0.6560 -0.1217 0.3636
-0.6406 -0.1792 0.3625
-0.6203 -0.2350 0.3615
-0.5952 -0.2886 0.3605
-0.5656 -0.3396 0.3595
-0.5317 -0.3878 0.3586
-0.4938 -0.4327 0.3578
-0.4523 -0.4740 0.3570
-0.4074 -0.5115 0.3563
-0.3595 -0.5448 0.3557
-0.3090 -0.5738 0.3552
-0.2562 -0.5984 0.3547
-0.2016 -0.6182 0.3543
-0.1455 -0.6332 0.3541
-0.0884 -0.6433 0.3539
-0.0306 -0.6485 0.3538
0.0273 -0.6486 0.3538
0.0851 -0.6438 0.3539
0.1423 -0.6339 0.3540
0.1984 -0.6192 0.3543
0.2531 -0.5996 0.3547
0.3060 -0.5753 0.3551
0.3567 -0.5465 0.3556
0.4047 -0.5134 0.3563
0.4942 -0.4183 0.3580
0.5308 -0.3734 0.3588
0.5633 -0.3254 0.3597
0.5917 -0.2745 0.3607
0.6155 -0.2212 0.3617
0.6345 -0.1659 0.3627
0.6487 -0.1089 0.3637
0.6578 -0.0508 0.3648
0.6617 0.0081 0.3659
0.6603 0.0673 0.3670
0.6536 0.1264 0.3681
0.6416 0.1847 0.3692
0.6243 0.2419 0.3702
0.6019 0.2975 0.3713
0.5745 0.3509 0.3722
0.5422 0.4018 0.3732
0.5054 0.4497 0.3741
0.4643 0.4940 0.3749
0.4192 0.5346 0.3757
0.3705 0.5709 0.3763
0.3186 0.6026 0.3769
0.2639 0.6294 0.3774
0.2069 0.6512 0.3778
0.1481 0.6676 0.3781
0.0880 0.6785 0.3783
0.0271 0.6838 0.3784
-0.0340 0.6835 0.3784
-0.0948 0.6776 0.3783
-0.1548 0.6660 0.3781
-0.2135 0.6490 0.3778
-0.2702 0.6267 0.3774
-0.3246 0.5993 0.3769
-0.3762 0.5670 0.3763
-0.4246 0.5303 0.3756
-0.4692 0.4893 0.3749
-0.5099 0.4445 0.3740
-0.5462 0.3963 0.3731
-0.5779 0.3451 0.3722
-0.6048 0.2913 0.3712
-0.6266 0.2356 0.3702
-0.6433 0.1782 0.3691
-0.6547 0.1197 0.3680
-0.6608 0.0607 0.3669
-0.6616 0.0015 0.3658
-0.6571 -0.0574 0.3647
-0.6475 -0.1155 0.3637
-0.6327 -0.1723 0.3626
-0.6131 -0.2274 0.3616
-0.5888 -0.2804 0.3606
-0.5599 -0.3310 0.3597
-0.5269 -0.3787 0.3588
-0.4899 -0.4232 0.3580
-0.4492 -0.4643 0.3572
-0.4052 -0.5015 0.3565
-0.3582 -0.5347 0.3559
-0.3086 -0.5637 0.3554
-0.2567 -0.5882 0.3549
-0.2030 -0.6082 0.3545
-0.1478 -0.6234 0.3543
-0.0916 -0.6337 0.3541
-0.0346 -0.6392 0.3540
0.0225 -0.6397 0.3539
0.0795 -0.6353 0.3540
0.1360 -0.6259 0.3542
0.1914 -0.6118 0.3545
0.2455 -0.5928 0.3548
0.2978 -0.5692 0.3552
0.3479 -0.5412 0.3557
0.3954 -0.5088 0.3563
0.4401 -0.4724 0.3570
0.4815 -0.4322 0.3578
0.5193 -0.3884 0.3586
0.5532 -0.3413 0.3594
0.5830 -0.2913 0.3604
0.6083 -0.2388 0.3613
0.6289 -0.1841 0.3623
0.6447 -0.1276 0.3634
0.6554 -0.0698 0.3645
0.6610 -0.0110 0.3655
0.6613 0.0481 0.3666
0.6563 0.1072 0.3677
0.6460 0.1659 0.3688
0.6305 0.2235 0.3699
0.6097 0.2796 0.3709
0.5839 0.3338 0.3719
0.5532 0.3856 0.3729
0.5179 0.4345 0.3738
0.4781 0.4800 0.3746
0.4343 0.5219 0.3754
0.3867 0.5596 0.3761
0.3358 0.5928 0.3767
0.2819 0.6213 0.3773
0.2256 0.6447 0.3777
0.1674 0.6629 0.3780
0.1076 0.6756 0.3783
0.0469 0.6827 0.3784
-0.0142 0.6842 0.3784
-0.0752 0.6801 0.3784
-0.1355 0.6704 0.3782
-0.1946 0.6551 0.3779
-0.2520 0.6345 0.3775
-0.3073 0.6087 0.3771
-0.3598 0.5780 0.3765
-0.4092 0.5427 0.3758
-0.4551 0.5030 0.3751
-0.4971 0.4594 0.3743
-0.5349 0.4123 0.3734
-0.5681 0.3620 0.3725
-0.5966 0.3090 0.3715
-0.6201 0.2539 0.3705
-0.6384 0.1970 0.3695
-0.6516 0.1388 0.3684
-0.6594 0.0799 0.3673
-0.6619 0.0207 0.3662
-0.6591 -0.0384 0.3651
-0.6512 -0.0967 0.3640
-0.6381 -0.1540 0.3630
-0.6200 -0.2097 0.3619
-0.5972 -0.2635 0.3609
-0.5698 -0.3149 0.3600
-0.5381 -0.3635 0.3591
-0.5023 -0.4091 0.3582
-0.4628 -0.4513 0.3575
-0.4198 -0.4898 0.3567
-0.3738 -0.5244 0.3561
-0.3250 -0.5548 0.3555
-0.2738 -0.5808 0.3550
-0.2206 -0.6022 0.3546
-0.1659 -0.6189 0.3543
-0.1099 -0.6309 0.3541
-0.0532 -0.6379 0.3540
0.0040 -0.6401 0.3539
0.0611 -0.6372 0.3540
0.1177 -0.6295 0.3541
0.1735 -0.6169 0.3544
0.2281 -0.5995 0.3547
0.2810 -0.5774 0.3551
0.3319 -0.5508 0.3556
0.3803 -0.5198 0.3561
0.4259 -0.4847 0.3568
0.4684 -0.4456 0.3575
0.5074 -0.4030 0.3583
0.5426 -0.3569 0.3591
0.5738 -0.3079 0.3601
0.6005 -0.2561 0.3610
0.6227 -0.2021 0.3620
0.6401 -0.1461 0.3630
0.6525 -0.0887 0.3641
0.6597 -0.0302 0.3652
0.6618 0.0289 0.3663
0.6585 0.0881 0.3674
0.6499 0.1469 0.3685
0.6361 0.2049 0.3695
0.6170 0.2616 0.3706
0.5928 0.3165 0.3716
0.5637 0.3691 0.3726
0.5298 0.4189 0.3735
0.4915 0.4656 0.3744
0.4489 0.5087 0.3752
0.4025 0.5478 0.3759
0.3527 0.5825 0.3765
0.2997 0.6126 0.3771
0.2442 0.6377 0.3776
0.1865 0.6575 0.3779
0.1272 0.6720 0.3782
0.0667 0.6810 0.3784
0.0057 0.6844 0.3784
-0.0554 0.6821 0.3784
-0.1160 0.6742 0.3783
-0.1756 0.6607 0.3780
-0.2336 0.6418 0.3777
-0.2896 0.6177 0.3772
-0.3431 0.5885 0.3767
-0.3936 0.5546 0.3761
-0.4406 0.5163 0.3754
-0.4839 0.4740 0.3746
-0.5231 0.4279 0.3737
-0.5579 0.3786 0.3728
-0.5879 0.3265 0.3719
-0.6130 0.2720 0.3708
-0.6331 0.2156 0.3698
-0.6479 0.1578 0.3687
-0.6574 0.0991 0.3676
-0.6617 0.0399 0.3666
-0.6606 -0.0192 0.3655
-0.6543 -0.0779 0.3644
-0.6429 -0.1355 0.3633
-0.6264 -0.1918 0.3623
-0.6051 -0.2463 0.3613
-0.5792 -0.2985 0.3603
-0.5488 -0.3481 0.3594
-0.5143 -0.3947 0.3585
-0.4760 -0.4380 0.3577
-0.4341 -0.4778 0.3570
-0.3890 -0.5136 0.3563
-0.3411 -0.5454 0.3557
-0.2906 -0.5728 0.3552
-0.2381 -0.5958 0.3548
-0.1838 -0.6140 0.3544
-0.1282 -0.6275 0.3542
-0.0717 -0.6362 0.3540
-0.0146 -0.6399 0.3539
0.0426 -0.6387 0.3540
0.0994 -0.6325 0.3541
0.1555 -0.6215 0.3543
0.2105 -0.6057 0.3546
0.2640 -0.5851 0.3549
0.3156 -0.5599 0.3554
0.3648 -0.5303 0.3559
0.4114 -0.4965 0.3566
0.4550 -0.4587 0.3573
0.4952 -0.4172 0.3580
0.5316 -0.3722 0.3589
0.5641 -0.3241 0.3598
0.5923 -0.2732 0.3607
0.6160 -0.2198 0.3617
0.6350 -0.1645 0.3627
0.6490 -0.1075 0.3638
0.6579 -0.0493 0.3648
0.6617 0.0097 0.3659
0.6602 0.0689 0.3670
0.6533 0.1279 0.3681
0.6412 0.1862 0.3692
0.6238 0.2434 0.3703
0.6013 0.2989 0.3713
0.5737 0.3523 0.3723
0.5414 0.4031 0.3732
0.5044 0.4508 0.3741
0.4632 0.4951 0.3749
0.4180 0.5356 0.3757
0.3692 0.5717 0.3763
0.3172 0.6033 0.3769
0.2625 0.6301 0.3774
0.2054 0.6517 0.3778
0.1466 0.6679 0.3781
0.0864 0.6787 0.3783
0.0255 0.6839 0.3784
-0.0356 0.6834 0.3784
-0.0964 0.6773 0.3783
-0.1564 0.6657 0.3781
-0.2150 0.6485 0.3778
-0.2717 0.6261 0.3774
-0.3260 0.5985 0.3769
-0.3775 0.5662 0.3763
-0.4257 0.5293 0.3756
