ply
format ascii 1.0
element vertex 2027
property float32 x
property float32 y
property float32 z
end_header
0.2005 19.4250 -10.1252
-0.9632 12.1645 -6.3602
-3.4647 20.3860 -10.7780
-5.5141 20.9234 -11.2781
23.0671 0.2750 -12.0239
20.4234 2.0751 -10.6999
19.6530 3.7916 -10.4324
21.9395 6.3069 -11.8984
20.6447 7.9896 -11.5381
17.1086 8.4463 -9.9448
13.4524 8.2093 -8.2141
12.3384 9.1338 -8.0014
11.2724 10.0187 -7.8606
10.3456 10.9971 -7.8697
8.9882 11.4495 -7.5869
7.9473 12.2309 -7.6026
7.1257 13.4603 -7.9382
7.8234 18.6313 -10.5324
6.1933 19.4537 -10.6411
4.2525 19.1169 -10.2077
2.6454 20.3057 -10.6731
0.7836 19.4717 -10.1572
-0.9699 19.7319 -10.2971
-2.8169 20.2162 -10.6389
-4.8071 20.7380 -11.0957
23.6139 -0.4246 -12.3100
21.4922 1.5362 -11.2307
19.5292 3.1654 -10.3119
20.9454 5.3487 -11.2675
21.5780 7.6173 -11.9271
17.5958 8.0419 -10.0838
13.8397 7.8878 -8.3029
12.7049 8.8297 -8.0642
11.6250 9.7260 -7.9001
10.5801 10.5932 -7.8036
9.3265 11.1756 -7.5869
8.2923 11.9631 -7.5869
7.5624 13.3071 -7.9777
8.3051 18.2315 -10.4421
6.8385 19.4487 -10.7455
4.7513 18.7029 -10.0579
3.2130 19.9797 -10.5476
1.4481 20.6196 -10.7738
-0.3763 19.5762 -10.2054
-2.1420 19.6559 -10.3057
-4.1220 20.5584 -10.9287
-6.7224 22.7586 -12.3689
-6.8456 -14.4510 -8.3345
23.8277 -0.4023 -12.2352
20.8593 1.5139 -10.7376
19.5071 3.1837 -10.1477
20.9711 5.3797 -11.1154
21.5555 7.6359 -11.7407
17.5778 8.0569 -9.9275
13.8254 7.8996 -8.1751
12.6914 8.8409 -7.9410
11.6121 9.7367 -7.7802
10.5675 10.6037 -7.6859
9.4559 11.3560 -7.5869
8.4051 12.1543 -7.5869
7.5493 13.3180 -7.8597
8.2876 18.2460 -10.2888
6.8200 19.4641 -10.5888
4.7334 18.7178 -9.9124
3.1932 19.9961 -10.3963
1.4259 20.6254 -10.6146
-0.3978 19.5819 -10.0556
-2.1964 19.9524 -10.3057
-4.1468 20.5649 -10.7708
-6.7518 22.7663 -12.1917
-6.9077 -14.6234 -8.3033
24.2405 -1.1348 -12.4590
22.4438 0.9556 -11.5333
20.3437 2.6987 -10.5362
20.2941 4.5641 -10.6795
21.8299 7.0059 -11.7707
20.3783 8.6130 -11.3585
16.6227 8.8496 -9.6684
13.0637 8.5318 -8.0107
11.9685 9.4409 -7.8264
10.9144 10.3158 -7.7104
9.8829 11.1719 -7.6580
8.8572 12.0232 -7.6670
7.9053 13.0225 -7.8214
6.7566 13.7667 -7.8734
7.3208 19.0485 -10.4771
5.2187 18.3149 -9.7774
3.7253 19.5545 -10.2200
2.0312 20.4667 -10.5595
0.1863 19.4304 -9.9762
-0.9729 12.1746 -6.2705
-3.4807 20.3903 -10.6200
-5.5317 20.9280 -11.1137
23.1769 0.2932 -11.9002
20.4370 2.0915 -10.5474
19.6677 3.8094 -10.2853
21.9823 6.3366 -11.7455
20.6305 8.0014 -11.3607
17.0969 8.4560 -9.7927
13.4430 8.2170 -8.0890
12.3295 9.1412 -7.8801
11.2638 10.0258 -7.7419
10.3371 11.0042 -7.7514
9.1164 11.6303 -7.5869
8.0425 12.3972 -7.5869
7.1170 13.4676 -7.8205
7.8116 18.6411 -10.3769
6.1680 19.4232 -10.4628
4.2401 19.1272 -10.0585
2.6309 20.3095 -10.5142
0.7668 19.4076 -9.9718
-0.9845 19.7357 -10.1451
-2.8325 20.2203 -10.4827
-4.8241 20.7425 -10.9336
23.8384 -0.4112 -12.2407
21.4747 1.5507 -11.0540
19.5145 3.1776 -10.1509
20.9625 5.3694 -11.1098
21.5630 7.6297 -11.7433
17.5838 8.0519 -9.9292
13.8302 7.8957 -8.1762
12.6959 8.8372 -7.9418
11.6164 9.7331 -7.7807
10.5717 10.6002 -7.6862
9.4600 11.3525 -7.5869
8.4095 12.1512 -7.5869
7.5536 13.3144 -7.8592
8.2935 18.2412 -10.2877
6.8262 19.4590 -10.5873
4.7394 18.7128 -9.9107
3.1998 19.9906 -10.3940
1.4333 20.6235 -10.6139
-0.3906 19.5800 -10.0546
-2.1891 19.9532 -10.3057
-4.1385 20.5627 -10.7688
-6.7420 22.7638 -12.1890
-6.9114 -14.6174 -8.3014
24.2518 -1.1442 -12.4650
22.4532 0.9478 -11.5380
20.3515 2.6922 -10.5397
20.2862 4.5545 -10.6744
21.8375 6.9996 -11.7735
20.3853 8.6071 -11.3607
16.6284 8.8449 -9.6698
13.0683 8.5280 -8.0117
11.9729 9.4372 -7.8270
10.9186 10.3123 -7.7107
9.9939 11.2891 -7.7408
8.8614 12.0197 -7.6668
7.9096 13.0189 -7.8210
6.7610 13.7630 -7.8727
7.3268 19.0435 -10.4758
5.2246 18.3101 -9.7758
3.7317 19.5491 -10.2180
2.0386 20.4648 -10.5588
0.1934 19.4285 -9.9753
-0.9680 12.1693 -6.2676
-3.4727 20.3881 -10.6183
-5.5229 20.9257 -11.1114
23.1698 0.2847 -11.8965
20.4302 2.0833 -10.5435
19.6603 3.8005 -10.2807
21.9728 6.3252 -11.7392
20.6376 7.9955 -11.3630
17.1027 8.4512 -9.7943
13.4477 8.2131 -8.0900
12.3340 9.1375 -7.8808
11.2681 10.0222 -7.7424
10.3413 11.0007 -7.7516
9.1206 11.6269 -7.5869
8.0470 12.3942 -7.5869
7.1214 13.4639 -7.8199
7.8175 18.6362 -10.3758
6.1806 19.4385 -10.4722
4.2463 19.1220 -10.0566
2.6382 20.3076 -10.5137
0.7751 19.4395 -9.9884
-0.9772 19.7338 -10.1440
-2.8247 20.2182 -10.4811
-4.8156 20.7403 -10.9315
23.8491 -0.4201 -12.2463
21.4834 1.5435 -11.0582
19.5218 3.1715 -10.1541
20.9540 5.3591 -11.1043
21.5704 7.6235 -11.7458
17.5899 8.0469 -9.9310
13.8350 7.8917 -8.1774
12.7004 8.8334 -7.9426
11.6207 9.7295 -7.7813
10.5759 10.5967 -7.6864
9.4642 11.3491 -7.5869
8.4139 12.1482 -7.5869
7.5580 13.3108 -7.8587
8.2993 18.2364 -10.2867
6.8323 19.4539 -10.5859
4.7454 18.7078 -9.9090
3.2064 19.9851 -10.3918
1.4408 20.6215 -10.6131
-0.3834 19.5781 -10.0535
-2.1819 19.9540 -10.3057
-4.1303 20.5606 -10.7669
-6.7323 22.7612 -12.1863
-6.9152 -14.6115 -8.2994
24.2631 -1.1536 -12.4710
22.4626 0.9400 -11.5426
20.3594 2.6856 -10.5433
20.2783 4.5450 -10.6694
21.8451 6.9933 -11.7762
20.3922 8.6014 -11.3628
16.6342 8.8401 -9.6713
13.0729 8.5242 -8.0126
11.9773 9.4336 -7.8276
10.9229 10.3087 -7.7111
9.9981 11.2856 -7.7409
8.8656 12.0163 -7.6667
7.9139 13.0154 -7.8206
6.7654 13.7594 -7.8720
7.3329 19.0385 -10.4745
5.2304 18.3053 -9.7742
3.7380 19.5439 -10.2159
2.0460 20.4628 -10.5582
0.2005 19.4266 -9.9744
-0.9631 12.1639 -6.2646
-3.4647 20.3860 -10.6165
-5.5141 20.9234 -11.1091
23.1627 0.2762 -11.8929
20.4234 2.0751 -10.5396
19.6530 3.7916 -10.2761
21.9634 6.3138 -11.7329
20.6447 7.9896 -11.3653
17.1086 8.4463 -9.7958
13.4524 8.2093 -8.0910
12.3384 9.1338 -7.8815
11.2724 10.0187 -7.7428
10.3456 10.9971 -7.7518
9.1249 11.6236 -7.5869
8.0515 12.3913 -7.5869
7.1257 13.4603 -7.8193
7.8234 18.6313 -10.3746
6.1933 19.4537 -10.4817
4.2525 19.1169 -10.0547
2.6454 20.3057 -10.5133
0.7836 19.4717 -10.0051
-0.9699 19.7319 -10.1428
-2.8169 20.2162 -10.4795
-4.8071 20.7380 -10.9294
23.8599 -0.4290 -12.2519
21.4921 1.5362 -11.0625
19.5292 3.1654 -10.1574
20.9454 5.3487 -11.0987
21.5780 7.6173 -11.7484
17.5959 8.0419 -9.9327
13.8398 7.8878 -8.1785
12.7049 8.8297 -7.9434
11.6250 9.7260 -7.7818
10.5801 10.5932 -7.6867
9.4683 11.3456 -7.5869
8.4184 12.1451 -7.5869
7.5624 13.3071 -7.8582
8.3051 18.2315 -10.2857
6.8385 19.4488 -10.5845
4.7513 18.7029 -9.9073
3.2130 19.9797 -10.3896
1.4481 20.6196 -10.6124
-0.3763 19.5762 -10.0525
-2.1746 19.9548 -10.3057
-4.1220 20.5584 -10.7650
-6.7224 22.7586 -12.1836
-6.9188 -14.6056 -8.2975
15.6083 -7.8022 -8.8235
23.8277 -0.4023 -12.0502
20.8593 1.5139 -10.5753
19.5071 3.1837 -9.9943
20.9711 5.3797 -10.9474
21.5555 7.6359 -11.5633
17.5778 8.0569 -9.7774
13.8254 7.8996 -8.0516
12.6914 8.8409 -7.8210
11.6121 9.7367 -7.6626
10.5675 10.6037 -7.5698
9.5398 11.4567 -7.5385
8.5124 12.3094 -7.5676
7.5493 13.3180 -7.7410
8.2876 18.2460 -10.1333
6.8200 19.4641 -10.4287
4.7334 18.7178 -9.7626
3.1932 19.9961 -10.2392
1.4259 20.6254 -10.4542
-0.3944 19.4137 -9.8186
-2.2079 20.0565 -10.2029
-4.1468 20.5649 -10.6080
-6.2636 21.1199 -11.1391
-6.9874 -14.7921 -8.2722
24.3182 -1.1385 -12.3100
22.4438 0.9556 -11.3590
20.3437 2.6987 -10.3769
20.2941 4.5641 -10.5181
21.8299 7.0059 -11.5928
20.3783 8.6130 -11.1869
16.6227 8.8496 -9.5222
13.0637 8.5318 -7.8897
11.9685 9.4409 -7.7081
10.9144 10.3158 -7.5939
9.8829 11.1719 -7.5422
8.8572 12.0232 -7.5511
7.9053 13.0225 -7.7032
6.7566 13.7667 -7.7544
7.3208 19.0485 -10.3187
5.2187 18.3149 -9.6296
3.7253 19.5545 -10.0656
2.0312 20.4667 -10.3999
0.1863 19.4293 -9.8249
-0.9729 12.1740 -6.1754
-3.4807 20.3903 -10.4595
-5.5317 20.9280 -10.9457
23.1769 0.2932 -11.7204
20.4370 2.0915 -10.3880
19.6677 3.8094 -10.1298
21.9823 6.3366 -11.5680
20.6305 8.0014 -11.1890
17.0969 8.4561 -9.6447
13.4430 8.2170 -7.9668
12.3295 9.1412 -7.7610
11.2638 10.0258 -7.6249
10.3371 11.0042 -7.6343
9.2008 11.7380 -7.5414
8.1659 12.5874 -7.5869
7.1170 13.4676 -7.7023
7.8116 18.6411 -10.2201
6.1680 19.4232 -10.3047
4.2401 19.1272 -9.9065
2.6309 20.3095 -10.3553
0.7668 19.4076 -9.8211
-0.9845 19.7362 -9.9921
-2.8325 20.2203 -10.3242
-4.8241 20.7425 -10.7684
15.6113 -7.8108 -8.8268
23.8384 -0.4112 -12.0557
20.8678 1.5069 -10.5793
19.5145 3.1777 -9.9975
20.9625 5.3694 -10.9419
21.5630 7.6297 -11.5658
17.5838 8.0519 -9.7792
13.8302 7.8957 -8.0527
12.6958 8.8372 -7.8218
11.6164 9.7331 -7.6632
10.5717 10.6002 -7.5700
9.5439 11.4532 -7.5385
8.5166 12.3059 -7.5674
7.5537 13.3144 -7.7405
8.2935 18.2412 -10.1322
6.8262 19.4590 -10.4273
4.7394 18.7128 -9.7609
3.1998 19.9906 -10.2370
1.4333 20.6235 -10.4535
-0.3872 19.4118 -9.8176
-2.2003 20.0545 -10.2014
-4.1385 20.5627 -10.6061
-6.2545 21.1175 -11.1366
-6.9912 -14.7861 -8.2702
24.3178 -1.1474 -12.3100
22.4532 0.9478 -11.3636
20.3515 2.6921 -10.3804
20.2862 4.5545 -10.5131
21.8375 6.9996 -11.5955
20.3853 8.6071 -11.1890
16.6284 8.8449 -9.5237
13.0683 8.5280 -7.8906
11.9729 9.4372 -7.7087
10.9186 10.3123 -7.5942
9.9939 11.2890 -7.6238
8.8614 12.0197 -7.5510
7.9096 13.0189 -7.7028
6.7610 13.7630 -7.7537
7.3268 19.0435 -10.3175
5.2246 18.3101 -9.6281
3.7317 19.5491 -10.0635
2.0386 20.4648 -10.3993
0.1934 19.4274 -9.8240
-0.9680 12.1687 -6.1725
-3.4727 20.3881 -10.4578
-5.5229 20.9257 -10.9435
23.1698 0.2847 -11.7167
20.4302 2.0833 -10.3841
19.6604 3.8005 -10.1253
21.9728 6.3252 -11.5618
20.6376 7.9955 -11.1912
17.1027 8.4512 -9.6462
13.4477 8.2131 -7.9678
12.3340 9.1375 -7.7617
11.2681 10.0222 -7.6254
10.3413 11.0007 -7.6345
9.2050 11.7345 -7.5414
8.1705 12.5844 -7.5869
7.1214 13.4639 -7.7017
7.8175 18.6362 -10.2189
6.1806 19.4385 -10.3140
4.2463 19.1220 -9.9046
2.6382 20.3076 -10.3548
0.7751 19.4395 -9.8374
-0.9772 19.7343 -9.9909
-2.8247 20.2182 -10.3227
-4.8156 20.7403 -10.7663
15.6143 -7.8194 -8.8301
23.8491 -0.4201 -12.0612
20.8763 1.4998 -10.5833
19.5218 3.1715 -10.0007
20.9540 5.3591 -10.9365
21.5704 7.6235 -11.5683
17.5899 8.0469 -9.7809
13.8350 7.8917 -8.0538
12.7004 8.8334 -7.8226
11.6207 9.7295 -7.6637
10.5759 10.5967 -7.5703
9.5481 11.4498 -7.5385
8.5208 12.3024 -7.5671
7.5580 13.3108 -7.7399
8.2993 18.2364 -10.1313
6.8323 19.4539 -10.4259
4.7454 18.7078 -9.7592
3.2064 19.9851 -10.2347
1.4408 20.6215 -10.4527
-0.3801 19.4099 -9.8165
-2.1927 20.0525 -10.2000
-4.1303 20.5606 -10.6042
-6.2454 21.1152 -11.1342
-6.9949 -14.7800 -8.2683
24.3174 -1.1562 -12.3100
22.4626 0.9400 -11.3682
20.3594 2.6856 -10.3839
20.2783 4.5450 -10.5082
21.8451 6.9933 -11.5982
20.3922 8.6014 -11.1911
16.6342 8.8401 -9.5251
13.0729 8.5242 -7.8915
11.9773 9.4336 -7.7093
10.9229 10.3087 -7.5945
9.9981 11.2856 -7.6239
8.8656 12.0162 -7.5508
7.9139 13.0154 -7.7024
6.7654 13.7594 -7.7530
7.3329 19.0385 -10.3162
5.2304 18.3053 -9.6265
3.7381 19.5439 -10.0615
2.0460 20.4628 -10.3987
0.2005 19.4255 -9.8231
-0.9631 12.1634 -6.1697
-3.4647 20.3860 -10.4561
-5.5141 20.9234 -10.9412
23.1627 0.2762 -11.7131
20.4234 2.0751 -10.3803
19.6530 3.7917 -10.1208
21.9634 6.3138 -11.5556
20.6447 7.9896 -11.1935
17.1086 8.4464 -9.6478
13.4524 8.2093 -7.9688
12.3384 9.1338 -7.7624
11.2724 10.0187 -7.6258
10.3456 10.9971 -7.6346
9.2092 11.7310 -7.5413
8.1751 12.5815 -7.5869
7.1257 13.4603 -7.7011
7.8234 18.6313 -10.2178
6.1933 19.4537 -10.3233
4.2525 19.1169 -9.9028
2.6454 20.3057 -10.3544
0.7836 19.4717 -9.8539
-0.9699 19.7324 -9.9898
-2.8169 20.2162 -10.3211
-4.8071 20.7380 -10.7643
15.6173 -7.8280 -8.8334
23.8599 -0.4290 -12.0667
20.8848 1.4928 -10.5874
19.5292 3.1654 -10.0039
20.9454 5.3487 -10.9309
21.5780 7.6173 -11.5708
17.5959 8.0419 -9.7826
13.8398 7.8878 -8.0549
12.7049 8.8297 -7.8234
11.6250 9.7260 -7.6642
10.5801 10.5932 -7.5705
9.5523 11.4463 -7.5385
8.5250 12.2989 -7.5669
7.5624 13.3071 -7.7394
8.3051 18.2315 -10.1302
6.8385 19.4488 -10.4245
4.7513 18.7029 -9.7575
3.2130 19.9797 -10.2325
1.4481 20.6196 -10.4520
-0.3730 19.4081 -9.8155
-2.1850 20.0505 -10.1986
-4.1220 20.5584 -10.6023
-6.2363 21.1128 -11.1317
-6.9986 -14.7740 -8.2663
15.6057 -7.8009 -8.6875
23.8277 -0.4023 -11.8665
20.8593 1.5139 -10.4140
19.5071 3.1837 -9.8419
20.9711 5.3797 -10.7805
21.5555 7.6359 -11.3869
17.5778 8.0569 -9.6283
13.8254 7.8996 -7.9288
12.6914 8.8409 -7.7017
11.6121 9.7367 -7.5458
10.5675 10.6037 -7.4543
9.5397 11.4567 -7.4235
8.5124 12.3094 -7.4522
7.5493 13.3180 -7.6229
8.2876 18.2460 -9.9787
6.8200 19.4641 -10.2697
4.7334 18.7178 -9.6137
3.1932 19.9961 -10.0830
1.4259 20.6254 -10.2948
-0.3959 19.4906 -9.7072
-2.2079 20.0565 -10.0473
-4.1468 20.5649 -10.4462
-6.2636 21.1199 -10.9692
-7.0685 -14.9638 -8.2406
24.6948 -1.1561 -12.3100
22.4438 0.9556 -11.1858
20.3437 2.6987 -10.2187
20.2941 4.5641 -10.3577
21.8299 7.0059 -11.4161
20.3783 8.6130 -11.0163
16.6227 8.8496 -9.3770
13.0637 8.5318 -7.7694
11.9685 9.4409 -7.5905
10.9144 10.3158 -7.4781
9.8829 11.1719 -7.4272
8.8572 12.0232 -7.4360
7.9053 13.0225 -7.5857
6.7566 13.7667 -7.6361
7.3208 19.0485 -10.1614
5.2187 18.3149 -9.4828
3.7253 19.5545 -9.9121
2.0312 20.4667 -10.2413
0.1863 19.4287 -9.6748
-0.9728 12.1734 -6.0809
-3.4807 20.3903 -10.3000
-5.5317 20.9280 -10.7788
15.9366 -7.3864 -8.7464
23.1769 0.2932 -11.5416
20.4370 2.0915 -10.2296
19.6677 3.8094 -9.9754
21.9823 6.3366 -11.3916
20.6305 8.0014 -11.0183
17.0969 8.4561 -9.4976
13.4430 8.2170 -7.8453
12.3295 9.1412 -7.6427
11.2638 10.0258 -7.5087
10.2266 10.8866 -7.4375
9.2008 11.7380 -7.4264
8.1699 12.5936 -7.4749
7.1170 13.4676 -7.5848
7.8116 18.6411 -10.0642
6.1680 19.4232 -10.1476
4.2401 19.1272 -9.7554
2.6309 20.3095 -10.1974
0.7668 19.4076 -9.6714
-0.9845 19.7362 -9.8397
-2.8325 20.2203 -10.1668
-4.8241 20.7425 -10.6042
-7.0130 21.3165 -11.1740
15.6034 -7.8068 -8.6878
23.8384 -0.4112 -11.8719
20.8678 1.5069 -10.4180
19.5145 3.1776 -9.8450
20.9625 5.3694 -10.7751
21.5630 7.6297 -11.3894
17.5838 8.0519 -9.6300
13.8302 7.8957 -7.9299
12.6958 8.8372 -7.7025
11.6164 9.7331 -7.5463
10.5717 10.6002 -7.4546
9.5439 11.4532 -7.4235
8.5166 12.3059 -7.4520
7.5537 13.3144 -7.6224
8.2935 18.2412 -9.9777
6.8262 19.4590 -10.2683
4.7394 18.7128 -9.6121
3.1998 19.9906 -10.0808
1.4333 20.6235 -10.2941
-0.3888 19.4908 -9.7072
-2.2003 20.0545 -10.0459
-4.1385 20.5627 -10.4443
-6.2545 21.1175 -10.9668
-7.0723 -14.9576 -8.2386
24.6944 -1.1651 -12.3100
22.4532 0.9478 -11.1903
20.3515 2.6922 -10.2221
20.2862 4.5545 -10.3528
21.8375 6.9996 -11.4187
20.3853 8.6071 -11.0184
16.6284 8.8449 -9.3784
13.0683 8.5280 -7.7702
11.9729 9.4372 -7.5911
10.9186 10.3123 -7.4784
9.8871 11.1684 -7.4273
8.8614 12.0197 -7.4358
7.9096 13.0189 -7.5853
6.7610 13.7630 -7.6354
7.3268 19.0435 -10.1601
5.2246 18.3101 -9.4812
3.7317 19.5492 -9.9101
2.0386 20.4648 -10.2407
0.1934 19.4269 -9.6739
-0.9679 12.1681 -6.0781
-3.4727 20.3881 -10.2983
-5.5229 20.9257 -10.7766
15.9303 -7.3905 -8.7444
23.1698 0.2847 -11.5381
20.4302 2.0833 -10.2258
19.6604 3.8005 -9.9709
21.9728 6.3252 -11.3855
20.6376 7.9955 -11.0206
17.1027 8.4512 -9.4991
13.4477 8.2131 -7.8463
12.3340 9.1375 -7.6434
11.2681 10.0222 -7.5091
10.2308 10.8831 -7.4377
9.2050 11.7345 -7.4264
8.1742 12.5901 -7.4746
7.1214 13.4639 -7.5843
7.8175 18.6362 -10.0631
6.1806 19.4385 -10.1567
4.2463 19.1221 -9.7536
2.6382 20.3076 -10.1969
0.7751 19.4395 -9.6874
-0.9772 19.7343 -9.8386
-2.8247 20.2182 -10.1653
-4.8156 20.7403 -10.6022
-7.0036 21.3140 -11.1714
15.6011 -7.8128 -8.6881
23.8491 -0.4200 -11.8773
20.8763 1.4999 -10.4219
19.5218 3.1715 -9.8482
20.9540 5.3591 -10.7697
21.5704 7.6235 -11.3919
17.5899 8.0469 -9.6317
13.8350 7.8917 -7.9310
12.7004 8.8334 -7.7033
11.6207 9.7295 -7.5468
10.5759 10.5967 -7.4548
9.5481 11.4498 -7.4236
8.5208 12.3024 -7.4517
7.5580 13.3108 -7.6219
8.2993 18.2364 -9.9768
6.8323 19.4539 -10.2669
4.7454 18.7078 -9.6104
3.2064 19.9851 -10.0787
1.4408 20.6215 -10.2933
-0.3817 19.4909 -9.7072
-2.1927 20.0525 -10.0445
-4.1303 20.5606 -10.4425
-6.2454 21.1152 -10.9644
-7.0760 -14.9514 -8.2366
24.6940 -1.1741 -12.3100
22.4626 0.9400 -11.1948
20.3594 2.6856 -10.2256
20.2783 4.5450 -10.3479
21.8451 6.9933 -11.4214
20.3922 8.6014 -11.0205
16.6342 8.8401 -9.3798
13.0729 8.5242 -7.7711
11.9773 9.4336 -7.5917
10.9229 10.3087 -7.4787
9.8913 11.1650 -7.4274
8.8656 12.0163 -7.4357
7.9139 13.0154 -7.5849
6.7654 13.7594 -7.6348
7.3329 19.0385 -10.1589
5.2304 18.3053 -9.4797
3.7380 19.5439 -9.9081
2.0460 20.4628 -10.2401
0.2005 19.4250 -9.6730
-0.9630 12.1628 -6.0753
-3.4647 20.3860 -10.2966
-5.5141 20.9234 -10.7743
15.9241 -7.3946 -8.7425
23.1627 0.2762 -11.5345
20.4234 2.0751 -10.2220
19.6530 3.7916 -9.9665
21.9634 6.3138 -11.3794
20.6447 7.9896 -11.0228
17.1086 8.4464 -9.5007
13.4524 8.2093 -7.8472
12.3384 9.1338 -7.6441
11.2724 10.0187 -7.5095
10.2351 10.8796 -7.4379
9.2092 11.7310 -7.4263
8.1784 12.5866 -7.4742
7.1257 13.4603 -7.5837
7.8234 18.6313 -10.0620
6.1933 19.4537 -10.1658
4.2525 19.1169 -9.7518
2.6454 20.3057 -10.1965
0.7836 19.4717 -9.7036
-0.9699 19.7324 -9.8375
-2.8169 20.2162 -10.1637
-4.8071 20.7380 -10.6001
-6.9942 21.3115 -11.1687
15.5988 -7.8187 -8.6884
23.8599 -0.4290 -11.8827
20.8848 1.4928 -10.4259
19.5292 3.1654 -9.8513
20.9454 5.3487 -10.7642
21.5780 7.6173 -11.3944
17.5959 8.0419 -9.6334
13.8397 7.8878 -7.9320
12.7049 8.8297 -7.7040
11.6250 9.7260 -7.5473
10.5801 10.5932 -7.4551
9.5523 11.4463 -7.4236
8.5250 12.2989 -7.4515
7.5624 13.3071 -7.6214
8.3051 18.2315 -9.9758
6.8385 19.4488 -10.2655
4.7513 18.7029 -9.6087
3.2130 19.9797 -10.0765
1.4481 20.6196 -10.2926
-0.3746 19.4910 -9.7072
-2.1850 20.0505 -10.0431
-4.1220 20.5584 -10.4406
-6.2363 21.1128 -10.9619
-7.0798 -14.9453 -8.2347
15.8578 -7.9269 -8.6920
23.8277 -0.4023 -11.6838
20.8593 1.5139 -10.2537
19.5071 3.1837 -9.6904
20.9711 5.3797 -10.6146
21.5555 7.6359 -11.2117
17.5778 8.0569 -9.4801
13.8254 7.8996 -7.8068
12.6914 8.8409 -7.5832
11.6121 9.7367 -7.4297
10.5675 10.6037 -7.3396
9.5398 11.4567 -7.3093
8.5124 12.3094 -7.3375
7.4686 13.1757 -7.4254
8.2876 18.2460 -9.8252
6.8200 19.4641 -10.1116
4.7334 18.7178 -9.4658
3.1932 19.9961 -9.9278
1.4259 20.6254 -10.1363
-0.3997 19.6780 -9.6496
-2.1897 19.8912 -9.8111
-4.1468 20.5649 -10.2854
-6.2636 21.1199 -10.8004
-7.1605 -15.1586 -8.2193
16.3951 -7.0113 -8.7423
24.7384 -1.1581 -12.1419
21.5765 0.9187 -10.5880
20.3437 2.6987 -10.0614
20.2941 4.5641 -10.1983
21.8299 7.0059 -11.2404
20.0572 8.4773 -10.6758
16.6227 8.8496 -9.2327
13.0637 8.5318 -7.6498
11.9685 9.4409 -7.4737
10.9144 10.3158 -7.3630
9.8829 11.1719 -7.3129
8.8572 12.0232 -7.3215
7.8208 12.8834 -7.3892
6.7566 13.7667 -7.5186
7.3208 19.0485 -10.0050
5.2187 18.3149 -9.3368
3.7253 19.5545 -9.7595
2.0312 20.4667 -10.0837
0.1863 19.4287 -9.5259
-0.9728 12.1728 -5.9871
-3.4807 20.3903 -10.1415
-5.5317 20.9280 -10.6129
16.0221 -7.4260 -8.6580
25.2065 -1.9366 -12.3946
23.1769 0.2932 -11.3640
20.4370 2.0915 -10.0721
19.6677 3.8094 -9.8218
21.9823 6.3366 -11.2162
20.6305 8.0014 -10.8488
17.0969 8.4560 -9.3514
13.4430 8.2170 -7.7245
12.3295 9.1412 -7.5251
11.2638 10.0258 -7.3931
10.2266 10.8866 -7.3231
9.2008 11.7380 -7.3121
8.1699 12.5936 -7.3598
7.1170 13.4676 -7.4681
7.8116 18.6411 -9.9093
6.1680 19.4232 -9.9914
4.2401 19.1272 -9.6053
2.6309 20.3095 -10.0405
0.7668 19.4076 -9.5225
-0.9865 19.7748 -9.7072
-2.8328 20.2224 -10.0114
-4.8241 20.7425 -10.4410
-7.0130 21.3165 -11.0020
15.8555 -7.9330 -8.6923
23.8384 -0.4112 -11.6892
20.8678 1.5069 -10.2576
19.5145 3.1776 -9.6935
20.9625 5.3694 -10.6092
21.5630 7.6297 -11.2141
17.5838 8.0519 -9.4818
13.8302 7.8957 -7.8078
12.6958 8.8372 -7.5839
11.6164 9.7331 -7.4302
10.5717 10.6002 -7.3398
9.5439 11.4532 -7.3093
8.5166 12.3059 -7.3373
7.4730 13.1721 -7.4249
8.2935 18.2412 -9.8242
6.8262 19.4590 -10.1103
4.7394 18.7128 -9.4641
3.1998 19.9906 -9.9257
1.4333 20.6235 -10.1356
-0.3925 19.6761 -9.6486
-2.1845 19.9109 -9.8205
-4.1385 20.5627 -10.2836
-6.2545 21.1175 -10.7980
-7.1545 -15.1316 -8.2062
16.3890 -7.0158 -8.7405
24.7499 -1.1677 -12.1478
21.5856 0.9112 -10.5923
20.3515 2.6921 -10.0648
20.2862 4.5545 -10.1934
21.8375 6.9996 -11.2430
20.0641 8.4715 -10.6778
16.6284 8.8449 -9.2341
13.0683 8.5280 -7.6507
11.9729 9.4372 -7.4743
10.9186 10.3123 -7.3633
9.8871 11.1684 -7.3130
8.8614 12.0197 -7.3214
7.8251 12.8798 -7.3888
6.7610 13.7630 -7.5179
7.3268 19.0435 -10.0038
5.2246 18.3101 -9.3353
3.7317 19.5491 -9.7576
2.0386 20.4648 -10.0831
0.1934 19.4269 -9.5250
-0.9679 12.1675 -5.9843
-3.4727 20.3881 -10.1398
-5.5229 20.9257 -10.6107
16.0362 -7.4397 -8.6671
25.2188 -1.9468 -12.4010
23.1698 0.2847 -11.3605
20.4302 2.0833 -10.0684
19.6604 3.8005 -9.8175
21.9728 6.3252 -11.2102
20.6376 7.9955 -10.8510
17.1027 8.4512 -9.3529
13.4477 8.2131 -7.7255
12.3340 9.1375 -7.5257
11.2681 10.0222 -7.3935
10.2308 10.8831 -7.3232
9.2050 11.7345 -7.3121
8.1742 12.5901 -7.3595
7.1214 13.4639 -7.4675
7.8175 18.6362 -9.9082
6.1806 19.4385 -10.0004
4.2463 19.1220 -9.6035
2.6382 20.3076 -10.0400
0.7751 19.4395 -9.5383
-0.9793 19.7751 -9.7072
-2.8250 20.2203 -10.0099
-4.8156 20.7403 -10.4390
-7.0036 21.3140 -10.9994
15.8532 -7.9391 -8.6926
23.8491 -0.4201 -11.6945
20.8763 1.4999 -10.2615
19.5218 3.1715 -9.6966
20.9540 5.3591 -10.6039
21.5704 7.6235 -11.2165
17.5899 8.0469 -9.4835
13.8350 7.8917 -7.8089
12.7004 8.8334 -7.5847
11.6207 9.7295 -7.4306
10.5759 10.5967 -7.3401
9.5481 11.4498 -7.3093
8.5208 12.3024 -7.3370
7.4773 13.1686 -7.4244
8.2993 18.2364 -9.8232
6.8323 19.4539 -10.1089
4.7454 18.7078 -9.4625
3.2064 19.9851 -9.9235
1.4408 20.6215 -10.1349
-0.3853 19.6742 -9.6476
-2.1793 19.9307 -9.8298
-4.1303 20.5606 -10.2818
-6.2454 21.1152 -10.7956
-7.1584 -15.1255 -8.2043
16.3830 -7.0203 -8.7386
24.7615 -1.1773 -12.1537
21.5946 0.9037 -10.5966
20.3594 2.6856 -10.0682
20.2783 4.5450 -10.1886
21.8451 6.9933 -11.2456
20.0709 8.4658 -10.6799
16.6342 8.8401 -9.2355
13.0729 8.5242 -7.6515
11.9773 9.4336 -7.4749
10.9229 10.3087 -7.3636
9.8913 11.1650 -7.3131
8.8656 12.0163 -7.3212
7.8294 12.8763 -7.3884
6.7654 13.7594 -7.5173
7.3329 19.0385 -10.0025
5.2304 18.3053 -9.3338
3.7380 19.5439 -9.7556
2.0460 20.4628 -10.0825
0.2005 19.4250 -9.5241
-0.9630 12.1622 -5.9815
-3.4647 20.3860 -10.1381
-5.5141 20.9234 -10.6085
16.0341 -7.4458 -8.6674
25.2312 -1.9571 -12.4074
23.1627 0.2762 -11.3570
20.4234 2.0751 -10.0647
19.6530 3.7916 -9.8131
21.9634 6.3138 -11.2042
20.6447 7.9896 -10.8532
17.1086 8.4463 -9.3545
13.4524 8.2093 -7.7265
12.3384 9.1338 -7.5264
11.2724 10.0187 -7.3939
10.2351 10.8796 -7.3234
9.2092 11.7310 -7.3120
8.1784 12.5866 -7.3592
7.1257 13.4603 -7.4670
7.8234 18.6313 -9.9071
6.1933 19.4537 -10.0094
4.2525 19.1169 -9.6017
2.6454 20.3057 -10.0395
0.7836 19.4717 -9.5542
-0.9720 19.7755 -9.7072
-2.7927 20.0425 -9.9213
-4.8071 20.7380 -10.4370
-6.9942 21.3115 -10.9968
15.8509 -7.9451 -8.6929
23.8599 -0.4290 -11.6998
20.8848 1.4928 -10.2655
19.5292 3.1654 -9.6997
20.9454 5.3487 -10.5986
21.5780 7.6173 -11.2190
17.5959 8.0419 -9.4851
13.8397 7.8878 -7.8100
12.7049 8.8297 -7.5855
11.6250 9.7260 -7.4311
10.5801 10.5932 -7.3403
9.5523 11.4463 -7.3093
8.5250 12.2989 -7.3368
7.4816 13.1650 -7.4239
8.3051 18.2315 -9.8222
6.8385 19.4488 -10.1075
4.7513 18.7029 -9.4609
3.2130 19.9797 -9.9214
1.4481 20.6196 -10.1342
-0.3781 19.6723 -9.6467
-2.1741 19.9506 -9.8392
-4.1220 20.5584 -10.2799
-6.2363 21.1128 -10.7932
-7.1623 -15.1195 -8.2024
23.8277 -0.4023 -11.5023
20.8593 1.5139 -10.0944
19.5067 3.1837 -9.5397
20.9711 5.3797 -10.4496
21.5555 7.6359 -11.0375
17.5778 8.0569 -9.3328
13.8254 7.8996 -7.6855
12.6914 8.8409 -7.4654
11.6121 9.7367 -7.3142
10.4527 10.4886 -7.1471
9.5395 11.4564 -7.1955
8.5123 12.3094 -7.2235
7.4686 13.1757 -7.3100
8.3103 18.2960 -9.6990
6.8200 19.4641 -9.9545
4.7334 18.7178 -9.3187
3.1932 19.9961 -9.7736
1.4259 20.6254 -9.9788
-0.3997 19.6780 -9.4997
-2.2007 19.9911 -9.7072
-4.1468 20.5649 -10.1256
-6.2636 21.1199 -10.6326
-7.2590 -15.3670 -8.2029
16.4356 -7.0287 -8.6278
24.7384 -1.1581 -11.9533
21.5765 0.9187 -10.4235
20.3437 2.6987 -9.9051
20.2941 4.5641 -10.0398
21.8299 7.0059 -11.0657
20.0572 8.4772 -10.5099
16.6227 8.8496 -9.0893
13.0637 8.5318 -7.5309
11.9685 9.4409 -7.3576
10.9142 10.3156 -7.2484
9.8824 11.1714 -7.1990
8.8572 12.0232 -7.2078
7.7583 12.7803 -7.2162
6.7566 13.7667 -7.4018
7.3208 19.0485 -9.8495
5.2187 18.3149 -9.1917
3.7253 19.5545 -9.6079
2.0312 20.4667 -9.9270
0.1863 19.4287 -9.3779
-0.9727 12.1723 -5.8938
-3.4807 20.3903 -9.9839
-5.5317 20.9280 -10.4480
16.2659 -7.5390 -8.6532
25.4296 -1.9538 -12.3100
23.1769 0.2932 -11.1874
20.4370 2.0915 -9.9156
19.6677 3.8094 -9.6692
21.9823 6.3366 -11.0420
20.6305 8.0014 -10.6802
17.0969 8.4561 -9.2061
13.4430 8.2170 -7.6045
12.3295 9.1412 -7.4081
11.2638 10.0258 -7.2782
10.1156 10.7684 -7.1310
9.2008 11.7380 -7.1985
8.1696 12.5931 -7.2452
7.1170 13.4676 -7.3521
7.8116 18.6411 -9.7554
6.1680 19.4232 -9.8361
4.2401 19.1272 -9.4560
2.6309 20.3095 -9.8845
0.7668 19.4076 -9.3745
-0.9893 19.8326 -9.5843
-2.8327 20.2214 -9.8554
-4.8241 20.7425 -10.2787
-7.0130 21.3165 -10.8311
23.8384 -0.4112 -11.5075
20.8678 1.5069 -10.0983
19.5141 3.1776 -9.5427
20.9625 5.3694 -10.4444
21.5630 7.6297 -11.0399
17.5838 8.0519 -9.3345
13.8302 7.8957 -7.6865
12.6958 8.8372 -7.4661
11.6164 9.7331 -7.3147
10.5712 10.5997 -7.2255
9.5436 11.4529 -7.1955
8.5165 12.3059 -7.2232
7.4730 13.1721 -7.3095
8.3282 18.3175 -9.7120
6.8262 19.4590 -9.9532
4.7394 18.7128 -9.3171
3.1998 19.9906 -9.7715
1.4333 20.6235 -9.9781
-0.3925 19.6761 -9.4987
-2.1934 19.9919 -9.7072
-4.1385 20.5627 -10.1238
-6.2545 21.1175 -10.6302
-7.2526 -15.3391 -8.1894
16.4337 -7.0349 -8.6281
24.7500 -1.1678 -11.9591
21.5856 0.9112 -10.4277
20.3515 2.6922 -9.9084
20.2862 4.5545 -10.0351
21.8375 6.9996 -11.0683
20.0641 8.4715 -10.5119
16.6284 8.8449 -9.0906
13.0683 8.5280 -7.5318
11.9729 9.4372 -7.3582
10.9184 10.3121 -7.2487
9.8465 11.1226 -7.1699
8.8614 12.0197 -7.2076
7.7588 12.7708 -7.2124
6.7610 13.7630 -7.4011
7.3268 19.0435 -9.8483
5.2246 18.3101 -9.1903
3.7317 19.5491 -9.6059
2.0386 20.4648 -9.9264
0.1934 19.4269 -9.3770
-0.9678 12.1670 -5.8910
-3.4727 20.3881 -9.9822
-5.5229 20.9257 -10.4458
16.2638 -7.5452 -8.6535
25.4289 -1.9630 -12.3100
23.1698 0.2847 -11.1840
20.4302 2.0833 -9.9120
19.6604 3.8005 -9.6649
21.6877 6.2431 -10.8928
20.6376 7.9955 -10.6824
17.1027 8.4512 -9.2076
13.4477 8.2131 -7.6055
12.3340 9.1375 -7.4088
11.2681 10.0222 -7.2786
10.1198 10.7650 -7.1312
9.2050 11.7345 -7.1985
8.1738 12.5896 -7.2449
7.1214 13.4639 -7.3515
7.8175 18.6362 -9.7543
6.1806 19.4385 -9.8450
4.2463 19.1220 -9.4543
2.6382 20.3076 -9.8840
0.7751 19.4395 -9.3901
-0.9820 19.8307 -9.5832
-2.8249 20.2194 -9.8538
-4.8156 20.7403 -10.2768
-7.0036 21.3140 -10.8285
23.8491 -0.4201 -11.5128
20.8763 1.4999 -10.1021
19.5214 3.1715 -9.5457
20.9540 5.3591 -10.4392
21.5704 7.6235 -11.0423
17.5899 8.0469 -9.3361
13.8350 7.8917 -7.6876
12.7004 8.8334 -7.4669
11.6207 9.7295 -7.3152
10.5754 10.5962 -7.2257
9.5478 11.4494 -7.1955
8.5207 12.3024 -7.2230
7.4773 13.1686 -7.3091
8.3459 18.3389 -9.7250
6.8323 19.4539 -9.9519
4.7454 18.7078 -9.3154
3.2064 19.9851 -9.7694
1.4408 20.6215 -9.9774
-0.3853 19.6742 -9.4977
-2.1861 19.9927 -9.7072
-4.1303 20.5606 -10.1220
-6.2454 21.1152 -10.6279
-7.2462 -15.3111 -8.1759
16.4317 -7.0412 -8.6284
24.7615 -1.1773 -11.9649
21.5946 0.9037 -10.4320
20.3594 2.6856 -9.9118
20.2783 4.5450 -10.0303
21.8451 6.9933 -11.0708
20.0709 8.4658 -10.5139
16.6342 8.8401 -9.0920
13.0729 8.5242 -7.5326
11.9773 9.4336 -7.3587
10.9227 10.3086 -7.2491
9.7839 11.0438 -7.1213
8.8656 12.0163 -7.2075
7.7594 12.7613 -7.2086
6.7654 13.7594 -7.4005
7.3329 19.0385 -9.8471
5.2304 18.3053 -9.1888
3.7380 19.5439 -9.6040
2.0460 20.4628 -9.9258
0.2005 19.4250 -9.3762
-0.9629 12.1617 -5.8883
-3.4647 20.3860 -9.9806
-5.5141 20.9234 -10.4437
16.2616 -7.5514 -8.6538
25.4282 -1.9724 -12.3100
23.1627 0.2762 -11.1805
20.4234 2.0751 -9.9083
19.6530 3.7916 -9.6606
21.6784 6.2319 -10.8870
20.6447 7.9896 -10.6845
17.1086 8.4464 -9.2091
13.4524 8.2093 -7.6064
12.3384 9.1338 -7.4095
11.2724 10.0187 -7.2790
10.1239 10.7615 -7.1314
9.2092 11.7310 -7.1984
8.1781 12.5861 -7.2446
7.1257 13.4603 -7.3510
7.8234 18.6313 -9.7532
6.1933 19.4537 -9.8539
4.2525 19.1169 -9.4525
2.6454 20.3057 -9.8835
0.7836 19.4717 -9.4058
-0.9746 19.8287 -9.5821
-2.7927 20.0425 -9.7672
-4.8071 20.7380 -10.2748
-6.9942 21.3115 -10.8260
23.8599 -0.4290 -11.5180
20.8848 1.4928 -10.1060
19.5288 3.1653 -9.5488
20.9454 5.3487 -10.4339
21.5780 7.6173 -11.0447
17.5959 8.0419 -9.3378
13.8398 7.8878 -7.6886
12.7049 8.8297 -7.4676
11.6250 9.7260 -7.3157
10.5796 10.5927 -7.2259
9.5520 11.4459 -7.1955
8.5250 12.2989 -7.2228
7.4816 13.1650 -7.3086
8.3639 18.3606 -9.7381
6.8385 19.4487 -9.9505
4.7513 18.7029 -9.3138
3.2130 19.9797 -9.7673
1.4481 20.6196 -9.9768
-0.3781 19.6723 -9.4968
-2.1788 19.9935 -9.7072
-4.1220 20.5584 -10.1202
-6.2363 21.1128 -10.6255
-7.2402 -15.2839 -8.1628
23.8277 -0.4023 -11.3218
20.8593 1.5139 -9.9361
19.5067 3.1837 -9.3900
20.9711 5.3797 -10.2857
21.2159 7.5156 -10.6931
17.5778 8.0569 -9.1864
13.8254 7.8996 -7.5649
12.6914 8.8409 -7.3482
11.6121 9.7367 -7.1995
10.4527 10.4886 -7.0350
9.5396 11.4565 -7.0827
8.5124 12.3094 -7.1102
7.3876 13.0327 -7.1172
8.3103 18.2960 -9.5468
6.8200 19.4641 -9.7984
4.7334 18.7178 -9.1725
3.1932 19.9961 -9.6202
1.4259 20.6254 -9.8222
-0.3997 19.6780 -9.3507
-2.2187 20.1549 -9.6332
-4.1468 20.5649 -9.9668
-6.2636 21.1199 -10.4658
24.7384 -1.1581 -11.7657
21.5765 0.9187 -10.2600
20.1263 2.6698 -9.6455
20.2941 4.5641 -9.8823
21.8299 7.0059 -10.8921
20.0572 8.4773 -10.3450
16.6227 8.8496 -8.9466
13.0637 8.5318 -7.4128
11.9685 9.4409 -7.2422
10.9144 10.3158 -7.1348
9.8827 11.1717 -7.0862
8.8572 12.0232 -7.0947
7.7359 12.7435 -7.0825
6.7566 13.7667 -7.2856
7.3559 19.1399 -9.7416
5.2187 18.3149 -9.0475
3.7253 19.5545 -9.4571
2.0312 20.4667 -9.7712
0.1863 19.4287 -9.2307
-0.9727 12.1717 -5.8010
-3.4807 20.3903 -9.8273
-5.5317 20.9280 -10.2841
25.7243 -1.9764 -12.2573
23.1769 0.2932 -11.0119
20.6655 2.1149 -9.8692
19.6677 3.8094 -9.5175
21.6970 6.2544 -10.7277
20.6305 8.0014 -10.5126
17.0969 8.4560 -9.0617
13.4430 8.2170 -7.4852
12.3295 9.1412 -7.2919
11.2638 10.0258 -7.1640
10.1156 10.7684 -7.0192
9.2008 11.7380 -7.0856
8.1698 12.5934 -7.1317
7.1168 13.4671 -7.2365
7.8116 18.6411 -9.6023
6.1680 19.4232 -9.6818
4.2401 19.1272 -9.3077
2.6309 20.3095 -9.7294
0.7668 19.4076 -9.2275
-0.9893 19.8326 -9.4339
-2.8325 20.2203 -9.7002
-4.8241 20.7425 -10.1175
-7.0130 21.3165 -10.6612
23.8384 -0.4112 -11.3270
20.8678 1.5069 -9.9398
19.5141 3.1776 -9.3930
20.9625 5.3694 -10.2805
21.2232 7.5094 -10.6954
17.5838 8.0519 -9.1880
13.8302 7.8957 -7.5659
12.6958 8.8372 -7.3490
11.6164 9.7331 -7.1999
10.5714 10.5999 -7.1123
9.5437 11.4530 -7.0827
8.5166 12.3059 -7.1099
7.3918 13.0291 -7.1168
8.3282 18.3175 -9.5596
6.8262 19.4590 -9.7970
4.7394 18.7128 -9.1709
3.1998 19.9906 -9.6182
1.4333 20.6235 -9.8216
-0.3925 19.6761 -9.3497
-2.2111 20.1529 -9.6318
-4.1385 20.5627 -9.9650
-6.2545 21.1175 -10.4634
24.7499 -1.1677 -11.7714
21.5856 0.9112 -10.2641
20.1341 2.6634 -9.6488
20.2862 4.5545 -9.8776
21.8375 6.9996 -10.8946
20.0641 8.4715 -10.3470
16.6284 8.8449 -8.9480
13.0683 8.5280 -7.4136
11.9729 9.4372 -7.2427
10.9186 10.3123 -7.1351
9.8466 11.1227 -7.0574
8.8614 12.0197 -7.0945
7.7402 12.7400 -7.0821
6.7610 13.7630 -7.2850
7.3629 19.1373 -9.7416
5.2246 18.3101 -9.0461
3.7317 19.5491 -9.4552
2.0386 20.4648 -9.7707
0.1934 19.4269 -9.2299
-0.9678 12.1664 -5.7983
-3.4727 20.3881 -9.8256
-5.5229 20.9257 -10.2819
25.7368 -1.9868 -12.2636
23.1698 0.2847 -11.0085
20.6663 2.1074 -9.8692
19.6604 3.8005 -9.5133
21.6877 6.2431 -10.7219
20.6376 7.9955 -10.5148
17.1027 8.4512 -9.0631
13.4477 8.2131 -7.4861
12.3340 9.1375 -7.2926
11.2681 10.0222 -7.1644
10.1198 10.7650 -7.0193
9.2050 11.7345 -7.0855
8.1740 12.5899 -7.1314
7.1211 13.4634 -7.2359
7.8175 18.6362 -9.6012
6.1806 19.4385 -9.6905
4.2463 19.1220 -9.3059
2.6382 20.3076 -9.7289
0.7751 19.4395 -9.2428
-0.9820 19.8307 -9.4328
-2.8247 20.2182 -9.6987
-4.8156 20.7403 -10.1155
-7.0036 21.3140 -10.6586
23.8491 -0.4201 -11.3321
20.8763 1.4998 -9.9436
19.5214 3.1715 -9.3959
20.9540 5.3591 -10.2754
21.2306 7.5034 -10.6978
17.5899 8.0469 -9.1897
13.8350 7.8917 -7.5670
12.7004 8.8334 -7.3497
11.6207 9.7295 -7.2004
10.5756 10.5964 -7.1125
9.5479 11.4495 -7.0827
8.5208 12.3024 -7.1097
7.3961 13.0256 -7.1163
8.3459 18.3389 -9.5724
6.8323 19.4539 -9.7957
4.7454 18.7078 -9.1693
3.2064 19.9851 -9.6161
1.4408 20.6215 -9.8209
-0.3853 19.6742 -9.3487
-2.2034 20.1509 -9.6305
-4.1303 20.5606 -9.9632
-6.2454 21.1152 -10.4611
-7.3463 -15.5225 -8.1587
24.7615 -1.1773 -11.7771
21.5946 0.9037 -10.2683
20.1418 2.6569 -9.6520
20.2783 4.5450 -9.8730
21.8451 6.9933 -10.8971
20.0709 8.4659 -10.3490
16.6342 8.8401 -8.9493
13.0729 8.5242 -7.4144
11.9773 9.4336 -7.2433
10.9228 10.3087 -7.1355
9.7839 11.0438 -7.0096
8.8656 12.0163 -7.0944
7.7444 12.7365 -7.0817
6.7654 13.7594 -7.2844
7.3699 19.1346 -9.7416
5.2304 18.3053 -9.0446
3.7380 19.5439 -9.4533
2.0460 20.4628 -9.7701
0.2005 19.4250 -9.2290
-0.9629 12.1611 -5.7956
-3.4647 20.3860 -9.8240
-5.5141 20.9234 -10.2798
25.7494 -1.9973 -12.2699
23.1627 0.2762 -11.0051
20.6671 2.0998 -9.8692
19.6530 3.7916 -9.5091
21.6784 6.2319 -10.7162
20.6447 7.9896 -10.5169
17.1086 8.4464 -9.0646
13.4524 8.2093 -7.4871
12.3384 9.1338 -7.2932
11.2724 10.0187 -7.1648
10.1239 10.7615 -7.0195
9.2092 11.7310 -7.0854
8.1783 12.5864 -7.1311
7.1255 13.4598 -7.2354
7.8234 18.6313 -9.6002
6.1933 19.4537 -9.6993
4.2525 19.1169 -9.3042
2.6454 20.3057 -9.7285
0.7836 19.4717 -9.2582
-0.9746 19.8287 -9.4317
-2.8169 20.2162 -9.6972
-4.8071 20.7380 -10.1136
-6.9942 21.3115 -10.6561
23.8599 -0.4290 -11.3373
20.8848 1.4928 -9.9474
19.5288 3.1653 -9.3989
20.9454 5.3487 -10.2702
21.2380 7.4972 -10.7001
17.5959 8.0419 -9.1913
13.8398 7.8878 -7.5680
12.7049 8.8297 -7.3505
11.6250 9.7260 -7.2009
10.5799 10.5929 -7.1127
9.5521 11.4460 -7.0827
8.5250 12.2989 -7.1095
7.4004 13.0220 -7.1158
8.3639 18.3606 -9.5853
6.8385 19.4487 -9.7944
4.7513 18.7029 -9.1677
3.2130 19.9797 -9.6140
1.4481 20.6196 -9.8202
-0.3781 19.6723 -9.3478
-2.1957 20.1489 -9.6291
-4.1220 20.5584 -9.9614
-6.2363 21.1128 -10.4588
-7.3397 -15.4941 -8.1452
26.2444 -2.7981 -12.3403
23.8277 -0.4023 -11.1424
21.0526 1.5279 -9.8692
19.5071 3.1837 -9.2414
20.9711 5.3797 -10.1227
21.2159 7.5156 -10.5237
17.5778 8.0569 -9.0408
13.8254 7.8996 -7.4450
12.6914 8.8409 -7.2318
11.6121 9.7367 -7.0854
10.5674 10.6037 -6.9995
9.5434 11.4611 -6.9732
8.5124 12.3094 -6.9975
7.3876 13.0327 -7.0044
8.3103 18.2960 -9.3956
6.8460 19.5382 -9.6798
4.7334 18.7178 -9.0271
3.1932 19.9961 -9.4678
1.4259 20.6254 -9.6666
-0.3997 19.6780 -9.2025
-2.2187 20.1549 -9.4805
-4.1468 20.5649 -9.8088
-6.2636 21.1199 -10.2999
24.7384 -1.1581 -11.5793
21.5765 0.9187 -10.0974
19.9078 2.6409 -9.3896
20.2941 4.5641 -9.7257
21.8299 7.0059 -10.7195
20.0572 8.4773 -10.1811
16.6227 8.8496 -8.8049
13.0637 8.5318 -7.2953
11.9685 9.4409 -7.1274
10.9144 10.3158 -7.0218
9.8829 11.1719 -6.9740
8.8572 12.0232 -6.9823
7.7392 12.7490 -6.9732
6.7566 13.7667 -7.1702
7.4380 19.3534 -9.6941
5.2187 18.3149 -8.9042
3.7253 19.5545 -9.3073
2.0312 20.4667 -9.6164
0.1863 19.4287 -9.0845
-0.9726 12.1711 -5.7088
-3.4936 20.4654 -9.7072
-5.5317 20.9280 -10.1211
25.7243 -1.9764 -12.0630
23.1769 0.2932 -10.8374
20.7807 2.1267 -9.7669
19.6677 3.8094 -9.3667
21.6970 6.2544 -10.5577
20.6305 8.0014 -10.3460
17.0969 8.4560 -8.9181
13.4430 8.2170 -7.3666
12.3295 9.1412 -7.1764
11.2638 10.0258 -7.0505
10.2113 10.8702 -6.9732
9.2008 11.7380 -6.9733
8.1699 12.5936 -7.0188
7.1168 13.4672 -7.1218
7.8116 18.6411 -9.4501
6.1680 19.4232 -9.5284
4.2401 19.1272 -9.1602
2.6309 20.3095 -9.5752
0.7668 19.4076 -9.0812
-0.9894 19.8326 -9.2844
-2.8325 20.2203 -9.5465
-4.8241 20.7425 -9.9572
-7.0130 21.3165 -10.4922
26.2578 -2.8092 -12.3471
23.8384 -0.4112 -11.1475
21.0531 1.5203 -9.8692
19.5145 3.1776 -9.2443
20.9625 5.3694 -10.1176
21.2232 7.5094 -10.5259
17.5838 8.0519 -9.0424
13.8302 7.8957 -7.4460
12.6959 8.8372 -7.2325
11.6164 9.7331 -7.0858
10.5716 10.6002 -6.9997
9.5476 11.4576 -6.9732
8.5166 12.3059 -6.9973
7.3918 13.0291 -7.0040
8.3282 18.3176 -9.4082
6.8598 19.5549 -9.6893
4.7394 18.7128 -9.0256
3.1998 19.9906 -9.4657
1.4333 20.6235 -9.6659
-0.3925 19.6761 -9.2015
-2.2111 20.1529 -9.4792
-4.1385 20.5627 -9.8071
-6.2545 21.1175 -10.2976
24.7500 -1.1678 -11.5849
21.5856 0.9112 -10.1015
19.9155 2.6345 -9.3928
20.2862 4.5545 -9.7211
21.8375 6.9996 -10.7220
20.0641 8.4715 -10.1830
16.6284 8.8449 -8.8062
13.0683 8.5280 -7.2961
11.9729 9.4372 -7.1279
10.9186 10.3123 -7.0221
9.8858 11.1670 -6.9732
8.8614 12.0197 -6.9821
7.7439 12.7461 -6.9732
6.7610 13.7630 -7.1695
7.4441 19.3483 -9.6929
5.2246 18.3101 -8.9027
3.7317 19.5491 -9.3054
2.0386 20.4648 -9.6158
0.1934 19.4269 -9.0836
-0.9677 12.1658 -5.7062
-3.4861 20.4667 -9.7072
-5.5229 20.9257 -10.1190
25.7368 -1.9868 -12.0692
23.1698 0.2847 -10.8340
20.7889 2.1199 -9.7704
19.6603 3.8005 -9.3625
21.6877 6.2431 -10.5520
20.6376 7.9955 -10.3481
17.1027 8.4512 -8.9195
13.4477 8.2131 -7.3675
12.3340 9.1375 -7.1770
11.2681 10.0222 -7.0509
10.2152 10.8665 -6.9732
9.2050 11.7345 -6.9732
8.1742 12.5901 -7.0185
7.1212 13.4635 -7.1213
7.8175 18.6362 -9.4491
6.1806 19.4385 -9.5370
4.2463 19.1220 -9.1585
2.6382 20.3076 -9.5748
0.7751 19.4395 -9.0963
-0.9820 19.8307 -9.2833
-2.8247 20.2182 -9.5450
-4.8156 20.7403 -9.9552
-7.0036 21.3140 -10.4897
26.2712 -2.8203 -12.3539
23.8491 -0.4201 -11.1526
21.0537 1.5126 -9.8692
19.5218 3.1715 -9.2473
20.9540 5.3591 -10.1126
21.2306 7.5034 -10.5282
17.5899 8.0469 -9.0440
13.8350 7.8917 -7.4470
12.7004 8.8334 -7.2332
11.6207 9.7295 -7.0863
10.5759 10.5967 -6.9999
9.5517 11.4541 -6.9732
8.5208 12.3024 -6.9970
7.3961 13.0256 -7.0035
8.3459 18.3389 -9.4207
6.8736 19.5715 -9.6988
4.7454 18.7078 -9.0240
3.2064 19.9851 -9.4637
1.4408 20.6215 -9.6653
-0.3853 19.6742 -9.2006
-2.2034 20.1509 -9.4779
-4.1303 20.5606 -9.8053
-6.2454 21.1152 -10.2954
24.7615 -1.1773 -11.5905
21.5946 0.9037 -10.1056
19.9232 2.6281 -9.3959
20.2783 4.5450 -9.7165
21.8451 6.9933 -10.7245
20.0709 8.4658 -10.1850
16.6342 8.8401 -8.8075
13.0729 8.5242 -7.2970
11.9773 9.4336 -7.1285
10.9229 10.3087 -7.0224
9.8899 11.1634 -6.9732
8.8656 12.0163 -6.9820
7.7485 12.7433 -6.9732
6.7654 13.7594 -7.1689
7.4503 19.3433 -9.6917
5.2304 18.3053 -8.9013
3.7381 19.5439 -9.3035
2.0460 20.4628 -9.6153
0.2005 19.4250 -9.0828
-0.9628 12.1605 -5.7035
-3.4786 20.4679 -9.7072
-5.5141 20.9234 -10.1169
25.7494 -1.9973 -12.0755
23.1627 0.2762 -10.8307
20.7971 2.1130 -9.7739
19.6530 3.7916 -9.3584
21.6784 6.2319 -10.5464
20.6447 7.9896 -10.3502
17.1086 8.4464 -8.9210
13.4524 8.2093 -7.3684
12.3384 9.1338 -7.1776
11.2724 10.0187 -7.0513
10.2192 10.8628 -6.9732
9.2092 11.7310 -6.9732
8.1784 12.5866 -7.0182
7.1255 13.4599 -7.1208
7.8234 18.6313 -9.4480
6.1933 19.4537 -9.5456
4.2525 19.1169 -9.1567
2.6454 20.3057 -9.5743
0.7836 19.4717 -9.1115
-0.9746 19.8287 -9.2823
-2.8169 20.2162 -9.5436
-4.8071 20.7380 -9.9533
-6.9942 21.3115 -10.4873
26.2847 -2.8315 -12.3607
23.8599 -0.4290 -11.1577
21.0542 1.5049 -9.8692
19.5292 3.1654 -9.2502
20.9454 5.3487 -10.1074
21.2379 7.4972 -10.5305
17.5959 8.0419 -9.0456
13.8397 7.8878 -7.4481
12.7049 8.8297 -7.2340
11.6250 9.7260 -7.0868
10.5801 10.5932 -7.0002
9.5559 11.4506 -6.9732
8.5250 12.2989 -6.9968
7.4004 13.0220 -7.0031
8.3639 18.3606 -9.4334
6.8876 19.5883 -9.7084
4.7513 18.7029 -9.0224
3.2130 19.9797 -9.4617
1.4481 20.6196 -9.6646
-0.3781 19.6723 -9.1996
-2.1957 20.1489 -9.4766
-4.1220 20.5584 -9.8036
-6.2363 21.1128 -10.2931
23.8277 -0.4023 -10.9640
21.4659 1.5580 -9.9019
19.5071 3.1837 -9.0934
20.9711 5.3797 -9.9606
21.2159 7.5156 -10.3552
17.5778 8.0569 -8.8961
13.8254 7.8996 -7.3258
12.6914 8.8409 -7.1160
11.6121 9.7367 -6.9719
10.5675 10.6037 -6.8874
9.6428 11.5804 -6.9331
8.6043 12.4424 -6.9598
7.4743 13.1857 -6.9732
8.3103 18.2960 -9.2451
6.8459 19.5382 -9.5248
4.7334 18.7178 -8.8826
3.1932 19.9961 -9.3162
1.4259 20.6254 -9.5119
-0.3997 19.6780 -9.0552
-2.2187 20.1549 -9.3288
-4.1706 20.6829 -9.7072
-6.2636 21.1199 -10.1350
17.8075 -5.7982 -8.6161
24.7384 -1.1581 -11.3939
21.5765 0.9187 -9.9358
19.9428 2.6455 -9.2555
20.2941 4.5641 -9.5700
21.8299 7.0059 -10.5479
20.0572 8.4773 -10.0181
16.6227 8.8496 -8.6639
13.0637 8.5318 -7.1785
11.9685 9.4409 -7.0133
10.9144 10.3158 -6.9094
9.9896 11.2926 -6.9365
8.8572 12.0232 -6.8705
7.8651 12.9564 -6.9732
6.7566 13.7667 -7.0554
7.4380 19.3534 -9.5389
5.2187 18.3149 -8.7616
3.7253 19.5545 -9.1583
2.0312 20.4667 -9.4624
0.1863 19.4287 -8.9390
-0.9726 12.1706 -5.6172
-3.5034 20.5231 -9.5787
-5.5317 20.9280 -9.9591
26.0579 -2.0021 -12.0239
23.1769 0.2932 -10.6639
20.7807 2.1267 -9.6106
19.6677 3.8094 -9.2168
21.6970 6.2544 -10.3887
20.6305 8.0014 -10.1804
17.0969 8.4560 -8.7753
13.4430 8.2170 -7.2487
12.3295 9.1412 -7.0615
11.2638 10.0258 -6.9376
10.3371 11.0042 -6.9462
9.2008 11.7380 -6.8617
8.2490 12.7155 -6.9732
7.1170 13.4675 -7.0080
7.8116 18.6411 -9.2989
6.1680 19.4232 -9.3759
4.2401 19.1272 -9.0135
2.6309 20.3095 -9.4219
0.7668 19.4076 -8.9359
-0.9894 19.8326 -9.1358
-2.8325 20.2203 -9.3936
-4.8241 20.7425 -9.7978
-7.0130 21.3165 -10.3242
23.8384 -0.4112 -10.9690
21.4747 1.5507 -9.9056
19.5145 3.1777 -9.0963
20.9625 5.3694 -9.9556
21.2232 7.5094 -10.3574
17.5838 8.0519 -8.8977
13.8302 7.8957 -7.3268
12.6959 8.8372 -7.1167
11.6164 9.7331 -6.9724
10.5717 10.6002 -6.8877
9.6470 11.5769 -6.9331
8.6086 12.4388 -6.9596
7.4791 13.1830 -6.9732
8.3282 18.3175 -9.2576
6.8598 19.5549 -9.5342
4.7394 18.7128 -8.8811
3.1998 19.9906 -9.3142
1.4333 20.6235 -9.5112
-0.3925 19.6761 -9.0542
-2.2111 20.1529 -9.3275
-4.1630 20.6845 -9.7072
-6.2545 21.1175 -10.1328
17.8046 -5.8045 -8.6157
24.7499 -1.1677 -11.3995
21.5856 0.9112 -9.9398
19.9438 2.6382 -9.2555
20.2862 4.5545 -9.5655
21.8375 6.9996 -10.5503
20.0641 8.4715 -10.0200
16.6284 8.8449 -8.6652
13.0683 8.5280 -7.1793
11.9729 9.4372 -7.0138
10.9186 10.3123 -6.9097
9.9938 11.2891 -6.9366
8.8614 12.0197 -6.8703
7.8699 12.9535 -6.9732
6.7610 13.7630 -7.0548
7.4441 19.3483 -9.5378
5.2246 18.3101 -8.7602
3.7317 19.5491 -9.1564
2.0386 20.4648 -9.4619
0.1934 19.4269 -8.9382
-0.9677 12.1653 -5.6146
-3.4953 20.5210 -9.5771
-5.5229 20.9257 -9.9570
26.0571 -2.0115 -12.0239
23.1698 0.2847 -10.6606
20.7889 2.1199 -9.6140
19.6604 3.8005 -9.2127
21.6877 6.2431 -10.3831
20.6376 7.9955 -10.1825
17.1027 8.4512 -8.7767
13.4477 8.2131 -7.2496
12.3340 9.1375 -7.0621
11.2681 10.0222 -6.9380
10.3413 11.0007 -6.9463
9.2050 11.7345 -6.8616
8.2536 12.7124 -6.9732
7.1213 13.4638 -7.0075
7.8175 18.6362 -9.2978
6.1806 19.4385 -9.3843
4.2463 19.1220 -9.0118
2.6382 20.3076 -9.4215
0.7751 19.4395 -8.9507
-0.9820 19.8307 -9.1347
-2.8247 20.2182 -9.3922
-4.8156 20.7403 -9.7959
-7.0036 21.3140 -10.3218
23.8491 -0.4201 -10.9740
21.4834 1.5435 -9.9094
19.5218 3.1715 -9.0992
20.9540 5.3591 -9.9507
21.2306 7.5034 -10.3597
17.5899 8.0469 -8.8992
13.8350 7.8917 -7.3278
12.7004 8.8334 -7.1175
11.6207 9.7295 -6.9729
10.5759 10.5967 -6.8879
9.6512 11.5734 -6.9331
8.6128 12.4353 -6.9594
7.4839 13.1803 -6.9732
8.3459 18.3389 -9.2699
6.8736 19.5715 -9.5435
4.7454 18.7078 -8.8795
3.2064 19.9851 -9.3122
1.4408 20.6215 -9.5105
-0.3853 19.6742 -9.0533
-2.2034 20.1509 -9.3262
-4.1555 20.6860 -9.7072
-6.2454 21.1152 -10.1305
17.8018 -5.8107 -8.6154
24.7615 -1.1773 -11.4050
21.5946 0.9037 -9.9438
19.9448 2.6309 -9.2555
20.2783 4.5450 -9.5610
21.8451 6.9933 -10.5528
20.0709 8.4659 -10.0219
16.6342 8.8401 -8.6665
13.0729 8.5242 -7.1801
11.9773 9.4336 -7.0144
10.9229 10.3087 -6.9100
9.9981 11.2856 -6.9367
8.8656 12.0163 -6.8702
7.8746 12.9506 -6.9732
6.7654 13.7593 -7.0541
7.4503 19.3433 -9.5366
5.2304 18.3053 -8.7588
3.7380 19.5439 -9.1546
2.0460 20.4628 -9.4613
0.2005 19.4250 -8.9374
-0.9628 12.1600 -5.6120
-3.4873 20.5189 -9.5756
-5.5141 20.9234 -9.9550
26.0564 -2.0211 -12.0239
23.1627 0.2762 -10.6573
20.7971 2.1130 -9.6175
19.6530 3.7916 -9.2086
21.6784 6.2319 -10.3776
20.6447 7.9896 -10.1845
17.1086 8.4464 -8.7782
13.4524 8.2093 -7.2505
12.3384 9.1338 -7.0627
11.2724 10.0187 -6.9384
10.3456 10.9971 -6.9465
9.2092 11.7310 -6.8615
8.2582 12.7094 -6.9732
7.1257 13.4602 -7.0069
7.8234 18.6313 -9.2968
6.1933 19.4537 -9.3927
4.2525 19.1169 -9.0102
2.6454 20.3057 -9.4210
0.7836 19.4717 -8.9656
-0.9746 19.8287 -9.1337
-2.8169 20.2162 -9.3908
-4.8071 20.7380 -9.7940
-6.9942 21.3115 -10.3194
23.8599 -0.4290 -10.9791
21.4921 1.5362 -9.9132
19.5292 3.1654 -9.1021
20.9454 5.3487 -9.9456
21.2380 7.4972 -10.3620
17.5959 8.0419 -8.9008
13.8398 7.8878 -7.3288
12.7049 8.8297 -7.1182
11.6250 9.7260 -6.9733
10.5801 10.5932 -6.8881
9.6555 11.5699 -6.9331
8.6171 12.4318 -6.9592
7.4887 13.1775 -6.9732
8.3639 18.3606 -9.2824
6.8876 19.5883 -9.5529
4.7513 18.7029 -8.8780
3.2130 19.9797 -9.3102
1.4481 20.6196 -9.5099
-0.3781 19.6723 -9.0524
-2.1957 20.1489 -9.3248
-4.1479 20.6875 -9.7072
-6.2363 21.1128 -10.1283
18.2320 -5.3391 -8.5989
23.8277 -0.4023 -10.7867
21.4659 1.5580 -9.7417
19.5071 3.1837 -8.9463
20.9711 5.3797 -9.7995
21.2159 7.5156 -10.1877
17.5778 8.0569 -8.7522
13.8254 7.8996 -7.2073
12.6914 8.8409 -7.0009
11.6121 9.7367 -6.8592
10.5675 10.6037 -6.7760
9.6428 11.5804 -6.8209
8.6043 12.4424 -6.8472
7.5493 13.3180 -6.9293
8.3103 18.2960 -9.0956
6.8459 19.5382 -9.3707
4.7334 18.7178 -8.7389
3.1932 19.9961 -9.1655
1.4259 20.6254 -9.3580
-0.3997 19.6780 -8.9087
-2.2187 20.1549 -9.1778
-4.1738 20.6989 -9.5575
-6.2636 21.1199 -9.9711
24.7384 -1.1581 -11.2096
21.7844 0.9275 -9.8692
20.2708 2.6890 -9.2555
20.2941 4.5641 -9.4152
21.8299 7.0059 -10.3772
20.0572 8.4773 -9.8561
16.6227 8.8496 -8.5238
13.0637 8.5318 -7.0624
11.9685 9.4409 -6.8998
10.9144 10.3158 -6.7976
9.9896 11.2926 -6.8243
8.8572 12.0232 -6.7593
7.9053 13.0225 -6.8955
6.7566 13.7667 -6.9413
7.4380 19.3534 -9.3846
5.2187 18.3149 -8.6199
3.7253 19.5545 -9.0101
2.0312 20.4667 -9.3094
0.1863 19.4287 -8.7944
-0.9725 12.1700 -5.5261
-3.5034 20.5231 -9.4238
-5.5317 20.9280 -9.7980
26.4864 -2.0350 -12.0239
23.1769 0.2932 -10.4914
20.7803 2.1266 -9.4549
19.6677 3.8094 -9.0676
21.6970 6.2544 -10.2206
20.6305 8.0014 -10.0157
17.0969 8.4561 -8.6334
13.4430 8.2170 -7.1314
12.3295 9.1412 -6.9472
11.2638 10.0258 -6.8254
10.3371 11.0042 -6.8338
9.2008 11.7380 -6.7507
8.2582 12.7297 -6.8681
7.1170 13.4676 -6.8947
7.8116 18.6411 -9.1484
6.1680 19.4232 -9.2242
4.2401 19.1272 -8.8677
2.6309 20.3095 -9.2695
0.7668 19.4076 -8.7913
-0.9894 19.8326 -8.9880
-2.8325 20.2203 -9.2417
-4.8556 20.8777 -9.7021
-7.0131 21.3165 -10.1572
18.2251 -5.3443 -8.5966
23.8384 -0.4112 -10.7916
21.4747 1.5507 -9.7454
19.5145 3.1777 -8.9492
20.9625 5.3694 -9.7946
21.2232 7.5094 -10.1899
17.5838 8.0519 -8.7537
13.8302 7.8957 -7.2083
12.6958 8.8372 -7.0016
11.6164 9.7331 -6.8596
10.5717 10.6002 -6.7762
9.6470 11.5769 -6.8209
8.6086 12.4388 -6.8470
7.5537 13.3144 -6.9288
8.3282 18.3175 -9.1078
6.8598 19.5549 -9.3799
4.7394 18.7128 -8.7374
3.1998 19.9906 -9.1635
1.4333 20.6235 -9.3573
-0.3925 19.6761 -8.9078
-2.2111 20.1529 -9.1766
-4.1655 20.6967 -9.5558
-6.2545 21.1176 -9.9689
24.7499 -1.1677 -11.2150
21.7847 0.9196 -9.8692
20.2717 2.6816 -9.2555
20.2862 4.5545 -9.4107
21.8375 6.9996 -10.3796
20.0641 8.4715 -9.8579
16.6284 8.8449 -8.5250
13.0683 8.5280 -7.0632
11.9729 9.4372 -6.9004
10.9186 10.3123 -6.7979
9.9938 11.2891 -6.8244
8.8614 12.0197 -6.7592
7.9096 13.0189 -6.8951
6.7610 13.7630 -6.9406
7.4441 19.3483 -9.3835
5.2246 18.3101 -8.6185
3.7317 19.5491 -9.0083
2.0386 20.4648 -9.3088
0.1934 19.4269 -8.7936
-0.9677 12.1647 -5.5235
-3.4953 20.5210 -9.4222
-5.5229 20.9257 -9.7959
26.4856 -2.0446 -12.0239
23.1698 0.2847 -10.4881
20.7885 2.1198 -9.4583
19.6604 3.8005 -9.0636
21.6877 6.2431 -10.2151
20.6376 7.9955 -10.0177
17.1027 8.4512 -8.6347
13.4477 8.2131 -7.1323
12.3340 9.1375 -6.9479
11.2681 10.0222 -6.8258
10.3413 11.0007 -6.8339
9.2050 11.7345 -6.7506
8.2625 12.7261 -6.8678
7.1214 13.4639 -6.8941
7.8175 18.6362 -9.1474
6.1806 19.4385 -9.2325
4.2463 19.1220 -8.8660
2.6382 20.3076 -9.2691
0.7751 19.4395 -8.8059
-0.9820 19.8307 -8.9870
-2.8247 20.2182 -9.2403
-4.8470 20.8754 -9.7002
-7.0036 21.3140 -10.1548
18.2206 -5.3503 -8.5954
23.8491 -0.4201 -10.7965
21.4834 1.5435 -9.7491
19.5218 3.1715 -8.9520
20.9540 5.3591 -9.7897
21.2306 7.5034 -10.1921
17.5899 8.0469 -8.7553
13.8350 7.8917 -7.2093
12.7004 8.8334 -7.0023
11.6207 9.7295 -6.8601
10.5759 10.5967 -6.7765
9.6512 11.5734 -6.8209
8.6128 12.4353 -6.8468
7.5580 13.3108 -6.9284
8.3459 18.3389 -9.1199
6.8736 19.5715 -9.3891
4.7454 18.7078 -8.7359
3.2064 19.9851 -9.1615
