ply
format ascii 1.0
element vertex 1909
property float32 x
property float32 y
property float32 z
end_header
-24.7618 -13.4014 -3.6627
-20.8843 -13.8458 -3.2596
-21.2254 -16.9829 -3.5362
-21.7536 -20.8498 -3.9197
-26.7646 -30.6868 -5.2969
-22.6187 -31.1619 -5.0090
-19.8305 -33.1958 -5.0302
13.5351 -36.4859 -5.0624
18.2876 -38.3854 -5.5311
19.1552 -32.3966 -4.8959
20.2349 -28.1439 -4.5092
20.9475 -24.2371 -4.1673
26.4146 -25.5470 -4.7803
32.2448 -26.0393 -5.3915
22.6743 -12.4042 -3.3621
22.9490 -10.0075 -3.2568
23.2090 -7.7386 -3.1826
23.4594 -5.5539 -3.1361
23.7045 -3.4153 -3.1155
23.9483 -1.2878 -3.1198
24.4259 0.8711 -3.1795
19.7580 6.1935 -2.6936
-2.3852 32.3671 -4.2219
-15.6580 44.0302 -6.0791
-20.5832 44.7567 -6.4084
-9.6955 -1.9738 -1.2871
-35.8893 -14.3171 -5.0265
-26.2295 -13.2892 -3.8250
-21.9679 -13.7216 -3.3694
-21.2465 -16.0746 -3.4658
-21.5175 -19.5321 -3.7803
-28.1223 -30.5312 -5.3998
-23.8287 -31.0232 -5.0887
-19.9737 -31.4650 -4.8482
-20.4991 -39.7395 -5.8168
19.4445 -35.0196 -5.2107
20.0714 -29.5768 -4.6498
20.1794 -24.6700 -4.1461
24.8419 -25.3652 -4.6185
30.4774 -26.0084 -5.2121
22.5872 -13.1646 -3.4009
22.8674 -10.7190 -3.2853
23.1313 -8.4162 -3.2021
23.3842 -6.2103 -3.1474
23.6304 -4.0615 -3.1191
23.8742 -1.9342 -3.1159
24.1630 0.2061 -3.1434
17.4658 4.9590 -2.3619
20.2992 21.4471 -3.8415
20.8532 26.4005 -4.3765
-14.6166 44.9249 -6.1457
-19.0557 44.5817 -6.3070
-11.0160 11.5574 -2.0770
-38.2032 -14.0519 -5.2952
-27.6383 -13.0737 -3.9773
-23.2077 -13.6355 -3.5015
-20.9993 -15.0100 -3.3578
-21.3855 -18.3796 -3.6682
-29.5348 -30.3693 -5.5108
-25.0787 -30.8800 -5.1749
-21.1047 -31.3354 -4.9146
-11.9959 -21.7844 -3.2351
19.1295 -36.7673 -5.3915
19.8973 -31.1031 -4.8032
19.7883 -25.5768 -4.2067
22.8021 -24.5817 -4.3617
28.0435 -25.2772 -4.9113
34.1654 -25.6610 -5.5584
28.0596 -25.1367 -4.6648
34.8945 -26.0421 -5.3915
22.5571 -13.8847 -3.2799
22.7939 -11.3611 -3.1537
23.0616 -9.0249 -3.0665
23.3169 -6.7970 -3.0074
23.5645 -4.6364 -2.9739
23.8086 -2.5067 -2.9644
24.0531 -0.3735 -2.9788
2.1189 31.5804 -3.9193
-0.7121 31.8163 -3.9407
-3.6354 32.3955 -4.0366
-13.7934 46.1391 -5.9631
-17.7394 44.4308 -5.9240
-40.7061 -13.8702 -5.3251
-29.0759 -12.9070 -3.9392
-24.2295 -13.4624 -3.4323
-20.9060 -14.1960 -3.1291
-21.2746 -17.4123 -3.4042
-30.8386 -30.2199 -5.3465
-26.2247 -30.7486 -5.0042
-22.1352 -31.2173 -4.7387
-19.8920 -34.1524 -4.8940
19.0104 -38.7901 -5.3491
19.6791 -32.4566 -4.7000
19.6335 -26.6789 -4.1017
21.3931 -24.2055 -4.0001
27.0894 -25.6250 -4.6174
33.3615 -26.3360 -5.2631
22.9959 -15.0294 -3.4017
22.7093 -12.0985 -3.1862
22.9819 -9.7203 -3.0898
23.2405 -7.4641 -3.0226
23.4900 -5.2871 -2.9815
23.7347 -3.1517 -2.9648
23.9786 -1.0232 -2.9719
24.6835 1.1542 -3.0598
5.7873 31.1868 -3.9277
-5.7249 32.5679 -4.0946
-16.2339 44.0962 -5.8186
-21.2214 44.8299 -6.1417
-9.7981 -2.1080 -1.2410
-43.5767 -13.5412 -5.6505
-35.0729 -14.4439 -4.6968
-25.6515 -13.3555 -3.5811
-21.5166 -13.7733 -3.1634
-21.2934 -16.4842 -3.3344
-21.7139 -20.1536 -3.6684
-27.5615 -30.5954 -5.0991
-23.3299 -31.0804 -4.8122
-19.5203 -31.5170 -4.5905
-20.4199 -40.6859 -5.6369
18.2118 -39.8609 -5.4266
19.5303 -34.2741 -4.8847
19.4786 -28.0300 -4.2266
20.4430 -24.4349 -3.9450
25.4714 -25.4380 -4.4576
31.2792 -26.0995 -5.0444
22.6230 -12.8519 -3.2218
22.9009 -10.4268 -3.1158
23.1632 -8.1385 -3.0401
23.4149 -5.9416 -2.9913
23.6607 -3.7974 -2.9673
23.9044 -1.6704 -2.9672
24.2310 0.4752 -3.0010
17.2681 5.1103 -2.2299
-14.8350 43.9359 -5.7422
-19.5985 44.4818 -6.0190
-22.8494 33.8509 -5.0572
-9.8080 -1.8334 -1.2355
-37.2285 -14.1636 -4.9322
-27.0088 -13.1439 -3.7194
-22.6500 -13.6475 -3.2745
-21.0436 -15.3967 -3.2287
-21.4385 -18.8421 -3.5342
-28.9510 -30.4362 -5.2015
-24.5632 -30.9391 -4.8917
-20.6390 -31.3888 -4.6517
-20.2693 -37.7935 -5.3104
19.3153 -36.1411 -5.0743
19.9698 -30.4676 -4.5109
19.8989 -25.1393 -3.9701
15.8131 -16.6730 -2.8454
29.3615 -25.8816 -4.8466
35.1790 -25.8177 -5.4033
22.5523 -13.6335 -3.2632
22.8185 -11.1458 -3.1446
23.0849 -8.8212 -3.0601
23.3394 -6.6009 -3.0034
23.5865 -4.4446 -2.9720
23.8305 -2.3159 -2.9648
24.0752 -0.1808 -2.9812
-14.2123 46.1871 -5.9839
-18.1742 44.4806 -5.9499
-34.0179 13.5303 -4.5333
-39.6926 -13.8812 -5.2069
-28.6815 -13.0082 -3.8997
-23.8543 -13.5054 -3.3943
-20.9367 -14.4635 -3.1510
-21.3109 -17.7293 -3.4327
-30.3985 -30.2703 -5.3121
-25.8386 -30.7929 -4.9775
-21.7888 -31.2570 -4.7180
-19.9336 -34.8638 -4.9729
19.0829 -38.1604 -5.2832
19.7887 -32.0547 -4.6647
19.6775 -26.2943 -4.0667
21.7773 -24.2456 -4.0355
27.5905 -25.6829 -4.6675
34.0126 -26.4100 -5.3322
22.6721 -14.5596 -3.3365
22.7345 -11.8788 -3.1763
23.0056 -9.5135 -3.0827
23.2632 -7.2661 -3.0178
23.5120 -5.0943 -2.9790
23.7565 -2.9609 -2.9645
24.0006 -0.8314 -2.9737
25.0365 1.3721 -3.1048
33.4580 4.8556 -4.1864
5.5342 31.2158 -3.9256
-13.0403 46.8628 -6.0234
-16.6549 44.1445 -5.8424
-42.6918 -13.6427 -5.5497
-30.3062 -12.7660 -4.0721
-25.2447 -13.4021 -3.5392
-21.1974 -13.8099 -3.1327
-21.1925 -16.6796 -3.3395
-21.7559 -20.5198 -3.7032
-27.1608 -30.6414 -5.0702
-22.9727 -31.1213 -4.7898
-19.3652 -31.8342 -4.6140
18.4113 -39.4570 -5.3915
19.5908 -33.7482 -4.8320
19.5254 -27.6218 -4.1886
20.6734 -24.3113 -3.9517
25.9381 -25.4919 -4.5033
31.8768 -26.1674 -5.1068
22.6487 -12.6273 -3.2109
22.9250 -10.2166 -3.1079
23.1861 -7.9382 -3.0347
23.4372 -5.7476 -2.9881
23.6826 -3.6063 -2.9663
23.9264 -1.4792 -2.9684
24.3104 0.6719 -3.0114
19.8321 6.0425 -2.5672
-15.2450 43.9829 -5.7642
-20.1263 44.7044 -6.0707
-9.7172 -1.8972 -1.2260
-45.3844 -13.1581 -5.8512
-36.6391 -14.2767 -4.8692
-26.5688 -13.1943 -3.6733
-22.3026 -13.6833 -3.2400
-21.0892 -15.6913 -3.2549
-21.4776 -19.1840 -3.5659
-28.5342 -30.4840 -5.1704
-24.1940 -30.9814 -4.8675
-20.3050 -31.4271 -4.6331
-20.4902 -38.9523 -5.4500
19.3806 -35.5739 -5.0163
20.0211 -30.0179 -4.4679
20.0285 -24.8902 -3.9560
16.0210 -16.6230 -2.8588
29.9128 -25.9442 -4.9031
22.5610 -13.3928 -3.2488
22.8431 -10.9318 -3.1358
23.1082 -8.6184 -3.0539
23.3618 -6.4053 -2.9996
23.6085 -4.2529 -2.9704
23.8523 -2.1251 -2.9653
24.1140 0.0123 -2.9860
-14.5102 45.8441 -5.9543
-18.6129 44.5309 -5.9764
-10.9280 11.6507 -1.9780
-38.7939 -13.9170 -5.1035
-28.1998 -13.0634 -3.8484
-23.5682 -13.5942 -3.3690
-20.9678 -14.7348 -3.1734
-21.3479 -18.0517 -3.4618
-29.9640 -30.3201 -5.2785
-25.4567 -30.8367 -4.9514
-21.4453 -31.2964 -4.6978
-12.1929 -21.7278 -3.0852
-14.3667 -41.5863 -5.4481
19.1536 -37.5460 -5.2192
19.8436 -31.5740 -4.6177
19.7208 -25.9164 -4.0326
22.1725 -24.2909 -4.0725
28.0009 -25.6489 -4.7020
34.6039 -26.4270 -5.3915
22.5751 -14.2429 -3.3053
22.7595 -11.6605 -3.1666
23.0292 -9.3077 -3.0757
23.2858 -7.0687 -3.0133
23.5341 -4.9018 -2.9767
23.7784 -2.7702 -2.9643
24.0226 -0.6393 -2.9757
20.6053 24.2818 -3.9434
-3.2709 32.3800 -4.0299
-13.1911 45.9743 -5.9226
-17.0793 44.1931 -5.8668
-14.1594 11.1207 -2.2294
-41.8379 -13.7405 -5.4529
-29.7796 -12.8264 -4.0150
-24.7618 -13.4014 -3.4864
-20.8843 -13.8458 -3.1027
-21.2254 -16.9829 -3.3660
-21.7536 -20.8498 -3.7311
-26.7646 -30.6868 -5.0421
-22.6187 -31.1619 -4.7680
-19.8305 -33.1958 -4.7881
13.5348 -36.4851 -4.8187
18.7271 -39.3080 -5.3915
19.1552 -32.3965 -4.6603
19.5713 -27.2210 -4.1515
20.9475 -24.2371 -3.9668
26.4146 -25.5470 -4.5503
32.4896 -26.2370 -5.1711
22.6743 -12.4042 -3.2004
22.9490 -10.0075 -3.1001
23.2090 -7.7386 -3.0294
23.4594 -5.5539 -2.9852
23.7045 -3.4153 -2.9656
23.9483 -1.2878 -2.9697
24.4259 0.8711 -3.0265
19.7572 6.1932 -2.5639
-15.6580 44.0302 -5.7866
-20.5832 44.7567 -6.1001
-9.6953 -1.9738 -1.2252
-44.4274 -13.2678 -5.7414
-35.8892 -14.3171 -4.7846
-26.2295 -13.2892 -3.6410
-21.9679 -13.7216 -3.2073
-21.1254 -15.9830 -3.2802
-21.5175 -19.5321 -3.5985
-28.1223 -30.5312 -5.1399
-23.8287 -31.0232 -4.8439
-19.9737 -31.4650 -4.6149
-20.4991 -39.7395 -5.5369
19.4445 -35.0196 -4.9600
19.4126 -28.6060 -4.2808
20.1794 -24.6700 -3.9466
23.9942 -24.4996 -4.2463
30.4774 -26.0084 -4.9613
22.5872 -13.1646 -3.2373
22.8674 -10.7190 -3.1272
23.1313 -8.4162 -3.0480
23.3842 -6.2103 -2.9960
23.6304 -4.0615 -2.9690
23.8742 -1.9342 -2.9660
24.1630 0.2061 -2.9921
17.4658 4.9590 -2.2482
25.9818 27.4510 -4.6803
20.8532 26.4005 -4.1659
-14.6166 44.9249 -5.8500
-19.0557 44.5817 -6.0036
-11.0160 11.5574 -1.9771
-38.0639 -14.0007 -5.0221
-27.6383 -13.0737 -3.7859
-23.2078 -13.6355 -3.3330
-20.9993 -15.0100 -3.1962
-21.3855 -18.3796 -3.4917
-29.5348 -30.3693 -5.2456
-25.0787 -30.8800 -4.9259
-21.1047 -31.3354 -4.6781
-11.9955 -21.7837 -3.0793
19.2226 -36.9463 -5.1571
19.8973 -31.1031 -4.5720
19.7883 -25.5768 -4.0043
22.5751 -24.3370 -4.1105
28.0435 -25.2771 -4.6750
34.8148 -26.1486 -5.3915
28.0596 -25.1367 -4.4294
22.5571 -13.8847 -3.1144
22.7939 -11.3611 -2.9945
23.2679 -9.1056 -2.9378
23.3169 -6.7970 -2.8556
24.3188 -4.7848 -2.9142
24.5696 -2.5869 -2.9048
24.8207 -0.3855 -2.9187
20.6484 24.8861 -3.8021
2.1212 31.6153 -3.7256
-0.7147 31.9319 -3.7554
-13.2196 44.2198 -5.4266
-17.7394 44.4308 -5.6250
-40.7061 -13.8702 -5.0563
-29.0760 -12.9070 -3.7404
-24.2296 -13.4624 -3.2590
-20.9060 -14.1960 -2.9712
-21.2746 -17.4123 -3.2324
-30.8386 -30.2199 -5.0766
-26.2247 -30.7486 -4.7516
-22.1352 -31.2173 -4.4995
-19.8920 -34.1524 -4.6470
19.0104 -38.7901 -5.0791
19.6791 -32.4566 -4.4628
19.6335 -26.6789 -3.8947
21.3931 -24.2055 -3.7982
26.1624 -24.7481 -4.2343
33.3615 -26.3361 -4.9975
22.9959 -15.0294 -3.2300
22.7093 -12.0985 -3.0254
23.0124 -9.7332 -2.9378
23.7893 -7.6404 -2.9378
24.2422 -5.4564 -2.9216
24.4936 -3.2525 -2.9052
24.7442 -1.0559 -2.9120
24.9588 1.1671 -2.9378
5.7876 31.1882 -3.7296
-5.7249 32.5679 -3.8880
-12.9197 47.9145 -5.8349
-16.2339 44.0962 -5.5249
-21.2214 44.8299 -5.8317
-9.7947 -2.1073 -1.1780
-43.5767 -13.5412 -5.3653
-35.0729 -14.4438 -4.4598
-25.6515 -13.3555 -3.4003
-21.5166 -13.7733 -3.0038
-21.1560 -16.3778 -3.1457
-21.7139 -20.1536 -3.4833
-27.5615 -30.5954 -4.8417
-23.3299 -31.0804 -4.5693
-19.5203 -31.5170 -4.3589
-20.4199 -40.6859 -5.3524
19.5303 -34.2741 -4.6382
19.4786 -28.0300 -4.0133
20.4430 -24.4349 -3.7458
24.6015 -24.5692 -4.0880
31.2791 -26.0995 -4.7898
22.6230 -12.8519 -3.0592
22.9009 -10.4268 -2.9586
23.5734 -8.2826 -2.9378
24.1651 -6.1320 -2.9313
24.4176 -3.9189 -2.9077
24.6680 -1.7237 -2.9075
24.9813 0.4899 -2.9378
17.2681 5.1103 -2.1174
-14.8350 43.9359 -5.4524
-19.5985 44.4818 -5.7152
-22.8488 33.8500 -4.8018
-9.8077 -1.8333 -1.1731
-46.5734 -13.0988 -5.6884
-37.2285 -14.1636 -4.6833
-27.0088 -13.1439 -3.5317
-22.6443 -13.6441 -3.1084
-21.0436 -15.3967 -3.0658
-21.4385 -18.8421 -3.3559
-28.9510 -30.4362 -4.9390
-24.5631 -30.9391 -4.6448
-20.6390 -31.3888 -4.4169
-20.2693 -37.7935 -5.0424
19.3153 -36.1411 -4.8182
19.3139 -29.4670 -4.1425
19.8989 -25.1393 -3.7697
15.8128 -16.6726 -2.7018
29.3615 -25.8816 -4.6020
22.5523 -13.6335 -3.0985
22.8185 -11.1458 -2.9859
23.3402 -8.9187 -2.9378
23.9634 -6.7774 -2.9281
24.3414 -4.5868 -2.9124
24.5920 -2.3899 -2.9051
24.8504 -0.1866 -2.9219
-3.9067 32.4614 -3.8443
-13.4714 43.7796 -5.3857
-18.1743 44.4806 -5.6496
-34.0169 13.5299 -4.3044
-39.6926 -13.8812 -4.9441
-28.6815 -13.0082 -3.7029
-23.8543 -13.5054 -3.2230
-20.9367 -14.4635 -2.9920
-21.3109 -17.7293 -3.2594
-30.3985 -30.2703 -5.0440
-25.8386 -30.7929 -4.7263
-21.7888 -31.2570 -4.4799
-19.9336 -34.8638 -4.7219
19.0829 -38.1604 -5.0165
19.1381 -31.0008 -4.2836
19.6775 -26.2943 -3.8615
21.7773 -24.2456 -3.8318
26.6458 -24.8035 -4.2802
34.0126 -26.4100 -5.0631
22.6721 -14.5596 -3.1681
22.7345 -11.8788 -3.0159
23.0898 -9.5483 -2.9378
23.8498 -7.4493 -2.9378
24.2649 -5.2574 -2.9192
24.5161 -3.0556 -2.9048
24.7668 -0.8579 -2.9138
25.0365 1.3721 -2.9481
33.4567 4.8554 -3.9750
5.5354 31.2229 -3.7283
-13.0403 46.8628 -5.7193
-16.6549 44.1445 -5.5475
-42.6918 -13.6427 -5.2696
-30.3062 -12.7660 -3.8665
-25.2447 -13.4021 -3.3605
-21.1974 -13.8099 -2.9746
-21.1925 -16.6796 -3.1709
-21.7559 -20.5198 -3.5163
-27.1608 -30.6414 -4.8143
-22.9727 -31.1213 -4.5481
-19.3652 -31.8343 -4.3811
19.5908 -33.7482 -4.5881
19.5254 -27.6218 -3.9772
20.6733 -24.3114 -3.7522
25.0518 -24.6208 -4.1299
31.8768 -26.1674 -4.8490
22.6487 -12.6273 -3.0489
22.9250 -10.2166 -2.9510
23.6391 -8.0933 -2.9378
24.1880 -5.9317 -2.9282
24.4401 -3.7216 -2.9067
24.6905 -1.5264 -2.9086
24.9766 0.6903 -2.9378
19.8315 6.0423 -2.4376
-15.2450 43.9829 -5.4732
-20.1263 44.7044 -5.7643
-9.7169 -1.8971 -1.1641
-45.8195 -13.2842 -5.6092
-36.6391 -14.2767 -4.6234
-26.5688 -13.1943 -3.4879
-22.3026 -13.6833 -3.0765
-21.0763 -15.6817 -3.0888
-21.4776 -19.1840 -3.3860
-28.5343 -30.4840 -4.9094
-24.1940 -30.9814 -4.6218
-20.3050 -31.4271 -4.3992
-20.4902 -38.9523 -5.1749
19.3806 -35.5739 -4.7631
19.3637 -29.0324 -4.1031
20.0285 -24.8902 -3.7563
16.0197 -16.6217 -2.7142
29.9128 -25.9442 -4.6556
22.5610 -13.3928 -3.0848
22.8431 -10.9318 -2.9775
23.4109 -8.7313 -2.9378
24.0968 -6.6069 -2.9378
24.3640 -4.3890 -2.9108
24.6145 -2.1930 -2.9056
24.8965 0.0127 -2.9273
-4.1689 32.4446 -3.8461
-13.8713 43.8254 -5.4048
-18.6129 44.5309 -5.6748
-10.9280 11.6507 -1.8781
-39.0322 -14.0025 -4.8757
-28.1998 -13.0634 -3.6541
-23.4887 -13.5484 -3.1882
-20.9678 -14.7348 -3.0132
-21.3479 -18.0517 -3.2871
-29.9640 -30.3201 -5.0121
-25.4567 -30.8367 -4.7015
-21.4453 -31.2964 -4.4607
-12.1924 -21.7271 -2.9293
-14.3664 -41.5853 -5.1730
19.1536 -37.5460 -4.9558
19.1914 -30.5363 -4.2406
19.7208 -25.9164 -3.8291
22.1725 -24.2908 -3.8670
28.0009 -25.6489 -4.4647
34.6812 -26.4860 -5.1308
22.5751 -14.2429 -3.1384
22.7595 -11.6605 -3.0068
23.1656 -9.3628 -2.9378
23.9088 -7.2578 -2.9378
24.2876 -5.0587 -2.9169
24.5385 -2.8587 -2.9047
24.7894 -0.6597 -2.9157
-13.1911 45.9743 -5.6236
-17.0794 44.1931 -5.5707
-14.1591 11.1204 -2.1169
-41.8379 -13.7405 -5.1777
-29.7796 -12.8264 -3.8124
-24.7618 -13.4014 -3.3105
-20.8843 -13.8458 -2.9461
-21.2254 -16.9829 -3.1961
-21.7536 -20.8498 -3.5428
-26.7646 -30.6868 -4.7876
-22.6187 -31.1619 -4.5274
-19.7566 -33.0721 -4.5295
13.5345 -36.4842 -4.5754
19.1552 -32.3965 -4.4251
19.5713 -27.2210 -3.9419
20.9475 -24.2371 -3.7666
25.5114 -24.6735 -4.1729
32.4896 -26.2370 -4.9101
22.6743 -12.4042 -3.0388
22.9490 -10.0075 -2.9437
23.7032 -7.9034 -2.9378
24.2108 -5.7318 -2.9253
24.4626 -3.5246 -2.9059
24.7131 -1.3290 -2.9099
24.9702 0.8905 -2.9378
19.7565 6.1930 -2.4344
-15.6580 44.0302 -5.4946
-20.5832 44.7567 -5.7922
-9.6950 -1.9737 -1.1633
-44.8533 -13.3950 -5.5039
-35.8892 -14.3171 -4.5431
-26.2295 -13.2892 -3.4572
-21.9679 -13.7216 -3.0454
-21.1094 -15.9709 -3.1123
-21.5175 -19.5321 -3.4168
-28.1223 -30.5312 -4.8805
-23.8287 -31.0232 -4.5994
-19.9737 -31.4650 -4.3820
-20.4991 -39.7395 -5.2575
19.4445 -35.0196 -4.7096
19.4126 -28.6060 -4.0647
20.1794 -24.6700 -3.7474
23.9942 -24.4996 -4.0320
30.4773 -26.0084 -4.7109
22.5872 -13.1646 -3.0739
22.8674 -10.7190 -2.9694
23.4802 -8.5432 -2.9378
24.1335 -6.4093 -2.9359
24.3865 -4.1914 -2.9093
24.6370 -1.9960 -2.9062
24.9428 0.2128 -2.9328
17.4658 4.9590 -2.1347
25.9811 27.4502 -4.4439
20.8532 26.4005 -3.9556
-4.4385 32.4797 -3.8544
-14.2739 43.8716 -5.4245
-19.0557 44.5817 -5.7006
-11.0160 11.5574 -1.8773
-47.8185 -12.8791 -5.8227
-38.0639 -14.0007 -4.7686
-27.6383 -13.0737 -3.5948
-23.1280 -13.5887 -3.1539
-20.9993 -15.0100 -3.0349
-21.3855 -18.3796 -3.3155
-29.5348 -30.3693 -4.9809
-25.0787 -30.8800 -4.6773
-21.1047 -31.3354 -4.4420
-11.9951 -21.7830 -2.9238
19.2226 -36.9463 -4.8968
19.2435 -30.0812 -4.1987
19.7883 -25.5768 -3.8022
22.5751 -24.3370 -3.9030
28.0435 -25.2772 -4.4390
27.8405 -24.9404 -4.1615
22.5571 -13.8847 -2.9491
23.5221 -11.7241 -2.9261
23.7996 -9.3137 -2.8454
23.3169 -6.7970 -2.7041
24.3188 -4.7848 -2.7595
24.5696 -2.5869 -2.7506
24.8207 -0.3855 -2.7638
-13.2196 44.2197 -5.1386
-17.7394 44.4308 -5.3265
-40.7061 -13.8702 -4.7879
-29.0759 -12.9070 -3.5418
-24.2296 -13.4624 -3.0861
-20.9060 -14.1960 -2.8135
-21.2746 -17.4123 -3.0608
-30.8386 -30.2199 -4.8072
-26.2247 -30.7486 -4.4994
-22.1352 -31.2173 -4.2607
-19.7796 -33.9594 -4.3755
19.0104 -38.7901 -4.8095
19.0838 -31.4748 -4.0981
19.6335 -26.6789 -3.6880
21.3931 -24.2055 -3.5966
26.1624 -24.7481 -4.0096
33.3615 -26.3361 -4.7322
22.9959 -15.0294 -3.0586
23.2879 -12.4068 -2.9378
23.7170 -10.0312 -2.8670
23.9850 -7.7032 -2.8048
24.2422 -5.4564 -2.7666
24.4936 -3.2525 -2.7510
24.7442 -1.0559 -2.7574
26.3579 1.2325 -2.9378
-5.7249 32.5679 -3.6816
-12.8330 47.5929 -5.4881
-16.2339 44.0962 -5.2317
-21.2214 44.8299 -5.5222
-9.7912 -2.1065 -1.1151
-43.4190 -13.4922 -5.0621
-35.0729 -14.4438 -4.2231
-25.5658 -13.3109 -3.2091
-21.5166 -13.7733 -2.8443
-21.1560 -16.3778 -2.9788
-21.5901 -20.0387 -3.2796
-27.5615 -30.5954 -4.5847
-23.3299 -31.0804 -4.3268
-19.5203 -31.5170 -4.1275
-20.4199 -40.6859 -5.0683
18.8880 -33.1469 -4.2476
19.4786 -28.0300 -3.8003
20.4430 -24.4349 -3.5470
24.6015 -24.5692 -3.8710
31.2791 -26.0995 -4.5356
22.9430 -13.0336 -2.9378
23.6331 -10.7601 -2.8911
23.9049 -8.3991 -2.8210
24.1651 -6.1320 -2.7757
24.4176 -3.9189 -2.7534
24.6680 -1.7237 -2.7531
25.0956 0.4922 -2.7946
17.2681 5.1103 -2.0050
-4.8104 32.5127 -3.6593
-14.8350 43.9359 -5.1630
-19.5985 44.4818 -5.4118
-22.8482 33.8492 -4.5468
-9.8073 -1.8333 -1.1108
-46.8236 -13.1692 -5.4154
-37.2285 -14.1636 -4.4347
-27.0088 -13.1439 -3.3442
-22.6443 -13.6441 -2.9434
-21.0436 -15.3967 -2.9031
-21.4385 -18.8421 -3.1777
-28.9510 -30.4362 -4.6768
-24.5631 -30.9391 -4.3982
-20.6390 -31.3888 -4.1825
-20.2693 -37.7935 -4.7748
19.3153 -36.1411 -4.5624
19.3139 -29.4670 -3.9227
19.8989 -25.1393 -3.5696
15.8124 -16.6721 -2.5583
28.3559 -24.9952 -4.2085
22.5812 -13.6510 -2.9378
23.5477 -11.5020 -2.9178
23.8238 -9.1036 -2.8395
23.9634 -6.7774 -2.7726
24.3414 -4.5868 -2.7578
24.5920 -2.3899 -2.7509
24.8504 -0.1866 -2.7668
20.7205 25.3845 -3.6482
-13.4715 43.7796 -5.0998
-18.1742 44.4806 -5.3498
-34.0158 13.5295 -4.0758
-39.6926 -13.8812 -4.6817
-28.6815 -13.0082 -3.5064
-23.8543 -13.5054 -3.0520
-20.9367 -14.4635 -2.8331
-21.3109 -17.7293 -3.0864
-30.3985 -30.2703 -4.7763
-25.8386 -30.7929 -4.4754
-21.7888 -31.2570 -4.2421
-19.9336 -34.8638 -4.4713
18.8629 -37.7206 -4.6955
19.1381 -31.0008 -4.0563
19.6775 -26.2943 -3.6565
21.7773 -24.2456 -3.6284
26.6458 -24.8035 -4.0530
33.4144 -25.9455 -4.7101
22.6721 -14.5596 -2.9999
23.3867 -12.2196 -2.9378
23.7416 -9.8179 -2.8604
24.0085 -7.4989 -2.8004
24.2649 -5.2574 -2.7643
24.5161 -3.0556 -2.7507
24.7668 -0.8579 -2.7591
33.4554 4.8553 -3.7638
-12.9527 46.5482 -5.3794
-16.6549 44.1445 -5.2531
-42.6918 -13.6427 -4.9899
-30.3062 -12.7660 -3.6613
-25.1584 -13.3563 -3.1713
-21.1974 -13.8099 -2.8167
-21.1904 -16.6780 -3.0023
-21.7559 -20.5198 -3.3296
-27.1608 -30.6414 -4.5588
-22.9727 -31.1213 -4.3067
-19.3652 -31.8342 -4.1486
18.9463 -32.6379 -4.2017
19.5254 -27.6218 -3.7661
20.6733 -24.3114 -3.5531
25.0518 -24.6208 -3.9107
31.8768 -26.1674 -4.5917
23.0468 -12.8492 -2.9378
23.6581 -10.5433 -2.8837
23.9287 -8.1924 -2.8159
24.1880 -5.9317 -2.7728
24.4401 -3.7216 -2.7524
24.6905 -1.5264 -2.7542
25.3453 0.7005 -2.8229
19.8309 6.0421 -2.3081
-5.0808 32.5358 -3.6663
-15.2450 43.9829 -5.1827
-19.9693 44.3556 -5.4158
-9.7167 -1.8971 -1.1022
-45.8195 -13.2842 -5.3114
-36.6391 -14.2767 -4.3780
-26.5688 -13.1943 -3.3028
-22.3026 -13.6833 -2.9132
-21.0763 -15.6817 -2.9248
-21.4776 -19.1840 -3.2062
-28.5343 -30.4840 -4.6488
-24.1940 -30.9814 -4.3765
-20.3050 -31.4271 -4.1657
-20.4902 -38.9523 -4.9002
19.3806 -35.5739 -4.5103
19.3637 -29.0324 -3.8854
20.0285 -24.8902 -3.5570
16.0184 -16.6204 -2.5700
28.8890 -25.0563 -4.2576
22.6899 -13.4694 -2.9378
23.5731 -11.2812 -2.9096
23.8479 -8.8943 -2.8338
24.1105 -6.6106 -2.7834
24.3640 -4.3890 -2.7563
24.6145 -2.1930 -2.7513
24.8965 0.0127 -2.7719
20.7410 25.8299 -3.6882
-13.8713 43.8254 -5.1179
-18.4804 44.2139 -5.3353
-10.9280 11.6507 -1.7785
-39.0322 -14.0025 -4.6169
-28.1998 -13.0634 -3.4602
-23.4872 -13.5475 -3.0188
-20.9678 -14.7348 -2.8533
-21.3479 -18.0517 -3.1126
-29.9640 -30.3201 -4.7460
-25.4567 -30.8367 -4.4520
-21.4453 -31.2964 -4.2240
-12.1920 -21.7263 -2.7738
-14.3661 -41.5843 -4.8983
19.1536 -37.5460 -4.6927
19.1914 -30.5364 -4.0155
19.7208 -25.9164 -3.6258
22.1725 -24.2909 -3.6617
27.1398 -24.8601 -4.0977
34.6812 -26.4860 -4.8585
22.5751 -14.2429 -2.9719
23.4839 -12.0317 -2.9378
23.7660 -9.6055 -2.8540
24.0320 -7.2952 -2.7962
24.2876 -5.0587 -2.7621
24.5385 -2.8587 -2.7505
24.7894 -0.6597 -2.7609
-13.0678 45.5444 -5.2754
-17.0794 44.1931 -5.2750
-14.1587 11.1201 -2.0044
-41.9407 -13.7743 -4.9149
-29.7796 -12.8264 -3.6100
-24.7618 -13.4014 -3.1348
-20.8843 -13.8458 -2.7898
-21.2254 -16.9829 -3.0265
-21.7536 -20.8498 -3.3548
-26.7646 -30.6868 -4.5335
-22.6187 -31.1619 -4.2871
-19.7215 -33.0133 -4.2815
13.5342 -36.4833 -4.3324
19.0069 -32.1458 -4.1578
19.5713 -27.2210 -3.7327
20.9474 -24.2371 -3.5666
25.5114 -24.6735 -3.9514
32.4896 -26.2370 -4.6495
23.1491 -12.6640 -2.9378
23.6829 -10.3275 -2.8766
23.9524 -7.9865 -2.8111
24.2108 -5.7318 -2.7701
24.4626 -3.5246 -2.7517
24.7131 -1.3290 -2.7554
26.3699 0.9404 -2.9378
19.7557 6.1928 -2.3051
-15.6580 44.0302 -5.2029
-20.2986 44.1380 -5.4089
-9.6948 -1.9737 -1.1015
-44.8534 -13.3949 -5.2117
-35.8892 -14.3171 -4.3020
-26.1448 -13.2463 -3.2632
-21.9679 -13.7216 -2.8837
-21.1094 -15.9709 -2.9471
-21.5175 -19.5321 -3.2355
-28.1222 -30.5312 -4.6215
-23.8287 -31.0232 -4.3553
-19.9737 -31.4650 -4.1494
-20.4991 -39.7395 -4.9784
19.4445 -35.0196 -4.4597
19.4126 -28.6060 -3.8490
20.1794 -24.6700 -3.5485
23.9942 -24.4996 -3.8180
30.4773 -26.0084 -4.4608
22.7972 -13.2870 -2.9378
23.5984 -11.0616 -2.9017
23.8719 -8.6857 -2.8283
24.1335 -6.4093 -2.7801
24.3865 -4.1914 -2.7549
24.6370 -1.9960 -2.7520
24.9428 0.2128 -2.7771
17.4658 4.9591 -2.0214
25.9804 27.4494 -4.2080
20.8532 26.4005 -3.7457
-14.2739 43.8716 -5.1365
-18.7923 43.9654 -5.3234
-11.0160 11.5574 -1.7776
-38.0640 -14.0007 -4.5156
-27.6383 -13.0737 -3.4040
-23.1280 -13.5887 -2.9865
-20.9993 -15.0100 -2.8738
-21.3855 -18.3796 -3.1395
-29.5348 -30.3693 -4.7165
-25.0787 -30.8800 -4.4290
-21.1047 -31.3354 -4.2063
-11.9947 -21.7822 -2.7685
19.2226 -36.9463 -4.6369
19.2435 -30.0812 -3.9758
19.7883 -25.5768 -3.6004
22.5751 -24.3370 -3.6958
27.6451 -24.9180 -4.1437
27.8405 -24.9404 -3.9286
23.5174 -14.4757 -2.9025
23.5221 -11.7241 -2.7624
23.7996 -9.3137 -2.6862
23.3169 -6.7970 -2.5527
24.3188 -4.7848 -2.6050
24.5696 -2.5869 -2.5966
24.8207 -0.3855 -2.6091
-13.2196 44.2198 -4.8509
-17.7394 44.4308 -5.0283
-40.7061 -13.8702 -4.5199
-29.0760 -12.9070 -3.3436
-24.2296 -13.4624 -2.9133
-20.9060 -14.1960 -2.6560
-21.2746 -17.4123 -2.8895
-30.8386 -30.2199 -4.5381
-26.2247 -30.7486 -4.2476
-22.1352 -31.2173 -4.0222
-19.8423 -34.0670 -4.1437
18.4876 -37.7234 -4.4154
19.0838 -31.4748 -3.8687
19.6335 -26.6789 -3.4815
21.3931 -24.2055 -3.3953
26.1625 -24.7481 -3.7851
33.3615 -26.3361 -4.4673
23.4345 -12.4849 -2.7908
23.7170 -10.0312 -2.7066
23.9850 -7.7032 -2.6478
24.2422 -5.4564 -2.6117
24.4936 -3.2525 -2.5970
24.7442 -1.0559 -2.6031
-5.7249 32.5679 -3.4755
-12.8330 47.5929 -5.1809
-16.2339 44.0962 -4.9388
-21.2214 44.8299 -5.2131
-9.7877 -2.1057 -1.0523
-43.6838 -13.5745 -4.8079
-35.0729 -14.4439 -3.9867
-25.5633 -13.3096 -3.0292
-21.5166 -13.7733 -2.6851
-21.1560 -16.3778 -2.8120
-21.5739 -20.0236 -3.0937
-27.5615 -30.5954 -4.3281
-23.3299 -31.0804 -4.0846
-19.5203 -31.5170 -3.8965
-20.4199 -40.6859 -4.7846
18.8880 -33.1469 -4.0098
19.4786 -28.0300 -3.5876
20.4430 -24.4349 -3.3485
24.6015 -24.5692 -3.6544
30.2104 -25.2077 -4.1354
23.3451 -13.2621 -2.8220
23.6331 -10.7601 -2.7293
23.9049 -8.3991 -2.6631
24.1651 -6.1320 -2.6204
24.4176 -3.9189 -2.5992
24.6680 -1.7237 -2.5990
25.0956 0.4922 -2.6382
17.2681 5.1103 -1.8928
-14.8350 43.9359 -4.8740
-19.5985 44.4818 -5.1089
-22.8477 33.8483 -4.2922
-9.8069 -1.8332 -1.0486
-46.5797 -13.1006 -5.0857
-37.2285 -14.1636 -4.1865
-27.0088 -13.1439 -3.1570
-22.6443 -13.6441 -2.7787
-21.0436 -15.3967 -2.7406
-21.4385 -18.8421 -2.9999
-28.9510 -30.4362 -4.4150
-24.5631 -30.9391 -4.1520
-20.6390 -31.3888 -3.9484
-20.2693 -37.7935 -4.5075
18.6809 -34.9539 -4.1656
19.3139 -29.4670 -3.7031
19.8989 -25.1393 -3.3698
15.8120 -16.6717 -2.4150
28.3559 -24.9952 -3.9729
23.3182 -14.0965 -2.8639
23.5477 -11.5020 -2.7544
23.8238 -9.1036 -2.6806
23.9633 -6.7774 -2.6174
24.3414 -4.5868 -2.6034
24.5920 -2.3899 -2.5969
24.8504 -0.1866 -2.6120
-13.4714 43.7796 -4.8144
-18.1742 44.4806 -5.0503
-34.0148 13.5291 -3.8475
-39.6926 -13.8812 -4.4196
-28.6815 -13.0082 -3.3101
-23.8543 -13.5054 -2.8811
-20.9367 -14.4635 -2.6746
-21.3109 -17.7293 -2.9136
-30.3985 -30.2703 -4.5089
-25.8386 -30.7929 -4.2249
-21.7888 -31.2570 -4.0047
-19.9336 -34.8638 -4.2210
18.8629 -37.7206 -4.4327
19.1381 -31.0008 -3.8292
19.6775 -26.2943 -3.4518
21.7773 -24.2456 -3.4253
26.6458 -24.8035 -3.8262
33.4144 -25.9455 -4.4464
23.5192 -15.1036 -2.9378
23.4606 -12.2582 -2.7821
23.7416 -9.8179 -2.7003
24.0085 -7.4989 -2.6436
24.2649 -5.2574 -2.6095
24.5161 -3.0556 -2.5967
24.7668 -0.8579 -2.6047
33.4541 4.8551 -3.5530
-12.9527 46.5483 -5.0783
-16.6549 44.1445 -4.9590
-42.6918 -13.6427 -4.7106
-30.3062 -12.7660 -3.4564
-25.1579 -13.3560 -2.9937
-21.1974 -13.8099 -2.6590
-21.1904 -16.6780 -2.8343
-21.6155 -20.3874 -3.1230
-27.1608 -30.6414 -4.3036
-22.9727 -31.1213 -4.0656
-19.3652 -31.8342 -3.9163
18.9463 -32.6379 -3.9665
19.5254 -27.6218 -3.5553
20.6734 -24.3113 -3.3542
25.0518 -24.6208 -3.6918
30.7885 -25.2739 -4.1867
23.3717 -13.0304 -2.8125
23.6581 -10.5433 -2.7223
23.9287 -8.1924 -2.6583
24.1880 -5.9317 -2.6176
24.4401 -3.7216 -2.5984
24.6905 -1.5264 -2.6000
25.3453 0.7005 -2.6649
19.8303 6.0419 -2.1788
-15.2449 43.9829 -4.8926
-19.9693 44.3557 -5.1127
-9.7165 -1.8970 -1.0405
-45.7620 -13.2676 -5.0079
-36.6391 -14.2767 -4.1329
-26.5688 -13.1943 -3.1179
-22.3026 -13.6833 -2.7501
-21.0763 -15.6817 -2.7611
-21.4776 -19.1840 -3.0268
-28.5343 -30.4840 -4.3886
-24.1940 -30.9814 -4.1315
-20.3050 -31.4271 -3.9326
-20.4781 -38.9293 -4.6232
18.7438 -34.4049 -4.1179
19.3637 -29.0324 -3.6679
20.0285 -24.8902 -3.3579
16.0171 -16.6190 -2.4259
28.8890 -25.0563 -4.0193
23.3140 -13.8399 -2.8496
23.5731 -11.2812 -2.7467
23.8479 -8.8943 -2.6752
24.1105 -6.6106 -2.6276
24.3640 -4.3890 -2.6020
24.6145 -2.1930 -2.5973
24.8965 0.0127 -2.6167
20.7975 25.9002 -3.4912
-13.8713 43.8254 -4.8315
-18.4804 44.2139 -5.0367
-10.9280 11.6507 -1.6789
-39.0322 -14.0025 -4.3584
-28.1087 -13.0213 -3.2559
-23.4872 -13.5475 -2.8498
-20.9678 -14.7348 -2.6935
-21.3479 -18.0517 -2.9384
-29.9640 -30.3201 -4.4804
-25.4567 -30.8367 -4.2028
-21.4453 -31.2964 -3.9875
-12.1916 -21.7256 -2.6184
-14.3657 -41.5833 -4.6240
18.5250 -36.3138 -4.2847
19.1914 -30.5363 -3.7907
19.7208 -25.9164 -3.4229
22.1725 -24.2909 -3.4567
27.1398 -24.8601 -3.8683
34.6812 -26.4860 -4.5866
23.6396 -14.9145 -2.9378
23.4866 -12.0330 -2.7737
23.7660 -9.6055 -2.6942
24.0320 -7.2952 -2.6397
24.2876 -5.0587 -2.6075
24.5385 -2.8587 -2.5965
24.7894 -0.6597 -2.6064
-13.0678 45.5444 -4.9801
-17.0794 44.1931 -4.9797
-14.1584 11.1199 -1.8922
-41.9407 -13.7743 -4.6398
-29.7796 -12.8264 -3.4079
-24.7618 -13.4014 -2.9593
-20.8843 -13.8458 -2.6336
-21.2254 -16.9829 -2.8571
-21.6587 -20.7588 -3.1532
-26.7646 -30.6868 -4.2797
-22.6187 -31.1619 -4.0471
-19.7215 -33.0134 -4.0418
13.5338 -36.4825 -4.0898
19.0427 -39.9704 -4.6534
19.0069 -32.1458 -3.9251
19.5713 -27.2210 -3.5238
20.9475 -24.2371 -3.3670
25.5114 -24.6735 -3.7303
31.3811 -25.3419 -4.2395
23.3982 -12.8003 -2.8032
23.6829 -10.3275 -2.7156
23.9524 -7.9865 -2.6538
24.2108 -5.7318 -2.6150
24.4626 -3.5246 -2.5977
24.7131 -1.3289 -2.6012
27.9335 0.9962 -2.9378
19.7550 6.1925 -2.1760
-5.3586 32.5974 -3.4721
-15.6580 44.0302 -4.9117
-20.2986 44.1380 -5.1062
-9.6946 -1.9736 -1.0398
-44.8533 -13.3950 -4.9200
-35.8892 -14.3171 -4.0612
-26.1394 -13.2435 -3.0798
-21.9679 -13.7216 -2.7223
-21.1094 -15.9709 -2.7821
-21.5175 -19.5321 -3.0544
-28.1223 -30.5312 -4.3628
-23.8287 -31.0232 -4.1115
-19.9737 -31.4650 -3.9171
-20.4991 -39.7395 -4.6997
18.8053 -33.8684 -4.0716
19.4126 -28.6060 -3.6336
20.1794 -24.6700 -3.3499
23.9942 -24.4996 -3.6043
29.4350 -25.1188 -4.0671
23.3143 -13.5884 -2.8363
23.5984 -11.0616 -2.7393
23.8719 -8.6857 -2.6700
24.1335 -6.4093 -2.6245
24.3865 -4.1914 -2.6007
24.6370 -1.9960 -2.5979
24.9428 0.2128 -2.6217
17.4658 4.9591 -1.9083
25.9797 27.4487 -3.9723
20.7666 26.2908 -3.5213
-14.2739 43.8716 -4.8490
-18.7923 43.9654 -5.0254
-11.0160 11.5574 -1.6781
-38.0639 -14.0007 -4.2628
-27.6383 -13.0737 -3.2135
-23.1280 -13.5887 -2.8194
-20.9993 -15.0100 -2.7130
-21.3855 -18.3796 -2.9638
-29.5348 -30.3693 -4.4525
-25.0787 -30.8800 -4.1811
-21.1047 -31.3354 -3.9708
-11.9943 -21.7815 -2.6135
18.5915 -35.7333 -4.2336
19.2435 -30.0812 -3.7533
19.7883 -25.5768 -3.3989
22.5751 -24.3370 -3.4890
27.6451 -24.9180 -3.9117
27.8405 -24.9404 -3.6959
34.4234 -25.6905 -4.2472
23.5174 -14.4757 -2.7306
23.5221 -11.7241 -2.5988
23.7996 -9.3137 -2.5271
23.3169 -6.7970 -2.4015
24.3188 -4.7848 -2.4507
24.5696 -2.5869 -2.4429
24.8207 -0.3854 -2.4546
-13.2196 44.2198 -4.5637
-17.7394 44.4308 -4.7306
-40.7061 -13.8702 -4.2523
-29.0760 -12.9070 -3.1456
-24.2296 -13.4624 -2.7408
-20.9060 -14.1960 -2.4987
-21.2746 -17.4123 -2.7184
-21.7181 -21.2824 -3.0067
-26.2247 -30.7487 -3.9960
-22.1352 -31.2173 -3.7840
-19.8423 -34.0670 -3.8983
18.3870 -37.5181 -4.1314
19.0838 -31.4748 -3.6396
19.6335 -26.6789 -3.2754
21.3931 -24.2055 -3.1943
26.1625 -24.7481 -3.5610
32.2246 -25.4385 -4.0596
23.4345 -12.4849 -2.6255
23.7170 -10.0312 -2.5463
23.9850 -7.7032 -2.4910
24.2422 -5.4564 -2.4570
24.4936 -3.2525 -2.4432
24.7442 -1.0559 -2.4489
-5.7249 32.5679 -3.2697
-12.8330 47.5929 -4.8741
-16.2339 44.0962 -4.6463
-21.2214 44.8299 -4.9044
-9.7842 -2.1050 -0.9896
-43.6838 -13.5745 -4.5232
-35.0729 -14.4439 -3.7506
-25.5634 -13.3096 -2.8498
-21.5166 -13.7733 -2.5261
-21.1560 -16.3778 -2.6455
-21.5739 -20.0236 -2.9105
-27.5615 -30.5954 -4.0718
-23.3299 -31.0804 -3.8427
-19.5203 -31.5170 -3.6657
-20.4199 -40.6859 -4.5013
18.8880 -33.1469 -3.7723
19.4786 -28.0300 -3.3751
20.4430 -24.4349 -3.1502
24.6015 -24.5692 -3.4380
30.2104 -25.2077 -3.8905
23.3451 -13.2621 -2.6548
23.6331 -10.7601 -2.5677
23.9049 -8.3991 -2.5054
24.1651 -6.1320 -2.4652
24.4176 -3.9188 -2.4453
24.6680 -1.7237 -2.4451
25.0956 0.4922 -2.4819
17.2681 5.1103 -1.7807
-14.8350 43.9359 -4.5854
-19.5985 44.4818 -4.8064
-22.8471 33.8475 -4.0380
-9.8066 -1.8331 -0.9865
-46.5797 -13.1006 -4.7845
-37.2285 -14.1636 -3.9386
-27.0088 -13.1439 -2.9701
-22.6443 -13.6441 -2.6141
-21.0436 -15.3967 -2.5783
-21.4385 -18.8421 -2.8222
-28.9510 -30.4362 -4.1536
-24.5632 -30.9391 -3.9062
-20.6390 -31.3888 -3.7145
-20.2693 -37.7935 -4.2406
18.6809 -34.9539 -3.9189
19.3139 -29.4670 -3.4838
19.8989 -25.1393 -3.1703
15.8116 -16.6713 -2.2720
28.3559 -24.9952 -3.7376
23.3182 -14.0965 -2.6943
23.5477 -11.5020 -2.5913
23.8238 -9.1036 -2.5218
23.9634 -6.7774 -2.4624
24.3414 -4.5868 -2.4492
24.5920 -2.3899 -2.4431
24.8504 -0.1866 -2.4573
-13.4715 43.7796 -4.5292
-18.1743 44.4806 -4.7512
-34.0138 13.5287 -3.6196
-39.6926 -13.8812 -4.1579
-28.5829 -12.9635 -3.1034
-23.8543 -13.5054 -2.7105
-20.9367 -14.4635 -2.5162
-21.3109 -17.7293 -2.7411
-21.7626 -21.6708 -3.0368
-25.8386 -30.7929 -3.9747
-21.7888 -31.2570 -3.7675
-19.9336 -34.8638 -3.9710
18.4569 -36.9086 -4.0804
19.1381 -31.0008 -3.6024
19.6775 -26.2944 -3.2474
21.7773 -24.2456 -3.2225
26.6458 -24.8035 -3.5996
32.8544 -25.5107 -4.1130
23.4606 -12.2582 -2.6174
23.7416 -9.8179 -2.5404
24.0085 -7.4989 -2.4871
24.2649 -5.2574 -2.4550
24.5161 -3.0556 -2.4429
24.7668 -0.8579 -2.4504
33.4528 4.8549 -3.3425
-12.9527 46.5483 -4.7776
-16.6549 44.1445 -4.6653
-42.6918 -13.6427 -4.4317
-30.3062 -12.7660 -3.2517
-25.1579 -13.3560 -2.8164
-21.1974 -13.8099 -2.5016
-21.1904 -16.6780 -2.6664
-21.6155 -20.3874 -2.9380
-27.1608 -30.6414 -4.0488
-22.9727 -31.1213 -3.8249
-19.3652 -31.8342 -3.6844
18.2134 -39.0329 -4.2591
18.9463 -32.6379 -3.7316
19.5254 -27.6218 -3.3447
20.6733 -24.3114 -3.1555
25.0518 -24.6208 -3.4732
30.7885 -25.2739 -3.9387
23.3717 -13.0304 -2.6459
23.6581 -10.5433 -2.5611
23.9287 -8.1924 -2.5009
24.1880 -5.9317 -2.4626
24.4401 -3.7216 -2.4445
24.6905 -1.5264 -2.4461
25.3453 0.7005 -2.5071
19.8297 6.0418 -2.0498
-15.2450 43.9829 -4.6029
-19.9693 44.3556 -4.8099
-9.7163 -1.8970 -0.9789
-45.7620 -13.2676 -4.7113
-36.6391 -14.2767 -3.8882
-26.5688 -13.1943 -2.9332
-22.3026 -13.6833 -2.5873
-21.0763 -15.6817 -2.5976
-21.4776 -19.1840 -2.8475
-28.5343 -30.4840 -4.1287
-24.1940 -30.9814 -3.8869
-20.3050 -31.4271 -3.6997
-20.3541 -38.6936 -4.3231
18.7438 -34.4049 -3.8741
19.3637 -29.0324 -3.4507
20.0285 -24.8902 -3.1590
16.0158 -16.6177 -2.2821
28.8890 -25.0563 -3.7813
23.3140 -13.8399 -2.6809
23.5731 -11.2812 -2.5841
23.8479 -8.8943 -2.5167
24.1105 -6.6106 -2.4720
24.3640 -4.3890 -2.4479
24.6145 -2.1930 -2.4435
24.8965 0.0127 -2.4618
-13.8713 43.8254 -4.5454
-18.4804 44.2139 -4.7384
-10.9280 11.6507 -1.5795
-39.0322 -14.0025 -4.1003
-28.1029 -13.0185 -3.0625
-23.4872 -13.5475 -2.6811
-20.9678 -14.7348 -2.5340
-21.3479 -18.0517 -2.7644
-21.8081 -22.0672 -3.0678
-25.4567 -30.8367 -3.9539
-21.4453 -31.2964 -3.7514
-12.1912 -21.7249 -2.4633
-14.3654 -41.5823 -4.3501
18.5250 -36.3138 -4.0309
19.1914 -30.5363 -3.5662
19.7208 -25.9164 -3.2202
22.1725 -24.2909 -3.2520
27.1398 -24.8601 -3.6393
33.5012 -25.5848 -4.1681
23.4866 -12.0330 -2.6094
23.7660 -9.6055 -2.5347
24.0320 -7.2952 -2.4834
24.2876 -5.0587 -2.4531
24.5385 -2.8587 -2.4428
24.7894 -0.6597 -2.4520
-13.0678 45.5444 -4.6852
-17.0794 44.1931 -4.6848
-14.1580 11.1196 -1.7801
-41.9407 -13.7743 -4.3650
-29.7796 -12.8264 -3.2061
-24.7618 -13.4014 -2.7840
-20.8843 -13.8458 -2.4776
-21.2254 -16.9829 -2.6879
-21.6580 -20.7582 -2.9664
-26.7646 -30.6868 -4.0263
-22.6187 -31.1619 -3.8074
-19.7215 -33.0134 -3.8025
13.5335 -36.4816 -3.8475
18.2876 -38.3854 -4.2043
19.0069 -32.1458 -3.6926
19.5713 -27.2210 -3.3151
20.9475 -24.2371 -3.1676
25.5114 -24.6735 -3.5094
31.3811 -25.3419 -3.9884
23.3982 -12.8003 -2.6372
23.6829 -10.3275 -2.5547
23.9524 -7.9865 -2.4966
24.2108 -5.7318 -2.4601
24.4626 -3.5246 -2.4438
24.7131 -1.3290 -2.4472
19.7542 6.1923 -2.0470
-15.6580 44.0302 -4.6208
-20.2986 44.1380 -4.8038
-9.6943 -1.9736 -0.9782
-44.8533 -13.3950 -4.6287
-35.8892 -14.3171 -3.8207
-26.1393 -13.2436 -2.8975
-21.9679 -13.7216 -2.5611
-21.1094 -15.9709 -2.6174
-21.5175 -19.5321 -2.8735
-28.1223 -30.5312 -4.1044
-23.8287 -31.0232 -3.8680
-19.9737 -31.4650 -3.6852
-20.4707 -39.6845 -4.4153
18.8053 -33.8684 -3.8305
19.4126 -28.6060 -3.4184
20.1794 -24.6700 -3.1515
23.9942 -24.4996 -3.3908
29.4350 -25.1188 -3.8263
23.3143 -13.5884 -2.6683
23.5984 -11.0616 -2.5770
23.8719 -8.6857 -2.5118
24.1335 -6.4093 -2.4690
24.3865 -4.1914 -2.4467
24.6370 -1.9960 -2.4441
24.9428 0.2128 -2.4664
17.4658 4.9591 -1.7953
25.9790 27.4479 -3.7370
20.8532 26.4005 -3.3266
-14.2739 43.8716 -4.5619
-18.7923 43.9654 -4.7278
-11.0160 11.5574 -1.5788
-38.0639 -14.0007 -4.0103
-27.6351 -13.0721 -3.0228
-23.1280 -13.5887 -2.6524
-20.9993 -15.0100 -2.5523
-21.3855 -18.3796 -2.7883
-21.8544 -22.4719 -3.0995
-25.0787 -30.8800 -3.9335
-21.1047 -31.3354 -3.7357
-11.9939 -21.7808 -2.4586
18.5915 -35.7333 -3.9829
19.2435 -30.0812 -3.5310
19.7883 -25.5768 -3.1976
22.5751 -24.3370 -3.2823
27.6451 -24.9180 -3.6801
34.1655 -25.6610 -4.2250
27.8405 -24.9404 -3.4636
34.4234 -25.6905 -3.9802
23.5174 -14.4757 -2.5589
23.5221 -11.7241 -2.4354
23.7996 -9.3137 -2.3682
23.3169 -6.7970 -2.2506
24.3188 -4.7848 -2.2967
24.5696 -2.5869 -2.2893
24.8207 -0.3854 -2.3003
-13.2196 44.2198 -4.2768
-17.6716 44.2610 -4.4162
-40.7061 -13.8702 -3.9849
-29.0759 -12.9070 -2.9478
-24.2296 -13.4624 -2.5685
-20.9060 -14.1960 -2.3416
-21.2746 -17.4123 -2.5475
-30.8386 -30.2199 -4.0009
-26.2247 -30.7486 -3.7448
-22.1352 -31.2173 -3.5461
-19.8423 -34.0670 -3.6532
18.3870 -37.5181 -3.8716
19.0838 -31.4748 -3.4108
19.6335 -26.6789 -3.0694
21.3931 -24.2055 -2.9934
26.1624 -24.7481 -3.3371
32.2246 -25.4385 -3.8043
23.4345 -12.4849 -2.4605
23.7170 -10.0312 -2.3862
23.9850 -7.7032 -2.3344
24.2422 -5.4564 -2.3026
24.4936 -3.2525 -2.2896
24.7442 -1.0559 -2.2950
-5.7249 32.5679 -3.0641
-12.8330 47.5929 -4.5677
-16.2339 44.0962 -4.3542
-21.2214 44.8299 -4.5960
-9.7808 -2.1043 -0.9271
-43.6838 -13.5745 -4.2388
-34.8822 -14.3653 -3.4957
-25.5634 -13.3096 -2.6706
-21.5166 -13.7733 -2.3673
-21.1560 -16.3778 -2.4792
-21.5739 -20.0236 -2.7275
-27.5615 -30.5954 -3.8158
-23.3299 -31.0804 -3.6011
-19.5203 -31.5170 -3.4353
-20.4199 -40.6859 -4.2183
18.2118 -39.8609 -4.0609
18.8880 -33.1469 -3.5352
19.4786 -28.0300 -3.1629
20.4430 -24.4349 -2.9521
24.6015 -24.5692 -3.2218
30.2104 -25.2077 -3.6459
23.3451 -13.2621 -2.4879
23.6331 -10.7601 -2.4062
23.9049 -8.3991 -2.3479
24.1651 -6.1320 -2.3102
24.4176 -3.9188 -2.2916
24.6680 -1.7237 -2.2914
25.0956 0.4922 -2.3259
17.2681 5.1103 -1.6687
-14.8350 43.9359 -4.2971
-19.5985 44.4818 -4.5042
-22.8465 33.8467 -3.7840
-9.8062 -1.8331 -0.9244
-46.5797 -13.1006 -4.4837
-37.2285 -14.1636 -3.6909
-27.0088 -13.1439 -2.7834
-22.6443 -13.6441 -2.4498
-21.0436 -15.3967 -2.4162
-21.4385 -18.8421 -2.6448
-28.9510 -30.4362 -3.8924
-24.5631 -30.9391 -3.6606
-20.6390 -31.3888 -3.4810
-20.2693 -37.7935 -3.9739
18.6809 -34.9539 -3.6725
19.3139 -29.4670 -3.2648
19.8989 -25.1393 -2.9709
15.8112 -16.6709 -2.1291
28.3559 -24.9952 -3.5027
35.1790 -25.8177 -4.0435
23.3182 -14.0965 -2.5249
23.5477 -11.5020 -2.4284
23.8238 -9.1036 -2.3633
23.9634 -6.7774 -2.3076
24.3414 -4.5868 -2.2953
24.5920 -2.3899 -2.2895
24.8504 -0.1866 -2.3028
-13.4714 43.7796 -4.2445
-18.1048 44.3106 -4.4355
-34.0128 13.5283 -3.3919
-39.6926 -13.8812 -3.8965
-28.5829 -12.9635 -2.9083
-23.8543 -13.5054 -2.5401
-20.9367 -14.4635 -2.3580
-21.3109 -17.7293 -2.5688
-30.3985 -30.2703 -3.9752
-25.8386 -30.7929 -3.7248
-21.7888 -31.2570 -3.5306
-19.9336 -34.8638 -3.7214
18.4569 -36.9086 -3.8239
19.1381 -31.0008 -3.3760
19.6775 -26.2944 -3.0433
21.7773 -24.2456 -3.0199
26.6458 -24.8035 -3.3733
32.8544 -25.5107 -3.8544
23.2576 -12.1521 -2.4316
23.7416 -9.8179 -2.3807
24.0085 -7.4989 -2.3307
24.2649 -5.2574 -2.3006
24.5161 -3.0556 -2.2893
24.7668 -0.8579 -2.2964
33.4515 4.8547 -3.1322
-12.9527 46.5483 -4.4772
-16.6549 44.1445 -4.3720
-42.6918 -13.6427 -4.1531
-30.3062 -12.7660 -3.0473
-25.1579 -13.3560 -2.6394
-21.1974 -13.8099 -2.3443
-21.1904 -16.6780 -2.4988
-21.6155 -20.3874 -2.7533
-27.1608 -30.6414 -3.7942
-22.9727 -31.1213 -3.5844
-19.3652 -31.8343 -3.4528
18.2134 -39.0329 -3.9913
18.9463 -32.6379 -3.4970
19.5254 -27.6218 -3.1344
20.6734 -24.3114 -2.9572
25.0518 -24.6208 -3.2548
30.7885 -25.2739 -3.6911
23.3717 -13.0304 -2.4796
23.6581 -10.5433 -2.4001
23.9287 -8.1924 -2.3437
24.1880 -5.9317 -2.3078
24.4401 -3.7216 -2.2908
24.6905 -1.5264 -2.2923
25.3453 0.7005 -2.3495
19.8291 6.0416 -1.9208
-15.2449 43.9829 -4.3135
-20.0493 44.5335 -4.5256
-9.7160 -1.8969 -0.9173
-45.7620 -13.2676 -4.4151
-36.6391 -14.2767 -3.6437
-26.5688 -13.1943 -2.7488
-22.3026 -13.6833 -2.4246
-21.0763 -15.6817 -2.4343
-21.4776 -19.1840 -2.6685
-28.5343 -30.4840 -3.8692
-24.1940 -30.9814 -3.6425
-20.3050 -31.4271 -3.4671
-20.3776 -38.7383 -4.0560
18.7438 -34.4049 -3.6305
19.3637 -29.0324 -3.2337
20.0285 -24.8902 -2.9604
16.0145 -16.6163 -2.1384
28.8890 -25.0563 -3.5436
23.3140 -13.8399 -2.5123
23.5731 -11.2812 -2.4216
23.8479 -8.8943 -2.3585
24.1105 -6.6106 -2.3166
24.3640 -4.3890 -2.2940
24.6145 -2.1930 -2.2899
24.8965 0.0127 -2.3070
-13.8712 43.8254 -4.2596
-18.5417 44.3607 -4.4553
-10.9280 11.6507 -1.4802
-39.0321 -14.0025 -3.8426
-28.1029 -13.0185 -2.8700
-23.4872 -13.5475 -2.5125
-20.9678 -14.7348 -2.3747
-21.3479 -18.0517 -2.5906
-29.9640 -30.3201 -3.9501
-25.4567 -30.8367 -3.7053
-21.4453 -31.2964 -3.5156
-12.1908 -21.7241 -2.3083
-14.3650 -41.5814 -4.0765
18.5250 -36.3138 -3.7775
19.1914 -30.5363 -3.3420
19.7208 -25.9164 -3.0177
22.1725 -24.2909 -3.0476
27.1398 -24.8601 -3.4105
33.5012 -25.5848 -3.9061
23.4866 -12.0330 -2.4454
23.7660 -9.6055 -2.3753
24.0320 -7.2952 -2.3272
24.2876 -5.0587 -2.2989
24.5385 -2.8587 -2.2892
24.7894 -0.6597 -2.2979
-13.0678 45.5444 -4.3906
-17.0794 44.1931 -4.3903
-14.1577 11.1193 -1.6682
-41.9407 -13.7743 -4.0906
-29.7796 -12.8264 -3.0046
-24.7618 -13.4014 -2.6090
-20.8843 -13.8458 -2.3219
-21.2254 -16.9829 -2.5189
-21.6580 -20.7582 -2.7799
-26.7646 -30.6868 -3.7731
-22.6187 -31.1619 -3.5680
-19.7215 -33.0134 -3.5634
13.5332 -36.4808 -3.6055
18.2876 -38.3854 -3.9400
19.0069 -32.1457 -3.4605
19.5713 -27.2210 -3.1067
20.9475 -24.2371 -2.9685
25.5114 -24.6735 -3.2887
31.3812 -25.3419 -3.7377
23.3982 -12.8003 -2.4714
23.6829 -10.3275 -2.3941
23.9524 -7.9865 -2.3396
24.2108 -5.7318 -2.3055
24.4626 -3.5246 -2.2902
24.7131 -1.3289 -2.2933
19.7535 6.1921 -1.9183
-15.6580 44.0302 -4.3303
-20.5045 44.5856 -4.5474
-9.6941 -1.9735 -0.9167
-44.8533 -13.3950 -4.3376
-35.8892 -14.3171 -3.5805
-26.1394 -13.2435 -2.7153
-21.9679 -13.7216 -2.4001
-21.1094 -15.9709 -2.4528
-21.5175 -19.5321 -2.6928
-28.1222 -30.5312 -3.8464
-23.8287 -31.0232 -3.6248
-19.9737 -31.4650 -3.4535
-20.4904 -39.7227 -4.1417
18.8053 -33.8684 -3.5897
19.4126 -28.6060 -3.2035
20.1794 -24.6700 -2.9534
23.9942 -24.4996 -3.1776
29.4350 -25.1188 -3.5857
23.3143 -13.5884 -2.5005
23.5984 -11.0616 -2.4150
23.8719 -8.6857 -2.3539
24.1335 -6.4093 -2.3138
24.3865 -4.1914 -2.2929
24.6370 -1.9960 -2.2904
24.9428 0.2128 -2.3114
17.4658 4.9591 -1.6824
25.9783 27.4472 -3.5019
20.8532 26.4005 -3.1175
-14.2739 43.8716 -4.2751
-18.9829 44.4113 -4.4755
-11.0160 11.5574 -1.4795
-48.0639 -12.9452 -4.6125
-38.0639 -14.0007 -3.7581
-27.6351 -13.0721 -2.8328
-23.1280 -13.5887 -2.4857
-20.9993 -15.0100 -2.3918
-21.3855 -18.3796 -2.6130
-21.8544 -22.4719 -2.9047
-25.0787 -30.8800 -3.6862
-21.1047 -31.3354 -3.5008
-11.9935 -21.7800 -2.3040
18.5915 -35.7333 -3.7325
19.2435 -30.0812 -3.3090
19.7883 -25.5768 -2.9966
22.5751 -24.3370 -3.0760
27.6451 -24.9180 -3.4487
34.1655 -25.6610 -3.9594
27.8405 -24.9404 -3.2315
34.4234 -25.6905 -3.7135
23.5174 -14.4757 -2.3875
23.5221 -11.7241 -2.2722
23.7996 -9.3137 -2.2095
23.3169 -6.7970 -2.0997
24.3188 -4.7848 -2.1428
24.5696 -2.5869 -2.1359
24.8207 -0.3854 -2.1461
-13.3290 44.5857 -4.0232
-17.6034 44.0903 -4.1044
-40.7061 -13.8702 -3.7179
-29.0760 -12.9070 -2.7503
-24.2296 -13.4624 -2.3964
-20.9060 -14.1960 -2.1847
-21.2746 -17.4123 -2.3768
-30.8386 -30.2199 -3.7328
-26.2247 -30.7486 -3.4939
-22.1352 -31.2173 -3.3085
-19.8760 -34.1250 -3.4142
18.3870 -37.5181 -3.6122
19.0838 -31.4748 -3.1822
20.1092 -27.3254 -2.9332
22.1422 -25.0531 -2.8906
26.1625 -24.7481 -3.1135
32.2246 -25.4385 -3.5494
23.4345 -12.4849 -2.2956
23.7170 -10.0312 -2.2263
23.9850 -7.7032 -2.1779
24.2422 -5.4564 -2.1483
24.4936 -3.2525 -2.1362
24.7442 -1.0559 -2.1412
-5.7249 32.5679 -2.8588
-12.8330 47.5930 -4.2616
-16.2339 44.0962 -4.0624
-21.0727 44.5156 -4.2580
-9.7772 -2.1035 -0.8646
-43.6838 -13.5745 -3.9548
-35.0098 -14.4179 -3.2734
-25.5633 -13.3096 -2.4917
-21.5166 -13.7733 -2.2087
-21.1560 -16.3778 -2.3131
-21.5739 -20.0236 -2.5447
-27.5615 -30.5954 -3.5601
-23.3299 -31.0804 -3.3598
-19.5203 -31.5170 -3.2051
-20.4199 -40.6859 -3.9356
18.2118 -39.8609 -3.7888
18.8880 -33.1469 -3.2983
19.4786 -28.0300 -2.9510
20.9335 -25.0212 -2.8204
24.6015 -24.5692 -3.0059
30.2104 -25.2077 -3.4016
23.3451 -13.2621 -2.3212
23.6331 -10.7601 -2.2450
23.9049 -8.3991 -2.1905
24.1651 -6.1320 -2.1554
24.4176 -3.9189 -2.1380
24.6680 -1.7237 -2.1379
25.0956 0.4922 -2.1700
17.2681 5.1103 -1.5569
-14.8350 43.9359 -4.0091
-19.5985 44.4818 -4.2024
-22.8460 33.8458 -3.5303
-9.8059 -1.8330 -0.8624
-46.5797 -13.1006 -4.1833
-37.2285 -14.1636 -3.4436
-27.0088 -13.1439 -2.5968
-22.6443 -13.6441 -2.2856
-21.0436 -15.3967 -2.2543
-21.4385 -18.8421 -2.4676
-28.9510 -30.4362 -3.6316
-24.5632 -30.9391 -3.4153
-20.6390 -31.3888 -3.2478
-20.2693 -37.7936 -3.7076
18.6809 -34.9539 -3.4264
19.3139 -29.4670 -3.0460
20.4951 -25.8925 -2.8549
15.8108 -16.6705 -1.9864
28.3559 -24.9952 -3.2679
35.1790 -25.8177 -3.7725
23.3182 -14.0965 -2.3557
23.5477 -11.5020 -2.2657
23.8238 -9.1036 -2.2049
23.9634 -6.7774 -2.1530
24.3414 -4.5868 -2.1414
24.5920 -2.3899 -2.1361
24.8504 -0.1866 -2.1485
-13.6862 44.4774 -4.0232
-18.0350 44.1397 -4.1223
-34.0118 13.5279 -3.1645
-39.6926 -13.8812 -3.6354
-28.5829 -12.9635 -2.7134
-23.8543 -13.5054 -2.3699
-20.9367 -14.4635 -2.2000
-21.3109 -17.7293 -2.3966
-30.3985 -30.2703 -3.7088
-25.8386 -30.7929 -3.4752
-21.7888 -31.2570 -3.2941
-19.9336 -34.8638 -3.4720
18.4569 -36.9086 -3.5676
19.1381 -31.0009 -3.1497
20.3278 -27.1632 -2.9332
22.5445 -25.0996 -2.9168
26.6458 -24.8035 -3.1472
25.3742 -19.7025 -2.7773
23.0171 -12.0265 -2.2452
23.7416 -9.8179 -2.2211
24.0085 -7.4989 -2.1745
24.2649 -5.2574 -2.1465
24.5161 -3.0556 -2.1359
24.7668 -0.8579 -2.1425
33.4502 4.8545 -2.9222
-12.9527 46.5483 -4.1772
-16.6549 44.1445 -4.0791
-21.5622 44.6207 -4.2845
-14.1496 11.2976 -1.5654
-42.6918 -13.6427 -3.8748
-30.3062 -12.7660 -2.8431
-25.1579 -13.3560 -2.4625
-21.1974 -13.8099 -2.1872
-21.1904 -16.6780 -2.3314
-21.6155 -20.3874 -2.5688
-27.1608 -30.6414 -3.5400
-22.9727 -31.1213 -3.3442
-19.3652 -31.8342 -3.2214
18.2134 -39.0329 -3.7239
18.9463 -32.6379 -3.2627
19.5838 -27.7044 -2.9332
21.2330 -24.9695 -2.8337
25.0518 -24.6208 -3.0367
30.7885 -25.2739 -3.4438
23.3717 -13.0304 -2.3134
23.6581 -10.5433 -2.2393
23.9287 -8.1924 -2.1866
24.1880 -5.9317 -2.1531
24.4401 -3.7216 -2.1373
24.6905 -1.5264 -2.1387
25.3453 0.7005 -2.1920
19.8285 6.0414 -1.7921
-15.2450 43.9829 -4.0245
-20.0493 44.5335 -4.2223
-9.7158 -1.8969 -0.8558
-45.7620 -13.2676 -4.1192
-36.5487 -14.2415 -3.3912
-26.5688 -13.1943 -2.5646
-22.3026 -13.6833 -2.2621
-21.0763 -15.6817 -2.2712
-21.4776 -19.1840 -2.4897
-28.5343 -30.4840 -3.6099
-24.1940 -30.9814 -3.3984
-20.3050 -31.4271 -3.2348
-20.3776 -38.7383 -3.7842
18.7438 -34.4049 -3.3872
19.3637 -29.0324 -3.0170
20.5710 -25.5643 -2.8368
16.0132 -16.6150 -1.9950
28.8890 -25.0563 -3.3061
23.3140 -13.8399 -2.3440
23.5731 -11.2812 -2.2593
23.8479 -8.8943 -2.2005
24.1105 -6.6106 -2.1614
24.3640 -4.3890 -2.1403
24.6145 -2.1930 -2.1365
24.8965 0.0127 -2.1524
-14.0424 44.3662 -4.0232
-18.5416 44.3603 -4.1567
-10.9280 11.6507 -1.3810
-38.7940 -13.9170 -3.5632
-28.1028 -13.0185 -2.6776
-23.4872 -13.5475 -2.3441
-20.9678 -14.7348 -2.2156
-21.3479 -18.0517 -2.4170
-29.9640 -30.3201 -3.6854
-25.4567 -30.8367 -3.4570
-21.4453 -31.2964 -3.2800
-12.1904 -21.7234 -2.1536
-14.3647 -41.5804 -3.8033
18.5250 -36.3138 -3.5244
19.1914 -30.5363 -3.1181
20.3889 -26.7943 -2.9109
22.8727 -25.0579 -2.9332
27.1398 -24.8601 -3.1819
33.5012 -25.5848 -3.6443
23.4866 -12.0330 -2.2815
23.7660 -9.6055 -2.2161
24.0320 -7.2952 -2.1713
24.2876 -5.0587 -2.1448
24.5385 -2.8587 -2.1358
24.7894 -0.6597 -2.1439
-13.0678 45.5444 -4.0964
-17.0794 44.1931 -4.0961
-14.1574 11.1191 -1.5563
-41.9407 -13.7743 -3.8165
-29.7796 -12.8264 -2.8032
-24.7618 -13.4014 -2.4342
-20.8843 -13.8458 -2.1663
-21.2254 -16.9829 -2.3501
-21.6580 -20.7582 -2.5936
-26.7646 -30.6868 -3.5203
-22.6187 -31.1619 -3.3290
-19.8188 -33.1761 -3.3410
13.5329 -36.4799 -3.3639
18.2876 -38.3854 -3.6760
19.0069 -32.1458 -3.2286
19.8053 -27.5465 -2.9332
21.5984 -24.9903 -2.8556
25.5114 -24.6735 -3.0683
31.3811 -25.3419 -3.4872
23.3982 -12.8003 -2.3058
23.6829 -10.3275 -2.2337
23.9524 -7.9865 -2.1829
24.2108 -5.7318 -2.1510
24.4626 -3.5246 -2.1367
24.7131 -1.3289 -2.1396
19.7527 6.1918 -1.7896
-15.6580 44.0302 -4.0401
-20.5044 44.5853 -4.2427
-9.6939 -1.9735 -0.8553
-44.8533 -13.3950 -4.0470
-35.8892 -14.3171 -3.3405
-26.1393 -13.2436 -2.5334
-21.9679 -13.7216 -2.2393
-21.1094 -15.9709 -2.2885
-21.5175 -19.5321 -2.5124
-28.1222 -30.5312 -3.5886
-23.8287 -31.0232 -3.3819
-19.9737 -31.4650 -3.2221
-20.4904 -39.7226 -3.8642
18.8053 -33.8684 -3.3491
19.4126 -28.6060 -2.9888
20.6793 -25.2812 -2.8237
23.9942 -24.4996 -2.9647
29.4350 -25.1188 -3.3454
23.3143 -13.5884 -2.3330
23.5984 -11.0616 -2.2532
23.8719 -8.6857 -2.1962
24.1335 -6.4093 -2.1588
24.3865 -4.1914 -2.1392
24.6370 -1.9960 -2.1369
24.9428 0.2128 -2.1565
17.4658 4.9591 -1.5697
25.9775 27.4464 -3.2672
20.8532 26.4005 -2.9086
-14.3978 44.2522 -4.0232
-18.9828 44.4109 -4.1756
-11.0160 11.5574 -1.3804
-48.0639 -12.9452 -4.3034
-38.0640 -14.0007 -3.5063
-27.6351 -13.0721 -2.6430
-23.1280 -13.5887 -2.3191
-20.9993 -15.0100 -2.2316
-21.3855 -18.3796 -2.4379
-21.8544 -22.4719 -2.7100
-25.0787 -30.8800 -3.4392
-21.1047 -31.3354 -3.2662
-11.9931 -21.7793 -2.1495
18.5915 -35.7333 -3.4824
19.2435 -30.0812 -3.0873
