ply
format ascii 1.0
element vertex 2177
property float32 x
property float32 y
property float32 z
end_header
0.2389 0.9891 0.3798
0.1498 1.0071 0.3801
0.0594 1.0167 0.3802
-0.0315 1.0180 0.3802
-0.1221 1.0108 0.3801
-0.2116 0.9952 0.3798
-0.2993 0.9715 0.3795
-0.3843 0.9398 0.3790
-0.4658 0.9004 0.3784
-0.5433 0.8538 0.3778
-0.6160 0.8003 0.3770
-0.6834 0.7405 0.3761
-0.7449 0.6749 0.3752
-0.7999 0.6041 0.3742
-0.8482 0.5289 0.3731
-0.8893 0.4498 0.3720
-0.9230 0.3675 0.3709
-0.9490 0.2828 0.3697
-0.9673 0.1964 0.3684
-0.9776 0.1090 0.3672
-0.9802 0.0213 0.3660
-0.9749 -0.0660 0.3648
-0.9619 -0.1522 0.3636
-0.9414 -0.2366 0.3624
-0.9137 -0.3186 0.3612
-0.8790 -0.3976 0.3601
-0.8375 -0.4730 0.3591
-0.7898 -0.5443 0.3581
-0.7362 -0.6110 0.3572
-0.6772 -0.6726 0.3563
-0.6132 -0.7287 0.3555
-0.5447 -0.7790 0.3548
-0.4722 -0.8231 0.3542
-0.3964 -0.8607 0.3537
-0.3176 -0.8915 0.3533
-0.2366 -0.9155 0.3530
-0.1540 -0.9324 0.3528
-0.0702 -0.9421 0.3526
0.0141 -0.9445 0.3526
0.0983 -0.9397 0.3527
0.1818 -0.9277 0.3529
0.2641 -0.9085 0.3532
0.3444 -0.8823 0.3536
0.4223 -0.8492 0.3541
0.4972 -0.8095 0.3546
0.5684 -0.7634 0.3553
0.6356 -0.7111 0.3560
0.6981 -0.6531 0.3569
0.7555 -0.5897 0.3578
0.8072 -0.5214 0.3587
0.8530 -0.4486 0.3598
0.8923 -0.3719 0.3609
0.9248 -0.2917 0.3620
0.9502 -0.2088 0.3632
0.9682 -0.1236 0.3644
0.9786 -0.0369 0.3656
0.9813 0.0507 0.3668
0.9761 0.1385 0.3680
0.9631 0.2257 0.3693
0.9422 0.3117 0.3705
0.9135 0.3958 0.3716
0.8773 0.4771 0.3728
0.8336 0.5551 0.3739
0.7830 0.6289 0.3749
0.7256 0.6980 0.3759
0.6620 0.7617 0.3767
0.5927 0.8195 0.3775
0.5182 0.8707 0.3782
0.4392 0.9149 0.3788
0.3563 0.9517 0.3793
0.2703 0.9806 0.3797
0.1819 1.0016 0.3800
0.0919 1.0142 0.3802
0.0010 1.0185 0.3802
-0.0898 1.0143 0.3801
-0.1798 1.0017 0.3799
-0.2682 0.9809 0.3796
-0.3542 0.9520 0.3792
-0.4371 0.9154 0.3787
-0.5161 0.8713 0.3780
-0.5906 0.8202 0.3773
-0.6600 0.7626 0.3765
-0.7236 0.6990 0.3756
-0.7810 0.6300 0.3746
-0.8317 0.5563 0.3735
-0.8754 0.4785 0.3724
-0.9118 0.3973 0.3713
-0.9406 0.3133 0.3701
-0.9616 0.2275 0.3689
-0.9748 0.1403 0.3677
-0.9802 0.0527 0.3664
-0.9777 -0.0349 0.3652
-0.9674 -0.1215 0.3640
-0.9496 -0.2066 0.3628
-0.9245 -0.2896 0.3616
-0.8922 -0.3697 0.3605
-0.8531 -0.4465 0.3594
-0.8076 -0.5193 0.3584
-0.7561 -0.5877 0.3575
-0.6989 -0.6512 0.3566
-0.6366 -0.7093 0.3558
-0.5697 -0.7617 0.3551
-0.4986 -0.8080 0.3544
-0.4239 -0.8480 0.3539
-0.3461 -0.8813 0.3534
-0.2659 -0.9077 0.3531
-0.1837 -0.9271 0.3528
-0.1002 -0.9394 0.3527
-0.0161 -0.9445 0.3526
0.0682 -0.9423 0.3527
0.1521 -0.9328 0.3528
0.2348 -0.9162 0.3531
0.3159 -0.8925 0.3534
0.3948 -0.8618 0.3539
0.4708 -0.8245 0.3544
0.5434 -0.7806 0.3550
0.6121 -0.7305 0.3558
0.6763 -0.6745 0.3566
0.7356 -0.6130 0.3574
0.7894 -0.5464 0.3584
0.8373 -0.4752 0.3594
0.8790 -0.3998 0.3605
0.9139 -0.3208 0.3616
0.9419 -0.2388 0.3627
0.9626 -0.1543 0.3639
0.9758 -0.0681 0.3651
0.9812 0.0193 0.3664
0.9789 0.1071 0.3676
0.9687 0.1946 0.3688
0.9506 0.2812 0.3700
0.9247 0.3660 0.3712
0.8911 0.4484 0.3724
0.8501 0.5276 0.3735
0.8019 0.6030 0.3745
0.7469 0.6739 0.3755
0.6854 0.7396 0.3764
0.6181 0.7995 0.3773
0.5454 0.8531 0.3780
0.4679 0.8999 0.3786
0.3864 0.9394 0.3792
0.3014 0.9712 0.3796
0.2137 0.9950 0.3799
0.1242 1.0107 0.3801
0.0336 1.0179 0.3802
-0.0573 1.0168 0.3802
-0.1477 1.0072 0.3800
-0.2368 0.9893 0.3797
-0.3237 0.9633 0.3794
-0.4078 0.9293 0.3789
-0.4883 0.8879 0.3783
-0.5645 0.8392 0.3776
-0.6358 0.7839 0.3768
-0.7015 0.7224 0.3759
-0.7612 0.6553 0.3749
-0.8144 0.5832 0.3739
-0.8606 0.5067 0.3728
-0.8997 0.4267 0.3717
-0.9312 0.3436 0.3705
-0.9550 0.2584 0.3693
-0.9710 0.1716 0.3681
-0.9792 0.0840 0.3669
-0.9795 -0.0036 0.3656
-0.9720 -0.0906 0.3644
-0.9569 -0.1764 0.3632
-0.9343 -0.2602 0.3620
-0.9045 -0.3414 0.3609
-0.8678 -0.4194 0.3598
-0.8246 -0.4937 0.3588
-0.7752 -0.5638 0.3578
-0.7200 -0.6291 0.3569
-0.6595 -0.6892 0.3561
-0.5941 -0.7437 0.3553
-0.5244 -0.7922 0.3547
-0.4510 -0.8344 0.3541
-0.3742 -0.8701 0.3536
-0.2948 -0.8991 0.3532
-0.2133 -0.9210 0.3529
-0.1302 -0.9358 0.3527
-0.0462 -0.9435 0.3526
0.0381 -0.9439 0.3526
0.1222 -0.9370 0.3528
0.2054 -0.9230 0.3530
0.2871 -0.9018 0.3533
0.3668 -0.8736 0.3537
0.4439 -0.8386 0.3542
0.5178 -0.7970 0.3548
0.5880 -0.7491 0.3555
0.6539 -0.6952 0.3563
0.7150 -0.6356 0.3571
0.7708 -0.5708 0.3580
0.8209 -0.5012 0.3590
0.8648 -0.4272 0.3601
0.9022 -0.3494 0.3612
0.9327 -0.2684 0.3623
0.9561 -0.1848 0.3635
0.9719 -0.0991 0.3647
0.9802 -0.0120 0.3659
0.9806 0.0757 0.3672
0.9732 0.1634 0.3684
0.9579 0.2503 0.3696
0.9348 0.3359 0.3708
0.9040 0.4192 0.3720
0.8656 0.4997 0.3731
0.8199 0.5765 0.3742
0.7673 0.6491 0.3752
0.7081 0.7167 0.3761
0.6428 0.7788 0.3770
0.5720 0.8347 0.3777
0.4961 0.8840 0.3784
0.4160 0.9261 0.3790
0.3321 0.9607 0.3795
0.2453 0.9874 0.3798
0.1564 1.0060 0.3801
0.0661 1.0163 0.3802
-0.0248 1.0182 0.3802
-0.1155 1.0116 0.3801
-0.2051 0.9967 0.3798
-0.2929 0.9735 0.3795
-0.3781 0.9424 0.3790
-0.4600 0.9035 0.3785
-0.5378 0.8574 0.3778
-0.6109 0.8044 0.3771
-0.6787 0.7451 0.3762
-0.7406 0.6799 0.3753
-0.7961 0.6095 0.3743
-0.8449 0.5345 0.3732
-0.8866 0.4557 0.3721
-0.9208 0.3736 0.3709
-0.9474 0.2891 0.3698
-0.9662 0.2028 0.3685
-0.9772 0.1154 0.3673
-0.9802 0.0277 0.3661
-0.9755 -0.0596 0.3648
-0.9631 -0.1459 0.3636
-0.9432 -0.2305 0.3625
-0.9160 -0.3127 0.3613
-0.8817 -0.3919 0.3602
-0.8408 -0.4676 0.3591
-0.7935 -0.5392 0.3581
-0.7404 -0.6063 0.3572
-0.6817 -0.6683 0.3564
-0.6180 -0.7248 0.3556
-0.5498 -0.7755 0.3549
-0.4776 -0.8201 0.3543
-0.4020 -0.8581 0.3538
-0.3235 -0.8895 0.3533
-0.2427 -0.9140 0.3530
-0.1601 -0.9314 0.3528
-0.0763 -0.9416 0.3526
0.0079 -0.9446 0.3526
0.0922 -0.9403 0.3527
0.1758 -0.9288 0.3529
0.2581 -0.9102 0.3532
0.3386 -0.8845 0.3535
0.4167 -0.8519 0.3540
0.4918 -0.8126 0.3546
0.5633 -0.7670 0.3552
0.6308 -0.7151 0.3560
0.6937 -0.6576 0.3568
0.7514 -0.5946 0.3577
0.8036 -0.5266 0.3587
0.8498 -0.4541 0.3597
0.8896 -0.3777 0.3608
0.9226 -0.2977 0.3619
0.9486 -0.2150 0.3631
0.9671 -0.1299 0.3643
0.9781 -0.0433 0.3655
0.9814 0.0443 0.3667
0.9768 0.1320 0.3680
0.9643 0.2194 0.3692
0.9440 0.3055 0.3704
0.9159 0.3897 0.3716
0.8802 0.4713 0.3727
0.8371 0.5495 0.3738
0.7869 0.6237 0.3748
0.7300 0.6931 0.3758
0.6669 0.7573 0.3767
0.5979 0.8155 0.3775
0.5238 0.8672 0.3782
0.4451 0.9119 0.3788
0.3625 0.9492 0.3793
0.2767 0.9788 0.3797
0.1884 1.0003 0.3800
0.0985 1.0136 0.3802
0.0077 1.0185 0.3802
-0.0831 1.0149 0.3801
-0.1732 1.0030 0.3799
-0.2618 0.9827 0.3796
-0.3480 0.9544 0.3792
-0.4311 0.9183 0.3787
-0.5105 0.8747 0.3781
-0.5853 0.8241 0.3773
-0.6551 0.7670 0.3765
-0.7191 0.7038 0.3756
-0.7770 0.6352 0.3747
-0.8283 0.5618 0.3736
-0.8725 0.4843 0.3725
-0.9094 0.4033 0.3714
-0.9387 0.3196 0.3702
-0.9604 0.2338 0.3690
-0.9741 0.1468 0.3677
-0.9800 0.0591 0.3665
-0.9781 -0.0285 0.3653
-0.9684 -0.1152 0.3641
-0.9512 -0.2004 0.3629
-0.9265 -0.2836 0.3617
-0.8948 -0.3639 0.3606
-0.8562 -0.4410 0.3595
-0.8111 -0.5141 0.3585
-0.7600 -0.5829 0.3575
-0.7033 -0.6467 0.3567
-0.6413 -0.7053 0.3558
-0.5747 -0.7581 0.3551
-0.5039 -0.8049 0.3545
-0.4294 -0.8453 0.3539
-0.3519 -0.8791 0.3535
-0.2718 -0.9060 0.3531
-0.1898 -0.9260 0.3528
-0.1064 -0.9388 0.3527
-0.0222 -0.9443 0.3526
0.0621 -0.9427 0.3527
0.1460 -0.9338 0.3528
0.2288 -0.9177 0.3530
0.3100 -0.8945 0.3534
0.3891 -0.8643 0.3538
0.4653 -0.8274 0.3544
0.5382 -0.7840 0.3550
0.6072 -0.7344 0.3557
0.6717 -0.6788 0.3565
0.7314 -0.6177 0.3574
0.7856 -0.5514 0.3583
0.8340 -0.4805 0.3593
0.8761 -0.4054 0.3604
0.9116 -0.3267 0.3615
0.9401 -0.2449 0.3627
0.9613 -0.1606 0.3638
0.9751 -0.0744 0.3651
0.9811 0.0129 0.3663
0.9793 0.1007 0.3675
0.9697 0.1882 0.3687
0.9522 0.2749 0.3700
0.9268 0.3598 0.3711
0.8938 0.4424 0.3723
0.8533 0.5219 0.3734
0.8056 0.5976 0.3745
0.7511 0.6689 0.3754
0.6901 0.7350 0.3764
0.6232 0.7953 0.3772
0.5509 0.8494 0.3779
0.4737 0.8967 0.3786
0.3925 0.9367 0.3791
0.3077 0.9691 0.3796
0.2202 0.9936 0.3799
0.1308 1.0098 0.3801
0.0402 1.0177 0.3802
-0.0507 1.0171 0.3802
-0.1411 1.0082 0.3800
-0.2303 0.9909 0.3798
-0.3175 0.9655 0.3794
-0.4018 0.9321 0.3789
-0.4826 0.8912 0.3783
-0.5591 0.8430 0.3776
-0.6307 0.7882 0.3768
-0.6969 0.7271 0.3760
-0.7570 0.6604 0.3750
-0.8107 0.5886 0.3740
-0.8575 0.5125 0.3729
-0.8970 0.4326 0.3718
-0.9291 0.3498 0.3706
-0.9535 0.2647 0.3694
-0.9701 0.1780 0.3682
-0.9788 0.0905 0.3670
-0.9797 0.0028 0.3657
-0.9728 -0.0843 0.3645
-0.9582 -0.1702 0.3633
-0.9362 -0.2541 0.3621
-0.9069 -0.3355 0.3610
-0.8708 -0.4138 0.3599
-0.8280 -0.4884 0.3589
-0.7790 -0.5588 0.3579
-0.7242 -0.6244 0.3570
-0.6641 -0.6849 0.3561
-0.5991 -0.7399 0.3554
-0.5297 -0.7888 0.3547
-0.4565 -0.8316 0.3541
-0.3800 -0.8677 0.3536
-0.3007 -0.8972 0.3532
-0.2193 -0.9196 0.3529
-0.1363 -0.9350 0.3527
-0.0524 -0.9432 0.3526
0.0319 -0.9441 0.3526
0.1160 -0.9378 0.3527
0.1993 -0.9242 0.3529
0.2812 -0.9036 0.3533
0.3611 -0.8759 0.3537
0.4384 -0.8414 0.3542
0.5125 -0.8003 0.3548
0.5830 -0.7528 0.3554
0.6492 -0.6993 0.3562
0.7106 -0.6402 0.3570
0.7669 -0.5757 0.3580
0.8174 -0.5064 0.3590
0.8618 -0.4327 0.3600
0.8997 -0.3552 0.3611
0.9307 -0.2744 0.3622
0.9546 -0.1910 0.3634
0.9710 -0.1054 0.3646
0.9798 -0.0185 0.3658
0.9809 0.0692 0.3671
0.9741 0.1570 0.3683
0.9593 0.2440 0.3695
0.9368 0.3297 0.3707
0.9065 0.4132 0.3719
0.8686 0.4939 0.3730
0.8235 0.5710 0.3741
0.7714 0.6439 0.3751
0.7127 0.7119 0.3760
0.6478 0.7744 0.3769
0.5774 0.8308 0.3777
0.5019 0.8806 0.3784
0.4220 0.9233 0.3790
0.3384 0.9584 0.3794
0.2518 0.9857 0.3798
0.1630 1.0049 0.3800
0.0727 1.0158 0.3802
-0.0182 1.0183 0.3802
-0.1089 1.0124 0.3801
-0.1986 0.9980 0.3799
-0.2866 0.9755 0.3795
-0.3720 0.9449 0.3791
-0.4541 0.9066 0.3785
-0.5322 0.8610 0.3779
-0.6057 0.8085 0.3771
-0.6739 0.7496 0.3763
-0.7362 0.6848 0.3754
-0.7923 0.6148 0.3744
-0.8416 0.5402 0.3733
-0.8837 0.4616 0.3722
-0.9185 0.3797 0.3710
-0.9457 0.2954 0.3698
-0.9651 0.2092 0.3686
-0.9766 0.1218 0.3674
-0.9803 0.0341 0.3662
-0.9761 -0.0532 0.3649
-0.9643 -0.1396 0.3637
-0.9449 -0.2243 0.3625
-0.9182 -0.3067 0.3614
-0.8845 -0.3862 0.3603
-0.8440 -0.4622 0.3592
-0.7972 -0.5341 0.3582
-0.7444 -0.6015 0.3573
-0.6862 -0.6639 0.3564
-0.6228 -0.7209 0.3556
-0.5550 -0.7720 0.3549
-0.4831 -0.8170 0.3543
-0.4077 -0.8556 0.3538
-0.3293 -0.8874 0.3534
-0.2486 -0.9124 0.3530
-0.1662 -0.9303 0.3528
-0.0825 -0.9411 0.3527
0.0018 -0.9446 0.3526
0.0860 -0.9409 0.3527
0.1697 -0.9299 0.3529
0.2521 -0.9118 0.3531
0.3328 -0.8866 0.3535
0.4111 -0.8545 0.3540
0.4864 -0.8157 0.3545
0.5582 -0.7705 0.3552
0.6260 -0.7191 0.3559
0.6892 -0.6620 0.3567
0.7474 -0.5993 0.3576
0.8000 -0.5317 0.3586
0.8467 -0.4596 0.3596
0.8869 -0.3834 0.3607
0.9204 -0.3037 0.3618
0.9469 -0.2211 0.3630
0.9660 -0.1362 0.3642
0.9776 -0.0497 0.3654
0.9814 0.0378 0.3666
0.9774 0.1256 0.3679
0.9655 0.2130 0.3691
0.9457 0.2992 0.3703
0.9182 0.3836 0.3715
0.8830 0.4654 0.3726
0.8405 0.5439 0.3737
0.7908 0.6184 0.3747
0.7344 0.6882 0.3757
0.6717 0.7528 0.3766
0.6032 0.8114 0.3774
0.5294 0.8636 0.3781
0.4510 0.9089 0.3788
0.3687 0.9467 0.3793
0.2831 0.9769 0.3797
0.1950 0.9990 0.3800
0.1051 1.0129 0.3801
0.0144 1.0184 0.3802
-0.0765 1.0155 0.3801
-0.1667 1.0041 0.3800
-0.2554 0.9845 0.3797
-0.3418 0.9568 0.3793
-0.4252 0.9212 0.3787
-0.5048 0.8782 0.3781
-0.5800 0.8281 0.3774
-0.6501 0.7714 0.3766
-0.7146 0.7086 0.3757
-0.7730 0.6404 0.3747
-0.8247 0.5674 0.3737
-0.8695 0.4901 0.3726
-0.9070 0.4093 0.3714
-0.9369 0.3258 0.3703
-0.9590 0.2402 0.3691
-0.9734 0.1532 0.3678
-0.9799 0.0655 0.3666
-0.9785 -0.0221 0.3654
-0.9694 -0.1089 0.3642
-0.9527 -0.1943 0.3630
-0.9286 -0.2776 0.3618
-0.8973 -0.3582 0.3607
-0.8592 -0.4355 0.3596
-0.8147 -0.5089 0.3586
-0.7640 -0.5780 0.3576
-0.7076 -0.6422 0.3567
-0.6461 -0.7011 0.3559
-0.5797 -0.7544 0.3552
-0.5092 -0.8016 0.3545
-0.4350 -0.8425 0.3540
-0.3577 -0.8768 0.3535
-0.2777 -0.9043 0.3531
-0.1958 -0.9247 0.3529
-0.1125 -0.9381 0.3527
-0.0284 -0.9442 0.3526
0.0559 -0.9430 0.3527
0.1398 -0.9347 0.3528
0.2228 -0.9191 0.3530
0.3042 -0.8964 0.3534
0.3834 -0.8668 0.3538
0.4598 -0.8304 0.3543
0.5330 -0.7874 0.3549
0.6023 -0.7382 0.3556
0.6672 -0.6831 0.3564
0.7272 -0.6224 0.3573
0.7819 -0.5565 0.3582
0.8307 -0.4859 0.3592
0.8733 -0.4111 0.3603
0.9092 -0.3326 0.3614
0.9383 -0.2509 0.3626
0.9600 -0.1668 0.3638
0.9743 -0.0808 0.3650
0.9809 0.0064 0.3662
0.9797 0.0942 0.3674
0.9707 0.1818 0.3687
0.9537 0.2686 0.3699
0.9289 0.3537 0.3711
0.8965 0.4365 0.3722
0.8565 0.5162 0.3733
0.8094 0.5922 0.3744
0.7553 0.6638 0.3754
0.6948 0.7303 0.3763
0.6283 0.7911 0.3771
0.5564 0.8457 0.3779
0.4796 0.8935 0.3785
0.3985 0.9341 0.3791
0.3140 0.9670 0.3795
0.2267 0.9920 0.3799
0.1374 1.0089 0.3801
0.0469 1.0174 0.3802
-0.0440 1.0175 0.3802
-0.1345 1.0091 0.3800
-0.2239 0.9924 0.3798
-0.3112 0.9676 0.3794
-0.3957 0.9348 0.3789
-0.4768 0.8944 0.3784
-0.5536 0.8468 0.3777
-0.6257 0.7924 0.3769
-0.6922 0.7318 0.3760
-0.7528 0.6654 0.3751
-0.8070 0.5940 0.3741
-0.8543 0.5182 0.3730
-0.8944 0.4386 0.3719
-0.9270 0.3560 0.3707
-0.9520 0.2710 0.3695
-0.9692 0.1844 0.3683
-0.9785 0.0969 0.3670
-0.9799 0.0092 0.3658
-0.9736 -0.0779 0.3646
-0.9595 -0.1639 0.3634
-0.9381 -0.2480 0.3622
-0.9093 -0.3297 0.3611
-0.8736 -0.4082 0.3600
-0.8313 -0.4831 0.3589
-0.7828 -0.5538 0.3579
-0.7284 -0.6198 0.3570
-0.6686 -0.6807 0.3562
-0.6040 -0.7360 0.3554
-0.5349 -0.7855 0.3547
-0.4620 -0.8287 0.3542
-0.3857 -0.8653 0.3537
-0.3066 -0.8952 0.3533
-0.2253 -0.9182 0.3529
-0.1425 -0.9341 0.3527
-0.0586 -0.9428 0.3526
0.0257 -0.9443 0.3526
0.1099 -0.9385 0.3527
0.1933 -0.9255 0.3529
0.2753 -0.9053 0.3532
0.3553 -0.8782 0.3536
0.4328 -0.8441 0.3541
0.5072 -0.8035 0.3547
0.7787 -0.5315 0.3586
0.8253 -0.4612 0.3596
0.8657 -0.3869 0.3606
0.8995 -0.3091 0.3617
0.9264 -0.2284 0.3629
0.9461 -0.1453 0.3641
0.9584 -0.0606 0.3652
0.9632 0.0252 0.3665
0.9602 0.1114 0.3677
0.9496 0.1973 0.3689
0.9312 0.2821 0.3701
0.9051 0.3651 0.3712
0.8716 0.4457 0.3723
0.8308 0.5232 0.3734
0.7830 0.5968 0.3744
0.7285 0.6660 0.3754
0.6677 0.7300 0.3763
0.6013 0.7884 0.3771
0.5296 0.8404 0.3778
0.4532 0.8858 0.3784
0.3729 0.9239 0.3789
0.2894 0.9545 0.3794
0.2033 0.9773 0.3797
0.1153 0.9920 0.3799
0.0264 0.9986 0.3799
-0.0628 0.9968 0.3799
-0.1513 0.9869 0.3797
-0.2386 0.9687 0.3794
-0.3237 0.9426 0.3791
-0.4060 0.9088 0.3786
-0.4846 0.8676 0.3780
-0.5590 0.8195 0.3773
-0.6286 0.7647 0.3765
-0.6927 0.7040 0.3756
-0.7508 0.6378 0.3747
-0.8026 0.5668 0.3737
-0.8475 0.4915 0.3726
-0.8853 0.4128 0.3715
-0.9157 0.3311 0.3703
-0.9386 0.2474 0.3692
-0.9538 0.1621 0.3680
-0.9613 0.0762 0.3668
-0.9611 -0.0098 0.3655
-0.9532 -0.0952 0.3644
-0.9379 -0.1793 0.3632
-0.9153 -0.2613 0.3620
-0.8856 -0.3409 0.3609
-0.8492 -0.4173 0.3598
-0.8063 -0.4900 0.3588
-0.7574 -0.5584 0.3579
-0.7028 -0.6222 0.3570
-0.6430 -0.6809 0.3562
-0.5786 -0.7340 0.3555
-0.5099 -0.7812 0.3548
-0.4375 -0.8223 0.3542
-0.3619 -0.8569 0.3538
-0.2837 -0.8848 0.3534
-0.2035 -0.9059 0.3531
-0.1219 -0.9199 0.3529
-0.0393 -0.9269 0.3529
0.0435 -0.9268 0.3529
0.1260 -0.9195 0.3530
0.2077 -0.9052 0.3532
0.2878 -0.8839 0.3535
0.3659 -0.8557 0.3539
0.4414 -0.8208 0.3545
0.5137 -0.7795 0.3551
0.5823 -0.7319 0.3557
0.6466 -0.6785 0.3565
0.7062 -0.6196 0.3573
0.7606 -0.5556 0.3582
0.8093 -0.4869 0.3592
0.8520 -0.4139 0.3603
0.8882 -0.3373 0.3613
0.9176 -0.2576 0.3625
0.9399 -0.1753 0.3636
0.9549 -0.0910 0.3648
0.9623 -0.0055 0.3660
0.9622 0.0806 0.3672
0.9543 0.1666 0.3684
0.9386 0.2519 0.3696
0.9153 0.3356 0.3708
0.8845 0.4172 0.3719
0.8462 0.4959 0.3730
0.8009 0.5710 0.3741
0.7487 0.6418 0.3751
0.6902 0.7078 0.3760
0.6257 0.7682 0.3768
0.5558 0.8226 0.3776
0.4810 0.8704 0.3782
0.4021 0.9111 0.3788
0.3196 0.9445 0.3792
0.2343 0.9701 0.3796
0.1469 0.9877 0.3798
0.0583 0.9972 0.3799
-0.0309 0.9984 0.3799
-0.1198 0.9914 0.3798
-0.2076 0.9761 0.3796
-0.2935 0.9529 0.3792
-0.3769 0.9218 0.3788
-0.4569 0.8832 0.3782
-0.5329 0.8375 0.3775
-0.6043 0.7850 0.3768
-0.6704 0.7264 0.3760
-0.7307 0.6621 0.3750
-0.7848 0.5927 0.3741
-0.8322 0.5189 0.3730
-0.8726 0.4413 0.3719
-0.9057 0.3606 0.3708
-0.9313 0.2775 0.3696
-0.9492 0.1927 0.3684
-0.9595 0.1070 0.3672
-0.9620 0.0209 0.3660
-0.9569 -0.0648 0.3648
-0.9442 -0.1494 0.3636
-0.9242 -0.2322 0.3624
-0.8970 -0.3128 0.3613
-0.8630 -0.3903 0.3602
-0.8223 -0.4644 0.3592
-0.7755 -0.5345 0.3582
-0.7229 -0.6000 0.3573
-0.6650 -0.6605 0.3565
-0.6021 -0.7156 0.3557
-0.5349 -0.7650 0.3550
-0.4638 -0.8083 0.3544
-0.3893 -0.8453 0.3539
-0.3120 -0.8756 0.3535
-0.2324 -0.8991 0.3532
-0.1512 -0.9157 0.3530
-0.0689 -0.9253 0.3529
0.0139 -0.9277 0.3529
0.0966 -0.9229 0.3529
0.1786 -0.9111 0.3531
0.2593 -0.8923 0.3534
0.3382 -0.8665 0.3538
0.4147 -0.8340 0.3543
0.4882 -0.7950 0.3548
0.5582 -0.7496 0.3555
0.6241 -0.6983 0.3562
0.6855 -0.6413 0.3570
0.7418 -0.5791 0.3579
0.7926 -0.5120 0.3589
0.8375 -0.4405 0.3599
0.8760 -0.3651 0.3609
0.9078 -0.2864 0.3621
0.9327 -0.2050 0.3632
0.9504 -0.1213 0.3644
0.9605 -0.0362 0.3656
0.9631 0.0498 0.3668
0.9580 0.1359 0.3680
0.9451 0.2215 0.3692
0.9246 0.3059 0.3704
0.8964 0.3883 0.3715
0.8607 0.4681 0.3726
0.8179 0.5446 0.3737
0.7681 0.6170 0.3747
0.7118 0.6848 0.3757
0.6494 0.7472 0.3765
0.5814 0.8038 0.3773
0.5083 0.8540 0.3780
0.4308 0.8974 0.3786
0.3495 0.9334 0.3791
0.2651 0.9618 0.3795
0.1784 0.9823 0.3797
0.0901 0.9947 0.3799
0.0010 0.9989 0.3799
-0.0880 0.9948 0.3798
-0.1763 0.9825 0.3797
-0.2630 0.9621 0.3794
-0.3474 0.9338 0.3789
-0.4287 0.8978 0.3784
-0.5063 0.8546 0.3778
-0.5794 0.8045 0.3771
-0.6474 0.7480 0.3763
-0.7099 0.6857 0.3754
-0.7662 0.6181 0.3744
-0.8160 0.5458 0.3734
-0.8590 0.4695 0.3723
-0.8947 0.3898 0.3712
-0.9230 0.3075 0.3700
-0.9437 0.2232 0.3688
-0.9567 0.1377 0.3676
-0.9620 0.0517 0.3664
-0.9596 -0.0342 0.3652
-0.9496 -0.1193 0.3640
-0.9322 -0.2028 0.3628
-0.9075 -0.2843 0.3617
-0.8759 -0.3630 0.3606
-0.8376 -0.4384 0.3596
-0.7930 -0.5099 0.3586
-0.7424 -0.5771 0.3576
-0.6863 -0.6394 0.3568
-0.6252 -0.6966 0.3560
-0.5594 -0.7480 0.3553
-0.4896 -0.7936 0.3546
-0.4163 -0.8328 0.3541
-0.3399 -0.8655 0.3537
-0.2611 -0.8915 0.3533
-0.1804 -0.9106 0.3531
-0.0985 -0.9227 0.3529
-0.0158 -0.9276 0.3529
0.0670 -0.9255 0.3529
0.1494 -0.9162 0.3531
0.2306 -0.8998 0.3533
0.3103 -0.8765 0.3536
0.3877 -0.8464 0.3541
0.4623 -0.8097 0.3546
0.5336 -0.7666 0.3552
0.6011 -0.7173 0.3559
0.6641 -0.6623 0.3567
0.7223 -0.6019 0.3576
0.7751 -0.5365 0.3585
0.8221 -0.4665 0.3595
0.8629 -0.3925 0.3606
0.8972 -0.3149 0.3617
0.9246 -0.2344 0.3628
0.9449 -0.1515 0.3640
0.9578 -0.0668 0.3652
0.9631 0.0189 0.3664
0.9607 0.1051 0.3676
0.9506 0.1910 0.3688
0.9328 0.2759 0.3700
0.9073 0.3591 0.3711
0.8743 0.4399 0.3723
0.8340 0.5176 0.3733
0.7867 0.5916 0.3744
0.7327 0.6611 0.3753
0.6724 0.7255 0.3762
0.6063 0.7843 0.3770
0.5350 0.8368 0.3778
0.4590 0.8827 0.3784
0.3789 0.9214 0.3789
0.2956 0.9526 0.3793
0.2096 0.9759 0.3796
0.1218 0.9913 0.3798
0.0329 0.9984 0.3799
-0.0562 0.9972 0.3799
-0.1449 0.9879 0.3797
-0.2323 0.9703 0.3795
-0.3175 0.9448 0.3791
-0.4000 0.9116 0.3786
-0.4790 0.8709 0.3780
-0.5537 0.8232 0.3773
-0.6237 0.7690 0.3766
-0.6882 0.7087 0.3757
-0.7468 0.6428 0.3748
-0.7990 0.5721 0.3738
-0.8444 0.4972 0.3727
-0.8828 0.4186 0.3716
-0.9137 0.3372 0.3704
-0.9372 0.2536 0.3693
-0.9529 0.1684 0.3681
-0.9610 0.0825 0.3668
-0.9614 -0.0035 0.3656
-0.9541 -0.0890 0.3644
-0.9393 -0.1731 0.3633
-0.9172 -0.2554 0.3621
-0.8880 -0.3352 0.3610
-0.8521 -0.4118 0.3599
-0.8096 -0.4848 0.3589
-0.7611 -0.5536 0.3580
-0.7070 -0.6177 0.3571
-0.6476 -0.6767 0.3562
-0.5834 -0.7303 0.3555
-0.5150 -0.7780 0.3549
-0.4429 -0.8195 0.3543
-0.3675 -0.8546 0.3538
-0.2895 -0.8830 0.3534
-0.2095 -0.9046 0.3531
-0.1279 -0.9192 0.3530
-0.0454 -0.9267 0.3529
0.0374 -0.9270 0.3529
0.1200 -0.9203 0.3530
0.2017 -0.9065 0.3532
0.2820 -0.8857 0.3535
0.3603 -0.8580 0.3539
0.4360 -0.8236 0.3544
0.5085 -0.7827 0.3550
0.5774 -0.7356 0.3557
0.6421 -0.6827 0.3564
0.7020 -0.6241 0.3573
0.7568 -0.5605 0.3582
0.8060 -0.4921 0.3591
0.8491 -0.4194 0.3602
0.8857 -0.3430 0.3613
0.9156 -0.2635 0.3624
0.9385 -0.1814 0.3635
0.9540 -0.0973 0.3647
0.9621 -0.0118 0.3659
0.9624 0.0743 0.3671
0.9551 0.1603 0.3683
0.9401 0.2457 0.3695
0.9173 0.3296 0.3707
0.8870 0.4113 0.3719
0.8493 0.4902 0.3730
0.8044 0.5656 0.3740
0.7527 0.6368 0.3750
0.6947 0.7031 0.3759
0.6306 0.7640 0.3768
0.5611 0.8188 0.3775
0.4867 0.8671 0.3782
0.4080 0.9084 0.3787
0.3257 0.9423 0.3792
0.2406 0.9685 0.3795
0.1534 0.9867 0.3798
0.0648 0.9968 0.3799
-0.0243 0.9986 0.3799
-0.1133 0.9922 0.3798
-0.2012 0.9775 0.3796
-0.2873 0.9548 0.3792
-0.3709 0.9243 0.3788
-0.4512 0.8863 0.3782
-0.5275 0.8410 0.3776
-0.5992 0.7891 0.3768
-0.6658 0.7309 0.3760
-0.7265 0.6670 0.3751
-0.7811 0.5980 0.3741
-0.8290 0.5245 0.3731
-0.8699 0.4471 0.3720
-0.9035 0.3666 0.3709
-0.9297 0.2837 0.3697
-0.9482 0.1990 0.3685
-0.9590 0.1133 0.3673
-0.9621 0.0272 0.3661
-0.9575 -0.0585 0.3649
-0.9454 -0.1432 0.3637
-0.9259 -0.2262 0.3625
-0.8992 -0.3070 0.3614
-0.8657 -0.3848 0.3603
-0.8255 -0.4591 0.3593
-0.7792 -0.5295 0.3583
-0.7270 -0.5953 0.3574
-0.6694 -0.6562 0.3565
-0.6069 -0.7118 0.3558
-0.5400 -0.7616 0.3551
-0.4691 -0.8054 0.3545
-0.3948 -0.8428 0.3540
-0.3177 -0.8736 0.3536
-0.2383 -0.8976 0.3532
-0.1572 -0.9147 0.3530
-0.0750 -0.9248 0.3529
0.0078 -0.9277 0.3529
0.0905 -0.9235 0.3529
0.1726 -0.9122 0.3531
0.2535 -0.8939 0.3534
0.3325 -0.8687 0.3538
0.4092 -0.8366 0.3542
0.4830 -0.7981 0.3548
0.5532 -0.7532 0.3554
0.6195 -0.7023 0.3562
0.6812 -0.6457 0.3570
0.7379 -0.5838 0.3578
0.7891 -0.5170 0.3588
0.8344 -0.4459 0.3598
0.8734 -0.3708 0.3609
0.9057 -0.2923 0.3620
0.9311 -0.2110 0.3631
0.9493 -0.1275 0.3643
0.9601 -0.0425 0.3655
0.9632 0.0434 0.3667
0.9586 0.1296 0.3679
0.9463 0.2153 0.3691
0.9263 0.2998 0.3703
0.8987 0.3824 0.3715
0.8636 0.4624 0.3726
0.8213 0.5391 0.3736
0.7720 0.6119 0.3746
0.7162 0.6800 0.3756
0.6542 0.7428 0.3765
0.5865 0.7999 0.3773
0.5138 0.8506 0.3779
0.4366 0.8944 0.3785
0.3555 0.9310 0.3790
0.2714 0.9600 0.3794
0.1848 0.9811 0.3797
0.0966 0.9941 0.3799
0.0076 0.9989 0.3799
-0.0815 0.9954 0.3799
-0.1699 0.9837 0.3797
-0.2568 0.9639 0.3794
-0.3413 0.9361 0.3790
-0.4229 0.9007 0.3785
-0.5007 0.8580 0.3778
-0.5742 0.8084 0.3771
-0.6426 0.7524 0.3763
-0.7055 0.6905 0.3754
-0.7623 0.6232 0.3745
-0.8126 0.5512 0.3735
-0.8561 0.4752 0.3724
-0.8923 0.3957 0.3713
-0.9212 0.3136 0.3701
-0.9425 0.2295 0.3689
-0.9560 0.1440 0.3677
-0.9619 0.0580 0.3665
-0.9601 -0.0279 0.3653
-0.9506 -0.1131 0.3641
-0.9337 -0.1968 0.3629
-0.9096 -0.2784 0.3618
-0.8785 -0.3573 0.3607
-0.8406 -0.4330 0.3596
-0.7964 -0.5048 0.3586
-0.7463 -0.5723 0.3577
-0.6906 -0.6350 0.3568
-0.6298 -0.6926 0.3560
-0.5644 -0.7445 0.3553
-0.4949 -0.7904 0.3547
-0.4217 -0.8301 0.3541
-0.3456 -0.8633 0.3537
-0.2670 -0.8898 0.3533
-0.1864 -0.9094 0.3531
-0.1045 -0.9220 0.3529
-0.0219 -0.9275 0.3529
0.0610 -0.9259 0.3529
0.1434 -0.9171 0.3530
0.2247 -0.9013 0.3533
0.3045 -0.8785 0.3536
0.3821 -0.8489 0.3540
0.4570 -0.8126 0.3546
0.5285 -0.7699 0.3552
0.5963 -0.7212 0.3559
0.6596 -0.6666 0.3567
0.7182 -0.6065 0.3575
0.7714 -0.5415 0.3584
0.8189 -0.4718 0.3594
0.8602 -0.3980 0.3605
0.8950 -0.3207 0.3616
0.9229 -0.2404 0.3627
0.9437 -0.1576 0.3639
0.9571 -0.0731 0.3651
0.9630 0.0126 0.3663
0.9611 0.0988 0.3675
0.9516 0.1847 0.3687
0.9344 0.2697 0.3699
0.9094 0.3531 0.3710
0.8770 0.4341 0.3722
0.8372 0.5121 0.3733
0.7904 0.5863 0.3743
0.7369 0.6562 0.3753
0.6770 0.7210 0.3762
0.6113 0.7802 0.3770
0.5404 0.8332 0.3777
0.4647 0.8796 0.3783
0.3849 0.9188 0.3789
0.3018 0.9505 0.3793
0.2160 0.9745 0.3796
0.1283 0.9904 0.3798
0.0395 0.9981 0.3799
-0.0497 0.9976 0.3799
-0.1384 0.9888 0.3798
-0.2259 0.9719 0.3795
-0.3114 0.9470 0.3791
-0.3941 0.9143 0.3787
-0.4733 0.8741 0.3781
-0.5484 0.8269 0.3774
-0.6187 0.7732 0.3766
-0.6837 0.7133 0.3758
-0.7427 0.6478 0.3748
-0.7954 0.5775 0.3738
-0.8413 0.5028 0.3728
-0.8802 0.4245 0.3717
-0.9117 0.3432 0.3705
-0.9357 0.2597 0.3693
-0.9521 0.1747 0.3681
-0.9607 0.0888 0.3669
-0.9616 0.0027 0.3657
-0.9549 -0.0827 0.3645
-0.9406 -0.1670 0.3633
-0.9191 -0.2495 0.3622
-0.8904 -0.3294 0.3611
-0.8549 -0.4063 0.3600
-0.8130 -0.4796 0.3590
-0.7649 -0.5487 0.3580
-0.7111 -0.6132 0.3571
-0.6521 -0.6726 0.3563
-0.5883 -0.7266 0.3556
-0.5202 -0.7747 0.3549
-0.4483 -0.8167 0.3543
-0.3732 -0.8522 0.3538
-0.2953 -0.8811 0.3535
-0.2154 -0.9032 0.3532
-0.1339 -0.9183 0.3530
-0.0515 -0.9264 0.3529
0.0314 -0.9273 0.3529
0.1140 -0.9210 0.3530
0.1958 -0.9077 0.3532
0.2762 -0.8874 0.3535
0.3546 -0.8602 0.3539
0.4305 -0.8263 0.3544
0.5033 -0.7859 0.3550
0.5725 -0.7393 0.3556
0.6375 -0.6867 0.3564
0.6978 -0.6286 0.3572
0.7530 -0.5653 0.3581
0.8026 -0.4972 0.3591
0.8461 -0.4249 0.3601
0.8833 -0.3488 0.3612
0.9137 -0.2694 0.3623
0.9371 -0.1875 0.3635
0.9531 -0.1035 0.3646
0.9617 -0.0181 0.3658
0.9627 0.0680 0.3670
0.9559 0.1540 0.3683
0.9414 0.2395 0.3695
0.9192 0.3235 0.3706
0.8895 0.4054 0.3718
0.8523 0.4846 0.3729
0.8079 0.5602 0.3739
0.7568 0.6317 0.3749
0.6991 0.6984 0.3759
0.6355 0.7597 0.3767
0.5663 0.8150 0.3775
0.4923 0.8638 0.3781
0.4139 0.9056 0.3787
0.3319 0.9401 0.3792
0.2470 0.9668 0.3795
0.1598 0.9856 0.3798
0.0713 0.9963 0.3799
-0.0178 0.9987 0.3799
-0.1068 0.9929 0.3798
-0.1948 0.9789 0.3796
-0.2811 0.9568 0.3793
-0.3649 0.9268 0.3788
-0.4454 0.8893 0.3783
-0.5221 0.8446 0.3776
-0.5942 0.7931 0.3769
-0.6611 0.7354 0.3761
-0.7223 0.6718 0.3752
-0.7773 0.6032 0.3742
-0.8257 0.5300 0.3732
-0.8671 0.4529 0.3721
-0.9013 0.3726 0.3709
-0.9280 0.2898 0.3698
-0.9471 0.2053 0.3686
-0.9585 0.1196 0.3674
-0.9621 0.0335 0.3662
-0.9581 -0.0523 0.3650
-0.9466 -0.1371 0.3638
-0.9276 -0.2202 0.3626
-0.9014 -0.3011 0.3615
-0.8684 -0.3792 0.3604
-0.8287 -0.4538 0.3593
-0.7828 -0.5245 0.3584
-0.7310 -0.5907 0.3574
-0.6738 -0.6519 0.3566
-0.6116 -0.7079 0.3558
-0.5450 -0.7582 0.3551
-0.4744 -0.8024 0.3545
-0.4004 -0.8403 0.3540
-0.3235 -0.8716 0.3536
-0.2442 -0.8961 0.3533
-0.1632 -0.9137 0.3530
-0.0810 -0.9243 0.3529
0.0017 -0.9278 0.3529
0.0845 -0.9241 0.3529
0.1666 -0.9133 0.3531
0.2476 -0.8955 0.3534
0.3268 -0.8707 0.3537
0.4037 -0.8392 0.3542
0.4777 -0.8011 0.3547
0.5482 -0.7567 0.3554
0.6147 -0.7062 0.3561
0.6768 -0.6500 0.3569
0.7339 -0.5885 0.3578
0.7855 -0.5221 0.3587
0.8313 -0.4512 0.3597
0.8707 -0.3764 0.3608
0.9036 -0.2981 0.3619
0.9295 -0.2170 0.3630
0.9482 -0.1337 0.3642
0.9595 -0.0488 0.3654
0.9632 0.0371 0.3666
0.9592 0.1233 0.3678
0.9475 0.2090 0.3690
0.9280 0.2936 0.3702
0.9010 0.3764 0.3714
0.8664 0.4566 0.3725
0.8246 0.5336 0.3736
0.7758 0.6067 0.3746
0.7205 0.6752 0.3755
0.6589 0.7384 0.3764
0.5917 0.7959 0.3772
0.5193 0.8471 0.3779
0.4424 0.8915 0.3785
0.3616 0.9286 0.3790
0.2776 0.9582 0.3794
0.1912 0.9798 0.3797
0.1031 0.9934 0.3799
0.0141 0.9988 0.3799
-0.0750 0.9960 0.3799
-0.1635 0.9848 0.3797
-0.2505 0.9656 0.3794
-0.3352 0.9384 0.3790
-0.4170 0.9036 0.3785
-0.4951 0.8614 0.3779
-0.5689 0.8123 0.3772
-0.6378 0.7567 0.3764
-0.7011 0.6952 0.3755
-0.7583 0.6283 0.3746
-0.8092 0.5566 0.3735
-0.8531 0.4809 0.3725
-0.8899 0.4017 0.3713
-0.9193 0.3197 0.3702
-0.9412 0.2357 0.3690
-0.9553 0.1503 0.3678
-0.9617 0.0643 0.3666
-0.9604 -0.0217 0.3654
-0.9516 -0.1069 0.3642
-0.9352 -0.1907 0.3630
-0.9116 -0.2725 0.3619
-0.8810 -0.3516 0.3608
-0.8436 -0.4275 0.3597
-0.7999 -0.4997 0.3587
-0.7502 -0.5675 0.3578
-0.6949 -0.6306 0.3569
-0.6344 -0.6885 0.3561
-0.5693 -0.7409 0.3554
-0.5001 -0.7873 0.3547
-0.4272 -0.8274 0.3542
-0.3513 -0.8611 0.3537
-0.2728 -0.8881 0.3534
-0.1923 -0.9082 0.3531
-0.1105 -0.9213 0.3529
-0.0279 -0.9273 0.3529
0.0549 -0.9262 0.3529
0.1373 -0.9180 0.3530
0.2188 -0.9027 0.3533
0.2987 -0.8804 0.3536
0.3765 -0.8513 0.3540
0.4516 -0.8155 0.3545
0.5234 -0.7733 0.3551
0.5914 -0.7249 0.3558
0.6551 -0.6707 0.3566
0.7141 -0.6111 0.3575
0.7677 -0.5464 0.3584
0.8156 -0.4770 0.3594
0.8574 -0.4036 0.3604
0.8926 -0.3265 0.3615
0.9211 -0.2464 0.3626
0.9424 -0.1637 0.3638
0.9564 -0.0793 0.3650
0.9628 0.0063 0.3662
0.9615 0.0925 0.3674
0.9526 0.1784 0.3686
0.9359 0.2635 0.3698
0.9115 0.3470 0.3710
0.8796 0.4283 0.3721
0.8404 0.5065 0.3732
0.7941 0.5810 0.3742
0.7410 0.6512 0.3752
0.6816 0.7164 0.3761
0.6163 0.7761 0.3769
0.5457 0.8295 0.3777
0.4704 0.8764 0.3783
0.3909 0.9162 0.3788
0.3080 0.9485 0.3793
0.2224 0.9730 0.3796
0.1348 0.9895 0.3798
0.0460 0.9978 0.3799
-0.0432 0.9979 0.3799
-0.1320 0.9898 0.3798
-0.2195 0.9734 0.3795
-0.3052 0.9490 0.3792
-0.3881 0.9169 0.3787
-0.4677 0.8773 0.3781
-0.5431 0.8306 0.3774
-0.6137 0.7773 0.3767
-0.6791 0.7178 0.3758
-0.7386 0.6528 0.3749
-0.7917 0.5828 0.3739
-0.8382 0.5084 0.3729
-0.8776 0.4304 0.3718
-0.9097 0.3493 0.3706
-0.9342 0.2659 0.3694
-0.9511 0.1810 0.3682
-0.9603 0.0951 0.3670
-0.9618 0.0091 0.3658
-0.9556 -0.0765 0.3646
-0.9419 -0.1609 0.3634
-0.9209 -0.2435 0.3623
-0.8927 -0.3236 0.3612
-0.8577 -0.4008 0.3601
-0.8162 -0.4743 0.3591
-0.7686 -0.5438 0.3581
-0.7153 -0.6086 0.3572
-0.6566 -0.6684 0.3564
-0.5931 -0.7228 0.3556
-0.5253 -0.7714 0.3549
-0.4537 -0.8138 0.3544
-0.3788 -0.8498 0.3539
-0.3011 -0.8792 0.3535
-0.2213 -0.9018 0.3532
-0.1399 -0.9175 0.3530
-0.0575 -0.9260 0.3529
0.0253 -0.9274 0.3529
0.1079 -0.9217 0.3530
0.1898 -0.9090 0.3532
0.2703 -0.8891 0.3535
0.3489 -0.8624 0.3538
0.4251 -0.8290 0.3543
0.4981 -0.7891 0.3549
0.7648 -0.5220 0.3587
0.8105 -0.4530 0.3597
0.8501 -0.3800 0.3607
0.8833 -0.3035 0.3618
0.9096 -0.2242 0.3629
0.9289 -0.1427 0.3641
0.9410 -0.0594 0.3653
0.9456 0.0248 0.3664
0.9426 0.1094 0.3676
0.9321 0.1936 0.3688
0.9140 0.2769 0.3700
0.8884 0.3584 0.3711
0.8554 0.4375 0.3722
0.8153 0.5135 0.3733
0.7683 0.5857 0.3743
0.7148 0.6535 0.3752
0.6552 0.7164 0.3761
0.5900 0.7735 0.3769
0.5196 0.8246 0.3776
0.4447 0.8691 0.3782
0.3659 0.9065 0.3787
0.2839 0.9365 0.3791
0.1994 0.9588 0.3794
0.1132 0.9733 0.3796
0.0259 0.9797 0.3797
-0.0616 0.9780 0.3796
-0.1485 0.9682 0.3795
-0.2341 0.9504 0.3792
-0.3176 0.9248 0.3788
-0.3983 0.8917 0.3783
-0.4755 0.8513 0.3777
-0.5485 0.8040 0.3771
-0.6168 0.7504 0.3763
-0.6797 0.6908 0.3755
-0.7368 0.6259 0.3745
-0.7876 0.5562 0.3735
-0.8317 0.4824 0.3725
-0.8689 0.4051 0.3714
-0.8988 0.3250 0.3703
-0.9213 0.2428 0.3691
-0.9363 0.1592 0.3679
-0.9437 0.0748 0.3667
-0.9436 -0.0097 0.3656
-0.9359 -0.0935 0.3644
-0.9209 -0.1760 0.3632
-0.8988 -0.2566 0.3621
-0.8697 -0.3347 0.3610
-0.8339 -0.4098 0.3600
-0.7919 -0.4812 0.3590
-0.7438 -0.5485 0.3580
-0.6903 -0.6111 0.3572
-0.6316 -0.6688 0.3564
-0.5683 -0.7210 0.3556
-0.5008 -0.7674 0.3550
-0.4297 -0.8078 0.3545
-0.3555 -0.8418 0.3540
-0.2787 -0.8692 0.3536
-0.2000 -0.8899 0.3533
-0.1197 -0.9037 0.3532
-0.0386 -0.9106 0.3531
0.0427 -0.9105 0.3531
0.1238 -0.9033 0.3532
0.2040 -0.8892 0.3534
0.2827 -0.8683 0.3538
0.3595 -0.8406 0.3542
0.4336 -0.8063 0.3547
0.5046 -0.7657 0.3552
0.5720 -0.7190 0.3559
0.6351 -0.6665 0.3567
0.6937 -0.6086 0.3575
0.7470 -0.5457 0.3584
0.7948 -0.4781 0.3593
0.8367 -0.4065 0.3604
0.8722 -0.3312 0.3614
0.9010 -0.2529 0.3625
0.9228 -0.1721 0.3637
0.9375 -0.0894 0.3648
0.9448 -0.0054 0.3660
0.9446 0.0791 0.3672
0.9367 0.1636 0.3684
0.9214 0.2472 0.3696
0.8984 0.3294 0.3707
0.8681 0.4095 0.3718
0.8305 0.4867 0.3729
0.7859 0.5603 0.3739
0.7347 0.6298 0.3749
0.6772 0.6945 0.3758
0.6139 0.7538 0.3766
0.5453 0.8071 0.3773
0.4720 0.8540 0.3780
0.3945 0.8939 0.3785
0.3136 0.9266 0.3790
0.2299 0.9517 0.3793
0.1442 0.9690 0.3795
0.0572 0.9783 0.3796
-0.0303 0.9795 0.3796
-0.1175 0.9726 0.3795
-0.2036 0.9577 0.3793
-0.2880 0.9349 0.3790
-0.3698 0.9044 0.3785
-0.4483 0.8665 0.3780
-0.5229 0.8217 0.3773
-0.5930 0.7703 0.3766
-0.6579 0.7128 0.3758
-0.7171 0.6497 0.3749
-0.7702 0.5817 0.3739
-0.8167 0.5093 0.3729
-0.8564 0.4331 0.3718
-0.8890 0.3540 0.3707
-0.9141 0.2724 0.3695
-0.9318 0.1892 0.3684
-0.9419 0.1050 0.3672
-0.9445 0.0205 0.3660
-0.9395 -0.0636 0.3648
-0.9271 -0.1467 0.3636
-0.9075 -0.2280 0.3625
-0.8809 -0.3071 0.3614
-0.8474 -0.3833 0.3603
-0.8076 -0.4561 0.3593
-0.7617 -0.5249 0.3584
-0.7101 -0.5893 0.3575
-0.6532 -0.6487 0.3566
-0.5915 -0.7029 0.3559
-0.5254 -0.7515 0.3552
-0.4556 -0.7940 0.3546
-0.3824 -0.8303 0.3541
-0.3065 -0.8602 0.3537
-0.2283 -0.8833 0.3534
-0.1486 -0.8996 0.3532
-0.0677 -0.9090 0.3531
0.0136 -0.9113 0.3531
0.0949 -0.9067 0.3532
0.1754 -0.8951 0.3534
0.2548 -0.8766 0.3536
0.3323 -0.8512 0.3540
0.4074 -0.8193 0.3545
0.4796 -0.7809 0.3550
0.5483 -0.7363 0.3557
0.6131 -0.6859 0.3564
0.6733 -0.6299 0.3572
0.7286 -0.5687 0.3581
0.7784 -0.5028 0.3590
0.8224 -0.4326 0.3600
0.8602 -0.3585 0.3610
0.8915 -0.2812 0.3621
0.9158 -0.2012 0.3633
0.9331 -0.1191 0.3644
0.9430 -0.0356 0.3656
0.9455 0.0488 0.3668
0.9404 0.1334 0.3680
0.9277 0.2174 0.3691
0.9075 0.3002 0.3703
0.8798 0.3811 0.3714
0.8447 0.4594 0.3725
0.8027 0.5344 0.3736
0.7538 0.6055 0.3746
0.6985 0.6719 0.3755
0.6372 0.7332 0.3763
0.5704 0.7887 0.3771
0.4987 0.8380 0.3778
0.4226 0.8804 0.3783
0.3429 0.9158 0.3788
0.2601 0.9437 0.3792
0.1750 0.9638 0.3795
0.0884 0.9759 0.3796
0.0010 0.9800 0.3797
-0.0864 0.9760 0.3796
-0.1730 0.9639 0.3794
-0.2581 0.9439 0.3791
-0.3409 0.9162 0.3787
-0.4206 0.8809 0.3782
-0.4967 0.8385 0.3776
-0.5685 0.7894 0.3769
-0.6353 0.7340 0.3761
-0.6966 0.6729 0.3752
-0.7519 0.6065 0.3743
-0.8008 0.5356 0.3732
-0.8430 0.4607 0.3722
-0.8781 0.3826 0.3711
-0.9060 0.3018 0.3699
-0.9263 0.2191 0.3688
-0.9392 0.1352 0.3676
-0.9444 0.0507 0.3664
-0.9421 -0.0336 0.3652
-0.9324 -0.1171 0.3640
-0.9153 -0.1992 0.3629
-0.8912 -0.2791 0.3618
-0.8602 -0.3564 0.3607
-0.8226 -0.4305 0.3597
-0.7788 -0.5008 0.3587
-0.7291 -0.5668 0.3578
-0.6741 -0.6281 0.3569
-0.6141 -0.6842 0.3561
-0.5495 -0.7348 0.3555
-0.4810 -0.7795 0.3548
-0.4089 -0.8181 0.3543
-0.3339 -0.8502 0.3539
-0.2565 -0.8758 0.3535
-0.1773 -0.8945 0.3533
-0.0967 -0.9064 0.3531
-0.0155 -0.9113 0.3531
0.0658 -0.9092 0.3531
0.1467 -0.9000 0.3533
0.2266 -0.8840 0.3535
0.3048 -0.8611 0.3539
0.3808 -0.8315 0.3543
0.4541 -0.7954 0.3548
0.5242 -0.7530 0.3554
0.5904 -0.7046 0.3561
0.6523 -0.6506 0.3569
0.7094 -0.5912 0.3577
0.7612 -0.5269 0.3587
0.8074 -0.4582 0.3596
0.8474 -0.3854 0.3607
0.8810 -0.3092 0.3617
0.9079 -0.2301 0.3629
0.9277 -0.1487 0.3640
0.9403 -0.0656 0.3652
0.9455 0.0186 0.3664
0.9431 0.1032 0.3675
0.9331 0.1875 0.3687
0.9156 0.2708 0.3699
0.8905 0.3525 0.3710
0.8581 0.4318 0.3721
0.8185 0.5080 0.3732
0.7720 0.5806 0.3742
0.7190 0.6487 0.3752
0.6598 0.7119 0.3760
0.5949 0.7696 0.3768
0.5249 0.8211 0.3775
0.4503 0.8660 0.3782
0.3718 0.9040 0.3787
0.2900 0.9346 0.3791
0.2057 0.9575 0.3794
0.1195 0.9725 0.3796
0.0323 0.9795 0.3797
-0.0552 0.9784 0.3796
-0.1421 0.9692 0.3795
-0.2279 0.9520 0.3792
-0.3115 0.9270 0.3788
-0.3925 0.8944 0.3784
-0.4700 0.8545 0.3778
-0.5433 0.8077 0.3771
-0.6120 0.7545 0.3764
-0.6753 0.6954 0.3755
-0.7328 0.6308 0.3746
-0.7841 0.5615 0.3736
-0.8287 0.4879 0.3726
-0.8664 0.4109 0.3715
-0.8969 0.3310 0.3704
-0.9199 0.2489 0.3692
-0.9355 0.1653 0.3680
-0.9434 0.0810 0.3668
-0.9438 -0.0035 0.3656
-0.9367 -0.0874 0.3645
-0.9223 -0.1700 0.3633
-0.9006 -0.2508 0.3622
-0.8720 -0.3291 0.3611
-0.8368 -0.4044 0.3600
-0.7951 -0.4761 0.3590
-0.7476 -0.5437 0.3581
-0.6944 -0.6067 0.3572
-0.6361 -0.6647 0.3564
-0.5731 -0.7173 0.3557
-0.5059 -0.7642 0.3550
-0.4351 -0.8050 0.3545
-0.3611 -0.8395 0.3540
-0.2844 -0.8674 0.3536
-0.2058 -0.8886 0.3534
-0.1256 -0.9030 0.3532
-0.0446 -0.9103 0.3531
0.0368 -0.9107 0.3531
0.1179 -0.9041 0.3532
0.1982 -0.8905 0.3534
0.2770 -0.8700 0.3537
0.3539 -0.8428 0.3541
0.4283 -0.8090 0.3546
0.4995 -0.7688 0.3552
0.5672 -0.7226 0.3559
0.6307 -0.6705 0.3566
0.6895 -0.6130 0.3574
0.7433 -0.5504 0.3583
0.7915 -0.4832 0.3593
0.8338 -0.4119 0.3603
0.8698 -0.3369 0.3613
0.8991 -0.2587 0.3624
0.9215 -0.1781 0.3636
0.9367 -0.0955 0.3647
0.9445 -0.0116 0.3659
0.9448 0.0729 0.3671
0.9376 0.1574 0.3683
0.9227 0.2411 0.3695
0.9004 0.3235 0.3706
0.8705 0.4037 0.3717
0.8335 0.4811 0.3728
0.7894 0.5551 0.3739
0.7387 0.6249 0.3748
0.6816 0.6899 0.3757
0.6188 0.7496 0.3766
0.5505 0.8034 0.3773
0.4775 0.8508 0.3779
0.4003 0.8912 0.3785
0.3196 0.9245 0.3789
0.2361 0.9502 0.3793
0.1505 0.9680 0.3795
0.0636 0.9779 0.3796
-0.0239 0.9797 0.3796
-0.1111 0.9734 0.3795
-0.1974 0.9590 0.3793
-0.2819 0.9368 0.3790
-0.3639 0.9069 0.3786
-0.4427 0.8696 0.3780
-0.5176 0.8252 0.3774
-0.5880 0.7743 0.3766
-0.6533 0.7172 0.3758
-0.7129 0.6545 0.3749
-0.7665 0.5868 0.3740
-0.8135 0.5147 0.3729
-0.8538 0.4388 0.3719
-0.8868 0.3598 0.3708
-0.9125 0.2785 0.3696
-0.9308 0.1953 0.3684
-0.9414 0.1112 0.3673
-0.9446 0.0267 0.3661
-0.9401 -0.0575 0.3649
-0.9283 -0.1406 0.3637
-0.9092 -0.2221 0.3626
-0.8830 -0.3014 0.3615
-0.8501 -0.3779 0.3604
-0.8107 -0.4509 0.3594
-0.7652 -0.5200 0.3584
-0.7140 -0.5847 0.3575
-0.6575 -0.6446 0.3567
-0.5961 -0.6992 0.3559
-0.5304 -0.7481 0.3553
-0.4608 -0.7911 0.3547
-0.3879 -0.8279 0.3542
-0.3121 -0.8582 0.3538
-0.2341 -0.8818 0.3535
-0.1545 -0.8986 0.3532
-0.0737 -0.9085 0.3531
0.0077 -0.9114 0.3531
0.0889 -0.9073 0.3532
0.1696 -0.8962 0.3533
0.2490 -0.8781 0.3536
0.3267 -0.8533 0.3540
0.4020 -0.8219 0.3544
0.4744 -0.7839 0.3550
0.5434 -0.7398 0.3556
0.6084 -0.6898 0.3563
0.6690 -0.6342 0.3571
0.7247 -0.5734 0.3580
0.7749 -0.5078 0.3589
0.8194 -0.4379 0.3599
0.8577 -0.3641 0.3610
0.8894 -0.2870 0.3620
0.9143 -0.2072 0.3632
0.9321 -0.1252 0.3643
0.9426 -0.0417 0.3655
0.9456 0.0426 0.3667
0.9410 0.1272 0.3679
0.9289 0.2113 0.3691
0.9092 0.2942 0.3702
0.8820 0.3753 0.3714
0.8476 0.4538 0.3724
0.8060 0.5291 0.3735
0.7576 0.6004 0.3745
0.7027 0.6672 0.3754
0.6419 0.7289 0.3763
0.5755 0.7849 0.3770
0.5041 0.8346 0.3777
0.4284 0.8776 0.3783
0.3488 0.9135 0.3788
0.2662 0.9419 0.3792
0.1813 0.9626 0.3795
0.0948 0.9753 0.3796
0.0074 0.9800 0.3797
-0.0800 0.9766 0.3796
-0.1667 0.9651 0.3794
-0.2519 0.9457 0.3791
-0.3349 0.9185 0.3787
-0.4149 0.8837 0.3782
-0.4913 0.8419 0.3776
-0.5634 0.7932 0.3769
-0.6305 0.7383 0.3761
-0.6923 0.6775 0.3753
-0.7481 0.6116 0.3743
-0.7975 0.5410 0.3733
-0.8402 0.4664 0.3723
-0.8758 0.3884 0.3712
-0.9042 0.3078 0.3700
-0.9251 0.2252 0.3689
-0.9385 0.1414 0.3677
-0.9443 0.0569 0.3665
-0.9426 -0.0274 0.3653
-0.9334 -0.1110 0.3641
-0.9168 -0.1932 0.3630
-0.8932 -0.2734 0.3619
-0.8627 -0.3509 0.3608
-0.8255 -0.4252 0.3597
-0.7822 -0.4958 0.3588
-0.7330 -0.5621 0.3578
-0.6783 -0.6237 0.3570
-0.6186 -0.6803 0.3562
-0.5544 -0.7313 0.3555
-0.4861 -0.7764 0.3549
-0.4143 -0.8155 0.3543
-0.3395 -0.8481 0.3539
-0.2622 -0.8741 0.3536
-0.1831 -0.8934 0.3533
-0.1027 -0.9058 0.3531
-0.0215 -0.9112 0.3531
0.0599 -0.9096 0.3531
0.1408 -0.9009 0.3533
0.2208 -0.8854 0.3535
0.2991 -0.8630 0.3538
0.3753 -0.8339 0.3543
0.4489 -0.7982 0.3548
0.5192 -0.7563 0.3554
0.5857 -0.7083 0.3561
0.6479 -0.6547 0.3568
0.7054 -0.5957 0.3577
0.7576 -0.5318 0.3586
0.8042 -0.4633 0.3596
0.8447 -0.3909 0.3606
0.8788 -0.3149 0.3617
0.9062 -0.2360 0.3628
0.9265 -0.1547 0.3639
0.9397 -0.0717 0.3651
0.9454 0.0124 0.3663
0.9435 0.0970 0.3675
0.9341 0.1813 0.3686
0.9171 0.2647 0.3698
0.8926 0.3466 0.3709
0.8607 0.4261 0.3721
0.8216 0.5025 0.3731
0.7756 0.5754 0.3741
0.7231 0.6439 0.3751
0.6643 0.7075 0.3760
0.5999 0.7655 0.3768
0.5302 0.8175 0.3775
0.4559 0.8630 0.3781
0.3777 0.9015 0.3786
0.2961 0.9326 0.3791
0.2119 0.9561 0.3794
0.1259 0.9717 0.3796
0.0387 0.9792 0.3797
-0.0488 0.9787 0.3796
-0.1358 0.9701 0.3795
-0.2216 0.9535 0.3792
-0.3055 0.9291 0.3789
-0.3867 0.8970 0.3784
-0.4644 0.8577 0.3778
-0.5381 0.8114 0.3772
-0.6071 0.7586 0.3764
-0.6708 0.6999 0.3756
-0.7288 0.6357 0.3747
-0.7806 0.5667 0.3737
-0.8257 0.4935 0.3726
-0.8639 0.4166 0.3716
-0.8949 0.3369 0.3704
-0.9185 0.2550 0.3693
-0.9346 0.1715 0.3681
-0.9431 0.0872 0.3669
-0.9441 0.0027 0.3657
-0.9375 -0.0812 0.3646
-0.9236 -0.1640 0.3634
-0.9024 -0.2450 0.3623
-0.8743 -0.3235 0.3612
-0.8396 -0.3990 0.3601
-0.7984 -0.4710 0.3591
-0.7512 -0.5389 0.3582
-0.6985 -0.6022 0.3573
-0.6405 -0.6606 0.3565
-0.5779 -0.7137 0.3557
-0.5110 -0.7610 0.3551
-0.4404 -0.8022 0.3545
-0.3666 -0.8372 0.3541
-0.2901 -0.8656 0.3537
-0.2116 -0.8873 0.3534
-0.1316 -0.9021 0.3532
-0.0506 -0.9100 0.3531
0.0308 -0.9109 0.3531
0.1120 -0.9048 0.3532
0.1923 -0.8917 0.3534
0.2713 -0.8718 0.3537
0.3484 -0.8450 0.3541
0.4229 -0.8117 0.3546
0.4944 -0.7720 0.3552
0.5623 -0.7262 0.3558
0.6262 -0.6745 0.3565
0.6854 -0.6174 0.3574
0.7395 -0.5552 0.3582
0.7882 -0.4883 0.3592
0.8309 -0.4172 0.3602
0.8674 -0.3425 0.3613
0.8972 -0.2646 0.3624
0.9201 -0.1841 0.3635
0.9358 -0.1016 0.3647
0.9442 -0.0178 0.3658
0.9451 0.0667 0.3670
0.9384 0.1512 0.3682
0.9241 0.2351 0.3694
0.9022 0.3175 0.3705
0.8730 0.3979 0.3717
0.8364 0.4756 0.3727
0.7929 0.5498 0.3738
0.7426 0.6199 0.3748
0.6860 0.6853 0.3757
0.6235 0.7454 0.3765
0.5557 0.7997 0.3772
0.4830 0.8475 0.3779
0.4061 0.8885 0.3785
0.3256 0.9223 0.3789
0.2423 0.9485 0.3793
0.1568 0.9670 0.3795
0.0700 0.9775 0.3796
-0.0175 0.9798 0.3797
-0.1048 0.9741 0.3796
-0.1911 0.9604 0.3793
-0.2758 0.9387 0.3790
-0.3580 0.9093 0.3786
-0.4370 0.8725 0.3781
-0.5123 0.8287 0.3774
-0.5830 0.7782 0.3767
-0.6487 0.7216 0.3759
-0.7088 0.6593 0.3750
-0.7628 0.5919 0.3740
-0.8103 0.5201 0.3730
-0.8510 0.4445 0.3720
-0.8846 0.3657 0.3708
-0.9109 0.2845 0.3697
-0.9297 0.2015 0.3685
-0.9409 0.1174 0.3673
-0.9446 0.0329 0.3662
-0.9407 -0.0513 0.3650
-0.9294 -0.1346 0.3638
-0.9108 -0.2162 0.3627
-0.8852 -0.2957 0.3615
-0.8528 -0.3724 0.3605
-0.8138 -0.4457 0.3595
-0.7688 -0.5151 0.3585
-0.7180 -0.5801 0.3576
-0.6618 -0.6404 0.3568
-0.6008 -0.6953 0.3560
-0.5354 -0.7447 0.3553
-0.4660 -0.7882 0.3547
-0.3933 -0.8254 0.3542
-0.3178 -0.8562 0.3538
-0.2399 -0.8803 0.3535
-0.1603 -0.8976 0.3532
-0.0796 -0.9080 0.3531
0.0017 -0.9114 0.3531
0.0830 -0.9078 0.3532
0.1637 -0.8972 0.3533
0.2432 -0.8797 0.3536
0.3211 -0.8554 0.3539
0.3966 -0.8244 0.3544
0.4692 -0.7869 0.3549
0.5385 -0.7433 0.3556
0.6038 -0.6937 0.3563
0.6648 -0.6384 0.3571
0.7208 -0.5780 0.3579
0.7714 -0.5127 0.3589
0.8163 -0.4431 0.3598
0.8551 -0.3696 0.3609
0.8873 -0.2928 0.3620
0.9127 -0.2131 0.3631
0.9310 -0.1313 0.3642
0.9420 -0.0479 0.3654
0.9456 0.0364 0.3666
0.9416 0.1210 0.3678
0.9301 0.2052 0.3690
0.9109 0.2882 0.3701
0.8843 0.3694 0.3713
0.8503 0.4481 0.3724
0.8093 0.5237 0.3734
0.7613 0.5953 0.3744
0.7070 0.6625 0.3753
0.6465 0.7246 0.3762
0.5805 0.7810 0.3770
0.5095 0.8312 0.3777
0.4340 0.8747 0.3783
0.3548 0.9111 0.3788
0.2724 0.9400 0.3792
0.1876 0.9613 0.3794
0.1012 0.9746 0.3796
0.0138 0.9799 0.3797
-0.0736 0.9771 0.3796
-0.1604 0.9662 0.3794
-0.2457 0.9473 0.3791
-0.3289 0.9207 0.3788
-0.4092 0.8865 0.3783
-0.4858 0.8452 0.3777
-0.5582 0.7970 0.3770
-0.6258 0.7425 0.3762
-0.6880 0.6822 0.3753
-0.7442 0.6166 0.3744
-0.7941 0.5463 0.3734
-0.8373 0.4719 0.3723
-0.8735 0.3942 0.3712
-0.9024 0.3138 0.3701
-0.9238 0.2313 0.3689
-0.9378 0.1476 0.3678
-0.9441 0.0631 0.3666
-0.9430 -0.0213 0.3654
-0.9343 -0.1049 0.3642
-0.9183 -0.1872 0.3631
-0.8952 -0.2676 0.3619
-0.8651 -0.3453 0.3609
-0.8285 -0.4199 0.3598
-0.7856 -0.4907 0.3588
-0.7368 -0.5574 0.3579
-0.6825 -0.6194 0.3570
-0.6231 -0.6763 0.3563
-0.5592 -0.7277 0.3555
-0.4912 -0.7733 0.3549
-0.4197 -0.8128 0.3544
-0.3451 -0.8459 0.3539
-0.2680 -0.8725 0.3536
-0.1890 -0.8922 0.3533
-0.1086 -0.9051 0.3532
-0.0274 -0.9110 0.3531
0.0539 -0.9099 0.3531
0.1349 -0.9018 0.3533
0.2149 -0.8868 0.3535
0.2934 -0.8649 0.3538
0.3698 -0.8362 0.3542
0.4436 -0.8011 0.3547
0.5141 -0.7596 0.3553
0.5809 -0.7121 0.3560
0.6435 -0.6588 0.3568
0.7013 -0.6002 0.3576
0.7540 -0.5366 0.3585
0.8010 -0.4685 0.3595
0.8419 -0.3963 0.3605
0.8765 -0.3206 0.3616
0.9044 -0.2419 0.3627
0.9253 -0.1608 0.3638
0.9389 -0.0779 0.3650
0.9452 0.0062 0.3662
0.9439 0.0908 0.3674
0.9351 0.1752 0.3685
0.9186 0.2587 0.3697
0.8947 0.3406 0.3709
0.8633 0.4203 0.3720
0.8247 0.4971 0.3730
0.7792 0.5702 0.3741
0.7271 0.6390 0.3750
0.6688 0.7030 0.3759
0.6048 0.7615 0.3767
0.5355 0.8139 0.3774
0.4615 0.8599 0.3781
0.3835 0.8989 0.3786
0.3022 0.9306 0.3790
0.2182 0.9546 0.3793
0.1322 0.9708 0.3796
0.0451 0.9790 0.3797
-0.0424 0.9790 0.3796
-0.1294 0.9710 0.3795
-0.2154 0.9550 0.3793
-0.2994 0.9311 0.3789
-0.3808 0.8996 0.3784
-0.4589 0.8608 0.3779
-0.5329 0.8150 0.3772
-0.6022 0.7627 0.3765
-0.6664 0.7044 0.3756
-0.7248 0.6406 0.3747
-0.7770 0.5719 0.3738
-0.8226 0.4990 0.3727
-0.8613 0.4224 0.3716
-0.8929 0.3428 0.3705
-0.9170 0.2610 0.3694
-0.9337 0.1776 0.3682
-0.9427 0.0934 0.3670
-0.9442 0.0089 0.3658
-0.9382 -0.0751 0.3646
-0.9248 -0.1580 0.3635
-0.9042 -0.2391 0.3623
-0.8766 -0.3178 0.3612
-0.8423 -0.3936 0.3602
-0.8016 -0.4658 0.3592
-0.7549 -0.5341 0.3582
-0.7025 -0.5978 0.3573
-0.6449 -0.6565 0.3565
-0.5826 -0.7100 0.3558
-0.5160 -0.7577 0.3551
-0.4456 -0.7994 0.3546
-0.3721 -0.8348 0.3541
-0.2958 -0.8637 0.3537
-0.2174 -0.8859 0.3534
-0.1375 -0.9013 0.3532
-0.0565 -0.9097 0.3531
0.0248 -0.9111 0.3531
0.1060 -0.9055 0.3532
0.1865 -0.8929 0.3534
0.2656 -0.8735 0.3537
0.3428 -0.8472 0.3541
0.4175 -0.8144 0.3545
0.4893 -0.7751 0.3551
0.7513 -0.5128 0.3588
0.7962 -0.4449 0.3598
0.8350 -0.3732 0.3608
0.8675 -0.2981 0.3619
0.8934 -0.2202 0.3630
0.9123 -0.1401 0.3641
0.9240 -0.0584 0.3653
0.9285 0.0243 0.3664
0.9256 0.1074 0.3676
0.9152 0.1901 0.3688
0.8974 0.2718 0.3699
0.8722 0.3518 0.3710
0.8398 0.4295 0.3721
0.8004 0.5040 0.3731
0.7542 0.5749 0.3741
0.7017 0.6415 0.3751
0.6431 0.7031 0.3759
0.5790 0.7592 0.3767
0.5099 0.8093 0.3774
0.4364 0.8529 0.3780
0.3591 0.8896 0.3785
0.2786 0.9190 0.3789
0.1957 0.9409 0.3792
0.1110 0.9551 0.3793
0.0254 0.9614 0.3794
-0.0604 0.9597 0.3794
-0.1457 0.9501 0.3792
-0.2297 0.9327 0.3789
-0.3117 0.9076 0.3786
-0.3909 0.8751 0.3781
-0.4667 0.8355 0.3775
-0.5384 0.7891 0.3769
-0.6054 0.7365 0.3761
-0.6672 0.6781 0.3753
-0.7232 0.6144 0.3744
-0.7731 0.5460 0.3734
-0.8165 0.4736 0.3724
-0.8530 0.3977 0.3713
-0.8824 0.3191 0.3702
-0.9046 0.2384 0.3690
-0.9194 0.1563 0.3679
-0.9267 0.0734 0.3667
-0.9266 -0.0095 0.3656
-0.9191 -0.0918 0.3644
-0.9045 -0.1729 0.3633
-0.8827 -0.2521 0.3622
-0.8542 -0.3288 0.3611
-0.8191 -0.4025 0.3601
-0.7779 -0.4727 0.3591
-0.7307 -0.5388 0.3582
-0.6781 -0.6004 0.3573
-0.6205 -0.6570 0.3565
-0.5584 -0.7084 0.3558
-0.4921 -0.7540 0.3552
-0.4222 -0.7937 0.3547
-0.3493 -0.8271 0.3542
-0.2739 -0.8541 0.3538
-0.1965 -0.8744 0.3536
-0.1176 -0.8880 0.3534
-0.0380 -0.8948 0.3533
0.0420 -0.8947 0.3533
0.1216 -0.8876 0.3534
0.2004 -0.8738 0.3537
0.2778 -0.8531 0.3540
0.3532 -0.8259 0.3544
0.4260 -0.7922 0.3549
0.4958 -0.7523 0.3554
0.5619 -0.7064 0.3561
0.6240 -0.6548 0.3568
0.6815 -0.5979 0.3576
0.7339 -0.5360 0.3585
0.7808 -0.4697 0.3595
0.8218 -0.3993 0.3605
0.8566 -0.3253 0.3615
0.8849 -0.2484 0.3626
0.9063 -0.1690 0.3637
0.9207 -0.0878 0.3649
0.9278 -0.0053 0.3660
0.9275 0.0777 0.3672
0.9198 0.1606 0.3683
0.9046 0.2427 0.3695
0.8820 0.3234 0.3706
0.8522 0.4020 0.3717
0.8153 0.4777 0.3728
0.7715 0.5500 0.3738
0.7212 0.6182 0.3747
0.6647 0.6817 0.3756
0.6026 0.7398 0.3764
0.5352 0.7921 0.3771
0.4632 0.8381 0.3778
0.3871 0.8773 0.3783
0.3077 0.9094 0.3787
0.2256 0.9340 0.3791
0.1415 0.9510 0.3793
0.0561 0.9601 0.3794
-0.0297 0.9612 0.3794
-0.1153 0.9545 0.3793
-0.1999 0.9398 0.3791
-0.2826 0.9175 0.3787
-0.3629 0.8876 0.3783
-0.4400 0.8504 0.3777
-0.5132 0.8065 0.3771
-0.5820 0.7560 0.3764
-0.6457 0.6996 0.3756
-0.7039 0.6377 0.3747
-0.7560 0.5710 0.3738
-0.8018 0.4999 0.3727
-0.8408 0.4252 0.3717
-0.8727 0.3475 0.3706
-0.8975 0.2675 0.3695
-0.9149 0.1858 0.3683
-0.9249 0.1031 0.3671
-0.9275 0.0201 0.3660
-0.9226 -0.0624 0.3648
-0.9105 -0.1440 0.3637
-0.8913 -0.2240 0.3626
-0.8652 -0.3017 0.3615
-0.8324 -0.3765 0.3604
-0.7933 -0.4480 0.3594
-0.7482 -0.5156 0.3585
-0.6976 -0.5789 0.3576
-0.6417 -0.6374 0.3568
-0.5811 -0.6906 0.3561
-0.5162 -0.7383 0.3554
-0.4476 -0.7802 0.3548
-0.3757 -0.8159 0.3544
-0.3011 -0.8452 0.3540
-0.2244 -0.8679 0.3537
-0.1460 -0.8839 0.3534
-0.0665 -0.8932 0.3533
0.0134 -0.8955 0.3533
0.0932 -0.8909 0.3534
0.1724 -0.8795 0.3536
0.2503 -0.8613 0.3538
0.3265 -0.8364 0.3542
0.4003 -0.8050 0.3547
0.4712 -0.7673 0.3552
0.5387 -0.7235 0.3558
0.6023 -0.6739 0.3566
0.6615 -0.6188 0.3573
0.7157 -0.5587 0.3582
0.7646 -0.4939 0.3591
0.8078 -0.4249 0.3601
0.8449 -0.3522 0.3611
0.8756 -0.2762 0.3622
0.8995 -0.1976 0.3633
0.9164 -0.1170 0.3644
0.9261 -0.0349 0.3656
0.9284 0.0480 0.3668
0.9234 0.1310 0.3679
0.9109 0.2135 0.3691
0.8910 0.2948 0.3702
0.8637 0.3742 0.3713
0.8293 0.4510 0.3724
0.7879 0.5246 0.3734
0.7399 0.5943 0.3744
0.6856 0.6595 0.3753
0.6254 0.7196 0.3761
0.5599 0.7741 0.3769
0.4895 0.8224 0.3775
0.4148 0.8641 0.3781
0.3365 0.8987 0.3786
0.2552 0.9261 0.3790
0.1718 0.9458 0.3792
0.0868 0.9577 0.3794
0.0010 0.9617 0.3794
-0.0848 0.9578 0.3793
-0.1698 0.9460 0.3791
-0.2533 0.9263 0.3789
