ply
format ascii 1.0
element vertex 2176
property float32 x
property float32 y
property float32 z
end_header
-0.2914 -1.3472 0.3467
-0.1700 -1.3667 0.3464
-0.0474 -1.3759 0.3463
0.0755 -1.3747 0.3463
0.1979 -1.3631 0.3464
0.3190 -1.3412 0.3467
0.4379 -1.3091 0.3472
0.5539 -1.2670 0.3478
0.6661 -1.2152 0.3485
0.7738 -1.1538 0.3494
0.8761 -1.0833 0.3504
1.0802 -0.8443 0.3538
5.9130 -3.8242 1.8173
6.2468 -3.2902 1.8221
6.5333 -2.7274 1.8271
6.7698 -2.1399 1.8323
6.9540 -1.5321 1.8377
7.0971 -0.9101 1.8465
3.2431 -0.1241 0.8376
3.2418 0.1657 0.8377
3.2405 0.4579 0.8446
3.2392 0.7574 0.8585
3.2378 1.0693 0.8800
6.7829 2.9343 1.9072
6.5376 3.5512 1.9200
6.2345 4.1465 1.9323
5.8753 4.7145 1.9440
1.0629 1.0215 0.3804
0.9710 1.1162 0.3818
0.8704 1.2022 0.3830
0.7619 1.2786 0.3841
0.6464 1.3448 0.3851
0.5249 1.4000 0.3858
0.3986 1.4435 0.3865
0.2686 1.4751 0.3869
0.1361 1.4942 0.3872
0.0023 1.5008 0.3873
-0.1316 1.4946 0.3872
-0.2642 1.4759 0.3870
-0.3943 1.4449 0.3865
-0.5208 1.4017 0.3859
-0.6424 1.3469 0.3851
-0.7581 1.2812 0.3842
-0.8669 1.2050 0.3831
-0.9679 1.1193 0.3819
-1.0601 1.0249 0.3805
-5.8620 4.7328 1.9443
-6.2229 4.1659 1.9326
-6.5279 3.5714 1.9203
-6.7751 2.9552 1.9075
-6.9637 2.3231 1.8945
-7.1065 1.6841 1.8848
-7.1918 1.0383 1.8752
-7.2187 0.3907 1.8657
-7.1879 -0.2534 1.8561
-7.1006 -0.8889 1.8468
-6.9591 -1.5113 1.8378
-6.7766 -2.1197 1.8324
-6.5419 -2.7079 1.8272
-6.2571 -3.2716 1.8222
-5.9249 -3.8067 1.8174
-1.0830 -0.8412 0.3539
-1.0001 -0.9311 0.3526
-0.9100 -1.0132 0.3514
-0.8136 -1.0870 0.3504
-0.7115 -1.1522 0.3495
-0.6045 -1.2083 0.3487
-0.4934 -1.2549 0.3480
-0.3789 -1.2920 0.3475
-0.2618 -1.3191 0.3471
-0.1430 -1.3363 0.3468
-0.0233 -1.3433 0.3467
0.0966 -1.3402 0.3468
0.2159 -1.3269 0.3469
0.3337 -1.3036 0.3473
0.4492 -1.2704 0.3477
0.5617 -1.2274 0.3484
0.6704 -1.1749 0.3491
0.7745 -1.1133 0.3500
0.8732 -1.0427 0.3510
0.9658 -0.9638 0.3521
1.0516 -0.8769 0.3533
5.7839 -4.0060 1.8157
6.1338 -3.4831 1.8203
6.4373 -2.9300 1.8253
6.6918 -2.3508 1.8304
6.8948 -1.7497 1.8357
7.0521 -1.1324 1.8432
7.1610 -0.5014 1.8526
3.2423 0.0629 0.8369
3.2410 0.3537 0.8414
3.2397 0.6500 0.8527
3.2383 0.9569 0.8714
6.8558 2.7115 1.9026
6.6312 3.3346 1.9155
6.3485 3.9383 1.9280
6.0090 4.5166 1.9400
1.0932 0.9860 0.3799
1.0046 1.0835 0.3813
0.9070 1.1727 0.3826
0.8012 1.2527 0.3837
0.6881 1.3226 0.3847
0.5686 1.3817 0.3856
0.4439 1.4294 0.3863
0.3150 1.4653 0.3868
0.1833 1.4888 0.3871
0.0498 1.4999 0.3873
-0.0842 1.4983 0.3873
-0.2174 1.4840 0.3871
-0.3485 1.4573 0.3867
-0.4764 1.4184 0.3861
-0.5999 1.3677 0.3854
-0.7179 1.3057 0.3845
-0.8292 1.2332 0.3835
-0.9330 1.1508 0.3823
-1.0284 1.0593 0.3810
-5.7209 4.9262 1.9483
-6.1013 4.3704 1.9368
-6.4263 3.7850 1.9247
-6.6942 3.1758 1.9121
-6.9036 2.5487 1.8991
-7.0622 1.9117 1.8881
-7.1683 1.2678 1.8786
-7.2158 0.6202 1.8691
-7.2054 -0.0257 1.8595
-7.1380 -0.6648 1.8501
-7.0149 -1.2923 1.8408
-6.8474 -1.9061 1.8343
-6.6309 -2.5019 1.8290
-6.3636 -3.0748 1.8239
-6.0479 -3.6205 1.8191
-5.6866 -4.1350 1.8145
-1.0303 -0.9001 0.3531
-0.9427 -0.9850 0.3519
-0.8484 -1.0618 0.3508
-0.7483 -1.1301 0.3498
-0.6429 -1.1894 0.3489
-0.5332 -1.2395 0.3482
-0.4198 -1.2800 0.3476
-0.3036 -1.3106 0.3472
-0.1853 -1.3313 0.3469
-0.0658 -1.3420 0.3467
0.0541 -1.3425 0.3467
0.1737 -1.3328 0.3469
0.2921 -1.3130 0.3471
0.4086 -1.2833 0.3476
0.5222 -1.2438 0.3481
0.6324 -1.1946 0.3488
0.7381 -1.1362 0.3497
0.8388 -1.0687 0.3506
0.9337 -0.9927 0.3517
1.0220 -0.9086 0.3529
5.6492 -4.1835 1.8141
6.0148 -3.6721 1.8187
6.3351 -3.1293 1.8235
6.6073 -2.5589 1.8286
6.8288 -1.9651 1.8338
7.0003 -1.3527 1.8400
7.1287 -0.7266 1.8492
3.2428 -0.0398 0.8369
3.2415 0.2502 0.8390
3.2401 0.5440 0.8479
3.2388 0.8465 0.8639
3.2374 1.1633 0.8878
6.7176 3.1156 1.9110
6.4553 3.7268 1.9236
6.1358 4.3148 1.9358
5.7607 4.8738 1.9473
1.0371 1.0499 0.3808
0.9426 1.1421 0.3822
0.8396 1.2254 0.3834
0.7289 1.2990 0.3844
0.6116 1.3620 0.3853
0.4886 1.4138 0.3860
0.3611 1.4540 0.3866
0.2303 1.4819 0.3870
0.0972 1.4974 0.3872
-0.0367 1.5003 0.3873
-0.1703 1.4905 0.3872
-0.3023 1.4682 0.3868
-0.4315 1.4335 0.3863
-0.5567 1.3870 0.3857
-0.6767 1.3289 0.3849
-0.7905 1.2601 0.3839
-0.8971 1.1811 0.3828
-0.9956 1.0927 0.3815
-5.5732 5.1151 1.9522
-5.9726 4.5711 1.9410
-6.3175 3.9956 1.9291
-6.6058 3.3942 1.9166
-6.8361 2.7727 1.9038
-7.0106 2.1381 1.8915
-7.1374 1.4968 1.8820
-7.2056 0.8499 1.8724
-7.2157 0.2028 1.8629
-7.1683 -0.4393 1.8534
-7.0648 -1.0715 1.8441
-6.9115 -1.6901 1.8362
-6.7136 -2.2930 1.8309
-6.4641 -2.8746 1.8257
-6.1652 -3.4303 1.8208
-5.8198 -3.9564 1.8161
-1.0597 -0.8681 0.3535
-0.9746 -0.9558 0.3523
-0.8826 -1.0355 0.3511
-0.7844 -1.1069 0.3501
-0.6808 -1.1694 0.3492
-0.5725 -1.2228 0.3484
-0.4604 -1.2667 0.3478
-0.3451 -1.3009 0.3473
-0.2274 -1.3252 0.3470
-0.1083 -1.3394 0.3468
0.0116 -1.3434 0.3467
0.1314 -1.3374 0.3468
0.2503 -1.3212 0.3470
0.3676 -1.2950 0.3474
0.4823 -1.2589 0.3479
0.5938 -1.2131 0.3486
0.7012 -1.1579 0.3493
0.8038 -1.0936 0.3503
0.9008 -1.0206 0.3513
0.9915 -0.9393 0.3525
1.0751 -0.8502 0.3537
5.8902 -3.8572 1.8170
6.2269 -3.3251 1.8217
6.5165 -2.7641 1.8267
6.7562 -2.1780 1.8319
6.9439 -1.5714 1.8373
7.0895 -0.9502 1.8459
3.2432 -0.1426 0.8378
3.2419 0.1472 0.8375
3.2406 0.4391 0.8439
3.2393 0.7379 0.8574
3.2379 1.0490 0.8784
6.7966 2.8944 1.9064
6.5550 3.5125 1.9192
6.2555 4.1093 1.9315
5.8999 4.6792 1.9433
1.0684 1.0152 0.3803
0.9771 1.1104 0.3817
0.8770 1.1970 0.3829
0.7690 1.2741 0.3840
0.6539 1.3409 0.3850
0.5328 1.3968 0.3858
0.4068 1.4411 0.3864
0.2770 1.4734 0.3869
0.1446 1.4934 0.3872
0.0108 1.5007 0.3873
-0.1231 1.4954 0.3872
-0.2558 1.4775 0.3870
-0.3861 1.4472 0.3865
-0.5128 1.4048 0.3859
-0.6348 1.3508 0.3852
-0.7510 1.2857 0.3842
-0.8602 1.2102 0.3832
-0.9617 1.1251 0.3820
-1.0545 1.0312 0.3806
-5.8371 4.7679 1.9450
-6.2016 4.2029 1.9334
-6.5102 3.6100 1.9211
-6.7611 2.9950 1.9084
-6.9534 2.3638 1.8953
-7.0991 1.7251 1.8854
-7.1881 1.0796 1.8758
-7.2187 0.4320 1.8663
-7.1916 -0.2125 1.8567
-7.1078 -0.8488 1.8473
-6.9689 -1.4719 1.8381
-6.7898 -2.0815 1.8327
-6.5583 -2.6711 1.8275
-6.2767 -3.2365 1.8225
-5.9474 -3.7735 1.8177
-1.0881 -0.8352 0.3540
-1.0056 -0.9256 0.3527
-0.9159 -1.0082 0.3515
-0.8199 -1.0826 0.3505
-0.7181 -1.1483 0.3495
-0.6114 -1.2050 0.3487
-0.5005 -1.2523 0.3480
-0.3863 -1.2899 0.3475
-0.2694 -1.3177 0.3471
-0.1507 -1.3355 0.3468
-0.0309 -1.3432 0.3467
0.0890 -1.3407 0.3468
0.2083 -1.3281 0.3469
0.3262 -1.3054 0.3473
0.4420 -1.2728 0.3477
0.5547 -1.2305 0.3483
0.6636 -1.1786 0.3491
0.7680 -1.1175 0.3499
0.8671 -1.0475 0.3509
0.9601 -0.9691 0.3520
1.0463 -0.8826 0.3533
5.7601 -4.0382 1.8154
6.1128 -3.5173 1.8200
6.4194 -2.9661 1.8249
6.6770 -2.3884 1.8301
6.8834 -1.7886 1.8354
7.0433 -1.1722 1.8427
7.1557 -0.5420 1.8520
3.2424 0.0444 0.8368
3.2411 0.3351 0.8409
3.2397 0.6309 0.8518
3.2384 0.9369 0.8700
6.8681 2.6713 1.9018
6.6473 3.2954 1.9147
6.3682 3.9005 1.9272
6.0323 4.4806 1.9392
1.0986 0.9795 0.3798
1.0105 1.0775 0.3812
0.9135 1.1673 0.3825
0.8082 1.2479 0.3837
0.6955 1.3184 0.3847
0.5764 1.3783 0.3855
0.4520 1.4267 0.3862
0.3234 1.4634 0.3868
0.1917 1.4877 0.3871
0.0583 1.4995 0.3873
-0.0757 1.4987 0.3873
-0.2089 1.4853 0.3871
-0.3403 1.4594 0.3867
-0.4684 1.4212 0.3862
-0.5922 1.3712 0.3855
-0.7105 1.3100 0.3846
-0.8223 1.2381 0.3836
-0.9267 1.1563 0.3824
-1.0226 1.0654 0.3811
-5.6948 4.9605 1.9490
-6.0786 4.4067 1.9376
-6.4073 3.8231 1.9255
-6.6788 3.2152 1.9129
-6.8920 2.5891 1.9000
-7.0535 1.9525 1.8887
-7.1633 1.3090 1.8792
-7.2145 0.6615 1.8697
-7.2078 0.0153 1.8601
-7.1439 -0.6244 1.8507
-7.0244 -1.2527 1.8414
-6.8594 -1.8674 1.8346
-6.6463 -2.4646 1.8293
-6.3821 -3.0390 1.8242
-6.0695 -3.5866 1.8194
-5.7110 -4.1032 1.8148
-1.0357 -0.8944 0.3531
-0.9485 -0.9798 0.3519
-0.8546 -1.0572 0.3508
-0.7548 -1.1260 0.3498
-0.6498 -1.1859 0.3490
-0.5403 -1.2366 0.3483
-0.4271 -1.2777 0.3477
-0.3111 -1.3090 0.3472
-0.1929 -1.3303 0.3469
-0.0735 -1.3416 0.3467
0.0465 -1.3427 0.3467
0.1661 -1.3337 0.3469
0.2846 -1.3146 0.3471
0.4012 -1.2855 0.3475
0.5151 -1.2466 0.3481
0.6255 -1.1980 0.3488
0.7315 -1.1402 0.3496
0.8326 -1.0733 0.3506
0.9278 -0.9978 0.3516
1.0165 -0.9142 0.3528
5.6244 -4.2149 1.8138
5.9929 -3.7057 1.8184
6.3161 -3.1648 1.8232
6.5914 -2.5960 1.8282
6.8163 -2.0035 1.8335
6.9903 -1.3921 1.8394
7.1222 -0.7669 1.8487
3.2429 -0.0582 0.8370
3.2415 0.2317 0.8387
3.2402 0.5251 0.8471
3.2389 0.8269 0.8627
3.2375 1.1425 0.8860
6.7323 3.0760 1.9102
6.4738 3.6885 1.9228
6.1578 4.2781 1.9350
5.7862 4.8391 1.9466
1.0428 1.0437 0.3808
0.9489 1.1365 0.3821
0.8464 1.2204 0.3833
0.7362 1.2946 0.3843
0.6193 1.3583 0.3853
0.4966 1.4109 0.3860
0.3694 1.4518 0.3866
0.2387 1.4805 0.3870
0.1057 1.4968 0.3872
-0.0282 1.5005 0.3873
-0.1618 1.4915 0.3872
-0.2940 1.4700 0.3869
-0.4234 1.4361 0.3864
-0.5489 1.3903 0.3857
-0.6693 1.3330 0.3849
-0.7835 1.2648 0.3839
-0.8906 1.1864 0.3828
-0.9896 1.0986 0.3816
-5.5460 5.1486 1.9529
-5.9487 4.6068 1.9417
-6.2972 4.0331 1.9298
-6.5892 3.4332 1.9174
-6.8231 2.8129 1.9046
-7.0005 2.1787 1.8921
-7.1310 1.5379 1.8826
-7.2030 0.8912 1.8731
-7.2168 0.2440 1.8635
-7.1730 -0.3986 1.8540
-7.0730 -1.0315 1.8446
-6.9224 -1.6510 1.8366
-6.7278 -2.2552 1.8312
-6.4815 -2.8382 1.8260
-6.1857 -3.3958 1.8211
-5.8431 -3.9238 1.8164
-1.0648 -0.8623 0.3536
-0.9802 -0.9504 0.3523
-0.8886 -1.0307 0.3512
-0.7908 -1.1026 0.3502
-0.6876 -1.1657 0.3493
-0.5796 -1.2197 0.3485
-0.4676 -1.2642 0.3479
-0.3525 -1.2990 0.3474
-0.2350 -1.3239 0.3470
-0.1159 -1.3388 0.3468
0.0040 -1.3435 0.3467
0.1238 -1.3381 0.3468
0.2428 -1.3225 0.3470
0.3601 -1.2970 0.3474
0.4751 -1.2615 0.3479
0.5868 -1.2163 0.3485
0.6945 -1.1617 0.3493
0.7974 -1.0980 0.3502
0.8948 -1.0255 0.3512
0.9859 -0.9447 0.3524
1.0700 -0.8561 0.3536
5.8672 -3.8901 1.8167
6.2069 -3.3600 1.8214
6.4994 -2.8006 1.8264
6.7425 -2.2161 1.8316
6.9335 -1.6106 1.8370
7.0817 -0.9903 1.8453
3.2433 -0.1611 0.8380
3.2420 0.1287 0.8373
3.2407 0.4203 0.8433
3.2394 0.7186 0.8563
3.2380 1.0287 0.8768
6.8100 2.8544 1.9056
6.5721 3.4736 1.9184
6.2763 4.0720 1.9308
5.9242 4.6438 1.9426
1.0739 1.0088 0.3803
0.9832 1.1045 0.3816
0.8837 1.1917 0.3829
0.7761 1.2695 0.3840
0.6614 1.3370 0.3849
0.5407 1.3936 0.3858
0.4150 1.4386 0.3864
0.2853 1.4717 0.3869
0.1531 1.4925 0.3872
0.0193 1.5006 0.3873
-0.1146 1.4961 0.3872
-0.2474 1.4790 0.3870
-0.3779 1.4495 0.3866
-0.5049 1.4079 0.3860
-0.6272 1.3546 0.3852
-0.7438 1.2901 0.3843
-0.8535 1.2153 0.3832
-0.9555 1.1308 0.3820
-1.0488 1.0374 0.3807
-5.8120 4.8029 1.9458
-6.1800 4.2398 1.9341
-6.4922 3.6485 1.9219
-6.7469 3.0348 1.9092
-6.9429 2.4044 1.8962
-7.0914 1.7661 1.8860
-7.1842 1.1209 1.8765
-7.2185 0.4732 1.8669
-7.1950 -0.1716 1.8574
-7.1148 -0.8085 1.8479
-6.9794 -1.4327 1.8387
-6.8028 -2.0432 1.8331
-6.5746 -2.6342 1.8278
-6.2961 -3.2012 1.8228
-5.9698 -3.7402 1.8180
-1.0931 -0.8292 0.3541
-1.0110 -0.9200 0.3528
-0.9218 -1.0032 0.3516
-0.8262 -1.0781 0.3505
-0.7248 -1.1444 0.3496
-0.6184 -1.2016 0.3488
-0.5077 -1.2495 0.3481
-0.3936 -1.2878 0.3475
-0.2769 -1.3162 0.3471
-0.1583 -1.3346 0.3468
-0.0386 -1.3430 0.3467
0.0813 -1.3412 0.3467
0.2007 -1.3292 0.3469
0.3188 -1.3072 0.3472
0.4347 -1.2752 0.3477
0.5476 -1.2334 0.3483
0.6568 -1.1822 0.3490
0.7615 -1.1216 0.3499
0.8609 -1.0522 0.3509
0.9543 -0.9743 0.3520
1.0410 -0.8884 0.3532
5.7361 -4.0703 1.8151
6.0916 -3.5515 1.8197
6.4012 -3.0021 1.8246
6.6621 -2.4260 1.8297
6.8718 -1.8274 1.8350
7.0343 -1.2119 1.8421
7.1502 -0.5826 1.8514
3.2425 0.0260 0.8368
3.2412 0.3164 0.8404
3.2398 0.6118 0.8509
3.2385 0.9170 0.8686
6.8802 2.6310 1.9010
6.6632 3.2561 1.9139
6.3877 3.8626 1.9264
6.0554 4.4445 1.9385
1.1039 0.9730 0.3797
1.0164 1.0715 0.3812
0.9199 1.1618 0.3824
0.8151 1.2430 0.3836
0.7029 1.3142 0.3846
0.5841 1.3748 0.3855
0.4600 1.4240 0.3862
0.3317 1.4614 0.3867
0.2002 1.4865 0.3871
0.0668 1.4992 0.3873
-0.0671 1.4992 0.3873
-0.2005 1.4865 0.3871
-0.3320 1.4614 0.3867
-0.4603 1.4240 0.3862
-0.5845 1.3748 0.3855
-0.7032 1.3142 0.3847
-0.8154 1.2430 0.3836
-0.9202 1.1618 0.3825
-1.0168 1.0715 0.3812
-5.6686 4.9946 1.9497
-6.0558 4.4430 1.9383
-6.3880 3.8610 1.9263
-6.6632 3.2546 1.9137
-6.8802 2.6294 1.9008
-7.0445 1.9933 1.8893
-7.1580 1.3502 1.8798
-7.2130 0.7028 1.8703
-7.2099 0.0564 1.8607
-7.1497 -0.5839 1.8513
-7.0336 -1.2131 1.8420
-6.8712 -1.8286 1.8350
-6.6614 -2.4271 1.8297
-6.4005 -3.0032 1.8246
-6.0908 -3.5525 1.8197
-5.7351 -4.0713 1.8151
-1.0410 -0.8887 0.3532
-0.9542 -0.9746 0.3520
-0.8608 -1.0525 0.3509
-0.7613 -1.1219 0.3499
-0.6566 -1.1824 0.3490
-0.5474 -1.2336 0.3483
-0.4344 -1.2753 0.3477
-0.3185 -1.3073 0.3472
-0.2005 -1.3293 0.3469
-0.0811 -1.3412 0.3467
0.0388 -1.3430 0.3467
0.1585 -1.3346 0.3468
0.2771 -1.3161 0.3471
0.3939 -1.2877 0.3475
0.5079 -1.2493 0.3480
0.6185 -1.2014 0.3487
0.7249 -1.1441 0.3495
0.8263 -1.0778 0.3505
0.9219 -1.0029 0.3516
1.0111 -0.9197 0.3527
5.5995 -4.2462 1.8136
5.9707 -3.7392 1.8181
6.2969 -3.2001 1.8229
6.5754 -2.6330 1.8279
6.8035 -2.0419 1.8331
6.9801 -1.4314 1.8388
7.1154 -0.8072 1.8481
3.2429 -0.0767 0.8371
3.2416 0.2131 0.8384
3.2403 0.5062 0.8464
3.2390 0.8073 0.8614
3.2376 1.1219 0.8843
6.7469 3.0363 1.9094
6.4920 3.6500 1.9220
6.1796 4.2413 1.9343
5.8115 4.8043 1.9459
1.0485 1.0375 0.3807
0.9551 1.1308 0.3820
0.8532 1.2153 0.3832
0.7434 1.2902 0.3843
0.6269 1.3546 0.3852
0.5046 1.4079 0.3860
0.3776 1.4495 0.3866
0.2471 1.4790 0.3870
0.1143 1.4961 0.3872
-0.0196 1.5006 0.3873
-0.1533 1.4925 0.3872
-0.2856 1.4717 0.3869
-0.4152 1.4386 0.3864
-0.5410 1.3935 0.3858
-0.6618 1.3369 0.3850
-0.7764 1.2694 0.3840
-0.8840 1.1917 0.3829
-0.9835 1.1045 0.3817
-1.0743 1.0087 0.3803
-5.9247 4.6424 1.9424
-6.2766 4.0705 1.9306
-6.5723 3.4721 1.9182
-6.8100 2.8529 1.9054
-6.9902 2.2192 1.8927
-7.1245 1.5790 1.8832
-7.2002 0.9325 1.8737
-7.2176 0.2852 1.8641
-7.1775 -0.3579 1.8546
-7.0811 -0.9916 1.8452
-6.9329 -1.6119 1.8369
-6.7418 -2.2173 1.8315
-6.4987 -2.8018 1.8263
-6.2060 -3.3610 1.8214
-5.8663 -3.8911 1.8167
-1.0700 -0.8564 0.3537
-0.9858 -0.9450 0.3524
-0.8947 -1.0258 0.3513
-0.7972 -1.0983 0.3502
-0.6943 -1.1620 0.3493
-0.5866 -1.2165 0.3485
-0.4749 -1.2617 0.3479
-0.3599 -1.2971 0.3474
-0.2425 -1.3226 0.3470
-0.1235 -1.3381 0.3468
-0.0037 -1.3435 0.3467
0.1162 -1.3387 0.3468
0.2352 -1.3238 0.3470
0.3527 -1.2989 0.3473
0.4678 -1.2640 0.3478
0.5798 -1.2195 0.3485
0.6877 -1.1655 0.3492
0.7910 -1.1023 0.3501
0.8887 -1.0304 0.3512
0.9803 -0.9501 0.3523
1.0649 -0.8620 0.3536
5.8441 -3.9228 1.8164
6.1866 -3.3947 1.8211
6.4823 -2.8371 1.8261
6.7285 -2.2540 1.8313
6.9229 -1.6497 1.8366
7.0737 -1.0302 1.8448
3.2434 -0.1796 0.8383
3.2421 0.1102 0.8372
3.2408 0.4016 0.8427
3.2394 0.6993 0.8553
3.2381 1.0084 0.8752
6.8232 2.8144 1.9048
6.5890 3.4347 1.9176
6.2969 4.0346 1.9300
5.9483 4.6083 1.9418
1.0794 1.0025 0.3802
0.9893 1.0987 0.3815
0.8903 1.1864 0.3828
0.7832 1.2648 0.3839
0.6690 1.3330 0.3849
0.5486 1.3903 0.3857
0.4231 1.4361 0.3864
0.2937 1.4700 0.3869
0.1616 1.4915 0.3872
0.0279 1.5005 0.3873
-0.1060 1.4968 0.3872
-0.2390 1.4805 0.3870
-0.3697 1.4518 0.3866
-0.4969 1.4109 0.3860
-0.6196 1.3583 0.3853
-0.7365 1.2946 0.3844
-0.8467 1.2204 0.3833
-0.9492 1.1364 0.3821
-1.0432 1.0436 0.3808
-5.7867 4.8377 1.9465
-6.1582 4.2766 1.9349
-6.4740 3.6870 1.9227
-6.7324 3.0745 1.9100
-6.9322 2.4450 1.8970
-7.0836 1.8070 1.8866
-7.1800 1.1621 1.8771
-7.2181 0.5145 1.8675
-7.1982 -0.1307 1.8580
-7.1216 -0.7683 1.8485
-6.9896 -1.3934 1.8393
-6.8156 -2.0048 1.8334
-6.5907 -2.5972 1.8282
-6.3153 -3.1659 1.8231
-5.9920 -3.7067 1.8183
-5.6235 -4.2159 1.8138
-1.0165 -0.9145 0.3529
-0.9277 -0.9981 0.3517
-0.8324 -1.0736 0.3506
-0.7314 -1.1404 0.3496
-0.6253 -1.1982 0.3488
-0.5149 -1.2468 0.3481
-0.4010 -1.2856 0.3475
-0.2844 -1.3147 0.3471
-0.1659 -1.3338 0.3469
-0.0462 -1.3427 0.3467
0.0737 -1.3416 0.3467
0.1932 -1.3303 0.3469
0.3113 -1.3089 0.3472
0.4273 -1.2775 0.3476
0.5405 -1.2364 0.3482
0.6499 -1.1857 0.3490
0.7549 -1.1258 0.3498
0.8547 -1.0569 0.3508
1.0542 -0.8239 0.3541
5.7687 -3.7309 1.8181
6.0939 -3.2096 1.8228
6.3729 -2.6604 1.8276
6.6031 -2.0872 1.8327
6.7824 -1.4943 1.8380
6.9218 -0.8877 1.8469
3.2432 -0.1241 0.8589
3.2418 0.1657 0.8591
3.2405 0.4579 0.8661
3.2392 0.7574 0.8804
3.2378 1.0693 0.9024
6.6088 2.8590 1.9057
6.3687 3.4595 1.9181
6.0725 4.0388 1.9301
5.7217 4.5913 1.9415
1.0354 0.9951 0.3801
0.9458 1.0872 0.3814
0.8477 1.1709 0.3826
0.7420 1.2453 0.3836
0.6295 1.3097 0.3846
0.5112 1.3633 0.3853
0.3882 1.4057 0.3859
0.2615 1.4363 0.3864
0.1325 1.4549 0.3866
0.0022 1.4613 0.3867
-0.1281 1.4554 0.3867
-0.2572 1.4372 0.3864
-0.3840 1.4070 0.3860
-0.5071 1.3650 0.3854
-0.6256 1.3117 0.3846
-0.7384 1.2478 0.3837
-0.8444 1.1737 0.3827
-0.9428 1.0903 0.3815
-1.0327 0.9984 0.3802
-5.7087 4.6091 1.9418
-6.0612 4.0576 1.9304
-6.3593 3.4791 1.9184
-6.6012 2.8793 1.9060
-6.7865 2.2640 1.8933
-6.9275 1.6417 1.8842
-7.0115 1.0123 1.8748
-7.0387 0.3810 1.8655
-7.0096 -0.2471 1.8562
-6.9253 -0.8670 1.8471
-6.7873 -1.4740 1.8381
-6.6098 -2.0675 1.8329
-6.3813 -2.6414 1.8278
-6.1039 -3.1915 1.8229
-5.7802 -3.7137 1.8183
-1.0570 -0.8210 0.3542
-0.9761 -0.9087 0.3529
-0.8882 -0.9889 0.3518
-0.7942 -1.0611 0.3508
-0.6945 -1.1248 0.3499
-0.5901 -1.1796 0.3491
-0.4817 -1.2252 0.3484
-0.3699 -1.2614 0.3479
-0.2557 -1.2880 0.3475
-0.1397 -1.3047 0.3473
-0.0227 -1.3116 0.3472
0.0943 -1.3086 0.3472
0.2108 -1.2956 0.3474
0.3258 -1.2728 0.3477
0.4386 -1.2403 0.3482
0.5484 -1.1983 0.3488
0.6545 -1.1470 0.3495
0.7560 -1.0868 0.3504
0.8523 -1.0178 0.3513
0.9426 -0.9407 0.3524
1.0263 -0.8558 0.3537
5.6427 -3.9082 1.8166
5.9837 -3.3979 1.8211
6.2794 -2.8581 1.8259
6.5272 -2.2930 1.8309
6.7247 -1.7065 1.8361
6.8783 -1.1045 1.8437
6.9837 -0.4890 1.8528
3.2423 0.0629 0.8582
3.2410 0.3537 0.8628
3.2397 0.6500 0.8745
3.2383 0.9569 0.8937
6.6803 2.6421 1.9012
6.4604 3.2487 1.9137
6.1838 3.8361 1.9259
5.8522 4.3988 1.9375
1.0650 0.9606 0.3796
0.9786 1.0555 0.3809
0.8834 1.1423 0.3822
0.7803 1.2200 0.3833
0.6701 1.2880 0.3842
0.5537 1.3455 0.3851
0.4322 1.3920 0.3857
0.3068 1.4268 0.3862
0.1785 1.4497 0.3866
0.0485 1.4605 0.3867
-0.0820 1.4589 0.3867
-0.2117 1.4450 0.3865
-0.3394 1.4190 0.3861
-0.4639 1.3812 0.3856
-0.5842 1.3319 0.3849
-0.6991 1.2716 0.3840
-0.8076 1.2011 0.3830
-0.9088 1.1209 0.3819
-1.0018 1.0319 0.3806
-5.5710 4.7971 1.9456
-5.9423 4.2565 1.9345
-6.2599 3.6870 1.9227
-6.5219 3.0941 1.9104
-6.7271 2.4836 1.8978
-6.8840 1.8634 1.8874
-6.9883 1.2359 1.8782
-7.0355 0.6047 1.8688
-7.0263 -0.0251 1.8595
-6.9614 -0.6484 1.8503
-6.8422 -1.2605 1.8413
-6.6787 -1.8591 1.8347
-6.4680 -2.4405 1.8296
-6.2077 -2.9994 1.8246
-5.9001 -3.5320 1.8199
-1.0839 -0.7881 0.3547
-1.0056 -0.8785 0.3534
-0.9201 -0.9614 0.3522
-0.8282 -1.0365 0.3511
-0.7304 -1.1032 0.3502
-0.6277 -1.1612 0.3493
-0.5205 -1.2101 0.3486
-0.4099 -1.2497 0.3481
-0.2964 -1.2797 0.3476
-0.1809 -1.2999 0.3473
-0.0643 -1.3103 0.3472
0.0529 -1.3108 0.3472
0.1696 -1.3013 0.3473
0.2852 -1.2820 0.3476
0.3989 -1.2530 0.3480
0.5099 -1.2143 0.3485
0.6174 -1.1663 0.3492
0.7206 -1.1091 0.3500
0.8188 -1.0432 0.3510
0.9113 -0.9690 0.3520
0.9974 -0.8868 0.3532
1.0764 -0.7971 0.3545
5.8679 -3.5824 1.8195
6.1799 -3.0526 1.8242
6.4450 -2.4960 1.8291
6.6606 -1.9166 1.8343
6.8281 -1.3194 1.8405
6.9525 -0.7086 1.8495
3.2428 -0.0398 0.8583
3.2415 0.2502 0.8604
3.2402 0.5440 0.8695
3.2388 0.8465 0.8859
3.2374 1.1633 0.9104
6.5449 3.0355 1.9093
6.2883 3.6304 1.9216
5.9760 4.2025 1.9335
1.0935 0.9251 0.3791
1.0103 1.0227 0.3805
0.9181 1.1125 0.3817
0.8177 1.1935 0.3829
0.7099 1.2651 0.3839
0.5956 1.3264 0.3848
0.4758 1.3768 0.3855
0.3517 1.4158 0.3861
0.2242 1.4430 0.3865
0.0947 1.4581 0.3867
-0.0358 1.4608 0.3867
-0.1658 1.4513 0.3866
-0.2944 1.4296 0.3863
-0.4202 1.3959 0.3858
-0.5421 1.3506 0.3852
-0.6591 1.2942 0.3844
-0.7699 1.2272 0.3834
-0.8738 1.1504 0.3823
-0.9698 1.0644 0.3811
-1.0572 0.9703 0.3798
-5.8167 4.4518 1.9385
-6.1536 3.8919 1.9269
-6.4355 3.3066 1.9148
-6.6609 2.7017 1.9023
-6.8334 2.0841 1.8907
-6.9578 1.4591 1.8815
-7.0253 0.8286 1.8721
-7.0360 0.1978 1.8628
-6.9907 -0.4284 1.8536
-6.8906 -1.0450 1.8444
-6.7410 -1.6484 1.8366
-6.5485 -2.2367 1.8314
-6.3055 -2.8041 1.8263
-6.0144 -3.3464 1.8215
-5.6777 -3.8598 1.8170
-1.0342 -0.8472 0.3538
-0.9512 -0.9329 0.3526
-0.8615 -1.0108 0.3515
-0.7657 -1.0805 0.3505
-0.6646 -1.1416 0.3496
-0.5590 -1.1938 0.3489
-0.4495 -1.2367 0.3482
-0.3369 -1.2701 0.3478
-0.2221 -1.2939 0.3474
-0.1057 -1.3078 0.3472
0.0113 -1.3117 0.3472
0.1283 -1.3058 0.3472
0.2444 -1.2900 0.3475
0.3589 -1.2644 0.3478
0.4709 -1.2291 0.3483
0.5797 -1.1844 0.3490
0.6845 -1.1304 0.3497
0.7846 -1.0676 0.3506
0.8792 -0.9962 0.3517
0.9677 -0.9168 0.3528
1.0493 -0.8297 0.3540
5.7464 -3.7631 1.8179
6.0745 -3.2437 1.8225
6.3565 -2.6962 1.8273
6.5899 -2.1244 1.8324
6.7725 -1.5326 1.8377
6.9145 -0.9268 1.8463
3.2432 -0.1426 0.8592
3.2419 0.1472 0.8589
3.2406 0.4391 0.8655
3.2393 0.7379 0.8792
3.2379 1.0490 0.9008
6.6222 2.8202 1.9049
6.3857 3.4218 1.9173
6.0930 4.0026 1.9293
5.7457 4.5570 1.9408
1.0408 0.9889 0.3800
0.9518 1.0816 0.3813
0.8542 1.1658 0.3825
0.7489 1.2409 0.3836
0.6368 1.3059 0.3845
0.5189 1.3602 0.3853
0.3961 1.4033 0.3859
0.2697 1.4347 0.3863
0.1408 1.4541 0.3866
0.0105 1.4613 0.3867
-0.1198 1.4561 0.3867
-0.2491 1.4387 0.3864
-0.3760 1.4092 0.3860
-0.4994 1.3680 0.3854
-0.6182 1.3155 0.3847
-0.7314 1.2521 0.3838
-0.8379 1.1787 0.3827
-0.9367 1.0959 0.3815
-1.0272 1.0045 0.3802
-5.6844 4.6432 1.9425
-6.0403 4.0936 1.9311
-6.3419 3.5167 1.9192
-6.5875 2.9181 1.9068
-6.7760 2.3035 1.8941
-6.9202 1.6816 1.8847
-7.0079 1.0525 1.8754
-7.0386 0.4212 1.8661
-7.0131 -0.2072 1.8568
-6.9322 -0.8278 1.8477
-6.7976 -1.4357 1.8387
-6.6226 -2.0302 1.8332
-6.3973 -2.6055 1.8281
-6.1230 -3.1572 1.8232
-5.8021 -3.6813 1.8185
-1.0619 -0.8151 0.3543
-0.9814 -0.9034 0.3530
-0.8940 -0.9841 0.3519
-0.8003 -1.0568 0.3508
-0.7010 -1.1210 0.3499
-0.5969 -1.1764 0.3491
-0.4887 -1.2226 0.3485
-0.3771 -1.2594 0.3479
-0.2630 -1.2866 0.3475
-0.1471 -1.3040 0.3473
-0.0302 -1.3115 0.3472
0.0869 -1.3091 0.3472
0.2034 -1.2967 0.3474
0.3185 -1.2746 0.3477
0.4315 -1.2427 0.3481
0.5415 -1.2013 0.3487
0.6478 -1.1506 0.3495
0.7497 -1.0909 0.3503
0.8464 -1.0225 0.3513
0.9371 -0.9459 0.3524
1.0212 -0.8614 0.3536
5.6195 -3.9397 1.8163
5.9633 -3.4313 1.8208
6.2620 -2.8933 1.8256
6.5129 -2.3297 1.8306
6.7137 -1.7445 1.8358
6.8697 -1.1433 1.8431
6.9786 -0.5286 1.8522
3.2424 0.0444 0.8582
3.2411 0.3351 0.8623
3.2398 0.6309 0.8735
3.2384 0.9369 0.8922
6.6924 2.6029 1.9004
6.4761 3.2105 1.9130
6.2031 3.7994 1.9251
5.8750 4.3637 1.9368
1.0702 0.9542 0.3795
0.9844 1.0497 0.3808
0.8898 1.1370 0.3821
0.7871 1.2154 0.3832
0.6773 1.2840 0.3842
0.5613 1.3422 0.3850
0.4401 1.3893 0.3857
0.3149 1.4249 0.3862
0.1867 1.4486 0.3866
0.0568 1.4601 0.3867
-0.0737 1.4593 0.3867
-0.2034 1.4463 0.3865
-0.3313 1.4211 0.3862
-0.4561 1.3840 0.3856
-0.5767 1.3354 0.3850
-0.6920 1.2758 0.3841
-0.8009 1.2059 0.3831
-0.9026 1.1263 0.3820
-0.9962 1.0379 0.3807
-5.5456 4.8305 1.9463
-5.9202 4.2919 1.9352
-6.2413 3.7240 1.9235
-6.5069 3.1325 1.9112
-6.7158 2.5229 1.8986
-6.8754 1.9032 1.8880
-6.9833 1.2761 1.8787
-7.0342 0.6450 1.8694
-7.0285 0.0149 1.8601
-6.9672 -0.6089 1.8509
-6.8514 -1.2219 1.8418
-6.6904 -1.8214 1.8350
-6.4829 -2.4040 1.8299
-6.2257 -2.9645 1.8249
-5.9211 -3.4989 1.8202
-1.0886 -0.7821 0.3547
-1.0108 -0.8729 0.3535
-0.9258 -0.9563 0.3523
-0.8342 -1.0319 0.3512
-0.7368 -1.0992 0.3502
-0.6343 -1.1578 0.3494
-0.5275 -1.2073 0.3487
-0.4170 -1.2474 0.3481
-0.3037 -1.2781 0.3477
-0.1884 -1.2989 0.3474
-0.0717 -1.3099 0.3472
0.0454 -1.3110 0.3472
0.1622 -1.3022 0.3473
0.2779 -1.2836 0.3476
0.3917 -1.2551 0.3480
0.5029 -1.2171 0.3485
0.6106 -1.1696 0.3492
0.7141 -1.1130 0.3500
0.8127 -1.0477 0.3509
0.9056 -0.9739 0.3520
0.9922 -0.8922 0.3531
1.0716 -0.8031 0.3544
5.8464 -3.6152 1.8192
6.1614 -3.0872 1.8239
6.4295 -2.5322 1.8288
6.6483 -1.9542 1.8339
6.8183 -1.3579 1.8399
6.9462 -0.7480 1.8489
3.2429 -0.0582 0.8584
3.2416 0.2317 0.8601
3.2402 0.5251 0.8687
3.2389 0.8269 0.8847
3.2375 1.1426 0.9086
6.5593 2.9969 1.9085
6.3063 3.5931 1.9209
5.9975 4.1668 1.9327
1.0984 0.9187 0.3790
1.0159 1.0167 0.3804
0.9243 1.1070 0.3817
0.8244 1.1886 0.3828
0.7170 1.2608 0.3839
0.6031 1.3228 0.3847
0.4836 1.3739 0.3855
0.3597 1.4137 0.3860
0.2324 1.4416 0.3864
0.1030 1.4575 0.3867
-0.0274 1.4610 0.3867
-0.1576 1.4523 0.3866
-0.2863 1.4314 0.3863
-0.4123 1.3984 0.3858
-0.5345 1.3539 0.3852
-0.6518 1.2981 0.3844
-0.7631 1.2318 0.3835
-0.8674 1.1555 0.3824
-0.9640 1.0702 0.3812
-1.0519 0.9765 0.3798
-5.7934 4.4865 1.9392
-6.1337 3.9284 1.9277
-6.4192 3.3446 1.9156
-6.6483 2.7408 1.9031
-6.8235 2.1236 1.8913
-6.9516 1.4992 1.8820
-7.0227 0.8689 1.8727
-7.0370 0.2379 1.8634
-6.9952 -0.3887 1.8541
-6.8986 -1.0061 1.8450
-6.7516 -1.6103 1.8369
-6.5623 -2.1997 1.8317
-6.3225 -2.7686 1.8266
-6.0344 -3.3127 1.8218
-5.7005 -3.8280 1.8172
-1.0392 -0.8415 0.3539
-0.9567 -0.9276 0.3527
-0.8674 -1.0061 0.3515
-0.7720 -1.0763 0.3505
-0.6712 -1.1380 0.3497
-0.5658 -1.1908 0.3489
-0.4566 -1.2343 0.3483
-0.3442 -1.2683 0.3478
-0.2294 -1.2926 0.3474
-0.1132 -1.3072 0.3472
0.0039 -1.3118 0.3472
0.1209 -1.3065 0.3472
0.2371 -1.2913 0.3475
0.3516 -1.2663 0.3478
0.4638 -1.2316 0.3483
0.5729 -1.1875 0.3489
0.6780 -1.1341 0.3497
0.7784 -1.0719 0.3506
0.8734 -1.0010 0.3516
0.9622 -0.9221 0.3527
1.0443 -0.8355 0.3539
5.7240 -3.7951 1.8176
6.0549 -3.2777 1.8222
6.3399 -2.7319 1.8270
6.5765 -2.1615 1.8321
6.7624 -1.5708 1.8373
6.9069 -0.9658 1.8457
3.2433 -0.1611 0.8594
3.2420 0.1287 0.8587
3.2407 0.4203 0.8648
3.2394 0.7186 0.8781
3.2380 1.0287 0.8991
6.6354 2.7812 1.9041
6.4025 3.3840 1.9165
6.1133 3.9663 1.9286
5.7694 4.5225 1.9401
1.0462 0.9828 0.3799
0.9577 1.0759 0.3812
0.8607 1.1607 0.3824
0.7559 1.2364 0.3835
0.6442 1.3020 0.3844
0.5265 1.3571 0.3852
0.4041 1.4009 0.3859
0.2778 1.4331 0.3863
0.1490 1.4532 0.3866
0.0188 1.4612 0.3867
-0.1115 1.4568 0.3867
-0.2409 1.4402 0.3864
-0.3680 1.4115 0.3860
-0.4917 1.3710 0.3855
-0.6108 1.3191 0.3847
-0.7243 1.2565 0.3838
-0.8313 1.1837 0.3828
-0.9307 1.1014 0.3816
-1.0217 1.0106 0.3803
-5.6599 4.6772 1.9432
-6.0192 4.1295 1.9318
-6.3243 3.5542 1.9199
-6.5735 2.9568 1.9076
-6.7657 2.3431 1.8949
-6.9127 1.7216 1.8853
-7.0040 1.0928 1.8760
-7.0384 0.4614 1.8667
-7.0164 -0.1673 1.8574
-6.9390 -0.7885 1.8482
-6.8077 -1.3974 1.8392
-6.6353 -1.9928 1.8335
-6.4132 -2.5695 1.8284
-6.1419 -3.1228 1.8235
-5.8239 -3.6488 1.8188
-1.0668 -0.8093 0.3544
-0.9868 -0.8980 0.3531
-0.8998 -0.9792 0.3519
-0.8065 -1.0524 0.3509
-0.7075 -1.1171 0.3500
-0.6037 -1.1731 0.3492
-0.4957 -1.2199 0.3485
-0.3843 -1.2573 0.3480
-0.2703 -1.2851 0.3476
-0.1545 -1.3031 0.3473
-0.0377 -1.3113 0.3472
0.0794 -1.3095 0.3472
0.1960 -1.2978 0.3474
0.3112 -1.2763 0.3477
0.4244 -1.2450 0.3481
0.5346 -1.2042 0.3487
0.6412 -1.1541 0.3494
0.7434 -1.0949 0.3502
0.8404 -1.0271 0.3512
0.9315 -0.9510 0.3523
1.0160 -0.8670 0.3535
5.5961 -3.9710 1.8160
5.9427 -3.4647 1.8205
6.2443 -2.9285 1.8253
6.4983 -2.3663 1.8303
6.7024 -1.7824 1.8354
6.8610 -1.1820 1.8425
6.9732 -0.5682 1.8516
3.2425 0.0260 0.8582
3.2412 0.3164 0.8619
3.2398 0.6118 0.8726
3.2385 0.9170 0.8908
6.7042 2.5637 1.8996
6.4916 3.1723 1.9122
6.2222 3.7625 1.9244
5.8975 4.3286 1.9361
1.0754 0.9479 0.3794
0.9901 1.0438 0.3808
0.8960 1.1317 0.3820
0.7939 1.2106 0.3831
0.6845 1.2799 0.3841
0.5689 1.3388 0.3850
0.4480 1.3867 0.3857
0.3230 1.4230 0.3862
0.1949 1.4475 0.3865
0.0651 1.4598 0.3867
-0.0654 1.4598 0.3867
-0.1952 1.4475 0.3865
-0.3232 1.4230 0.3862
-0.4483 1.3867 0.3857
-0.5692 1.3388 0.3850
-0.6848 1.2799 0.3842
-0.7942 1.2106 0.3832
-0.8963 1.1316 0.3821
-0.9904 1.0437 0.3808
-1.0757 0.9478 0.3794
-5.8979 4.3271 1.9359
-6.2225 3.7610 1.9242
-6.4917 3.1708 1.9120
-6.7042 2.5622 1.8994
-6.8666 1.9429 1.8886
-6.9782 1.3163 1.8793
-7.0327 0.6852 1.8700
-7.0306 0.0550 1.8607
-6.9727 -0.5694 1.8515
-6.8604 -1.1832 1.8424
-6.7018 -1.7836 1.8354
-6.4977 -2.3675 1.8302
-6.2436 -2.9295 1.8252
-5.9419 -3.4657 1.8205
-1.0933 -0.7761 0.3548
-1.0160 -0.8673 0.3535
-0.9314 -0.9513 0.3523
-0.8403 -1.0274 0.3512
-0.7432 -1.0952 0.3503
-0.6410 -1.1543 0.3494
-0.5344 -1.2044 0.3487
-0.4242 -1.2452 0.3481
-0.3110 -1.2764 0.3477
-0.1958 -1.2979 0.3474
-0.0792 -1.3095 0.3472
0.0379 -1.3113 0.3472
0.1548 -1.3031 0.3473
0.2706 -1.2850 0.3475
0.3845 -1.2572 0.3479
0.4959 -1.2198 0.3485
0.6039 -1.1729 0.3491
0.7077 -1.1169 0.3499
0.8066 -1.0521 0.3509
0.8999 -0.9789 0.3519
0.9868 -0.8977 0.3531
1.0668 -0.8090 0.3543
5.8248 -3.6478 1.8189
6.1427 -3.1218 1.8236
6.4139 -2.5684 1.8285
6.6359 -1.9916 1.8336
6.8084 -1.3962 1.8393
6.9396 -0.7873 1.8483
3.2429 -0.0767 0.8585
3.2416 0.2131 0.8598
3.2403 0.5062 0.8680
3.2390 0.8073 0.8834
3.2376 1.1219 0.9068
6.5735 2.9583 1.9077
6.3242 3.5556 1.9201
6.0189 4.1310 1.9320
1.1034 0.9122 0.3789
1.0214 1.0107 0.3803
0.9304 1.1015 0.3816
0.8310 1.1837 0.3828
0.7241 1.2565 0.3838
0.6105 1.3192 0.3847
0.4914 1.3710 0.3854
0.3677 1.4115 0.3860
0.2406 1.4402 0.3864
0.1113 1.4568 0.3867
-0.0191 1.4612 0.3867
-0.1493 1.4532 0.3866
-0.2781 1.4331 0.3863
-0.4044 1.4009 0.3859
-0.5268 1.3571 0.3853
-0.6445 1.3020 0.3845
-0.7562 1.2363 0.3835
-0.8610 1.1607 0.3825
-0.9581 1.0759 0.3813
-1.0465 0.9827 0.3799
-5.7699 4.5211 1.9399
-6.1136 3.9648 1.9284
-6.4026 3.3825 1.9164
-6.6354 2.7797 1.9039
-6.8134 2.1631 1.8919
-6.9451 1.5392 1.8826
-7.0199 0.9091 1.8733
-7.0378 0.2780 1.8640
-6.9995 -0.3490 1.8547
-6.9063 -0.9671 1.8456
-6.7619 -1.5721 1.8373
-6.5759 -2.1627 1.8320
-6.3392 -2.7330 1.8270
-6.0541 -3.2788 1.8221
-5.7231 -3.7961 1.8175
-1.0443 -0.8358 0.3540
-0.9622 -0.9224 0.3527
-0.8733 -1.0013 0.3516
-0.7782 -1.0721 0.3506
-0.6778 -1.1343 0.3497
-0.5727 -1.1877 0.3490
-0.4636 -1.2318 0.3483
-0.3514 -1.2664 0.3478
-0.2368 -1.2914 0.3475
-0.1206 -1.3065 0.3472
-0.0036 -1.3118 0.3472
0.1134 -1.3071 0.3472
0.2297 -1.2926 0.3474
0.3444 -1.2682 0.3478
0.4568 -1.2341 0.3483
0.5660 -1.1906 0.3489
0.6714 -1.1378 0.3496
0.7721 -1.0761 0.3505
0.8675 -1.0058 0.3515
0.9568 -0.9274 0.3526
1.0393 -0.8412 0.3539
5.7014 -3.8270 1.8173
6.0352 -3.3116 1.8219
6.3232 -2.7675 1.8267
6.5629 -2.1985 1.8318
6.7521 -1.6090 1.8370
6.8992 -1.0048 1.8451
3.2434 -0.1796 0.8597
3.2421 0.1102 0.8585
3.2408 0.4016 0.8642
3.2395 0.6993 0.8771
3.2381 1.0084 0.8976
6.6483 2.7423 1.9033
6.4190 3.3461 1.9158
6.1334 3.9299 1.9278
5.7929 4.4879 1.9394
1.0516 0.9766 0.3798
0.9636 1.0702 0.3811
0.8671 1.1556 0.3824
0.7628 1.2318 0.3834
0.6515 1.2982 0.3844
0.5342 1.3539 0.3852
0.4120 1.3985 0.3858
0.2860 1.4314 0.3863
0.1573 1.4523 0.3866
0.0272 1.4610 0.3867
-0.1032 1.4575 0.3867
-0.2327 1.4416 0.3865
-0.3600 1.4137 0.3861
-0.4839 1.3739 0.3855
-0.6034 1.3228 0.3848
-0.7173 1.2608 0.3839
-0.8247 1.1886 0.3829
-0.9246 1.1069 0.3817
-1.0162 1.0166 0.3804
-5.6352 4.7110 1.9439
-5.9979 4.1653 1.9326
-6.3065 3.5916 1.9207
-6.5594 2.9954 1.9084
-6.7552 2.3826 1.8957
-6.9049 1.7614 1.8859
-6.9999 1.1330 1.8766
-7.0379 0.5016 1.8673
-7.0194 -0.1274 1.8580
-6.9456 -0.7493 1.8488
-6.8177 -1.3591 1.8398
-6.6477 -1.9554 1.8339
-6.4288 -2.5334 1.8287
-6.1606 -3.0883 1.8238
-5.8456 -3.6162 1.8191
-1.0716 -0.8034 0.3544
-0.9921 -0.8925 0.3532
-0.9055 -0.9742 0.3520
-0.8126 -1.0479 0.3510
-0.7140 -1.1133 0.3500
-0.6104 -1.1698 0.3492
-0.5027 -1.2172 0.3485
-0.3915 -1.2552 0.3480
-0.2777 -1.2836 0.3476
-0.1620 -1.3023 0.3473
-0.0451 -1.3111 0.3472
0.0720 -1.3099 0.3472
0.1886 -1.2989 0.3473
0.3039 -1.2779 0.3476
0.4172 -1.2473 0.3481
0.5277 -1.2071 0.3486
0.6345 -1.1576 0.3494
0.7370 -1.0990 0.3502
0.8343 -1.0317 0.3511
1.0294 -0.8045 0.3544
5.6307 -3.6416 1.8189
5.9478 -3.1327 1.8235
6.2197 -2.5965 1.8282
6.4439 -2.0369 1.8332
6.6188 -1.4583 1.8384
6.7545 -0.8662 1.8472
3.2432 -0.1241 0.8804
3.2419 0.1657 0.8805
3.2405 0.4579 0.8877
3.2392 0.7574 0.9023
3.2378 1.0693 0.9249
6.4430 2.7873 1.9042
6.2079 3.3721 1.9163
5.9181 3.9361 1.9279
1.0878 0.8729 0.3783
1.0093 0.9700 0.3797
0.9219 1.0597 0.3810
0.8262 1.1411 0.3821
0.7231 1.2136 0.3832
0.6134 1.2762 0.3841
0.4981 1.3284 0.3848
0.3782 1.3696 0.3854
0.2548 1.3995 0.3858
0.1291 1.4176 0.3861
0.0021 1.4238 0.3862
-0.1248 1.4180 0.3861
-0.2506 1.4003 0.3859
-0.3741 1.3709 0.3855
-0.4942 1.3300 0.3849
-0.6096 1.2782 0.3841
-0.7196 1.2159 0.3833
-0.8229 1.1438 0.3822
-0.9189 1.0627 0.3811
-1.0066 0.9732 0.3798
-5.5627 4.4912 1.9393
-5.9071 3.9544 1.9282
-6.1986 3.3912 1.9166
-6.4355 2.8070 1.9045
-6.6184 2.2079 1.8925
-6.7568 1.6012 1.8836
-6.8396 0.9874 1.8745
-6.8669 0.3717 1.8654
-6.8393 -0.2411 1.8563
-6.7578 -0.8460 1.8474
-6.6239 -1.4385 1.8386
-6.4505 -2.0177 1.8333
-6.2278 -2.5779 1.8283
-5.9575 -3.1150 1.8236
-5.6419 -3.6249 1.8190
-1.0320 -0.8016 0.3545
-0.9531 -0.8874 0.3532
-0.8674 -0.9658 0.3521
-0.7756 -1.0363 0.3511
-0.6784 -1.0986 0.3502
-0.5764 -1.1522 0.3495
-0.4705 -1.1968 0.3488
-0.3614 -1.2322 0.3483
-0.2497 -1.2582 0.3479
-0.1364 -1.2746 0.3477
-0.0222 -1.2813 0.3476
0.0922 -1.2783 0.3476
0.2059 -1.2656 0.3478
0.3183 -1.2434 0.3481
0.4284 -1.2116 0.3486
0.5357 -1.1705 0.3492
0.6393 -1.1203 0.3499
0.7384 -1.0614 0.3507
0.8324 -0.9940 0.3517
0.9205 -0.9186 0.3528
1.0021 -0.8357 0.3539
1.0766 -0.7456 0.3552
5.8404 -3.3165 1.8218
6.1286 -2.7895 1.8265
6.3700 -2.2378 1.8314
6.5624 -1.6653 1.8365
6.7123 -1.0778 1.8441
6.8143 -0.4771 1.8529
3.2423 0.0629 0.8797
3.2410 0.3537 0.8844
3.2397 0.6500 0.8963
3.2383 0.9569 0.9159
6.5130 2.5760 1.8998
6.2975 3.1668 1.9120
6.0270 3.7388 1.9239
5.7029 4.2866 1.9352
1.0382 0.9363 0.3792
0.9538 1.0288 0.3805
0.8610 1.1133 0.3817
0.7604 1.1890 0.3828
0.6530 1.2551 0.3838
0.5396 1.3111 0.3846
0.4212 1.3563 0.3852
0.2989 1.3902 0.3857
0.1739 1.4125 0.3860
0.0472 1.4229 0.3862
-0.0799 1.4214 0.3862
-0.2062 1.4079 0.3860
-0.3307 1.3826 0.3856
-0.4521 1.3458 0.3851
-0.5693 1.2978 0.3844
-0.6813 1.2392 0.3836
-0.7871 1.1705 0.3826
-0.8858 1.0924 0.3815
-0.9765 1.0058 0.3803
-1.0585 0.9115 0.3789
-5.7910 4.1481 1.9322
-6.1014 3.5936 1.9208
-6.3578 3.0162 1.9088
-6.5590 2.4215 1.8965
-6.7141 1.8174 1.8868
-6.8166 1.2056 1.8777
-6.8635 0.5899 1.8686
-6.8553 -0.0245 1.8595
-6.7928 -0.6327 1.8505
-6.6773 -1.2301 1.8417
-6.5175 -1.8142 1.8351
-6.3124 -2.3817 1.8301
-6.0587 -2.9275 1.8252
-5.7589 -3.4474 1.8206
-1.0583 -0.7695 0.3549
-0.9819 -0.8578 0.3537
-0.8985 -0.9389 0.3525
-0.8088 -1.0122 0.3515
-0.7134 -1.0775 0.3505
-0.6131 -1.1342 0.3497
-0.5085 -1.1820 0.3490
-0.4004 -1.2207 0.3485
-0.2896 -1.2500 0.3481
-0.1768 -1.2698 0.3478
-0.0628 -1.2800 0.3476
0.0516 -1.2805 0.3476
0.1657 -1.2712 0.3477
0.2786 -1.2523 0.3480
0.3897 -1.2239 0.3484
0.4980 -1.1861 0.3489
0.6030 -1.1392 0.3496
0.7038 -1.0833 0.3504
0.7997 -1.0189 0.3513
0.8900 -0.9463 0.3524
0.9740 -0.8659 0.3535
1.0510 -0.7783 0.3548
5.7274 -3.4966 1.8202
6.0316 -2.9794 1.8248
6.2899 -2.4360 1.8296
6.4999 -1.8704 1.8347
6.6636 -1.2876 1.8410
6.7842 -0.6915 1.8498
3.2428 -0.0398 0.8797
3.2415 0.2502 0.8819
3.2402 0.5440 0.8912
3.2388 0.8465 0.9080
3.2374 1.1633 0.9331
6.3803 2.9592 1.9078
6.1292 3.5385 1.9197
5.8239 4.0955 1.9312
1.0659 0.9018 0.3787
0.9848 0.9968 0.3801
0.8948 1.0843 0.3813
0.7969 1.1632 0.3825
0.6918 1.2328 0.3835
0.5804 1.2925 0.3843
0.4637 1.3415 0.3850
0.3426 1.3795 0.3856
0.2185 1.4059 0.3859
0.0922 1.4206 0.3862
-0.0348 1.4233 0.3862
-0.1616 1.4141 0.3861
-0.2868 1.3929 0.3858
-0.4094 1.3602 0.3853
-0.5283 1.3161 0.3847
-0.6422 1.2612 0.3839
-0.7503 1.1960 0.3830
-0.8516 1.1211 0.3819
-0.9453 1.0375 0.3807
-1.0305 0.9458 0.3794
-5.6682 4.3382 1.9362
-5.9974 3.7931 1.9249
-6.2732 3.2232 1.9131
-6.4940 2.6340 1.9009
-6.6644 2.0325 1.8899
-6.7866 1.4232 1.8809
-6.8532 0.8083 1.8718
-6.8645 0.1929 1.8627
-6.8211 -0.4180 1.8537
-6.7242 -1.0198 1.8448
-6.5782 -1.6086 1.8369
-6.3908 -2.1828 1.8318
-6.1541 -2.7367 1.8269
-5.8703 -3.2662 1.8222
-1.0835 -0.7366 0.3554
-1.0098 -0.8273 0.3541
-0.9289 -0.9110 0.3529
-0.8413 -0.9871 0.3518
-0.7479 -1.0553 0.3508
-0.6492 -1.1151 0.3500
-0.5460 -1.1661 0.3493
-0.4390 -1.2081 0.3487
-0.3291 -1.2407 0.3482
-0.2169 -1.2639 0.3479
-0.1033 -1.2775 0.3477
0.0111 -1.2814 0.3476
0.1253 -1.2756 0.3477
0.2388 -1.2601 0.3479
0.3506 -1.2351 0.3483
0.4600 -1.2006 0.3487
0.5662 -1.1568 0.3494
0.6686 -1.1041 0.3501
0.7663 -1.0427 0.3510
0.8587 -0.9729 0.3520
0.9450 -0.8953 0.3531
1.0245 -0.8102 0.3543
5.6090 -3.6731 1.8187
5.9289 -3.1660 1.8232
6.2037 -2.6314 1.8279
6.4311 -2.0732 1.8329
6.6088 -1.4956 1.8380
6.7474 -0.9044 1.8466
3.2432 -0.1426 0.8806
3.2419 0.1472 0.8803
3.2406 0.4391 0.8871
3.2393 0.7379 0.9012
3.2379 1.0490 0.9232
6.4561 2.7494 1.9034
6.2245 3.3354 1.9155
5.9382 3.9009 1.9272
1.0925 0.8665 0.3782
1.0146 0.9640 0.3796
0.9277 1.0542 0.3809
0.8325 1.1362 0.3821
0.7299 1.2092 0.3831
0.6206 1.2725 0.3840
0.5056 1.3254 0.3848
0.3860 1.3673 0.3854
0.2628 1.3979 0.3858
0.1372 1.4168 0.3861
0.0103 1.4237 0.3862
-0.1168 1.4187 0.3861
-0.2427 1.4018 0.3859
-0.3663 1.3731 0.3855
-0.4866 1.3330 0.3849
-0.6024 1.2818 0.3842
-0.7127 1.2202 0.3833
-0.8165 1.1487 0.3823
-0.9130 1.0681 0.3811
-1.0013 0.9791 0.3799
-5.5390 4.5244 1.9400
-5.8867 3.9895 1.9289
-6.1816 3.4278 1.9173
-6.4221 2.8448 1.9053
-6.6077 2.2463 1.8931
-6.7496 1.6402 1.8841
-6.8359 1.0267 1.8751
-6.8668 0.4109 1.8660
-6.8427 -0.2022 1.8569
-6.7646 -0.8078 1.8480
-6.6340 -1.4012 1.8392
-6.4630 -1.9813 1.8336
-6.2435 -2.5429 1.8286
-5.9762 -3.0815 1.8239
-5.6634 -3.5933 1.8193
-1.0368 -0.7959 0.3546
-0.9584 -0.8821 0.3533
-0.8731 -0.9610 0.3522
-0.7816 -1.0321 0.3512
-0.6847 -1.0949 0.3503
-0.5830 -1.1490 0.3495
-0.4773 -1.1942 0.3489
-0.3684 -1.2302 0.3483
-0.2569 -1.2568 0.3480
-0.1437 -1.2738 0.3477
-0.0295 -1.2811 0.3476
0.0849 -1.2788 0.3476
0.1987 -1.2667 0.3478
0.3111 -1.2451 0.3481
0.4215 -1.2139 0.3486
0.5289 -1.1734 0.3491
0.6328 -1.1238 0.3498
0.7322 -1.0654 0.3507
0.8266 -0.9986 0.3516
0.9151 -0.9237 0.3527
0.9971 -0.8412 0.3539
1.0720 -0.7516 0.3551
5.8205 -3.3491 1.8215
6.1116 -2.8239 1.8262
6.3561 -2.2736 1.8311
6.5516 -1.7024 1.8362
6.7040 -1.1157 1.8435
6.8094 -0.5158 1.8524
3.2424 0.0444 0.8796
3.2411 0.3351 0.8838
3.2398 0.6309 0.8953
3.2384 0.9369 0.9145
6.5248 2.5378 1.8990
6.3129 3.1296 1.9113
6.0459 3.7030 1.9231
5.7252 4.2525 1.9345
1.0432 0.9302 0.3791
0.9595 1.0231 0.3805
0.8672 1.1081 0.3817
0.7671 1.1844 0.3828
0.6600 1.2512 0.3837
0.5469 1.3079 0.3845
0.4288 1.3537 0.3852
0.3068 1.3884 0.3857
0.1819 1.4114 0.3860
0.0553 1.4226 0.3862
-0.0718 1.4219 0.3862
-0.1982 1.4091 0.3860
-0.3228 1.3846 0.3856
-0.4444 1.3485 0.3851
-0.5620 1.3012 0.3845
-0.6743 1.2432 0.3836
-0.7805 1.1752 0.3827
-0.8797 1.0977 0.3816
-0.9709 1.0116 0.3803
-1.0536 0.9177 0.3790
-5.7694 4.1825 1.9329
-6.0832 3.6297 1.9215
-6.3431 3.0536 1.9096
-6.5478 2.4598 1.8973
-6.7056 1.8562 1.8873
-6.8117 1.2447 1.8783
-6.8622 0.6292 1.8692
-6.8574 0.0146 1.8601
-6.7984 -0.5942 1.8511
-6.6862 -1.1924 1.8423
-6.5289 -1.7774 1.8354
-6.3269 -2.3462 1.8304
-6.0763 -2.8934 1.8255
-5.7793 -3.4151 1.8209
-1.0629 -0.7637 0.3550
-0.9870 -0.8524 0.3537
-0.9041 -0.9339 0.3526
-0.8147 -1.0078 0.3515
-0.7197 -1.0736 0.3506
-0.6196 -1.1308 0.3498
-0.5152 -1.1792 0.3491
-0.4074 -1.2185 0.3485
-0.2967 -1.2485 0.3481
-0.1840 -1.2689 0.3478
-0.0701 -1.2796 0.3476
0.0443 -1.2807 0.3476
0.1584 -1.2721 0.3477
0.2715 -1.2538 0.3480
0.3827 -1.2260 0.3484
0.4912 -1.1888 0.3489
0.5964 -1.1424 0.3496
0.6975 -1.0871 0.3504
0.7937 -1.0232 0.3513
0.8844 -0.9511 0.3523
0.9688 -0.8713 0.3534
1.0463 -0.7841 0.3547
5.7065 -3.5287 1.8199
6.0136 -3.0132 1.8245
6.2749 -2.4713 1.8293
6.4880 -1.9071 1.8343
6.6541 -1.3252 1.8404
6.7781 -0.7299 1.8492
3.2429 -0.0582 0.8798
3.2416 0.2317 0.8815
3.2402 0.5251 0.8904
3.2389 0.8269 0.9067
3.2375 1.1426 0.9313
6.3944 2.9216 1.9070
6.1468 3.5022 1.9190
5.8449 4.0607 1.9305
1.0708 0.8955 0.3786
0.9902 0.9910 0.3800
0.9008 1.0789 0.3813
0.8034 1.1584 0.3824
0.6987 1.2287 0.3834
0.5877 1.2890 0.3843
0.4712 1.3387 0.3850
0.3505 1.3774 0.3855
0.2264 1.4046 0.3859
0.1003 1.4200 0.3861
-0.0267 1.4235 0.3862
-0.1535 1.4150 0.3861
-0.2789 1.3946 0.3858
-0.4017 1.3626 0.3853
-0.5208 1.3192 0.3847
-0.6351 1.2650 0.3839
-0.7436 1.2004 0.3830
-0.8454 1.1262 0.3820
-0.9395 1.0431 0.3808
-1.0253 0.9518 0.3795
-5.6455 4.3719 1.9369
-5.9780 3.8287 1.9256
-6.2572 3.2602 1.9139
-6.4816 2.6721 1.9017
-6.6547 2.0711 1.8905
-6.7804 1.4623 1.8815
-6.8506 0.8476 1.8724
-6.8654 0.2321 1.8633
-6.8255 -0.3793 1.8543
-6.7320 -0.9818 1.8454
-6.5885 -1.5714 1.8373
-6.4042 -2.1467 1.8322
-6.1706 -2.7021 1.8272
-5.8898 -3.2333 1.8225
-1.0880 -0.7306 0.3555
-1.0148 -0.8217 0.3542
-0.9342 -0.9059 0.3530
-0.8471 -0.9825 0.3519
-0.7540 -1.0512 0.3509
-0.6556 -1.1115 0.3500
-0.5527 -1.1631 0.3493
-0.4460 -1.2057 0.3487
-0.3362 -1.2389 0.3482
-0.2241 -1.2627 0.3479
-0.1106 -1.2769 0.3477
0.0038 -1.2815 0.3476
0.1181 -1.2763 0.3477
0.2316 -1.2614 0.3479
0.3435 -1.2370 0.3482
0.4531 -1.2031 0.3487
0.5595 -1.1599 0.3493
0.6622 -1.1077 0.3501
0.7602 -1.0468 0.3509
0.8529 -0.9776 0.3519
0.9396 -0.9004 0.3530
1.0197 -0.8158 0.3542
5.5871 -3.7044 1.8184
5.9098 -3.1992 1.8229
6.1876 -2.6663 1.8276
6.4181 -2.1095 1.8325
6.5990 -1.5329 1.8377
6.7401 -0.9425 1.8461
3.2433 -0.1611 0.8808
3.2420 0.1287 0.8801
3.2407 0.4203 0.8864
3.2394 0.7186 0.9000
3.2380 1.0287 0.9216
6.4690 2.7115 1.9026
6.2409 3.2985 1.9148
5.9581 3.8655 1.9265
1.0971 0.8600 0.3781
1.0198 0.9580 0.3795
0.9335 1.0487 0.3808
0.8388 1.1312 0.3820
0.7366 1.2049 0.3831
0.6277 1.2688 0.3840
0.5131 1.3223 0.3847
0.3937 1.3650 0.3854
0.2707 1.3963 0.3858
0.1452 1.4159 0.3861
0.0183 1.4236 0.3862
-0.1087 1.4194 0.3861
-0.2347 1.4032 0.3859
-0.3585 1.3753 0.3855
-0.4791 1.3359 0.3850
-0.5952 1.2854 0.3842
-0.7059 1.2244 0.3834
-0.8101 1.1536 0.3824
-0.9071 1.0735 0.3812
-0.9959 0.9851 0.3800
-1.0759 0.8891 0.3786
-5.8661 4.0245 1.9297
-6.1644 3.4643 1.9181
-6.4084 2.8825 1.9061
-6.5969 2.2846 1.8937
-6.7422 1.6791 1.8847
-6.8321 1.0659 1.8756
-6.8664 0.4501 1.8665
-6.8458 -0.1633 1.8575
-6.7712 -0.7695 1.8485
-6.6439 -1.3638 1.8397
-6.4753 -1.9448 1.8340
-6.2589 -2.5077 1.8290
-5.9946 -3.0479 1.8242
-5.6846 -3.5615 1.8196
-1.0416 -0.7902 0.3546
-0.9636 -0.8768 0.3534
-0.8787 -0.9562 0.3523
-0.7876 -1.0278 0.3512
-0.6910 -1.0911 0.3503
-0.5896 -1.1458 0.3495
-0.4842 -1.1916 0.3489
-0.3754 -1.2282 0.3484
-0.2641 -1.2554 0.3480
-0.1510 -1.2730 0.3477
-0.0368 -1.2810 0.3476
0.0776 -1.2792 0.3476
0.1915 -1.2678 0.3478
0.3040 -1.2467 0.3481
0.4145 -1.2162 0.3485
0.5222 -1.1763 0.3491
0.6263 -1.1272 0.3498
0.7260 -1.0694 0.3506
0.8207 -1.0031 0.3516
0.9096 -0.9287 0.3526
0.9921 -0.8466 0.3538
1.0675 -0.7575 0.3551
5.8004 -3.3817 1.8212
6.0944 -2.8582 1.8259
6.3419 -2.3094 1.8308
6.5406 -1.7393 1.8358
6.6955 -1.1535 1.8429
6.8043 -0.5544 1.8518
3.2425 0.0260 0.8796
3.2412 0.3164 0.8834
3.2398 0.6118 0.8943
3.2385 0.9170 0.9130
6.5365 2.4995 1.8982
6.3281 3.0924 1.9105
6.0645 3.6671 1.9224
5.7472 4.2183 1.9338
1.0483 0.9240 0.3790
0.9651 1.0174 0.3804
0.8733 1.1029 0.3816
0.7737 1.1798 0.3827
0.6670 1.2473 0.3837
0.5543 1.3046 0.3845
0.4365 1.3511 0.3852
0.3147 1.3865 0.3857
0.1899 1.4103 0.3860
0.0634 1.4223 0.3862
-0.0637 1.4223 0.3862
-0.1902 1.4103 0.3860
-0.3149 1.3865 0.3857
-0.4368 1.3511 0.3852
-0.5546 1.3045 0.3845
-0.6673 1.2472 0.3837
-0.7740 1.1798 0.3827
-0.8736 1.1029 0.3816
-0.9654 1.0173 0.3804
-1.0486 0.9239 0.3791
-5.7476 4.2169 1.9336
-6.0648 3.6657 1.9222
-6.3282 3.0909 1.9104
-6.5364 2.4981 1.8981
-6.6970 1.8949 1.8879
-6.8066 1.2839 1.8789
-6.8606 0.6685 1.8698
-6.8594 0.0537 1.8607
-6.8037 -0.5556 1.8517
-6.6949 -1.1547 1.8428
-6.5401 -1.7405 1.8358
-6.3413 -2.3105 1.8307
-6.0937 -2.8592 1.8258
-5.7996 -3.3827 1.8212
-1.0675 -0.7578 0.3551
-0.9921 -0.8469 0.3538
-0.9095 -0.9289 0.3527
-0.8206 -1.0033 0.3516
-0.7259 -1.0696 0.3506
-0.6261 -1.1274 0.3498
-0.5220 -1.1764 0.3491
-0.4143 -1.2163 0.3485
-0.3038 -1.2468 0.3481
-0.1912 -1.2679 0.3478
-0.0773 -1.2792 0.3476
0.0371 -1.2809 0.3476
0.1512 -1.2729 0.3477
0.2643 -1.2553 0.3480
0.3756 -1.2281 0.3484
0.4844 -1.1915 0.3489
0.5898 -1.1456 0.3495
0.6912 -1.0909 0.3503
0.7878 -1.0275 0.3512
0.8788 -0.9560 0.3522
0.9636 -0.8766 0.3534
1.0416 -0.7899 0.3546
5.6855 -3.5605 1.8197
5.9953 -3.0469 1.8242
6.2596 -2.5066 1.8290
6.4759 -1.9436 1.8340
6.6445 -1.3626 1.8398
6.7717 -0.7682 1.8486
3.2429 -0.0767 0.8799
3.2416 0.2131 0.8812
3.2403 0.5062 0.8896
3.2390 0.8073 0.9055
3.2376 1.1219 0.9294
6.4083 2.8840 1.9062
6.1642 3.4657 1.9182
5.8658 4.0259 1.9298
1.0756 0.8892 0.3785
0.9956 0.9851 0.3799
0.9068 1.0736 0.3812
0.8098 1.1536 0.3823
0.7056 1.2245 0.3833
0.5949 1.2854 0.3842
0.4788 1.3359 0.3849
0.3583 1.3753 0.3855
0.2344 1.4032 0.3859
0.1084 1.4194 0.3861
-0.0186 1.4236 0.3862
-0.1455 1.4159 0.3861
-0.2710 1.3963 0.3858
-0.3940 1.3650 0.3854
-0.5134 1.3223 0.3848
-0.6280 1.2687 0.3840
-0.7369 1.2048 0.3831
-0.8391 1.1312 0.3820
-0.9338 1.0486 0.3809
-1.0201 0.9579 0.3796
-5.6225 4.4056 1.9376
-5.9584 3.8641 1.9264
-6.2411 3.2971 1.9146
-6.4690 2.7100 1.9025
-6.6448 2.1095 1.8911
-6.7741 1.5013 1.8821
-6.8478 0.8869 1.8730
-6.8661 0.2713 1.8639
-6.8296 -0.3405 1.8549
-6.7395 -0.9437 1.8459
-6.5985 -1.5341 1.8376
-6.4174 -2.1106 1.8325
-6.1869 -2.6674 1.8275
-5.9090 -3.2002 1.8228
-1.0924 -0.7246 0.3556
-1.0196 -0.8161 0.3543
-0.9396 -0.9007 0.3531
-0.8528 -0.9779 0.3520
-0.7601 -1.0471 0.3510
-0.6620 -1.1079 0.3501
-0.5594 -1.1601 0.3493
-0.4529 -1.2032 0.3487
-0.3433 -1.2371 0.3482
-0.2313 -1.2615 0.3479
-0.1178 -1.2763 0.3477
-0.0035 -1.2815 0.3476
0.1108 -1.2769 0.3477
0.2244 -1.2627 0.3479
0.3364 -1.2388 0.3482
0.4462 -1.2055 0.3487
0.5529 -1.1629 0.3493
0.6558 -1.1113 0.3500
0.7541 -1.0510 0.3509
0.8472 -0.9822 0.3519
0.9343 -0.9056 0.3529
1.0148 -0.8214 0.3541
1.0880 -0.7303 0.3554
5.8906 -3.2323 1.8226
6.1713 -2.7010 1.8273
6.4048 -2.1456 1.8322
6.5890 -1.5702 1.8373
6.7325 -0.9806 1.8455
3.2434 -0.1796 0.8811
3.2421 0.1102 0.8799
3.2408 0.4016 0.8858
3.2395 0.6993 0.8990
3.2381 1.0084 0.9199
6.4816 2.6735 1.9018
6.2571 3.2617 1.9140
5.9777 3.8301 1.9258
1.1017 0.8535 0.3780
1.0250 0.9519 0.3794
0.9392 1.0431 0.3807
0.8451 1.1262 0.3819
0.7433 1.2004 0.3830
0.6348 1.2650 0.3839
0.5205 1.3192 0.3847
0.4014 1.3626 0.3853
0.2786 1.3946 0.3858
0.1533 1.4150 0.3861
0.0265 1.4235 0.3862
-0.1006 1.4200 0.3861
-0.2267 1.4046 0.3859
-0.3507 1.3774 0.3855
-0.4715 1.3387 0.3850
-0.5879 1.2890 0.3843
-0.6990 1.2286 0.3834
-0.8037 1.1584 0.3824
-0.9011 1.0789 0.3813
-0.9905 0.9909 0.3800
-1.0711 0.8954 0.3787
-5.8453 4.0593 1.9304
-6.1470 3.5007 1.9188
-6.3945 2.9202 1.9068
-6.5865 2.3231 1.8945
-6.7346 1.7180 1.8853
-6.8280 1.1051 1.8762
-6.8659 0.4894 1.8671
-6.8488 -0.1243 1.8581
-6.7775 -0.7311 1.8491
-6.6535 -1.3264 1.8403
-6.4874 -1.9082 1.8343
-6.2742 -2.4725 1.8293
-6.0128 -3.0142 1.8245
-5.7057 -3.5296 1.8199
-1.0463 -0.7844 0.3547
-0.9688 -0.8715 0.3535
-0.8843 -0.9514 0.3523
-0.7936 -1.0235 0.3513
-0.6973 -1.0873 0.3504
-0.5962 -1.1426 0.3496
-0.4910 -1.1890 0.3489
-0.3824 -1.2261 0.3484
-0.2712 -1.2539 0.3480
-0.1582 -1.2722 0.3477
-0.0441 -1.2807 0.3476
0.0703 -1.2796 0.3476
0.1842 -1.2688 0.3478
0.2969 -1.2484 0.3481
0.4076 -1.2184 0.3485
0.5154 -1.1791 0.3490
0.6198 -1.1306 0.3497
0.7198 -1.0733 0.3506
0.8148 -1.0075 0.3515
1.0056 -0.7859 0.3546
1.0756 -0.6956 0.3559
5.8081 -3.0591 1.8241
6.0732 -2.5353 1.8288
6.2918 -1.9888 1.8336
6.4628 -1.4239 1.8389
6.5945 -0.8457 1.8475
3.2432 -0.1241 0.9019
3.2419 0.1657 0.9020
3.2406 0.4579 0.9094
3.2392 0.7574 0.9244
3.2378 1.0694 0.9475
6.2847 2.7188 1.9028
6.0544 3.2887 1.9146
5.7710 3.8382 1.9259
1.0610 0.8514 0.3780
0.9843 0.9460 0.3794
0.8990 1.0334 0.3806
0.8056 1.1128 0.3817
0.7050 1.1833 0.3828
0.5981 1.2443 0.3836
0.4856 1.2951 0.3844
0.3687 1.3353 0.3849
0.2484 1.3643 0.3853
0.1258 1.3819 0.3856
0.0021 1.3880 0.3857
-0.1217 1.3824 0.3856
-0.2443 1.3651 0.3854
-0.3647 1.3365 0.3850
-0.4818 1.2967 0.3844
-0.5944 1.2463 0.3837
-0.7016 1.1856 0.3828
-0.8024 1.1154 0.3818
-0.8961 1.0363 0.3807
-0.9817 0.9492 0.3794
-1.0587 0.8548 0.3781
-5.7602 3.8561 1.9262
-6.0454 3.3074 1.9148
-6.2774 2.7381 1.9031
-6.4579 2.1544 1.8917
-6.5937 1.5626 1.8830
-6.6753 0.9637 1.8741
-6.7027 0.3628 1.8653
-6.6765 -0.2353 1.8564
-6.5978 -0.8260 1.8477
-6.4678 -1.4046 1.8391
-6.2981 -1.9700 1.8337
-6.0812 -2.5172 1.8289
-5.8176 -3.0418 1.8242
-1.0779 -0.6926 0.3560
-1.0082 -0.7831 0.3547
-0.9312 -0.8669 0.3535
-0.8475 -0.9436 0.3524
-0.7578 -1.0126 0.3515
-0.6629 -1.0735 0.3506
-0.5633 -1.1259 0.3498
-0.4598 -1.1696 0.3492
-0.3531 -1.2042 0.3487
-0.2441 -1.2296 0.3483
