ply
format ascii 1.0
element vertex 2176
property float32 x
property float32 y
property float32 z
end_header
-0.8710 0.1061 0.3650
-0.8759 0.0279 0.3646
-0.8738 -0.0504 0.3641
-0.8648 -0.1281 0.3637
-0.8490 -0.2045 0.3633
-0.8265 -0.2792 0.3629
-0.7974 -0.3515 0.3626
-0.7622 -0.4209 0.3622
-0.7209 -0.4869 0.3619
-0.6741 -0.5489 0.3617
-0.6220 -0.6065 0.3614
-0.5650 -0.6593 0.3612
-0.5037 -0.7068 0.3611
-0.4384 -0.7487 0.3609
-0.3698 -0.7847 0.3609
-0.2982 -0.8144 0.3608
-0.2243 -0.8378 0.3608
-0.1486 -0.8546 0.3609
-0.0718 -0.8647 0.3610
0.0057 -0.8679 0.3611
0.0832 -0.8643 0.3612
0.1602 -0.8539 0.3614
0.2359 -0.8367 0.3617
0.3099 -0.8130 0.3619
0.3816 -0.7827 0.3622
0.4503 -0.7462 0.3626
0.5157 -0.7037 0.3629
0.5771 -0.6556 0.3633
0.6340 -0.6021 0.3637
0.6860 -0.5437 0.3642
0.7327 -0.4809 0.3646
0.7737 -0.4141 0.3651
0.8086 -0.3438 0.3655
0.8371 -0.2706 0.3660
0.8591 -0.1950 0.3665
0.8741 -0.1177 0.3669
0.8823 -0.0392 0.3674
0.8833 0.0398 0.3679
0.8773 0.1186 0.3683
0.8642 0.1967 0.3687
0.8441 0.2734 0.3691
0.8172 0.3480 0.3695
0.7836 0.4199 0.3698
0.7436 0.4887 0.3702
0.6975 0.5535 0.3704
0.6458 0.6140 0.3707
0.5887 0.6696 0.3709
0.5268 0.7198 0.3711
0.4606 0.7642 0.3712
0.3906 0.8025 0.3713
0.3175 0.8343 0.3714
0.2417 0.8593 0.3714
0.1640 0.8774 0.3713
0.0850 0.8883 0.3712
0.0054 0.8920 0.3711
-0.0743 0.8886 0.3709
-0.1532 0.8779 0.3707
-0.2308 0.8601 0.3705
-0.3065 0.8355 0.3702
-0.3795 0.8041 0.3699
-0.4494 0.7663 0.3696
-0.5155 0.7224 0.3692
-0.5773 0.6728 0.3688
-0.6343 0.6178 0.3684
-0.6861 0.5581 0.3679
-0.7323 0.4940 0.3675
-0.7725 0.4261 0.3670
-0.8065 0.3550 0.3666
-0.8339 0.2812 0.3661
-0.8545 0.2053 0.3656
-0.8684 0.1281 0.3652
-0.8752 0.0500 0.3647
-0.8751 -0.0283 0.3643
-0.8680 -0.1062 0.3638
-0.8541 -0.1831 0.3634
-0.8335 -0.2583 0.3630
-0.8063 -0.3314 0.3626
-0.7727 -0.4017 0.3623
-0.7332 -0.4687 0.3620
-0.6879 -0.5318 0.3617
-0.6372 -0.5907 0.3615
-0.5816 -0.6449 0.3613
-0.5214 -0.6939 0.3611
-0.4572 -0.7374 0.3610
-0.3895 -0.7751 0.3609
-0.3187 -0.8067 0.3608
-0.2454 -0.8319 0.3608
-0.1701 -0.8505 0.3609
-0.0936 -0.8625 0.3609
-0.0162 -0.8677 0.3610
0.0614 -0.8660 0.3612
0.1385 -0.8575 0.3614
0.2147 -0.8423 0.3616
0.2892 -0.8203 0.3619
0.3616 -0.7919 0.3622
0.4312 -0.7571 0.3625
0.4976 -0.7163 0.3628
0.5602 -0.6697 0.3632
0.6184 -0.6177 0.3636
0.6719 -0.5607 0.3640
0.7201 -0.4991 0.3645
0.7627 -0.4333 0.3649
0.7994 -0.3639 0.3654
0.8297 -0.2915 0.3659
0.8536 -0.2165 0.3663
0.8706 -0.1396 0.3668
0.8807 -0.0614 0.3673
0.8838 0.0175 0.3677
0.8797 0.0964 0.3682
0.8686 0.1748 0.3686
0.8505 0.2519 0.3690
0.8254 0.3272 0.3694
0.7937 0.3999 0.3697
0.7555 0.4696 0.3701
0.7111 0.5356 0.3704
0.6609 0.5974 0.3706
0.6053 0.6544 0.3709
0.5447 0.7062 0.3710
0.4797 0.7523 0.3712
0.4107 0.7923 0.3713
0.3384 0.8260 0.3713
0.2633 0.8529 0.3714
0.1861 0.8730 0.3713
0.1074 0.8859 0.3713
0.0279 0.8917 0.3712
-0.0518 0.8903 0.3710
-0.1310 0.8816 0.3708
-0.2091 0.8659 0.3706
-0.2854 0.8431 0.3703
-0.3592 0.8136 0.3700
-0.4300 0.7776 0.3697
-0.4972 0.7354 0.3693
-0.5603 0.6873 0.3689
-0.6187 0.6338 0.3685
-0.6721 0.5754 0.3681
-0.7199 0.5125 0.3676
-0.7618 0.4456 0.3672
-0.7975 0.3753 0.3667
-0.8268 0.3022 0.3662
-0.8494 0.2269 0.3658
-0.8652 0.1500 0.3653
-0.8740 0.0721 0.3648
-0.8759 -0.0062 0.3644
-0.8707 -0.0843 0.3639
-0.8588 -0.1615 0.3635
-0.8400 -0.2373 0.3631
-0.8146 -0.3110 0.3628
-0.7828 -0.3821 0.3624
-0.7449 -0.4501 0.3621
-0.7012 -0.5144 0.3618
-0.6520 -0.5746 0.3615
-0.5978 -0.6301 0.3613
-0.5388 -0.6806 0.3611
-0.4758 -0.7257 0.3610
-0.4089 -0.7651 0.3609
-0.3389 -0.7984 0.3608
-0.2663 -0.8254 0.3608
-0.1915 -0.8459 0.3608
-0.1153 -0.8598 0.3609
-0.0381 -0.8669 0.3610
0.0395 -0.8672 0.3611
0.1168 -0.8606 0.3613
0.1933 -0.8473 0.3615
0.2684 -0.8272 0.3618
0.3414 -0.8006 0.3621
0.4119 -0.7676 0.3624
0.4792 -0.7284 0.3627
0.5429 -0.6834 0.3631
0.6024 -0.6329 0.3635
0.6573 -0.5773 0.3639
0.7070 -0.5169 0.3644
0.7513 -0.4523 0.3648
0.7897 -0.3839 0.3653
0.8218 -0.3122 0.3657
0.8475 -0.2379 0.3662
0.8665 -0.1615 0.3667
0.8785 -0.0836 0.3671
0.8836 -0.0048 0.3676
0.8816 0.0742 0.3680
0.8725 0.1527 0.3685
0.8563 0.2303 0.3689
0.8332 0.3061 0.3693
0.8033 0.3797 0.3696
0.7669 0.4503 0.3700
0.7243 0.5174 0.3703
0.6757 0.5804 0.3706
0.6215 0.6388 0.3708
0.5623 0.6921 0.3710
0.4985 0.7399 0.3711
0.4306 0.7817 0.3713
0.3591 0.8171 0.3713
0.2848 0.8460 0.3714
0.2081 0.8680 0.3713
0.1297 0.8830 0.3713
0.0504 0.8908 0.3712
-0.0293 0.8914 0.3710
-0.1088 0.8848 0.3709
-0.1872 0.8710 0.3706
-0.2640 0.8502 0.3704
-0.3386 0.8226 0.3701
-0.4104 0.7884 0.3698
-0.4787 0.7479 0.3694
-0.5429 0.7015 0.3690
-0.6027 0.6495 0.3686
-0.6576 0.5924 0.3682
-0.7070 0.5307 0.3677
-0.7506 0.4648 0.3673
-0.7881 0.3955 0.3668
-0.8192 0.3231 0.3664
-0.8437 0.2484 0.3659
-0.8614 0.1718 0.3654
-0.8722 0.0941 0.3650
-0.8760 0.0159 0.3645
-0.8729 -0.0623 0.3641
-0.8628 -0.1399 0.3636
-0.8460 -0.2161 0.3632
-0.8224 -0.2905 0.3629
-0.7924 -0.3624 0.3625
-0.7562 -0.4313 0.3622
-0.7141 -0.4967 0.3619
-0.6664 -0.5580 0.3616
-0.6136 -0.6149 0.3614
-0.5559 -0.6669 0.3612
-0.4940 -0.7136 0.3610
-0.4281 -0.7546 0.3609
-0.3590 -0.7896 0.3609
-0.2870 -0.8184 0.3608
-0.2128 -0.8408 0.3608
-0.1369 -0.8566 0.3609
-0.0599 -0.8656 0.3610
0.0176 -0.8678 0.3611
0.0951 -0.8632 0.3613
0.1718 -0.8517 0.3615
0.2474 -0.8335 0.3617
0.3210 -0.8087 0.3620
0.3923 -0.7775 0.3623
0.4606 -0.7401 0.3626
0.5253 -0.6967 0.3630
0.5861 -0.6477 0.3634
0.6423 -0.5935 0.3638
0.6935 -0.5344 0.3642
0.7394 -0.4709 0.3647
0.7794 -0.4035 0.3651
0.8134 -0.3327 0.3656
0.8409 -0.2591 0.3661
0.8618 -0.1833 0.3665
0.8759 -0.1057 0.3670
0.8829 -0.0271 0.3675
0.8829 0.0519 0.3679
0.8758 0.1306 0.3684
0.8616 0.2085 0.3688
0.8404 0.2849 0.3692
0.8124 0.3592 0.3695
0.7778 0.4307 0.3699
0.7369 0.4988 0.3702
0.6900 0.5631 0.3705
0.6374 0.6228 0.3707
0.5795 0.6776 0.3709
0.5169 0.7270 0.3711
0.4501 0.7705 0.3712
0.3796 0.8078 0.3713
0.3060 0.8386 0.3714
0.2299 0.8625 0.3714
0.1520 0.8795 0.3713
0.0729 0.8893 0.3712
-0.0068 0.8920 0.3711
-0.0864 0.8874 0.3709
-0.1652 0.8756 0.3707
-0.2425 0.8568 0.3705
-0.3178 0.8311 0.3702
-0.3904 0.7987 0.3699
-0.4598 0.7600 0.3695
-0.5252 0.7151 0.3691
-0.5863 0.6647 0.3687
-0.6426 0.6090 0.3683
-0.6936 0.5485 0.3679
-0.7389 0.4838 0.3674
-0.7782 0.4154 0.3670
-0.8111 0.3438 0.3665
-0.8375 0.2697 0.3660
-0.8571 0.1936 0.3656
-0.8698 0.1161 0.3651
-0.8757 0.0380 0.3646
-0.8745 -0.0403 0.3642
-0.8664 -0.1181 0.3638
-0.8514 -0.1947 0.3633
-0.8297 -0.2697 0.3630
-0.8015 -0.3423 0.3626
-0.7671 -0.4122 0.3623
-0.7266 -0.4786 0.3620
-0.6805 -0.5411 0.3617
-0.6290 -0.5993 0.3614
-0.5727 -0.6527 0.3612
-0.5119 -0.7009 0.3611
-0.4471 -0.7436 0.3610
-0.3788 -0.7803 0.3609
-0.3076 -0.8110 0.3608
-0.2340 -0.8352 0.3608
-0.1585 -0.8528 0.3609
-0.0817 -0.8637 0.3609
-0.0043 -0.8679 0.3611
0.0732 -0.8652 0.3612
0.1503 -0.8556 0.3614
0.2262 -0.8393 0.3616
0.3005 -0.8164 0.3619
0.3725 -0.7870 0.3622
0.4416 -0.7512 0.3625
0.5074 -0.7095 0.3629
0.5694 -0.6621 0.3633
0.6269 -0.6093 0.3637
0.6796 -0.5515 0.3641
0.7270 -0.4892 0.3646
0.7687 -0.4229 0.3650
0.8044 -0.3530 0.3655
0.8338 -0.2802 0.3659
0.8566 -0.2049 0.3664
0.8726 -0.1277 0.3669
0.8816 -0.0494 0.3673
0.8836 0.0296 0.3678
0.8785 0.1085 0.3682
0.8663 0.1867 0.3687
0.8471 0.2636 0.3691
0.8210 0.3385 0.3694
0.7883 0.4108 0.3698
0.7491 0.4800 0.3701
0.7038 0.5454 0.3704
0.6528 0.6064 0.3707
0.5963 0.6627 0.3709
0.5351 0.7136 0.3711
0.4694 0.7588 0.3712
0.3999 0.7979 0.3713
0.3271 0.8305 0.3714
0.2516 0.8565 0.3714
0.1741 0.8754 0.3713
0.0953 0.8873 0.3712
0.0157 0.8920 0.3711
-0.0640 0.8894 0.3710
-0.1431 0.8797 0.3708
-0.2209 0.8628 0.3705
-0.2968 0.8390 0.3703
-0.3702 0.8085 0.3699
-0.4405 0.7715 0.3696
-0.5072 0.7284 0.3692
-0.5696 0.6795 0.3688
-0.6272 0.6252 0.3684
-0.6798 0.5660 0.3680
-0.7267 0.5025 0.3676
-0.7677 0.4350 0.3671
-0.8025 0.3643 0.3666
-0.8307 0.2908 0.3662
-0.8522 0.2152 0.3657
-0.8670 0.1381 0.3652
-0.8747 0.0601 0.3648
-0.8755 -0.0182 0.3643
-0.8694 -0.0962 0.3639
-0.8563 -0.1732 0.3635
-0.8365 -0.2487 0.3631
-0.8101 -0.3221 0.3627
-0.7774 -0.3928 0.3624
-0.7386 -0.4602 0.3620
-0.6940 -0.5239 0.3618
-0.6440 -0.5834 0.3615
-0.5890 -0.6382 0.3613
-0.5295 -0.6879 0.3611
-0.4658 -0.7321 0.3610
-0.3984 -0.7706 0.3609
-0.3280 -0.8029 0.3608
-0.2550 -0.8290 0.3608
-0.1800 -0.8485 0.3608
-0.1035 -0.8613 0.3609
-0.0262 -0.8674 0.3610
0.0514 -0.8666 0.3612
0.1286 -0.8590 0.3613
0.2049 -0.8446 0.3616
0.2797 -0.8235 0.3618
0.3524 -0.7959 0.3621
0.4224 -0.7619 0.3624
0.4892 -0.7219 0.3628
0.5523 -0.6760 0.3632
0.6111 -0.6247 0.3636
0.6652 -0.5683 0.3640
0.7142 -0.5073 0.3644
0.7575 -0.4420 0.3649
0.7950 -0.3731 0.3653
0.8262 -0.3010 0.3658
0.8508 -0.2263 0.3663
0.8688 -0.1497 0.3667
0.8798 -0.0716 0.3672
0.8838 0.0073 0.3677
0.8806 0.0862 0.3681
0.8704 0.1647 0.3685
0.8532 0.2420 0.3690
0.8291 0.3176 0.3693
0.7982 0.3907 0.3697
0.7608 0.4608 0.3700
0.7172 0.5273 0.3703
0.6677 0.5897 0.3706
0.6128 0.6473 0.3708
0.5528 0.6998 0.3710
0.4883 0.7467 0.3712
0.4199 0.7875 0.3713
0.3479 0.8220 0.3713
0.2732 0.8498 0.3714
0.1962 0.8708 0.3713
0.1176 0.8847 0.3713
0.0382 0.8914 0.3712
-0.0415 0.8909 0.3710
-0.1208 0.8832 0.3708
-0.1991 0.8683 0.3706
-0.2756 0.8465 0.3703
-0.3498 0.8178 0.3700
-0.4211 0.7826 0.3697
-0.4888 0.7412 0.3693
-0.5524 0.6938 0.3690
-0.6115 0.6410 0.3686
-0.6655 0.5832 0.3681
-0.7140 0.5208 0.3677
-0.7567 0.4544 0.3672
-0.7933 0.3846 0.3668
-0.8234 0.3118 0.3663
-0.8469 0.2368 0.3658
-0.8635 0.1600 0.3653
-0.8732 0.0822 0.3649
-0.8760 0.0039 0.3644
-0.8718 -0.0743 0.3640
-0.8607 -0.1516 0.3636
-0.8428 -0.2276 0.3632
-0.8183 -0.3016 0.3628
-0.7873 -0.3731 0.3624
-0.7502 -0.4415 0.3621
-0.7072 -0.5063 0.3618
-0.6587 -0.5670 0.3616
-0.6051 -0.6232 0.3614
-0.5467 -0.6744 0.3612
-0.4841 -0.7202 0.3610
-0.4178 -0.7603 0.3609
-0.3481 -0.7944 0.3608
-0.2758 -0.8223 0.3608
-0.2013 -0.8437 0.3608
-0.1252 -0.8584 0.3609
-0.0481 -0.8664 0.3610
0.0295 -0.8675 0.3611
0.1069 -0.8619 0.3613
0.1835 -0.8494 0.3615
0.2588 -0.8302 0.3618
0.3321 -0.8044 0.3620
0.4030 -0.7722 0.3623
0.4707 -0.7338 0.3627
0.5349 -0.6895 0.3631
0.5950 -0.6397 0.3635
0.6505 -0.5847 0.3639
0.7009 -0.5249 0.3643
0.7459 -0.4608 0.3647
0.7850 -0.3929 0.3652
0.8180 -0.3216 0.3657
0.8446 -0.2476 0.3661
0.8644 -0.1715 0.3666
0.8774 -0.0937 0.3671
0.8834 -0.0151 0.3675
0.8823 0.0640 0.3680
0.8740 0.1426 0.3684
0.8588 0.2203 0.3688
0.8366 0.2965 0.3692
0.8076 0.3703 0.3696
0.7720 0.4414 0.3699
0.7301 0.5089 0.3703
0.6823 0.5725 0.3705
0.6288 0.6316 0.3708
0.5702 0.6855 0.3710
0.5070 0.7340 0.3711
0.4396 0.7766 0.3712
0.3685 0.8129 0.3713
0.2945 0.8427 0.3714
0.2181 0.8656 0.3714
0.1399 0.8815 0.3713
0.0607 0.8902 0.3712
-0.0190 0.8917 0.3711
-0.0985 0.8861 0.3709
-0.1771 0.8732 0.3707
-0.2542 0.8533 0.3704
-0.3291 0.8266 0.3701
-0.4013 0.7932 0.3698
-0.4700 0.7535 0.3695
-0.5349 0.7078 0.3691
-0.5953 0.6565 0.3687
-0.6508 0.6000 0.3682
-0.7009 0.5389 0.3678
-0.7453 0.4736 0.3674
-0.7836 0.4046 0.3669
-0.8156 0.3326 0.3664
-0.8409 0.2581 0.3659
-0.8595 0.1818 0.3655
-0.8712 0.1042 0.3650
-0.8759 0.0260 0.3646
-0.8737 -0.0523 0.3641
-0.8645 -0.1299 0.3637
-0.8485 -0.2063 0.3633
-0.8258 -0.2810 0.3629
-0.7967 -0.3532 0.3625
-0.7612 -0.4226 0.3622
-0.7199 -0.4884 0.3619
-0.6729 -0.5503 0.3616
-0.6207 -0.6078 0.3614
-0.5636 -0.6605 0.3612
-0.5022 -0.7078 0.3611
-0.4369 -0.7496 0.3609
-0.3681 -0.7854 0.3609
-0.2965 -0.8151 0.3608
-0.2225 -0.8383 0.3608
-0.1468 -0.8549 0.3609
-0.0699 -0.8648 0.3610
0.0076 -0.8679 0.3611
0.0851 -0.8642 0.3612
0.1620 -0.8536 0.3614
0.2377 -0.8363 0.3617
0.3116 -0.8123 0.3620
0.3832 -0.7819 0.3623
0.4519 -0.7452 0.3626
0.5172 -0.7026 0.3630
0.5785 -0.6543 0.3633
0.6353 -0.6008 0.3637
0.6872 -0.5423 0.3642
0.7338 -0.4793 0.3646
0.7746 -0.4124 0.3651
0.8094 -0.3421 0.3655
0.8377 -0.2688 0.3660
0.8595 -0.1932 0.3665
0.8744 -0.1158 0.3670
0.8824 -0.0373 0.3674
0.8833 0.0417 0.3679
0.8771 0.1205 0.3683
0.8638 0.1985 0.3687
0.8435 0.2752 0.3691
0.8164 0.3497 0.3695
0.7827 0.4216 0.3699
0.7425 0.4902 0.3702
0.6964 0.5550 0.3705
0.6445 0.6154 0.3707
0.5873 0.6708 0.3709
0.5253 0.7209 0.3711
0.4590 0.7652 0.3712
0.3889 0.8033 0.3713
0.3157 0.8350 0.3714
0.2399 0.8598 0.3714
0.1621 0.8777 0.3713
0.0831 0.8885 0.3712
0.0035 0.8920 0.3711
-0.0762 0.8884 0.3709
-0.1551 0.8776 0.3707
-0.2327 0.8596 0.3705
-0.3082 0.8348 0.3702
-0.3812 0.8033 0.3699
-0.4510 0.7653 0.3696
-0.5170 0.7213 0.3692
-0.5787 0.6715 0.3688
-0.6356 0.6165 0.3684
-0.6873 0.5566 0.3679
-0.7334 0.4924 0.3675
-0.7734 0.4244 0.3670
-0.8072 0.3532 0.3666
-0.8344 0.2794 0.3661
-0.8550 0.2035 0.3656
-0.8686 0.1262 0.3651
-0.8753 0.0481 0.3647
-0.8750 -0.0302 0.3642
-0.8678 -0.1081 0.3638
-0.8537 -0.1849 0.3634
-0.8329 -0.2601 0.3630
-0.8055 -0.3331 0.3626
-0.7719 -0.4033 0.3623
-0.7321 -0.4702 0.3620
-0.6867 -0.5333 0.3617
-0.6359 -0.5921 0.3615
-0.5802 -0.6461 0.3613
-0.5200 -0.6950 0.3611
-0.4557 -0.7384 0.3610
-0.3878 -0.7759 0.3609
-0.3169 -0.8074 0.3608
-0.2436 -0.8324 0.3608
-0.1683 -0.8509 0.3609
-0.0917 -0.8627 0.3609
-0.0143 -0.8677 0.3610
0.0632 -0.8659 0.3612
0.1404 -0.8572 0.3614
0.2165 -0.8418 0.3616
0.2910 -0.8197 0.3619
0.3633 -0.7911 0.3622
0.4329 -0.7562 0.3625
0.4991 -0.7152 0.3628
0.5616 -0.6685 0.3632
0.6197 -0.6164 0.3636
0.6731 -0.5593 0.3641
0.7212 -0.4975 0.3645
0.7637 -0.4317 0.3649
0.8002 -0.3623 0.3654
0.8304 -0.2897 0.3659
0.8540 -0.2147 0.3664
0.8709 -0.1378 0.3668
0.8808 -0.0596 0.3673
0.8837 0.0193 0.3677
0.8795 0.0983 0.3682
0.8683 0.1766 0.3686
0.8500 0.2537 0.3690
0.8248 0.3289 0.3694
0.7929 0.4016 0.3698
0.7545 0.4712 0.3701
0.7100 0.5371 0.3704
0.6597 0.5988 0.3706
0.6039 0.6557 0.3709
0.5432 0.7074 0.3710
0.4781 0.7533 0.3712
0.4090 0.7932 0.3713
0.3366 0.8267 0.3713
0.2615 0.8535 0.3714
0.1843 0.8734 0.3713
0.1055 0.8862 0.3713
0.0260 0.8918 0.3711
-0.0537 0.8902 0.3710
-0.1329 0.8813 0.3708
-0.2109 0.8654 0.3706
-0.2871 0.8425 0.3703
-0.3609 0.8128 0.3700
-0.4317 0.7767 0.3697
-0.4988 0.7343 0.3693
-0.5618 0.6861 0.3689
-0.6201 0.6325 0.3685
-0.6733 0.5739 0.3681
-0.7210 0.5109 0.3676
-0.7627 0.4440 0.3672
-0.7983 0.3736 0.3667
-0.8274 0.3005 0.3662
-0.8498 0.2251 0.3657
-0.8654 0.1481 0.3653
-0.8741 0.0702 0.3648
-0.8758 -0.0081 0.3644
-0.8705 -0.0862 0.3639
-0.8584 -0.1634 0.3635
-0.8394 -0.2391 0.3631
-0.8139 -0.3128 0.3627
-0.7820 -0.3838 0.3624
-0.7439 -0.4517 0.3621
-0.7001 -0.5159 0.3618
-0.6508 -0.5759 0.3615
-0.5964 -0.6314 0.3613
-0.5374 -0.6818 0.3611
-0.4742 -0.7267 0.3610
-0.4073 -0.7660 0.3609
-0.3372 -0.7991 0.3608
-0.2645 -0.8260 0.3608
-0.1897 -0.8464 0.3608
-0.1134 -0.8601 0.3609
-0.0362 -0.8670 0.3610
0.0414 -0.8671 0.3611
0.1187 -0.8604 0.3613
0.1951 -0.8469 0.3615
0.2701 -0.8266 0.3618
0.3431 -0.7998 0.3621
0.4135 -0.7667 0.3624
0.4808 -0.7274 0.3627
0.5444 -0.6823 0.3631
0.5835 -0.6301 0.3635
0.6382 -0.5761 0.3639
0.6878 -0.5175 0.3643
0.7322 -0.4545 0.3648
0.7708 -0.3878 0.3652
0.8033 -0.3179 0.3657
0.8295 -0.2452 0.3661
0.8492 -0.1703 0.3666
0.8621 -0.0940 0.3671
0.8681 -0.0166 0.3675
0.8672 0.0610 0.3679
0.8593 0.1383 0.3684
0.8444 0.2147 0.3688
0.8227 0.2896 0.3692
0.7944 0.3622 0.3695
0.7595 0.4321 0.3699
0.7185 0.4986 0.3702
0.6716 0.5612 0.3704
0.6192 0.6193 0.3707
0.5618 0.6725 0.3709
0.4997 0.7202 0.3710
0.4336 0.7622 0.3712
0.3638 0.7980 0.3712
0.2912 0.8274 0.3713
0.2161 0.8501 0.3713
0.1394 0.8659 0.3712
0.0615 0.8746 0.3711
-0.0168 0.8763 0.3710
-0.0950 0.8709 0.3708
-0.1722 0.8585 0.3706
-0.2480 0.8391 0.3703
-0.3217 0.8130 0.3701
-0.3927 0.7803 0.3697
-0.4604 0.7415 0.3694
-0.5242 0.6967 0.3690
-0.5837 0.6464 0.3686
-0.6383 0.5911 0.3682
-0.6877 0.5311 0.3678
-0.7315 0.4670 0.3673
-0.7693 0.3993 0.3669
-0.8009 0.3286 0.3664
-0.8260 0.2555 0.3660
-0.8444 0.1805 0.3655
-0.8561 0.1043 0.3650
-0.8610 0.0274 0.3646
-0.8589 -0.0495 0.3642
-0.8501 -0.1259 0.3637
-0.8346 -0.2011 0.3633
-0.8124 -0.2745 0.3630
-0.7839 -0.3456 0.3626
-0.7492 -0.4138 0.3623
-0.7087 -0.4787 0.3620
-0.6627 -0.5396 0.3617
-0.6115 -0.5963 0.3615
-0.5555 -0.6481 0.3613
-0.4952 -0.6948 0.3611
-0.4310 -0.7360 0.3610
-0.3635 -0.7714 0.3609
-0.2932 -0.8007 0.3609
-0.2205 -0.8237 0.3609
-0.1461 -0.8402 0.3610
-0.0705 -0.8501 0.3610
0.0056 -0.8533 0.3612
0.0818 -0.8497 0.3613
0.1574 -0.8395 0.3615
0.2319 -0.8226 0.3617
0.3047 -0.7992 0.3620
0.3751 -0.7694 0.3623
0.4427 -0.7335 0.3626
0.5069 -0.6918 0.3630
0.5673 -0.6444 0.3634
0.6232 -0.5919 0.3638
0.6743 -0.5345 0.3642
0.7202 -0.4727 0.3646
0.7605 -0.4070 0.3651
0.7948 -0.3379 0.3655
0.8228 -0.2659 0.3660
0.8443 -0.1917 0.3665
0.8592 -0.1157 0.3669
0.8671 -0.0385 0.3674
0.8681 0.0391 0.3678
0.8622 0.1166 0.3683
0.8493 0.1933 0.3687
0.8295 0.2686 0.3691
0.8030 0.3420 0.3694
0.7700 0.4127 0.3698
0.7307 0.4802 0.3701
0.6854 0.5439 0.3704
0.6346 0.6034 0.3706
0.5785 0.6580 0.3708
0.5177 0.7073 0.3710
0.4526 0.7510 0.3711
0.3839 0.7886 0.3712
0.3120 0.8198 0.3713
0.2375 0.8444 0.3713
0.1612 0.8621 0.3712
0.0835 0.8729 0.3711
0.0053 0.8766 0.3710
-0.0730 0.8731 0.3709
-0.1506 0.8627 0.3707
-0.2268 0.8452 0.3704
-0.3012 0.8210 0.3701
-0.3730 0.7902 0.3698
-0.4416 0.7530 0.3695
-0.5066 0.7099 0.3691
-0.5673 0.6612 0.3687
-0.6234 0.6072 0.3683
-0.6743 0.5485 0.3679
-0.7197 0.4855 0.3675
-0.7593 0.4188 0.3670
-0.7926 0.3489 0.3666
-0.8196 0.2764 0.3661
-0.8399 0.2018 0.3656
-0.8535 0.1259 0.3652
-0.8603 0.0491 0.3647
-0.8602 -0.0279 0.3643
-0.8533 -0.1044 0.3639
-0.8396 -0.1800 0.3635
-0.8193 -0.2540 0.3631
-0.7926 -0.3258 0.3627
-0.7596 -0.3949 0.3624
-0.7207 -0.4607 0.3621
-0.6762 -0.5228 0.3618
-0.6264 -0.5807 0.3616
-0.5718 -0.6340 0.3614
-0.5126 -0.6822 0.3612
-0.4495 -0.7250 0.3611
-0.3829 -0.7620 0.3610
-0.3133 -0.7931 0.3609
-0.2412 -0.8178 0.3609
-0.1673 -0.8362 0.3609
-0.0920 -0.8479 0.3610
-0.0159 -0.8530 0.3611
0.0604 -0.8514 0.3613
0.1362 -0.8430 0.3615
0.2110 -0.8280 0.3617
0.2843 -0.8065 0.3619
0.3555 -0.7785 0.3622
0.4239 -0.7443 0.3625
0.4892 -0.7041 0.3629
0.5506 -0.6583 0.3633
0.6079 -0.6072 0.3637
0.6604 -0.5511 0.3641
0.7078 -0.4905 0.3645
0.7497 -0.4259 0.3650
0.7857 -0.3577 0.3654
0.8155 -0.2865 0.3659
0.8389 -0.2128 0.3663
0.8557 -0.1372 0.3668
0.8656 -0.0604 0.3673
0.8686 0.0172 0.3677
0.8646 0.0948 0.3681
0.8536 0.1718 0.3686
0.8358 0.2476 0.3690
0.8112 0.3215 0.3693
0.7800 0.3930 0.3697
0.7424 0.4615 0.3700
0.6988 0.5263 0.3703
0.6495 0.5870 0.3706
0.5948 0.6431 0.3708
0.5353 0.6939 0.3710
0.4714 0.7392 0.3711
0.4036 0.7786 0.3712
0.3325 0.8116 0.3713
0.2588 0.8381 0.3713
0.1829 0.8578 0.3712
0.1056 0.8706 0.3712
0.0274 0.8762 0.3711
-0.0509 0.8748 0.3709
-0.1288 0.8663 0.3707
-0.2055 0.8509 0.3705
-0.2804 0.8285 0.3702
-0.3530 0.7995 0.3699
-0.4226 0.7642 0.3696
-0.4886 0.7227 0.3692
-0.5506 0.6755 0.3689
-0.6081 0.6229 0.3685
-0.6605 0.5655 0.3680
-0.7075 0.5037 0.3676
-0.7487 0.4379 0.3671
-0.7839 0.3689 0.3667
-0.8127 0.2971 0.3662
-0.8349 0.2230 0.3658
-0.8504 0.1474 0.3653
-0.8591 0.0708 0.3648
-0.8609 -0.0061 0.3644
-0.8559 -0.0829 0.3640
-0.8442 -0.1588 0.3636
-0.8257 -0.2333 0.3632
-0.8008 -0.3058 0.3628
-0.7696 -0.3757 0.3625
-0.7323 -0.4425 0.3622
-0.6894 -0.5057 0.3619
-0.6410 -0.5649 0.3616
-0.5877 -0.6195 0.3614
-0.5297 -0.6691 0.3612
-0.4677 -0.7135 0.3611
-0.4020 -0.7522 0.3610
-0.3332 -0.7849 0.3609
-0.2618 -0.8115 0.3609
-0.1883 -0.8317 0.3609
-0.1133 -0.8453 0.3610
-0.0374 -0.8523 0.3611
0.0388 -0.8525 0.3612
0.1149 -0.8461 0.3614
0.1901 -0.8329 0.3616
0.2638 -0.8132 0.3619
0.3356 -0.7870 0.3621
0.4049 -0.7545 0.3625
0.4711 -0.7161 0.3628
0.5337 -0.6718 0.3632
0.5922 -0.6221 0.3635
0.6461 -0.5674 0.3640
0.6950 -0.5081 0.3644
0.7385 -0.4445 0.3648
0.7762 -0.3773 0.3653
0.8078 -0.3069 0.3657
0.8330 -0.2338 0.3662
0.8516 -0.1587 0.3667
0.8635 -0.0822 0.3671
0.8684 -0.0048 0.3676
0.8664 0.0729 0.3680
0.8574 0.1501 0.3684
0.8415 0.2263 0.3688
0.8188 0.3009 0.3692
0.7894 0.3731 0.3696
0.7537 0.4425 0.3699
0.7117 0.5084 0.3702
0.6640 0.5704 0.3705
0.6108 0.6277 0.3707
0.5526 0.6801 0.3709
0.4898 0.7270 0.3711
0.4231 0.7681 0.3712
0.3529 0.8030 0.3712
0.2798 0.8313 0.3713
0.2045 0.8530 0.3713
0.1275 0.8677 0.3712
0.0495 0.8754 0.3711
-0.0288 0.8760 0.3710
-0.1069 0.8695 0.3708
-0.1840 0.8559 0.3706
-0.2595 0.8355 0.3703
-0.3328 0.8084 0.3700
-0.4033 0.7748 0.3697
-0.4704 0.7350 0.3693
-0.5336 0.6893 0.3690
-0.5924 0.6383 0.3686
-0.6462 0.5822 0.3682
-0.6948 0.5215 0.3677
-0.7377 0.4569 0.3673
-0.7746 0.3887 0.3668
-0.8052 0.3176 0.3664
-0.8293 0.2441 0.3659
-0.8467 0.1689 0.3654
-0.8573 0.0925 0.3650
-0.8611 0.0156 0.3645
-0.8580 -0.0613 0.3641
-0.8481 -0.1375 0.3637
-0.8316 -0.2124 0.3633
-0.8085 -0.2855 0.3629
-0.7790 -0.3562 0.3626
-0.7434 -0.4240 0.3622
-0.7020 -0.4883 0.3619
-0.6552 -0.5486 0.3617
-0.6032 -0.6045 0.3615
-0.5465 -0.6556 0.3613
-0.4856 -0.7015 0.3611
-0.4209 -0.7418 0.3610
-0.3529 -0.7763 0.3609
-0.2822 -0.8046 0.3609
-0.2092 -0.8266 0.3609
-0.1346 -0.8421 0.3610
-0.0589 -0.8510 0.3611
0.0173 -0.8531 0.3612
0.0934 -0.8486 0.3613
0.1689 -0.8373 0.3615
0.2432 -0.8194 0.3618
0.3156 -0.7950 0.3621
0.3857 -0.7643 0.3624
0.4528 -0.7275 0.3627
0.5164 -0.6849 0.3631
0.5761 -0.6367 0.3634
0.6314 -0.5834 0.3638
0.6817 -0.5253 0.3643
0.7268 -0.4629 0.3647
0.7661 -0.3966 0.3652
0.7995 -0.3271 0.3656
0.8265 -0.2547 0.3661
0.8470 -0.1801 0.3665
0.8608 -0.1039 0.3670
0.8677 -0.0267 0.3674
0.8677 0.0510 0.3679
0.8607 0.1284 0.3683
0.8467 0.2049 0.3687
0.8259 0.2800 0.3691
0.7984 0.3530 0.3695
0.7644 0.4232 0.3698
0.7242 0.4902 0.3701
0.6780 0.5533 0.3704
0.6263 0.6120 0.3707
0.5695 0.6659 0.3709
0.5080 0.7144 0.3710
0.4423 0.7571 0.3711
0.3730 0.7938 0.3712
0.3007 0.8240 0.3713
0.2260 0.8475 0.3713
0.1494 0.8642 0.3712
0.0716 0.8739 0.3711
-0.0067 0.8765 0.3710
-0.0849 0.8720 0.3708
-0.1623 0.8605 0.3706
-0.2383 0.8420 0.3704
-0.3123 0.8167 0.3701
-0.3837 0.7849 0.3698
-0.4518 0.7468 0.3694
-0.5162 0.7028 0.3691
-0.5762 0.6532 0.3687
-0.6315 0.5985 0.3683
-0.6817 0.5391 0.3678
-0.7262 0.4755 0.3674
-0.7648 0.4083 0.3669
-0.7972 0.3379 0.3665
-0.8231 0.2651 0.3660
-0.8424 0.1903 0.3656
-0.8550 0.1142 0.3651
-0.8607 0.0373 0.3647
-0.8596 -0.0396 0.3642
-0.8516 -0.1161 0.3638
-0.8369 -0.1914 0.3634
-0.8156 -0.2651 0.3630
-0.7879 -0.3365 0.3627
-0.7541 -0.4052 0.3623
-0.7143 -0.4705 0.3620
-0.6689 -0.5320 0.3618
-0.6184 -0.5892 0.3615
-0.5630 -0.6417 0.3613
-0.5032 -0.6891 0.3612
-0.4395 -0.7310 0.3610
-0.3724 -0.7672 0.3610
-0.3024 -0.7973 0.3609
-0.2300 -0.8211 0.3609
-0.1558 -0.8384 0.3609
-0.0804 -0.8492 0.3610
-0.0042 -0.8532 0.3611
0.0720 -0.8505 0.3613
0.1477 -0.8412 0.3615
0.2224 -0.8251 0.3617
0.2954 -0.8026 0.3620
0.3661 -0.7736 0.3623
0.4341 -0.7385 0.3626
0.4988 -0.6975 0.3629
0.5597 -0.6508 0.3633
0.6162 -0.5989 0.3637
0.6680 -0.5421 0.3641
0.7146 -0.4809 0.3646
0.7556 -0.4157 0.3650
0.7907 -0.3470 0.3655
0.8196 -0.2754 0.3659
0.8419 -0.2014 0.3664
0.8576 -0.1255 0.3669
0.8665 -0.0485 0.3673
0.8684 0.0291 0.3678
0.8634 0.1066 0.3682
0.8514 0.1835 0.3686
0.8325 0.2590 0.3690
0.8068 0.3326 0.3694
0.7746 0.4037 0.3697
0.7361 0.4717 0.3701
0.6916 0.5359 0.3703
0.6414 0.5959 0.3706
0.5860 0.6512 0.3708
0.5258 0.7012 0.3710
0.4612 0.7457 0.3711
0.3929 0.7841 0.3712
0.3214 0.8161 0.3713
0.2473 0.8416 0.3713
0.1711 0.8602 0.3712
0.0936 0.8719 0.3712
0.0154 0.8765 0.3710
-0.0629 0.8740 0.3709
-0.1406 0.8644 0.3707
-0.2171 0.8479 0.3705
-0.2917 0.8245 0.3702
-0.3638 0.7945 0.3699
-0.4329 0.7582 0.3695
-0.4984 0.7158 0.3692
-0.5597 0.6678 0.3688
-0.6164 0.6144 0.3684
-0.6681 0.5563 0.3680
-0.7142 0.4938 0.3675
-0.7545 0.4276 0.3671
-0.7887 0.3581 0.3666
-0.8165 0.2859 0.3662
-0.8377 0.2116 0.3657
-0.8522 0.1358 0.3652
-0.8598 0.0591 0.3648
-0.8606 -0.0179 0.3643
-0.8546 -0.0946 0.3639
-0.8418 -0.1703 0.3635
-0.8223 -0.2445 0.3631
-0.7964 -0.3166 0.3628
-0.7642 -0.3861 0.3624
-0.7261 -0.4524 0.3621
-0.6823 -0.5150 0.3618
-0.6331 -0.5735 0.3616
-0.5791 -0.6274 0.3614
-0.5205 -0.6763 0.3612
-0.4579 -0.7198 0.3611
-0.3917 -0.7576 0.3610
-0.3224 -0.7894 0.3609
-0.2507 -0.8150 0.3609
-0.1769 -0.8342 0.3609
-0.1017 -0.8468 0.3610
-0.0257 -0.8528 0.3611
0.0505 -0.8520 0.3612
0.1264 -0.8445 0.3614
0.2015 -0.8303 0.3616
0.2750 -0.8096 0.3619
0.3464 -0.7824 0.3622
0.4153 -0.7490 0.3625
0.4809 -0.7096 0.3628
0.5429 -0.6646 0.3632
0.6007 -0.6141 0.3636
0.6539 -0.5586 0.3640
0.7020 -0.4986 0.3645
0.7446 -0.4345 0.3649
0.7814 -0.3667 0.3654
0.8121 -0.2959 0.3658
0.8363 -0.2225 0.3663
0.8539 -0.1471 0.3667
0.8647 -0.0704 0.3672
0.8686 0.0071 0.3676
0.8655 0.0847 0.3681
0.8554 0.1619 0.3685
0.8385 0.2378 0.3689
0.8147 0.3121 0.3693
0.7844 0.3839 0.3696
0.7476 0.4528 0.3700
0.7048 0.5182 0.3703
0.6562 0.5794 0.3705
0.6022 0.6361 0.3707
0.5432 0.6877 0.3709
0.4799 0.7337 0.3711
0.4126 0.7738 0.3712
0.3419 0.8077 0.3712
0.2684 0.8351 0.3713
0.1928 0.8557 0.3712
0.1156 0.8693 0.3712
0.0375 0.8759 0.3711
-0.0408 0.8754 0.3709
-0.1187 0.8678 0.3707
-0.1956 0.8533 0.3705
-0.2708 0.8318 0.3703
-0.3437 0.8037 0.3700
-0.4138 0.7691 0.3696
-0.4803 0.7284 0.3693
-0.5429 0.6819 0.3689
-0.6009 0.6300 0.3685
-0.6540 0.5732 0.3681
-0.7018 0.5119 0.3677
-0.7437 0.4466 0.3672
-0.7797 0.3780 0.3667
-0.8093 0.3065 0.3663
-0.8324 0.2327 0.3658
-0.8487 0.1573 0.3654
-0.8583 0.0808 0.3649
-0.8611 0.0038 0.3645
-0.8570 -0.0730 0.3640
-0.8461 -0.1491 0.3636
-0.8285 -0.2237 0.3632
-0.8044 -0.2965 0.3629
-0.7739 -0.3668 0.3625
-0.7375 -0.4340 0.3622
-0.6952 -0.4978 0.3619
-0.6475 -0.5575 0.3617
-0.5948 -0.6127 0.3614
-0.5375 -0.6630 0.3612
-0.4759 -0.7080 0.3611
-0.4107 -0.7475 0.3610
-0.3423 -0.7810 0.3609
-0.2712 -0.8084 0.3609
-0.1979 -0.8294 0.3609
-0.1231 -0.8439 0.3610
-0.0473 -0.8518 0.3611
0.0290 -0.8529 0.3612
0.1051 -0.8473 0.3614
0.1804 -0.8350 0.3616
0.2544 -0.8161 0.3618
0.3265 -0.7907 0.3621
0.3961 -0.7591 0.3624
0.4627 -0.7214 0.3627
0.5258 -0.6778 0.3631
0.5849 -0.6289 0.3635
0.6394 -0.5748 0.3639
0.6890 -0.5160 0.3643
0.7332 -0.4530 0.3648
0.7716 -0.3862 0.3652
0.8040 -0.3161 0.3657
0.8301 -0.2434 0.3661
0.8496 -0.1685 0.3666
0.8623 -0.0921 0.3671
0.8682 -0.0148 0.3675
0.8671 0.0629 0.3680
0.8590 0.1402 0.3684
0.8440 0.2165 0.3688
0.8221 0.2913 0.3692
0.7936 0.3639 0.3695
0.7586 0.4337 0.3699
0.7175 0.5001 0.3702
0.6704 0.5626 0.3704
0.6179 0.6206 0.3707
0.5604 0.6737 0.3709
0.4982 0.7213 0.3710
0.4319 0.7631 0.3712
0.3621 0.7988 0.3712
0.2894 0.8280 0.3713
0.2143 0.8505 0.3713
0.1375 0.8662 0.3712
0.0596 0.8748 0.3711
-0.0187 0.8763 0.3710
-0.0968 0.8707 0.3708
-0.1741 0.8581 0.3706
-0.2498 0.8385 0.3703
-0.3234 0.8123 0.3701
-0.3943 0.7795 0.3697
-0.4619 0.7405 0.3694
-0.5256 0.6956 0.3690
-0.5850 0.6452 0.3686
-0.6396 0.5897 0.3682
-0.6888 0.5296 0.3678
-0.7325 0.4654 0.3673
-0.7702 0.3977 0.3669
-0.8016 0.3269 0.3664
-0.8265 0.2537 0.3660
-0.8448 0.1787 0.3655
-0.8563 0.1024 0.3650
-0.8610 0.0255 0.3646
-0.8588 -0.0514 0.3642
-0.8498 -0.1277 0.3637
-0.8341 -0.2028 0.3633
-0.8118 -0.2762 0.3630
-0.7831 -0.3472 0.3626
-0.7483 -0.4154 0.3623
-0.7077 -0.4802 0.3620
-0.6615 -0.5410 0.3617
-0.6102 -0.5976 0.3615
-0.5541 -0.6493 0.3613
-0.4937 -0.6959 0.3611
-0.4295 -0.7369 0.3610
-0.3619 -0.7722 0.3609
-0.2915 -0.8013 0.3609
-0.2188 -0.8242 0.3609
-0.1443 -0.8405 0.3610
-0.0687 -0.8502 0.3610
0.0075 -0.8532 0.3612
0.0836 -0.8496 0.3613
0.1592 -0.8391 0.3615
0.2337 -0.8221 0.3618
0.3064 -0.7986 0.3620
0.3768 -0.7686 0.3623
0.4443 -0.7326 0.3626
0.5084 -0.6907 0.3630
0.5686 -0.6432 0.3634
0.6245 -0.5905 0.3638
0.6755 -0.5330 0.3642
0.7213 -0.4712 0.3646
0.7614 -0.4054 0.3651
0.7955 -0.3362 0.3656
0.8234 -0.2642 0.3660
0.8448 -0.1899 0.3665
0.8594 -0.1138 0.3669
0.8672 -0.0367 0.3674
0.8681 0.0409 0.3678
0.8620 0.1184 0.3683
0.8489 0.1951 0.3687
0.8290 0.2704 0.3691
0.8023 0.3437 0.3694
0.7691 0.4143 0.3698
0.7297 0.4818 0.3701
0.6843 0.5454 0.3704
0.6333 0.6047 0.3706
0.5771 0.6592 0.3708
0.5162 0.7084 0.3710
0.4510 0.7519 0.3711
0.3822 0.7894 0.3712
0.3102 0.8205 0.3713
0.2357 0.8449 0.3713
0.1593 0.8625 0.3712
0.0817 0.8731 0.3711
0.0034 0.8766 0.3710
-0.0748 0.8730 0.3709
-0.1524 0.8623 0.3707
-0.2286 0.8447 0.3704
-0.3029 0.8204 0.3701
-0.3746 0.7894 0.3698
-0.4432 0.7521 0.3695
-0.5081 0.7088 0.3691
-0.5687 0.6599 0.3687
-0.6247 0.6058 0.3683
-0.6755 0.5470 0.3679
-0.7208 0.4839 0.3675
-0.7601 0.4171 0.3670
-0.7934 0.3472 0.3665
-0.8201 0.2746 0.3661
-0.8403 0.2000 0.3656
-0.8538 0.1241 0.3652
-0.8604 0.0473 0.3647
-0.8601 -0.0297 0.3643
-0.8530 -0.1062 0.3638
-0.8392 -0.1818 0.3634
-0.8188 -0.2557 0.3631
-0.7919 -0.3275 0.3627
-0.7588 -0.3965 0.3624
-0.7198 -0.4623 0.3621
-0.6751 -0.5243 0.3618
-0.6252 -0.5821 0.3616
-0.5704 -0.6352 0.3613
-0.5112 -0.6833 0.3612
-0.4480 -0.7259 0.3611
-0.3813 -0.7628 0.3610
-0.3116 -0.7937 0.3609
-0.2395 -0.8184 0.3609
-0.1655 -0.8365 0.3609
-0.0902 -0.8481 0.3610
-0.0141 -0.8531 0.3611
0.0622 -0.8513 0.3613
0.1380 -0.8428 0.3615
0.2128 -0.8276 0.3617
0.2861 -0.8059 0.3619
0.3571 -0.7777 0.3622
0.4255 -0.7434 0.3626
0.4907 -0.7031 0.3629
0.5521 -0.6572 0.3633
0.6092 -0.6059 0.3637
0.6616 -0.5497 0.3641
0.7089 -0.4891 0.3645
0.7506 -0.4243 0.3650
0.7865 -0.3561 0.3654
0.8162 -0.2848 0.3659
0.8394 -0.2110 0.3663
0.8560 -0.1354 0.3668
0.8657 -0.0585 0.3673
0.8685 0.0190 0.3677
0.8644 0.0966 0.3681
0.8533 0.1736 0.3686
0.8353 0.2493 0.3690
0.8105 0.3232 0.3693
0.7792 0.3947 0.3697
0.7415 0.4631 0.3700
0.6977 0.5278 0.3703
0.6482 0.5884 0.3706
0.5934 0.6443 0.3708
0.5338 0.6951 0.3710
0.4698 0.7402 0.3711
0.4019 0.7794 0.3712
0.3308 0.8123 0.3713
0.2570 0.8387 0.3713
0.1811 0.8582 0.3712
0.1037 0.8708 0.3712
0.0255 0.8763 0.3711
-0.0528 0.8747 0.3709
-0.1306 0.8661 0.3707
-0.2073 0.8504 0.3705
-0.2822 0.8279 0.3702
-0.3547 0.7988 0.3699
-0.4242 0.7632 0.3696
-0.4902 0.7216 0.3692
-0.5521 0.6743 0.3689
-0.6094 0.6216 0.3684
-0.6617 0.5641 0.3680
-0.7086 0.5021 0.3676
-0.7496 0.4363 0.3671
-0.7846 0.3672 0.3667
-0.8133 0.2953 0.3662
-0.8353 0.2213 0.3657
-0.8507 0.1456 0.3653
-0.8592 0.0690 0.3648
-0.8609 -0.0080 0.3644
-0.8557 -0.0847 0.3640
-0.8438 -0.1606 0.3636
-0.8252 -0.2350 0.3632
-0.8001 -0.3074 0.3628
-0.7687 -0.3773 0.3625
-0.7313 -0.4440 0.3621
-0.6882 -0.5072 0.3619
-0.6398 -0.5662 0.3616
-0.5863 -0.6207 0.3614
-0.5283 -0.6702 0.3612
-0.4662 -0.7145 0.3611
-0.4004 -0.7530 0.3610
-0.3315 -0.7856 0.3609
-0.2601 -0.8120 0.3609
-0.1865 -0.8321 0.3609
-0.1115 -0.8455 0.3610
-0.0356 -0.8524 0.3611
0.0407 -0.8525 0.3612
0.1167 -0.8458 0.3614
0.1918 -0.8325 0.3616
0.2656 -0.8126 0.3619
0.3373 -0.7863 0.3621
0.4065 -0.7537 0.3625
0.4726 -0.7151 0.3628
0.5351 -0.6707 0.3632
0.5737 -0.6195 0.3635
0.6274 -0.5664 0.3639
0.6763 -0.5087 0.3643
0.7198 -0.4469 0.3648
0.7578 -0.3813 0.3652
0.7898 -0.3125 0.3657
0.8155 -0.2410 0.3661
0.8348 -0.1675 0.3666
0.8475 -0.0924 0.3670
0.8534 -0.0164 0.3675
0.8524 0.0600 0.3679
0.8446 0.1360 0.3683
0.8300 0.2111 0.3687
0.8087 0.2846 0.3691
0.7808 0.3560 0.3695
0.7466 0.4247 0.3698
0.7062 0.4901 0.3701
0.6601 0.5516 0.3704
0.6086 0.6087 0.3706
0.5521 0.6609 0.3708
0.4912 0.7079 0.3710
0.4261 0.7491 0.3711
0.3576 0.7844 0.3711
0.2862 0.8132 0.3712
0.2124 0.8355 0.3712
0.1370 0.8510 0.3711
0.0604 0.8596 0.3710
-0.0166 0.8613 0.3709
-0.0933 0.8560 0.3707
-0.1693 0.8438 0.3705
-0.2438 0.8247 0.3703
-0.3162 0.7991 0.3700
-0.3860 0.7670 0.3697
-0.4525 0.7288 0.3693
-0.5152 0.6848 0.3690
-0.5737 0.6354 0.3686
-0.6275 0.5810 0.3682
-0.6760 0.5221 0.3678
-0.7191 0.4591 0.3673
-0.7563 0.3926 0.3669
-0.7873 0.3231 0.3664
-0.8120 0.2512 0.3660
-0.8302 0.1775 0.3655
-0.8417 0.1025 0.3651
-0.8465 0.0269 0.3646
-0.8445 -0.0487 0.3642
-0.8358 -0.1238 0.3638
-0.8205 -0.1977 0.3634
-0.7988 -0.2699 0.3630
-0.7708 -0.3398 0.3627
-0.7367 -0.4069 0.3623
-0.6969 -0.4707 0.3621
-0.6516 -0.5306 0.3618
-0.6012 -0.5863 0.3616
-0.5462 -0.6373 0.3614
-0.4869 -0.6832 0.3612
-0.4239 -0.7237 0.3611
-0.3575 -0.7585 0.3610
-0.2883 -0.7873 0.3610
-0.2168 -0.8099 0.3610
-0.1437 -0.8262 0.3610
-0.0694 -0.8359 0.3611
0.0055 -0.8390 0.3612
0.0805 -0.8355 0.3614
0.1548 -0.8254 0.3616
0.2280 -0.8088 0.3618
0.2996 -0.7858 0.3621
0.3688 -0.7565 0.3624
0.4353 -0.7212 0.3627
0.4984 -0.6802 0.3630
0.5577 -0.6336 0.3634
0.6127 -0.5819 0.3638
0.6630 -0.5255 0.3642
0.7081 -0.4647 0.3647
0.7476 -0.4001 0.3651
0.7813 -0.3322 0.3655
0.8089 -0.2614 0.3660
0.8300 -0.1884 0.3665
0.8446 -0.1137 0.3669
0.8524 -0.0379 0.3674
0.8534 0.0384 0.3678
0.8475 0.1146 0.3682
0.8348 0.1900 0.3686
0.8154 0.2641 0.3690
0.7893 0.3361 0.3694
0.7569 0.4056 0.3697
0.7182 0.4720 0.3700
0.6737 0.5346 0.3703
0.6237 0.5930 0.3705
0.5686 0.6467 0.3707
0.5088 0.6952 0.3709
0.4448 0.7381 0.3710
0.3773 0.7750 0.3711
0.3066 0.8057 0.3712
0.2334 0.8299 0.3712
0.1584 0.8473 0.3711
0.0821 0.8579 0.3711
0.0052 0.8615 0.3709
-0.0717 0.8582 0.3708
-0.1480 0.8479 0.3706
-0.2229 0.8308 0.3703
-0.2960 0.8070 0.3701
-0.3666 0.7767 0.3698
-0.4341 0.7402 0.3694
-0.4979 0.6978 0.3691
-0.5577 0.6499 0.3687
-0.6128 0.5969 0.3683
-0.6629 0.5391 0.3679
-0.7075 0.4772 0.3674
-0.7464 0.4117 0.3670
-0.7792 0.3430 0.3665
-0.8057 0.2717 0.3661
-0.8257 0.1984 0.3656
-0.8391 0.1238 0.3652
-0.8458 0.0483 0.3647
-0.8457 -0.0274 0.3643
-0.8389 -0.1027 0.3639
-0.8255 -0.1770 0.3635
-0.8056 -0.2497 0.3631
-0.7793 -0.3203 0.3628
-0.7469 -0.3883 0.3624
-0.7087 -0.4530 0.3621
-0.6649 -0.5141 0.3619
-0.6160 -0.5710 0.3616
-0.5622 -0.6234 0.3614
-0.5041 -0.6708 0.3613
-0.4420 -0.7129 0.3611
-0.3765 -0.7493 0.3611
-0.3081 -0.7798 0.3610
-0.2372 -0.8042 0.3610
-0.1645 -0.8222 0.3610
-0.0904 -0.8338 0.3611
-0.0156 -0.8388 0.3612
0.0593 -0.8372 0.3613
0.1339 -0.8290 0.3615
0.2075 -0.8142 0.3617
0.2796 -0.7930 0.3620
0.3495 -0.7654 0.3623
0.4168 -0.7318 0.3626
0.4810 -0.6923 0.3629
0.5414 -0.6473 0.3633
0.5977 -0.5970 0.3637
0.6493 -0.5419 0.3641
0.6959 -0.4823 0.3645
0.7371 -0.4187 0.3650
0.7724 -0.3517 0.3654
0.8018 -0.2817 0.3659
0.8247 -0.2092 0.3663
0.8411 -0.1349 0.3668
0.8509 -0.0594 0.3672
0.8538 0.0169 0.3677
0.8499 0.0931 0.3681
0.8391 0.1688 0.3685
0.8215 0.2433 0.3689
0.7973 0.3160 0.3693
0.7667 0.3863 0.3696
0.7297 0.4536 0.3699
0.6868 0.5173 0.3702
0.6384 0.5770 0.3705
0.5846 0.6320 0.3707
0.5261 0.6820 0.3709
0.4633 0.7266 0.3710
0.3967 0.7652 0.3711
0.3268 0.7977 0.3712
0.2543 0.8237 0.3712
0.1798 0.8431 0.3712
0.1037 0.8556 0.3711
0.0269 0.8612 0.3710
-0.0500 0.8598 0.3708
-0.1266 0.8515 0.3706
-0.2019 0.8363 0.3704
-0.2756 0.8144 0.3702
-0.3470 0.7859 0.3699
-0.4154 0.7511 0.3695
-0.4803 0.7103 0.3692
-0.5413 0.6640 0.3688
-0.5977 0.6123 0.3684
-0.6493 0.5559 0.3680
-0.6955 0.4951 0.3676
-0.7360 0.4305 0.3671
-0.7706 0.3626 0.3667
-0.7989 0.2920 0.3662
-0.8208 0.2193 0.3658
-0.8360 0.1449 0.3653
-0.8446 0.0696 0.3649
-0.8464 -0.0060 0.3644
-0.8415 -0.0815 0.3640
-0.8300 -0.1561 0.3636
-0.8118 -0.2294 0.3632
-0.7873 -0.3006 0.3629
-0.7567 -0.3694 0.3625
-0.7200 -0.4351 0.3622
-0.6778 -0.4973 0.3619
-0.6303 -0.5554 0.3617
-0.5778 -0.6091 0.3615
-0.5209 -0.6579 0.3613
-0.4599 -0.7016 0.3612
-0.3953 -0.7396 0.3611
-0.3277 -0.7718 0.3610
-0.2574 -0.7980 0.3610
-0.1852 -0.8178 0.3610
-0.1114 -0.8312 0.3611
-0.0368 -0.8380 0.3612
0.0382 -0.8383 0.3613
0.1129 -0.8319 0.3615
0.1869 -0.8190 0.3617
0.2594 -0.7996 0.3619
0.3300 -0.7738 0.3622
0.3981 -0.7419 0.3625
0.4632 -0.7040 0.3628
0.5247 -0.6605 0.3632
0.5822 -0.6117 0.3636
0.6352 -0.5579 0.3640
0.6833 -0.4995 0.3644
0.7260 -0.4370 0.3648
0.7631 -0.3709 0.3653
0.7941 -0.3017 0.3657
0.8189 -0.2299 0.3662
0.8372 -0.1560 0.3667
0.8488 -0.0808 0.3671
0.8537 -0.0047 0.3675
0.8517 0.0716 0.3680
0.8428 0.1476 0.3684
0.8272 0.2225 0.3688
0.8048 0.2957 0.3692
0.7760 0.3667 0.3695
0.7408 0.4349 0.3699
0.6995 0.4997 0.3701
0.6526 0.5606 0.3704
0.6003 0.6170 0.3706
0.5431 0.6685 0.3708
0.4814 0.7146 0.3710
0.4158 0.7549 0.3711
0.3469 0.7892 0.3712
0.2750 0.8171 0.3712
0.2010 0.8383 0.3712
0.1253 0.8528 0.3711
0.0487 0.8603 0.3710
-0.0283 0.8609 0.3709
-0.1050 0.8546 0.3707
-0.1808 0.8413 0.3705
-0.2550 0.8212 0.3702
-0.3271 0.7946 0.3699
-0.3964 0.7615 0.3696
-0.4624 0.7224 0.3693
-0.5245 0.6776 0.3689
-0.5823 0.6274 0.3685
-0.6352 0.5723 0.3681
-0.6830 0.5127 0.3677
-0.7252 0.4491 0.3673
-0.7614 0.3821 0.3668
-0.7915 0.3122 0.3663
-0.8152 0.2400 0.3659
-0.8324 0.1660 0.3654
-0.8429 0.0910 0.3650
-0.8466 0.0153 0.3646
-0.8436 -0.0603 0.3641
-0.8339 -0.1352 0.3637
-0.8176 -0.2089 0.3633
-0.7949 -0.2807 0.3630
-0.7659 -0.3503 0.3626
-0.7310 -0.4169 0.3623
-0.6903 -0.4801 0.3620
-0.6442 -0.5394 0.3618
-0.5931 -0.5944 0.3615
-0.5374 -0.6447 0.3614
-0.4775 -0.6898 0.3612
-0.4139 -0.7295 0.3611
-0.3470 -0.7633 0.3610
-0.2775 -0.7912 0.3610
-0.2057 -0.8128 0.3610
-0.1324 -0.8281 0.3610
-0.0579 -0.8368 0.3611
0.0170 -0.8389 0.3613
0.0919 -0.8344 0.3614
0.1661 -0.8233 0.3616
0.2391 -0.8057 0.3619
0.3103 -0.7817 0.3621
0.3792 -0.7515 0.3624
0.4452 -0.7153 0.3627
0.5078 -0.6734 0.3631
0.5664 -0.6260 0.3635
0.6207 -0.5736 0.3639
0.6702 -0.5164 0.3643
0.7145 -0.4551 0.3647
0.7532 -0.3899 0.3652
0.7860 -0.3215 0.3656
0.8125 -0.2504 0.3661
0.8327 -0.1771 0.3665
0.8462 -0.1021 0.3670
0.8530 -0.0262 0.3674
0.8529 0.0501 0.3679
0.8460 0.1262 0.3683
0.8323 0.2015 0.3687
0.8118 0.2752 0.3691
0.7848 0.3470 0.3694
0.7513 0.4160 0.3698
0.7118 0.4818 0.3701
0.6664 0.5438 0.3703
0.6156 0.6016 0.3706
0.5597 0.6545 0.3708
0.4993 0.7021 0.3709
0.4347 0.7441 0.3711
0.3666 0.7801 0.3711
0.2956 0.8099 0.3712
0.2221 0.8330 0.3712
0.1468 0.8494 0.3711
0.0704 0.8589 0.3710
-0.0066 0.8615 0.3709
-0.0835 0.8571 0.3708
-0.1595 0.8457 0.3705
-0.2343 0.8276 0.3703
-0.3070 0.8027 0.3700
-0.3771 0.7715 0.3697
-0.4441 0.7341 0.3694
-0.5074 0.6908 0.3690
-0.5664 0.6421 0.3686
-0.6208 0.5883 0.3682
-0.6701 0.5299 0.3678
-0.7139 0.4674 0.3674
-0.7518 0.4013 0.3669
-0.7837 0.3322 0.3665
-0.8092 0.2606 0.3660
-0.8282 0.1871 0.3656
-0.8406 0.1122 0.3651
-0.8462 0.0367 0.3647
-0.8451 -0.0390 0.3642
-0.8373 -0.1141 0.3638
-0.8229 -0.1882 0.3634
-0.8020 -0.2607 0.3631
-0.7747 -0.3309 0.3627
-0.7414 -0.3984 0.3624
-0.7023 -0.4626 0.3621
-0.6577 -0.5231 0.3618
-0.6080 -0.5794 0.3616
-0.5536 -0.6310 0.3614
-0.4948 -0.6776 0.3612
-0.4322 -0.7188 0.3611
-0.3662 -0.7544 0.3610
-0.2974 -0.7840 0.3610
-0.2262 -0.8074 0.3610
-0.1532 -0.8244 0.3610
-0.0790 -0.8350 0.3611
-0.0042 -0.8390 0.3612
0.0708 -0.8363 0.3614
0.1453 -0.8271 0.3616
0.2187 -0.8113 0.3618
0.2904 -0.7892 0.3620
0.3600 -0.7607 0.3623
0.4269 -0.7261 0.3627
0.4905 -0.6858 0.3630
0.5503 -0.6399 0.3634
0.6059 -0.5889 0.3638
0.6568 -0.5330 0.3642
0.7026 -0.4728 0.3646
0.7429 -0.4087 0.3650
0.7773 -0.3411 0.3655
0.8057 -0.2707 0.3659
0.8277 -0.1980 0.3664
0.8431 -0.1234 0.3669
0.8518 -0.0477 0.3673
0.8536 0.0286 0.3677
0.8487 0.1048 0.3682
0.8368 0.1803 0.3686
0.8183 0.2546 0.3690
0.7931 0.3270 0.3693
0.7614 0.3968 0.3697
0.7235 0.4636 0.3700
0.6798 0.5268 0.3703
0.6305 0.5857 0.3705
0.5760 0.6400 0.3707
0.5168 0.6892 0.3709
0.4533 0.7329 0.3710
0.3862 0.7706 0.3711
0.3159 0.8021 0.3712
0.2430 0.8271 0.3712
0.1682 0.8455 0.3711
0.0920 0.8569 0.3711
0.0151 0.8615 0.3710
-0.0618 0.8590 0.3708
-0.1382 0.8496 0.3706
-0.2133 0.8334 0.3704
-0.2867 0.8104 0.3701
-0.3576 0.7810 0.3698
-0.4255 0.7452 0.3695
-0.4899 0.7036 0.3691
-0.5502 0.6564 0.3688
-0.6060 0.6040 0.3684
-0.6567 0.5468 0.3679
-0.7021 0.4855 0.3675
-0.7417 0.4203 0.3671
-0.7753 0.3520 0.3666
-0.8027 0.2810 0.3661
-0.8235 0.2080 0.3657
-0.8378 0.1335 0.3652
-0.8453 0.0581 0.3648
-0.8461 -0.0176 0.3644
-0.8402 -0.0930 0.3639
-0.8276 -0.1674 0.3635
-0.8085 -0.2404 0.3632
-0.7831 -0.3113 0.3628
-0.7514 -0.3796 0.3625
-0.7139 -0.4448 0.3622
-0.6709 -0.5064 0.3619
-0.6226 -0.5639 0.3617
-0.5694 -0.6169 0.3615
-0.5118 -0.6650 0.3613
-0.4502 -0.7078 0.3612
-0.3852 -0.7449 0.3611
-0.3171 -0.7762 0.3610
-0.2465 -0.8014 0.3610
-0.1740 -0.8203 0.3610
-0.1000 -0.8327 0.3611
-0.0253 -0.8385 0.3612
0.0497 -0.8378 0.3613
0.1243 -0.8304 0.3615
0.1981 -0.8165 0.3617
0.2704 -0.7961 0.3620
0.3406 -0.7693 0.3622
0.4083 -0.7365 0.3626
0.4729 -0.6977 0.3629
0.5338 -0.6534 0.3633
0.5906 -0.6038 0.3637
0.6429 -0.5492 0.3641
0.6902 -0.4902 0.3645
0.7321 -0.4271 0.3649
0.7682 -0.3605 0.3654
0.7983 -0.2909 0.3658
0.8221 -0.2187 0.3663
0.8394 -0.1446 0.3667
0.8500 -0.0692 0.3672
0.8538 0.0070 0.3676
0.8508 0.0833 0.3680
0.8409 0.1591 0.3685
0.8242 0.2338 0.3689
0.8008 0.3068 0.3692
0.7710 0.3774 0.3696
0.7349 0.4451 0.3699
0.6927 0.5093 0.3702
0.6449 0.5695 0.3704
0.5918 0.6252 0.3707
0.5339 0.6759 0.3708
0.4717 0.7211 0.3710
0.4055 0.7606 0.3711
0.3360 0.7939 0.3712
0.2638 0.8208 0.3712
0.1895 0.8410 0.3712
0.1136 0.8544 0.3711
0.0369 0.8609 0.3710
-0.0401 0.8604 0.3708
-0.1167 0.8530 0.3707
-0.1923 0.8386 0.3704
-0.2662 0.8176 0.3702
-0.3379 0.7899 0.3699
-0.4067 0.7559 0.3696
-0.4721 0.7159 0.3692
-0.5336 0.6703 0.3689
-0.5907 0.6193 0.3685
-0.6429 0.5634 0.3681
-0.6898 0.5032 0.3676
-0.7311 0.4391 0.3672
-0.7665 0.3716 0.3667
-0.7956 0.3013 0.3663
-0.8183 0.2288 0.3658
-0.8344 0.1546 0.3654
-0.8439 0.0794 0.3649
-0.8466 0.0037 0.3645
-0.8425 -0.0718 0.3641
-0.8318 -0.1465 0.3637
-0.8146 -0.2200 0.3633
-0.7909 -0.2915 0.3629
-0.7610 -0.3606 0.3626
-0.7251 -0.4268 0.3623
-0.6836 -0.4894 0.3620
-0.6367 -0.5481 0.3617
-0.5849 -0.6024 0.3615
-0.5285 -0.6519 0.3613
-0.4680 -0.6962 0.3612
-0.4039 -0.7350 0.3611
-0.3366 -0.7680 0.3610
-0.2666 -0.7949 0.3610
-0.1946 -0.8156 0.3610
-0.1210 -0.8298 0.3611
-0.0465 -0.8375 0.3612
0.0285 -0.8386 0.3613
0.1033 -0.8331 0.3615
0.1774 -0.8211 0.3617
0.2501 -0.8025 0.3619
0.3210 -0.7775 0.3622
0.3895 -0.7464 0.3625
0.4550 -0.7093 0.3628
0.5170 -0.6665 0.3632
0.5750 -0.6183 0.3635
0.6286 -0.5651 0.3639
0.6774 -0.5073 0.3644
0.7208 -0.4453 0.3648
0.7586 -0.3797 0.3652
0.7905 -0.3108 0.3657
0.8161 -0.2393 0.3661
0.8352 -0.1657 0.3666
0.8477 -0.0906 0.3670
0.8534 -0.0145 0.3675
0.8523 0.0618 0.3679
0.8444 0.1378 0.3683
0.8296 0.2129 0.3687
0.8081 0.2864 0.3691
0.7801 0.3577 0.3695
0.7457 0.4263 0.3698
0.7052 0.4916 0.3701
0.6590 0.5530 0.3704
0.6073 0.6100 0.3706
0.5507 0.6621 0.3708
0.4896 0.7089 0.3710
0.4245 0.7501 0.3711
0.3559 0.7851 0.3711
0.2844 0.8138 0.3712
0.2107 0.8360 0.3712
0.1351 0.8513 0.3711
0.0586 0.8598 0.3710
-0.0184 0.8613 0.3709
-0.0952 0.8558 0.3707
-0.1711 0.8434 0.3705
-0.2455 0.8242 0.3703
-0.3179 0.7984 0.3700
-0.3876 0.7662 0.3697
-0.4540 0.7278 0.3693
-0.5167 0.6837 0.3690
-0.5750 0.6342 0.3686
-0.6287 0.5797 0.3682
-0.6771 0.5206 0.3677
-0.7201 0.4575 0.3673
-0.7571 0.3909 0.3669
-0.7880 0.3214 0.3664
-0.8125 0.2494 0.3660
-0.8305 0.1757 0.3655
-0.8419 0.1007 0.3650
-0.8465 0.0251 0.3646
-0.8443 -0.0505 0.3642
-0.8355 -0.1255 0.3638
-0.8201 -0.1994 0.3634
-0.7982 -0.2716 0.3630
-0.7700 -0.3414 0.3627
-0.7358 -0.4084 0.3623
-0.6959 -0.4721 0.3620
-0.6505 -0.5320 0.3618
-0.6000 -0.5876 0.3616
-0.5449 -0.6385 0.3614
-0.4855 -0.6843 0.3612
-0.4223 -0.7246 0.3611
-0.3558 -0.7593 0.3610
-0.2866 -0.7880 0.3610
-0.2151 -0.8104 0.3610
-0.1419 -0.8265 0.3610
-0.0676 -0.8360 0.3611
0.0073 -0.8390 0.3612
0.0823 -0.8354 0.3614
0.1566 -0.8251 0.3616
0.2298 -0.8084 0.3618
0.3012 -0.7852 0.3621
0.3704 -0.7558 0.3624
0.4368 -0.7203 0.3627
0.4999 -0.6791 0.3631
0.5591 -0.6324 0.3634
0.6140 -0.5806 0.3638
0.6641 -0.5241 0.3642
0.7091 -0.4632 0.3647
0.7485 -0.3985 0.3651
0.7821 -0.3305 0.3656
0.8095 -0.2597 0.3660
0.8305 -0.1866 0.3665
0.8448 -0.1119 0.3669
0.8525 -0.0361 0.3674
0.8533 0.0402 0.3678
0.8473 0.1164 0.3682
0.8345 0.1918 0.3686
0.8148 0.2658 0.3690
0.7886 0.3378 0.3694
0.7560 0.4073 0.3697
0.7172 0.4735 0.3700
0.6726 0.5361 0.3703
0.6225 0.5944 0.3705
0.5672 0.6479 0.3707
0.5073 0.6963 0.3709
0.4433 0.7390 0.3710
0.3756 0.7758 0.3711
0.3049 0.8064 0.3712
0.2317 0.8304 0.3712
0.1566 0.8477 0.3711
0.0803 0.8581 0.3711
0.0033 0.8615 0.3709
-0.0736 0.8580 0.3708
-0.1498 0.8476 0.3706
-0.2247 0.8303 0.3703
-0.2977 0.8063 0.3701
-0.3682 0.7759 0.3698
-0.4356 0.7392 0.3694
-0.4994 0.6967 0.3691
-0.5590 0.6487 0.3687
-0.6140 0.5955 0.3683
-0.6640 0.5377 0.3679
-0.7085 0.4757 0.3674
-0.7473 0.4101 0.3670
-0.7799 0.3413 0.3665
-0.8063 0.2700 0.3661
-0.8261 0.1967 0.3656
-0.8394 0.1220 0.3652
-0.8459 0.0465 0.3647
-0.8456 -0.0292 0.3643
-0.8387 -0.1045 0.3639
-0.8251 -0.1787 0.3635
-0.8050 -0.2514 0.3631
-0.7786 -0.3220 0.3628
-0.7461 -0.3898 0.3624
-0.7077 -0.4545 0.3621
-0.6638 -0.5155 0.3619
-0.6147 -0.5723 0.3616
-0.5609 -0.6246 0.3614
-0.5026 -0.6719 0.3613
-0.4405 -0.7138 0.3611
-0.3749 -0.7501 0.3610
-0.3064 -0.7805 0.3610
-0.2355 -0.8047 0.3610
-0.1627 -0.8226 0.3610
-0.0886 -0.8340 0.3611
-0.0138 -0.8388 0.3612
0.0611 -0.8371 0.3614
0.1357 -0.8287 0.3615
0.2092 -0.8138 0.3618
0.2813 -0.7924 0.3620
0.3512 -0.7647 0.3623
0.4184 -0.7309 0.3626
0.4824 -0.6913 0.3630
0.5428 -0.6461 0.3633
0.5989 -0.5957 0.3637
0.6505 -0.5405 0.3641
0.6969 -0.4808 0.3645
0.7380 -0.4172 0.3650
0.7732 -0.3500 0.3654
0.8024 -0.2800 0.3659
0.8252 -0.2075 0.3663
0.8415 -0.1331 0.3668
0.8510 -0.0575 0.3672
0.8538 0.0187 0.3677
0.8497 0.0950 0.3681
0.8388 0.1706 0.3685
0.8210 0.2451 0.3689
0.7967 0.3177 0.3693
0.7658 0.3880 0.3696
0.7288 0.4552 0.3699
0.6858 0.5188 0.3702
0.6371 0.5784 0.3705
0.5833 0.6333 0.3707
0.5247 0.6832 0.3709
0.4618 0.7276 0.3710
0.3951 0.7661 0.3711
0.3251 0.7984 0.3712
0.2526 0.8243 0.3712
0.1779 0.8435 0.3712
0.1019 0.8558 0.3711
0.0251 0.8613 0.3710
-0.0519 0.8597 0.3708
-0.1284 0.8512 0.3706
-0.2037 0.8359 0.3704
-0.2773 0.8138 0.3701
-0.3486 0.7851 0.3699
-0.4169 0.7502 0.3695
-0.4818 0.7093 0.3692
-0.5427 0.6628 0.3688
-0.5990 0.6110 0.3684
-0.6504 0.5545 0.3680
-0.6965 0.4936 0.3676
-0.7369 0.4289 0.3671
-0.7713 0.3610 0.3667
-0.7995 0.2903 0.3662
-0.8212 0.2175 0.3658
-0.8363 0.1432 0.3653
-0.8447 0.0678 0.3649
-0.8464 -0.0078 0.3644
-0.8413 -0.0833 0.3640
-0.8296 -0.1579 0.3636
-0.8113 -0.2311 0.3632
-0.7867 -0.3023 0.3629
-0.7558 -0.3710 0.3625
-0.7191 -0.4366 0.3622
-0.6767 -0.4987 0.3619
-0.6291 -0.5567 0.3617
-0.5765 -0.6103 0.3615
-0.5195 -0.6591 0.3613
-0.4584 -0.7025 0.3612
-0.3938 -0.7405 0.3611
-0.3260 -0.7725 0.3610
-0.2557 -0.7985 0.3610
-0.1834 -0.8182 0.3610
-0.1097 -0.8314 0.3611
-0.0350 -0.8381 0.3612
0.0400 -0.8382 0.3613
0.1147 -0.8317 0.3615
0.1886 -0.8186 0.3617
0.2611 -0.7991 0.3619
0.3317 -0.7731 0.3622
0.3997 -0.7411 0.3625
0.4647 -0.7031 0.3629
0.5262 -0.6594 0.3632
0.5642 -0.6092 0.3636
0.6170 -0.5570 0.3640
0.6650 -0.5003 0.3644
0.7078 -0.4394 0.3648
0.7451 -0.3749 0.3652
0.7766 -0.3073 0.3657
0.8019 -0.2370 0.3661
0.8208 -0.1647 0.3666
0.8333 -0.0908 0.3670
0.8390 -0.0161 0.3675
0.8381 0.0590 0.3679
0.8304 0.1337 0.3683
0.8160 0.2075 0.3687
0.7951 0.2798 0.3691
0.7676 0.3500 0.3694
0.7340 0.4175 0.3697
0.6943 0.4818 0.3700
0.6490 0.5422 0.3703
0.5983 0.5984 0.3705
0.5428 0.6497 0.3707
0.4828 0.6959 0.3709
0.4189 0.7364 0.3710
0.3516 0.7711 0.3711
0.2813 0.7994 0.3711
0.2088 0.8213 0.3711
0.1347 0.8366 0.3710
0.0594 0.8451 0.3709
-0.0163 0.8467 0.3708
-0.0918 0.8415 0.3706
-0.1664 0.8295 0.3704
-0.2397 0.8108 0.3702
-0.3109 0.7856 0.3699
-0.3794 0.7540 0.3696
-0.4449 0.7165 0.3693
-0.5066 0.6733 0.3689
-0.5641 0.6247 0.3685
-0.6169 0.5712 0.3681
-0.6647 0.5133 0.3677
-0.7070 0.4514 0.3673
-0.7436 0.3860 0.3669
-0.7742 0.3177 0.3664
-0.7985 0.2470 0.3660
-0.8163 0.1745 0.3655
-0.8276 0.1008 0.3651
-0.8323 0.0265 0.3646
-0.8304 -0.0479 0.3642
-0.8219 -0.1217 0.3638
-0.8069 -0.1944 0.3634
-0.7855 -0.2654 0.3631
-0.7580 -0.3342 0.3627
-0.7245 -0.4001 0.3624
-0.6854 -0.4629 0.3621
-0.6408 -0.5218 0.3619
-0.5913 -0.5766 0.3616
-0.5372 -0.6268 0.3615
-0.4789 -0.6720 0.3613
-0.4169 -0.7118 0.3612
-0.3516 -0.7460 0.3611
-0.2835 -0.7744 0.3611
-0.2133 -0.7966 0.3611
-0.1413 -0.8125 0.3611
-0.0682 -0.8221 0.3612
0.0055 -0.8252 0.3613
0.0791 -0.8217 0.3615
0.1523 -0.8118 0.3617
0.2243 -0.7955 0.3619
0.2946 -0.7728 0.3621
0.3627 -0.7440 0.3624
0.4281 -0.7093 0.3628
0.4901 -0.6689 0.3631
0.5485 -0.6231 0.3635
0.6025 -0.5722 0.3639
0.6520 -0.5167 0.3643
0.6963 -0.4570 0.3647
0.7352 -0.3935 0.3651
0.7683 -0.3266 0.3656
0.7954 -0.2571 0.3660
0.8161 -0.1853 0.3665
0.8304 -0.1118 0.3669
0.8381 -0.0372 0.3673
0.8391 0.0378 0.3678
0.8333 0.1127 0.3682
0.8208 0.1868 0.3686
0.8016 0.2596 0.3690
0.7760 0.3305 0.3693
0.7441 0.3988 0.3696
0.7061 0.4640 0.3700
0.6623 0.5256 0.3702
0.6131 0.5830 0.3705
0.5589 0.6357 0.3707
0.5002 0.6834 0.3708
0.4373 0.7256 0.3710
0.3709 0.7619 0.3710
0.3014 0.7921 0.3711
0.2295 0.8158 0.3711
0.1557 0.8330 0.3711
0.0807 0.8434 0.3710
0.0051 0.8469 0.3709
-0.0705 0.8437 0.3707
-0.1455 0.8336 0.3705
-0.2192 0.8167 0.3703
-0.2910 0.7933 0.3700
-0.3604 0.7636 0.3697
-0.4268 0.7277 0.3694
-0.4896 0.6860 0.3690
-0.5483 0.6389 0.3687
-0.6025 0.5868 0.3683
-0.6517 0.5301 0.3678
-0.6956 0.4692 0.3674
-0.7339 0.4048 0.3670
