ply
format ascii 1.0
element vertex 1980
property float32 x
property float32 y
property float32 z
end_header
11.9154 -5.1918 -5.0352
11.9125 -3.9691 -4.8644
11.9098 -2.8177 -4.7413
11.9073 -1.7146 -4.6605
12.0200 -0.6462 -4.6633
11.9023 0.4239 -4.6139
11.8998 1.4940 -4.6462
12.0220 2.6152 -4.7663
12.0164 3.7633 -4.8781
9.3843 6.0337 -4.3221
28.7575 22.3516 -14.1101
9.1912 8.5627 -4.8665
4.3426 8.6869 -3.7624
-23.0301 5.8395 -9.2042
-23.2239 3.7247 -9.1119
-23.2189 1.6215 -9.0170
-23.2141 -0.4546 -8.9949
-23.2092 -2.5371 -9.0449
-23.2042 -4.6598 -9.1688
11.9212 -11.0557 -6.1837
12.0923 -9.3547 -5.8147
11.9924 -7.6722 -5.4147
11.9178 -6.2021 -5.1098
12.0301 -4.9526 -4.9480
11.9119 -3.7009 -4.7441
11.9093 -2.5624 -4.6332
11.9067 -1.4675 -4.5628
12.0194 -0.4007 -4.5739
11.9017 0.6669 -4.5337
12.0264 1.7596 -4.6228
12.0206 2.8727 -4.7006
12.0150 4.0335 -4.8203
9.1986 6.1828 -4.2154
28.8012 23.3424 -14.1000
27.7769 26.9556 -14.7213
6.1639 8.6012 -4.0246
4.1374 8.7161 -3.6695
-23.0218 7.5590 -9.2159
-23.2261 5.3880 -9.0683
-23.2227 3.2405 -8.9180
-23.2178 1.1466 -8.8413
-23.2130 -0.9281 -8.8357
-17.6813 -2.2983 -6.7814
-23.2031 -5.1537 -9.0400
-23.0626 -7.3334 -9.2042
-10.8320 -21.9065 -9.2947
12.0938 -9.9911 -5.9663
12.0898 -8.2919 -5.5758
11.9189 -6.6962 -5.1996
11.9158 -5.3580 -4.9691
11.9143 -4.1245 -4.7953
11.9102 -2.9647 -4.6681
11.9076 -1.8565 -4.5836
12.0203 -0.7868 -4.5815
11.9026 0.2850 -4.5283
11.9001 1.3534 -4.5552
12.0226 2.4690 -4.6680
12.0171 3.6103 -4.7723
34.1182 21.3789 -15.3134
29.8413 22.6412 -14.2467
28.2879 25.7445 -14.5474
-23.2296 6.1791 -9.1422
-23.2245 4.0028 -8.9633
-23.2196 1.8937 -8.8605
-23.2147 -0.1840 -8.8296
-23.2099 -2.2638 -8.8694
-22.9940 -4.3396 -8.8998
-23.1998 -6.5667 -9.1703
11.9200 -10.5076 -6.0436
12.0912 -8.8753 -5.7046
12.0875 -7.3099 -5.3726
11.9169 -5.8243 -5.0448
12.0293 -4.6007 -4.8983
11.9111 -3.3735 -4.7084
11.9085 -2.2494 -4.6093
11.9068 -1.1633 -4.5501
11.9051 -0.0963 -4.5280
11.9010 0.9687 -4.5413
12.0247 2.0705 -4.6407
12.0191 3.1950 -4.7300
15.3653 8.9559 -6.7642
31.1944 22.1302 -14.5466
29.0041 24.7453 -14.5005
-13.6083 17.7651 -8.5112
-23.1760 6.9668 -9.2042
-23.2263 4.7738 -9.0184
-23.2213 2.6448 -8.8890
-23.2164 0.5597 -8.8326
-23.0006 -1.5017 -8.7665
-23.2067 -3.6142 -8.9327
-22.9907 -5.7189 -9.0106
-22.9855 -7.9529 -9.2507
-10.3208 -22.2702 -9.3355
12.0926 -9.4870 -5.8457
12.0888 -7.8501 -5.4821
11.9180 -6.3055 -5.1281
11.9167 -5.0008 -4.9152
11.9121 -3.7899 -4.7544
11.9095 -2.6472 -4.6401
11.9069 -1.5497 -4.5668
12.0196 -0.4825 -4.5752
11.9019 0.5858 -4.5322
12.0269 1.6763 -4.6184
12.0210 2.7866 -4.6932
12.0155 3.9430 -4.8097
9.2031 6.0955 -4.1984
29.1021 23.2605 -14.1696
9.1136 8.7247 -4.7985
6.2353 8.5772 -4.0331
4.1960 8.6866 -3.6690
-23.0222 7.7327 -9.2369
-23.2281 5.5550 -9.0836
-23.2231 3.4016 -8.9268
-23.2182 1.3048 -8.8446
-23.2133 -0.7702 -8.8337
-17.6652 -2.1743 -6.7694
-23.2035 -4.9886 -9.0267
-23.1119 -7.1765 -9.2042
-11.0281 -21.9269 -9.3349
12.0941 -10.1303 -6.0003
12.0901 -8.4134 -5.6021
12.0866 -6.8988 -5.2931
11.9160 -5.4557 -4.9845
12.0284 -4.2557 -4.8527
11.9104 -3.0508 -4.6762
11.9078 -1.9394 -4.5886
12.0205 -0.8688 -4.5837
11.9028 0.2042 -4.5277
11.9003 1.2716 -4.5519
12.0230 2.3841 -4.6618
12.0175 3.5216 -4.7629
34.4058 21.2349 -15.3774
29.8035 22.2951 -14.1560
28.9240 25.9664 -14.7835
-23.2300 6.3485 -9.1592
-23.0138 4.1277 -8.8926
-23.2199 2.0526 -8.8658
-23.2151 -0.0263 -8.8295
-23.2102 -2.1048 -8.8639
-23.2053 -4.2164 -8.9703
-23.2002 -6.3969 -9.1531
11.9203 -10.6527 -6.0803
12.0915 -9.0026 -5.7335
11.9916 -7.3636 -5.3521
11.9171 -5.9250 -5.0618
12.0295 -4.6947 -4.9113
11.9114 -3.4612 -4.7177
11.9087 -2.3334 -4.6154
11.9062 -1.2450 -4.5530
12.0189 -0.1789 -4.5717
11.9012 0.8873 -4.5390
12.0252 1.9866 -4.6356
12.0195 3.1078 -4.7218
30.9219 21.6226 -14.3508
29.3293 24.6805 -14.5789
27.5921 27.7826 -14.8924
-13.4233 17.7724 -8.4708
-23.1281 7.1241 -9.2043
-23.2267 4.9386 -9.0314
-23.0106 2.7793 -8.8153
-23.2168 0.7176 -8.8344
-23.0010 -1.3448 -8.7630
-23.2071 -3.4529 -8.9236
-23.2020 -5.6044 -9.0783
-22.9859 -7.7786 -9.2294
-10.4525 -22.1586 -9.3183
12.0929 -9.6207 -5.8773
12.0891 -7.9675 -5.5067
11.9182 -6.4096 -5.1469
11.9152 -5.0957 -4.9288
11.9123 -3.8793 -4.7649
11.9096 -2.7323 -4.6473
11.9071 -1.6321 -4.5710
12.0198 -0.5643 -4.5766
11.9021 0.5048 -4.5308
11.8996 1.5762 -4.5653
12.0215 2.7008 -4.6861
12.0159 3.8529 -4.7993
9.2495 6.0362 -4.2008
29.7305 23.4335 -14.3977
9.1303 8.6226 -4.7764
6.3178 8.5677 -4.0487
4.2690 8.6867 -3.6813
-23.0226 7.9074 -9.2584
-23.2285 5.7222 -9.0987
-23.2235 3.5629 -8.9360
-23.0075 1.4498 -8.7679
-23.2137 -0.6123 -8.8320
-17.7368 -2.0609 -6.7913
-23.2039 -4.8240 -9.0139
-23.1601 -7.0193 -9.2043
-11.2317 -21.9588 -9.3808
9.3658 -13.7244 -6.3195
12.0335 -10.2196 -6.0045
12.0904 -8.5362 -5.6290
12.0868 -7.0083 -5.3139
11.9162 -5.5540 -5.0003
12.0287 -4.3480 -4.8646
11.9106 -3.1373 -4.6845
11.9080 -2.0226 -4.5939
12.0207 -0.9510 -4.5862
11.9030 0.1233 -4.5274
11.9005 1.1899 -4.5487
12.0234 2.2994 -4.6558
12.0179 3.4332 -4.7537
35.0402 21.2991 -15.5959
29.7662 21.9535 -14.0671
29.4986 26.1223 -14.9860
-23.2304 6.5184 -9.1766
-23.2253 4.3287 -8.9855
-23.2203 2.2117 -8.8714
-23.2154 0.1314 -8.8298
-23.2106 -1.9460 -8.8588
-23.2057 -4.0538 -8.9596
-23.2006 -6.2277 -9.1363
11.9206 -10.7995 -6.1177
12.0918 -9.1311 -5.7629
11.9919 -7.4764 -5.3747
11.9173 -6.0265 -5.0792
12.0297 -4.7893 -4.9246
11.9116 -3.5491 -4.7272
11.9089 -2.4175 -4.6218
11.9064 -1.3268 -4.5564
12.0191 -0.2606 -4.5724
11.9014 0.8061 -4.5369
12.0256 1.9028 -4.6307
12.0199 3.0210 -4.7138
12.0275 4.1942 -4.8446
32.2605 22.2338 -14.9015
29.6583 24.6151 -14.6590
27.6603 27.4754 -14.8281
6.0600 8.6678 -4.0225
-23.0791 7.2811 -9.2042
-23.2271 5.1038 -9.0448
-23.2221 2.9650 -8.9038
-23.2172 0.8756 -8.8366
-23.2123 -1.1990 -8.8402
-23.2074 -3.2920 -8.9149
-23.2024 -5.4380 -9.0638
-22.9863 -7.6051 -9.2085
-10.5944 -22.0693 -9.3108
12.0932 -9.7558 -5.9096
12.0893 -8.0861 -5.5317
11.9185 -6.5145 -5.1660
11.9154 -5.1918 -4.9433
11.9125 -3.9691 -4.7756
11.9098 -2.8177 -4.6548
11.9073 -1.7146 -4.5755
12.0200 -0.6462 -4.5782
11.9023 0.4239 -4.5297
11.8998 1.4940 -4.5614
12.0219 2.6152 -4.6793
12.0163 3.7633 -4.7891
9.3828 6.0327 -4.2426
29.9073 23.2453 -14.4066
9.1912 8.5627 -4.7777
6.4127 8.5739 -4.0722
4.3426 8.6869 -3.6938
-23.0230 8.0827 -9.2804
-23.2289 5.8899 -9.1143
-23.2239 3.7247 -8.9457
-23.2189 1.6215 -8.8525
-23.2141 -0.4546 -8.8308
-23.2092 -2.5371 -8.8798
-23.2042 -4.6598 -9.0016
-23.1991 -6.8594 -9.2010
-11.4426 -22.0011 -9.4318
11.9212 -11.0557 -6.0694
12.0923 -9.3547 -5.7072
11.9924 -7.6722 -5.3145
11.9178 -6.2020 -5.0153
12.0301 -4.9525 -4.8565
11.9119 -3.7009 -4.6564
11.9093 -2.5624 -4.5475
11.9067 -1.4675 -4.4784
12.0194 -0.4007 -4.4893
11.9017 0.6669 -4.4499
12.0264 1.7596 -4.5373
12.0205 2.8727 -4.6136
12.0149 4.0335 -4.7312
9.1981 6.1825 -4.1372
28.7041 23.2637 -13.7925
27.5908 26.7749 -14.3521
6.2133 8.6702 -3.9818
4.1374 8.7161 -3.6017
-23.2330 7.6283 -9.1284
-23.2261 5.3880 -8.9005
-23.2227 3.2405 -8.7530
-23.2178 1.1466 -8.6778
-23.2130 -0.9281 -8.6723
-17.6813 -2.2983 -6.6560
-23.2031 -5.1537 -8.8728
-23.1979 -7.3764 -9.0870
-11.0196 -22.2858 -9.2807
12.0938 -9.9911 -5.8560
11.9936 -8.2260 -5.4291
11.9189 -6.6962 -5.1034
11.9158 -5.3580 -4.8772
11.9143 -4.1245 -4.7066
11.9102 -2.9647 -4.5817
11.9076 -1.8565 -4.4988
12.0203 -0.7868 -4.4968
11.9026 0.2850 -4.4445
11.9001 1.3534 -4.4709
12.0225 2.4690 -4.5817
12.0170 3.6103 -4.6840
35.1240 22.0091 -15.4732
29.8219 22.6265 -13.9741
28.5656 25.9972 -14.4185
6.5704 8.5745 -4.0325
-23.1677 8.4380 -9.2042
-23.2296 6.1791 -8.9731
-23.2245 4.0028 -8.7975
-23.2196 1.8937 -8.6966
-23.2147 -0.1840 -8.6663
-23.2099 -2.2638 -8.7053
-22.9940 -4.3396 -8.7352
-23.1998 -6.5667 -9.0007
-23.0310 -8.8042 -9.2042
-11.8456 -22.1419 -9.3741
12.0666 -10.6368 -6.0047
12.0912 -8.8753 -5.5991
12.0875 -7.3099 -5.2732
11.9169 -5.8243 -4.9515
12.0293 -4.6007 -4.8077
11.9111 -3.3735 -4.6213
11.9085 -2.2494 -4.5241
11.9068 -1.1633 -4.4660
11.9051 -0.0963 -4.4443
11.9010 0.9687 -4.4573
12.0247 2.0705 -4.5549
12.0190 3.1950 -4.6425
15.3631 8.9546 -6.6381
31.2846 22.1942 -14.3189
28.9664 24.7132 -14.2138
27.3364 27.9017 -14.5816
-23.0257 9.2319 -9.2606
-23.2315 6.9835 -9.0557
-23.2263 4.7738 -8.8516
-23.2213 2.6448 -8.7246
-23.2164 0.5597 -8.6692
-23.0006 -1.5017 -8.6044
-23.2067 -3.6142 -8.7675
-22.9907 -5.7189 -8.8440
-23.1964 -8.0259 -9.1629
11.9216 -11.2076 -6.1082
12.0926 -9.4870 -5.7376
11.9926 -7.7877 -5.3379
11.9180 -6.3055 -5.0333
11.9167 -5.0008 -4.8243
11.9121 -3.7899 -4.6664
11.9095 -2.6472 -4.5543
11.9069 -1.5497 -4.4823
12.0196 -0.4825 -4.4905
11.9019 0.5858 -4.4484
12.0269 1.6763 -4.5330
12.0210 2.7866 -4.6064
12.0154 3.9430 -4.7207
9.2029 6.0954 -4.1206
28.9260 23.1198 -13.8234
9.1136 8.7247 -4.7098
6.2689 8.6235 -3.9799
4.1960 8.6866 -3.6012
-23.2334 7.8037 -9.1492
-23.2281 5.5550 -8.9156
-23.2231 3.4016 -8.7617
-23.2182 1.3048 -8.6810
-23.2133 -0.7702 -8.6703
-17.6523 -2.1727 -6.6393
-23.2035 -4.9886 -8.8598
-23.1983 -7.2034 -9.0678
-22.9820 -9.4569 -9.2771
-11.1600 -22.1891 -9.2718
12.0941 -10.1303 -5.8893
12.0901 -8.4134 -5.4985
12.0866 -6.8988 -5.1952
11.9160 -5.4557 -4.8923
12.0284 -4.2557 -4.7630
11.9104 -3.0508 -4.5897
11.9078 -1.9394 -4.5038
12.0205 -0.8688 -4.4990
11.9028 0.2042 -4.4440
11.9003 1.2716 -4.4677
12.0230 2.3841 -4.5756
12.0174 3.5215 -4.6747
35.1474 21.6927 -15.4183
29.7843 22.2807 -13.8852
28.8835 25.9300 -14.4897
-23.1098 8.5952 -9.2043
-23.2300 6.3484 -8.9897
-23.0138 4.1277 -8.7281
-23.2199 2.0526 -8.7018
-23.2151 -0.0263 -8.6662
-23.2102 -2.1048 -8.6999
-23.2053 -4.2164 -8.8044
-23.2002 -6.3969 -8.9838
-23.0903 -8.6476 -9.2043
11.9932 -10.7178 -6.0043
12.0915 -9.0026 -5.6274
11.9916 -7.3636 -5.2531
11.9171 -5.9250 -4.9682
12.0295 -4.6947 -4.8205
11.9114 -3.4612 -4.6304
11.9087 -2.3334 -4.5301
11.9062 -1.2450 -4.4688
12.0189 -0.1789 -4.4872
11.9012 0.8873 -4.4550
12.0252 1.9866 -4.5498
12.0194 3.1078 -4.6344
31.0954 21.7440 -14.1644
29.2911 24.6483 -14.2906
27.4051 27.5942 -14.5178
-23.2319 7.1561 -9.0746
-23.2267 4.9386 -8.8643
-23.0106 2.7793 -8.6523
-23.2168 0.7176 -8.6710
-23.0010 -1.3448 -8.6009
-23.2071 -3.4529 -8.7586
-23.2020 -5.6044 -8.9104
-23.1968 -7.8500 -9.1417
11.9220 -11.3615 -6.1478
12.0929 -9.6207 -5.7686
11.9929 -7.9042 -5.3618
11.9182 -6.4096 -5.0517
11.9152 -5.0957 -4.8376
11.9123 -3.8793 -4.6767
11.9096 -2.7323 -4.5614
11.9071 -1.6321 -4.4865
12.0198 -0.5643 -4.4919
11.9021 0.5048 -4.4470
11.8996 1.5762 -4.4809
12.0214 2.7007 -4.5994
12.0158 3.8529 -4.7105
9.2492 6.0360 -4.1229
29.5477 23.2894 -14.0445
9.1303 8.6226 -4.6880
6.3378 8.5949 -3.9864
4.2690 8.6867 -3.6132
-23.2338 7.9799 -9.1705
-23.2285 5.7222 -8.9304
-23.2235 3.5629 -8.7707
-23.0075 1.4498 -8.6057
-23.2137 -0.6123 -8.6687
-17.7368 -2.0609 -6.6657
-23.2039 -4.8240 -8.8472
-23.1669 -7.0213 -9.0366
-22.9824 -9.2750 -9.2516
-11.3014 -22.0950 -9.2644
9.3655 -13.7241 -6.2024
12.0944 -10.2713 -5.9233
12.0904 -8.5361 -5.5249
12.0868 -7.0083 -5.2156
11.9162 -5.5540 -4.9078
12.0287 -4.3480 -4.7746
11.9106 -3.1373 -4.5979
11.9080 -2.0226 -4.5089
12.0207 -0.9509 -4.5014
11.9030 0.1233 -4.4436
11.9005 1.1899 -4.4646
12.0234 2.2994 -4.5697
12.0178 3.4332 -4.6657
35.1704 21.3782 -15.3643
29.7471 21.9394 -13.7981
29.2016 25.8594 -14.5608
-23.0509 8.7520 -9.2042
-23.2304 6.5184 -9.0068
-23.2253 4.3287 -8.8193
-23.2203 2.2117 -8.7074
-23.2154 0.1314 -8.6665
-23.2106 -1.9460 -8.6949
-23.2057 -4.0538 -8.7938
-23.2006 -6.2277 -8.9674
-22.9844 -8.4303 -9.1390
11.9206 -10.7995 -6.0046
12.0918 -9.1311 -5.6563
12.0576 -7.5174 -5.3042
11.9173 -6.0265 -4.9852
12.0297 -4.7893 -4.8335
11.9116 -3.5491 -4.6398
11.9089 -2.4175 -4.5363
11.9064 -1.3268 -4.4722
12.0191 -0.2606 -4.4878
11.9014 0.8061 -4.4530
12.0256 1.9028 -4.5450
12.0198 3.0209 -4.6265
12.0274 4.1942 -4.7550
31.4398 21.6682 -14.2538
29.6194 24.5828 -14.3690
27.4736 27.2899 -14.4556
-23.2323 7.3294 -9.0940
-23.2271 5.1038 -8.8775
-23.2221 2.9650 -8.7392
-23.2172 0.8756 -8.6731
-23.2123 -1.1990 -8.6767
-23.2075 -3.2920 -8.7501
-23.2024 -5.4380 -8.8962
-23.1972 -7.6748 -9.1211
-10.7725 -22.4404 -9.2922
11.9223 -11.5174 -6.1881
12.0932 -9.7558 -5.8003
11.9932 -8.0218 -5.3862
11.9185 -6.5145 -5.0704
11.9154 -5.1918 -4.8519
11.9125 -3.9691 -4.6873
11.9098 -2.8177 -4.5687
11.9073 -1.7146 -4.4908
12.0200 -0.6462 -4.4935
11.9023 0.4239 -4.4459
11.8998 1.4940 -4.4771
12.0218 2.6152 -4.5927
12.0162 3.7632 -4.7005
9.3814 6.0318 -4.1635
29.8877 23.2301 -14.1308
9.1912 8.5627 -4.6893
6.4136 8.5751 -3.9974
4.3426 8.6869 -3.6254
-23.0230 8.0827 -9.1087
-23.2289 5.8899 -8.9458
-23.2239 3.7247 -8.7802
-23.2189 1.6215 -8.6887
-23.2141 -0.4546 -8.6675
-23.2092 -2.5371 -8.7156
-23.2042 -4.6598 -8.8351
-23.1991 -6.8594 -9.0308
-22.9828 -9.0941 -9.2267
-11.4421 -22.0001 -9.2570
12.0192 -11.1466 -6.0045
12.0923 -9.3547 -5.6001
12.0885 -7.7337 -5.2566
11.9178 -6.2020 -4.9212
12.0301 -4.9526 -4.7654
11.9119 -3.7009 -4.5690
11.9093 -2.5624 -4.4622
11.9067 -1.4675 -4.3944
12.0194 -0.4007 -4.4051
11.9017 0.6669 -4.3664
12.0264 1.7596 -4.4521
12.0205 2.8727 -4.5270
12.0149 4.0334 -4.6424
9.1977 6.1822 -4.0594
29.0214 23.5209 -13.6834
27.4079 26.5975 -13.9896
4.1633 8.7707 -3.5562
-23.0797 9.9367 -9.2043
-23.2330 7.6283 -8.9572
-23.2261 5.3880 -8.7336
-23.0116 3.2111 -8.5108
-23.0400 1.1378 -8.4498
-23.0497 -0.9215 -8.4498
-17.6813 -2.2983 -6.5311
-23.2031 -5.1537 -8.7064
-23.1979 -7.3764 -8.9166
-23.1410 -9.7067 -9.1920
11.9230 -11.7896 -6.1419
12.0938 -9.9911 -5.7461
11.9936 -8.2260 -5.3273
11.9189 -6.6962 -5.0077
11.9158 -5.3580 -4.7857
11.9143 -4.1245 -4.6183
11.9102 -2.9647 -4.4958
11.9076 -1.8565 -4.4144
12.0203 -0.7868 -4.4124
11.9026 0.2850 -4.3611
11.9001 1.3534 -4.3871
12.0225 2.4690 -4.4957
12.0169 3.6102 -4.5961
31.8492 19.9571 -13.7674
29.8027 22.6119 -13.7031
28.6125 26.0399 -14.1713
6.5711 8.5755 -3.9573
-14.5282 17.7577 -8.4041
-23.2349 8.4625 -9.0578
-23.2296 6.1791 -8.8048
-23.2245 4.0028 -8.6325
-23.0085 1.8765 -8.4559
-23.0674 -0.1829 -8.4498
-22.9989 -2.2432 -8.4644
-22.9940 -4.3396 -8.5713
-23.1998 -6.5667 -8.8319
-23.1944 -8.8667 -9.0957
12.0954 -10.6622 -5.9061
12.0912 -8.8753 -5.4941
12.0875 -7.3099 -5.1743
11.9169 -5.8242 -4.8586
12.0293 -4.6007 -4.7176
11.9111 -3.3735 -4.5346
11.9085 -2.2494 -4.4392
11.9068 -1.1633 -4.3822
11.9051 -0.0963 -4.3609
11.9010 0.9687 -4.3737
12.0247 2.0705 -4.4694
12.0189 3.1949 -4.5554
15.3309 8.9359 -6.5000
31.2915 22.1992 -14.0534
28.9291 24.6813 -13.9292
27.1523 27.7139 -14.2117
-23.2369 9.3166 -9.1703
-23.2315 6.9835 -8.8858
-23.2263 4.7738 -8.6856
-23.0102 2.6208 -8.4831
-23.0614 0.5560 -8.4498
-23.0006 -1.5017 -8.4430
-23.2067 -3.6142 -8.6030
-22.9907 -5.7189 -8.6781
-23.1964 -8.0259 -8.9910
-22.9799 -10.3286 -9.2286
-12.7758 -22.1449 -9.3647
11.9422 -11.2269 -6.0039
12.0926 -9.4870 -5.6300
12.0888 -7.8501 -5.2798
11.9180 -6.3055 -4.9389
11.9167 -5.0008 -4.7338
11.9121 -3.7899 -4.5789
11.9095 -2.6472 -4.4689
11.9069 -1.5497 -4.3982
12.0196 -0.4825 -4.4063
11.9019 0.5858 -4.3649
12.0269 1.6763 -4.4480
12.0209 2.7866 -4.5200
12.0153 3.9430 -4.6321
9.2026 6.0952 -4.0432
28.7528 22.9813 -13.4828
9.1136 8.7247 -4.6214
4.2228 8.7422 -3.5562
-23.0277 10.1003 -9.2107
-23.2334 7.8037 -8.9776
-23.2281 5.5550 -8.7483
-23.2231 3.4016 -8.5973
-23.0318 1.2943 -8.4498
-23.0554 -0.7649 -8.4498
-17.6523 -2.1727 -6.5148
-23.2035 -4.9886 -8.6936
-23.1983 -7.2034 -8.8977
-23.1928 -9.5437 -9.1866
11.9233 -11.9514 -6.1838
12.0941 -10.1303 -5.7788
11.9939 -8.3465 -5.3524
12.0866 -6.8988 -5.0977
11.9160 -5.4557 -4.8005
12.0284 -4.2557 -4.6736
11.9104 -3.0508 -4.5036
11.9078 -1.9394 -4.4193
12.0205 -0.8688 -4.4146
11.9028 0.2042 -4.3606
11.9003 1.2716 -4.3839
12.0230 2.3841 -4.4897
12.0173 3.5215 -4.5870
31.9878 19.7426 -13.7690
30.9992 23.1896 -14.1805
28.8432 25.8939 -14.1981
6.6563 8.5655 -3.9735
-14.3338 17.7650 -8.3613
-23.2354 8.6419 -9.0807
-23.2300 6.3484 -8.8211
-23.0138 4.1277 -8.5644
-23.0089 2.0339 -8.4609
-23.0681 -0.0261 -8.4498
-22.9992 -2.0857 -8.4591
-23.2053 -4.2164 -8.6392
-23.2002 -6.3969 -8.8153
-23.1948 -8.6867 -9.0725
12.0957 -10.8094 -5.9420
12.0915 -9.0026 -5.5219
11.9916 -7.3636 -5.1545
11.9171 -5.9250 -4.8750
12.0295 -4.6947 -4.7300
11.9114 -3.4612 -4.5436
11.9087 -2.3334 -4.4451
11.9062 -1.2450 -4.3850
12.0189 -0.1789 -4.4030
11.9012 0.8873 -4.3715
12.0252 1.9866 -4.4645
12.0193 3.1078 -4.5474
31.2701 21.8661 -13.9767
29.2531 24.6163 -14.0044
27.2213 27.4092 -14.1500
-23.0323 9.4166 -9.1145
-23.2319 7.1561 -8.9043
-23.2267 4.9386 -8.6981
-23.0106 2.7793 -8.4900
-23.0571 0.7126 -8.4498
-23.0010 -1.3448 -8.4396
-23.2071 -3.4529 -8.5943
-23.2020 -5.6044 -8.7433
-23.1968 -7.8500 -8.9703
-22.9886 -10.1454 -9.2042
11.9220 -11.3615 -6.0324
12.0929 -9.6207 -5.6604
12.0891 -7.9675 -5.3034
11.9182 -6.4096 -4.9569
11.9152 -5.0957 -4.7469
11.9123 -3.8793 -4.5890
11.9096 -2.7323 -4.4758
11.9071 -1.6321 -4.4023
12.0198 -0.5643 -4.4077
11.9021 0.5048 -4.3636
11.8996 1.5762 -4.3969
12.0213 2.7007 -4.5131
12.0157 3.8529 -4.6221
9.2489 6.0359 -4.0455
29.3679 23.1477 -13.6972
9.1303 8.6226 -4.6001
6.3843 8.6579 -3.9404
4.2821 8.7133 -3.5562
-23.0282 10.2876 -9.2386
-23.2338 7.9799 -8.9985
-23.2285 5.7222 -8.7629
-23.2235 3.5629 -8.6062
-23.0075 1.4498 -8.4443
-23.0601 -0.6082 -8.4498
-17.7368 -2.0609 -6.5406
-23.2039 -4.8240 -8.6812
-23.1669 -7.0213 -8.8671
-23.1932 -9.3601 -9.1614
9.3653 -13.7237 -6.0859
12.0944 -10.2713 -5.8122
11.9942 -8.4683 -5.3781
12.0868 -7.0083 -5.1178
11.9162 -5.5540 -4.8157
12.0287 -4.3480 -4.6851
11.9106 -3.1373 -4.5116
11.9080 -2.0226 -4.4243
12.0207 -0.9510 -4.4169
11.9030 0.1233 -4.3603
11.9005 1.1899 -4.3808
12.0234 2.2994 -4.4840
12.0178 3.4332 -4.5782
35.3009 21.4576 -15.1320
31.0784 22.9213 -14.1452
29.5071 26.1299 -14.4371
6.7614 8.5798 -4.0014
-23.2358 8.8222 -9.1040
-23.2304 6.5184 -8.8379
-23.2253 4.3287 -8.6538
-23.0092 2.1916 -8.4664
-23.0678 0.1305 -8.4498
-22.9996 -1.9283 -8.4542
-23.2057 -4.0538 -8.6289
-23.2006 -6.2277 -8.7991
-22.9844 -8.4303 -8.9676
12.0960 -10.9584 -5.9786
12.0918 -9.1311 -5.5502
12.0880 -7.5363 -5.2179
11.9173 -6.0265 -4.8917
12.0297 -4.7893 -4.7428
11.9116 -3.5491 -4.5527
11.9089 -2.4175 -4.4512
11.9064 -1.3268 -4.3883
12.0191 -0.2606 -4.4036
11.9014 0.8061 -4.3694
12.0256 1.9028 -4.4598
12.0197 3.0209 -4.5397
12.0273 4.1942 -4.6658
31.4468 21.6730 -13.9896
29.5808 24.5507 -14.0811
27.2902 27.1077 -14.0897
-23.1939 9.6671 -9.2043
-23.2323 7.3294 -8.9234
-23.2271 5.1038 -8.7110
-23.0110 2.9380 -8.4973
-23.0517 0.8693 -8.4498
-23.0374 -1.1900 -8.4498
-22.9965 -3.2621 -8.5079
-23.2024 -5.4380 -8.7293
-23.1972 -7.6748 -8.9500
-23.0571 -9.9889 -9.2042
11.9223 -11.5174 -6.0721
12.0932 -9.7558 -5.6915
12.0385 -8.0521 -5.3052
11.9185 -6.5145 -4.9753
11.9154 -5.1918 -4.7609
11.9125 -3.9691 -4.5994
11.9098 -2.8177 -4.4830
11.9073 -1.7146 -4.4066
12.0200 -0.6462 -4.4093
11.9023 0.4239 -4.3625
11.8998 1.4940 -4.3931
12.0217 2.6152 -4.5065
12.0162 3.7632 -4.6123
9.3799 6.0309 -4.0847
29.8682 23.2149 -13.8567
9.1912 8.5627 -4.6013
6.4428 8.6141 -3.9403
4.3468 8.6952 -3.5608
-23.0286 10.4760 -9.2671
-23.0230 8.0827 -8.9379
-23.2289 5.8899 -8.7779
-23.2239 3.7247 -8.6155
-23.0121 1.6071 -8.4498
-23.0637 -0.4516 -8.4498
-22.9982 -2.5141 -8.4744
-23.2042 -4.6598 -8.6693
-23.1991 -6.8594 -8.8614
-23.1937 -9.1776 -9.1367
12.0967 -11.2183 -5.9281
12.0923 -9.3547 -5.4935
12.0885 -7.7337 -5.1566
11.9178 -6.2021 -4.8275
12.0301 -4.9526 -4.6747
11.9119 -3.7009 -4.4821
11.9093 -2.5624 -4.3772
11.9067 -1.4675 -4.3108
12.0194 -0.4007 -4.3213
11.9017 0.6669 -4.2833
12.0264 1.7596 -4.3674
12.0204 2.8726 -4.4409
12.0148 4.0334 -4.5540
9.1973 6.1819 -3.9820
29.0772 23.5661 -13.4488
27.2282 26.4231 -13.6334
-23.2386 10.0051 -9.0912
-23.2330 7.6283 -8.7867
-23.0166 5.3394 -8.4901
-23.2227 3.2405 -8.4254
-23.2178 1.1466 -8.3529
-23.2130 -0.9281 -8.3477
-17.7656 -2.3093 -6.4373
-22.9922 -5.1068 -8.4630
-23.1979 -7.3764 -8.7469
-23.1410 -9.7067 -9.0171
11.9230 -11.7896 -6.0251
12.0938 -9.9911 -5.6368
12.0898 -8.2919 -5.2678
11.9189 -6.6962 -4.9124
11.9158 -5.3580 -4.6946
11.9143 -4.1245 -4.5304
11.9102 -2.9647 -4.4102
11.9076 -1.8565 -4.3304
12.0203 -0.7868 -4.3285
11.9026 0.2850 -4.2781
11.9001 1.3534 -4.3036
12.0225 2.4690 -4.4102
12.0168 3.6102 -4.5086
31.7307 19.8828 -13.4551
29.8496 22.6475 -13.4635
28.6409 26.0657 -13.9154
6.6008 8.6143 -3.8996
-23.0294 10.8020 -9.1401
-23.2349 8.4625 -8.8854
-23.2296 6.1791 -8.6373
-23.1739 3.9941 -8.4498
-23.2196 1.8937 -8.3711
-23.2147 -0.1840 -8.3419
-23.2099 -2.2638 -8.3795
-22.9940 -4.3396 -8.4082
-23.1998 -6.5667 -8.6638
-23.1944 -8.8667 -8.9226
-23.0155 -11.2440 -9.2042
12.0954 -10.6622 -5.7937
12.0912 -8.8753 -5.3895
12.0875 -7.3099 -5.0758
11.9169 -5.8243 -4.7661
12.0293 -4.6007 -4.6278
11.9111 -3.3735 -4.4483
11.9085 -2.2494 -4.3547
11.9068 -1.1633 -4.2988
11.9051 -0.0963 -4.2779
11.9010 0.9687 -4.2905
12.0247 2.0705 -4.3844
12.0188 3.1949 -4.4687
15.3309 8.9359 -6.3763
31.2830 22.1931 -13.7822
28.8919 24.6496 -13.6466
26.9716 27.5293 -13.8484
-23.0315 11.7171 -9.2852
-23.2369 9.3165 -8.9958
-23.2315 6.9835 -8.7167
-23.0341 4.7343 -8.4498
-23.2213 2.6448 -8.3980
-23.2164 0.5597 -8.3447
-23.0006 -1.5017 -8.2823
-23.2067 -3.6142 -8.4393
-22.9907 -5.7189 -8.5129
-23.1964 -8.0259 -8.8199
-23.1908 -10.4233 -9.1361
12.0970 -11.3725 -5.9660
12.0926 -9.4870 -5.5228
12.0888 -7.8501 -5.1793
11.9180 -6.3055 -4.8449
11.9167 -5.0008 -4.6437
11.9121 -3.7899 -4.4918
11.9095 -2.6472 -4.3838
11.9069 -1.5497 -4.3145
12.0196 -0.4825 -4.3224
11.9019 0.5858 -4.2818
12.0269 1.6763 -4.3633
12.0208 2.7865 -4.4339
12.0152 3.9429 -4.5439
9.2024 6.0950 -3.9662
28.5824 22.8451 -13.1479
9.1136 8.7247 -4.5335
-23.2390 10.1930 -9.1183
-23.2334 7.8037 -8.8067
-23.0170 5.5045 -8.5038
-23.2231 3.4016 -8.4337
-23.2182 1.3048 -8.3561
-23.2133 -0.7702 -8.3458
-17.6823 -2.1764 -6.4017
-22.9926 -4.9433 -8.4506
-23.1983 -7.2034 -8.7284
-23.1928 -9.5437 -9.0118
11.9233 -11.9513 -6.0661
12.0941 -10.1304 -5.6689
12.0534 -8.3879 -5.2766
12.0866 -6.8988 -5.0007
11.9160 -5.4557 -4.7092
12.0284 -4.2557 -4.5847
11.9104 -3.0508 -4.4179
11.9078 -1.9394 -4.3352
12.0205 -0.8688 -4.3306
11.9028 0.2042 -4.2776
11.9003 1.2716 -4.3004
12.0230 2.3841 -4.4043
12.0172 3.5215 -4.4997
31.8688 19.6691 -13.4567
31.0061 23.1947 -13.9138
27.8531 25.0050 -13.4498
6.6734 8.5875 -3.9079
-23.1165 11.0350 -9.2042
-23.2354 8.6419 -8.9078
-23.2300 6.3485 -8.6532
-23.0138 4.1277 -8.4014
-23.2199 2.0526 -8.3761
-23.2151 -0.0263 -8.3418
-23.2102 -2.1048 -8.3743
-23.1368 -4.2039 -8.4498
-23.2002 -6.3969 -8.6475
-23.1948 -8.6867 -8.8998
-23.0116 -11.0491 -9.1725
12.0957 -10.8094 -5.8290
12.0915 -9.0026 -5.4168
11.9916 -7.3636 -5.0565
11.9171 -5.9250 -4.7822
12.0295 -4.6947 -4.6400
11.9114 -3.4612 -4.4571
11.9087 -2.3334 -4.3605
11.9062 -1.2450 -4.3015
12.0189 -0.1789 -4.3192
11.9012 0.8873 -4.2883
12.0252 1.9866 -4.3795
12.0192 3.1078 -4.4609
35.5104 20.3758 -14.7112
31.3763 21.9404 -13.7573
29.2154 24.5846 -13.7201
27.0409 27.2275 -13.7887
-23.0323 9.4166 -8.9411
-23.2319 7.1561 -8.7349
-23.0156 4.8937 -8.4550
-23.0106 2.7793 -8.3284
-23.2168 0.7176 -8.3464
-23.0010 -1.3448 -8.2790
-23.2071 -3.4529 -8.4307
-22.9911 -5.5535 -8.4989
-23.1968 -7.8500 -8.7996
-23.1912 -10.2348 -9.1086
12.0974 -11.5287 -6.0047
12.0929 -9.6207 -5.5527
12.0891 -7.9675 -5.2025
11.9182 -6.4096 -4.8626
11.9152 -5.0957 -4.6565
11.9123 -3.8793 -4.5017
11.9096 -2.7323 -4.3906
11.9071 -1.6321 -4.3185
12.0198 -0.5643 -4.3238
11.9021 0.5048 -4.2806
11.8996 1.5762 -4.3132
12.0212 2.7007 -4.4272
12.0156 3.8528 -4.5341
9.2486 6.0357 -3.9683
29.1911 23.0084 -13.3557
9.1303 8.6226 -4.5125
4.3652 8.8823 -3.5562
-23.2394 10.3820 -9.1459
-23.2338 7.9799 -8.8272
-23.2285 5.7222 -8.5962
-23.2235 3.5629 -8.4424
-23.0075 1.4498 -8.2836
-23.2137 -0.6123 -8.3442
-17.7995 -2.0682 -6.4389
-23.0233 -4.7865 -8.4498
-23.1669 -7.0213 -8.6984
-23.1932 -9.3601 -8.9870
-22.9766 -11.7548 -9.2738
9.3650 -13.7233 -5.9699
11.9237 -12.1152 -6.1081
12.0944 -10.2713 -5.7016
11.9942 -8.4683 -5.2758
12.0868 -7.0083 -5.0204
11.9162 -5.5540 -4.7241
12.0287 -4.3480 -4.5959
11.9106 -3.1373 -4.4258
11.9080 -2.0226 -4.3401
12.0207 -0.9509 -4.3329
11.9030 0.1233 -4.2773
11.9005 1.1899 -4.2975
12.0234 2.2994 -4.3986
12.0177 3.4332 -4.4910
35.4319 21.5372 -14.8991
31.0853 22.9264 -13.8791
28.1961 24.9690 -13.5332
27.5882 29.2177 -14.4393
6.7559 8.5728 -3.9220
-23.0410 11.1918 -9.2042
-23.2358 8.8222 -8.9308
-23.2304 6.5184 -8.6697
-23.1175 4.3086 -8.4498
-23.2203 2.2117 -8.3814
-23.2154 0.1314 -8.3421
-23.2106 -1.9460 -8.3694
-23.1648 -4.0466 -8.4498
-23.2006 -6.2277 -8.6317
-22.9844 -8.4303 -8.7969
-23.1662 -10.9303 -9.2042
12.0960 -10.9584 -5.8649
12.0470 -9.0973 -5.4244
12.0880 -7.5363 -5.1186
11.9173 -6.0265 -4.7986
12.0297 -4.7893 -4.6526
11.9116 -3.5491 -4.4661
11.9089 -2.4175 -4.3665
11.9064 -1.3268 -4.3048
12.0191 -0.2606 -4.3198
11.9014 0.8061 -4.2863
12.0256 1.9028 -4.3749
12.0197 3.0209 -4.4533
12.0272 4.1941 -4.5769
19.6708 13.5571 -8.5843
29.5424 24.5189 -13.7952
27.1100 26.9288 -13.7304
-23.2378 9.6855 -9.0462
-23.2323 7.3294 -8.7536
-23.0159 5.0574 -8.4675
-23.2221 2.9650 -8.4120
-23.2172 0.8756 -8.3485
-23.2123 -1.1990 -8.3519
-23.2074 -3.2920 -8.4225
-22.9915 -5.3886 -8.4853
-23.1972 -7.6748 -8.7797
-23.1916 -10.0472 -9.0818
-13.1817 -22.1476 -9.2611
12.0183 -11.6101 -6.0045
12.0932 -9.7558 -5.5831
12.0893 -8.0861 -5.2262
11.9185 -6.5145 -4.8806
11.9154 -5.1918 -4.6703
11.9125 -3.9691 -4.5118
11.9098 -2.8177 -4.3977
11.9073 -1.7146 -4.3227
12.0200 -0.6462 -4.3253
11.9023 0.4239 -4.2795
11.8998 1.4940 -4.3095
12.0217 2.6152 -4.4207
12.0161 3.7632 -4.5245
9.3785 6.0300 -4.0064
29.8197 23.1772 -13.5709
9.1912 8.5627 -4.5138
6.5215 8.7193 -3.9125
-14.8670 17.7459 -8.3186
-23.2399 10.5721 -9.1742
-23.0230 8.0827 -8.7678
-23.2289 5.8899 -8.6109
-23.2189 3.7239 -8.4498
-23.2189 1.6215 -8.3635
-23.2141 -0.4546 -8.3430
-23.2092 -2.5371 -8.3894
-23.0553 -4.6299 -8.4498
-23.1991 -6.8594 -8.6928
-23.1937 -9.1776 -8.9628
-22.9771 -11.5588 -9.2421
12.0967 -11.2184 -5.8136
11.9961 -9.2803 -5.3446
12.0885 -7.7337 -5.0570
11.9178 -6.2020 -4.7343
12.0301 -4.9526 -4.5844
11.9119 -3.7009 -4.3955
11.9093 -2.5624 -4.2927
11.9067 -1.4675 -4.2275
12.0194 -0.4007 -4.2378
11.9017 0.6669 -4.2006
12.0264 1.7596 -4.2831
12.0203 2.8726 -4.3551
12.0147 4.0334 -4.4660
9.1968 6.1816 -3.9049
29.1329 23.6113 -13.2143
26.9858 26.1878 -13.2510
-23.0333 12.4594 -9.2280
-23.2386 10.0051 -8.9157
-23.2330 7.6283 -8.6170
-23.2261 5.3880 -8.4019
-23.2227 3.2405 -8.2627
-23.2178 1.1466 -8.1916
-23.2130 -0.9281 -8.1865
-17.7638 -2.3090 -6.3124
-23.2031 -5.1537 -8.3757
-22.9870 -7.3093 -8.5000
-23.1410 -9.7067 -8.8429
-23.0896 -12.2112 -9.2042
12.0984 -11.9631 -5.9956
12.0938 -9.9911 -5.5279
12.0898 -8.2919 -5.1660
11.9189 -6.6962 -4.8175
11.9158 -5.3580 -4.6039
11.9143 -4.1245 -4.4429
11.9102 -2.9647 -4.3251
11.9076 -1.8565 -4.2468
12.0203 -0.7868 -4.2449
11.9026 0.2850 -4.1955
11.9001 1.3534 -4.2205
12.0225 2.4690 -4.3250
12.0167 3.6102 -4.4215
31.6135 19.8094 -13.1466
29.6957 22.5307 -13.1354
28.6014 26.0298 -13.6278
6.6790 8.7162 -3.8695
-23.0294 10.8020 -8.9636
-23.2349 8.4625 -8.7138
-23.1730 6.1640 -8.4498
-23.2245 4.0028 -8.3047
-23.2196 1.8937 -8.2094
-23.2147 -0.1840 -8.1808
-23.2099 -2.2638 -8.2176
-22.9940 -4.3396 -8.2458
-23.0723 -6.5306 -8.4498
-23.1944 -8.8667 -8.7502
-23.1886 -11.3286 -9.0944
11.9248 -12.5719 -6.1061
12.0954 -10.6622 -5.6818
12.0912 -8.8753 -5.2854
12.0875 -7.3099 -4.9778
11.9169 -5.8243 -4.6741
12.0293 -4.6007 -4.5384
11.9111 -3.3735 -4.3624
11.9085 -2.2494 -4.2706
11.9068 -1.1633 -4.2158
11.9051 -0.0963 -4.1953
11.9010 0.9687 -4.2076
12.0247 2.0705 -4.2997
12.0187 3.1949 -4.3823
15.3309 8.9359 -6.2531
30.1582 21.3951 -13.0300
28.8551 24.6182 -13.3659
27.4336 28.0009 -13.8136
7.0150 8.5716 -3.9031
-23.2428 11.8246 -9.1894
-23.2369 9.3166 -8.8220
-23.0203 6.9200 -8.4706
-23.2263 4.7738 -8.3557
-23.2213 2.6448 -8.2358
-23.2164 0.5597 -8.1835
-23.0006 -1.5017 -8.1223
-23.2067 -3.6142 -8.2763
-22.9907 -5.7189 -8.3485
-23.1964 -8.0259 -8.6495
-23.1908 -10.4233 -8.9596
-22.9739 -12.9022 -9.2850
12.0970 -11.3725 -5.8508
11.9964 -9.4116 -5.3731
12.0888 -7.8501 -5.0793
11.9180 -6.3055 -4.7513
11.9167 -5.0008 -4.5540
11.9121 -3.7899 -4.4050
11.9095 -2.6472 -4.2992
11.9069 -1.5497 -4.2312
12.0196 -0.4825 -4.2390
11.9019 0.5858 -4.1991
12.0269 1.6763 -4.2791
12.0207 2.7865 -4.3483
12.0151 3.9429 -4.4561
9.2021 6.0949 -3.8895
29.6285 23.6813 -13.3659
9.1136 8.7247 -4.4459
-15.2801 17.7435 -8.2515
-23.0337 12.6627 -9.2624
-23.2390 10.1930 -8.9422
-23.2334 7.8037 -8.6366
-23.2281 5.5550 -8.4161
-23.2231 3.4016 -8.2708
-23.2182 1.3048 -8.1947
-23.2133 -0.7702 -8.1846
-17.6818 -2.1764 -6.2778
-23.2035 -4.9886 -8.3634
-22.9874 -7.1379 -8.4820
-23.1928 -9.5437 -8.8377
-23.1720 -12.0541 -9.2042
-13.7558 -22.1714 -9.1945
12.0348 -12.0630 -6.0046
12.0941 -10.1303 -5.5594
12.0534 -8.3879 -5.1747
12.0866 -6.8989 -4.9041
11.9160 -5.4557 -4.6182
12.0284 -4.2557 -4.4961
11.9104 -3.0508 -4.3326
11.9078 -1.9394 -4.2514
12.0205 -0.8688 -4.2469
11.9028 0.2042 -4.1950
11.9003 1.2716 -4.2174
12.0230 2.3841 -4.3192
12.0172 3.5215 -4.4128
31.7511 19.5965 -13.1481
31.0130 23.1999 -13.6481
27.7743 24.9343 -13.1527
6.7169 8.6434 -3.8574
-23.2411 11.0945 -9.0751
-23.2354 8.6419 -8.7358
-23.1306 6.3213 -8.4498
-23.0138 4.1277 -8.2391
-23.2199 2.0526 -8.2143
-23.2151 -0.0263 -8.1807
-23.2102 -2.1048 -8.2125
-23.2053 -4.2164 -8.3111
-23.1161 -6.3737 -8.4498
-23.1948 -8.6867 -8.7279
-23.0116 -11.0491 -8.9953
11.9252 -12.7446 -6.1505
12.0957 -10.8094 -5.7164
12.0915 -9.0026 -5.3122
11.9916 -7.3636 -4.9588
11.9171 -5.9250 -4.6898
12.0295 -4.6947 -4.5504
11.9114 -3.4612 -4.3710
11.9087 -2.3334 -4.2763
11.9062 -1.2450 -4.2184
12.0189 -0.1789 -4.2358
11.9012 0.8873 -4.2055
12.0252 1.9866 -4.2949
12.0192 3.1077 -4.3747
35.6403 20.4504 -14.4798
19.9284 13.9352 -8.5691
29.1779 24.5530 -13.4379
26.0364 26.2161 -13.0201
-23.1993 12.0015 -9.2042
-23.0323 9.4166 -8.7684
-23.0207 7.0911 -8.4883
-23.2267 4.9386 -8.3677
-23.0106 2.7793 -8.1676
-23.2168 0.7176 -8.1852
-23.0010 -1.3448 -8.1191
-23.2071 -3.4529 -8.2679
-23.2020 -5.6044 -8.4112
-23.1968 -7.8500 -8.6296
-23.1912 -10.2348 -8.9327
-22.9744 -12.6979 -9.2501
12.0974 -11.5287 -5.8887
11.9967 -9.5441 -5.4021
12.0891 -7.9675 -5.1020
11.9182 -6.4096 -4.7687
11.9152 -5.0957 -4.5666
11.9123 -3.8793 -4.4147
11.9096 -2.7323 -4.3058
11.9071 -1.6321 -4.2351
12.0198 -0.5643 -4.2403
11.9021 0.5048 -4.1979
11.8996 1.5762 -4.2299
12.0212 2.7007 -4.3417
12.0156 3.8528 -4.4465
9.2483 6.0355 -3.8916
29.0172 22.8713 -13.0197
9.1303 8.6226 -4.4254
-15.1151 17.7949 -8.2275
-23.2394 10.3820 -8.9693
-23.2338 7.9799 -8.6567
-23.2285 5.7222 -8.4301
-23.2235 3.5629 -8.2794
-23.0075 1.4498 -8.1236
-23.2137 -0.6123 -8.1830
-17.7986 -2.0681 -6.3142
-23.2039 -4.8240 -8.3516
-22.9878 -6.9671 -8.4645
-23.1932 -9.3601 -8.8134
-23.1874 -11.8626 -9.1781
-13.9404 -22.1317 -9.2171
9.3648 -13.7230 -5.8545
11.9514 -12.1433 -6.0040
12.0944 -10.2713 -5.5915
11.9942 -8.4683 -5.1739
12.0868 -7.0083 -4.9234
11.9162 -5.5540 -4.6328
12.0287 -4.3480 -4.5072
11.9106 -3.1373 -4.3403
11.9080 -2.0226 -4.2563
12.0207 -0.9510 -4.2492
11.9030 0.1233 -4.1947
11.9005 1.1899 -4.2145
12.0234 2.2994 -4.3137
12.0176 3.4331 -4.4042
31.8891 19.3837 -13.1504
31.0923 22.9315 -13.6141
28.1158 24.8979 -13.2340
27.6644 29.2984 -14.1995
6.7822 8.6062 -3.8612
-23.2416 11.2892 -9.1051
-23.2358 8.8222 -8.7583
-23.0871 6.4782 -8.4498
-23.2253 4.3287 -8.3252
-23.2203 2.2117 -8.2196
-23.2154 0.1314 -8.1809
-23.2106 -1.9460 -8.2078
-23.2057 -4.0538 -8.3012
-23.1589 -6.2165 -8.4498
-22.9844 -8.4303 -8.6270
-23.1895 -10.9413 -9.0356
11.9256 -12.9199 -6.1958
12.0960 -10.9584 -5.7516
12.0470 -9.0973 -5.3196
12.0880 -7.5363 -5.0197
11.9173 -6.0265 -4.7059
12.0297 -4.7893 -4.5627
11.9116 -3.5491 -4.3798
11.9089 -2.4175 -4.2821
11.9064 -1.3268 -4.2216
12.0191 -0.2606 -4.2364
11.9014 0.8061 -4.2035
12.0256 1.9028 -4.2904
12.0196 3.0209 -4.3673
12.0271 4.1941 -4.4885
19.8138 13.6556 -8.4797
29.5043 24.4873 -13.5113
26.5413 26.3639 -13.1827
-23.0325 12.1142 -9.1705
-23.2378 9.6855 -8.8715
-23.0211 7.2627 -8.5065
-23.2271 5.1038 -8.3802
-23.2221 2.9650 -8.2496
-23.2172 0.8756 -8.1872
-23.2123 -1.1990 -8.1906
-23.2074 -3.2920 -8.2599
-23.2024 -5.4380 -8.3978
-23.1972 -7.6748 -8.6101
-23.1916 -10.0472 -8.9064
-22.9749 -12.4952 -9.2159
12.0977 -11.6868 -5.9274
11.9971 -9.6783 -5.4318
12.0893 -8.0861 -5.1252
11.9185 -6.5145 -4.7863
11.9154 -5.1918 -4.5801
11.9125 -3.9691 -4.4247
11.9098 -2.8177 -4.3127
11.9073 -1.7146 -4.2392
12.0200 -0.6462 -4.2418
11.9023 0.4239 -4.1969
11.8998 1.4940 -4.2262
12.0217 2.6152 -4.3354
12.0160 3.7631 -4.4371
9.3771 6.0291 -3.9284
29.6392 23.0369 -13.2282
9.1912 8.5627 -4.4266
-23.2399 10.5721 -8.9970
-23.0230 8.0827 -8.5984
-23.2289 5.8899 -8.4446
-23.2239 3.7247 -8.2883
-23.2189 1.6215 -8.2020
-23.2141 -0.4546 -8.1819
-23.2092 -2.5371 -8.2273
-23.2043 -4.6598 -8.3401
-22.9947 -6.7990 -8.4498
-23.1937 -9.1776 -8.7897
-23.1879 -11.6648 -9.1467
11.9263 -13.2266 -6.1528
12.0967 -11.2183 -5.6996
12.0923 -9.3547 -5.2818
12.0885 -7.7337 -4.9578
11.9178 -6.2020 -4.6415
12.0301 -4.9526 -4.4945
11.9119 -3.7009 -4.3093
11.9093 -2.5624 -4.2085
11.9067 -1.4675 -4.1446
12.0194 -0.4007 -4.1547
11.9017 0.6669 -4.1182
12.0264 1.7596 -4.1991
12.0203 2.8726 -4.2697
12.0146 4.0333 -4.3784
9.1964 6.1814 -3.8281
29.1886 23.6564 -12.9800
27.1163 26.3145 -13.0540
-15.5246 17.7817 -8.1550
-23.2446 12.5737 -9.1300
-23.2386 10.0051 -8.7408
-23.2330 7.6283 -8.4480
-23.2261 5.3880 -8.2372
-23.2227 3.2405 -8.1006
-23.2178 1.1466 -8.0310
-23.2130 -0.9281 -8.0259
-17.7620 -2.3088 -6.1880
-23.2031 -5.1537 -8.2115
-23.1979 -7.3764 -8.4097
-23.1410 -9.7067 -8.6695
-23.1864 -12.2624 -9.0616
-23.5450 -38.5313 -15.6002
12.0984 -11.9631 -5.8781
11.9976 -9.9116 -5.3764
12.0898 -8.2919 -5.0647
11.9189 -6.6962 -4.7231
11.9158 -5.3580 -4.5136
11.9143 -4.1245 -4.3558
11.9102 -2.9647 -4.2403
11.9076 -1.8565 -4.1635
12.0203 -0.7868 -4.1616
11.9026 0.2850 -4.1132
11.9001 1.3534 -4.1377
12.0225 2.4690 -4.2402
12.0166 3.6101 -4.3348
31.4978 19.7369 -12.8416
29.5439 22.4156 -12.8120
28.5622 25.9941 -13.3422
-23.0355 13.4316 -9.2123
-23.0294 10.8020 -8.7878
-23.0237 8.3856 -8.4653
-23.2296 6.1791 -8.3043
-23.2245 4.0028 -8.1418
-23.2196 1.8937 -8.0484
-23.2147 -0.1840 -8.0204
-23.2099 -2.2638 -8.0565
-22.9940 -4.3396 -8.0841
-23.1998 -6.5667 -8.3299
-22.9836 -8.7861 -8.5007
-23.1886 -11.3286 -8.9160
-22.9716 -13.8869 -9.2736
-14.5138 -22.1265 -9.1420
11.9600 -12.6090 -6.0040
12.0954 -10.6622 -5.5704
12.0912 -8.8753 -5.1818
12.0875 -7.3099 -4.8802
11.9169 -5.8243 -4.5824
12.0293 -4.6007 -4.4494
11.9111 -3.3735 -4.2769
11.9085 -2.2494 -4.1869
11.9068 -1.1633 -4.1331
11.9051 -0.0963 -4.1130
11.9010 0.9687 -4.1251
12.0247 2.0705 -4.2154
12.0187 3.1949 -4.2964
15.3649 8.9557 -6.1441
29.6315 21.0215 -12.5514
28.9818 24.7263 -13.1614
27.4814 28.0497 -13.5663
7.0218 8.5799 -3.8303
-23.2428 11.8246 -9.0092
-23.2369 9.3166 -8.6490
-23.2315 6.9835 -8.3807
-23.2263 4.7738 -8.1919
-23.2213 2.6448 -8.0743
-23.2164 0.5597 -8.0231
-23.0006 -1.5017 -7.9631
-23.2067 -3.6142 -8.1140
-22.9907 -5.7189 -8.1848
-23.1139 -7.9973 -8.4498
-23.1908 -10.4233 -8.7839
-23.1847 -13.0206 -9.1865
11.9267 -13.4091 -6.1999
12.0970 -11.3725 -5.7361
12.0889 -9.4841 -5.3083
12.0888 -7.8501 -4.9797
11.9180 -6.3055 -4.6581
11.9167 -5.0008 -4.4647
11.9121 -3.7899 -4.3186
11.9095 -2.6472 -4.2149
11.9069 -1.5497 -4.1482
12.0196 -0.4825 -4.1558
11.9019 0.5858 -4.1168
12.0269 1.6763 -4.1952
12.0207 2.7865 -4.2630
12.0150 3.9429 -4.3687
9.2019 6.0947 -3.8131
29.6858 23.7271 -13.1291
9.1136 8.7247 -4.3587
-23.2451 12.7789 -9.1641
-23.2390 10.1930 -8.7669
-23.1854 7.7876 -8.4498
-23.2281 5.5550 -8.2511
-23.2231 3.4016 -8.1086
-23.2182 1.3048 -8.0340
-23.2133 -0.7702 -8.0241
-17.6813 -2.1763 -6.1546
-23.2035 -4.9886 -8.1994
-23.1983 -7.2034 -8.3919
-23.1928 -9.5437 -8.6644
-23.1869 -12.0618 -9.0296
-23.8677 -38.4696 -15.6405
12.0988 -12.1272 -5.9181
12.0941 -10.1304 -5.4503
12.0534 -8.3879 -5.0732
12.0866 -6.8988 -4.8080
11.9160 -5.4557 -4.5277
12.0284 -4.2557 -4.4080
11.9104 -3.0508 -4.2476
11.9078 -1.9394 -4.1681
12.0205 -0.8688 -4.1636
11.9028 0.2042 -4.1127
11.9003 1.2716 -4.1347
12.0230 2.3841 -4.2345
12.0171 3.5214 -4.3262
31.6348 19.5248 -12.8431
29.7215 22.2338 -12.8232
27.6963 24.8643 -12.8586
27.4354 29.4541 -13.9062
-23.0360 13.6424 -9.2493
-23.2411 11.0945 -8.8972
-23.0241 8.5633 -8.4866
-23.2300 6.3485 -8.3197
-23.0138 4.1277 -8.0776
-23.2199 2.0526 -8.0532
-23.2151 -0.0263 -8.0203
-23.2102 -2.1048 -8.0515
-23.2053 -4.2164 -8.1481
-23.2002 -6.3969 -8.3142
-22.9840 -8.6077 -8.4790
-23.0116 -11.0491 -8.8189
-22.9721 -13.6750 -9.2361
11.9252 -12.7446 -6.0299
12.0957 -10.8094 -5.6043
12.0915 -9.0026 -5.2080
11.9916 -7.3636 -4.8616
11.9171 -5.9250 -4.5979
12.0295 -4.6947 -4.4612
11.9114 -3.4612 -4.2853
11.9087 -2.3334 -4.1924
11.9062 -1.2450 -4.1357
12.0189 -0.1789 -4.1527
11.9012 0.8873 -4.1230
12.0252 1.9866 -4.2107
12.0191 3.1077 -4.2889
20.2145 14.1353 -8.5217
29.3388 24.6884 -13.2470
26.1650 26.3456 -12.8278
7.1110 8.5695 -3.8471
-23.2433 12.0243 -9.0409
-23.0323 9.4166 -8.5965
-23.2319 7.1561 -8.3982
-23.2267 4.9386 -8.2037
-23.0106 2.7793 -8.0074
-23.2168 0.7176 -8.0247
-23.0010 -1.3448 -7.9599
-23.2071 -3.4529 -8.1058
-23.2020 -5.6044 -8.2463
-23.1677 -7.8402 -8.4498
-23.1912 -10.2348 -8.7576
-23.1852 -12.8144 -9.1519
-22.9192 -39.1108 -15.6610
12.0974 -11.5287 -5.7733
12.0246 -9.5664 -5.3085
12.0891 -7.9675 -5.0020
11.9182 -6.4096 -4.6751
11.9152 -5.0957 -4.4771
11.9123 -3.8793 -4.3281
11.9096 -2.7323 -4.2214
11.9071 -1.6321 -4.1521
12.0198 -0.5643 -4.1571
11.9021 0.5048 -4.1156
11.8996 1.5762 -4.1469
12.0212 2.7007 -4.2566
12.0155 3.8528 -4.3592
9.2480 6.0353 -3.8151
28.8461 22.7365 -12.6891
9.1303 8.6226 -4.3386
-23.2455 12.9855 -9.1989
-23.2394 10.3820 -8.7934
-23.1320 7.9449 -8.4498
-23.2285 5.7222 -8.2648
-23.2235 3.5629 -8.1170
-23.0075 1.4498 -7.9643
-23.2137 -0.6123 -8.0226
-17.7976 -2.0680 -6.1900
-23.2039 -4.8240 -8.1878
-23.1668 -7.0213 -8.3631
-23.1932 -9.3601 -8.6406
-23.1874 -11.8626 -8.9982
-24.1979 -38.4166 -15.6854
9.3645 -13.7226 -5.7395
12.0992 -12.2934 -5.9590
12.0944 -10.2713 -5.4818
11.9942 -8.4683 -5.0724
12.0868 -7.0083 -4.8269
11.9162 -5.5540 -4.5420
12.0287 -4.3480 -4.4188
11.9106 -3.1373 -4.2552
11.9080 -2.0226 -4.1729
12.0207 -0.9510 -4.1659
11.9030 0.1233 -4.1124
11.9005 1.1899 -4.1318
12.0234 2.2994 -4.2291
12.0175 3.4331 -4.3179
31.7723 19.3127 -12.8453
31.0991 22.9366 -13.3501
28.0364 24.8275 -12.9378
27.7406 29.3791 -13.9595
6.8380 8.6770 -3.8167
-23.2416 11.2892 -8.9265
-23.0246 8.7420 -8.5085
-23.2304 6.5184 -8.3355
-23.2253 4.3287 -8.1620
-23.2203 2.2117 -8.0584
-23.2154 0.1314 -8.0205
-23.2106 -1.9460 -8.0468
-23.2057 -4.0538 -8.1384
-23.2006 -6.2277 -8.2990
-22.9844 -8.4303 -8.4578
-23.1895 -10.9413 -8.8584
-22.9850 -13.4720 -9.2042
11.9256 -12.9199 -6.0743
12.0960 -10.9584 -5.6388
12.0470 -9.0973 -5.2153
12.0880 -7.5363 -4.9213
11.9173 -6.0265 -4.6137
12.0297 -4.7893 -4.4732
11.9116 -3.5491 -4.2939
11.9089 -2.4175 -4.1982
11.9064 -1.3268 -4.1388
12.0191 -0.2606 -4.1533
11.9014 0.8061 -4.1211
12.0256 1.9028 -4.2063
12.0195 3.0209 -4.2816
12.0270 4.1941 -4.4005
20.3056 13.9945 -8.5198
29.5385 24.5157 -13.2617
26.6740 26.4957 -12.9888
7.2170 8.5779 -3.8728
-23.0325 12.1142 -8.9907
-23.2378 9.6855 -8.6975
-23.2323 7.3294 -8.4162
-23.2271 5.1038 -8.2158
-23.2221 2.9650 -8.0878
-23.2172 0.8756 -8.0267
-23.2123 -1.1990 -8.0300
-23.2074 -3.2920 -8.0979
-23.2024 -5.4380 -8.2331
-23.1972 -7.6748 -8.4413
-23.1916 -10.0472 -8.7317
-22.9749 -12.4952 -9.0352
-23.1213 -38.8479 -15.6183
12.0977 -11.6868 -5.8112
11.9971 -9.6783 -5.3253
12.0893 -8.0861 -5.0247
11.9185 -6.5145 -4.6925
11.9154 -5.1918 -4.4903
11.9125 -3.9691 -4.3379
11.9098 -2.8177 -4.2282
11.9073 -1.7146 -4.1561
12.0200 -0.6462 -4.1586
11.9023 0.4239 -4.1146
11.8998 1.4940 -4.1434
12.0217 2.6152 -4.2503
12.0159 3.7631 -4.3500
9.3757 6.0282 -3.8508
29.4617 22.8989 -12.8912
9.1912 8.5627 -4.3398
-23.1703 13.1509 -9.2042
-23.2399 10.5721 -8.8206
-23.0230 8.0827 -8.4298
-23.2289 5.8899 -8.2790
-23.2239 3.7247 -8.1258
-23.2189 1.6215 -8.0411
-23.2141 -0.4546 -8.0215
-23.2092 -2.5371 -8.0660
-23.2042 -4.6598 -8.1766
-23.1991 -6.8594 -8.3577
-23.1937 -9.1776 -8.6174
-23.1879 -11.6648 -8.9674
11.9263 -13.2266 -6.0302
12.0967 -11.2183 -5.5861
12.0923 -9.3547 -5.1766
12.0885 -7.7337 -4.8591
11.9178 -6.2021 -4.5490
12.0301 -4.9526 -4.4050
11.9119 -3.7009 -4.2235
11.9093 -2.5624 -4.1247
11.9067 -1.4675 -4.0621
12.0194 -0.4007 -4.0720
11.9017 0.6669 -4.0362
12.0264 1.7596 -4.1154
12.0203 2.8726 -4.1846
12.0145 4.0333 -4.2912
9.1960 6.1811 -3.7517
29.2443 23.7015 -12.7457
27.2475 26.4418 -12.8559
7.3912 8.5800 -3.8345
-23.2446 12.5737 -8.9482
-23.0273 9.9141 -8.4889
-23.2330 7.6283 -8.2798
-23.2261 5.3880 -8.0731
-23.2227 3.2405 -7.9393
-23.2178 1.1466 -7.8710
-23.2130 -0.9281 -7.8661
-17.7602 -2.3086 -6.0641
-23.2031 -5.1537 -8.0479
-23.1979 -7.3764 -8.2422
-23.0129 -9.6529 -8.4498
-23.1864 -12.2625 -8.8811
-22.9692 -14.9103 -9.2722
-23.5449 -38.5311 -15.2894
12.0984 -11.9631 -5.7610
11.9976 -9.9116 -5.2693
12.0898 -8.2919 -4.9639
11.9189 -6.6962 -4.6290
11.9158 -5.3580 -4.4238
11.9143 -4.1245 -4.2690
11.9102 -2.9647 -4.1558
11.9076 -1.8565 -4.0806
12.0203 -0.7868 -4.0787
11.9026 0.2850 -4.0313
11.9001 1.3534 -4.0553
12.0225 2.4690 -4.1557
12.0166 3.6101 -4.2484
31.3833 19.6652 -12.5401
29.3944 22.3021 -12.4933
28.7996 26.2103 -13.1852
-23.0580 13.4447 -9.0376
-23.0294 10.8020 -8.6128
-23.2349 8.4625 -8.3728
-23.2296 6.1791 -8.1389
-23.2245 4.0028 -7.9797
-23.2196 1.8937 -7.8881
-23.2147 -0.1840 -7.8606
-23.2099 -2.2638 -7.8961
-22.9940 -4.3396 -7.9231
-23.1998 -6.5667 -8.1640
-23.1944 -8.8667 -8.4078
-23.1886 -11.3286 -8.7385
-23.1824 -14.0143 -9.1723
-25.2008 -38.4189 -15.5574
12.1002 -12.7569 -5.9535
12.0954 -10.6622 -5.4595
12.0912 -8.8753 -5.0786
12.0875 -7.3099 -4.7830
11.9169 -5.8243 -4.4911
12.0293 -4.6007 -4.3608
11.9111 -3.3735 -4.1917
11.9085 -2.2494 -4.1035
11.9068 -1.1633 -4.0508
11.9051 -0.0963 -4.0311
11.9010 0.9687 -4.0430
12.0247 2.0705 -4.1314
12.0186 3.1949 -4.2108
15.3644 8.9554 -6.0215
29.1250 20.6622 -12.0912
28.8991 24.6557 -12.8625
25.7932 26.3266 -12.4794
7.0581 8.6242 -3.7734
-23.0379 14.4410 -9.2064
-23.2428 11.8246 -8.8298
-23.1630 9.2869 -8.4498
-23.2315 6.9835 -8.2138
-23.2263 4.7738 -8.0287
-23.2213 2.6448 -7.9135
-23.2164 0.5597 -7.8633
-23.0006 -1.5017 -7.8045
-23.2067 -3.6142 -7.9524
-22.9907 -5.7189 -8.0218
-23.1964 -8.0259 -8.3110
-23.1908 -10.4233 -8.6090
-23.1847 -13.0206 -9.0035
-22.7633 -39.4567 -15.4238
11.9267 -13.4092 -6.0764
12.0970 -11.3725 -5.6218
12.0926 -9.4870 -5.2042
12.0888 -7.8501 -4.8805
11.9180 -6.3055 -4.5654
11.9167 -5.0008 -4.3758
11.9121 -3.7899 -4.2326
11.9095 -2.6472 -4.1309
11.9069 -1.5497 -4.0656
12.0196 -0.4825 -4.0731
11.9019 0.5858 -4.0348
12.0269 1.6763 -4.1116
12.0207 2.7865 -4.1781
12.0149 3.9428 -4.2817
9.2017 6.0945 -3.7371
29.5698 23.6344 -12.8174
9.1136 8.7247 -4.2719
-23.2451 12.7789 -8.9816
-23.2390 10.1930 -8.5922
-23.2334 7.8037 -8.2986
-23.2281 5.5550 -8.0867
-23.2231 3.4016 -7.9471
-23.2182 1.3048 -7.8740
-23.2133 -0.7702 -7.8643
-17.6808 -2.1762 -6.0318
-23.2035 -4.9886 -8.0361
-23.1983 -7.2034 -8.2248
-23.0779 -9.4964 -8.4498
-23.1869 -12.0618 -8.8497
-22.9697 -14.6898 -9.2319
-23.8676 -38.4695 -15.3290
12.0988 -12.1272 -5.8003
12.0941 -10.1303 -5.3418
12.0534 -8.3879 -4.9722
12.0866 -6.8989 -4.7122
11.9160 -5.4557 -4.4375
12.0284 -4.2557 -4.3202
11.9104 -3.0508 -4.1630
11.9078 -1.9394 -4.0851
12.0205 -0.8688 -4.0807
11.9028 0.2042 -4.0308
11.9003 1.2716 -4.0523
12.0230 2.3841 -4.1502
12.0170 3.5214 -4.2400
31.5199 19.4538 -12.5416
29.3495 21.9555 -12.4105
27.6191 24.7949 -12.5673
27.5106 29.5349 -13.6666
-23.2474 13.7676 -9.1483
-23.2411 11.0945 -8.7200
-23.2354 8.6419 -8.3939
-23.2300 6.3484 -8.1540
-23.0138 4.1277 -7.9167
-23.2199 2.0526 -7.8928
-23.2151 -0.0263 -7.8605
-23.2102 -2.1048 -7.8911
-23.2053 -4.2164 -7.9859
-23.2002 -6.3969 -8.1486
-23.1948 -8.6867 -8.3864
-23.0116 -11.0491 -8.6433
-23.0724 -13.7347 -9.0916
-25.5764 -38.4198 -15.6277
12.1007 -12.9322 -5.9968
12.0957 -10.8094 -5.4927
12.0915 -9.0026 -5.1043
11.9916 -7.3636 -4.7647
11.9171 -5.9250 -4.5063
12.0295 -4.6947 -4.3723
11.9114 -3.4612 -4.2000
11.9087 -2.3334 -4.1089
11.9062 -1.2450 -4.0534
12.0189 -0.1789 -4.0700
11.9012 0.8873 -4.0409
12.0252 1.9866 -4.1269
12.0190 3.1077 -4.2034
31.2077 21.8225 -12.8940
29.2545 24.6175 -12.9459
26.2943 26.4757 -12.6344
7.1327 8.5956 -3.7820
-16.0689 17.7340 -8.1030
-23.0384 14.6602 -9.2461
-23.2433 12.0243 -8.8608
-23.0323 9.4166 -8.4252
-23.2319 7.1561 -8.2309
-23.2267 4.9386 -8.0403
-23.0106 2.7793 -7.8479
-23.2168 0.7176 -7.8649
-23.0010 -1.3448 -7.8013
-23.2071 -3.4529 -7.9443
-23.2020 -5.6044 -8.0820
-23.1968 -7.8500 -8.2919
-22.9804 -10.1418 -8.5051
-23.1852 -12.8144 -8.9697
-22.9190 -39.1104 -15.3489
11.9272 -13.5945 -6.1235
12.0974 -11.5287 -5.6583
12.0929 -9.6207 -5.2323
12.0891 -7.9675 -4.9024
11.9182 -6.4096 -4.5820
11.9152 -5.0957 -4.3879
11.9123 -3.8793 -4.2419
11.9096 -2.7323 -4.1373
11.9071 -1.6321 -4.0694
12.0198 -0.5643 -4.0743
11.9021 0.5048 -4.0336
11.8996 1.5762 -4.0643
12.0212 2.7007 -4.1718
12.0154 3.8528 -4.2724
9.2478 6.0351 -3.7390
28.6777 22.6038 -12.3638
9.1303 8.6226 -4.2522
-23.2455 12.9855 -9.0157
-23.2394 10.3820 -8.6183
-23.2338 7.9799 -8.3179
-23.2285 5.7222 -8.1002
-23.2235 3.5629 -7.9554
-23.0075 1.4498 -7.8057
-23.2137 -0.6123 -7.8628
-17.7966 -2.0679 -6.0664
-23.2039 -4.8240 -8.0247
-23.1669 -7.0213 -8.1966
-23.1419 -9.3394 -8.4498
-23.1874 -11.8626 -8.8190
-22.9998 -14.4899 -9.2042
-24.1979 -38.4166 -15.3731
9.3643 -13.7222 -5.6251
12.0992 -12.2934 -5.8404
12.0944 -10.2713 -5.3727
11.9942 -8.4683 -4.9714
12.0868 -7.0083 -4.7308
11.9162 -5.5540 -4.4515
12.0287 -4.3480 -4.3308
11.9106 -3.1373 -4.1704
11.9080 -2.0226 -4.0897
12.0207 -0.9510 -4.0829
11.9030 0.1233 -4.0305
11.9005 1.1899 -4.0495
12.0234 2.2994 -4.1449
12.0174 3.4331 -4.2318
31.6568 19.2425 -12.5437
30.3168 22.3596 -12.7551
27.9577 24.7579 -12.6446
27.6682 29.3024 -13.6457
-23.2479 13.9821 -9.1856
-23.2416 11.2892 -8.7487
-23.2358 8.8222 -8.4155
-23.2304 6.5184 -8.1695
-23.2253 4.3287 -7.9994
-23.2203 2.2117 -7.8979
-23.2154 0.1314 -7.8608
-23.2106 -1.9460 -7.8866
-23.2057 -4.0538 -7.9763
-23.2006 -6.2277 -8.1337
-22.9844 -8.4303 -8.2894
-23.1895 -10.9413 -8.6820
-23.1833 -13.5883 -9.0988
-14.9552 -22.1376 -9.0458
12.0281 -13.0310 -6.0045
12.0960 -10.9584 -5.5265
12.0470 -9.0973 -5.1115
12.0880 -7.5363 -4.8233
11.9173 -6.0265 -4.5218
12.0297 -4.7893 -4.3841
11.9116 -3.5491 -4.2084
11.9089 -2.4175 -4.1146
11.9064 -1.3268 -4.0564
12.0191 -0.2606 -4.0706
11.9014 0.8061 -4.0390
12.0256 1.9028 -4.1225
12.0194 3.0208 -4.1963
12.0270 4.1940 -4.3128
31.2768 21.5558 -12.8617
29.4840 24.4705 -12.9736
26.8075 26.6283 -12.7938
7.2158 8.5765 -3.7951
-15.8983 17.7871 -8.0777
-23.0325 12.1142 -8.8116
-23.0347 9.6008 -8.4498
-23.2323 7.3294 -8.2485
-23.2271 5.1038 -8.0522
-23.2221 2.9650 -7.9267
-23.2172 0.8756 -7.8668
-23.2123 -1.1990 -7.8701
-23.2074 -3.2921 -7.9366
-23.2024 -5.4380 -8.0691
-23.1972 -7.6748 -8.2732
-22.9808 -9.9559 -8.4800
-22.9749 -12.4952 -8.8553
-23.1212 -38.8476 -15.3071
11.9276 -13.7827 -6.1717
12.0977 -11.6869 -5.6954
12.0932 -9.7558 -5.2610
12.0893 -8.0861 -4.9247
11.9185 -6.5145 -4.5990
11.9154 -5.1918 -4.4008
11.9125 -3.9691 -4.2515
11.9098 -2.8177 -4.1439
11.9073 -1.7146 -4.0733
12.0200 -0.6462 -4.0758
11.9023 0.4239 -4.0326
11.8998 1.4940 -4.0608
12.0217 2.6152 -4.1657
12.0158 3.7631 -4.2634
9.3743 6.0273 -3.7736
29.2869 22.7631 -12.5595
9.1912 8.5627 -4.2534
-23.2460 13.1939 -9.0504
-23.2399 10.5721 -8.6449
-23.0230 8.0827 -8.2619
-23.2289 5.8899 -8.1141
-23.2239 3.7247 -7.9640
-23.2189 1.6215 -7.8810
-23.2141 -0.4546 -7.8617
-23.2092 -2.5371 -7.9054
-23.2043 -4.6598 -8.0137
-23.1991 -6.8594 -8.1913
-23.1937 -9.1776 -8.4457
-23.1879 -11.6648 -8.7888
-23.0978 -14.3332 -9.2042
-24.5645 -38.4174 -15.4398
12.1018 -13.4212 -5.9951
12.0266 -11.1534 -5.4414
12.0923 -9.3547 -5.0718
12.0885 -7.7337 -4.7608
11.9178 -6.2021 -4.4570
12.0301 -4.9526 -4.3159
11.9119 -3.7009 -4.1380
11.9093 -2.5624 -4.0412
11.9067 -1.4675 -3.9799
