ply
format ascii 1.0
element vertex 2176
property float32 x
property float32 y
property float32 z
end_header
-0.7435 -0.1740 0.3628
-0.7228 -0.2389 0.3616
-0.6965 -0.3015 0.3606
-0.6648 -0.3615 0.3595
-0.6282 -0.4182 0.3585
-0.5868 -0.4714 0.3576
-0.5411 -0.5207 0.3568
-0.4914 -0.5656 0.3560
-0.4381 -0.6060 0.3553
-0.3816 -0.6416 0.3547
-0.3223 -0.6721 0.3541
-0.2607 -0.6973 0.3537
-0.1972 -0.7171 0.3534
-0.1323 -0.7314 0.3531
-0.0665 -0.7400 0.3530
-0.0002 -0.7428 0.3529
0.0661 -0.7400 0.3530
0.1320 -0.7314 0.3531
0.1969 -0.7173 0.3534
0.2604 -0.6975 0.3537
0.3220 -0.6723 0.3541
0.3813 -0.6418 0.3547
0.4378 -0.6063 0.3553
0.4912 -0.5659 0.3560
0.5409 -0.5210 0.3568
0.5866 -0.4717 0.3576
0.6280 -0.4186 0.3586
0.6647 -0.3618 0.3595
0.6964 -0.3019 0.3606
0.7227 -0.2393 0.3617
0.7435 -0.1744 0.3628
0.7585 -0.1076 0.3640
0.7676 -0.0396 0.3651
0.7705 0.0291 0.3663
0.7674 0.0981 0.3675
0.7580 0.1668 0.3687
0.7425 0.2345 0.3699
0.7208 0.3008 0.3711
0.6931 0.3650 0.3722
0.6597 0.4266 0.3732
0.6207 0.4851 0.3742
0.5763 0.5400 0.3752
0.5271 0.5906 0.3761
0.4732 0.6367 0.3769
0.4153 0.6776 0.3776
0.3537 0.7132 0.3782
0.2891 0.7429 0.3787
0.2218 0.7666 0.3791
0.1526 0.7839 0.3794
0.0821 0.7948 0.3796
0.0108 0.7991 0.3797
-0.0605 0.7968 0.3796
-0.1314 0.7879 0.3795
-0.2010 0.7725 0.3792
-0.2689 0.7507 0.3788
-0.3344 0.7228 0.3784
-0.3970 0.6890 0.3778
-0.4561 0.6496 0.3771
-0.5112 0.6050 0.3763
-0.5619 0.5557 0.3754
-0.6077 0.5021 0.3745
-0.6484 0.4447 0.3735
-0.6835 0.3839 0.3725
-0.7130 0.3204 0.3714
-0.7365 0.2547 0.3702
-0.7539 0.1874 0.3690
-0.7651 0.1190 0.3679
-0.7702 0.0500 0.3667
-0.7690 -0.0188 0.3655
-0.7618 -0.0871 0.3643
-0.7486 -0.1543 0.3631
-0.7295 -0.2198 0.3620
-0.7049 -0.2832 0.3609
-0.6748 -0.3440 0.3598
-0.6396 -0.4017 0.3588
-0.5996 -0.4560 0.3579
-0.5552 -0.5064 0.3570
-0.5066 -0.5527 0.3562
-0.4543 -0.5945 0.3555
-0.3987 -0.6316 0.3548
-0.3402 -0.6636 0.3543
-0.2793 -0.6904 0.3538
-0.2163 -0.7118 0.3534
-0.1518 -0.7277 0.3532
-0.0862 -0.7380 0.3530
-0.0199 -0.7426 0.3529
0.0464 -0.7414 0.3529
0.1125 -0.7346 0.3531
0.1777 -0.7221 0.3533
0.2417 -0.7039 0.3536
0.3039 -0.6804 0.3540
0.3639 -0.6514 0.3545
0.4213 -0.6174 0.3551
0.4756 -0.5784 0.3558
0.5265 -0.5348 0.3565
0.5735 -0.4868 0.3574
0.6162 -0.4348 0.3583
0.6543 -0.3790 0.3592
0.6875 -0.3200 0.3603
0.7154 -0.2582 0.3613
0.7379 -0.1939 0.3625
0.7546 -0.1276 0.3636
0.7655 -0.0600 0.3648
0.7703 0.0086 0.3660
0.7690 0.0776 0.3672
0.7614 0.1464 0.3684
0.7477 0.2145 0.3696
0.7279 0.2813 0.3707
0.7020 0.3461 0.3718
0.6702 0.4086 0.3729
0.6328 0.4681 0.3740
0.5900 0.5241 0.3749
0.5422 0.5760 0.3758
0.4897 0.6235 0.3766
0.4329 0.6660 0.3774
0.3724 0.7032 0.3780
0.3086 0.7347 0.3786
0.2421 0.7602 0.3790
0.1734 0.7794 0.3793
0.1032 0.7923 0.3796
0.0321 0.7985 0.3797
-0.0394 0.7982 0.3797
-0.1104 0.7912 0.3795
-0.1805 0.7777 0.3793
-0.2490 0.7578 0.3790
-0.3152 0.7317 0.3785
-0.3787 0.6996 0.3780
-0.4389 0.6619 0.3773
-0.4952 0.6188 0.3765
-0.5473 0.5709 0.3757
-0.5946 0.5185 0.3748
-0.6368 0.4621 0.3738
-0.6737 0.4023 0.3728
-0.7048 0.3396 0.3717
-0.7301 0.2745 0.3706
-0.7493 0.2076 0.3694
-0.7624 0.1394 0.3682
-0.7693 0.0706 0.3670
-0.7700 0.0016 0.3658
-0.7646 -0.0669 0.3646
-0.7531 -0.1345 0.3635
-0.7358 -0.2005 0.3623
-0.7128 -0.2646 0.3612
-0.6843 -0.3262 0.3601
-0.6506 -0.3849 0.3591
-0.6120 -0.4402 0.3582
-0.5688 -0.4919 0.3573
-0.5214 -0.5394 0.3564
-0.4702 -0.5826 0.3557
-0.4156 -0.6211 0.3550
-0.3579 -0.6546 0.3544
-0.2976 -0.6830 0.3539
-0.2352 -0.7060 0.3535
-0.1711 -0.7236 0.3532
-0.1058 -0.7355 0.3530
-0.0397 -0.7418 0.3529
0.0267 -0.7424 0.3529
0.0929 -0.7372 0.3530
0.1584 -0.7264 0.3532
0.2228 -0.7099 0.3535
0.2856 -0.6879 0.3539
0.3463 -0.6606 0.3543
0.4046 -0.6280 0.3549
0.4598 -0.5905 0.3556
0.5118 -0.5482 0.3563
0.5599 -0.5015 0.3571
0.6040 -0.4506 0.3580
0.6435 -0.3960 0.3590
0.6781 -0.3379 0.3600
0.7077 -0.2768 0.3610
0.7318 -0.2132 0.3621
0.7503 -0.1475 0.3633
0.7629 -0.0802 0.3644
0.7695 -0.0118 0.3656
0.7700 0.0571 0.3668
0.7643 0.1260 0.3680
0.7524 0.1944 0.3692
0.7344 0.2616 0.3704
0.7103 0.3271 0.3715
0.6803 0.3903 0.3726
0.6445 0.4507 0.3737
0.6033 0.5078 0.3746
0.5569 0.5610 0.3756
0.5058 0.6099 0.3764
0.4502 0.6539 0.3772
0.3908 0.6927 0.3778
0.3279 0.7259 0.3784
0.2621 0.7532 0.3789
0.1940 0.7744 0.3793
0.1242 0.7891 0.3795
0.0533 0.7974 0.3797
-0.0181 0.7990 0.3797
-0.0893 0.7940 0.3796
-0.1598 0.7824 0.3794
-0.2288 0.7644 0.3791
-0.2958 0.7401 0.3787
-0.3602 0.7098 0.3781
-0.4214 0.6737 0.3775
-0.4789 0.6321 0.3768
-0.5323 0.5856 0.3760
-0.5810 0.5345 0.3751
-0.6248 0.4793 0.3741
-0.6633 0.4204 0.3731
-0.6962 0.3585 0.3720
-0.7232 0.2941 0.3709
-0.7442 0.2276 0.3697
-0.7592 0.1598 0.3686
-0.7679 0.0911 0.3674
-0.7704 0.0221 0.3662
-0.7668 -0.0466 0.3650
-0.7572 -0.1145 0.3638
-0.7416 -0.1811 0.3626
-0.7202 -0.2458 0.3615
-0.6933 -0.3081 0.3604
-0.6611 -0.3677 0.3594
-0.6240 -0.4241 0.3584
-0.5821 -0.4769 0.3575
-0.5360 -0.5257 0.3567
-0.4858 -0.5702 0.3559
-0.4322 -0.6101 0.3552
-0.3753 -0.6452 0.3546
-0.3158 -0.6751 0.3541
-0.2539 -0.6997 0.3537
-0.1903 -0.7189 0.3533
-0.1253 -0.7326 0.3531
-0.0594 -0.7405 0.3530
0.0070 -0.7428 0.3529
0.0733 -0.7393 0.3530
0.1390 -0.7302 0.3531
0.2038 -0.7154 0.3534
0.2671 -0.6950 0.3537
0.3285 -0.6693 0.3542
0.3875 -0.6383 0.3547
0.4437 -0.6022 0.3554
0.4967 -0.5613 0.3561
0.5460 -0.5158 0.3569
0.5913 -0.4662 0.3577
0.6322 -0.4126 0.3587
0.6684 -0.3555 0.3597
0.6995 -0.2953 0.3607
0.7252 -0.2324 0.3618
0.7454 -0.1672 0.3629
0.7598 -0.1004 0.3641
0.7682 -0.0322 0.3653
0.7705 0.0366 0.3665
0.7667 0.1056 0.3677
0.7566 0.1741 0.3689
0.7404 0.2417 0.3700
0.7181 0.3078 0.3712
0.6898 0.3718 0.3723
0.6557 0.4331 0.3733
0.6161 0.4912 0.3744
0.5712 0.5456 0.3753
0.5215 0.5958 0.3762
0.4672 0.6413 0.3770
0.4088 0.6817 0.3777
0.3469 0.7167 0.3783
0.2819 0.7458 0.3788
0.2144 0.7687 0.3792
0.1451 0.7854 0.3795
0.0744 0.7956 0.3796
0.0031 0.7992 0.3797
-0.0682 0.7962 0.3796
-0.1390 0.7865 0.3795
-0.2085 0.7704 0.3792
-0.2761 0.7480 0.3788
-0.3413 0.7194 0.3783
-0.4035 0.6850 0.3777
-0.4622 0.6450 0.3770
-0.5169 0.5999 0.3762
-0.5671 0.5501 0.3754
-0.6124 0.4961 0.3744
-0.6524 0.4383 0.3734
-0.6870 0.3772 0.3723
-0.7158 0.3134 0.3712
-0.7386 0.2475 0.3701
-0.7554 0.1801 0.3689
-0.7659 0.1115 0.3677
-0.7703 0.0426 0.3665
-0.7685 -0.0263 0.3653
-0.7607 -0.0944 0.3642
-0.7468 -0.1614 0.3630
-0.7271 -0.2268 0.3619
-0.7019 -0.2899 0.3608
-0.6712 -0.3503 0.3597
-0.6355 -0.4077 0.3587
-0.5950 -0.4616 0.3578
-0.5501 -0.5116 0.3569
-0.5011 -0.5575 0.3561
-0.4485 -0.5988 0.3554
-0.3925 -0.6353 0.3548
-0.3337 -0.6667 0.3542
-0.2725 -0.6930 0.3538
-0.2094 -0.7138 0.3534
-0.1447 -0.7291 0.3531
-0.0790 -0.7388 0.3530
-0.0128 -0.7427 0.3529
0.0536 -0.7410 0.3529
0.1196 -0.7335 0.3531
0.1847 -0.7204 0.3533
0.2485 -0.7017 0.3536
0.3105 -0.6775 0.3541
0.3702 -0.6480 0.3546
0.4273 -0.6134 0.3552
0.4813 -0.5739 0.3559
0.5318 -0.5298 0.3566
0.5783 -0.4814 0.3575
0.6205 -0.4289 0.3584
0.6581 -0.3728 0.3594
0.6908 -0.3135 0.3604
0.7181 -0.2513 0.3615
0.7400 -0.1868 0.3626
0.7561 -0.1204 0.3637
0.7663 -0.0526 0.3649
0.7705 0.0161 0.3661
0.7684 0.0851 0.3673
0.7602 0.1538 0.3685
0.7459 0.2218 0.3697
0.7253 0.2884 0.3708
0.6988 0.3530 0.3720
0.6665 0.4152 0.3730
0.6285 0.4743 0.3741
0.5851 0.5299 0.3750
0.5368 0.5814 0.3759
0.4838 0.6283 0.3767
0.4266 0.6703 0.3775
0.3656 0.7069 0.3781
0.3015 0.7377 0.3786
0.2347 0.7626 0.3791
0.1659 0.7811 0.3794
0.0955 0.7933 0.3796
0.0243 0.7988 0.3797
-0.0470 0.7978 0.3797
-0.1180 0.7901 0.3795
-0.1880 0.7759 0.3793
-0.2562 0.7553 0.3789
-0.3222 0.7285 0.3785
-0.3854 0.6958 0.3779
-0.4452 0.6575 0.3772
-0.5011 0.6139 0.3765
-0.5526 0.5654 0.3756
-0.5994 0.5126 0.3747
-0.6411 0.4558 0.3737
-0.6773 0.3957 0.3727
-0.7078 0.3327 0.3716
-0.7325 0.2673 0.3704
-0.7510 0.2002 0.3693
-0.7634 0.1320 0.3681
-0.7697 0.0631 0.3669
-0.7697 -0.0058 0.3657
-0.7636 -0.0743 0.3645
-0.7515 -0.1417 0.3633
-0.7336 -0.2075 0.3622
-0.7099 -0.2714 0.3611
-0.6809 -0.3327 0.3600
-0.6466 -0.3910 0.3590
-0.6075 -0.4460 0.3581
-0.5639 -0.4972 0.3572
-0.5161 -0.5443 0.3563
-0.4645 -0.5870 0.3556
-0.4095 -0.6249 0.3549
-0.3515 -0.6579 0.3544
-0.2910 -0.6857 0.3539
-0.2283 -0.7082 0.3535
-0.1641 -0.7251 0.3532
-0.0986 -0.7365 0.3530
-0.0325 -0.7422 0.3529
0.0339 -0.7421 0.3529
0.1000 -0.7363 0.3530
0.1654 -0.7249 0.3532
0.2297 -0.7078 0.3535
0.2923 -0.6852 0.3539
0.3527 -0.6573 0.3544
0.4107 -0.6242 0.3550
0.4656 -0.5862 0.3556
0.5172 -0.5434 0.3564
0.5649 -0.4962 0.3572
0.6084 -0.4449 0.3581
0.6475 -0.3899 0.3591
0.6816 -0.3315 0.3601
0.7106 -0.2701 0.3611
0.7341 -0.2062 0.3622
0.7519 -0.1403 0.3634
0.7639 -0.0729 0.3646
0.7699 -0.0044 0.3658
0.7697 0.0645 0.3669
0.7633 0.1334 0.3681
0.7508 0.2017 0.3693
0.7321 0.2687 0.3705
0.7073 0.3340 0.3716
0.6767 0.3970 0.3727
0.6403 0.4571 0.3738
0.5985 0.5138 0.3747
0.5516 0.5665 0.3757
0.5000 0.6149 0.3765
0.4440 0.6584 0.3773
0.3841 0.6966 0.3779
0.3209 0.7292 0.3785
0.2548 0.7558 0.3789
0.1865 0.7763 0.3793
0.1166 0.7903 0.3795
0.0456 0.7979 0.3797
-0.0258 0.7988 0.3797
-0.0970 0.7931 0.3796
-0.1673 0.7808 0.3794
-0.2361 0.7621 0.3790
-0.3029 0.7371 0.3786
-0.3669 0.7061 0.3781
-0.4278 0.6694 0.3774
-0.4849 0.6274 0.3767
-0.5378 0.5803 0.3759
-0.5860 0.5287 0.3750
-0.6293 0.4731 0.3740
-0.6671 0.4139 0.3730
-0.6994 0.3517 0.3719
-0.7258 0.2870 0.3708
-0.7462 0.2203 0.3696
-0.7604 0.1524 0.3684
-0.7685 0.0836 0.3672
-0.7704 0.0146 0.3660
-0.7661 -0.0540 0.3649
-0.7558 -0.1218 0.3637
-0.7395 -0.1882 0.3625
-0.7176 -0.2526 0.3614
-0.6901 -0.3147 0.3603
-0.6573 -0.3740 0.3593
-0.6197 -0.4300 0.3583
-0.5773 -0.4824 0.3574
-0.5307 -0.5307 0.3566
-0.4802 -0.5748 0.3558
-0.4262 -0.6142 0.3551
-0.3690 -0.6486 0.3545
-0.3092 -0.6780 0.3540
-0.2472 -0.7021 0.3536
-0.1833 -0.7207 0.3533
-0.1182 -0.7337 0.3531
-0.0522 -0.7411 0.3529
0.0141 -0.7427 0.3529
0.0804 -0.7386 0.3530
0.1461 -0.7289 0.3532
0.2107 -0.7135 0.3534
0.2738 -0.6925 0.3538
0.3350 -0.6662 0.3543
0.3937 -0.6346 0.3548
0.4496 -0.5980 0.3554
0.5022 -0.5566 0.3562
0.5511 -0.5107 0.3570
0.5960 -0.4606 0.3578
0.6364 -0.4066 0.3588
0.6720 -0.3492 0.3598
0.7025 -0.2886 0.3608
0.7277 -0.2254 0.3619
0.7472 -0.1601 0.3630
0.7610 -0.0930 0.3642
0.7687 -0.0248 0.3654
0.7704 0.0440 0.3666
0.7659 0.1130 0.3678
0.7552 0.1815 0.3690
0.7383 0.2490 0.3702
0.7153 0.3148 0.3713
0.6864 0.3785 0.3724
0.6517 0.4395 0.3735
0.6115 0.4973 0.3745
0.5661 0.5513 0.3754
0.5158 0.6010 0.3763
0.4611 0.6460 0.3770
0.4023 0.6858 0.3777
0.3400 0.7201 0.3783
0.2747 0.7485 0.3788
0.2070 0.7709 0.3792
0.1375 0.7868 0.3795
0.0667 0.7963 0.3796
-0.0046 0.7992 0.3797
-0.0759 0.7954 0.3796
-0.1465 0.7851 0.3794
-0.2159 0.7683 0.3791
-0.2833 0.7452 0.3787
-0.3482 0.7160 0.3782
-0.4101 0.6809 0.3776
-0.4683 0.6404 0.3769
-0.5225 0.5948 0.3761
-0.5722 0.5445 0.3753
-0.6169 0.4900 0.3743
-0.6564 0.4318 0.3733
-0.6904 0.3704 0.3722
-0.7185 0.3064 0.3711
-0.7407 0.2403 0.3700
-0.7568 0.1727 0.3688
-0.7667 0.1041 0.3676
-0.7704 0.0351 0.3664
-0.7680 -0.0337 0.3652
-0.7595 -0.1017 0.3640
-0.7450 -0.1686 0.3629
-0.7247 -0.2337 0.3617
-0.6988 -0.2965 0.3606
-0.6676 -0.3567 0.3596
-0.6314 -0.4137 0.3586
-0.5904 -0.4672 0.3577
-0.5450 -0.5168 0.3568
-0.4956 -0.5621 0.3560
-0.4426 -0.6029 0.3553
-0.3863 -0.6389 0.3547
-0.3272 -0.6698 0.3542
-0.2658 -0.6955 0.3537
-0.2025 -0.7157 0.3534
-0.1377 -0.7304 0.3531
-0.0719 -0.7395 0.3530
-0.0056 -0.7428 0.3529
0.0607 -0.7404 0.3530
0.1266 -0.7324 0.3531
0.1916 -0.7186 0.3533
0.2553 -0.6993 0.3537
0.3170 -0.6746 0.3541
0.3765 -0.6445 0.3546
0.4333 -0.6094 0.3552
0.5275 -0.5180 0.3568
0.5730 -0.4699 0.3577
0.6142 -0.4180 0.3586
0.6508 -0.3624 0.3595
0.6825 -0.3038 0.3606
0.7089 -0.2423 0.3616
0.7300 -0.1786 0.3627
0.7453 -0.1131 0.3639
0.7549 -0.0463 0.3650
0.7584 0.0213 0.3662
0.7559 0.0892 0.3674
0.7473 0.1569 0.3686
0.7326 0.2236 0.3697
0.7119 0.2890 0.3708
0.6853 0.3525 0.3719
0.6530 0.4134 0.3730
0.6151 0.4713 0.3740
0.5720 0.5256 0.3750
0.5240 0.5759 0.3758
0.4715 0.6217 0.3766
0.4149 0.6626 0.3773
0.3547 0.6981 0.3779
0.2914 0.7280 0.3785
0.2255 0.7519 0.3789
0.1576 0.7696 0.3792
0.0883 0.7810 0.3794
0.0182 0.7860 0.3795
-0.0520 0.7844 0.3794
-0.1218 0.7763 0.3793
-0.1904 0.7619 0.3790
-0.2574 0.7411 0.3787
-0.3222 0.7143 0.3782
-0.3841 0.6817 0.3776
-0.4426 0.6435 0.3770
-0.4973 0.6003 0.3762
-0.5477 0.5522 0.3754
-0.5933 0.4999 0.3745
-0.6339 0.4438 0.3735
-0.6691 0.3844 0.3725
-0.6988 0.3222 0.3714
-0.7225 0.2578 0.3703
-0.7404 0.1917 0.3691
-0.7521 0.1244 0.3680
-0.7578 0.0566 0.3668
-0.7574 -0.0112 0.3656
-0.7510 -0.0786 0.3644
-0.7386 -0.1448 0.3633
-0.7205 -0.2095 0.3622
-0.6968 -0.2722 0.3611
-0.6678 -0.3323 0.3600
-0.6337 -0.3895 0.3590
-0.5949 -0.4434 0.3581
-0.5516 -0.4935 0.3572
-0.5042 -0.5396 0.3564
-0.4531 -0.5812 0.3557
-0.3987 -0.6182 0.3551
-0.3414 -0.6503 0.3545
-0.2816 -0.6773 0.3540
-0.2198 -0.6990 0.3537
-0.1564 -0.7153 0.3534
-0.0919 -0.7260 0.3532
-0.0267 -0.7311 0.3531
0.0387 -0.7306 0.3531
0.1038 -0.7245 0.3532
0.1681 -0.7127 0.3534
0.2313 -0.6955 0.3537
0.2927 -0.6728 0.3541
0.3521 -0.6449 0.3546
0.4089 -0.6118 0.3552
0.4628 -0.5740 0.3559
0.5132 -0.5315 0.3566
0.5599 -0.4846 0.3574
0.6024 -0.4338 0.3583
0.6404 -0.3793 0.3592
0.6736 -0.3215 0.3602
0.7016 -0.2609 0.3613
0.7243 -0.1978 0.3624
0.7414 -0.1328 0.3635
0.7527 -0.0663 0.3647
0.7580 0.0012 0.3658
0.7573 0.0691 0.3670
0.7505 0.1368 0.3682
0.7376 0.2039 0.3694
0.7187 0.2698 0.3705
0.6938 0.3338 0.3716
0.6632 0.3956 0.3727
0.6269 0.4544 0.3737
0.5853 0.5099 0.3747
0.5388 0.5614 0.3756
0.4876 0.6086 0.3764
0.4322 0.6510 0.3771
0.3729 0.6881 0.3778
0.3105 0.7197 0.3783
0.2453 0.7454 0.3788
0.1779 0.7650 0.3791
0.1090 0.7783 0.3793
0.0391 0.7852 0.3794
-0.0311 0.7856 0.3795
-0.1011 0.7794 0.3793
-0.1702 0.7668 0.3791
-0.2377 0.7479 0.3788
-0.3032 0.7229 0.3784
-0.3660 0.6920 0.3778
-0.4256 0.6554 0.3772
-0.4814 0.6136 0.3765
-0.5331 0.5670 0.3756
-0.5803 0.5159 0.3748
-0.6224 0.4609 0.3738
-0.6593 0.4024 0.3728
-0.6906 0.3410 0.3717
-0.7161 0.2771 0.3706
-0.7357 0.2114 0.3695
-0.7493 0.1445 0.3683
-0.7568 0.0768 0.3671
-0.7581 0.0089 0.3659
-0.7535 -0.0586 0.3648
-0.7429 -0.1253 0.3636
-0.7265 -0.1905 0.3625
-0.7044 -0.2538 0.3614
-0.6770 -0.3147 0.3603
-0.6444 -0.3728 0.3593
-0.6069 -0.4277 0.3584
-0.5649 -0.4790 0.3575
-0.5187 -0.5263 0.3567
-0.4687 -0.5693 0.3559
-0.4152 -0.6077 0.3552
-0.3587 -0.6413 0.3547
-0.2996 -0.6699 0.3542
-0.2383 -0.6931 0.3538
-0.1754 -0.7110 0.3535
-0.1111 -0.7234 0.3532
-0.0461 -0.7302 0.3531
0.0193 -0.7313 0.3531
0.0845 -0.7269 0.3532
0.1491 -0.7168 0.3534
0.2126 -0.7012 0.3536
0.2747 -0.6801 0.3540
0.3347 -0.6537 0.3545
0.3923 -0.6222 0.3550
0.4471 -0.5857 0.3557
0.4986 -0.5446 0.3564
0.5464 -0.4990 0.3572
0.5902 -0.4493 0.3580
0.6296 -0.3959 0.3590
0.6642 -0.3390 0.3599
0.6938 -0.2792 0.3610
0.7181 -0.2168 0.3621
0.7369 -0.1523 0.3632
0.7499 -0.0862 0.3643
0.7570 -0.0189 0.3655
0.7581 0.0489 0.3667
0.7532 0.1167 0.3679
0.7421 0.1841 0.3690
0.7249 0.2503 0.3702
0.7018 0.3150 0.3713
0.6729 0.3775 0.3724
0.6383 0.4373 0.3734
0.5982 0.4938 0.3744
0.5531 0.5465 0.3753
0.5033 0.5951 0.3762
0.4490 0.6389 0.3769
0.3909 0.6776 0.3776
0.3294 0.7109 0.3782
0.2649 0.7384 0.3786
0.1982 0.7598 0.3790
0.1296 0.7750 0.3793
0.0600 0.7838 0.3794
-0.0102 0.7861 0.3795
-0.0804 0.7819 0.3794
-0.1498 0.7712 0.3792
-0.2178 0.7542 0.3789
-0.2840 0.7310 0.3785
-0.3476 0.7018 0.3780
-0.4082 0.6669 0.3774
-0.4653 0.6266 0.3767
-0.5182 0.5813 0.3759
-0.5668 0.5315 0.3750
-0.6104 0.4776 0.3741
-0.6489 0.4201 0.3731
-0.6818 0.3595 0.3720
-0.7091 0.2963 0.3709
-0.7305 0.2311 0.3698
-0.7459 0.1645 0.3687
-0.7552 0.0969 0.3675
-0.7584 0.0291 0.3663
-0.7555 -0.0386 0.3651
-0.7467 -0.1056 0.3640
-0.7319 -0.1713 0.3628
-0.7116 -0.2352 0.3617
-0.6857 -0.2969 0.3606
-0.6546 -0.3559 0.3596
-0.6185 -0.4118 0.3586
-0.5778 -0.4642 0.3577
-0.5328 -0.5127 0.3569
-0.4839 -0.5570 0.3561
-0.4314 -0.5968 0.3554
-0.3758 -0.6319 0.3548
-0.3174 -0.6619 0.3543
-0.2568 -0.6868 0.3539
-0.1943 -0.7063 0.3535
-0.1303 -0.7203 0.3533
-0.0655 -0.7287 0.3532
-0.0002 -0.7316 0.3531
0.0651 -0.7288 0.3532
0.1300 -0.7204 0.3533
0.1939 -0.7064 0.3535
0.2564 -0.6869 0.3539
0.3171 -0.6621 0.3543
0.3755 -0.6321 0.3548
0.4311 -0.5971 0.3555
0.4836 -0.5573 0.3561
0.5326 -0.5130 0.3569
0.5776 -0.4645 0.3578
0.6184 -0.4121 0.3587
0.6544 -0.3562 0.3596
0.6856 -0.2973 0.3607
0.7115 -0.2356 0.3617
0.7319 -0.1716 0.3628
0.7467 -0.1060 0.3640
0.7555 -0.0390 0.3652
0.7584 0.0287 0.3663
0.7553 0.0966 0.3675
0.7460 0.1641 0.3687
0.7307 0.2308 0.3698
0.7093 0.2960 0.3710
0.6821 0.3592 0.3721
0.6491 0.4198 0.3731
0.6107 0.4773 0.3741
0.5671 0.5313 0.3750
0.5186 0.5811 0.3759
0.4656 0.6264 0.3767
0.4086 0.6667 0.3774
0.3480 0.7016 0.3780
0.2844 0.7308 0.3785
0.2182 0.7541 0.3789
0.1502 0.7712 0.3792
0.0808 0.7819 0.3794
0.0106 0.7861 0.3795
-0.0596 0.7839 0.3794
-0.1292 0.7751 0.3793
-0.1978 0.7599 0.3790
-0.2645 0.7385 0.3786
-0.3290 0.7110 0.3782
-0.3906 0.6778 0.3776
-0.4487 0.6391 0.3769
-0.5029 0.5953 0.3761
-0.5528 0.5468 0.3753
-0.5979 0.4941 0.3744
-0.6380 0.4376 0.3734
-0.6726 0.3778 0.3724
-0.7016 0.3153 0.3713
-0.7248 0.2507 0.3701
-0.7419 0.1844 0.3690
-0.7530 0.1171 0.3678
-0.7581 0.0493 0.3666
-0.7570 -0.0185 0.3655
-0.7499 -0.0858 0.3643
-0.7369 -0.1519 0.3632
-0.7182 -0.2164 0.3620
-0.6939 -0.2788 0.3610
-0.6644 -0.3386 0.3599
-0.6298 -0.3955 0.3589
-0.5904 -0.4490 0.3580
-0.5467 -0.4987 0.3571
-0.4989 -0.5443 0.3563
-0.4474 -0.5855 0.3556
-0.3926 -0.6220 0.3550
-0.3350 -0.6535 0.3545
-0.2750 -0.6799 0.3540
-0.2130 -0.7010 0.3536
-0.1495 -0.7167 0.3534
-0.0848 -0.7268 0.3532
-0.0196 -0.7313 0.3531
0.0457 -0.7302 0.3531
0.1108 -0.7235 0.3533
0.1750 -0.7111 0.3535
0.2380 -0.6933 0.3538
0.2993 -0.6700 0.3542
0.3584 -0.6415 0.3547
0.4149 -0.6080 0.3553
0.4684 -0.5696 0.3559
0.5184 -0.5266 0.3567
0.5647 -0.4793 0.3575
0.6067 -0.4281 0.3584
0.6442 -0.3732 0.3593
0.6769 -0.3151 0.3604
0.7043 -0.2542 0.3614
0.7264 -0.1909 0.3625
0.7429 -0.1256 0.3636
0.7535 -0.0590 0.3648
0.7582 0.0085 0.3660
0.7568 0.0764 0.3672
0.7494 0.1441 0.3683
0.7359 0.2111 0.3695
0.7163 0.2768 0.3706
0.6908 0.3406 0.3717
0.6595 0.4021 0.3728
0.6227 0.4606 0.3738
0.5806 0.5156 0.3748
0.5335 0.5667 0.3757
0.4818 0.6134 0.3765
0.4259 0.6552 0.3772
0.3664 0.6918 0.3778
0.3036 0.7228 0.3784
0.2381 0.7478 0.3788
0.1706 0.7668 0.3791
0.1015 0.7794 0.3793
0.0315 0.7855 0.3795
-0.0387 0.7852 0.3794
-0.1086 0.7784 0.3793
-0.1775 0.7651 0.3791
-0.2449 0.7455 0.3788
-0.3101 0.7198 0.3783
-0.3726 0.6883 0.3778
-0.4318 0.6512 0.3771
-0.4872 0.6088 0.3764
-0.5385 0.5617 0.3756
-0.5850 0.5102 0.3747
-0.6266 0.4547 0.3737
-0.6629 0.3959 0.3727
-0.6936 0.3342 0.3716
-0.7185 0.2701 0.3705
-0.7375 0.2043 0.3693
-0.7504 0.1372 0.3682
-0.7572 0.0694 0.3670
-0.7579 0.0016 0.3658
-0.7526 -0.0659 0.3646
-0.7414 -0.1324 0.3635
-0.7244 -0.1974 0.3624
-0.7017 -0.2605 0.3613
-0.6737 -0.3211 0.3602
-0.6406 -0.3789 0.3592
-0.6026 -0.4335 0.3583
-0.5601 -0.4843 0.3574
-0.5135 -0.5312 0.3566
-0.4630 -0.5737 0.3558
-0.4092 -0.6116 0.3552
-0.3524 -0.6446 0.3546
-0.2931 -0.6726 0.3541
-0.2316 -0.6953 0.3537
-0.1685 -0.7126 0.3534
-0.1041 -0.7244 0.3532
-0.0391 -0.7306 0.3531
0.0263 -0.7311 0.3531
0.0915 -0.7260 0.3532
0.1560 -0.7154 0.3534
0.2194 -0.6991 0.3537
0.2813 -0.6775 0.3541
0.3411 -0.6505 0.3545
0.3984 -0.6185 0.3551
0.4528 -0.5815 0.3557
0.5039 -0.5399 0.3564
0.5514 -0.4938 0.3572
0.5947 -0.4437 0.3581
0.6336 -0.3899 0.3591
0.6677 -0.3327 0.3600
0.6967 -0.2725 0.3611
0.7204 -0.2099 0.3622
0.7386 -0.1452 0.3633
0.7510 -0.0789 0.3645
0.7574 -0.0116 0.3656
0.7579 0.0562 0.3668
0.7522 0.1240 0.3680
0.7405 0.1913 0.3691
0.7227 0.2574 0.3703
0.6990 0.3219 0.3714
0.6694 0.3841 0.3725
0.6342 0.4435 0.3735
0.5936 0.4997 0.3745
0.5480 0.5520 0.3754
0.4976 0.6000 0.3762
0.4430 0.6433 0.3770
0.3844 0.6815 0.3777
0.3225 0.7142 0.3782
0.2578 0.7410 0.3787
0.1908 0.7618 0.3790
0.1222 0.7763 0.3793
0.0524 0.7844 0.3794
-0.0178 0.7860 0.3795
-0.0879 0.7811 0.3794
-0.1572 0.7697 0.3792
-0.2251 0.7520 0.3789
-0.2910 0.7281 0.3784
-0.3543 0.6983 0.3779
-0.4146 0.6628 0.3773
-0.4712 0.6219 0.3766
-0.5237 0.5762 0.3758
-0.5717 0.5259 0.3749
-0.6148 0.4716 0.3740
-0.6527 0.4137 0.3730
-0.6851 0.3528 0.3719
-0.7117 0.2894 0.3708
-0.7324 0.2240 0.3697
-0.7472 0.1572 0.3685
-0.7558 0.0896 0.3674
-0.7583 0.0217 0.3662
-0.7548 -0.0459 0.3650
-0.7453 -0.1127 0.3638
-0.7300 -0.1782 0.3627
-0.7090 -0.2420 0.3616
-0.6826 -0.3034 0.3605
-0.6509 -0.3621 0.3595
-0.6144 -0.4176 0.3585
-0.5732 -0.4696 0.3576
-0.5277 -0.5177 0.3568
-0.4784 -0.5615 0.3560
-0.4256 -0.6008 0.3554
-0.3696 -0.6353 0.3548
-0.3110 -0.6648 0.3543
-0.2501 -0.6891 0.3538
-0.1874 -0.7080 0.3535
-0.1234 -0.7215 0.3533
-0.0585 -0.7293 0.3531
0.0069 -0.7316 0.3531
0.0722 -0.7281 0.3532
0.1369 -0.7191 0.3533
0.2007 -0.7045 0.3536
0.2631 -0.6845 0.3539
0.3235 -0.6591 0.3544
0.3816 -0.6285 0.3549
0.4370 -0.5930 0.3555
0.4891 -0.5527 0.3562
0.5377 -0.5080 0.3570
0.5822 -0.4590 0.3579
0.6225 -0.4063 0.3588
0.6580 -0.3500 0.3597
0.6886 -0.2907 0.3608
0.7140 -0.2288 0.3619
0.7338 -0.1646 0.3630
0.7479 -0.0988 0.3641
0.7561 -0.0317 0.3653
0.7584 0.0360 0.3665
0.7546 0.1039 0.3676
0.7446 0.1714 0.3688
0.7287 0.2379 0.3700
0.7067 0.3029 0.3711
0.6788 0.3658 0.3722
0.6452 0.4262 0.3732
0.6062 0.4833 0.3742
0.5620 0.5369 0.3751
0.5131 0.5862 0.3760
0.4596 0.6310 0.3768
0.4022 0.6707 0.3775
0.3413 0.7050 0.3781
0.2773 0.7336 0.3786
0.2110 0.7563 0.3789
0.1427 0.7726 0.3792
0.0732 0.7827 0.3794
0.0031 0.7862 0.3795
-0.0671 0.7832 0.3794
-0.1367 0.7738 0.3792
-0.2051 0.7579 0.3790
-0.2716 0.7358 0.3786
-0.3358 0.7077 0.3781
-0.3970 0.6739 0.3775
-0.4547 0.6346 0.3768
-0.5085 0.5903 0.3760
-0.5579 0.5413 0.3752
-0.6025 0.4881 0.3743
-0.6420 0.4313 0.3733
-0.6760 0.3712 0.3722
-0.7044 0.3085 0.3712
-0.7269 0.2436 0.3700
-0.7434 0.1772 0.3689
-0.7539 0.1098 0.3677
-0.7582 0.0419 0.3665
-0.7565 -0.0258 0.3653
-0.7488 -0.0930 0.3642
-0.7352 -0.1589 0.3630
-0.7158 -0.2232 0.3619
-0.6910 -0.2854 0.3608
-0.6609 -0.3449 0.3598
-0.6257 -0.4015 0.3588
-0.5859 -0.4545 0.3579
-0.5417 -0.5038 0.3571
-0.4935 -0.5489 0.3563
-0.4416 -0.5896 0.3556
-0.3865 -0.6256 0.3549
-0.3287 -0.6566 0.3544
-0.2684 -0.6825 0.3540
-0.2062 -0.7030 0.3536
-0.1425 -0.7181 0.3533
-0.0778 -0.7276 0.3532
-0.0126 -0.7315 0.3531
0.0528 -0.7297 0.3531
0.1178 -0.7224 0.3533
0.1819 -0.7095 0.3535
0.2447 -0.6910 0.3538
0.3058 -0.6672 0.3542
0.3646 -0.6381 0.3547
0.4208 -0.6041 0.3553
0.4740 -0.5652 0.3560
0.5236 -0.5217 0.3568
0.5694 -0.4740 0.3576
0.6110 -0.4223 0.3585
0.6480 -0.3671 0.3595
0.6801 -0.3086 0.3605
0.7070 -0.2474 0.3615
0.7285 -0.1839 0.3626
0.7443 -0.1185 0.3638
0.7543 -0.0518 0.3649
0.7584 0.0158 0.3661
0.7563 0.0837 0.3673
0.7482 0.1514 0.3685
0.7340 0.2182 0.3696
0.7138 0.2838 0.3708
0.6877 0.3474 0.3719
0.6558 0.4085 0.3729
0.6184 0.4667 0.3739
0.5757 0.5214 0.3749
0.5281 0.5720 0.3758
0.4760 0.6182 0.3766
0.4197 0.6594 0.3773
0.3597 0.6954 0.3779
0.2966 0.7258 0.3784
0.2309 0.7502 0.3788
0.1632 0.7684 0.3792
0.0940 0.7803 0.3794
0.0240 0.7858 0.3795
-0.0463 0.7848 0.3794
-0.1161 0.7772 0.3793
-0.1849 0.7633 0.3791
-0.2521 0.7430 0.3787
-0.3170 0.7167 0.3782
-0.3791 0.6845 0.3777
-0.4380 0.6468 0.3770
-0.4930 0.6040 0.3763
-0.5437 0.5563 0.3755
-0.5898 0.5044 0.3746
-0.6308 0.4485 0.3736
-0.6665 0.3893 0.3726
-0.6966 0.3274 0.3715
-0.7208 0.2631 0.3704
-0.7391 0.1971 0.3692
-0.7514 0.1299 0.3680
-0.7576 0.0621 0.3669
-0.7576 -0.0057 0.3657
-0.7517 -0.0731 0.3645
-0.7398 -0.1395 0.3634
-0.7222 -0.2043 0.3622
-0.6989 -0.2672 0.3612
-0.6704 -0.3275 0.3601
-0.6367 -0.3850 0.3591
-0.5982 -0.4391 0.3582
-0.5553 -0.4896 0.3573
-0.5082 -0.5360 0.3565
-0.4574 -0.5780 0.3558
-0.4032 -0.6154 0.3551
-0.3461 -0.6479 0.3546
-0.2865 -0.6753 0.3541
-0.2249 -0.6975 0.3537
-0.1616 -0.7142 0.3534
-0.0971 -0.7253 0.3532
-0.0320 -0.7309 0.3531
0.0334 -0.7309 0.3531
0.0985 -0.7252 0.3532
0.1629 -0.7139 0.3534
0.2262 -0.6971 0.3537
0.2878 -0.6748 0.3541
0.3474 -0.6473 0.3546
0.4044 -0.6147 0.3551
0.4585 -0.5772 0.3558
0.5092 -0.5351 0.3565
0.5562 -0.4886 0.3573
0.5991 -0.4381 0.3582
0.6375 -0.3839 0.3592
0.6711 -0.3263 0.3602
0.6995 -0.2659 0.3612
0.7227 -0.2030 0.3623
0.7402 -0.1381 0.3634
0.7520 -0.0717 0.3646
0.7578 -0.0043 0.3658
0.7576 0.0635 0.3669
0.7513 0.1313 0.3681
0.7389 0.1985 0.3693
0.7205 0.2645 0.3704
0.6961 0.3287 0.3715
0.6659 0.3906 0.3726
0.6301 0.4498 0.3736
0.5889 0.5055 0.3746
0.5427 0.5574 0.3755
0.4919 0.6049 0.3763
0.4368 0.6477 0.3771
0.3779 0.6853 0.3777
0.3157 0.7173 0.3783
0.2507 0.7436 0.3787
0.1835 0.7637 0.3791
0.1147 0.7775 0.3793
0.0448 0.7849 0.3794
-0.0254 0.7858 0.3795
-0.0954 0.7802 0.3794
-0.1646 0.7681 0.3791
-0.2323 0.7497 0.3788
-0.2980 0.7252 0.3784
-0.3610 0.6947 0.3779
-0.4208 0.6586 0.3772
-0.4770 0.6172 0.3765
-0.5291 0.5710 0.3757
-0.5766 0.5202 0.3748
-0.6192 0.4655 0.3739
-0.6565 0.4073 0.3729
-0.6882 0.3461 0.3718
-0.7142 0.2824 0.3707
-0.7343 0.2169 0.3696
-0.7484 0.1500 0.3684
-0.7564 0.0823 0.3672
-0.7583 0.0144 0.3660
-0.7541 -0.0532 0.3649
-0.7440 -0.1199 0.3637
-0.7280 -0.1852 0.3626
-0.7064 -0.2487 0.3615
-0.6794 -0.3099 0.3604
-0.6472 -0.3682 0.3594
-0.6101 -0.4234 0.3584
-0.5685 -0.4750 0.3576
-0.5226 -0.5226 0.3567
-0.4729 -0.5660 0.3560
-0.4197 -0.6048 0.3553
-0.3634 -0.6388 0.3547
-0.3045 -0.6677 0.3542
-0.2434 -0.6914 0.3538
-0.1806 -0.7098 0.3535
-0.1164 -0.7226 0.3533
-0.0514 -0.7298 0.3531
0.0139 -0.7315 0.3531
0.0792 -0.7274 0.3532
0.1439 -0.7178 0.3533
0.2075 -0.7026 0.3536
0.2697 -0.6820 0.3540
0.3299 -0.6560 0.3544
0.3877 -0.6249 0.3550
0.4428 -0.5889 0.3556
0.4945 -0.5481 0.3563
0.5427 -0.5029 0.3571
0.5868 -0.4535 0.3579
0.6266 -0.4003 0.3589
0.6616 -0.3438 0.3599
0.6916 -0.2841 0.3609
0.7164 -0.2219 0.3620
0.7356 -0.1576 0.3631
0.7491 -0.0916 0.3642
0.7567 -0.0244 0.3654
0.7583 0.0433 0.3666
0.7538 0.1112 0.3678
0.7432 0.1786 0.3689
0.7266 0.2450 0.3701
0.7039 0.3098 0.3712
0.6754 0.3725 0.3723
0.6413 0.4325 0.3733
0.6017 0.4893 0.3743
0.5570 0.5424 0.3752
0.5075 0.5913 0.3761
0.4536 0.6355 0.3769
0.3958 0.6747 0.3775
0.3345 0.7084 0.3781
0.2703 0.7364 0.3786
0.2037 0.7583 0.3790
0.1353 0.7740 0.3793
0.0657 0.7833 0.3794
-0.0045 0.7862 0.3795
-0.0747 0.7825 0.3794
-0.1442 0.7724 0.3792
-0.2124 0.7558 0.3789
-0.2787 0.7331 0.3785
-0.3426 0.7044 0.3780
-0.4034 0.6699 0.3774
-0.4607 0.6301 0.3767
-0.5141 0.5852 0.3760
-0.5630 0.5358 0.3751
-0.6070 0.4822 0.3742
-0.6459 0.4249 0.3732
-0.6794 0.3645 0.3721
-0.7071 0.3015 0.3710
-0.7290 0.2365 0.3699
-0.7448 0.1700 0.3687
-0.7546 0.1025 0.3676
-0.7583 0.0346 0.3664
-0.7560 -0.0331 0.3652
-0.7476 -0.1002 0.3641
-0.7334 -0.1660 0.3629
-0.7134 -0.2301 0.3618
-0.6880 -0.2919 0.3607
-0.6573 -0.3512 0.3597
-0.6216 -0.4074 0.3587
-0.5813 -0.4600 0.3578
-0.5367 -0.5089 0.3570
-0.4880 -0.5535 0.3562
-0.4358 -0.5937 0.3555
-0.3804 -0.6292 0.3549
-0.3223 -0.6597 0.3543
-0.2618 -0.6849 0.3539
-0.1994 -0.7049 0.3536
-0.1356 -0.7194 0.3533
-0.0708 -0.7283 0.3532
-0.0055 -0.7316 0.3531
0.0598 -0.7292 0.3531
0.1247 -0.7213 0.3533
0.1887 -0.7077 0.3535
0.2514 -0.6887 0.3539
0.3122 -0.6643 0.3543
0.3708 -0.6347 0.3548
0.4267 -0.6001 0.3554
0.5195 -0.5101 0.3570
0.5643 -0.4628 0.3578
0.6048 -0.4116 0.3587
0.6408 -0.3569 0.3596
0.6720 -0.2991 0.3606
0.6981 -0.2386 0.3617
0.7187 -0.1759 0.3628
0.7338 -0.1114 0.3639
0.7432 -0.0456 0.3650
0.7466 0.0210 0.3662
0.7441 0.0879 0.3674
0.7356 0.1544 0.3685
0.7211 0.2201 0.3697
0.7007 0.2845 0.3708
0.6745 0.3469 0.3719
0.6426 0.4068 0.3729
0.6053 0.4638 0.3739
0.5629 0.5173 0.3748
0.5157 0.5667 0.3757
0.4640 0.6118 0.3764
0.4083 0.6520 0.3771
0.3490 0.6869 0.3777
0.2867 0.7163 0.3783
0.2218 0.7398 0.3787
0.1550 0.7573 0.3790
0.0869 0.7685 0.3792
0.0179 0.7733 0.3792
-0.0512 0.7718 0.3792
-0.1198 0.7638 0.3791
-0.1874 0.7496 0.3788
-0.2533 0.7292 0.3785
-0.3170 0.7028 0.3780
-0.3779 0.6707 0.3774
-0.4355 0.6332 0.3768
-0.4893 0.5907 0.3761
-0.5389 0.5434 0.3752
-0.5839 0.4920 0.3743
-0.6239 0.4368 0.3734
-0.6586 0.3783 0.3724
-0.6877 0.3171 0.3713
-0.7112 0.2537 0.3702
-0.7288 0.1886 0.3691
-0.7404 0.1225 0.3679
-0.7460 0.0557 0.3668
-0.7456 -0.0111 0.3656
-0.7393 -0.0773 0.3645
-0.7272 -0.1426 0.3633
-0.7094 -0.2063 0.3622
-0.6861 -0.2680 0.3611
-0.6576 -0.3272 0.3601
-0.6241 -0.3836 0.3591
-0.5858 -0.4366 0.3582
-0.5432 -0.4860 0.3574
-0.4966 -0.5314 0.3566
-0.4462 -0.5725 0.3559
-0.3927 -0.6089 0.3552
-0.3362 -0.6405 0.3547
-0.2774 -0.6671 0.3542
-0.2165 -0.6885 0.3539
-0.1540 -0.7045 0.3536
-0.0905 -0.7151 0.3534
-0.0263 -0.7201 0.3533
0.0381 -0.7196 0.3533
0.1022 -0.7136 0.3534
0.1656 -0.7020 0.3536
0.2278 -0.6850 0.3539
0.2883 -0.6627 0.3543
0.3468 -0.6351 0.3548
0.4028 -0.6026 0.3554
0.4558 -0.5653 0.3560
0.5054 -0.5234 0.3567
0.5514 -0.4773 0.3575
0.5932 -0.4272 0.3584
0.6306 -0.3735 0.3593
0.6633 -0.3166 0.3603
0.6909 -0.2569 0.3614
0.7132 -0.1948 0.3624
0.7299 -0.1307 0.3636
0.7410 -0.0652 0.3647
0.7462 0.0012 0.3658
0.7455 0.0680 0.3670
0.7388 0.1347 0.3682
0.7260 0.2007 0.3693
0.7074 0.2655 0.3704
0.6829 0.3286 0.3715
0.6527 0.3893 0.3726
0.6170 0.4472 0.3736
0.5760 0.5018 0.3745
0.5302 0.5525 0.3754
0.4798 0.5989 0.3762
0.4252 0.6405 0.3769
0.3670 0.6771 0.3776
0.3055 0.7081 0.3781
0.2414 0.7334 0.3786
0.1751 0.7527 0.3789
0.1073 0.7658 0.3791
0.0385 0.7725 0.3792
-0.0306 0.7729 0.3792
-0.0995 0.7669 0.3791
-0.1674 0.7545 0.3789
-0.2339 0.7359 0.3786
-0.2983 0.7113 0.3782
-0.3601 0.6809 0.3776
-0.4188 0.6449 0.3770
-0.4738 0.6038 0.3763
-0.5246 0.5579 0.3755
-0.5710 0.5077 0.3746
-0.6125 0.4536 0.3737
-0.6488 0.3960 0.3727
-0.6797 0.3356 0.3716
-0.7048 0.2728 0.3705
-0.7242 0.2081 0.3694
-0.7375 0.1422 0.3683
-0.7450 0.0756 0.3671
-0.7464 0.0088 0.3659
-0.7418 -0.0577 0.3648
-0.7314 -0.1233 0.3637
-0.7153 -0.1875 0.3625
-0.6936 -0.2499 0.3615
-0.6666 -0.3099 0.3604
-0.6345 -0.3672 0.3594
-0.5977 -0.4212 0.3585
-0.5563 -0.4717 0.3576
-0.5108 -0.5183 0.3568
-0.4616 -0.5607 0.3561
-0.4089 -0.5986 0.3554
-0.3533 -0.6317 0.3548
-0.2951 -0.6598 0.3543
-0.2348 -0.6827 0.3540
-0.1727 -0.7003 0.3536
-0.1095 -0.7125 0.3534
-0.0454 -0.7192 0.3533
0.0190 -0.7204 0.3533
0.0832 -0.7160 0.3534
0.1469 -0.7060 0.3536
0.2095 -0.6906 0.3538
0.2705 -0.6699 0.3542
0.3297 -0.6438 0.3546
0.3864 -0.6128 0.3552
0.4403 -0.5769 0.3558
0.4910 -0.5363 0.3565
0.5381 -0.4914 0.3573
0.5812 -0.4425 0.3581
0.6200 -0.3898 0.3591
0.6541 -0.3338 0.3600
0.6832 -0.2749 0.3611
0.7071 -0.2134 0.3621
0.7255 -0.1499 0.3632
0.7383 -0.0848 0.3644
0.7453 -0.0186 0.3655
0.7463 0.0481 0.3667
0.7414 0.1149 0.3678
0.7305 0.1812 0.3690
0.7135 0.2464 0.3701
0.6908 0.3100 0.3712
0.6622 0.3715 0.3723
0.6281 0.4303 0.3733
0.5887 0.4859 0.3743
0.5443 0.5378 0.3752
0.4952 0.5856 0.3760
0.4419 0.6287 0.3767
0.3847 0.6668 0.3774
0.3241 0.6995 0.3780
0.2607 0.7265 0.3784
0.1950 0.7476 0.3788
0.1276 0.7626 0.3791
0.0590 0.7712 0.3792
-0.0101 0.7735 0.3792
-0.0791 0.7693 0.3792
-0.1474 0.7588 0.3790
-0.2143 0.7421 0.3787
-0.2794 0.7192 0.3783
-0.3420 0.6905 0.3778
-0.4017 0.6562 0.3772
-0.4578 0.6166 0.3765
-0.5100 0.5721 0.3757
-0.5577 0.5231 0.3749
-0.6007 0.4700 0.3740
-0.6386 0.4135 0.3730
-0.6711 0.3538 0.3719
-0.6979 0.2917 0.3709
-0.7190 0.2275 0.3697
-0.7342 0.1619 0.3686
-0.7434 0.0954 0.3675
-0.7466 0.0286 0.3663
-0.7438 -0.0380 0.3651
-0.7351 -0.1039 0.3640
-0.7207 -0.1686 0.3629
-0.7006 -0.2316 0.3618
-0.6752 -0.2923 0.3607
-0.6446 -0.3504 0.3597
-0.6091 -0.4055 0.3588
-0.5691 -0.4571 0.3579
-0.5248 -0.5049 0.3570
-0.4766 -0.5486 0.3563
-0.4249 -0.5878 0.3556
-0.3701 -0.6223 0.3550
-0.3126 -0.6519 0.3545
-0.2529 -0.6764 0.3541
-0.1913 -0.6957 0.3537
-0.1284 -0.7095 0.3535
-0.0645 -0.7178 0.3533
-0.0002 -0.7206 0.3533
0.0641 -0.7179 0.3533
0.1280 -0.7096 0.3535
0.1910 -0.6958 0.3537
0.2526 -0.6766 0.3541
0.3123 -0.6521 0.3545
0.3698 -0.6225 0.3550
0.4246 -0.5880 0.3556
0.4763 -0.5488 0.3563
0.5245 -0.5052 0.3571
0.5689 -0.4574 0.3579
0.6089 -0.4058 0.3588
0.6444 -0.3508 0.3597
0.6751 -0.2927 0.3607
0.7006 -0.2320 0.3618
0.7206 -0.1690 0.3629
0.7351 -0.1043 0.3640
0.7438 -0.0384 0.3652
0.7466 0.0282 0.3663
0.7435 0.0951 0.3675
0.7343 0.1615 0.3686
0.7192 0.2271 0.3698
0.6981 0.2913 0.3709
0.6713 0.3535 0.3720
0.6388 0.4132 0.3730
0.6010 0.4698 0.3740
0.5580 0.5228 0.3749
0.5103 0.5718 0.3758
0.4582 0.6164 0.3765
0.4020 0.6560 0.3772
0.3424 0.6903 0.3778
0.2798 0.7191 0.3783
0.2147 0.7420 0.3787
0.1477 0.7588 0.3790
0.0795 0.7693 0.3792
0.0105 0.7735 0.3792
-0.0586 0.7712 0.3792
-0.1272 0.7626 0.3791
-0.1946 0.7477 0.3788
-0.2603 0.7266 0.3784
-0.3237 0.6996 0.3780
-0.3843 0.6669 0.3774
-0.4415 0.6289 0.3767
-0.4949 0.5858 0.3760
-0.5440 0.5381 0.3751
-0.5884 0.4862 0.3742
-0.6279 0.4306 0.3733
-0.6620 0.3718 0.3723
-0.6906 0.3104 0.3712
-0.7134 0.2468 0.3701
-0.7303 0.1815 0.3689
-0.7413 0.1153 0.3678
-0.7462 0.0485 0.3666
-0.7452 -0.0183 0.3655
-0.7383 -0.0844 0.3643
-0.7256 -0.1495 0.3632
-0.7072 -0.2131 0.3621
-0.6833 -0.2745 0.3610
-0.6542 -0.3335 0.3600
-0.6201 -0.3895 0.3590
-0.5814 -0.4421 0.3581
-0.5384 -0.4911 0.3573
-0.4913 -0.5360 0.3565
-0.4406 -0.5766 0.3558
-0.3867 -0.6126 0.3552
-0.3300 -0.6437 0.3546
-0.2709 -0.6697 0.3542
-0.2098 -0.6905 0.3538
-0.1472 -0.7059 0.3535
-0.0836 -0.7159 0.3534
-0.0193 -0.7204 0.3533
0.0450 -0.7192 0.3533
0.1091 -0.7126 0.3534
0.1724 -0.7004 0.3537
0.2344 -0.6828 0.3540
0.2948 -0.6599 0.3544
0.3530 -0.6319 0.3548
0.4086 -0.5988 0.3554
0.4613 -0.5610 0.3561
0.5106 -0.5186 0.3568
0.5561 -0.4720 0.3576
0.5975 -0.4216 0.3585
0.6344 -0.3675 0.3594
0.6665 -0.3103 0.3604
0.6935 -0.2503 0.3615
0.7152 -0.1879 0.3626
0.7314 -0.1237 0.3637
0.7418 -0.0581 0.3648
0.7464 0.0084 0.3660
0.7450 0.0752 0.3671
0.7377 0.1419 0.3683
0.7243 0.2078 0.3694
0.7050 0.2724 0.3706
0.6799 0.3352 0.3716
0.6491 0.3957 0.3727
0.6128 0.4533 0.3737
0.5713 0.5074 0.3746
0.5250 0.5577 0.3755
0.4741 0.6036 0.3763
0.4191 0.6447 0.3770
0.3605 0.6807 0.3776
0.2987 0.7111 0.3782
0.2343 0.7358 0.3786
0.1678 0.7544 0.3789
0.0999 0.7668 0.3791
0.0310 0.7729 0.3792
-0.0381 0.7726 0.3792
-0.1069 0.7658 0.3791
-0.1747 0.7528 0.3789
-0.2410 0.7335 0.3785
-0.3051 0.7083 0.3781
-0.3666 0.6772 0.3776
-0.4249 0.6407 0.3769
-0.4795 0.5991 0.3762
-0.5299 0.5527 0.3754
-0.5757 0.5020 0.3745
-0.6167 0.4475 0.3736
-0.6524 0.3896 0.3726
-0.6826 0.3289 0.3715
-0.7072 0.2659 0.3704
-0.7259 0.2011 0.3693
-0.7386 0.1351 0.3681
-0.7454 0.0684 0.3670
-0.7461 0.0015 0.3658
-0.7410 -0.0649 0.3647
-0.7299 -0.1303 0.3635
-0.7132 -0.1944 0.3624
-0.6910 -0.2565 0.3613
-0.6634 -0.3162 0.3603
-0.6308 -0.3732 0.3593
-0.5934 -0.4269 0.3584
-0.5516 -0.4770 0.3575
-0.5057 -0.5231 0.3567
-0.4560 -0.5650 0.3560
-0.4031 -0.6024 0.3553
-0.3471 -0.6349 0.3548
-0.2887 -0.6625 0.3543
-0.2281 -0.6849 0.3539
-0.1660 -0.7019 0.3536
-0.1026 -0.7135 0.3534
-0.0385 -0.7196 0.3533
0.0259 -0.7202 0.3533
0.0901 -0.7152 0.3534
0.1537 -0.7046 0.3536
0.2161 -0.6886 0.3539
0.2770 -0.6673 0.3542
0.3359 -0.6407 0.3547
0.3924 -0.6091 0.3552
0.4460 -0.5727 0.3559
0.4963 -0.5317 0.3566
0.5430 -0.4863 0.3574
0.5856 -0.4370 0.3582
0.6239 -0.3839 0.3592
0.6575 -0.3276 0.3601
0.6860 -0.2684 0.3612
0.7094 -0.2067 0.3622
0.7272 -0.1430 0.3633
0.7393 -0.0777 0.3645
0.7457 -0.0115 0.3656
0.7461 0.0553 0.3668
0.7405 0.1221 0.3679
0.7289 0.1883 0.3691
0.7114 0.2534 0.3702
0.6880 0.3168 0.3713
0.6588 0.3780 0.3724
0.6241 0.4365 0.3734
0.5842 0.4917 0.3744
0.5392 0.5432 0.3753
0.4897 0.5904 0.3761
0.4359 0.6330 0.3768
0.3783 0.6706 0.3775
0.3174 0.7027 0.3780
0.2537 0.7291 0.3785
0.1878 0.7495 0.3788
0.1202 0.7638 0.3791
0.0516 0.7717 0.3792
-0.0175 0.7733 0.3792
-0.0865 0.7685 0.3792
-0.1547 0.7573 0.3790
-0.2215 0.7399 0.3787
-0.2863 0.7164 0.3782
-0.3486 0.6871 0.3777
-0.4079 0.6521 0.3771
-0.4636 0.6120 0.3764
-0.5153 0.5670 0.3756
-0.5626 0.5175 0.3748
-0.6051 0.4641 0.3739
-0.6424 0.4072 0.3729
-0.6742 0.3472 0.3718
-0.7005 0.2848 0.3707
-0.7209 0.2205 0.3696
-0.7355 0.1548 0.3685
-0.7440 0.0882 0.3673
-0.7465 0.0214 0.3662
-0.7431 -0.0452 0.3650
-0.7338 -0.1110 0.3639
-0.7188 -0.1755 0.3627
-0.6981 -0.2382 0.3617
-0.6721 -0.2987 0.3606
-0.6410 -0.3565 0.3596
-0.6050 -0.4112 0.3587
-0.5645 -0.4625 0.3578
-0.5197 -0.5098 0.3569
-0.4712 -0.5530 0.3562
-0.4191 -0.5918 0.3555
-0.3640 -0.6258 0.3549
-0.3063 -0.6548 0.3544
-0.2463 -0.6788 0.3540
-0.1846 -0.6974 0.3537
-0.1215 -0.7106 0.3535
-0.0576 -0.7184 0.3533
0.0068 -0.7206 0.3533
0.0711 -0.7172 0.3534
0.1349 -0.7083 0.3535
0.1977 -0.6940 0.3538
0.2591 -0.6742 0.3541
0.3186 -0.6492 0.3545
0.3759 -0.6191 0.3551
0.4304 -0.5840 0.3557
0.4817 -0.5443 0.3564
0.5295 -0.5002 0.3571
0.5734 -0.4520 0.3580
0.6130 -0.4001 0.3589
0.6480 -0.3447 0.3598
0.6781 -0.2863 0.3609
0.7030 -0.2252 0.3619
0.7225 -0.1621 0.3630
0.7363 -0.0973 0.3641
0.7444 -0.0312 0.3653
0.7466 0.0354 0.3664
0.7428 0.1023 0.3676
0.7330 0.1687 0.3688
0.7172 0.2342 0.3699
0.6955 0.2981 0.3710
0.6681 0.3601 0.3721
0.6350 0.4194 0.3731
0.5966 0.4757 0.3741
0.5531 0.5283 0.3750
0.5049 0.5769 0.3758
0.4523 0.6209 0.3766
0.3958 0.6600 0.3773
0.3358 0.6937 0.3779
0.2729 0.7219 0.3784
0.2076 0.7441 0.3787
0.1404 0.7602 0.3790
0.0720 0.7701 0.3792
0.0030 0.7735 0.3792
-0.0660 0.7706 0.3792
-0.1345 0.7613 0.3790
-0.2018 0.7457 0.3788
-0.2673 0.7240 0.3784
-0.3304 0.6964 0.3779
-0.3906 0.6631 0.3773
-0.4475 0.6245 0.3766
-0.5004 0.5808 0.3759
-0.5490 0.5327 0.3750
-0.5930 0.4804 0.3741
-0.6318 0.4244 0.3732
-0.6653 0.3653 0.3721
-0.6933 0.3036 0.3711
-0.7155 0.2398 0.3700
-0.7318 0.1744 0.3688
-0.7421 0.1081 0.3677
-0.7464 0.0413 0.3665
-0.7448 -0.0254 0.3654
-0.7372 -0.0915 0.3642
-0.7238 -0.1565 0.3631
-0.7048 -0.2198 0.3620
-0.6804 -0.2810 0.3609
-0.6508 -0.3397 0.3599
-0.6162 -0.3953 0.3589
-0.5770 -0.4476 0.3580
-0.5335 -0.4962 0.3572
-0.4860 -0.5406 0.3564
-0.4349 -0.5807 0.3557
-0.3807 -0.6162 0.3551
-0.3237 -0.6467 0.3546
-0.2644 -0.6722 0.3541
-0.2031 -0.6924 0.3538
-0.1404 -0.7073 0.3535
-0.0767 -0.7167 0.3534
-0.0124 -0.7205 0.3533
0.0520 -0.7188 0.3533
0.1160 -0.7115 0.3535
0.1791 -0.6988 0.3537
0.2410 -0.6806 0.3540
0.3012 -0.6572 0.3544
0.3591 -0.6285 0.3549
0.4145 -0.5949 0.3555
0.4668 -0.5566 0.3562
0.5157 -0.5138 0.3569
0.5608 -0.4668 0.3577
0.6017 -0.4159 0.3586
0.6381 -0.3615 0.3595
0.6697 -0.3039 0.3605
0.6961 -0.2436 0.3616
0.7172 -0.1811 0.3627
0.7328 -0.1167 0.3638
0.7426 -0.0510 0.3649
0.7466 0.0156 0.3661
0.7445 0.0824 0.3673
0.7365 0.1490 0.3684
0.7225 0.2148 0.3696
0.7026 0.2793 0.3707
0.6768 0.3419 0.3718
0.6454 0.4021 0.3728
0.6086 0.4593 0.3738
0.5665 0.5131 0.3747
0.5197 0.5629 0.3756
0.4683 0.6083 0.3764
0.4129 0.6489 0.3771
0.3540 0.6843 0.3777
0.2919 0.7141 0.3782
0.2272 0.7381 0.3786
0.1605 0.7561 0.3789
0.0925 0.7678 0.3791
0.0236 0.7732 0.3792
-0.0455 0.7721 0.3792
-0.1142 0.7647 0.3791
-0.1819 0.7510 0.3788
-0.2480 0.7311 0.3785
-0.3119 0.7052 0.3780
-0.3731 0.6736 0.3775
-0.4310 0.6365 0.3769
-0.4851 0.5943 0.3761
-0.5351 0.5475 0.3753
-0.5804 0.4963 0.3744
-0.6208 0.4414 0.3735
-0.6560 0.3832 0.3724
-0.6856 0.3222 0.3714
-0.7095 0.2589 0.3703
-0.7276 0.1940 0.3692
-0.7397 0.1279 0.3680
-0.7458 0.0611 0.3669
-0.7459 -0.0056 0.3657
-0.7401 -0.0720 0.3645
-0.7284 -0.1373 0.3634
-0.7111 -0.2012 0.3623
-0.6882 -0.2631 0.3612
-0.6601 -0.3225 0.3602
-0.6270 -0.3791 0.3592
-0.5891 -0.4324 0.3583
-0.5468 -0.4821 0.3574
-0.5005 -0.5279 0.3566
-0.4505 -0.5693 0.3559
-0.3972 -0.6061 0.3553
-0.3409 -0.6382 0.3547
-0.2822 -0.6652 0.3543
-0.2215 -0.6870 0.3539
-0.1592 -0.7034 0.3536
-0.0957 -0.7144 0.3534
-0.0315 -0.7199 0.3533
0.0329 -0.7199 0.3533
0.0970 -0.7143 0.3534
0.1605 -0.7032 0.3536
0.2228 -0.6866 0.3539
0.2835 -0.6647 0.3543
0.3421 -0.6376 0.3547
0.3983 -0.6054 0.3553
0.4516 -0.5685 0.3559
0.5015 -0.5270 0.3567
0.5478 -0.4812 0.3575
0.5900 -0.4314 0.3583
0.6278 -0.3780 0.3593
0.6608 -0.3213 0.3602
0.6888 -0.2618 0.3613
0.7115 -0.1999 0.3624
0.7288 -0.1360 0.3635
0.7403 -0.0706 0.3646
0.7460 -0.0043 0.3658
0.7458 0.0625 0.3669
0.7395 0.1293 0.3681
0.7273 0.1954 0.3692
0.7091 0.2603 0.3703
0.6851 0.3235 0.3714
0.6553 0.3845 0.3725
0.6201 0.4426 0.3735
0.5796 0.4975 0.3745
0.5341 0.5485 0.3753
0.4841 0.5953 0.3762
0.4298 0.6373 0.3769
0.3718 0.6743 0.3775
0.3106 0.7058 0.3781
0.2467 0.7316 0.3785
0.1805 0.7514 0.3789
0.1128 0.7650 0.3791
0.0441 0.7722 0.3792
-0.0250 0.7731 0.3792
-0.0939 0.7676 0.3791
-0.1619 0.7557 0.3789
-0.2286 0.7377 0.3786
-0.2932 0.7135 0.3782
-0.3552 0.6836 0.3777
-0.4141 0.6481 0.3771
-0.4694 0.6074 0.3763
-0.5207 0.5619 0.3756
-0.5674 0.5119 0.3747
-0.6093 0.4581 0.3738
-0.6461 0.4008 0.3728
-0.6774 0.3406 0.3717
-0.7030 0.2780 0.3706
-0.7228 0.2135 0.3695
-0.7367 0.1476 0.3684
-0.7446 0.0810 0.3672
-0.7465 0.0142 0.3660
-0.7424 -0.0523 0.3649
-0.7325 -0.1180 0.3637
-0.7168 -0.1824 0.3626
-0.6956 -0.2449 0.3615
-0.6690 -0.3051 0.3605
-0.6373 -0.3626 0.3595
-0.6008 -0.4169 0.3586
-0.5598 -0.4678 0.3577
-0.5147 -0.5147 0.3569
-0.4657 -0.5574 0.3561
-0.4133 -0.5957 0.3555
-0.3579 -0.6291 0.3549
-0.2999 -0.6577 0.3544
-0.2397 -0.6810 0.3540
-0.1778 -0.6991 0.3537
-0.1147 -0.7117 0.3534
-0.0506 -0.7189 0.3533
0.0137 -0.7205 0.3533
0.0780 -0.7165 0.3534
0.1417 -0.7070 0.3535
0.2044 -0.6921 0.3538
0.2656 -0.6717 0.3542
0.3249 -0.6462 0.3546
0.3819 -0.6155 0.3551
0.4361 -0.5800 0.3558
0.4870 -0.5398 0.3564
0.5344 -0.4952 0.3572
0.5779 -0.4466 0.3581
0.6170 -0.3942 0.3590
0.6515 -0.3385 0.3599
0.6810 -0.2798 0.3610
0.7053 -0.2185 0.3620
0.7242 -0.1552 0.3631
0.7375 -0.0902 0.3643
0.7449 -0.0241 0.3654
0.7465 0.0427 0.3666
0.7420 0.1095 0.3677
0.7316 0.1758 0.3689
0.7151 0.2411 0.3700
0.6928 0.3049 0.3711
0.6648 0.3666 0.3722
0.6311 0.4257 0.3732
0.5921 0.4815 0.3742
0.5481 0.5338 0.3751
0.4994 0.5818 0.3759
0.4464 0.6253 0.3767
0.3894 0.6639 0.3773
0.3291 0.6970 0.3779
0.2659 0.7245 0.3784
0.2004 0.7461 0.3788
0.1331 0.7616 0.3790
0.0646 0.7707 0.3792
-0.0044 0.7735 0.3792
-0.0735 0.7699 0.3792
-0.1418 0.7599 0.3790
-0.2089 0.7437 0.3787
-0.2742 0.7213 0.3783
-0.3371 0.6931 0.3778
-0.3969 0.6592 0.3772
-0.4534 0.6200 0.3766
-0.5059 0.5759 0.3758
-0.5540 0.5272 0.3750
-0.5974 0.4745 0.3740
-0.6357 0.4182 0.3731
-0.6686 0.3588 0.3720
-0.6960 0.2968 0.3709
-0.7175 0.2328 0.3698
-0.7332 0.1673 0.3687
-0.7429 0.1009 0.3675
-0.7465 0.0340 0.3664
-0.7442 -0.0326 0.3652
-0.7360 -0.0986 0.3641
-0.7221 -0.1634 0.3630
-0.7025 -0.2265 0.3619
-0.6774 -0.2875 0.3608
-0.6473 -0.3458 0.3598
-0.6122 -0.4011 0.3588
-0.5725 -0.4531 0.3579
-0.5285 -0.5012 0.3571
-0.4807 -0.5452 0.3563
-0.4292 -0.5848 0.3556
-0.3747 -0.6197 0.3550
-0.3174 -0.6497 0.3545
-0.2578 -0.6746 0.3541
-0.1964 -0.6943 0.3538
-0.1336 -0.7086 0.3535
-0.0697 -0.7173 0.3534
-0.0054 -0.7206 0.3533
0.0589 -0.7183 0.3533
0.1228 -0.7104 0.3535
0.1859 -0.6971 0.3537
0.2476 -0.6783 0.3540
0.3075 -0.6543 0.3545
0.3652 -0.6251 0.3550
0.4203 -0.5910 0.3556
0.5117 -0.5025 0.3571
0.5558 -0.4558 0.3579
0.5957 -0.4054 0.3588
0.6311 -0.3515 0.3597
0.6618 -0.2946 0.3607
0.6874 -0.2350 0.3617
0.7078 -0.1732 0.3628
0.7226 -0.1097 0.3639
0.7317 -0.0449 0.3650
0.7351 0.0207 0.3662
0.7326 0.0865 0.3673
0.7242 0.1520 0.3685
0.7099 0.2167 0.3696
0.6898 0.2800 0.3707
0.6639 0.3415 0.3718
0.6325 0.4005 0.3728
0.5958 0.4565 0.3738
0.5540 0.5091 0.3747
0.5075 0.5578 0.3755
0.4566 0.6021 0.3763
0.4018 0.6416 0.3770
0.3435 0.6760 0.3776
0.2821 0.7049 0.3781
0.2183 0.7280 0.3785
0.1526 0.7452 0.3788
0.0855 0.7562 0.3789
0.0177 0.7610 0.3790
-0.0503 0.7595 0.3790
-0.1179 0.7517 0.3789
-0.1844 0.7377 0.3786
-0.2493 0.7176 0.3783
-0.3120 0.6917 0.3778
-0.3719 0.6601 0.3773
-0.4286 0.6232 0.3766
-0.4816 0.5813 0.3759
-0.5304 0.5349 0.3751
-0.5747 0.4843 0.3742
-0.6141 0.4299 0.3733
-0.6482 0.3724 0.3723
-0.6770 0.3122 0.3712
-0.7001 0.2498 0.3701
-0.7174 0.1857 0.3690
-0.7289 0.1206 0.3679
-0.7345 0.0548 0.3667
-0.7342 -0.0109 0.3656
-0.7280 -0.0762 0.3645
-0.7161 -0.1404 0.3634
-0.6986 -0.2031 0.3623
-0.6757 -0.2639 0.3612
-0.6476 -0.3223 0.3602
-0.6146 -0.3778 0.3592
-0.5770 -0.4301 0.3583
-0.5350 -0.4787 0.3575
-0.4891 -0.5234 0.3567
-0.4396 -0.5639 0.3560
-0.3868 -0.5998 0.3554
-0.3312 -0.6310 0.3548
-0.2732 -0.6572 0.3544
-0.2132 -0.6783 0.3540
-0.1517 -0.6940 0.3538
-0.0891 -0.7045 0.3536
-0.0259 -0.7094 0.3535
0.0375 -0.7089 0.3535
0.1007 -0.7030 0.3536
0.1631 -0.6916 0.3538
0.2244 -0.6748 0.3541
0.2840 -0.6528 0.3545
0.3416 -0.6257 0.3550
0.3967 -0.5936 0.3555
0.4489 -0.5568 0.3562
0.4979 -0.5156 0.3569
0.5431 -0.4701 0.3577
0.5843 -0.4208 0.3585
0.6211 -0.3679 0.3594
0.6532 -0.3118 0.3604
0.6804 -0.2530 0.3614
0.7023 -0.1918 0.3625
0.7188 -0.1287 0.3636
0.7296 -0.0642 0.3647
0.7347 0.0011 0.3658
0.7340 0.0669 0.3670
0.7273 0.1326 0.3681
0.7148 0.1976 0.3693
0.6964 0.2614 0.3704
0.6722 0.3234 0.3714
0.6424 0.3832 0.3725
0.6073 0.4402 0.3735
0.5670 0.4939 0.3744
0.5218 0.5438 0.3753
0.4722 0.5894 0.3761
0.4185 0.6304 0.3768
0.3611 0.6663 0.3774
0.3006 0.6969 0.3779
0.2375 0.7218 0.3783
0.1723 0.7407 0.3787
0.1055 0.7536 0.3789
0.0379 0.7602 0.3790
-0.0301 0.7606 0.3790
-0.0979 0.7546 0.3789
-0.1648 0.7425 0.3787
-0.2302 0.7242 0.3784
-0.2936 0.7000 0.3780
-0.3544 0.6700 0.3774
-0.4121 0.6347 0.3768
-0.4663 0.5943 0.3761
-0.5164 0.5491 0.3753
-0.5620 0.4997 0.3745
-0.6029 0.4464 0.3735
-0.6386 0.3898 0.3726
-0.6690 0.3303 0.3715
-0.6938 0.2685 0.3705
-0.7129 0.2049 0.3694
-0.7261 0.1400 0.3682
-0.7334 0.0744 0.3671
-0.7349 0.0086 0.3659
-0.7304 -0.0568 0.3648
-0.7202 -0.1214 0.3637
-0.7044 -0.1847 0.3626
-0.6831 -0.2461 0.3615
-0.6565 -0.3052 0.3605
-0.6249 -0.3616 0.3595
-0.5886 -0.4149 0.3586
-0.5479 -0.4646 0.3577
-0.5032 -0.5105 0.3569
-0.4547 -0.5523 0.3562
-0.4028 -0.5896 0.3556
-0.3480 -0.6222 0.3550
-0.2907 -0.6499 0.3545
-0.2313 -0.6725 0.3541
-0.1702 -0.6899 0.3538
-0.1078 -0.7019 0.3536
-0.0447 -0.7085 0.3535
0.0187 -0.7097 0.3535
0.0820 -0.7053 0.3536
0.1447 -0.6955 0.3537
0.2063 -0.6803 0.3540
0.2665 -0.6599 0.3544
0.3247 -0.6342 0.3548
0.3806 -0.6036 0.3553
0.4337 -0.5682 0.3560
0.4837 -0.5283 0.3566
0.5300 -0.4840 0.3574
0.5725 -0.4358 0.3583
0.6106 -0.3839 0.3592
0.6442 -0.3288 0.3601
0.6728 -0.2707 0.3611
0.6963 -0.2102 0.3622
0.7144 -0.1476 0.3633
0.7270 -0.0835 0.3644
0.7338 -0.0184 0.3655
0.7348 0.0474 0.3667
0.7299 0.1131 0.3678
0.7191 0.1784 0.3689
0.7024 0.2426 0.3700
0.6800 0.3052 0.3711
0.6519 0.3657 0.3722
0.6183 0.4236 0.3732
0.5795 0.4783 0.3741
0.5357 0.5293 0.3750
0.4874 0.5763 0.3758
0.4349 0.6187 0.3766
0.3785 0.6562 0.3772
0.3189 0.6884 0.3778
0.2565 0.7150 0.3782
0.1919 0.7357 0.3786
0.1255 0.7504 0.3788
0.0581 0.7589 0.3790
-0.0099 0.7611 0.3790
-0.0778 0.7571 0.3790
-0.1450 0.7467 0.3788
-0.2109 0.7303 0.3785
-0.2750 0.7078 0.3781
-0.3366 0.6795 0.3776
-0.3953 0.6458 0.3770
-0.4506 0.6068 0.3763
-0.5019 0.5630 0.3756
-0.5489 0.5148 0.3747
-0.5913 0.4626 0.3738
-0.6286 0.4070 0.3729
-0.6606 0.3483 0.3718
-0.6871 0.2871 0.3708
-0.7078 0.2240 0.3697
-0.7228 0.1594 0.3686
-0.7319 0.0940 0.3674
-0.7351 0.0282 0.3663
-0.7324 -0.0374 0.3651
-0.7238 -0.1023 0.3640
-0.7097 -0.1660 0.3629
-0.6900 -0.2280 0.3618
-0.6649 -0.2879 0.3608
-0.6348 -0.3451 0.3598
-0.5999 -0.3994 0.3589
-0.5605 -0.4502 0.3580
-0.5169 -0.4973 0.3572
-0.4694 -0.5403 0.3564
-0.4185 -0.5790 0.3557
-0.3646 -0.6130 0.3552
-0.3080 -0.6422 0.3547
-0.2491 -0.6663 0.3542
-0.1885 -0.6853 0.3539
-0.1265 -0.6989 0.3537
-0.0636 -0.7071 0.3535
-0.0002 -0.7099 0.3535
0.0632 -0.7072 0.3535
0.1261 -0.6990 0.3537
0.1881 -0.6854 0.3539
0.2488 -0.6665 0.3542
0.3077 -0.6424 0.3547
0.3643 -0.6132 0.3552
0.4183 -0.5792 0.3558
0.4692 -0.5406 0.3564
0.5166 -0.4976 0.3572
0.5603 -0.4505 0.3580
0.5997 -0.3997 0.3589
0.6347 -0.3455 0.3598
0.6648 -0.2882 0.3608
0.6899 -0.2284 0.3619
0.7096 -0.1664 0.3629
0.7238 -0.1027 0.3640
0.7324 -0.0378 0.3652
0.7351 0.0278 0.3663
0.7320 0.0936 0.3675
0.7229 0.1590 0.3686
0.7080 0.2236 0.3697
0.6873 0.2868 0.3708
0.6608 0.3480 0.3719
0.6288 0.4067 0.3729
0.5915 0.4624 0.3739
0.5492 0.5146 0.3748
0.5022 0.5628 0.3756
0.4509 0.6066 0.3764
0.3957 0.6456 0.3770
0.3370 0.6794 0.3776
0.2753 0.7077 0.3781
0.2113 0.7302 0.3785
0.1454 0.7467 0.3788
0.0782 0.7570 0.3790
0.0103 0.7611 0.3790
-0.0577 0.7589 0.3790
-0.1251 0.7505 0.3788
-0.1915 0.7358 0.3786
-0.2562 0.7151 0.3782
-0.3186 0.6885 0.3778
-0.3782 0.6564 0.3772
-0.4345 0.6189 0.3765
-0.4871 0.5765 0.3758
-0.5354 0.5296 0.3750
-0.5792 0.4786 0.3741
-0.6180 0.4239 0.3732
-0.6516 0.3660 0.3722
-0.6798 0.3055 0.3711
-0.7023 0.2429 0.3700
-0.7190 0.1787 0.3689
-0.7298 0.1135 0.3678
-0.7347 0.0477 0.3666
-0.7338 -0.0180 0.3655
-0.7270 -0.0831 0.3644
