-0.40325233340263367 -0.6298311352729797 0.3666567802429199
-0.3452816605567932 -0.6629288196563721 0.36646178364753723
-0.2846281826496124 -0.6907092928886414 0.3662637174129486
-0.22177255153656006 -0.7129499912261963 0.3660639822483063
-0.15721732378005981 -0.7294960021972656 0.36586424708366394
-0.09147518128156662 -0.7402018308639526 0.3656660318374634
-0.025081850588321686 -0.7450191974639893 0.36547088623046875
0.041446469724178314 -0.7439000606536865 0.3652805984020233
0.10757163912057877 -0.7368642091751099 0.36509642004966736
0.1727829873561859 -0.7239812016487122 0.3649197220802307
0.23655837774276733 -0.705369234085083 0.3647523522377014
0.29839447140693665 -0.6811664700508118 0.3645950257778168
0.35781511664390564 -0.651570737361908 0.3644494414329529
0.41435182094573975 -0.6168389320373535 0.3643164038658142
0.4675552248954773 -0.5772382616996765 0.3641972243785858
0.5170328617095947 -0.5330869555473328 0.36409270763397217
0.5623719096183777 -0.4847218990325928 0.3640033006668091
0.6032450199127197 -0.4325515627861023 0.363930344581604
0.6393254995346069 -0.37696483731269836 0.3638738989830017
0.6703237295150757 -0.31841057538986206 0.36383482813835144
0.6960083842277527 -0.25733983516693115 0.3638128638267517
0.7161765694618225 -0.19423389434814453 0.36380890011787415
0.7306734919548035 -0.1295952945947647 0.36382216215133667
0.7393836975097656 -0.06391829997301102 0.3638531267642975
0.7422298789024353 0.00228196382522583 0.3639013469219208
0.7392033934593201 0.06848790496587753 0.3639663755893707
0.7303145527839661 0.13417145609855652 0.36404815316200256
0.715632975101471 0.1988219916820526 0.3641454875469208
0.695257842540741 0.26193758845329285 0.3642578125
0.6693567633628845 0.3230138421058655 0.3643844425678253
0.6381275653839111 0.3815745711326599 0.3645242154598236
0.6017978191375732 0.43715235590934753 0.364675909280777
0.5606641173362732 0.4892968237400055 0.36483871936798096
0.5150343179702759 0.5376060605049133 0.3650112748146057
0.46526575088500977 0.5816860198974609 0.3651919364929199
0.41174623370170593 0.6211808919906616 0.3653796315193176
0.35488489270210266 0.6557827591896057 0.3655725121498108
0.29513972997665405 0.6851820349693298 0.36576932668685913
0.23298189043998718 0.7091663479804993 0.36596861481666565
0.168901726603508 0.7275128960609436 0.3661684989929199
0.10339243710041046 0.7400768995285034 0.3663676381111145
0.03699737414717674 0.7467510104179382 0.3665643334388733
-0.02976795844733715 0.7474676370620728 0.3667568862438202
-0.09636644273996353 0.742217481136322 0.36694395542144775
-0.16225992143154144 0.7310202717781067 0.3671240210533142
-0.2269175499677658 0.7139642834663391 0.36729520559310913
-0.2898164391517639 0.6911872625350952 0.36745697259902954
-0.3504522740840912 0.6628567576408386 0.36760711669921875
-0.40832823514938354 0.6291990876197815 0.3677447438240051
-0.46296605467796326 0.5904707908630371 0.36786895990371704
-0.5139440894126892 0.5469889640808105 0.3679785132408142
-0.5608198046684265 0.4990992546081543 0.368072509765625
-0.6032274961471558 0.44718924164772034 0.3681500256061554
-0.6408106088638306 0.3916662037372589 0.36821091175079346
-0.6732692718505859 0.33298859000205994 0.36825424432754517
-0.7003321051597595 0.2716350555419922 0.36827972531318665
-0.7217862606048584 0.2080964595079422 0.3682873547077179
-0.7374470829963684 0.1428840458393097 0.3682766556739807
-0.7471973896026611 0.07654082030057907 0.3682481348514557
-0.7509500980377197 0.009591346606612206 0.36820188164711
-0.7486850023269653 -0.05740809440612793 0.3681381046772003
-0.7404125332832336 -0.12392944097518921 0.36805784702301025
-0.7262203693389893 -0.1894223392009735 0.3679611086845398
-0.7062166333198547 -0.2533551752567291 0.36784911155700684
-0.6805687546730042 -0.3152236342430115 0.36772245168685913
-0.649503231048584 -0.37453094124794006 0.3675827085971832
-0.6132562160491943 -0.4307800531387329 0.3674304187297821
-0.5721351504325867 -0.48354944586753845 0.3672671318054199
-0.5264758467674255 -0.5323972105979919 0.3670942485332489
-0.47666555643081665 -0.5769477486610413 0.36691299080848694
-0.4230920970439911 -0.6168451309204102 0.3667248487472534
-0.3661935329437256 -0.651770830154419 0.3665313720703125
-0.30643969774246216 -0.6814733743667603 0.3663342297077179
-0.24431012570858002 -0.7057008743286133 0.3661349415779114
-0.18029692769050598 -0.7242796421051025 0.3659350574016571
-0.11491316556930542 -0.7370736598968506 0.36573606729507446
-0.04869278892874718 -0.743985652923584 0.3655398488044739
0.017847681418061256 -0.7449777126312256 0.3653474450111389
0.0841711014509201 -0.7400401830673218 0.3651609718799591
0.14976754784584045 -0.7292230725288391 0.3649815320968628
0.2141057848930359 -0.7126247882843018 0.36481061577796936
0.27669230103492737 -0.6903837323188782 0.3646496534347534
0.3370223045349121 -0.6626773476600647 0.3644998073577881
0.394637793302536 -0.6297432780265808 0.3643621802330017
0.44907018542289734 -0.5918382406234741 0.3642379641532898
0.49991798400878906 -0.5492605566978455 0.3641279637813568
0.5467684268951416 -0.5023471117019653 0.36403319239616394
0.5892654657363892 -0.45148590207099915 0.36395445466041565
0.6270825862884521 -0.39706575870513916 0.3638920485973358
0.659911572933197 -0.3395056128501892 0.36384671926498413
0.6875106692314148 -0.2792755961418152 0.3638186454772949
0.7096577882766724 -0.2168465554714203 0.363808274269104
0.7261797189712524 -0.1526910960674286 0.3638153076171875
0.7369601130485535 -0.08732296526432037 0.36384016275405884
0.7418931126594543 -0.021246494725346565 0.36388227343559265
0.7409499287605286 0.04501166567206383 0.36394134163856506
0.7341416478157043 0.11094298958778381 0.3640173375606537
0.7214980721473694 0.17601871490478516 0.36410918831825256
0.7031283378601074 0.23973655700683594 0.36421629786491394
0.6791704893112183 0.301593154668808 0.3643379211425781
0.6498125195503235 0.36110296845436096 0.3644731044769287
0.6152620315551758 0.4177895188331604 0.3646206557750702
0.5757960081100464 0.4712030589580536 0.3647798001766205
0.5317314863204956 0.5209218859672546 0.3649490177631378
0.483386367559433 0.5665435791015625 0.36512693762779236
0.4311484396457672 0.6077123284339905 0.3653121888637543
0.3754255175590515 0.6440809965133667 0.3655035197734833
0.3166562616825104 0.6753507852554321 0.3656991422176361
0.25529173016548157 0.7012903690338135 0.3658978044986725
0.19184109568595886 0.7216565608978271 0.3660975694656372
0.12677732110023499 0.7362860441207886 0.36629730463027954
0.060633618384599686 0.7450618743896484 0.36649489402770996
-0.0060556624084711075 0.7478963136672974 0.36668914556503296
-0.07277363538742065 0.7447611689567566 0.36687836050987244
-0.13898248970508575 0.7356663942337036 0.36706098914146423
-0.20413222908973694 0.7206900715827942 0.36723557114601135
-0.2677212059497833 0.6999214887619019 0.36740079522132874
-0.32921546697616577 0.6735370755195618 0.3675552308559418
-0.3881189227104187 0.6417436599731445 0.36769744753837585
-0.4439638555049896 0.604778528213501 0.36782652139663696
-0.4962897002696991 0.5629477500915527 0.367941290140152
-0.5446743369102478 0.5165780782699585 0.36804091930389404
-0.5887035727500916 0.46604543924331665 0.3681245446205139
-0.6280403733253479 0.41175803542137146 0.3681912124156952
-0.6623464822769165 0.35415321588516235 0.3682408034801483
-0.6913610696792603 0.29369062185287476 0.36827269196510315
-0.714821994304657 0.23086902499198914 0.36828672885894775
-0.7325544357299805 0.16620004177093506 0.3682824671268463
-0.7444131374359131 0.10019637644290924 0.36826032400131226
-0.7503005862236023 0.03339196741580963 0.36822035908699036
-0.7501769661903381 -0.03364783897995949 0.3681628406047821
-0.7440335154533386 -0.10040543973445892 0.3680880665779114
-0.731928288936615 -0.1663217544555664 0.36799728870391846
-0.7139793038368225 -0.23087462782859802 0.3678906261920929
-0.6903141736984253 -0.2935318052768707 0.3677690029144287
-0.6611396670341492 -0.3537972867488861 0.3676336705684662
-0.6266928911209106 -0.4111934304237366 0.3674856424331665
-0.587269127368927 -0.4652406573295593 0.3673263490200043
-0.5431858897209167 -0.5155268907546997 0.36715665459632874
-0.49480006098747253 -0.5616483688354492 0.36697813868522644
-0.4425085783004761 -0.6032294034957886 0.3667922914028168
-0.3867400288581848 -0.6399614810943604 0.3666006326675415
-0.32795271277427673 -0.6715445518493652 0.3664047122001648
-0.2666070759296417 -0.6977375149726868 0.3662060499191284
-0.20320424437522888 -0.7183462977409363 0.3660058379173279
-0.13824646174907684 -0.7332064509391785 0.3658064305782318
-0.0722673237323761 -0.7422108054161072 0.36560896039009094
-0.005782687570899725 -0.7453017830848694 0.36541518568992615
0.06068044528365135 -0.7424604892730713 0.3652264177799225
0.12660272419452667 -0.7337267994880676 0.36504438519477844
0.19144423305988312 -0.7191693186759949 0.3648702800273895
0.25470200181007385 -0.6989165544509888 0.36470550298690796
0.3158915042877197 -0.6731270551681519 0.36455169320106506
0.37452608346939087 -0.6420177221298218 0.364409476518631
0.43013736605644226 -0.60584557056427 0.3642803728580475
0.48230478167533875 -0.5648885369300842 0.364165335893631
0.530616044998169 -0.5194738507270813 0.3640650808811188
0.5747060775756836 -0.4699694812297821 0.36398056149482727
0.6142092943191528 -0.41676294803619385 0.36391234397888184
0.6488466262817383 -0.36027422547340393 0.36386075615882874
0.6783287525177002 -0.30094245076179504 0.36382660269737244
0.7024338841438293 -0.23922868072986603 0.3638097941875458
0.7209682464599609 -0.17563410103321075 0.3638107180595398
0.7337974309921265 -0.11063268780708313 0.3638293445110321
0.7408146262168884 -0.044748324900865555 0.36386534571647644
0.7419624924659729 0.021503161638975143 0.3639184534549713
0.7372319102287292 0.08760415762662888 0.3639884889125824
0.7266438007354736 0.15304581820964813 0.36407470703125
0.7102966904640198 0.21730664372444153 0.364176481962204
0.6883094906806946 0.2798840403556824 0.36429303884506226
0.660839855670929 0.340273916721344 0.3644235134124756
0.6281057596206665 0.3980189859867096 0.36456695199012756
0.5903540849685669 0.4526413679122925 0.36472198367118835
0.5478824377059937 0.5037198662757874 0.36488768458366394
0.5010080933570862 0.5508425235748291 0.3650628626346588
0.45010825991630554 0.5936244130134583 0.36524567008018494
0.39558112621307373 0.6317287087440491 0.365434855222702
0.33783596754074097 0.6648476123809814 0.36562925577163696
0.2773418128490448 0.6927103400230408 0.3658270239830017
0.2145785540342331 0.7150746583938599 0.3660266101360321
0.15002821385860443 0.7317573428153992 0.3662264943122864
0.08421360701322556 0.7426222562789917 0.3664250075817108
0.017649170011281967 0.7475727796554565 0.36662063002586365
-0.04911963269114494 0.7465599775314331 0.3668118119239807
-0.11556544899940491 0.739574670791626 0.3669970631599426
-0.18115846812725067 0.7266761064529419 0.3671746850013733
-0.245358407497406 0.707942545413971 0.36734312772750854
-0.307651162147522 0.6835411190986633 0.36750152707099915
-0.3675326406955719 0.653629720211029 0.36764830350875854
-0.42452430725097656 0.618474543094635 0.36778226494789124
-0.47814783453941345 0.5783320069313049 0.3679022192955017
-0.5279709696769714 0.5335383415222168 0.3680073320865631
-0.5735903978347778 0.4844406843185425 0.36809661984443665
-0.6146302819252014 0.4314359426498413 0.36816954612731934
-0.650762140750885 0.374961793422699 0.3682253956794739
-0.6816869974136353 0.3154570758342743 0.3682633936405182
-0.7071428298950195 0.2534107267856598 0.36828383803367615
-0.726925790309906 0.1893332600593567 0.3682861328125
-0.7408899664878845 0.12374721467494965 0.36827024817466736
-0.7488996982574463 0.05716559663414955 0.3682365417480469
-0.7509057521820068 -0.009856361895799637 0.3681851029396057
-0.7468981742858887 -0.07677178829908371 0.3681167662143707
-0.7369069457054138 -0.14305192232131958 0.3680312931537628
-0.7210100889205933 -0.20814675092697144 0.367930144071579
-0.6993547677993774 -0.2715330719947815 0.36781370639801025
-0.6721086502075195 -0.332706481218338 0.3676832616329193
-0.6395079493522644 -0.39116987586021423 0.3675396740436554
-0.6018195152282715 -0.4464642107486725 0.3673841655254364
-0.5593492984771729 -0.4981289803981781 0.367218017578125
-0.512444794178009 -0.5457705855369568 0.36704254150390625
-0.46149271726608276 -0.5890039205551147 0.36685910820961
-0.4069109559059143 -0.627491295337677 0.36666929721832275
-0.3491383194923401 -0.6609336733818054 0.36647459864616394
-0.2886442244052887 -0.6890699863433838 0.36627668142318726
-0.2259189933538437 -0.7116772532463074 0.3660769462585449
-0.1614551693201065 -0.7285913825035095 0.3658772110939026
-0.09577584266662598 -0.7396858930587769 0.36567869782447815
-0.02940593659877777 -0.7448835372924805 0.3654835522174835
0.03712788596749306 -0.7441554069519043 0.36529281735420227
0.10329793393611908 -0.7375022768974304 0.3651081621646881
0.16857405006885529 -0.7249928712844849 0.36493101716041565
0.23246333003044128 -0.7067465782165527 0.3647628724575043
0.2944429814815521 -0.6829007863998413 0.3646050989627838
0.3540266752243042 -0.6536626219749451 0.3644586205482483
0.4107668697834015 -0.6192508935928345 0.3643246293067932
0.46420374512672424 -0.5799517631530762 0.36420440673828125
0.5139350295066833 -0.5360832214355469 0.36409881711006165
0.5595573782920837 -0.48799216747283936 0.3640087842941284
0.600724995136261 -0.43605712056159973 0.36393463611602783
0.6371204853057861 -0.38067713379859924 0.36387723684310913
0.6684641242027283 -0.32230144739151 0.3638366758823395
0.6945049166679382 -0.26138031482696533 0.3638137876987457
0.7150304317474365 -0.19839465618133545 0.36380842328071594
0.7299054265022278 -0.13383804261684418 0.36382079124450684
0.7389952540397644 -0.06820399314165115 0.36385053396224976
0.7422314286231995 -0.002027509268373251 0.3638977110385895
0.7395765781402588 0.06418462842702866 0.363961786031723
0.7310706973075867 0.12992283701896667 0.36404234170913696
0.7167537808418274 0.19465799629688263 0.3641386330127716
0.6967540383338928 0.2578871250152588 0.36425018310546875
0.6712102293968201 0.3191166818141937 0.36437591910362244
0.6403195858001709 0.3778509199619293 0.36451461911201477
0.6043196320533752 0.4336318373680115 0.36466583609580994
0.5634779930114746 0.48601993918418884 0.36482787132263184
0.5181312561035156 0.5345925688743591 0.3649996817111969
0.4686172306537628 0.5789566040039062 0.3651798963546753
0.41533374786376953 0.6187654733657837 0.3653671145439148
0.3586792051792145 0.653682291507721 0.3655596971511841
0.29910311102867126 0.6834371089935303 0.3657565116882324
0.23709449172019958 0.7077678442001343 0.365955650806427
0.1731158345937729 0.7264918088912964 0.3661555349826813
0.10768888890743256 0.7394437789916992 0.3663548231124878
0.041336774826049805 0.746497392654419 0.3665515184402466
-0.025424296036362648 0.7476047873497009 0.3667445182800293
-0.09204815328121185 0.7427366971969604 0.36693206429481506
-0.1579962819814682 0.7319225072860718 0.3671124279499054
-0.22275735437870026 0.7152513861656189 0.36728453636169434
-0.2857896685600281 0.6928406953811646 0.36744657158851624
-0.3465787470340729 0.6648674607276917 0.36759763956069946
-0.4046481251716614 0.6315392255783081 0.36773619055747986
-0.45951876044273376 0.5931320190429688 0.3678613305091858
-0.5107497572898865 0.5499524474143982 0.367971807718277
-0.557898998260498 0.5023364424705505 0.3680666983127594
-0.600610613822937 0.45067182183265686 0.36814558506011963
-0.6385177969932556 0.39537543058395386 0.3682073950767517
-0.6713210940361023 0.33689579367637634 0.3682519495487213
-0.6987398266792297 0.275701642036438 0.3682786524295807
-0.7205609679222107 0.21228370070457458 0.3682873547077179
-0.7366090416908264 0.14717313647270203 0.3682778775691986
-0.7467385530471802 0.08088261634111404 0.36825042963027954
-0.7508910298347473 0.013957275077700615 0.36820539832115173
-0.749007523059845 -0.053057774901390076 0.3681429922580719
-0.7411373257637024 -0.11962331831455231 0.368063360452652
-0.727319598197937 -0.18520048260688782 0.367967814207077
-0.7076916098594666 -0.24925664067268372 0.3678567409515381
-0.6824104189872742 -0.31126827001571655 0.3677313029766083
-0.6516836881637573 -0.37075886130332947 0.3675921559333801
-0.6157668828964233 -0.42722082138061523 0.3674406409263611
-0.5749476552009583 -0.48023349046707153 0.367278128862381
-0.5295811891555786 -0.5293443202972412 0.3671056926250458
-0.4800257384777069 -0.5741886496543884 0.36692488193511963
-0.4266785681247711 -0.6144004464149475 0.36673736572265625
-0.36998748779296875 -0.6496607065200806 0.3665441870689392
-0.3104020357131958 -0.679699182510376 0.3663473427295685
-0.24841263890266418 -0.7042930722236633 0.36614790558815
-0.1845107227563858 -0.7232487797737122 0.36594802141189575
-0.11919917166233063 -0.7364214062690735 0.36574888229370117
-0.053012311458587646 -0.7437231540679932 0.3655523657798767
0.01352459192276001 -0.7450863718986511 0.3653597831726074
0.07987303286790848 -0.7405405044555664 0.3651728630065918
0.1455342322587967 -0.7300971150398254 0.36499297618865967
0.20997628569602966 -0.7138738632202148 0.3648214638233185
0.2726864516735077 -0.6919988393783569 0.36465972661972046
0.33317986130714417 -0.6646404266357422 0.364509254693985
0.39097893238067627 -0.6320353150367737 0.364370733499527
0.4456346929073334 -0.5944412350654602 0.36424559354782104
0.49672576785087585 -0.5521654486656189 0.364134818315506
0.5438497066497803 -0.5055257081985474 0.36403900384902954
0.5866409540176392 -0.4549095928668976 0.36395904421806335
0.6247727274894714 -0.40070590376853943 0.36389556527137756
0.6579366326332092 -0.34334346652030945 0.363849014043808
0.6858817934989929 -0.2832724452018738 0.3638198673725128
0.708386242389679 -0.2209637463092804 0.363808274269104
0.7252854704856873 -0.1569097638130188 0.3638143837451935
0.7364354729652405 -0.09159401059150696 0.3638380467891693
0.7417483329772949 -0.025550713762640953 0.36387908458709717
0.7411962151527405 0.04071294516324997 0.36393705010414124
0.7347605228424072 0.1066797524690628 0.36401182413101196
0.7225003838539124 0.17181988060474396 0.3641027808189392
0.704495906829834 0.23564185202121735 0.3642086684703827
0.6809049248695374 0.29764166474342346 0.3643295168876648
0.6518849730491638 0.3573152422904968 0.36446380615234375
0.6176639199256897 0.41419517993927 0.3646107316017151
0.5785091519355774 0.46784183382987976 0.3647691309452057
0.5347270369529724 0.5178045630455017 0.3649377226829529
0.48665592074394226 0.5637096166610718 0.36511504650115967
0.4346533417701721 0.6051727533340454 0.3652999699115753
0.3791472017765045 0.6418659687042236 0.3654908537864685
0.32055652141571045 0.6734811067581177 0.3656863272190094
0.25936076045036316 0.6997664570808411 0.3658846914768219
0.19602103531360626 0.7204999923706055 0.36608457565307617
0.13104934990406036 0.7355170249938965 0.36628416180610657
0.06496811658143997 0.7446717023849487 0.36648207902908325
-0.0017071509500965476 0.7478964924812317 0.3666766285896301
-0.06844039261341095 0.7451527714729309 0.3668661415576935
-0.13469412922859192 0.7364407777786255 0.3670492470264435
-0.19993789494037628 0.7218391299247742 0.36722442507743835
-0.263640433549881 0.701445996761322 0.3673902750015259
-0.32528796792030334 0.6754187345504761 0.3675454556941986
-0.38437438011169434 0.6439740061759949 0.3676885962486267
-0.4404321610927582 0.6073390245437622 0.36781859397888184
-0.4930012822151184 0.5658101439476013 0.3679342567920685
-0.541649341583252 0.5197234749794006 0.3680349588394165
-0.5859817862510681 0.4694558084011078 0.3681195080280304
-0.6256325840950012 0.41540446877479553 0.3681875467300415
-0.660273551940918 0.35799726843833923 0.3682382106781006
-0.6896339058876038 0.29770347476005554 0.3682711720466614
-0.7134708166122437 0.2350224256515503 0.36828628182411194
-0.7315811514854431 0.17044518887996674 0.36828339099884033
-0.7438281178474426 0.10451409965753555 0.36826232075691223
-0.7501049041748047 0.03775298595428467 0.3682235777378082
-0.7503626346588135 -0.029292671009898186 0.36816710233688354
-0.7446109652519226 -0.09607529640197754 0.3680935502052307
-0.7328992486000061 -0.16206543147563934 0.3680035173892975
-0.7153156399726868 -0.22672244906425476 0.3678979277610779
-0.692017138004303 -0.28952282667160034 0.36777740716934204
-0.6632006764411926 -0.3499610722064972 0.36764296889305115
-0.6290929913520813 -0.40755027532577515 0.36749571561813354
-0.5899805426597595 -0.46183061599731445 0.36733701825141907
-0.5461901426315308 -0.5123798847198486 0.36716794967651367
-0.4980682134628296 -0.5587753653526306 0.36699002981185913
-0.44602248072624207 -0.6006700992584229 0.36680465936660767
-0.39047083258628845 -0.6377264857292175 0.36661314964294434
-0.33186206221580505 -0.6696549654006958 0.3664175271987915
-0.2706660032272339 -0.6962040662765503 0.3662188649177551
-0.20738384127616882 -0.7171800136566162 0.36601898074150085
-0.1425177901983261 -0.7324179410934448 0.36581939458847046
-0.07658159732818604 -0.7418017983436584 0.36562177538871765
-0.010110979899764061 -0.7452831864356995 0.36542755365371704
0.05637717619538307 -0.7428336143493652 0.36523863673210144
0.12233493477106094 -0.7344725728034973 0.36505597829818726
0.18727047741413116 -0.7202897667884827 0.3648812770843506
0.25065189599990845 -0.7004030346870422 0.3647158741950989
0.31198495626449585 -0.6749704480171204 0.3645612895488739
0.37079307436943054 -0.6441996693611145 0.3644183278083801
0.4266175627708435 -0.6083478331565857 0.36428847908973694
0.47902822494506836 -0.5676926970481873 0.3641723692417145
0.5276029706001282 -0.5225610733032227 0.3640710413455963
0.5719672441482544 -0.47331082820892334 0.3639855980873108
0.6117847561836243 -0.42033058404922485 0.3639163076877594
0.6467472910881042 -0.36403921246528625 0.36386367678642273
0.676565408706665 -0.30487585067749023 0.36382827162742615
0.7010267376899719 -0.24331167340278625 0.3638104200363159
0.7199385762214661 -0.17981858551502228 0.36381012201309204
0.7331361174583435 -0.11489881575107574 0.363827645778656
0.7405328750610352 -0.04905739799141884 0.36386245489120483
0.7420616745948792 0.01719018444418907 0.36391448974609375
0.7377133965492249 0.0833263173699379 0.3639834523200989
0.7275083661079407 0.1488226056098938 0.3640685975551605
0.7115361094474792 0.21317748725414276 0.3641694486141205
0.6899046897888184 0.27586910128593445 0.3642849624156952
0.6627926230430603 0.3364220857620239 0.36441466212272644
0.6303877234458923 0.3943507671356201 0.36455732583999634
0.5929567813873291 0.44919613003730774 0.36471161246299744
0.5507768392562866 0.5005084872245789 0.3648766875267029
0.5041859745979309 0.5479043126106262 0.36505112051963806
0.45354095101356506 0.5909799337387085 0.3652336001396179
0.39923033118247986 0.6293990015983582 0.3654225170612335
0.3416828513145447 0.6628528237342834 0.36561644077301025
0.28135746717453003 0.69106125831604 0.36581405997276306
0.21871453523635864 0.7137828469276428 0.36601364612579346
0.15426605939865112 0.7308527231216431 0.3662133812904358
0.08852367848157883 0.7420961856842041 0.36641204357147217
0.021992772817611694 0.7474362850189209 0.3666079640388489
-0.0447818823158741 0.7468048930168152 0.3667994737625122
-0.11126247048377991 0.7402117252349854 0.36698517203330994
-0.1769300103187561 0.7276871204376221 0.36716338992118835
-0.24123339354991913 0.709338366985321 0.3673326075077057
-0.30366966128349304 0.6852938532829285 0.36749160289764404
-0.3637239634990692 0.65574049949646 0.3676391541957855
-0.42090904712677 0.6209147572517395 0.36777403950691223
-0.4747653007507324 0.5810932517051697 0.36789488792419434
-0.5248515009880066 0.5365924835205078 0.3680011034011841
-0.5707643628120422 0.48775944113731384 0.3680914342403412
-0.6121081113815308 0.43500009179115295 0.3681652843952179
-0.6485651731491089 0.3787233233451843 0.368222177028656
-0.6798351407051086 0.3194068372249603 0.3682613968849182
-0.7056565880775452 0.2575201690196991 0.36828291416168213
-0.725816547870636 0.19355399906635284 0.3682864308357239
-0.7401589155197144 0.12804992496967316 0.36827176809310913
-0.7485575675964355 0.061521366238594055 0.36823928356170654
-0.7509638071060181 -0.005486230831593275 0.3681890666484833
-0.7473480701446533 -0.0724266767501831 0.3681216239929199
-0.7377399206161499 -0.1387614607810974 0.3680374026298523
-0.7222274541854858 -0.2039499580860138 0.367937296628952
-0.7009384632110596 -0.26746970415115356 0.3678218126296997
-0.6740500330924988 -0.3288061320781708 0.3676922619342804
-0.6417884826660156 -0.3874626159667969 0.36754941940307617
-0.6044204235076904 -0.4429701864719391 0.36739471554756165
-0.5622524619102478 -0.49488797783851624 0.36722898483276367
-0.5156216025352478 -0.542803168296814 0.36705413460731506
-0.46492472290992737 -0.5863399505615234 0.36687132716178894
-0.4105692505836487 -0.6251416802406311 0.3666818141937256
-0.35298454761505127 -0.6589193344116211 0.36648741364479065
-0.29264944791793823 -0.6874017119407654 0.3662896752357483
-0.23005464673042297 -0.7103756666183472 0.3660900890827179
-0.1656922996044159 -0.7276672124862671 0.36589017510414124
-0.10007545351982117 -0.7391406893730164 0.3656916618347168
-0.033739082515239716 -0.7447279095649719 0.3654962182044983
0.032800592482089996 -0.7443811893463135 0.3653051555156708
0.09901552647352219 -0.7381107211112976 0.36511993408203125
0.16436579823493958 -0.7259851694107056 0.3649423122406006
0.22835923731327057 -0.7081040740013123 0.36477354168891907
0.2904722988605499 -0.6846245527267456 0.364614874124527
0.350239634513855 -0.6557156443595886 0.3644677698612213
0.407172828912735 -0.6216429471969604 0.36433303356170654
0.4608428478240967 -0.5826551914215088 0.36421188712120056
0.5108180642127991 -0.5390689969062805 0.364105224609375
0.5567240715026855 -0.4912421703338623 0.3640139698982239
0.5981959104537964 -0.43954282999038696 0.3639388978481293
0.6349061727523804 -0.38437938690185547 0.36388030648231506
0.666585385799408 -0.3261818289756775 0.363838791847229
0.6929726004600525 -0.265409916639328 0.36381468176841736
0.713874876499176 -0.20254531502723694 0.363808274269104
0.7291086316108704 -0.1380699872970581 0.363819420337677
0.7385771870613098 -0.07249840348958969 0.36384811997413635
0.7421936392784119 -0.006345340982079506 0.3638940453529358
0.7399305701255798 0.05989181250333786 0.3639571964740753
0.7317976951599121 0.1256752610206604 0.36403656005859375
0.7178648114204407 0.1904943436384201 0.3641319274902344
0.69822096824646 0.2538377642631531 0.36424240469932556
0.6730338335037231 0.315201073884964 0.36436721682548523
0.6424816250801086 0.37410879135131836 0.3645052909851074
0.6068019866943359 0.43010303378105164 0.36465561389923096
0.5662814378738403 0.48272383213043213 0.3648170530796051
0.5212174654006958 0.5315501689910889 0.3649882376194
0.4719582498073578 0.5762079358100891 0.36516815423965454
0.41890066862106323 0.6163214445114136 0.3653547465801239
0.3624532222747803 0.6515631079673767 0.36554718017578125
0.3030654489994049 0.681662917137146 0.3657436966896057
0.24118725955486298 0.706360399723053 0.36594268679618835
0.17732927203178406 0.7254513502120972 0.3661425709724426
0.11197452992200851 0.738781750202179 0.36634185910224915
0.04566571116447449 0.7462246417999268 0.36653900146484375
-0.021081693470478058 0.7477127909660339 0.3667321801185608
-0.08773056417703629 0.7432363629341125 0.36691999435424805
-0.15374311804771423 0.732805609703064 0.3671009838581085
-0.21858809888362885 0.7165186405181885 0.3672735393047333
-0.2817440629005432 0.694473922252655 0.3674365282058716
-0.3427063226699829 0.66684889793396 0.36758819222450256
-0.4009683430194855 0.6338695883750916 0.367727667093277
-0.4560522735118866 0.5957826972007751 0.36785370111465454
-0.5075264573097229 0.5529050827026367 0.36796507239341736
-0.5549687743186951 0.5055634379386902 0.36806121468544006
-0.5979741811752319 0.4541536569595337 0.3681410253047943
-0.6362059116363525 0.39907416701316833 0.3682040274143219
-0.6693444848060608 0.34078243374824524 0.3682495057582855
-0.697128415107727 0.2797577679157257 0.3682774305343628
-0.7193162441253662 0.21647024154663086 0.3682873547077179
-0.7357420921325684 0.15145142376422882 0.3682790994644165
-0.7462602257728577 0.0852237120270729 0.36825287342071533
-0.7508026957511902 0.01832215115427971 0.3682089149951935
-0.7493204474449158 -0.048707809299230576 0.3681475818157196
-0.7418328523635864 -0.11531823873519897 0.3680691421031952
-0.7283993363380432 -0.18097932636737823 0.36797454953193665
-0.7091467380523682 -0.24514906108379364 0.36786437034606934
-0.6842227578163147 -0.3073139786720276 0.36773985624313354
-0.6538443565368652 -0.366977721452713 0.367601603269577
-0.6182478070259094 -0.4236529469490051 0.36745086312294006
-0.5777496695518494 -0.4768983721733093 0.3672889769077301
-0.5326663255691528 -0.5262726545333862 0.367117315530777
-0.48336535692214966 -0.5714010000228882 0.36693695187568665
-0.430254191160202 -0.611926794052124 0.36674970388412476
-0.3737705647945404 -0.6475215554237366 0.366556853055954
-0.3143640160560608 -0.6779151558876038 0.3663601577281952
-0.2525046765804291 -0.7028660178184509 0.36616086959838867
-0.1887136846780777 -0.7221890687942505 0.3659609854221344
-0.12348411232233047 -0.7357398271560669 0.3657618761062622
-0.05734020099043846 -0.7434211373329163 0.3655650317668915
0.009192092344164848 -0.7451848387718201 0.36537230014801025
0.07557601481676102 -0.7410116195678711 0.3651849329471588
0.1412915140390396 -0.7309611439704895 0.3650045692920685
0.20582793653011322 -0.7151027321815491 0.3648323118686676
0.268661767244339 -0.6935937404632568 0.3646700978279114
0.3293185830116272 -0.6665831804275513 0.3645187318325043
0.387310653924942 -0.6343172788619995 0.36437925696372986
0.4421898424625397 -0.5970341563224792 0.3642532229423523
0.493524432182312 -0.5550504326820374 0.3641413748264313
0.5409122109413147 -0.508683979511261 0.36404478549957275
0.5839975476264954 -0.45831298828125 0.36396360397338867
0.6224339604377747 -0.40433529019355774 0.36389923095703125
0.6559330821037292 -0.3471607565879822 0.3638516068458557
0.6842243075370789 -0.28724873065948486 0.363821417093277
0.7070953845977783 -0.22507043182849884 0.3638085722923279
0.7243527173995972 -0.161117285490036 0.36381345987319946
0.7358811497688293 -0.09587373584508896 0.3638359010219574
0.7415837049484253 -0.029863988980650902 0.36387571692466736
0.741412878036499 0.0364055298268795 0.3639327883720398
0.7353591918945312 0.10239769518375397 0.3640063405036926
0.7234734296798706 0.16762210428714752 0.3640962243080139
0.7058439254760742 0.23154787719249725 0.36420148611068726
0.6825994253158569 0.29367202520370483 0.3643212914466858
0.6539274454116821 0.35350900888442993 0.36445480585098267
0.6200459003448486 0.410591721534729 0.36460080742836
0.5812017917633057 0.46445199847221375 0.36475861072540283
0.5377124547958374 0.5146778225898743 0.36492645740509033
0.4899052381515503 0.560856819152832 0.3651033043861389
0.43814772367477417 0.6026140451431274 0.36528778076171875
0.3828584849834442 0.6396318078041077 0.36547836661338806
0.32445570826530457 0.6715821623802185 0.3656735122203827
0.2634095847606659 0.6982235312461853 0.36587172746658325
0.20020028948783875 0.7193239331245422 0.3660716116428375
0.13532032072544098 0.7347186803817749 0.36627134680747986
0.06928203254938126 0.7442529201507568 0.3664694130420685
0.002630550879985094 0.7478678226470947 0.3666641116142273
-0.06410853564739227 0.7455053329467773 0.3668539226055145
-0.13040684163570404 0.7371857762336731 0.36703765392303467
-0.19573450088500977 0.7229682803153992 0.3672134280204773
-0.25955095887184143 0.702940821647644 0.367379754781723
-0.32135143876075745 0.6772806644439697 0.36753571033477783
-0.3806211054325104 0.6461746692657471 0.36767974495887756
-0.4368918538093567 0.6098698377609253 0.36781051754951477
-0.4896940588951111 0.5686522722244263 0.367927223443985
-0.5386149287223816 0.522858738899231 0.368028849363327
-0.5832313895225525 0.4728456437587738 0.3681146204471588
-0.623196542263031 0.41902053356170654 0.36818358302116394
-0.6581818461418152 0.3618212044239044 0.3682354688644409
-0.6878973245620728 0.3017062544822693 0.3682696521282196
-0.7120909094810486 0.2391650378704071 0.36828580498695374
-0.7305783033370972 0.17469905316829681 0.3682841360569
-0.7432134747505188 0.10884053260087967 0.3682641386985779
-0.7498799562454224 0.04211295396089554 0.36822646856307983
-0.7505283951759338 -0.024928441271185875 0.368171364068985
-0.7451692223548889 -0.09175559878349304 0.36809873580932617
-0.7338409423828125 -0.15781013667583466 0.3680099546909332
-0.7166416645050049 -0.222560852766037 0.36790525913238525
-0.6937099099159241 -0.28550440073013306 0.36778563261032104
-0.6652413010597229 -0.34610605239868164 0.36765196919441223
-0.6314634680747986 -0.4038983881473541 0.36750563979148865
-0.5926720499992371 -0.4584115147590637 0.36734771728515625
-0.5491741299629211 -0.5092141628265381 0.3671792447566986
-0.5013262629508972 -0.5558929443359375 0.36700180172920227
-0.44952598214149475 -0.5980915427207947 0.36681684851646423
-0.3941810429096222 -0.6354629993438721 0.36662596464157104
-0.33576056361198425 -0.6677364706993103 0.3664303421974182
-0.2747141122817993 -0.6946417689323425 0.3662318289279938
-0.21155259013175964 -0.7159846425056458 0.3660319447517395
-0.14676854014396667 -0.7316007614135742 0.3658323585987091
-0.08089517056941986 -0.7413733601570129 0.36563459038734436
-0.014438220299780369 -0.7452352643013 0.3654402196407318
0.05205578729510307 -0.7431670427322388 0.36525052785873413
0.11806784570217133 -0.7351987957954407 0.36506760120391846
0.18308766186237335 -0.7213903665542603 0.3648925721645355
0.2465829998254776 -0.7018692493438721 0.36472654342651367
0.3080599009990692 -0.6767838001251221 0.3645709156990051
0.36705097556114197 -0.6463617086410522 0.3644271790981293
0.4230886995792389 -0.6108302474021912 0.364296555519104
0.4757230579853058 -0.570476233959198 0.3641793727874756
0.5245612263679504 -0.5256277322769165 0.3640771508216858
0.5692192912101746 -0.476632297039032 0.3639906346797943
0.6197394728660583 -0.38739171624183655 0.36392149329185486
0.6517418622970581 -0.33053478598594666 0.3638778626918793
0.678580641746521 -0.2710689902305603 0.36385130882263184
0.7000337243080139 -0.2094651758670807 0.3638421595096588
0.7159374952316284 -0.14619632065296173 0.3638503849506378
0.7261760830879211 -0.08176637440919876 0.36387571692466736
0.7306536436080933 -0.016670288518071175 0.3639184534549713
0.7293511629104614 0.04856495186686516 0.3639778196811676
0.7222607135772705 0.11344126611948013 0.3640536367893219
0.7094423770904541 0.17745812237262726 0.36414504051208496
0.6909946203231812 0.24009406566619873 0.36425140500068665
0.6670467257499695 0.30086565017700195 0.36437225341796875
0.6377865672111511 0.359287291765213 0.3645060658454895
0.6034421324729919 0.41491103172302246 0.3646523952484131
0.5642805099487305 0.467277854681015 0.3648095726966858
0.5205898284912109 0.5159767270088196 0.36497679352760315
0.47272756695747375 0.5606234669685364 0.3651525676250458
0.4210520386695862 0.6008533835411072 0.3653353750705719
0.3659716248512268 0.6363391280174255 0.36552396416664124
0.3079254925251007 0.6667914390563965 0.3657168447971344
0.24736425280570984 0.6919692158699036 0.36591261625289917
0.18475908041000366 0.7116602063179016 0.36610931158065796
0.12062161415815353 0.7256895899772644 0.3663058280944824
0.0554460808634758 0.733941912651062 0.3665003776550293
-0.010242249816656113 0.7363497018814087 0.3666912615299225
-0.07591743767261505 0.7328643798828125 0.36687713861465454
-0.14104026556015015 0.7235351204872131 0.36705657839775085
-0.20511090755462646 0.7084028720855713 0.3672279417514801
-0.26758766174316406 0.6875845193862915 0.36738982796669006
-0.3279857039451599 0.6612486839294434 0.36754104495048523
-0.38579925894737244 0.6296018362045288 0.3676803410053253
-0.44056013226509094 0.5928909778594971 0.3678065538406372
-0.49183782935142517 0.5514035820960999 0.3679186999797821
-0.5392000675201416 0.5054759979248047 0.36801573634147644
-0.5822626948356628 0.4554656445980072 0.3680969178676605
-0.6206687688827515 0.4017897844314575 0.3681616187095642
-0.6541193127632141 0.3448773920536041 0.36820921301841736
-0.6823244094848633 0.2851870357990265 0.3682394325733185
-0.7050612568855286 0.22320914268493652 0.36825209856033325
-0.7221561074256897 0.15942604839801788 0.36824676394462585
-0.7334429621696472 0.09437903016805649 0.3682238757610321
-0.7388641834259033 0.028583934530615807 0.36818328499794006
-0.7383514046669006 -0.03741448000073433 0.3681255877017975
-0.7319250106811523 -0.10309755802154541 0.368051141500473
-0.7196342349052429 -0.16792607307434082 0.36796051263809204
-0.7015871405601501 -0.2313782423734665 0.36785444617271423
-0.6779311299324036 -0.29293087124824524 0.36773407459259033
-0.6488637924194336 -0.3520980477333069 0.3675999343395233
-0.6146317720413208 -0.4084017872810364 0.36745360493659973
-0.5755121111869812 -0.46139249205589294 0.3672958314418793
-0.5318219065666199 -0.5106483101844788 0.3671281337738037
-0.4839283525943756 -0.5557847619056702 0.3669518828392029
-0.4322187304496765 -0.5964263677597046 0.366768479347229
-0.37710249423980713 -0.6322749853134155 0.3665795922279358
-0.3190383017063141 -0.6630405783653259 0.3663860857486725
-0.2584962546825409 -0.6884815096855164 0.36619049310684204
-0.19595837593078613 -0.7084143757820129 0.3659936487674713
-0.1319175362586975 -0.7226846218109131 0.3657972514629364
-0.06690692156553268 -0.731175422668457 0.3656030297279358
-0.0014235853450372815 -0.7338493466377258 0.3654124438762665
0.06399605423212051 -0.7306773066520691 0.3652270436286926
0.12885181605815887 -0.7217099070549011 0.36504819989204407
0.1926138997077942 -0.7070062160491943 0.364877313375473
0.25478872656822205 -0.6867047548294067 0.3647158741950989
0.31489142775535583 -0.6609739661216736 0.36456480622291565
0.37244585156440735 -0.6300115585327148 0.3644256591796875
0.42700305581092834 -0.5940751433372498 0.3642994463443756
0.47813209891319275 -0.5534619092941284 0.36418700218200684
0.5254509449005127 -0.508470892906189 0.36408933997154236
0.5685747265815735 -0.4594789743423462 0.3640071153640747
0.6071770787239075 -0.40686556696891785 0.3639410436153412
0.6409599781036377 -0.35103994607925415 0.36389127373695374
0.6696532964706421 -0.2924518287181854 0.36385878920555115
0.6930357217788696 -0.23154272139072418 0.3638433814048767
0.7109330296516418 -0.1688145101070404 0.36384549736976624
0.723191499710083 -0.10474048554897308 0.3638647496700287
0.7297244071960449 -0.0398256853222847 0.3639013469219208
0.7304844260215759 0.0254234429448843 0.3639547526836395
0.7254431247711182 0.09049001336097717 0.36402496695518494
0.714650571346283 0.154864102602005 0.36411070823669434
0.6981865763664246 0.2180444449186325 0.3642120361328125
0.676169753074646 0.27952840924263 0.36432769894599915
0.648769199848175 0.3388507068157196 0.36445707082748413
0.6162015795707703 0.39551490545272827 0.36459898948669434
0.5787149667739868 0.4490821361541748 0.3647526502609253
0.5365971922874451 0.4991316795349121 0.3649163842201233
0.4901758134365082 0.5452608466148376 0.3650892674922943
0.43980872631073 0.5870952606201172 0.3652697801589966
0.38589420914649963 0.624298095703125 0.3654565215110779
0.3288515508174896 0.6565710306167603 0.3656480312347412
0.26912087202072144 0.6836538314819336 0.36584287881851196
0.2071821540594101 0.7053045630455017 0.3660394251346588
0.14353758096694946 0.721358597278595 0.36623626947402954
0.0786709263920784 0.7316812872886658 0.3664315640926361
0.013106041587889194 0.7361658811569214 0.36662399768829346
-0.05263078212738037 0.7347740530967712 0.3668118119239807
-0.1180114820599556 0.7275159955024719 0.3669936954975128
-0.18251670897006989 0.7144318222999573 0.3671680986881256
-0.24561524391174316 0.6956195831298828 0.3673335313796997
-0.3068135380744934 0.6712179183959961 0.36748871207237244
-0.3655959963798523 0.6414332389831543 0.36763229966163635
-0.42149561643600464 0.6064831614494324 0.36776337027549744
-0.4740622937679291 0.5666544437408447 0.36788055300712585
-0.5228546857833862 0.5222635269165039 0.3679830729961395
-0.5674890279769897 0.47365817427635193 0.36806991696357727
-0.6075891256332397 0.4212450683116913 0.3681405484676361
-0.6428278684616089 0.36542293429374695 0.36819425225257874
-0.6729243993759155 0.3066701889038086 0.3682307302951813
-0.6976279020309448 0.24543717503547668 0.3682495057582855
-0.7167438864707947 0.18224456906318665 0.3682507276535034
-0.7301080822944641 0.11758484691381454 0.36823394894599915
-0.7376129031181335 0.05200137943029404 0.36819976568222046
-0.7392109632492065 -0.013999411836266518 0.3681480288505554
-0.7348818182945251 -0.07985147088766098 0.36807936429977417
-0.7246562242507935 -0.14504557847976685 0.36799436807632446
-0.7086416482925415 -0.20904040336608887 0.36789366602897644
-0.686956524848938 -0.2713235318660736 0.36777830123901367
-0.659788191318512 -0.33139967918395996 0.3676489293575287
-0.6273633241653442 -0.3887721300125122 0.36750686168670654
-0.5899392366409302 -0.44299185276031494 0.3673529028892517
-0.5478323101997375 -0.4936175048351288 0.3671887218952179
-0.5013901591300964 -0.5402555465698242 0.36701536178588867
-0.4509899914264679 -0.5825309157371521 0.3668344020843506
-0.3970305919647217 -0.6201164722442627 0.3666471838951111
-0.3399604260921478 -0.6527128219604492 0.366455078125
-0.28023964166641235 -0.6800689697265625 0.3662600517272949
-0.21835915744304657 -0.7019813656806946 0.36606353521347046
-0.15479131042957306 -0.7182672023773193 0.36586669087409973
-0.09007005393505096 -0.728829026222229 0.36567169427871704
-0.02469029650092125 -0.7335708737373352 0.36547958850860596
0.040811195969581604 -0.7324734330177307 0.36529219150543213
0.10592588037252426 -0.7255478501319885 0.3651107847690582
0.17013303935527802 -0.7128730416297913 0.3649369776248932
0.23293067514896393 -0.694548487663269 0.3647720217704773
0.29381516575813293 -0.6707218885421753 0.36461713910102844
0.352329820394516 -0.6415920853614807 0.36447373032569885
0.4079974889755249 -0.60738605260849 0.3643426299095154
0.46039703488349915 -0.5684015154838562 0.364225298166275
0.5091177821159363 -0.5249167680740356 0.36412230134010315
0.5537651777267456 -0.47730863094329834 0.3640345633029938
0.5940138697624207 -0.42592695355415344 0.3639625608921051
0.6295357942581177 -0.3711996376514435 0.36390700936317444
0.6600622534751892 -0.31353724002838135 0.36386838555336
0.6853616237640381 -0.2534005343914032 0.3638470470905304
0.7052211761474609 -0.19127048552036285 0.36384275555610657
0.7194972634315491 -0.1276109218597412 0.3638560473918915
0.7280737161636353 -0.06293562799692154 0.36388641595840454
0.730873703956604 0.002250013407319784 0.3639340102672577
0.7278888821601868 0.06743817776441574 0.36399808526039124
0.7191302180290222 0.13212032616138458 0.36407867074012756
0.7046672701835632 0.19578582048416138 0.364174485206604
0.6846091151237488 0.2579323649406433 0.36428511142730713
0.6591042280197144 0.3180660605430603 0.3644096255302429
0.6283411979675293 0.37573057413101196 0.3645472526550293
0.5925766825675964 0.4304477274417877 0.3646969497203827
0.55205899477005 0.4817882776260376 0.36485716700553894
0.5071258544921875 0.5293591618537903 0.3650268614292145
0.45811453461647034 0.5727571845054626 0.36520475149154663
0.40541329979896545 0.6116364002227783 0.36538955569267273
0.3494316339492798 0.6456985473632812 0.36557966470718384
0.2905985116958618 0.6746448278427124 0.365773469209671
0.2293945848941803 0.6982529163360596 0.3659696877002716
0.16630077362060547 0.7163099646568298 0.36616653203964233
0.1018008291721344 0.7286813259124756 0.366362601518631
0.03642769902944565 0.7352405190467834 0.3665560781955719
-0.02931220270693302 0.7359399795532227 0.3667457401752472
-0.09488210827112198 0.730760395526886 0.36692991852760315
-0.15975326299667358 0.7197315692901611 0.36710724234580994
-0.22340455651283264 0.7029424905776978 0.36727583408355713
-0.2853333652019501 0.6805117130279541 0.3674348294734955
-0.3450353443622589 0.6526068449020386 0.3675827085971832
-0.40201330184936523 0.6194642782211304 0.36771833896636963
-0.4558086693286896 0.5813409090042114 0.36784055829048157
-0.5059908032417297 0.5385242700576782 0.3679482936859131
-0.5521462559700012 0.49137091636657715 0.3680407702922821
-0.5938901305198669 0.4402579069137573 0.3681173622608185
-0.6308947801589966 0.3856033980846405 0.3681771755218506
-0.6628419160842896 0.32783567905426025 0.36821991205215454
-0.6894896030426025 0.26743465662002563 0.3682449162006378
-0.7106057405471802 0.20487087965011597 0.36825239658355713
-0.726024866104126 0.1406758427619934 0.3682418763637543
-0.7356212735176086 0.07535315304994583 0.36821380257606506
-0.7393265962600708 0.009447576478123665 0.36816832423210144
-0.7370930314064026 -0.05652467533946037 0.36810562014579773
-0.7289590835571289 -0.12200523167848587 0.36802640557289124
-0.7149850130081177 -0.18649354577064514 0.36793121695518494
-0.6952975988388062 -0.2494378536939621 0.3678210377693176
-0.6700552105903625 -0.3103536367416382 0.36769652366638184
-0.6394644975662231 -0.36873510479927063 0.3675585985183716
-0.6037827730178833 -0.42412352561950684 0.36740875244140625
-0.563296914100647 -0.4760786294937134 0.36724820733070374
-0.5183534026145935 -0.5241774916648865 0.3670777678489685
-0.46931010484695435 -0.5680457949638367 0.36689940094947815
-0.4165647029876709 -0.6073271632194519 0.36671414971351624
-0.3605464994907379 -0.6417326927185059 0.36652374267578125
-0.3017238676548004 -0.6709717512130737 0.3663296401500702
-0.24054855108261108 -0.6948328018188477 0.3661334216594696
-0.17752240598201752 -0.7131415605545044 0.3659365773200989
-0.11314800381660461 -0.7257429957389832 0.36574065685272217
-0.0479498915374279 -0.7325499653816223 0.3655473291873932
0.017574898898601532 -0.7335250973701477 0.3653579652309418
0.08287914097309113 -0.728668212890625 0.36517423391342163
0.14747242629528046 -0.7180300951004028 0.3649977147579193
0.21082423627376556 -0.7016894221305847 0.3648293912410736
0.27245041728019714 -0.67979496717453 0.3646710216999054
0.3318559527397156 -0.6525245308876038 0.364523321390152
0.38859331607818604 -0.6200963258743286 0.3643878102302551
0.44219401478767395 -0.5827673077583313 0.36426544189453125
0.4922657907009125 -0.5408457517623901 0.364157110452652
0.5384060740470886 -0.49465930461883545 0.3640638589859009
0.5802498459815979 -0.44457587599754333 0.36398619413375854
0.6174801588058472 -0.39098483324050903 0.36392486095428467
0.6498178243637085 -0.33431583642959595 0.3638801574707031
0.6769929528236389 -0.2750086784362793 0.36385253071784973
0.6988032460212708 -0.21352519094944 0.36384230852127075
0.7150750756263733 -0.1503477394580841 0.36384931206703186
0.7256827354431152 -0.0859799012541771 0.36387360095977783
0.7305402159690857 -0.020917000249028206 0.3639150857925415
0.7296093702316284 0.04432443901896477 0.3639735281467438
0.7229015827178955 0.10924564301967621 0.36404815316200256
0.710456907749176 0.1733272522687912 0.3641386330127716
0.6923646926879883 0.23606769740581512 0.3642440736293793
0.6687734127044678 0.2969730794429779 0.3643638491630554
0.6398516893386841 0.3555682301521301 0.3644970655441284
0.6058269143104553 0.4113856852054596 0.364642471075058
0.5669664740562439 0.4639762341976166 0.36479902267456055
0.5235682725906372 0.5129284262657166 0.3649654984474182
0.47596022486686707 0.5578494071960449 0.365140825510025
0.42451998591423035 0.5983738303184509 0.36532333493232727
0.36965614557266235 0.6341743469238281 0.36551162600517273
0.31178849935531616 0.6649718880653381 0.36570432782173157
0.2513667345046997 0.6904965043067932 0.36589980125427246
0.18888184428215027 0.7105447053909302 0.3660966455936432
0.12482637166976929 0.7249522805213928 0.3662930130958557
0.05970354750752449 0.7335838675498962 0.3664877116680145
-0.005961353424936533 0.7363718152046204 0.366678923368454
