ply
format ascii 1.0
element vertex 2176
property float32 x
property float32 y
property float32 z
end_header
-3.7513 -6.3323 1.8511
-3.1734 -6.6470 1.8525
-2.5693 -6.9093 1.8540
-1.9437 -7.1168 1.8555
-1.3016 -7.2678 1.8570
-0.6481 -7.3613 1.8586
0.0117 -7.3961 1.8602
0.6725 -7.3719 1.8618
1.3289 -7.2876 1.8631
1.9743 -7.1399 1.8631
2.6038 -6.9351 1.8631
3.2126 -6.6750 1.8631
3.7957 -6.3615 1.8631
4.3485 -5.9972 1.8631
4.8665 -5.5850 1.8631
1.0559 -1.0129 0.3680
1.1432 -0.9155 0.3684
1.2214 -0.8105 0.3687
1.2900 -0.6988 0.3690
1.3483 -0.5813 0.3693
1.3958 -0.4589 0.3695
1.4320 -0.3327 0.3698
1.4568 -0.2036 0.3700
1.4698 -0.0728 0.3701
1.4710 0.0588 0.3703
1.4603 0.1899 0.3704
1.4378 0.3196 0.3704
1.4036 0.4467 0.3705
1.3581 0.5702 0.3705
1.3016 0.6891 0.3704
1.2346 0.8024 0.3703
1.1577 0.9092 0.3702
1.0715 1.0085 0.3701
0.9767 1.0996 0.3699
4.4054 5.9556 1.8631
3.8560 6.3251 1.8631
3.2760 6.6441 1.8631
2.6697 6.9100 1.8631
2.0421 7.1208 1.8631
1.3982 7.2747 1.8631
0.7432 7.3704 1.8631
0.0822 7.4074 1.8631
-0.5795 7.3851 1.8631
-1.2365 7.3039 1.8631
-1.8836 7.1643 1.8631
-2.5157 6.9676 1.8631
-3.1277 6.7151 1.8631
-3.7148 6.4091 1.8631
-4.2721 6.0518 1.8631
-4.7954 5.6462 1.8631
-1.0320 1.0154 0.3641
-1.1175 0.9184 0.3638
-1.1939 0.8142 0.3635
-1.2608 0.7038 0.3632
-1.3176 0.5880 0.3629
-1.3639 0.4677 0.3626
-1.3993 0.3438 0.3624
-1.4237 0.2174 0.3622
-1.4367 0.0894 0.3620
-1.4384 -0.0392 0.3619
-1.4288 -0.1675 0.3618
-1.4079 -0.2943 0.3617
-1.3758 -0.4188 0.3617
-1.3329 -0.5399 0.3617
-1.2795 -0.6568 0.3617
-1.2160 -0.7686 0.3618
-1.1429 -0.8743 0.3619
-1.0606 -0.9732 0.3620
-0.9699 -1.0645 0.3622
-4.4474 -5.8558 1.8494
-3.9096 -6.2340 1.8507
-3.3400 -6.5631 1.8521
-2.7428 -6.8404 1.8536
-2.1229 -7.0636 1.8551
-1.4850 -7.2308 1.8566
-0.8342 -7.3407 1.8581
-0.1757 -7.3922 1.8597
0.4854 -7.3848 1.8614
1.1438 -7.3182 1.8629
1.7928 -7.1876 1.8631
2.4273 -6.9989 1.8631
3.0425 -6.7542 1.8631
3.6333 -6.4556 1.8631
4.1952 -6.1054 1.8631
4.7235 -5.7065 1.8631
1.0296 -1.0391 0.3679
1.1193 -0.9439 0.3683
1.2002 -0.8410 0.3686
1.2716 -0.7311 0.3689
1.3328 -0.6151 0.3692
1.3834 -0.4940 0.3695
1.4229 -0.3688 0.3697
1.4510 -0.2404 0.3699
1.4673 -0.1100 0.3701
1.4719 0.0215 0.3702
1.4645 0.1529 0.3703
1.4453 0.2831 0.3704
1.4144 0.4110 0.3705
1.3721 0.5357 0.3705
1.3187 0.6560 0.3704
1.2547 0.7710 0.3704
1.1805 0.8797 0.3703
1.0968 0.9812 0.3701
1.0044 1.0747 0.3700
4.5548 5.8421 1.8631
4.0150 6.2254 1.8631
3.4432 6.5590 1.8631
2.8439 6.8402 1.8631
2.2218 7.0668 1.8631
1.5821 7.2369 1.8631
0.9296 7.3493 1.8631
0.2698 7.4029 1.8631
-0.3922 7.3974 1.8631
-1.0511 7.3329 1.8631
-1.7016 7.2097 1.8631
-2.3384 7.0290 1.8631
-2.9566 6.7922 1.8631
-3.5512 6.5011 1.8631
-4.1174 6.1581 1.8631
-4.6508 5.7659 1.8631
-1.0062 1.0415 0.3642
-1.0941 0.9466 0.3639
-1.1732 0.8444 0.3636
-1.2429 0.7357 0.3632
-1.3026 0.6213 0.3630
-1.3519 0.5021 0.3627
-1.3904 0.3792 0.3625
-1.4179 0.2534 0.3623
-1.4342 0.1258 0.3621
-1.4391 -0.0028 0.3619
-1.4327 -0.1312 0.3618
-1.4149 -0.2585 0.3618
-1.3860 -0.3838 0.3617
-1.3462 -0.5060 0.3617
-1.2957 -0.6242 0.3617
-1.2350 -0.7375 0.3618
-1.1645 -0.8450 0.3619
-1.0848 -0.9460 0.3620
-0.9965 -1.0395 0.3622
-4.5933 -5.7401 1.8490
-4.0655 -6.1316 1.8504
-3.5044 -6.4750 1.8517
-2.9146 -6.7672 1.8532
-2.3006 -7.0060 1.8546
-1.6673 -7.1892 1.8561
-1.0196 -7.3154 1.8577
-0.3628 -7.3836 1.8593
0.2981 -7.3929 1.8609
0.9578 -7.3431 1.8625
1.6101 -7.2307 1.8631
2.2492 -7.0581 1.8631
2.8704 -6.8291 1.8631
3.4686 -6.5456 1.8631
4.0392 -6.2097 1.8631
4.5774 -5.8243 1.8631
1.0027 -1.0645 0.3678
1.0948 -0.9717 0.3682
1.1782 -0.8709 0.3685
1.2524 -0.7629 0.3688
1.3165 -0.6485 0.3691
1.3702 -0.5288 0.3694
1.4129 -0.4046 0.3696
1.4442 -0.2770 0.3699
1.4639 -0.1471 0.3700
1.4718 -0.0158 0.3702
1.4678 0.1157 0.3703
1.4520 0.2464 0.3704
1.4244 0.3750 0.3705
1.3853 0.5007 0.3705
1.3349 0.6224 0.3704
1.2739 0.7390 0.3704
1.2025 0.8495 0.3703
1.1215 0.9532 0.3702
1.0315 1.0490 0.3700
4.7013 5.7248 1.8631
4.1715 6.1217 1.8631
3.6083 6.4697 1.8631
3.0162 6.7660 1.8631
2.4001 7.0082 1.8631
1.7649 7.1945 1.8631
1.1155 7.3233 1.8631
0.4572 7.3937 1.8631
-0.2047 7.4050 1.8631
-0.8650 7.3571 1.8631
-1.5184 7.2505 1.8631
-2.1596 7.0860 1.8631
-2.7836 6.8649 1.8631
-3.3854 6.5890 1.8631
-3.9601 6.2604 1.8631
-4.5033 5.8819 1.8631
-0.9798 1.0670 0.3643
-1.0701 0.9743 0.3640
-1.1517 0.8741 0.3636
-1.2241 0.7671 0.3633
-1.2867 0.6542 0.3630
-1.3390 0.5363 0.3628
-1.3806 0.4144 0.3625
-1.4112 0.2893 0.3623
-1.4307 0.1621 0.3621
-1.4389 0.0337 0.3620
-1.4356 -0.0949 0.3619
-1.4211 -0.2226 0.3618
-1.3953 -0.3486 0.3617
-1.3586 -0.4717 0.3617
-1.3111 -0.5912 0.3617
-1.2532 -0.7059 0.3618
-1.1855 -0.8152 0.3618
-1.1083 -0.9181 0.3620
-1.0223 -1.0138 0.3621
-4.7363 -5.6208 1.8487
-4.2186 -6.0254 1.8500
-3.6665 -6.3827 1.8513
-3.0844 -6.6897 1.8528
-2.4768 -6.9439 1.8542
-1.8484 -7.1430 1.8557
-1.2043 -7.2855 1.8572
-0.5495 -7.3702 1.8588
0.1107 -7.3963 1.8604
0.7713 -7.3632 1.8620
1.4264 -7.2692 1.8631
2.0697 -7.1128 1.8631
2.6965 -6.8996 1.8631
3.3017 -6.6313 1.8631
3.8806 -6.3101 1.8631
4.4284 -5.9384 1.8631
4.9409 -5.5193 1.8631
1.0695 -0.9989 0.3681
1.1555 -0.9002 0.3684
1.2323 -0.7942 0.3687
1.2994 -0.6815 0.3690
1.3561 -0.5632 0.3693
1.4019 -0.4402 0.3696
1.4365 -0.3135 0.3698
1.4595 -0.1841 0.3700
1.4708 -0.0531 0.3702
1.4702 0.0785 0.3703
1.4577 0.2095 0.3704
1.4334 0.3388 0.3704
1.3975 0.4655 0.3705
1.3503 0.5884 0.3705
1.2922 0.7065 0.3704
1.2237 0.8189 0.3703
1.1454 0.9246 0.3702
1.0578 1.0227 0.3701
4.8448 5.6039 1.8631
4.3252 6.0140 1.8631
3.7710 6.3762 1.8631
3.1867 6.6874 1.8631
2.5769 6.9452 1.8631
1.9466 7.1475 1.8631
1.3007 7.2928 1.8631
0.6444 7.3797 1.8631
-0.0171 7.4078 1.8631
-0.6783 7.3767 1.8631
-1.3342 7.2867 1.8631
-1.9794 7.1384 1.8631
-2.6088 6.9332 1.8631
-3.2174 6.6726 1.8631
-3.8003 6.3587 1.8631
-4.3528 5.9941 1.8631
-0.9527 1.0917 0.3644
-1.0453 1.0014 0.3641
-1.1295 0.9032 0.3637
-1.2046 0.7980 0.3634
-1.2700 0.6867 0.3631
-1.3252 0.5702 0.3628
-1.3699 0.4493 0.3626
-1.4037 0.3250 0.3624
-1.4263 0.1983 0.3622
-1.4377 0.0701 0.3620
-1.4377 -0.0585 0.3619
-1.4264 -0.1866 0.3618
-1.4038 -0.3131 0.3617
-1.3701 -0.4372 0.3617
-1.3256 -0.5577 0.3617
-1.2707 -0.6739 0.3617
-1.2057 -0.7849 0.3618
-1.1311 -0.8896 0.3619
-1.0476 -0.9874 0.3621
-0.9557 -1.0775 0.3622
-4.3690 -5.9155 1.8496
-3.8262 -6.2865 1.8509
-3.2522 -6.6080 1.8524
-2.6513 -6.8773 1.8538
-2.0284 -7.0923 1.8553
-1.3882 -7.2509 1.8568
-0.7359 -7.3521 1.8584
-0.0766 -7.3949 1.8600
0.5844 -7.3786 1.8616
1.2419 -7.3030 1.8631
1.8889 -7.1629 1.8631
2.5209 -6.9657 1.8631
3.1327 -6.7128 1.8631
3.7195 -6.4064 1.8631
4.2766 -6.0487 1.8631
4.7995 -5.6427 1.8631
1.0436 -1.0253 0.3680
1.1320 -0.9290 0.3683
1.2115 -0.8249 0.3686
1.2814 -0.7141 0.3690
1.3411 -0.5973 0.3692
1.3901 -0.4755 0.3695
1.4279 -0.3497 0.3697
1.4542 -0.2210 0.3699
1.4688 -0.0903 0.3701
1.4715 0.0412 0.3703
1.4624 0.1725 0.3704
1.4414 0.3024 0.3704
1.4088 0.4299 0.3705
1.3648 0.5540 0.3705
1.3098 0.6736 0.3704
1.2442 0.7877 0.3704
1.1685 0.8953 0.3703
1.0835 0.9957 0.3701
0.9899 1.0880 0.3699
4.4761 5.9026 1.8631
3.9313 6.2786 1.8631
3.3550 6.6045 1.8631
2.7520 6.8777 1.8631
2.1270 7.0959 1.8631
1.4850 7.2575 1.8631
0.8311 7.3610 1.8631
0.1706 7.4058 1.8631
-0.4913 7.3915 1.8631
-1.1492 7.3181 1.8631
-1.7980 7.1863 1.8631
-2.4324 6.9971 1.8631
-3.0473 6.7520 1.8631
-3.6380 6.4529 1.8631
-4.1996 6.1024 1.8631
-4.7276 5.7031 1.8631
-1.0199 1.0278 0.3642
-1.1066 0.9318 0.3638
-1.1843 0.8285 0.3635
-1.2525 0.7189 0.3632
-1.3106 0.6037 0.3629
-1.3583 0.4839 0.3627
-1.3952 0.3605 0.3624
-1.4211 0.2344 0.3622
-1.4356 0.1065 0.3621
-1.4389 -0.0221 0.3619
-1.4307 -0.1504 0.3618
-1.4113 -0.2775 0.3617
-1.3807 -0.4023 0.3617
-1.3393 -0.5240 0.3617
-1.2873 -0.6415 0.3617
-1.2251 -0.7540 0.3618
-1.1532 -0.8606 0.3619
-1.0721 -0.9605 0.3620
-0.9825 -1.0528 0.3622
-4.5165 -5.8017 1.8492
-3.9834 -6.1862 1.8506
-3.4177 -6.5221 1.8519
-2.8240 -6.8065 1.8534
-2.2068 -7.0370 1.8549
-1.5711 -7.2118 1.8564
-0.9217 -7.3294 1.8579
-0.2639 -7.3888 1.8595
0.3972 -7.3892 1.8611
1.0562 -7.3305 1.8627
1.7068 -7.2085 1.8631
2.3436 -7.0273 1.8631
2.9616 -6.7900 1.8631
3.5560 -6.4985 1.8631
4.1220 -6.1551 1.8631
4.6550 -5.7625 1.8631
1.0170 -1.0512 0.3679
1.1079 -0.9571 0.3682
1.1900 -0.8551 0.3685
1.2626 -0.7461 0.3689
1.3253 -0.6309 0.3692
1.3773 -0.5105 0.3694
1.4183 -0.3857 0.3697
1.4479 -0.2577 0.3699
1.4658 -0.1275 0.3701
1.4720 0.0039 0.3702
1.4662 0.1354 0.3703
1.4486 0.2658 0.3704
1.4192 0.3941 0.3705
1.3784 0.5192 0.3705
1.3265 0.6402 0.3704
1.2638 0.7559 0.3704
1.1910 0.8655 0.3703
1.1085 0.9681 0.3702
1.0172 1.0627 0.3700
4.6242 5.7873 1.8631
4.0890 6.1770 1.8631
3.5212 6.5174 1.8631
2.9253 6.8057 1.8631
2.3061 7.0397 1.8631
1.6684 7.2175 1.8631
1.0173 7.3376 1.8631
0.3581 7.3992 1.8631
-0.3039 7.4016 1.8631
-0.9634 7.3449 1.8631
-1.6153 7.2295 1.8631
-2.2544 7.0564 1.8631
-2.8753 6.8270 1.8631
-3.4734 6.5430 1.8631
-4.0436 6.2068 1.8631
-4.5816 5.8210 1.8631
-0.9938 1.0536 0.3643
-1.0829 0.9597 0.3639
-1.1632 0.8585 0.3636
-1.2341 0.7505 0.3633
-1.2952 0.6368 0.3630
-1.3459 0.5183 0.3627
-1.3859 0.3958 0.3625
-1.4149 0.2703 0.3623
-1.4327 0.1429 0.3621
-1.4391 0.0144 0.3620
-1.4342 -0.1141 0.3618
-1.4179 -0.2416 0.3618
-1.3905 -0.3672 0.3617
-1.3521 -0.4899 0.3617
-1.3031 -0.6087 0.3617
-1.2437 -0.7227 0.3618
-1.1745 -0.8310 0.3619
-1.0960 -0.9329 0.3620
-1.0087 -1.0274 0.3621
-4.6611 -5.6843 1.8489
-4.1380 -6.0821 1.8502
-3.5811 -6.4320 1.8515
-2.9949 -6.7312 1.8530
-2.3838 -6.9773 1.8544
-1.7528 -7.1680 1.8559
-1.1068 -7.3019 1.8575
-0.4508 -7.3779 1.8591
0.2098 -7.3951 1.8607
0.8700 -7.3531 1.8623
1.5237 -7.2494 1.8631
2.1648 -7.0844 1.8631
2.7886 -6.8629 1.8631
3.3902 -6.5865 1.8631
3.9648 -6.2575 1.8631
4.5076 -5.8786 1.8631
0.9898 -1.0763 0.3678
1.0830 -0.9846 0.3681
1.1676 -0.8848 0.3685
1.2430 -0.7777 0.3688
1.3086 -0.6641 0.3691
1.3637 -0.5451 0.3694
1.4078 -0.4214 0.3696
1.4407 -0.2942 0.3698
1.4620 -0.1645 0.3700
1.4714 -0.0334 0.3702
1.4690 0.0982 0.3703
1.4548 0.2290 0.3704
1.4287 0.3580 0.3704
1.3911 0.4842 0.3705
1.3423 0.6064 0.3705
1.2826 0.7237 0.3704
1.2126 0.8352 0.3703
1.1328 0.9398 0.3702
1.0440 1.0367 0.3700
4.7693 5.6683 1.8631
4.2442 6.0714 1.8631
3.6852 6.4261 1.8631
3.0968 6.7294 1.8631
2.4836 6.9791 1.8631
1.8506 7.1729 1.8631
1.2029 7.3095 1.8631
0.5455 7.3877 1.8631
-0.1163 7.4069 1.8631
-0.7771 7.3669 1.8631
-1.4317 7.2681 1.8631
-2.0749 7.1113 1.8631
-2.7015 6.8977 1.8631
-3.3065 6.6289 1.8631
-3.8851 6.3073 1.8631
-4.4327 5.9352 1.8631
-0.9671 1.0787 0.3644
-1.0585 0.9871 0.3640
-1.1414 0.8879 0.3637
-1.2150 0.7817 0.3634
-1.2789 0.6696 0.3631
-1.3326 0.5523 0.3628
-1.3757 0.4309 0.3626
-1.4078 0.3061 0.3623
-1.4288 0.1791 0.3622
-1.4384 0.0508 0.3620
-1.4367 -0.0778 0.3619
-1.4237 -0.2057 0.3618
-1.3994 -0.3319 0.3617
-1.3641 -0.4555 0.3617
-1.3180 -0.5754 0.3617
-1.2615 -0.6909 0.3618
-1.1951 -0.8010 0.3618
-1.1191 -0.9047 0.3619
-1.0343 -1.0014 0.3621
-4.8027 -5.5633 1.8485
-4.2898 -5.9741 1.8498
-3.7421 -6.3379 1.8512
-3.1637 -6.6518 1.8526
-2.5592 -6.9131 1.8540
-1.9334 -7.1197 1.8555
-1.2911 -7.2698 1.8570
-0.6374 -7.3623 1.8586
0.0224 -7.3962 1.8602
0.6833 -7.3710 1.8618
1.3396 -7.2857 1.8631
1.9846 -7.1370 1.8631
2.6139 -6.9313 1.8631
3.2223 -6.6703 1.8631
3.8049 -6.3560 1.8631
4.3572 -5.9909 1.8631
4.8747 -5.5779 1.8631
1.0574 -1.0114 0.3680
1.1445 -0.9138 0.3684
1.2226 -0.8087 0.3687
1.2910 -0.6969 0.3690
1.3491 -0.5793 0.3693
1.3964 -0.4569 0.3695
1.4325 -0.3306 0.3698
1.4571 -0.2015 0.3700
1.4699 -0.0706 0.3701
1.4709 0.0609 0.3703
1.4600 0.1921 0.3704
1.4373 0.3217 0.3704
1.4029 0.4488 0.3705
1.3573 0.5722 0.3705
1.3006 0.6910 0.3704
1.2335 0.8042 0.3703
1.1564 0.9109 0.3702
1.0700 1.0101 0.3701
0.9751 1.1010 0.3699
4.3967 5.9620 1.8631
3.8468 6.3307 1.8631
3.2663 6.6489 1.8631
2.6596 6.9139 1.8631
2.0318 7.1238 1.8631
1.3876 7.2767 1.8631
0.7324 7.3715 1.8631
0.0714 7.4075 1.8631
-0.5902 7.3843 1.8631
-1.2471 7.3021 1.8631
-1.8941 7.1616 1.8631
-2.5259 6.9639 1.8631
-3.1375 6.7106 1.8631
-3.7241 6.4037 1.8631
-4.2809 6.0456 1.8631
-4.8036 5.6392 1.8631
-1.0334 1.0139 0.3641
-1.1188 0.9167 0.3638
-1.1951 0.8125 0.3635
-1.2618 0.7019 0.3632
-1.3185 0.5860 0.3629
-1.3646 0.4657 0.3626
-1.3998 0.3418 0.3624
-1.4240 0.2153 0.3622
-1.4368 0.0873 0.3620
-1.4384 -0.0413 0.3619
-1.4285 -0.1695 0.3618
-1.4074 -0.2963 0.3617
-1.3752 -0.4208 0.3617
-1.3322 -0.5419 0.3617
-1.2786 -0.6587 0.3617
-1.2149 -0.7704 0.3618
-1.1416 -0.8760 0.3619
-1.0592 -0.9748 0.3620
-0.9684 -1.0659 0.3622
-4.4389 -5.8623 1.8494
-3.9006 -6.2397 1.8508
-3.3305 -6.5680 1.8522
-2.7329 -6.8445 1.8536
-2.1126 -7.0668 1.8551
-1.4745 -7.2331 1.8566
-0.8235 -7.3420 1.8582
-0.1649 -7.3926 1.8598
0.4962 -7.3842 1.8614
1.1545 -7.3166 1.8630
1.8032 -7.1850 1.8631
2.4375 -6.9953 1.8631
3.0523 -6.7498 1.8631
3.6427 -6.4503 1.8631
4.2041 -6.0993 1.8631
4.7318 -5.6996 1.8631
1.0311 -1.0376 0.3679
1.1583 -0.8349 0.3685
1.2292 -0.7288 0.3688
1.2904 -0.6166 0.3691
1.3412 -0.4993 0.3693
1.3813 -0.3778 0.3696
1.4103 -0.2531 0.3698
1.4280 -0.1263 0.3700
1.4341 0.0017 0.3701
1.4287 0.1298 0.3702
1.4117 0.2569 0.3703
1.3833 0.3820 0.3703
1.3437 0.5039 0.3704
1.2933 0.6219 0.3703
1.2324 0.7347 0.3703
1.1616 0.8416 0.3702
1.0814 0.9416 0.3701
0.9926 1.0340 0.3699
4.5149 5.6336 1.8631
3.9939 6.0142 1.8631
3.4410 6.3467 1.8631
2.8606 6.6286 1.8631
2.2574 6.8575 1.8631
1.6362 7.0317 1.8631
1.0019 7.1497 1.8631
0.3596 7.2106 1.8631
-0.2857 7.2139 1.8631
-0.9285 7.1596 1.8631
-1.5640 7.0481 1.8631
-2.1870 6.8803 1.8631
-2.7925 6.6575 1.8631
-3.3758 6.3816 1.8631
-3.9320 6.0548 1.8631
-4.4569 5.6796 1.8631
-0.9672 1.0284 0.3643
-1.0542 0.9370 0.3640
-1.1326 0.8384 0.3637
-1.2019 0.7334 0.3634
-1.2616 0.6226 0.3631
-1.3113 0.5072 0.3628
-1.3504 0.3878 0.3626
-1.3789 0.2656 0.3624
-1.3964 0.1413 0.3622
-1.4029 0.0161 0.3621
-1.3983 -0.1092 0.3620
-1.3827 -0.2336 0.3619
-1.3561 -0.3560 0.3618
-1.3188 -0.4757 0.3618
-1.2712 -0.5915 0.3618
-1.2135 -0.7028 0.3619
-1.1461 -0.8085 0.3620
-1.0697 -0.9079 0.3621
-0.9848 -1.0002 0.3622
-0.8920 -1.0846 0.3624
-4.0418 -5.9221 1.8503
-3.4994 -6.2639 1.8517
-2.9284 -6.5562 1.8531
-2.3332 -6.7967 1.8545
-1.7185 -6.9834 1.8560
-1.0890 -7.1148 1.8575
-0.4498 -7.1897 1.8591
0.1940 -7.2072 1.8606
0.8374 -7.1671 1.8622
1.4746 -7.0673 1.8631
2.0997 -6.9074 1.8631
2.7080 -6.6924 1.8631
3.2947 -6.4239 1.8631
3.8551 -6.1041 1.8631
4.3846 -5.7355 1.8631
0.9630 -1.0502 0.3677
1.0539 -0.9609 0.3681
1.1365 -0.8638 0.3684
1.2101 -0.7595 0.3687
1.2741 -0.6490 0.3690
1.3279 -0.5330 0.3693
1.3711 -0.4126 0.3695
1.4033 -0.2887 0.3697
1.4242 -0.1624 0.3699
1.4336 -0.0346 0.3701
1.4314 0.0936 0.3702
1.4177 0.2210 0.3703
1.3925 0.3468 0.3703
1.3560 0.4697 0.3704
1.3086 0.5889 0.3703
1.2507 0.7033 0.3703
1.1826 0.8120 0.3702
1.1051 0.9140 0.3701
1.0186 1.0086 0.3699
0.9241 1.0950 0.3698
4.1450 5.9111 1.8631
3.6007 6.2575 1.8631
3.0276 6.5540 1.8631
2.4304 6.7981 1.8631
1.8138 6.9880 1.8631
1.1827 7.1220 1.8631
0.5421 7.1991 1.8631
-0.1028 7.2188 1.8631
-0.7469 7.1808 1.8631
-1.3850 7.0854 1.8631
-2.0120 6.9335 1.8631
-2.6230 6.7262 1.8631
-3.2130 6.4651 1.8631
-3.7774 6.1524 1.8631
-4.3116 5.7906 1.8631
-0.9411 1.0528 0.3644
-1.0304 0.9637 0.3641
-1.1113 0.8671 0.3638
-1.1833 0.7637 0.3634
-1.2457 0.6545 0.3632
-1.2982 0.5403 0.3629
-1.3404 0.4220 0.3627
-1.3719 0.3004 0.3624
-1.3926 0.1767 0.3623
-1.4022 0.0516 0.3621
-1.4007 -0.0738 0.3620
-1.3882 -0.1985 0.3619
-1.3647 -0.3216 0.3618
-1.3305 -0.4421 0.3618
-1.2857 -0.5591 0.3618
-1.2308 -0.6718 0.3619
-1.1662 -0.7791 0.3619
-1.0923 -0.8804 0.3620
-1.0097 -0.9748 0.3622
-0.9191 -1.0615 0.3624
-4.1897 -5.8167 1.8500
-3.6562 -6.1719 1.8513
-3.0929 -6.4785 1.8527
-2.5041 -6.7340 1.8541
-1.8944 -6.9361 1.8556
-1.2686 -7.0833 1.8571
-0.6317 -7.1742 1.8586
0.0114 -7.2081 1.8602
0.6554 -7.1843 1.8618
1.2952 -7.1024 1.8631
1.9241 -6.9584 1.8631
2.5376 -6.7588 1.8631
3.1309 -6.5053 1.8631
3.6992 -6.1998 1.8631
4.2379 -5.8448 1.8631
0.9358 -1.0739 0.3676
1.0289 -0.9871 0.3680
1.1139 -0.8921 0.3683
1.1902 -0.7897 0.3686
1.2570 -0.6809 0.3689
1.3137 -0.5664 0.3692
1.3599 -0.4471 0.3694
1.3953 -0.3241 0.3697
1.4194 -0.1984 0.3699
1.4321 -0.0709 0.3700
1.4332 0.0573 0.3702
1.4227 0.1850 0.3703
1.4008 0.3114 0.3703
1.3675 0.4352 0.3704
1.3232 0.5556 0.3703
1.2681 0.6714 0.3703
1.2029 0.7818 0.3702
1.1280 0.8858 0.3701
1.0440 0.9826 0.3700
0.9516 1.0714 0.3698
4.2934 5.8042 1.8631
3.7580 6.1643 1.8631
3.1927 6.4752 1.8631
2.6018 6.7344 1.8631
1.9902 6.9398 1.8631
1.3627 7.0897 1.8631
0.7243 7.1831 1.8631
0.0801 7.2191 1.8631
-0.5647 7.1974 1.8631
-1.2051 7.1182 1.8631
-1.8358 6.9822 1.8631
-2.4518 6.7904 1.8631
-3.0482 6.5444 1.8631
-3.6204 6.2462 1.8631
-4.1635 5.8980 1.8631
-0.9144 1.0766 0.3645
-1.0059 0.9897 0.3642
-1.0892 0.8952 0.3638
-1.1638 0.7937 0.3635
-1.2290 0.6860 0.3632
-1.2844 0.5731 0.3630
-1.3295 0.4559 0.3627
-1.3641 0.3351 0.3625
-1.3878 0.2119 0.3623
-1.4006 0.0871 0.3621
-1.4023 -0.0383 0.3620
-1.3929 -0.1632 0.3619
-1.3725 -0.2869 0.3619
-1.3413 -0.4083 0.3618
-1.2995 -0.5264 0.3618
-1.2474 -0.6403 0.3618
-1.1855 -0.7493 0.3619
-1.1141 -0.8524 0.3620
-1.0340 -0.9488 0.3621
-0.9455 -1.0377 0.3623
-4.3348 -5.7076 1.8496
-3.8106 -6.0761 1.8509
-3.2553 -6.3967 1.8523
-2.6733 -6.6669 1.8537
-2.0690 -6.8843 1.8551
-1.4473 -7.0472 1.8566
-0.8130 -7.1542 1.8582
-0.1712 -7.2043 1.8597
0.4731 -7.1969 1.8613
1.1147 -7.1319 1.8629
1.7472 -7.0049 1.8631
2.3656 -6.8210 1.8631
2.9651 -6.5825 1.8631
3.5410 -6.2915 1.8631
4.0885 -5.9502 1.8631
4.6034 -5.5615 1.8631
1.0033 -1.0125 0.3679
1.0907 -0.9198 0.3682
1.1695 -0.8194 0.3685
1.2390 -0.7123 0.3688
1.2987 -0.5993 0.3691
1.3479 -0.4813 0.3694
1.3864 -0.3593 0.3696
1.4137 -0.2342 0.3698
1.4296 -0.1071 0.3700
1.4341 0.0209 0.3701
1.4269 0.1489 0.3702
1.4082 0.2758 0.3703
1.3781 0.4005 0.3703
1.3368 0.5219 0.3704
1.2848 0.6391 0.3703
1.2224 0.7511 0.3703
1.1501 0.8570 0.3702
1.0687 0.9560 0.3700
0.9786 1.0471 0.3699
4.4390 5.6936 1.8631
3.9130 6.0671 1.8631
3.3557 6.3923 1.8631
2.7716 6.6663 1.8631
2.1654 6.8871 1.8631
1.5418 7.0529 1.8631
0.9060 7.1624 1.8631
0.2629 7.2147 1.8631
-0.3822 7.2094 1.8631
-1.0244 7.1465 1.8631
-1.6583 7.0265 1.8631
-2.2790 6.8504 1.8631
-2.8815 6.6195 1.8631
-3.4610 6.3358 1.8631
-4.0128 6.0015 1.8631
-4.5326 5.6193 1.8631
-0.9808 1.0152 0.3643
-1.0665 0.9227 0.3639
-1.1436 0.8231 0.3636
-1.2115 0.7171 0.3633
-1.2697 0.6056 0.3630
-1.3178 0.4895 0.3628
-1.3554 0.3697 0.3626
-1.3822 0.2470 0.3624
-1.3981 0.1226 0.3622
-1.4029 -0.0027 0.3621
-1.3967 -0.1279 0.3619
-1.3794 -0.2520 0.3619
-1.3512 -0.3742 0.3618
-1.3124 -0.4933 0.3618
-1.2632 -0.6085 0.3618
-1.2040 -0.7190 0.3619
-1.1353 -0.8238 0.3620
-1.0575 -0.9222 0.3621
-0.9714 -1.0133 0.3623
-4.4771 -5.5948 1.8492
-3.9625 -5.9764 1.8505
-3.4156 -6.3109 1.8519
-2.8407 -6.5956 1.8533
-2.2422 -6.8282 1.8547
-1.6250 -7.0066 1.8562
-0.9937 -7.1296 1.8577
-0.3536 -7.1960 1.8593
0.2906 -7.2049 1.8609
0.9334 -7.1561 1.8624
1.5692 -7.0469 1.8631
2.1920 -6.8787 1.8631
2.7974 -6.6555 1.8631
3.3805 -6.3792 1.8631
3.9365 -6.0519 1.8631
4.4611 -5.6763 1.8631
0.9771 -1.0373 0.3678
1.0668 -0.9469 0.3681
1.1481 -0.8486 0.3684
1.2203 -0.7433 0.3687
1.2828 -0.6319 0.3690
1.3351 -0.5152 0.3693
1.3766 -0.3942 0.3695
1.4071 -0.2699 0.3698
1.4263 -0.1433 0.3699
1.4340 -0.0154 0.3701
1.4301 0.1127 0.3702
1.4146 0.2400 0.3703
1.3877 0.3654 0.3703
1.3496 0.4879 0.3704
1.3006 0.6064 0.3703
1.2411 0.7200 0.3703
1.1716 0.8277 0.3702
1.0927 0.9287 0.3701
1.0050 1.0221 0.3699
4.5818 5.5793 1.8631
4.0654 5.9661 1.8631
3.5165 6.3052 1.8631
2.9396 6.5940 1.8631
2.3391 6.8301 1.8631
1.7200 7.0116 1.8631
1.0871 7.1372 1.8631
0.4456 7.2057 1.8631
-0.1995 7.2168 1.8631
-0.8430 7.1701 1.8631
-1.4798 7.0662 1.8631
-2.1047 6.9059 1.8631
-2.7129 6.6904 1.8631
-3.2994 6.4215 1.8631
-3.8595 6.1013 1.8631
-4.3888 5.7323 1.8631
-0.9550 1.0400 0.3644
-1.0430 0.9497 0.3640
-1.1226 0.8520 0.3637
-1.1932 0.7477 0.3634
-1.2542 0.6377 0.3631
-1.3052 0.5228 0.3629
-1.3458 0.4039 0.3626
-1.3757 0.2820 0.3624
-1.3947 0.1580 0.3622
-1.4027 0.0328 0.3621
-1.3996 -0.0925 0.3620
-1.3854 -0.2170 0.3619
-1.3603 -0.3398 0.3618
-1.3244 -0.4599 0.3618
-1.2781 -0.5763 0.3618
-1.2217 -0.6882 0.3619
-1.1557 -0.7947 0.3620
-1.0804 -0.8950 0.3621
-0.9966 -0.9883 0.3622
-0.9048 -1.0738 0.3624
-4.1118 -5.8729 1.8502
-3.5736 -6.2210 1.8515
-3.0062 -6.5201 1.8529
-2.4139 -6.7677 1.8543
-1.8015 -6.9617 1.8558
-1.1738 -7.1005 1.8573
-0.5356 -7.1830 1.8589
0.1079 -7.2082 1.8604
0.7517 -7.1758 1.8620
1.3902 -7.0844 1.8631
2.0171 -6.9320 1.8631
2.6279 -6.7242 1.8631
3.2178 -6.4628 1.8631
3.7819 -6.1497 1.8631
4.3158 -5.7875 1.8631
0.9502 -1.0615 0.3677
1.0422 -0.9733 0.3680
1.1259 -0.8772 0.3683
1.2008 -0.7738 0.3687
1.2661 -0.6641 0.3690
1.3213 -0.5488 0.3692
1.3659 -0.4289 0.3695
1.3996 -0.3054 0.3697
1.4220 -0.1793 0.3699
1.4330 -0.0517 0.3700
1.4324 0.0765 0.3702
1.4202 0.2041 0.3703
1.3965 0.3301 0.3703
1.3616 0.4535 0.3704
1.3156 0.5733 0.3703
1.2590 0.6883 0.3703
1.1923 0.7978 0.3702
1.1159 0.9008 0.3701
1.0307 0.9964 0.3700
0.9371 1.0840 0.3698
4.2152 5.8612 1.8631
3.6751 6.2141 1.8631
3.1056 6.5174 1.8631
2.5114 6.7686 1.8631
1.8971 6.9658 1.8631
1.2676 7.1074 1.8631
0.6280 7.1922 1.8631
-0.0166 7.2195 1.8631
-0.6611 7.1892 1.8631
-1.3003 7.1014 1.8631
-1.9291 6.9570 1.8631
-2.5425 6.7570 1.8631
-3.1356 6.5030 1.8631
-3.7037 6.1971 1.8631
-4.2422 5.8417 1.8631
-0.9286 1.0641 0.3645
-1.0189 0.9760 0.3641
-1.1010 0.8804 0.3638
-1.1742 0.7779 0.3635
-1.2380 0.6694 0.3632
-1.2918 0.5558 0.3629
-1.3354 0.4380 0.3627
-1.3683 0.3168 0.3625
-1.3904 0.1933 0.3623
-1.4015 0.0684 0.3621
-1.4016 -0.0570 0.3620
-1.3905 -0.1819 0.3619
-1.3685 -0.3053 0.3618
-1.3357 -0.4262 0.3618
-1.2923 -0.5437 0.3618
-1.2387 -0.6570 0.3619
-1.1754 -0.7651 0.3619
-1.1027 -0.8672 0.3620
-1.0212 -0.9626 0.3622
-0.9316 -1.0504 0.3623
-4.2584 -5.7657 1.8498
-3.7293 -6.1273 1.8511
-3.1697 -6.4405 1.8525
-2.5840 -6.7029 1.8539
-1.9769 -6.9122 1.8554
-1.3529 -7.0668 1.8569
-0.7172 -7.1654 1.8584
-0.0747 -7.2069 1.8600
0.5695 -7.1908 1.8615
1.2103 -7.1172 1.8631
1.8409 -6.9809 1.8631
2.4568 -6.7886 1.8631
3.0530 -6.5422 1.8631
3.6249 -6.2435 1.8631
4.1679 -5.8949 1.8631
4.6775 -5.4993 1.8631
1.0169 -0.9992 0.3679
1.1031 -0.9052 0.3683
1.1805 -0.8038 0.3686
1.2486 -0.6958 0.3689
1.3067 -0.5820 0.3692
1.3544 -0.4633 0.3694
1.3912 -0.3407 0.3696
1.4168 -0.2153 0.3698
1.4310 -0.0880 0.3700
1.4337 0.0402 0.3701
1.4248 0.1680 0.3702
1.4044 0.2946 0.3703
1.3726 0.4189 0.3704
1.3297 0.5397 0.3704
1.2761 0.6563 0.3703
1.2122 0.7674 0.3702
1.1385 0.8723 0.3701
1.0557 0.9701 0.3700
0.9644 1.0600 0.3698
4.3623 5.7525 1.8631
3.8314 6.1190 1.8631
3.2698 6.4366 1.8631
2.6820 6.7028 1.8631
2.0729 6.9155 1.8631
1.4472 7.0730 1.8631
0.8100 7.1739 1.8631
0.1663 7.2176 1.8631
-0.4788 7.2036 1.8631
-1.1200 7.1321 1.8631
-1.7523 7.0036 1.8631
-2.3705 6.8192 1.8631
-2.9699 6.5804 1.8631
-3.5455 6.2889 1.8631
-4.0928 5.9473 1.8631
-0.9016 1.0876 0.3646
-0.9941 1.0018 0.3642
-1.0786 0.9082 0.3639
-1.1544 0.8076 0.3636
-1.2209 0.7007 0.3633
-1.2776 0.5885 0.3630
-1.3241 0.4717 0.3628
-1.3601 0.3514 0.3625
-1.3853 0.2285 0.3623
-1.3995 0.1038 0.3622
-1.4027 -0.0215 0.3620
-1.3948 -0.1466 0.3619
-1.3758 -0.2705 0.3619
-1.3460 -0.3922 0.3618
-1.3056 -0.5108 0.3618
-1.2549 -0.6254 0.3618
-1.1943 -0.7351 0.3619
-1.1242 -0.8390 0.3620
-1.0452 -0.9363 0.3621
-0.9578 -1.0263 0.3623
-4.4022 -5.6549 1.8494
-3.8825 -6.0296 1.8507
-3.3311 -6.3568 1.8521
-2.7524 -6.6338 1.8535
-2.1508 -6.8584 1.8549
-1.5311 -7.0286 1.8564
-0.8983 -7.1432 1.8580
-0.2571 -7.2010 1.8595
0.3871 -7.2012 1.8611
1.0293 -7.1439 1.8627
1.6634 -7.0253 1.8631
2.2840 -6.8487 1.8631
2.8863 -6.6174 1.8631
3.4656 -6.3333 1.8631
4.0172 -5.9986 1.8631
4.5367 -5.6160 1.8631
0.9910 -1.0243 0.3678
1.0795 -0.9326 0.3682
1.1595 -0.8333 0.3685
1.2303 -0.7270 0.3688
1.2913 -0.6147 0.3691
1.3420 -0.4974 0.3693
1.3819 -0.3758 0.3696
1.4107 -0.2511 0.3698
1.4282 -0.1242 0.3700
1.4341 0.0038 0.3701
1.4285 0.1319 0.3702
1.4113 0.2590 0.3703
1.3827 0.3840 0.3703
1.3430 0.5059 0.3704
1.2924 0.6237 0.3703
1.2313 0.7365 0.3703
1.1603 0.8433 0.3702
1.0801 0.9432 0.3700
0.9911 1.0354 0.3699
4.5067 5.6401 1.8631
3.9851 6.0200 1.8631
3.4317 6.3517 1.8631
2.8510 6.6327 1.8631
2.2474 6.8608 1.8631
1.6260 7.0340 1.8631
0.9914 7.1511 1.8631
0.3490 7.2111 1.8631
-0.2961 7.2134 1.8631
-0.9390 7.1582 1.8631
-1.5743 7.0458 1.8631
-2.1971 6.8771 1.8631
-2.8023 6.6535 1.8631
-3.3851 6.3767 1.8631
-3.9408 6.0490 1.8631
-4.4652 5.6731 1.8631
-0.9687 1.0269 0.3643
-1.0555 0.9355 0.3640
-1.1338 0.8368 0.3637
-1.2030 0.7316 0.3634
-1.2625 0.6208 0.3631
-1.3120 0.5052 0.3628
-1.3510 0.3858 0.3626
-1.3793 0.2635 0.3624
-1.3966 0.1393 0.3622
-1.4029 0.0140 0.3621
-1.3981 -0.1112 0.3620
-1.3823 -0.2356 0.3619
-1.3556 -0.3580 0.3618
-1.3182 -0.4776 0.3618
-1.2703 -0.5934 0.3618
-1.2124 -0.7045 0.3619
-1.1450 -0.8101 0.3620
-1.0684 -0.9094 0.3621
-0.9834 -1.0016 0.3622
-0.8904 -1.0859 0.3624
-4.0332 -5.9281 1.8504
-3.4904 -6.2691 1.8517
-2.9189 -6.5606 1.8531
-2.3234 -6.8002 1.8545
-1.7083 -6.9860 1.8560
-1.0787 -7.1165 1.8575
-0.4394 -7.1904 1.8591
0.2045 -7.2070 1.8607
0.8478 -7.1660 1.8622
1.4849 -7.0651 1.8631
2.1098 -6.9044 1.8631
2.7178 -6.6884 1.8631
3.3041 -6.4191 1.8631
3.8640 -6.0985 1.8631
4.3930 -5.7291 1.8631
0.9645 -1.0488 0.3677
1.0553 -0.9594 0.3681
1.1377 -0.8621 0.3684
1.2112 -0.7578 0.3687
1.2750 -0.6471 0.3690
1.3287 -0.5311 0.3693
1.3717 -0.4106 0.3695
1.4037 -0.2867 0.3697
1.4244 -0.1603 0.3699
1.4336 -0.0325 0.3701
1.4313 0.0957 0.3702
1.4174 0.2231 0.3703
1.3920 0.3488 0.3703
1.3554 0.4717 0.3704
1.3078 0.5908 0.3703
1.2496 0.7051 0.3703
1.1814 0.8137 0.3702
1.1037 0.9156 0.3701
1.0172 1.0101 0.3699
0.9225 1.0963 0.3698
4.1363 5.9171 1.8631
3.5916 6.2628 1.8631
3.0181 6.5584 1.8631
2.4205 6.8017 1.8631
1.8036 6.9906 1.8631
1.1723 7.1237 1.8631
0.5316 7.1999 1.8631
-0.1133 7.2186 1.8631
-0.7574 7.1797 1.8631
-1.3953 7.0834 1.8631
-2.0221 6.9305 1.8631
-2.6328 6.7223 1.8631
-3.2225 6.4604 1.8631
-3.7864 6.1469 1.8631
-4.3200 5.7843 1.8631
-0.9426 1.0514 0.3644
-1.0317 0.9622 0.3641
-1.1125 0.8654 0.3637
-1.1843 0.7620 0.3634
-1.2467 0.6527 0.3632
-1.2990 0.5384 0.3629
-1.3410 0.4200 0.3627
-1.3724 0.2984 0.3624
-1.3928 0.1746 0.3623
-1.4023 0.0496 0.3621
-1.4006 -0.0758 0.3620
-1.3879 -0.2005 0.3619
-1.3643 -0.3236 0.3618
-1.3298 -0.4440 0.3618
-1.2849 -0.5610 0.3618
-1.2298 -0.6735 0.3619
-1.1650 -0.7808 0.3619
-1.0910 -0.8820 0.3620
-1.0083 -0.9762 0.3622
-0.9175 -1.0629 0.3624
-4.1813 -5.8228 1.8500
-3.6473 -6.1773 1.8513
-3.0835 -6.4831 1.8527
-2.4943 -6.7377 1.8541
-1.8843 -6.9389 1.8556
-1.2583 -7.0852 1.8571
-0.6212 -7.1753 1.8586
0.0219 -7.2081 1.8602
0.6659 -7.1834 1.8618
1.3055 -7.1005 1.8631
1.9342 -6.9556 1.8631
2.5475 -6.7551 1.8631
3.1404 -6.5007 1.8631
3.7082 -6.1944 1.8631
4.2464 -5.8386 1.8631
0.9374 -1.0726 0.3676
1.0304 -0.9856 0.3680
1.1153 -0.8905 0.3683
1.1913 -0.7880 0.3686
1.2579 -0.6791 0.3689
1.3145 -0.5645 0.3692
1.3606 -0.4452 0.3694
1.3958 -0.3221 0.3697
1.4197 -0.1963 0.3699
1.4322 -0.0688 0.3700
1.4331 0.0594 0.3702
1.4225 0.1871 0.3703
1.4003 0.3134 0.3703
1.3669 0.4372 0.3704
1.3223 0.5575 0.3703
1.2672 0.6733 0.3703
1.2017 0.7836 0.3702
1.1267 0.8875 0.3701
1.0425 0.9841 0.3700
0.9501 1.0728 0.3698
4.2849 5.8104 1.8631
3.7490 6.1698 1.8631
3.1832 6.4798 1.8631
2.5920 6.7382 1.8631
1.9801 6.9427 1.8631
1.3523 7.0917 1.8631
0.7138 7.1841 1.8631
0.0695 7.2192 1.8631
-0.5752 7.1966 1.8631
-1.2154 7.1165 1.8631
-1.8459 6.9795 1.8631
-2.4617 6.7868 1.8631
-3.0578 6.5400 1.8631
-3.6294 6.2409 1.8631
-4.1721 5.8919 1.8631
-0.9159 1.0753 0.3645
-1.0073 0.9883 0.3642
-1.0905 0.8936 0.3638
-1.1649 0.7920 0.3635
-1.2300 0.6842 0.3632
-1.2852 0.5713 0.3630
-1.3302 0.4539 0.3627
-1.3646 0.3332 0.3625
-1.3881 0.2099 0.3623
-1.4007 0.0851 0.3621
-1.4022 -0.0403 0.3620
-1.3926 -0.1653 0.3619
-1.3721 -0.2889 0.3618
-1.3407 -0.4102 0.3618
-1.2987 -0.5283 0.3618
-1.2465 -0.6422 0.3619
-1.1844 -0.7510 0.3619
-1.1129 -0.8540 0.3620
-1.0326 -0.9503 0.3621
-0.9440 -1.0391 0.3623
-4.3265 -5.7139 1.8496
-3.8018 -6.0817 1.8509
-3.2461 -6.4016 1.8523
-2.6636 -6.6709 1.8537
-2.0590 -6.8874 1.8552
-1.4370 -7.0494 1.8566
-0.8026 -7.1555 1.8582
-0.1607 -7.2047 1.8598
0.4836 -7.1963 1.8613
1.1251 -7.1303 1.8629
1.7574 -7.0024 1.8631
2.3755 -6.8175 1.8631
2.9747 -6.5782 1.8631
3.5502 -6.2863 1.8631
4.0972 -5.9443 1.8631
4.6115 -5.5548 1.8631
1.0048 -1.0111 0.3679
1.1293 -0.8140 0.3684
1.1984 -0.7105 0.3687
1.2580 -0.6012 0.3690
1.3076 -0.4868 0.3693
1.3467 -0.3683 0.3695
1.3749 -0.2468 0.3697
1.3921 -0.1231 0.3699
1.3981 0.0017 0.3700
1.3928 0.1265 0.3701
1.3762 0.2504 0.3702
1.3485 0.3723 0.3702
1.3099 0.4913 0.3702
1.2607 0.6062 0.3702
1.2014 0.7162 0.3702
1.1324 0.8204 0.3701
1.0543 0.9179 0.3700
0.9677 1.0080 0.3698
0.8734 1.0898 0.3696
3.8946 5.8646 1.8631
3.3555 6.1889 1.8631
2.7895 6.4638 1.8631
2.2013 6.6870 1.8631
1.5955 6.8568 1.8631
0.9770 6.9719 1.8631
0.3506 7.0313 1.8631
-0.2785 7.0345 1.8631
-0.9055 6.9815 1.8631
-1.5251 6.8728 1.8631
-2.1327 6.7092 1.8631
-2.7231 6.4920 1.8631
-3.2918 6.2230 1.8631
-3.8343 5.9042 1.8631
-0.8508 1.0841 0.3647
-0.9433 1.0029 0.3644
-1.0281 0.9139 0.3640
-1.1046 0.8177 0.3637
-1.1723 0.7153 0.3634
-1.2305 0.6073 0.3632
-1.2789 0.4946 0.3629
-1.3172 0.3783 0.3627
-1.3449 0.2590 0.3625
-1.3621 0.1378 0.3623
-1.3684 0.0157 0.3622
-1.3639 -0.1065 0.3621
-1.3487 -0.2278 0.3620
-1.3228 -0.3473 0.3619
-1.2864 -0.4640 0.3619
-1.2399 -0.5770 0.3619
-1.1836 -0.6855 0.3620
-1.1180 -0.7886 0.3621
-1.0434 -0.8855 0.3622
-0.9606 -0.9755 0.3623
-0.8701 -1.0579 0.3625
-3.9417 -5.7755 1.8505
-3.4127 -6.1086 1.8518
-2.8558 -6.3936 1.8532
-2.2753 -6.6280 1.8546
-1.6758 -6.8101 1.8561
-1.0620 -6.9381 1.8576
-0.4387 -7.0109 1.8591
0.1892 -7.0279 1.8606
0.8165 -6.9886 1.8621
1.4380 -6.8916 1.8631
2.0475 -6.7357 1.8631
2.6407 -6.5260 1.8631
3.2128 -6.2641 1.8631
3.7592 -5.9523 1.8631
4.2756 -5.5929 1.8631
0.9389 -1.0240 0.3677
1.0275 -0.9369 0.3680
1.1080 -0.8422 0.3683
1.1798 -0.7405 0.3686
1.2421 -0.6327 0.3689
1.2946 -0.5196 0.3692
1.3367 -0.4022 0.3694
1.3680 -0.2815 0.3696
1.3884 -0.1583 0.3698
1.3975 -0.0337 0.3700
1.3954 0.0912 0.3701
1.3820 0.2155 0.3702
1.3575 0.3381 0.3702
1.3219 0.4579 0.3702
1.2757 0.5741 0.3702
1.2192 0.6856 0.3702
1.1529 0.7916 0.3701
1.0773 0.8910 0.3700
0.9930 0.9833 0.3698
0.9009 1.0675 0.3697
4.0419 5.7641 1.8631
3.5111 6.1019 1.8631
2.9523 6.3910 1.8631
2.3700 6.6291 1.8631
1.7687 6.8142 1.8631
1.1532 6.9449 1.8631
0.5286 7.0201 1.8631
-0.1002 7.0393 1.8631
-0.7283 7.0022 1.8631
-1.3506 6.9092 1.8631
-1.9620 6.7611 1.8631
-2.5578 6.5589 1.8631
-3.1331 6.3043 1.8631
-3.6835 5.9994 1.8631
-4.2044 5.6466 1.8631
-0.9178 1.0267 0.3645
-1.0049 0.9398 0.3641
-1.0838 0.8456 0.3638
-1.1540 0.7449 0.3635
-1.2150 0.6384 0.3632
-1.2662 0.5270 0.3630
-1.3074 0.4116 0.3627
-1.3381 0.2930 0.3625
-1.3583 0.1723 0.3624
-1.3677 0.0503 0.3622
-1.3663 -0.0719 0.3621
-1.3541 -0.1936 0.3620
-1.3312 -0.3137 0.3619
-1.2978 -0.4312 0.3619
-1.2541 -0.5454 0.3619
-1.2005 -0.6552 0.3620
-1.1375 -0.7600 0.3620
-1.0654 -0.8587 0.3621
-0.9849 -0.9508 0.3623
-0.8965 -1.0354 0.3624
-4.0859 -5.6726 1.8502
-3.5656 -6.0190 1.8515
-3.0162 -6.3179 1.8528
-2.4419 -6.5668 1.8542
-1.8473 -6.7639 1.8556
-1.2371 -6.9074 1.8571
-0.6160 -6.9959 1.8586
0.0111 -7.0288 1.8602
0.6391 -7.0055 1.8617
1.2630 -6.9258 1.8631
1.8762 -6.7854 1.8631
2.4745 -6.5908 1.8631
3.0531 -6.3435 1.8631
3.6072 -6.0456 1.8631
4.1325 -5.6994 1.8631
0.9124 -1.0471 0.3676
1.0032 -0.9624 0.3679
1.0861 -0.8698 0.3682
1.1604 -0.7700 0.3686
1.2255 -0.6638 0.3688
1.2808 -0.5522 0.3691
1.3258 -0.4359 0.3694
1.3602 -0.3160 0.3696
1.3837 -0.1934 0.3698
1.3961 -0.0691 0.3699
1.3972 0.0558 0.3701
1.3870 0.1804 0.3702
1.3655 0.3036 0.3702
1.3331 0.4243 0.3702
1.2899 0.5416 0.3702
1.2363 0.6545 0.3702
1.1727 0.7621 0.3701
1.0996 0.8635 0.3700
1.0177 0.9579 0.3699
0.9277 1.0445 0.3697
4.1866 5.6599 1.8631
3.6646 6.0110 1.8631
3.1133 6.3142 1.8631
2.5371 6.5669 1.8631
1.9407 6.7672 1.8631
1.3288 6.9134 1.8631
0.7063 7.0045 1.8631
0.0781 7.0396 1.8631
-0.5507 7.0184 1.8631
-1.1751 6.9412 1.8631
-1.7901 6.8086 1.8631
-2.3908 6.6216 1.8631
-2.9724 6.3817 1.8631
-3.5303 6.0908 1.8631
-4.0600 5.7513 1.8631
-0.8917 1.0500 0.3646
-0.9810 0.9652 0.3642
-1.0623 0.8730 0.3639
-1.1351 0.7741 0.3636
-1.1987 0.6691 0.3633
-1.2527 0.5590 0.3630
-1.2968 0.4446 0.3628
-1.3305 0.3269 0.3626
-1.3537 0.2067 0.3624
-1.3661 0.0850 0.3622
-1.3678 -0.0373 0.3621
-1.3586 -0.1592 0.3620
-1.3387 -0.2798 0.3620
-1.3083 -0.3982 0.3619
-1.2675 -0.5134 0.3619
-1.2167 -0.6246 0.3620
-1.1563 -0.7309 0.3620
-1.0867 -0.8314 0.3621
-1.0085 -0.9254 0.3622
-0.9223 -1.0122 0.3624
-4.2275 -5.5663 1.8498
-3.7162 -5.9255 1.8511
-3.1746 -6.2381 1.8524
-2.6070 -6.5015 1.8538
-2.0176 -6.7134 1.8552
-1.4114 -6.8722 1.8567
-0.7928 -6.9765 1.8582
-0.1669 -7.0252 1.8597
0.4613 -7.0178 1.8613
1.0869 -6.9542 1.8628
1.7038 -6.8307 1.8631
2.3068 -6.6513 1.8631
2.8914 -6.4188 1.8631
3.4529 -6.1350 1.8631
3.9869 -5.8023 1.8631
0.8854 -1.0696 0.3675
0.9782 -0.9872 0.3678
1.0634 -0.8968 0.3681
1.1402 -0.7989 0.3685
1.2080 -0.6945 0.3688
1.2661 -0.5843 0.3690
1.3141 -0.4693 0.3693
1.3516 -0.3503 0.3695
1.3782 -0.2283 0.3697
1.3937 -0.1044 0.3699
1.3980 0.0204 0.3700
1.3910 0.1452 0.3701
1.3727 0.2689 0.3702
1.3434 0.3904 0.3702
1.3032 0.5088 0.3702
1.2525 0.6230 0.3702
1.1917 0.7322 0.3702
1.1212 0.8355 0.3701
1.0418 0.9319 0.3699
0.9540 1.0208 0.3698
0.8586 1.1013 0.3696
3.8157 5.9163 1.8631
3.2722 6.2333 1.8631
2.7027 6.5006 1.8631
2.1115 6.7159 1.8631
1.5035 6.8776 1.8631
0.8835 6.9844 1.8631
0.2564 7.0353 1.8631
-0.3727 7.0301 1.8631
-0.9989 6.9688 1.8631
-1.6171 6.8518 1.8631
-2.2223 6.6800 1.8631
-2.8098 6.4549 1.8631
-3.3749 6.1783 1.8631
-3.9130 5.8523 1.8631
-0.8651 1.0725 0.3647
-0.9565 0.9900 0.3643
-1.0401 0.8999 0.3640
-1.1153 0.8027 0.3637
-1.1816 0.6994 0.3634
-1.2384 0.5907 0.3631
-1.2853 0.4774 0.3629
-1.3220 0.3605 0.3626
-1.3482 0.2410 0.3625
-1.3637 0.1196 0.3623
-1.3684 -0.0027 0.3621
-1.3623 -0.1248 0.3620
-1.3454 -0.2459 0.3620
-1.3180 -0.3649 0.3619
-1.2801 -0.4811 0.3619
-1.2321 -0.5935 0.3619
-1.1744 -0.7013 0.3620
-1.1073 -0.8035 0.3621
-1.0315 -0.8995 0.3622
-0.9475 -0.9884 0.3623
-0.8559 -1.0696 0.3625
-3.8644 -5.8283 1.8507
-3.3309 -6.1545 1.8520
-2.7702 -6.4320 1.8534
-2.1866 -6.6587 1.8548
-1.5846 -6.8327 1.8563
-0.9691 -6.9525 1.8578
-0.3448 -7.0170 1.8593
0.2833 -7.0256 1.8608
0.9102 -6.9779 1.8624
1.5302 -6.8717 1.8631
2.1376 -6.7076 1.8631
2.7279 -6.4900 1.8631
3.2964 -6.2206 1.8631
3.8386 -5.9014 1.8631
4.3501 -5.5351 1.8631
0.9527 -1.0114 0.3677
1.0401 -0.9232 0.3681
1.1194 -0.8274 0.3684
1.1897 -0.7247 0.3687
1.2506 -0.6161 0.3690
1.3016 -0.5023 0.3692
1.3421 -0.3843 0.3695
1.3718 -0.2631 0.3697
1.3905 -0.1397 0.3698
1.3979 -0.0150 0.3700
1.3941 0.1099 0.3701
1.3791 0.2340 0.3702
1.3528 0.3562 0.3702
1.3157 0.4756 0.3702
1.2679 0.5911 0.3702
1.2099 0.7019 0.3702
1.1421 0.8069 0.3701
1.0652 0.9053 0.3700
0.9797 0.9964 0.3698
0.8864 1.0794 0.3696
3.9643 5.8177 1.8631
3.4291 6.1484 1.8631
2.8665 6.4300 1.8631
2.2810 6.6602 1.8631
1.6772 6.8373 1.8631
1.0601 6.9597 1.8631
0.4345 7.0266 1.8631
-0.1945 7.0373 1.8631
-0.8220 6.9918 1.8631
-1.4430 6.8905 1.8631
-2.0524 6.7342 1.8631
-2.6454 6.5241 1.8631
-3.2173 6.2618 1.8631
-3.7635 5.9496 1.8631
-0.8379 1.0944 0.3648
-0.9313 1.0142 0.3644
-1.0172 0.9262 0.3641
-1.0949 0.8309 0.3638
-1.1638 0.7293 0.3635
-1.2233 0.6220 0.3632
-1.2730 0.5099 0.3629
-1.3127 0.3940 0.3627
-1.3418 0.2751 0.3625
-1.3604 0.1541 0.3623
-1.3682 0.0320 0.3622
-1.3651 -0.0902 0.3621
-1.3513 -0.2117 0.3620
-1.3268 -0.3315 0.3619
-1.2919 -0.4486 0.3619
-1.2467 -0.5621 0.3619
-1.1917 -0.6713 0.3620
-1.1272 -0.7752 0.3621
-1.0539 -0.8730 0.3622
-0.9721 -0.9639 0.3623
-0.8826 -1.0474 0.3625
-4.0100 -5.7275 1.8504
-3.4851 -6.0669 1.8517
-2.9317 -6.3584 1.8530
-2.3540 -6.5997 1.8544
-1.7568 -6.7888 1.8559
-1.1446 -6.9242 1.8574
-0.5223 -7.0044 1.8589
0.1053 -7.0289 1.8604
0.7330 -6.9971 1.8619
1.3556 -6.9083 1.8631
1.9670 -6.7596 1.8631
2.5626 -6.5570 1.8631
3.1378 -6.3021 1.8631
3.6879 -5.9967 1.8631
4.2085 -5.6436 1.8631
0.9265 -1.0350 0.3676
1.0161 -0.9490 0.3680
1.0978 -0.8552 0.3683
1.1707 -0.7545 0.3686
1.2344 -0.6474 0.3689
1.2882 -0.5350 0.3692
1.3317 -0.4182 0.3694
1.3645 -0.2978 0.3696
1.3863 -0.1748 0.3698
1.3970 -0.0504 0.3699
1.3964 0.0746 0.3701
1.3845 0.1990 0.3702
1.3614 0.3218 0.3702
1.3273 0.4421 0.3702
1.2825 0.5588 0.3702
1.2273 0.6710 0.3702
1.1623 0.7778 0.3701
1.0879 0.8782 0.3700
1.0048 0.9714 0.3699
0.9136 1.0567 0.3697
4.1104 5.7154 1.8631
3.5837 6.0596 1.8631
3.0284 6.3553 1.8631
2.4490 6.6003 1.8631
1.8499 6.7926 1.8631
1.2361 6.9306 1.8631
0.6124 7.0133 1.8631
-0.0162 7.0400 1.8631
-0.6447 7.0104 1.8631
-1.2680 6.9249 1.8631
-1.8812 6.7840 1.8631
-2.4793 6.5890 1.8631
-3.0577 6.3413 1.8631
-3.6116 6.0430 1.8631
-4.1367 5.6964 1.8631
-0.9056 1.0378 0.3645
-0.9937 0.9519 0.3642
-1.0738 0.8586 0.3639
-1.1452 0.7587 0.3635
-1.2074 0.6529 0.3633
-1.2600 0.5421 0.3630
-1.3025 0.4272 0.3628
-1.3346 0.3090 0.3626
-1.3562 0.1885 0.3624
-1.3671 0.0667 0.3622
-1.3671 -0.0556 0.3621
-1.3563 -0.1774 0.3620
-1.3348 -0.2977 0.3619
-1.3028 -0.4157 0.3619
-1.2605 -0.5304 0.3619
-1.2083 -0.6408 0.3620
-1.1464 -0.7463 0.3620
-1.0755 -0.8459 0.3621
-0.9961 -0.9389 0.3623
-0.9087 -1.0245 0.3624
-4.1530 -5.6230 1.8500
-3.6369 -5.9754 1.8513
-3.0911 -6.2808 1.8526
-2.5199 -6.5366 1.8540
-1.9278 -6.7406 1.8554
-1.3193 -6.8914 1.8569
-0.6994 -6.9873 1.8584
-0.0728 -7.0276 1.8600
0.5553 -7.0118 1.8615
1.1801 -6.9399 1.8630
1.7951 -6.8073 1.8631
2.3957 -6.6198 1.8631
2.9771 -6.3795 1.8631
3.5348 -6.0883 1.8631
4.0642 -5.7484 1.8631
0.8997 -1.0578 0.3675
0.9915 -0.9742 0.3679
1.0755 -0.8826 0.3682
1.1510 -0.7837 0.3685
1.2173 -0.6783 0.3688
1.2740 -0.5674 0.3691
1.3204 -0.4517 0.3693
1.3563 -0.3322 0.3695
1.3812 -0.2099 0.3697
1.3951 -0.0858 0.3699
1.3977 0.0391 0.3700
1.3890 0.1638 0.3701
1.3691 0.2872 0.3702
1.3381 0.4083 0.3702
1.2963 0.5262 0.3702
1.2440 0.6397 0.3702
1.1817 0.7481 0.3701
1.1099 0.8504 0.3700
1.0292 0.9457 0.3699
0.9402 1.0334 0.3697
4.2539 5.6095 1.8631
3.7361 5.9669 1.8631
3.1885 6.2766 1.8631
2.6154 6.5362 1.8631
2.0214 6.7436 1.8631
1.4112 6.8971 1.8631
0.7898 6.9955 1.8631
0.1621 7.0381 1.8631
-0.4669 7.0245 1.8631
-1.0922 6.9548 1.8631
-1.7087 6.8295 1.8631
-2.3116 6.6497 1.8631
-2.8960 6.4167 1.8631
-3.4574 6.1325 1.8631
-3.9911 5.7994 1.8631
-0.8792 1.0607 0.3646
-0.9695 0.9770 0.3643
-1.0519 0.8858 0.3639
-1.1259 0.7876 0.3636
-1.1907 0.6834 0.3633
-1.2461 0.5740 0.3631
-1.2915 0.4601 0.3628
-1.3266 0.3428 0.3626
-1.3512 0.2228 0.3624
-1.3651 0.1013 0.3623
-1.3682 -0.0210 0.3621
-1.3605 -0.1430 0.3620
-1.3420 -0.2638 0.3620
-1.3129 -0.3826 0.3619
-1.2735 -0.4983 0.3619
-1.2241 -0.6100 0.3619
-1.1649 -0.7170 0.3620
-1.0965 -0.8183 0.3621
-1.0194 -0.9133 0.3622
-0.9342 -1.0010 0.3624
-0.8415 -1.0810 0.3626
-3.7863 -5.8802 1.8509
-3.2485 -6.1992 1.8522
-2.6841 -6.4693 1.8536
-2.0974 -6.6881 1.8550
-1.4931 -6.8542 1.8565
-0.8760 -6.9657 1.8580
-0.2507 -7.0219 1.8595
0.3775 -7.0220 1.8611
1.0037 -6.9660 1.8626
1.6221 -6.8506 1.8631
2.2272 -6.6784 1.8631
2.8146 -6.4529 1.8631
3.3794 -6.1758 1.8631
3.9173 -5.8495 1.8631
0.8724 -1.0800 0.3674
0.9663 -0.9987 0.3678
1.0525 -0.9093 0.3681
1.1305 -0.8124 0.3684
1.1995 -0.7088 0.3687
1.2589 -0.5993 0.3690
1.3083 -0.4849 0.3693
1.3472 -0.3664 0.3695
1.3753 -0.2448 0.3697
1.3923 -0.1211 0.3699
1.3981 0.0037 0.3700
1.3926 0.1286 0.3701
1.3758 0.2524 0.3702
1.3480 0.3743 0.3702
1.3092 0.4932 0.3702
1.2598 0.6080 0.3702
1.2003 0.7180 0.3702
1.1312 0.8221 0.3701
1.0529 0.9195 0.3699
0.9662 1.0094 0.3698
0.8718 1.0911 0.3696
3.8860 5.8703 1.8631
3.3464 6.1938 1.8631
2.7801 6.4678 1.8631
2.1915 6.6902 1.8631
1.5855 6.8591 1.8631
0.9668 6.9733 1.8631
0.3404 7.0318 1.8631
-0.2888 7.0341 1.8631
-0.9156 6.9802 1.8631
-1.5351 6.8706 1.8631
-2.1424 6.7061 1.8631
-2.7326 6.4880 1.8631
-3.3009 6.2182 1.8631
-3.8429 5.8986 1.8631
-0.8523 1.0829 0.3647
-0.9447 1.0015 0.3644
-1.0294 0.9123 0.3640
-1.1058 0.8161 0.3637
-1.1733 0.7135 0.3634
-1.2314 0.6055 0.3632
-1.2796 0.4928 0.3629
-1.3177 0.3763 0.3627
-1.3453 0.2571 0.3625
-1.3622 0.1358 0.3623
-1.3684 0.0137 0.3622
-1.3637 -0.1085 0.3621
-1.3483 -0.2298 0.3620
-1.3222 -0.3492 0.3619
-1.2857 -0.4658 0.3619
-1.2391 -0.5788 0.3619
-1.1826 -0.6872 0.3620
-1.1168 -0.7902 0.3621
-1.0421 -0.8871 0.3622
-0.9592 -0.9769 0.3623
-0.8685 -1.0592 0.3625
-3.9333 -5.7813 1.8505
-3.4039 -6.1137 1.8519
-2.8465 -6.3978 1.8532
-2.2657 -6.6314 1.8546
-1.6659 -6.8126 1.8561
-1.0519 -6.9397 1.8576
-0.4285 -7.0117 1.8591
0.1994 -7.0277 1.8606
0.8267 -6.9875 1.8622
1.4480 -6.8895 1.8631
2.0573 -6.7327 1.8631
2.6502 -6.5221 1.8631
3.2218 -6.2595 1.8631
3.7679 -5.9468 1.8631
4.2838 -5.5867 1.8631
0.9404 -1.0226 0.3677
1.0289 -0.9354 0.3680
1.1093 -0.8406 0.3683
1.1809 -0.7388 0.3686
1.2431 -0.6309 0.3689
1.2954 -0.5178 0.3692
1.3373 -0.4003 0.3694
1.3684 -0.2795 0.3696
1.3886 -0.1563 0.3698
1.3976 -0.0317 0.3700
1.3953 0.0933 0.3701
1.3817 0.2175 0.3702
1.3570 0.3400 0.3702
1.3213 0.4599 0.3702
1.2749 0.5760 0.3702
1.2182 0.6874 0.3702
1.1517 0.7932 0.3701
1.0760 0.8926 0.3700
0.9916 0.9847 0.3698
0.8993 1.0688 0.3697
4.0335 5.7700 1.8631
3.5023 6.1070 1.8631
2.9431 6.3953 1.8631
2.3603 6.6325 1.8631
1.7588 6.8168 1.8631
1.1431 6.9466 1.8631
0.5184 7.0209 1.8631
-0.1105 7.0391 1.8631
-0.7385 7.0011 1.8631
-1.3606 6.9072 1.8631
-1.9719 6.7582 1.8631
-2.5673 6.5552 1.8631
-3.1423 6.2998 1.8631
-3.6922 5.9941 1.8631
-4.2126 5.6405 1.8631
-0.9193 1.0254 0.3645
-1.0062 0.9384 0.3641
-1.0850 0.8440 0.3638
-1.1551 0.7432 0.3635
-1.2159 0.6366 0.3632
-1.2670 0.5251 0.3630
-1.3080 0.4097 0.3627
-1.3386 0.2911 0.3625
-1.3585 0.1703 0.3624
-1.3677 0.0483 0.3622
-1.3662 -0.0739 0.3621
-1.3538 -0.1956 0.3620
-1.3307 -0.3156 0.3619
-1.2971 -0.4331 0.3619
-1.2533 -0.5472 0.3619
-1.1996 -0.6570 0.3620
-1.1364 -0.7616 0.3620
-1.0642 -0.8603 0.3621
-0.9835 -0.9522 0.3623
-0.8949 -1.0367 0.3625
-4.0777 -5.6787 1.8502
-3.5569 -6.0243 1.8515
-3.0070 -6.3223 1.8528
-2.4324 -6.5705 1.8542
-1.8375 -6.7666 1.8557
-1.2271 -6.9093 1.8572
-0.6058 -6.9969 1.8587
0.0213 -7.0288 1.8602
0.6493 -7.0046 1.8617
1.2730 -6.9239 1.8631
1.8861 -6.7826 1.8631
2.4841 -6.5872 1.8631
3.0623 -6.3391 1.8631
3.6160 -6.0404 1.8631
4.1409 -5.6934 1.8631
0.9140 -1.0458 0.3676
1.0046 -0.9609 0.3679
1.0874 -0.8682 0.3682
1.1615 -0.7683 0.3686
1.2264 -0.6620 0.3688
1.2816 -0.5503 0.3691
1.3265 -0.4340 0.3694
1.3607 -0.3140 0.3696
1.3840 -0.1914 0.3698
1.3962 -0.0671 0.3699
1.3971 0.0579 0.3701
1.3867 0.1824 0.3702
1.3651 0.3055 0.3702
1.3325 0.4262 0.3702
1.2891 0.5435 0.3702
1.2353 0.6563 0.3702
1.1715 0.7639 0.3701
1.0984 0.8651 0.3700
1.0163 0.9594 0.3699
0.9262 1.0458 0.3697
4.1784 5.6660 1.8631
3.6558 6.0164 1.8631
3.1041 6.3187 1.8631
2.5276 6.5706 1.8631
1.9309 6.7701 1.8631
1.3187 6.9154 1.8631
0.6961 7.0055 1.8631
0.0678 7.0397 1.8631
-0.5609 7.0176 1.8631
-1.1852 6.9395 1.8631
-1.8001 6.8060 1.8631
-2.4005 6.6181 1.8631
-2.9817 6.3774 1.8631
-3.5392 6.0857 1.8631
-4.0684 5.7454 1.8631
-0.8932 1.0486 0.3646
-0.9824 0.9638 0.3642
-1.0636 0.8715 0.3639
-1.1362 0.7724 0.3636
-1.1996 0.6673 0.3633
-1.2535 0.5572 0.3630
-1.2974 0.4427 0.3628
-1.3310 0.3249 0.3626
-1.3540 0.2047 0.3624
-1.3662 0.0830 0.3622
-1.3677 -0.0393 0.3621
-1.3584 -0.1612 0.3620
-1.3383 -0.2818 0.3620
-1.3077 -0.4001 0.3619
-1.2668 -0.5153 0.3619
-1.2158 -0.6264 0.3620
-1.1552 -0.7325 0.3620
-1.0855 -0.8330 0.3621
-1.0072 -0.9269 0.3622
-0.9208 -1.0135 0.3624
-4.2194 -5.5725 1.8498
-3.7076 -5.9310 1.8511
-3.1656 -6.2428 1.8524
-2.5975 -6.5053 1.8538
-2.0079 -6.7164 1.8552
-1.4014 -6.8744 1.8567
-0.7827 -6.9777 1.8582
-0.1567 -7.0255 1.8598
0.4715 -7.0172 1.8613
1.0971 -6.9527 1.8628
1.7137 -6.8282 1.8631
2.3165 -6.6480 1.8631
2.9007 -6.4146 1.8631
3.4619 -6.1300 1.8631
3.9953 -5.7965 1.8631
0.8869 -1.0684 0.3675
0.9797 -0.9858 0.3678
1.1016 -0.7941 0.3684
1.1690 -0.6931 0.3687
1.2272 -0.5864 0.3689
1.2755 -0.4748 0.3692
1.3136 -0.3593 0.3694
1.3411 -0.2407 0.3696
1.3579 -0.1201 0.3698
1.3637 0.0017 0.3699
1.3585 0.1234 0.3700
1.3423 0.2443 0.3701
1.3153 0.3632 0.3701
1.2777 0.4792 0.3701
1.2297 0.5913 0.3701
1.1718 0.6986 0.3701
1.1045 0.8002 0.3700
1.0283 0.8954 0.3699
0.9439 0.9832 0.3697
0.8519 1.0630 0.3695
3.7998 5.7219 1.8631
3.2738 6.0383 1.8631
2.7216 6.3064 1.8631
2.1477 6.5242 1.8631
1.5567 6.6899 1.8631
0.9532 6.8022 1.8631
0.3421 6.8601 1.8631
-0.2718 6.8633 1.8631
-0.8834 6.8116 1.8631
-1.4880 6.7055 1.8631
-2.0807 6.5459 1.8631
-2.6568 6.3340 1.8631
-3.2117 6.0715 1.8631
-3.7410 5.7605 1.8631
-0.8301 1.0578 0.3647
-0.9204 0.9786 0.3644
-1.0032 0.8917 0.3641
-1.0779 0.7979 0.3638
-1.1439 0.6980 0.3635
-1.2008 0.5926 0.3632
-1.2481 0.4827 0.3630
-1.2854 0.3691 0.3628
-1.3125 0.2528 0.3626
-1.3292 0.1345 0.3624
-1.3354 0.0153 0.3623
-1.3311 -0.1040 0.3622
-1.3162 -0.2223 0.3621
-1.2909 -0.3389 0.3620
-1.2555 -0.4528 0.3620
-1.2101 -0.5631 0.3620
-1.1551 -0.6690 0.3621
-1.0910 -0.7696 0.3622
-1.0183 -0.8642 0.3623
-0.9374 -0.9520 0.3624
-0.8491 -1.0324 0.3626
-3.8461 -5.6354 1.8507
-3.3299 -5.9604 1.8520
-2.7865 -6.2383 1.8533
-2.2201 -6.4671 1.8547
-1.6351 -6.6446 1.8561
-1.0361 -6.7694 1.8576
-0.4280 -6.8403 1.8591
0.1846 -6.8567 1.8606
0.7966 -6.8183 1.8621
1.4030 -6.7238 1.8631
1.9977 -6.5717 1.8631
2.5764 -6.3671 1.8631
3.1346 -6.1117 1.8631
3.6677 -5.8074 1.8631
0.8223 -1.0757 0.3673
0.9159 -0.9989 0.3676
1.0024 -0.9140 0.3680
1.0809 -0.8216 0.3683
1.1509 -0.7224 0.3686
1.2117 -0.6172 0.3689
1.2628 -0.5069 0.3691
1.3038 -0.3924 0.3693
1.3344 -0.2746 0.3695
1.3542 -0.1544 0.3697
1.3632 -0.0329 0.3699
1.3611 0.0890 0.3700
1.3480 0.2102 0.3701
1.3241 0.3297 0.3701
1.2894 0.4467 0.3701
1.2443 0.5600 0.3701
1.1892 0.6687 0.3701
1.1245 0.7721 0.3700
1.0508 0.8691 0.3699
0.9686 0.9591 0.3697
0.8787 1.0413 0.3696
3.9435 5.6238 1.8631
3.4257 5.9534 1.8631
2.8805 6.2355 1.8631
2.3123 6.4677 1.8631
1.7256 6.6484 1.8631
1.1252 6.7758 1.8631
0.5157 6.8492 1.8631
-0.0978 6.8680 1.8631
-0.7106 6.8318 1.8631
-1.3177 6.7411 1.8631
-1.9143 6.5965 1.8631
-2.4955 6.3993 1.8631
-3.0569 6.1509 1.8631
-3.5938 5.8534 1.8631
-0.8033 1.0788 0.3648
-0.8955 1.0019 0.3645
-0.9805 0.9171 0.3642
-1.0576 0.8252 0.3639
-1.1261 0.7269 0.3636
-1.1856 0.6230 0.3633
-1.2357 0.5143 0.3630
-1.2758 0.4016 0.3628
-1.3059 0.2860 0.3626
-1.3256 0.1682 0.3624
-1.3347 0.0491 0.3623
-1.3334 -0.0702 0.3622
-1.3215 -0.1889 0.3621
-1.2991 -0.3061 0.3620
-1.2665 -0.4208 0.3620
-1.2239 -0.5322 0.3620
-1.1716 -0.6395 0.3621
-1.1101 -0.7417 0.3621
-1.0397 -0.8380 0.3622
-0.9611 -0.9279 0.3624
-0.8748 -1.0104 0.3625
-0.7815 -1.0850 0.3627
-3.4791 -5.8730 1.8516
-2.9430 -6.1645 1.8529
-2.3827 -6.4074 1.8543
-1.8025 -6.5996 1.8557
-1.2070 -6.7395 1.8572
-0.6010 -6.8257 1.8587
0.0108 -6.8576 1.8602
0.6235 -6.8348 1.8616
1.2322 -6.7571 1.8631
1.8306 -6.6202 1.8631
2.4143 -6.4303 1.8631
2.9788 -6.1891 1.8631
3.5194 -5.8985 1.8631
4.0320 -5.5607 1.8631
0.8901 -1.0215 0.3675
0.9787 -0.9388 0.3679
1.0595 -0.8485 0.3682
1.1319 -0.7511 0.3685
1.1954 -0.6475 0.3688
1.2493 -0.5386 0.3690
1.2933 -0.4252 0.3693
1.3268 -0.3082 0.3695
1.3497 -0.1886 0.3697
1.3617 -0.0674 0.3698
1.3628 0.0545 0.3700
1.3528 0.1760 0.3700
1.3319 0.2961 0.3701
1.3003 0.4139 0.3701
1.2581 0.5283 0.3701
1.2058 0.6384 0.3701
1.1438 0.7434 0.3700
1.0726 0.8423 0.3699
0.9927 0.9344 0.3698
0.9049 1.0188 0.3696
0.8099 1.0950 0.3694
3.5754 5.8647 1.8631
3.0375 6.1605 1.8631
2.4754 6.4071 1.8631
1.8935 6.6025 1.8631
1.2965 6.7452 1.8631
0.6891 6.8340 1.8631
0.0762 6.8682 1.8631
-0.5373 6.8476 1.8631
-1.1465 6.7723 1.8631
-1.7465 6.6429 1.8631
-2.3326 6.4604 1.8631
-2.9001 6.2263 1.8631
-3.4444 5.9426 1.8631
-3.9612 5.6113 1.8631
-0.8701 1.0245 0.3646
-0.9572 0.9419 0.3643
-1.0366 0.8519 0.3640
-1.1076 0.7553 0.3637
-1.1697 0.6529 0.3634
-1.2225 0.5455 0.3631
-1.2655 0.4339 0.3629
-1.2984 0.3190 0.3627
-1.3210 0.2017 0.3625
-1.3332 0.0829 0.3623
-1.3348 -0.0364 0.3622
-1.3259 -0.1554 0.3621
-1.3065 -0.2731 0.3621
-1.2768 -0.3886 0.3620
-1.2370 -0.5011 0.3620
-1.1874 -0.6095 0.3621
-1.1285 -0.7133 0.3621
-1.0605 -0.8114 0.3622
-0.9842 -0.9031 0.3623
-0.9000 -0.9878 0.3625
-0.8087 -1.0647 0.3627
