-0.9479135870933533 -0.20039580762386322 0.3684902787208557
-0.9259514212608337 -0.28412315249443054 0.36837494373321533
-0.896561324596405 -0.36551061272621155 0.3682406544685364
-0.8599996566772461 -0.4439058303833008 0.36808866262435913
-0.8165713548660278 -0.5186588764190674 0.36792051792144775
-0.7666283249855042 -0.5891854166984558 0.36773741245269775
-0.7105941772460938 -0.6549225449562073 0.3675408959388733
-0.6489218473434448 -0.7153328061103821 0.3673323094844818
-0.5821255445480347 -0.7699425220489502 0.3671136498451233
-0.5107651948928833 -0.8183297514915466 0.36688658595085144
-0.4353969097137451 -0.8601075410842896 0.36665311455726624
-0.3566451966762543 -0.8949593901634216 0.3664150834083557
-0.27515169978141785 -0.922608494758606 0.36617401242256165
-0.19157280027866364 -0.9428674578666687 0.36593231558799744
-0.10656699538230896 -0.9555761218070984 0.3656916618347168
-0.020827483385801315 -0.9606547355651855 0.3654542565345764
0.06496280431747437 -0.9580656290054321 0.3652215600013733
0.15014147758483887 -0.9478564262390137 0.36499571800231934
0.23401495814323425 -0.9301134943962097 0.36477842926979065
0.31592532992362976 -0.9049955606460571 0.364571213722229
0.3952372968196869 -0.8727188110351562 0.3643760681152344
0.4713332951068878 -0.8335354328155518 0.3641943335533142
0.543603777885437 -0.7877677083015442 0.3640272319316864
0.6115031242370605 -0.7357989549636841 0.3638763427734375
0.6744921803474426 -0.6780195236206055 0.36374250054359436
0.7320935130119324 -0.6149088740348816 0.36362701654434204
0.7838558554649353 -0.5469619035720825 0.3635307252407074
0.8293747305870056 -0.47469860315322876 0.36345428228378296
0.8683082461357117 -0.3987135887145996 0.3633984327316284
0.9003445506095886 -0.3195762038230896 0.3633633255958557
0.925242006778717 -0.23792441189289093 0.36334943771362305
0.9428090453147888 -0.15437930822372437 0.36335691809654236
0.9528983235359192 -0.06961455941200256 0.3633856177330017
0.9554345607757568 0.015731848776340485 0.3634353578090668
0.9504077434539795 0.10097457468509674 0.3635055422782898
0.937831699848175 0.18546099960803986 0.3635958731174469
0.9178076982498169 0.26851025223731995 0.363705575466156
0.8904904723167419 0.34949928522109985 0.3638339042663574
0.856080174446106 0.4277664124965668 0.3639797866344452
0.8148365020751953 0.5027005076408386 0.36414214968681335
0.7670827507972717 0.5737057328224182 0.3643195927143097
0.7131810784339905 0.6402313709259033 0.364511102437973
0.6535557508468628 0.701728343963623 0.364714652299881
0.5886510610580444 0.7577153444290161 0.36492905020713806
0.5189746022224426 0.8077263236045837 0.3651525676250458
0.44508251547813416 0.8513742685317993 0.3653832972049713
0.3675447106361389 0.8882708549499512 0.3656195104122162
0.28697535395622253 0.9181421399116516 0.36585935950279236
0.20400238037109375 0.9407126903533936 0.36610105633735657
0.1192895844578743 0.9558013677597046 0.366342157125473
0.0335242822766304 0.9632592797279358 0.36658141016960144
-0.05264057219028473 0.9630237221717834 0.3668166995048523
-0.1384783834218979 0.9550814628601074 0.36704587936401367
-0.22331416606903076 0.9394651055335999 0.3672671318054199
-0.30646345019340515 0.9163169860839844 0.3674789369106293
-0.38724181056022644 0.8857800364494324 0.3676794469356537
-0.4650042951107025 0.8481040596961975 0.3678668141365051
-0.5391085743904114 0.8035876750946045 0.3680395483970642
-0.608950138092041 0.752574622631073 0.3681966960430145
-0.6739598512649536 0.6954804062843323 0.36833617091178894
-0.7335939407348633 0.632750928401947 0.3684576451778412
-0.7873587012290955 0.5648913979530334 0.36855942010879517
-0.8348321914672852 0.492462158203125 0.36864104866981506
-0.8755975961685181 0.4160442352294922 0.3687017858028412
-0.9093456864356995 0.336255818605423 0.36874082684516907
-0.9357712864875793 0.25375017523765564 0.3687583804130554
-0.9546782374382019 0.16920356452465057 0.36875396966934204
-0.9659039378166199 0.08330203592777252 0.3687277138233185
-0.9693536758422852 -0.0032485579140484333 0.36867964267730713
-0.9650100469589233 -0.08975677192211151 0.36861053109169006
-0.9529146552085876 -0.17549125850200653 0.36852049827575684
-0.93316251039505 -0.2597786486148834 0.3684106469154358
-0.9059301614761353 -0.3419247269630432 0.36828184127807617
-0.8714513182640076 -0.4212580919265747 0.3681350648403168
-0.8299983739852905 -0.4971526265144348 0.3679714798927307
-0.7819200158119202 -0.5689824819564819 0.36779266595840454
-0.7276244163513184 -0.6361722946166992 0.3675997853279114
-0.6675585508346558 -0.6981919407844543 0.3673945665359497
-0.6022216081619263 -0.7545555233955383 0.3671787977218628
-0.5321362018585205 -0.8048091530799866 0.3669540286064148
-0.4578784704208374 -0.8485575914382935 0.36672210693359375
-0.3800579607486725 -0.8854714035987854 0.3664851188659668
-0.29929518699645996 -0.9152690768241882 0.3662447929382324
-0.21625548601150513 -0.937706708908081 0.3660030961036682
-0.1315985769033432 -0.9526380896568298 0.36576202511787415
-0.04600902274250984 -0.9599632024765015 0.3655233681201935
0.03984638303518295 -0.9596182107925415 0.3652891516685486
0.12526507675647736 -0.9516332745552063 0.3650611937046051
0.20958858728408813 -0.936090886592865 0.3648409843444824
0.2921474277973175 -0.9131213426589966 0.36463087797164917
0.37228119373321533 -0.8829104900360107 0.36443206667900085
0.4493849575519562 -0.8457258343696594 0.3642462193965912
0.522838830947876 -0.8018471598625183 0.36407470703125
0.5920761227607727 -0.75166255235672 0.3639187514781952
0.656559944152832 -0.69553542137146 0.3637799024581909
0.7157852053642273 -0.6339423060417175 0.3636590540409088
0.7693095207214355 -0.5673583745956421 0.36355680227279663
0.8166932463645935 -0.4963074326515198 0.363474577665329
0.8575906157493591 -0.42134925723075867 0.36341261863708496
0.8916810154914856 -0.34307318925857544 0.36337143182754517
0.9186903834342957 -0.2620934545993805 0.363351434469223
0.9384196400642395 -0.1790376603603363 0.3633526563644409
0.9507161974906921 -0.09455806761980057 0.3633749186992645
0.9554824829101562 -0.009311752393841743 0.3634185791015625
0.9526607990264893 0.07602714002132416 0.36348265409469604
0.9422925114631653 0.16080348193645477 0.3635673522949219
0.9244451522827148 0.24434635043144226 0.36367157101631165
0.8992498517036438 0.3259999752044678 0.3637945353984833
0.8668878674507141 0.40512511134147644 0.3639352321624756
0.8276250958442688 0.48110315203666687 0.3640928566455841
0.7817426323890686 0.5533279180526733 0.364266037940979
0.7296000719070435 0.6212213635444641 0.36445358395576477
0.6716092824935913 0.6842492818832397 0.364653617143631
0.6081969141960144 0.7418900728225708 0.36486509442329407
0.5398733615875244 0.793705403804779 0.3650861978530884
0.467162162065506 0.8392555117607117 0.36531493067741394
0.39062827825546265 0.8781734108924866 0.36554962396621704
0.31088125705718994 0.910129964351654 0.36578887701034546
0.22854262590408325 0.9348573088645935 0.3660299479961395
0.14427508413791656 0.9521602392196655 0.36627164483070374
0.0587434358894825 0.961871325969696 0.36651182174682617
-0.027367781847715378 0.9638906717300415 0.3667483329772949
-0.11338073760271072 0.9582018852233887 0.36697936058044434
-0.19857925176620483 0.9448341131210327 0.3672032058238983
-0.28229719400405884 0.9238759875297546 0.3674179017543793
-0.3638353645801544 0.8954828977584839 0.3676217496395111
-0.4425509572029114 0.8598772287368774 0.36781325936317444
-0.5177966356277466 0.8173363208770752 0.3679904043674469
-0.5889490246772766 0.7681813836097717 0.36815229058265686
-0.6554252505302429 0.7128270268440247 0.36829710006713867
-0.7166900634765625 0.6516988277435303 0.3684239089488983
-0.7722297310829163 0.5852936506271362 0.36853164434432983
-0.8215834498405457 0.5141404867172241 0.36861908435821533
-0.8643606305122375 0.43883657455444336 0.3686861991882324
-0.9001932144165039 0.3599605858325958 0.36873167753219604
-0.9287949204444885 0.27818796038627625 0.3687554895877838
-0.9499229192733765 0.1941702961921692 0.3687574565410614
-0.9634149670600891 0.10859367251396179 0.3687376379966736
-0.9691485166549683 0.022161521017551422 0.3686959743499756
-0.9670925736427307 -0.06443572789430618 0.3686329424381256
-0.9572612047195435 -0.15046927332878113 0.3685491979122162
-0.9397419691085815 -0.23525932431221008 0.3684449791908264
-0.9146825671195984 -0.31810030341148376 0.3683215379714966
-0.8822968602180481 -0.39832940697669983 0.36817991733551025
-0.8428547382354736 -0.47529301047325134 0.3680212199687958
-0.7966849207878113 -0.5483739376068115 0.36784666776657104
-0.7441732883453369 -0.6169779896736145 0.3676576018333435
-0.685745358467102 -0.6805698275566101 0.36745575070381165
-0.6218917965888977 -0.7386434078216553 0.3672430217266083
-0.5531402230262756 -0.7907238602638245 0.36702054738998413
-0.4800468981266022 -0.8364244103431702 0.366790771484375
-0.4032040238380432 -0.875375509262085 0.3665551543235779
-0.32324475049972534 -0.9072808623313904 0.36631545424461365
-0.2408067286014557 -0.931898832321167 0.3660740554332733
-0.15655376017093658 -0.9490481615066528 0.36583250761032104
-0.07116176187992096 -0.9586086869239807 0.36559295654296875
0.014682464301586151 -0.9605081677436829 0.36535733938217163
0.10030502080917358 -0.9547653198242188 0.36512723565101624
0.1850159764289856 -0.9414253234863281 0.3649047911167145
0.2681533694267273 -0.9206117987632751 0.36469146609306335
0.34907791018486023 -0.892505943775177 0.3644891381263733
0.4271257817745209 -0.8573353290557861 0.36429914832115173
0.501710832118988 -0.8153896331787109 0.36412322521209717
0.5722423791885376 -0.767013430595398 0.363962858915329
0.6381686329841614 -0.7125824689865112 0.3638186454772949
0.6989943385124207 -0.6525396108627319 0.36369261145591736
0.7542346715927124 -0.5873701572418213 0.3635849058628082
0.8034521341323853 -0.5175706148147583 0.36349669098854065
0.8462873697280884 -0.4436994194984436 0.36342865228652954
0.88239985704422 -0.36633726954460144 0.3633813261985779
0.9115163683891296 -0.28608471155166626 0.3633551001548767
0.9334031343460083 -0.20357322692871094 0.3633500635623932
0.947894811630249 -0.11944019049406052 0.3633660674095154
0.9548650979995728 -0.03435405716300011 0.3634036183357239
0.954278826713562 0.05102981626987457 0.3634619116783142
0.9461137056350708 0.13604114949703217 0.36354050040245056
0.930444598197937 0.22001510858535767 0.36363890767097473
0.9073877334594727 0.3022833466529846 0.36375656723976135
0.8771117925643921 0.3822217583656311 0.36389219760894775
0.8398391604423523 0.45918744802474976 0.36404508352279663
0.795864462852478 0.5325732827186584 0.36421385407447815
0.7455188632011414 0.601789653301239 0.364397257566452
0.6891926527023315 0.6662973761558533 0.3645938038825989
0.6273266673088074 0.7255736589431763 0.3648020923137665
0.5603861212730408 0.7791422605514526 0.36502042412757874
0.48890239000320435 0.8265697956085205 0.3652471899986267
0.4134315252304077 0.8674692511558533 0.36548033356666565
0.3345606029033661 0.9014925360679626 0.36571836471557617
0.25292518734931946 0.9283706545829773 0.36595916748046875
0.169149249792099 0.9478633403778076 0.36620086431503296
0.08391261845827103 0.959815502166748 0.36644163727760315
-0.002102508442476392 0.9640997648239136 0.3666793704032898
-0.0882069393992424 0.9606711864471436 0.36691221594810486
-0.1737131029367447 0.9495473504066467 0.3671383559703827
-0.2579423785209656 0.9308021068572998 0.36735594272613525
-0.3401903510093689 0.9045693874359131 0.3675631582736969
-0.4198017120361328 0.8710567951202393 0.36775848269462585
-0.49613142013549805 0.8305142521858215 0.3679400682449341
-0.5685423612594604 0.7832615971565247 0.36810651421546936
-0.6364476680755615 0.7296784520149231 0.36825650930404663
-0.699290931224823 0.6701957583427429 0.36838865280151367
-0.756560742855072 0.6052826046943665 0.36850205063819885
-0.8077825903892517 0.535466730594635 0.36859557032585144
-0.8525205254554749 0.4613072872161865 0.36866867542266846
-0.8904242515563965 0.3834187090396881 0.3687203824520111
-0.9211696982383728 0.3024318218231201 0.36875075101852417
-0.9445141553878784 0.21899813413619995 0.3687591552734375
-0.960260272026062 0.13380779325962067 0.36874571442604065
-0.9682730436325073 0.04754916951060295 0.36871030926704407
-0.968498945236206 -0.03906841203570366 0.3686535656452179
-0.9609469175338745 -0.12533728778362274 0.36857572197914124
-0.9456684589385986 -0.21056002378463745 0.368477463722229
-0.9227985739707947 -0.29404598474502563 0.36835968494415283
-0.8925350904464722 -0.37510597705841064 0.36822324991226196
-0.8551279306411743 -0.45309504866600037 0.36806944012641907
-0.8108969926834106 -0.5273759365081787 0.3678993284702301
-0.760200560092926 -0.5973568558692932 0.36771437525749207
-0.7034621834754944 -0.6624748706817627 0.36751630902290344
-0.6411572098731995 -0.7222113609313965 0.36730650067329407
-0.5737797617912292 -0.7761013507843018 0.367086797952652
-0.5019023418426514 -0.8237079977989197 0.3668588101863861
-0.42609724402427673 -0.8646706342697144 0.3666245937347412
-0.3469814956188202 -0.898666262626648 0.3663860857486725
-0.26519903540611267 -0.9254461526870728 0.3661450147628784
-0.18141140043735504 -0.9448011517524719 0.3659033179283142
-0.09628570079803467 -0.9565913677215576 0.36566299200057983
-0.010502586141228676 -0.9607519507408142 0.36542585492134094
0.07525508850812912 -0.9572452306747437 0.36519408226013184
0.1603110432624817 -0.9461176991462708 0.3649691641330719
0.24397696554660797 -0.9274768829345703 0.36475294828414917
0.325614869594574 -0.9014901518821716 0.36454710364341736
0.40456950664520264 -0.8683651685714722 0.36435362696647644
0.48022836446762085 -0.8283752202987671 0.3641732633113861
0.5520093441009521 -0.7818450927734375 0.3640081584453583
0.6193469762802124 -0.7291491627693176 0.36385923624038696
0.6817134022712708 -0.6707069277763367 0.36372771859169006
0.738632321357727 -0.6069835424423218 0.3636144995689392
0.7896652221679688 -0.5384892821311951 0.3635205030441284
0.8344136476516724 -0.4657513201236725 0.3634466528892517
0.8725295662879944 -0.3893570601940155 0.3633929491043091
0.9037211537361145 -0.30988436937332153 0.36336058378219604
0.9277468919754028 -0.22797110676765442 0.3633492887020111
0.9444215297698975 -0.14424598217010498 0.36335936188697815
0.9536060690879822 -0.05936244875192642 0.3633905053138733
0.9552356600761414 0.025998877361416817 0.36344268918037415
0.9492889046669006 0.11118137091398239 0.36351531744003296
0.935814619064331 0.19553649425506592 0.36360809206962585
0.9149065017700195 0.2783769965171814 0.3637200891971588
0.8867182731628418 0.35906603932380676 0.3638507127761841
0.8514723181724548 0.436960905790329 0.3639984130859375
0.8094357252120972 0.5114566683769226 0.36416274309158325
0.7609246373176575 0.5819512009620667 0.3643420338630676
0.7063084244728088 0.6479001641273499 0.3645349144935608
0.6460191011428833 0.7087607383728027 0.3647399842739105
0.5805143117904663 0.7640504240989685 0.36495542526245117
0.5103031992912292 0.8133169412612915 0.36518004536628723
0.4359416365623474 0.8561732172966003 0.3654113709926605
0.358000785112381 0.8922448754310608 0.36564818024635315
0.27710744738578796 0.9212428331375122 0.3658883571624756
0.19389942288398743 0.9429255723953247 0.3661300539970398
0.10902545601129532 0.957099199295044 0.36637115478515625
0.023167762905359268 0.9636362791061401 0.3666101098060608
-0.06298568844795227 0.9624781012535095 0.3668444752693176
-0.14874324202537537 0.9536073207855225 0.36707305908203125
-0.23341387510299683 0.9370827078819275 0.3672933876514435
-0.31630799174308777 0.9130258560180664 0.36750364303588867
-0.39676517248153687 0.8816229104995728 0.3677026331424713
-0.47412779927253723 0.8431088924407959 0.3678881824016571
-0.5477461814880371 0.7977888584136963 0.368059366941452
-0.6170346140861511 0.746028482913971 0.36821410059928894
-0.6814189553260803 0.6882226467132568 0.3683517277240753
-0.7403729557991028 0.6248529553413391 0.3684707581996918
-0.79341059923172 0.5564186573028564 0.3685702383518219
-0.8400896787643433 0.48347121477127075 0.368649423122406
-0.8800398111343384 0.4066165089607239 0.36870741844177246
-0.9129106402397156 0.32646918296813965 0.3687441945075989
-0.9384457468986511 0.24367965757846832 0.36875900626182556
-0.9564337134361267 0.15893684327602386 0.3687518239021301
-0.9667272567749023 0.07291427254676819 0.3687231242656708
-0.9692440629005432 -0.013667372986674309 0.3686724901199341
-0.9639666676521301 -0.1001165360212326 0.3686007559299469
-0.9509454369544983 -0.18572208285331726 0.3685082793235779
-0.9302805662155151 -0.26978930830955505 0.368396133184433
-0.9021696448326111 -0.3516291081905365 0.3682650625705719
-0.8668263554573059 -0.4305787682533264 0.3681161403656006
-0.8245583176612854 -0.5060160160064697 0.3679507374763489
-0.7757138609886169 -0.5773152112960815 0.36777007579803467
-0.7207026481628418 -0.6439146399497986 0.36757567524909973
-0.6599778532981873 -0.7052767276763916 0.3673690855503082
-0.5940258502960205 -0.7609302401542664 0.3671520948410034
-0.5234108567237854 -0.8104182481765747 0.3669264018535614
-0.44868993759155273 -0.8533675074577332 0.36669403314590454
-0.3704853653907776 -0.8894339799880981 0.36645644903182983
-0.28941866755485535 -0.9183497428894043 0.3662158250808716
-0.2061513513326645 -0.9399058222770691 0.365974098443985
-0.12134703993797302 -0.9539210200309753 0.36573317646980286
-0.03568515554070473 -0.9603166580200195 0.3654949963092804
0.05015132948756218 -0.9590551257133484 0.36526137590408325
0.13548117876052856 -0.9501618146896362 0.36503416299819946
0.21961833536624908 -0.9337165355682373 0.364815354347229
0.3019196391105652 -0.9098655581474304 0.3646063208580017
0.3817310333251953 -0.8788025379180908 0.36440902948379517
0.4584200978279114 -0.8407924175262451 0.36422470211982727
0.5313920378684998 -0.7961449027061462 0.36405500769615173
0.600089967250824 -0.7452144622802734 0.36390119791030884
0.6639660596847534 -0.6884117722511292 0.36376434564590454
0.7225313186645508 -0.6261870861053467 0.36364561319351196
0.7753347754478455 -0.5590357780456543 0.3635459840297699
0.8219566941261292 -0.48749029636383057 0.36346617341041565
0.8620589375495911 -0.41210392117500305 0.3634065091609955
0.8953070044517517 -0.33346495032310486 0.3633679151535034
0.9214532971382141 -0.25220373272895813 0.36335036158561707
0.9403061270713806 -0.16894152760505676 0.3633541762828827
0.951691746711731 -0.08433578163385391 0.36337921023368835
0.9555398225784302 0.0009542083716951311 0.3634251356124878
0.9518144130706787 0.08625923097133636 0.363491952419281
0.9405427575111389 0.17092551290988922 0.36357879638671875
0.9217987060546875 0.25427454710006714 0.36368528008461
0.8957284092903137 0.33566316962242126 0.36381056904792786
0.8625330328941345 0.4144435524940491 0.3639533817768097
0.8224511742591858 0.48999935388565063 0.3641130030155182
0.7757987976074219 0.5617284178733826 0.36428800225257874
0.7229366302490234 0.6290663480758667 0.36447691917419434
0.664261519908905 0.6914665102958679 0.36467865109443665
0.6002315282821655 0.7484462857246399 0.3648913502693176
0.5313456058502197 0.799519419670105 0.36511319875717163
0.45814499258995056 0.8442865014076233 0.3653428554534912
0.3812018036842346 0.8823869228363037 0.365578293800354
0.30110445618629456 0.9134861826896667 0.36581769585609436
0.218504399061203 0.9373417496681213 0.3660590946674347
0.134048193693161 0.9537321329116821 0.36630064249038696
0.048402898013591766 0.9625173807144165 0.3665403723716736
-0.03773815184831619 0.9636173844337463 0.36677640676498413
-0.12367721647024155 0.9570075869560242 0.3670068383216858
-0.20873290300369263 0.9427127838134766 0.3672296106815338
-0.2922295331954956 0.920855700969696 0.3674432337284088
-0.37346887588500977 0.8915777206420898 0.3676455616950989
-0.451799601316452 0.8551214337348938 0.3678353726863861
-0.5265743136405945 0.8117641806602478 0.36801084876060486
-0.5972023010253906 0.7618507146835327 0.36817046999931335
-0.6630818247795105 0.7057732343673706 0.3683132827281952
-0.7236751317977905 0.6439849138259888 0.3684379458427429
-0.7785037755966187 0.5769785046577454 0.3685430884361267
-0.8270918130874634 0.5052956342697144 0.3686283826828003
-0.8690423965454102 0.42952626943588257 0.3686926066875458
-0.9040200710296631 0.35027244687080383 0.3687356412410736
-0.9317335486412048 0.2681884765625 0.36875686049461365
-0.9519450068473816 0.1839471012353897 0.36875608563423157
-0.9645134806632996 0.09822937101125717 0.36873382329940796
-0.9693163633346558 0.011738662607967854 0.36868956685066223
-0.9663217067718506 -0.07482082396745682 0.3686239421367645
-0.9555593729019165 -0.16074660420417786 0.368537575006485
-0.937128484249115 -0.24533025920391083 0.36843109130859375
-0.9111791253089905 -0.3278936743736267 0.368305504322052
-0.8779175877571106 -0.40776771306991577 0.3681616187095642
-0.837655246257782 -0.4842953383922577 0.3680011034011841
-0.7907004952430725 -0.5568679571151733 0.3678247034549713
-0.7374469041824341 -0.6248976588249207 0.36763396859169006
-0.6783486008644104 -0.6878606081008911 0.3674308657646179
-0.6138737201690674 -0.7452316880226135 0.3672167956829071
-0.5445736646652222 -0.7965688705444336 0.36699339747428894
-0.4709959626197815 -0.8414652347564697 0.3667626976966858
-0.3937425911426544 -0.8795850872993469 0.3665264844894409
-0.3134467303752899 -0.9106320142745972 0.3662864565849304
-0.23075984418392181 -0.9343632459640503 0.36604490876197815
-0.14633198082447052 -0.9505988359451294 0.3658035099506378
-0.06084762513637543 -0.959238588809967 0.36556440591812134
0.025005264207720757 -0.9602239727973938 0.3653292655944824
0.11054645478725433 -0.953566312789917 0.36510008573532104
0.19510599970817566 -0.939319372177124 0.3648785352706909
0.27801454067230225 -0.91761314868927 0.3646664321422577
0.3586179316043854 -0.888641357421875 0.3644656240940094
0.43628600239753723 -0.8526414036750793 0.36427733302116394
0.5104190111160278 -0.8099017143249512 0.364103227853775
0.580424964427948 -0.7607806324958801 0.36394453048706055
0.6457659006118774 -0.7056552767753601 0.36380264163017273
0.7059391140937805 -0.6449745893478394 0.36367857456207275
0.7604746222496033 -0.579211413860321 0.363573282957077
0.8089526891708374 -0.5088984370231628 0.3634875416755676
0.8509952425956726 -0.4345715343952179 0.3634219169616699
0.8862802982330322 -0.35683387517929077 0.36337706446647644
0.9145361185073853 -0.2762722671031952 0.36335325241088867
0.9355412721633911 -0.19353321194648743 0.3633508086204529
0.9491305351257324 -0.10925392061471939 0.3633694350719452
0.9551989436149597 -0.024097824469208717 0.3634094297885895
0.9536975026130676 0.06128093600273132 0.3634701371192932
0.9446238279342651 0.14620338380336761 0.3635513186454773
0.9280602931976318 0.2300110161304474 0.3636520206928253
0.9041233658790588 0.3120355010032654 0.3637719750404358
0.8729878067970276 0.3916451930999756 0.3639097511768341
0.8348982930183411 0.4682162404060364 0.364064484834671
0.7901411056518555 0.5411213040351868 0.3642350733280182
0.7390568852424622 0.6098045706748962 0.3644201457500458
0.6820414662361145 0.6737057566642761 0.3646182119846344
0.6195377111434937 0.7323295474052429 0.36482787132263184
0.5520223379135132 0.7851709723472595 0.36504730582237244
0.4800301194190979 0.8318378925323486 0.36527496576309204
0.4041162133216858 0.8719295859336853 0.36550870537757874
0.3248823583126068 0.9051105976104736 0.36574721336364746
0.24295051395893097 0.9311131238937378 0.365988165140152
0.15895958244800568 0.9497092962265015 0.3662298619747162
0.07360183447599411 0.9607293009757996 0.3664703369140625
-0.012456893920898438 0.9640955328941345 0.36670759320259094
-0.0985361859202385 0.9597430229187012 0.36693984270095825
-0.1839270293712616 0.9476945400238037 0.36716505885124207
-0.2679499089717865 0.928037703037262 0.36738157272338867
-0.3499128222465515 0.9009214043617249 0.3675874173641205
-0.4291680157184601 0.8665467500686646 0.3677810728549957
-0.5050554275512695 0.8251763582229614 0.36796095967292786
-0.5769506096839905 0.7771451473236084 0.36812543869018555
-0.6442804336547852 0.7228337526321411 0.3682733178138733
-0.7064820528030396 0.662665605545044 0.3684033155441284
-0.7630495429039001 0.5971311926841736 0.36851438879966736
-0.8135067820549011 0.5267720818519592 0.3686056435108185
-0.8574467897415161 0.45213568210601807 0.36867597699165344
-0.894505500793457 0.3738354444503784 0.3687252700328827
-0.9243713021278381 0.2925170958042145 0.368753045797348
-0.9468079805374146 0.20883968472480774 0.3687586784362793
-0.9616328477859497 0.12348071485757828 0.3687426745891571
-0.9687098264694214 0.03714229539036751 0.36870482563972473
-0.9680067300796509 -0.04947131872177124 0.3686453104019165
-0.9595187306404114 -0.13565364480018616 0.36856505274772644
-0.9433171153068542 -0.22069869935512543 0.3684643507003784
-0.9195458889007568 -0.3039357364177704 0.36834409832954407
-0.8884153366088867 -0.3846607804298401 0.36820554733276367
-0.8501688838005066 -0.46223628520965576 0.3680499196052551
-0.8051404356956482 -0.5360238552093506 0.3678778111934662
-0.7536907196044922 -0.6054590344429016 0.3676913380622864
-0.696254312992096 -0.669950544834137 0.367491751909256
-0.6333092451095581 -0.7290069460868835 0.3672805726528168
-0.5653632283210754 -0.7821623086929321 0.36705976724624634
-0.49297624826431274 -0.8289945721626282 0.3668310344219208
-0.41674062609672546 -0.8691344857215881 0.3665962219238281
-0.33727455139160156 -0.9022729396820068 0.36635711789131165
-0.25521576404571533 -0.9281684756278992 0.36611586809158325
-0.17123310267925262 -0.946618378162384 0.365874320268631
-0.08599498867988586 -0.9574964642524719 0.36563414335250854
-0.0001745605404721573 -0.9607315063476562 0.3653976321220398
0.08553668856620789 -0.9563060402870178 0.36516645550727844
0.17045505344867706 -0.9442727565765381 0.36494261026382446
0.25391969084739685 -0.9247415065765381 0.36472761631011963
0.3352576494216919 -0.8978837132453918 0.364523321390152
0.41385480761528015 -0.8639104962348938 0.36433103680610657
0.48908281326293945 -0.8231215476989746 0.3641526699066162
0.5603543519973755 -0.7758201956748962 0.3639894127845764
0.62712162733078 -0.7224172949790955 0.3638424575328827
0.688857913017273 -0.6633183360099792 0.3637130558490753
0.7450932860374451 -0.5989961624145508 0.3636019825935364
0.7953829169273376 -0.5299533605575562 0.3635104298591614
0.8393534421920776 -0.4567472040653229 0.36343902349472046
0.8766518831253052 -0.3799436092376709 0.3633880615234375
0.906997561454773 -0.30014926195144653 0.36335813999176025
0.930144190788269 -0.21798087656497955 0.3633492887020111
0.9459250569343567 -0.13408946990966797 0.36336180567741394
0.9542025327682495 -0.04911472275853157 0.36339569091796875
0.9549192786216736 0.03626895695924759 0.3634503185749054
0.9480664134025574 0.12139014899730682 0.363525390625
0.9336913824081421 0.20558643341064453 0.3636206090450287
0.9118980169296265 0.2882043719291687 0.36373472213745117
0.8828524351119995 0.3685922920703888 0.36386749148368835
0.8467770218849182 0.4461073577404022 0.3640173375606537
0.8039402365684509 0.5201585292816162 0.3641834855079651
0.7546643614768982 0.5901361107826233 0.36436447501182556
0.6993537545204163 0.6554998159408569 0.36455902457237244
0.63840651512146 0.7157164812088013 0.36476531624794006
0.5723080635070801 0.770301342010498 0.3649819791316986
0.5015758872032166 0.8188221454620361 0.3652075231075287
0.4267437756061554 0.8608731031417847 0.3654397428035736
0.3484199345111847 0.8961111307144165 0.3656768798828125
0.2672101557254791 0.9242420196533203 0.36591750383377075
0.18375957012176514 0.9450306296348572 0.366159051656723
0.0987381711602211 0.9582881927490234 0.3664001524448395
0.012809333391487598 0.9639095664024353 0.3666384816169739
-0.07333385199308395 0.9618148803710938 0.3668724000453949
-0.15899746119976044 0.9520142674446106 0.36709991097450256
-0.24348916113376617 0.9345805048942566 0.3673190176486969
-0.32613322138786316 0.9096360802650452 0.3675282299518585
-0.40624916553497314 0.8773585557937622 0.367725670337677
-0.48318326473236084 0.8380178809165955 0.3679095506668091
-0.5563220381736755 0.7919014692306519 0.36807891726493835
-0.6250510811805725 0.7393865585327148 0.36823180317878723
-0.6888088583946228 0.6808826923370361 0.3683669865131378
-0.7470753192901611 0.6168792843818665 0.3684837222099304
-0.7993645071983337 0.5478752851486206 0.3685809373855591
-0.845261812210083 0.47442445158958435 0.36865752935409546
-0.8843681216239929 0.3971443176269531 0.36871305108070374
-0.9163753986358643 0.316639244556427 0.3687472343444824
-0.9410111904144287 0.233585923910141 0.3687594532966614
-0.9580802917480469 0.1486469954252243 0.3687496781349182
-0.9674404859542847 0.06251712888479233 0.3687179386615753
-0.9690231084823608 -0.0240817628800869 0.36866486072540283
-0.9628045558929443 -0.11046566069126129 0.36859068274497986
-0.9488564133644104 -0.19592849910259247 0.3684959411621094
-0.9272974729537964 -0.27975308895111084 0.3683813512325287
-0.8982942700386047 -0.36128783226013184 0.3682481348514557
-0.8621067404747009 -0.43984511494636536 0.3680972158908844
-0.8190298080444336 -0.5148177146911621 0.36792999505996704
-0.7694193720817566 -0.5855861306190491 0.3677474856376648
-0.7136914134025574 -0.6515814065933228 0.36755141615867615
-0.652313768863678 -0.7122783660888672 0.36734357476234436
-0.5857744216918945 -0.767219603061676 0.367125540971756
-0.5146360397338867 -0.8159344792366028 0.3668988049030304
-0.4394645690917969 -0.8580697178840637 0.36666548252105713
-0.3608769476413727 -0.8933026194572449 0.36642760038375854
-0.2795064151287079 -0.92133629322052 0.36618682742118835
-0.19601653516292572 -0.9419896602630615 0.3659449815750122
-0.11107978224754333 -0.9551013112068176 0.36570432782173157
-0.025360526517033577 -0.9605801105499268 0.3654665946960449
0.060450781136751175 -0.9583947658538818 0.36523374915122986
0.14567169547080994 -0.948584258556366 0.3650074601173401
0.22962245345115662 -0.9312359690666199 0.36478957533836365
0.31166625022888184 -0.9065036773681641 0.3645819127559662
0.3911266326904297 -0.8745998740196228 0.3643861413002014
0.46740713715553284 -0.8357717990875244 0.36420348286628723
0.5398908257484436 -0.7903481125831604 0.36403563618659973
0.6080344915390015 -0.7386842370033264 0.3638838231563568
0.671302855014801 -0.6812058687210083 0.36374908685684204
0.7291995286941528 -0.6183699369430542 0.3636326491832733
0.7812746167182922 -0.5506574511528015 0.3635353147983551
0.8271347880363464 -0.478617399930954 0.36345794796943665
0.866420567035675 -0.4028078317642212 0.3634008765220642
0.8988316059112549 -0.32382723689079285 0.36336469650268555
0.9241147637367249 -0.24228453636169434 0.363349586725235
0.942062497138977 -0.15882736444473267 0.3633560240268707
0.9525571465492249 -0.07410407811403275 0.3633834719657898
0.9554936289787292 0.01122207660228014 0.3634321391582489
0.9508642554283142 0.09649325907230377 0.36350128054618835
0.9386805295944214 0.18102942407131195 0.36359068751335144
0.91904616355896 0.2641771137714386 0.363699346780777
0.8921133279800415 0.3452858328819275 0.3638269007205963
0.8580697178840637 0.42370885610580444 0.3639717102050781
0.8171825408935547 0.4988412857055664 0.3641332983970642
0.7697664499282837 0.5700671672821045 0.36430999636650085
0.7161835432052612 0.6368359327316284 0.3645004332065582
0.6568317413330078 0.6986145377159119 0.3647036552429199
0.5921953916549683 0.7549043893814087 0.3649176061153412
0.52276211977005 0.8052480220794678 0.36514052748680115
0.4490857720375061 0.8492310047149658 0.3653709292411804
0.3717184066772461 0.8865013122558594 0.36560699343681335
0.2912919521331787 0.9167484641075134 0.36584654450416565
0.20843559503555298 0.9397110342979431 0.36608824133872986
0.12379813939332962 0.9551951289176941 0.3663296401500702
0.03806053102016449 0.9630595445632935 0.3665688931941986
-0.04809039831161499 0.9632318019866943 0.3668045103549957
-0.13397040963172913 0.9556881785392761 0.367033988237381
-0.2188747674226761 0.940486490726471 0.367255836725235
-0.30212998390197754 0.9177217483520508 0.36746808886528015
-0.38305556774139404 0.8875715732574463 0.3676690459251404
-0.4609939455986023 0.8502709865570068 0.3678571879863739
-0.5353040099143982 0.8061047792434692 0.368030846118927
-0.6053875088691711 0.7554240822792053 0.3681887686252594
-0.670655369758606 0.6986360549926758 0.36832931637763977
-0.7305836081504822 0.6361950039863586 0.3684515357017517
-0.7846799492835999 0.5685926079750061 0.36855438351631165
-0.8324873447418213 0.49639272689819336 0.3686370849609375
-0.8736175894737244 0.42016535997390747 0.36869901418685913
-0.9077392220497131 0.34054744243621826 0.3687393069267273
-0.9345632195472717 0.25816580653190613 0.3687579333782196
-0.9538719058036804 0.1737019270658493 0.3687545657157898
-0.9655018448829651 0.08785568177700043 0.36872953176498413
-0.9693655967712402 0.0013264846056699753 0.36868271231651306
-0.9654394388198853 -0.08520153164863586 0.36861464381217957
-0.9537450671195984 -0.17100578546524048 0.3685256838798523
-0.9343951344490051 -0.2553767263889313 0.36841705441474915
-0.9075546264648438 -0.33764877915382385 0.36828917264938354
-0.8734437227249146 -0.4171517789363861 0.3681432902812958
-0.8323535919189453 -0.49323707818984985 0.36798062920570374
-0.7846202850341797 -0.5652939677238464 0.3678024113178253
-0.730638325214386 -0.6327481269836426 0.3676101565361023
-0.6708672046661377 -0.6950545907020569 0.3674056828022003
-0.6057922840118408 -0.751728355884552 0.3671903908252716
-0.5359363555908203 -0.8023159503936768 0.3669660985469818
-0.4618891477584839 -0.8464206457138062 0.36673444509506226
-0.38424545526504517 -0.8837005496025085 0.36649778485298157
-0.30362555384635925 -0.9138742089271545 0.36625760793685913
-0.22068865597248077 -0.9367049932479858 0.3660159111022949
-0.13610076904296875 -0.9520394802093506 0.3657746911048889
-0.050531499087810516 -0.9597646594047546 0.3655358850955963
0.03531738370656967 -0.9598211646080017 0.36530134081840515
0.12077713012695312 -0.9522485733032227 0.36507293581962585
0.2051779180765152 -0.9371010661125183 0.36485257744789124
0.28784266114234924 -0.9145146012306213 0.3646417260169983
0.3681311011314392 -0.8846842646598816 0.3644421398639679
0.4453982412815094 -0.8478600978851318 0.3642556667327881
0.5190653800964355 -0.8043253421783447 0.3640832304954529
0.5885319709777832 -0.7544583082199097 0.3639265298843384
0.6532800793647766 -0.698644757270813 0.36378660798072815
0.573399007320404 -0.7442625164985657 0.36397460103034973
0.6373071670532227 -0.6898466348648071 0.3638363480567932
0.6961070895195007 -0.629991352558136 0.36371535062789917
0.749356210231781 -0.565172016620636 0.36361297965049744
0.7966287136077881 -0.4959135353565216 0.36352965235710144
0.8375737071037292 -0.42275434732437134 0.3634664714336395
0.8718665838241577 -0.34624892473220825 0.3634234666824341
0.8992459177970886 -0.267026424407959 0.3634011745452881
0.9194799661636353 -0.18569080531597137 0.36339980363845825
0.9324384927749634 -0.10287555307149887 0.36341947317123413
0.9380038976669312 -0.01922893524169922 0.3634597659111023
0.9361335635185242 0.06458725035190582 0.3635203540325165
0.9268350005149841 0.14792796969413757 0.36360105872154236
0.910176694393158 0.23013584315776825 0.3637010157108307
0.8862912058830261 0.3105688691139221 0.36381956934928894
0.8553457260131836 0.38858917355537415 0.3639559745788574
0.8175864815711975 0.46358659863471985 0.3641085624694824
0.773295521736145 0.5349687933921814 0.36427703499794006
0.7228186130523682 0.602158784866333 0.3644595146179199
0.6665412783622742 0.6646386384963989 0.364654541015625
0.6048842072486877 0.7218942046165466 0.3648608326911926
0.5383487343788147 0.7734670042991638 0.3650768995285034
0.4674462080001831 0.8189321756362915 0.36530059576034546
0.39272117614746094 0.8579314947128296 0.36553069949150085
0.3147694766521454 0.8901369571685791 0.36576491594314575
0.23420539498329163 0.9152743220329285 0.36600157618522644
0.1516689956188202 0.9331297278404236 0.36623871326446533
0.06781265139579773 0.9435504078865051 0.3664748966693878
-0.016700400039553642 0.9464313387870789 0.366707444190979
-0.1011786237359047 0.9417552947998047 0.3669351041316986
-0.18495677411556244 0.9295207858085632 0.3671557605266571
-0.26734763383865356 0.9098218083381653 0.36736786365509033
-0.34768691658973694 0.882809579372406 0.3675692677497864
-0.42531928420066833 0.8486916422843933 0.36775878071784973
-0.4996209740638733 0.8077128529548645 0.36793455481529236
-0.5699799060821533 0.760222852230072 0.3680950701236725
-0.6358105540275574 0.7065876126289368 0.3682394325733185
-0.6965913772583008 0.6472339630126953 0.3683660924434662
-0.7518036365509033 0.582637369632721 0.3684741258621216
-0.8010075688362122 0.5133218169212341 0.3685623109340668
-0.8437876105308533 0.43985477089881897 0.36863067746162415
-0.8797956109046936 0.36282333731651306 0.3686779737472534
-0.9087350368499756 0.28286054730415344 0.3687037527561188
-0.9303706288337708 0.20061182975769043 0.3687083423137665
-0.9445199370384216 0.11675456911325455 0.3686913847923279
-0.9510692954063416 0.03197212144732475 0.36865323781967163
-0.9499737620353699 -0.0530463382601738 0.3685937523841858
-0.9412434101104736 -0.13760684430599213 0.3685137927532196
-0.9249510169029236 -0.22101710736751556 0.3684139847755432
-0.901232898235321 -0.3026002049446106 0.36829498410224915
-0.8703038692474365 -0.3817071318626404 0.3681582510471344
-0.8324053883552551 -0.4576728343963623 0.36800429224967957
-0.7878682613372803 -0.5299076437950134 0.36783477663993835
-0.7370447516441345 -0.5978271961212158 0.3676508963108063
-0.6803728342056274 -0.6608812808990479 0.3674542009830475
-0.6183156967163086 -0.7185659408569336 0.36724653840065
-0.5513759255409241 -0.7704365253448486 0.3670293986797333
-0.48010721802711487 -0.8160785436630249 0.3668045103549957
-0.4050830006599426 -0.8551449179649353 0.3665734827518463
-0.32692140340805054 -0.8873266577720642 0.3663387894630432
-0.24625277519226074 -0.9123759269714355 0.36610183119773865
-0.16371959447860718 -0.9301062822341919 0.36586469411849976
-0.07998397946357727 -0.9403988718986511 0.365629106760025
0.004273490980267525 -0.9431887865066528 0.365397185087204
0.08840255439281464 -0.9384621381759644 0.36517059803009033
0.17171955108642578 -0.9262714982032776 0.3649510145187378
0.2535710632801056 -0.9067205786705017 0.36474043130874634
0.33331915736198425 -0.8799766898155212 0.3645403981208801
0.4103199243545532 -0.8462762236595154 0.36435240507125854
0.4840034246444702 -0.8058822154998779 0.36417800188064575
0.5537588596343994 -0.7591308355331421 0.3640185594558716
0.6190768480300903 -0.7063875198364258 0.3638751208782196
0.67942214012146 -0.6480779051780701 0.3637489378452301
0.7343459725379944 -0.5846695303916931 0.36364105343818665
0.783410906791687 -0.5166589617729187 0.3635520935058594
0.8262462615966797 -0.4445757269859314 0.363482803106308
0.8625186681747437 -0.36899447441101074 0.363433837890625
0.8919427394866943 -0.2905007302761078 0.3634054362773895
0.9142917394638062 -0.2097197324037552 0.36339813470840454
0.9294018149375916 -0.12727497518062592 0.363411545753479
0.9371351599693298 -0.043806303292512894 0.3634457290172577
0.9374491572380066 0.04002467915415764 0.3635005056858063
0.9303237795829773 0.1235751286149025 0.36357542872428894
0.9158201217651367 0.20618140697479248 0.3636697232723236
0.894029438495636 0.28720515966415405 0.36378294229507446
0.8651390671730042 0.365999698638916 0.3639141619205475
0.8293525576591492 0.4419446885585785 0.36406219005584717
0.7869446277618408 0.5144414901733398 0.3642260730266571
0.7382410764694214 0.5829219222068787 0.3644045889377594
0.6836175918579102 0.6468339562416077 0.36459609866142273
0.6235021352767944 0.7056699395179749 0.36479949951171875
0.558346152305603 0.7589547038078308 0.36501264572143555
0.48865994811058044 0.806249737739563 0.365234375
0.41499435901641846 0.8471893072128296 0.36546263098716736
0.3379353880882263 0.8814115524291992 0.3656958043575287
0.258069783449173 0.9086448550224304 0.36593198776245117
0.17604275047779083 0.9286537170410156 0.36616942286491394
0.09249793738126755 0.9412655234336853 0.3664059340953827
0.008112411014735699 0.9463741779327393 0.3666397035121918
-0.07644698768854141 0.9439157843589783 0.3668690323829651
-0.16050133109092712 0.9338878989219666 0.36709198355674744
-0.24337200820446014 0.9163643717765808 0.367306649684906
-0.32437586784362793 0.8914740681648254 0.36751142144203186
-0.4028725326061249 0.859411895275116 0.3677046000957489
-0.4782106280326843 0.8204203844070435 0.3678845167160034
-0.5497892498970032 0.7748016119003296 0.3680497705936432
-0.6170077323913574 0.7229341864585876 0.36819884181022644
-0.6793205738067627 0.6652010679244995 0.36833083629608154
-0.7362216711044312 0.6020931005477905 0.3684443533420563
-0.7872248888015747 0.5341091156005859 0.368538498878479
-0.8319231867790222 0.4617966413497925 0.368612676858902
-0.8699548244476318 0.385741651058197 0.3686660826206207
-0.9009955525398254 0.30657488107681274 0.3686984181404114
-0.9247901439666748 0.2249329686164856 0.3687092363834381
-0.9411512017250061 0.1414722055196762 0.36869871616363525
-0.949936032295227 0.05688728019595146 0.36866652965545654
-0.951086163520813 -0.028133735060691833 0.36861327290534973
-0.9445904493331909 -0.11289184540510178 0.368539422750473
-0.9305026531219482 -0.19671709835529327 0.36844512820243835
-0.9089429378509521 -0.2789061963558197 0.3683319091796875
-0.8801052570343018 -0.3588051497936249 0.36820006370544434
-0.8442242741584778 -0.4357561469078064 0.368051141500473
-0.8015949726104736 -0.5091520547866821 0.3678860366344452
-0.752574622631073 -0.5783871412277222 0.367706298828125
-0.6975749135017395 -0.6429272294044495 0.36751312017440796
-0.63704913854599 -0.7022348046302795 0.36730849742889404
-0.5714787244796753 -0.7558597922325134 0.367093950510025
-0.5014224648475647 -0.8033666610717773 0.36687102913856506
-0.42744505405426025 -0.8443882465362549 0.3666418492794037
-0.3501298427581787 -0.8786115646362305 0.36640793085098267
-0.2701333165168762 -0.9057727456092834 0.3661714196205139
-0.18806934356689453 -0.9256739616394043 0.3659341335296631
-0.10462523996829987 -0.9381663203239441 0.3656979203224182
-0.020444221794605255 -0.9431535005569458 0.3654647767543793
0.06378845125436783 -0.9406257271766663 0.36523619294166565
0.147405207157135 -0.9306090474128723 0.3650146424770355
0.22976016998291016 -0.9132009744644165 0.3648013174533844
0.3101889491081238 -0.8885526657104492 0.3645979166030884
0.38805755972862244 -0.8568666577339172 0.3644062578678131
0.462775856256485 -0.8183975219726562 0.3642275929450989
0.5337406396865845 -0.773474931716919 0.36406370997428894
0.6004161834716797 -0.7224482297897339 0.3639153838157654
0.662268340587616 -0.6657293438911438 0.36378416419029236
0.7188294529914856 -0.6037635803222656 0.3636706471443176
0.769648551940918 -0.5370460152626038 0.3635760545730591
0.8143482804298401 -0.46609893441200256 0.3635009825229645
0.8525755405426025 -0.39148828387260437 0.3634461760520935
0.8840383887290955 -0.31379207968711853 0.3634118437767029
0.9084839224815369 -0.23361952602863312 0.36339813470840454
0.9257281422615051 -0.15158545970916748 0.3634054362773895
0.9356384873390198 -0.06835086643695831 0.36343351006507874
0.9381259083747864 0.015447272919118404 0.36348235607147217
0.9331828355789185 0.09915123134851456 0.3635513186454773
0.9208353757858276 0.18209350109100342 0.3636401295661926
0.9011686444282532 0.2636429965496063 0.36374786496162415
0.8743423223495483 0.3431555926799774 0.3638738989830017
0.8405452370643616 0.4199982285499573 0.3640170097351074
0.8000518679618835 0.4935724139213562 0.364176481962204
0.7531518936157227 0.5632919669151306 0.3643508851528168
0.7002272605895996 0.6285977363586426 0.3645385801792145
0.6416711211204529 0.6889778971672058 0.3647386133670807
0.577940046787262 0.7439361214637756 0.3649490177631378
0.5095366835594177 0.7930276989936829 0.36516860127449036
0.43698203563690186 0.8358616232872009 0.365395188331604
0.3608495891094208 0.8720908761024475 0.36562713980674744
0.2817362844944 0.9014015197753906 0.36586257815361023
0.20027995109558105 0.9235516786575317 0.36609983444213867
0.11711551249027252 0.9383488297462463 0.3663366734981537
0.03290397673845291 0.9456603527069092 0.36657148599624634
-0.05167415365576744 0.9454212784767151 0.3668023645877838
-0.13594214618206024 0.937601625919342 0.36702728271484375
-0.21922904253005981 0.9222689867019653 0.3672447204589844
-0.3008463680744171 0.8995309472084045 0.3674525320529938
-0.3801499605178833 0.869547426700592 0.36764922738075256
-0.45648208260536194 0.8325533866882324 0.3678332567214966
-0.5292279720306396 0.7888498306274414 0.36800292134284973
-0.5977768898010254 0.7387730479240417 0.36815688014030457
-0.6615895628929138 0.6827133893966675 0.3682940602302551
-0.7201209664344788 0.6211303472518921 0.3684130907058716
-0.7729061841964722 0.5545181035995483 0.3685128688812256
-0.8194906711578369 0.48341283202171326 0.36859312653541565
-0.8595123887062073 0.4084008038043976 0.3686526417732239
-0.8926297426223755 0.3300764262676239 0.368691086769104
-0.9185724258422852 0.24908892810344696 0.3687083423137665
-0.9371254444122314 0.16609226167201996 0.3687039017677307
-0.9481474757194519 0.08176738768815994 0.3686779737472534
-0.9515448808670044 -0.0031937407329678535 0.368630975484848
-0.9472864866256714 -0.08810065686702728 0.3685632348060608
-0.9354111552238464 -0.17227092385292053 0.3684748709201813
-0.9160328507423401 -0.2550086975097656 0.3683669865131378
-0.8893027901649475 -0.33564963936805725 0.3682406544685364
-0.8554622530937195 -0.4135286509990692 0.36809661984443665
-0.8147711157798767 -0.48803451657295227 0.36793607473373413
-0.767585277557373 -0.5585476756095886 0.3677603006362915
-0.71429443359375 -0.6245153546333313 0.367571085691452
-0.6553390622138977 -0.6854146718978882 0.367369681596756
-0.5912031531333923 -0.7407470345497131 0.3671577274799347
-0.5223982334136963 -0.7900876402854919 0.3669371008872986
-0.44950783252716064 -0.8330472111701965 0.3667095899581909
-0.3731140196323395 -0.8692988157272339 0.36647674441337585
-0.29382967948913574 -0.8985546827316284 0.36624082922935486
-0.2123088836669922 -0.9205994009971619 0.36600372195243835
-0.1291963905096054 -0.9352743029594421 0.3657669126987457
-0.045169293880462646 -0.9424731135368347 0.36553266644477844
0.03911823034286499 -0.942146897315979 0.365302711725235
0.12298484891653061 -0.9343208074569702 0.36507871747016907
0.2057795226573944 -0.9190708994865417 0.3648628294467926
0.2868402600288391 -0.8965209722518921 0.36465635895729065
0.365519255399704 -0.8668723106384277 0.364461213350296
0.44122767448425293 -0.8303656578063965 0.36427855491638184
0.5133507251739502 -0.7873020768165588 0.3641101121902466
0.5813326835632324 -0.7380224466323853 0.3639571964740753
0.644654393196106 -0.6829257607460022 0.36382079124450684
0.7028144001960754 -0.6224477291107178 0.36370208859443665
0.7553626894950867 -0.5570696592330933 0.36360183358192444
0.8018946051597595 -0.48731139302253723 0.36352109909057617
0.8420518040657043 -0.41371771693229675 0.36346006393432617
0.8755224943161011 -0.3368580639362335 0.36341965198516846
0.9020536541938782 -0.25734150409698486 0.3633999526500702
0.921432614326477 -0.17579440772533417 0.3634011745452881
0.9335014224052429 -0.0928477868437767 0.3634231388568878
0.9381700158119202 -0.00915245059877634 0.3634658753871918
0.9354044795036316 0.07464995980262756 0.3635290563106537
0.9252173900604248 0.15789318084716797 0.3636120557785034
0.9076836109161377 0.23991233110427856 0.3637142777442932
0.8829380869865417 0.3200930058956146 0.3638351261615753
0.8511667251586914 0.3977748155593872 0.36397337913513184
0.8126044273376465 0.4723763167858124 0.36412811279296875
0.7675520777702332 0.5432828664779663 0.3642982542514801
0.7163505554199219 0.6099386215209961 0.36448225378990173
0.6594040393829346 0.6718032956123352 0.3646789491176605
