-13.57150936126709 -37.988407135009766 -12.016825675964355
-9.981363296508789 -38.4774055480957 -11.84139347076416
-6.902144432067871 -41.57728576660156 -12.554938316345215
0.22022582590579987 -15.609071731567383 -4.650239944458008
6.503610134124756 -10.608671188354492 -3.70678973197937
14.931994438171387 0.7600365877151489 -4.453840732574463
11.472962379455566 41.51514434814453 -12.830480575561523
6.856069087982178 37.60879135131836 -11.387885093688965
3.786094903945923 41.485408782958984 -12.409419059753418
0.07563476264476776 44.37543487548828 -13.218989372253418
-2.641796827316284 30.079051971435547 -8.99472427368164
-4.990264892578125 27.91301155090332 -8.446825981140137
-7.084826469421387 25.98116683959961 -8.02210807800293
-9.274887084960938 24.979278564453125 -7.937439918518066
-11.110980987548828 23.308197021484375 -7.691812515258789
-12.90052318572998 21.810136795043945 -7.548460483551025
-20.365964889526367 28.320146560668945 -10.391191482543945
-15.288304328918457 -38.86790084838867 -12.441821098327637
-10.97525691986084 -37.399803161621094 -11.610819816589355
-8.05920124053955 -40.56146240234375 -12.31903076171875
6.196984767913818 -10.865360260009766 -3.7261061668395996
7.082546710968018 -10.184789657592773 -3.695418357849121
25.296443939208984 19.007211685180664 -9.425663948059082
13.331862449645996 42.90727615356445 -13.384394645690918
6.006115436553955 27.911937713623047 -8.504988670349121
4.956744194030762 40.21366882324219 -12.0698823928833
1.4354394674301147 43.04737091064453 -12.83048152923584
-1.7358129024505615 30.979022979736328 -9.2427978515625
-4.191746711730957 28.649497985839844 -8.625245094299316
-6.367344379425049 26.642906188964844 -8.160144805908203
-8.480412483215332 25.260072708129883 -7.937439918518066
-10.476374626159668 23.894105911254883 -7.771903991699219
-12.237796783447266 22.267852783203125 -7.569089412689209
-15.14047908782959 22.52383804321289 -8.084590911865234
-12.593789100646973 -38.37870407104492 -12.032411575317383
-9.175904273986816 -39.588199615478516 -12.105547904968262
-5.914488315582275 -42.44426727294922 -12.765861511230469
0.6028051376342773 -15.001765251159668 -4.472472667694092
2.9376089572906494 -13.212583541870117 -4.031994819641113
5.926563739776611 -11.200077056884766 -3.7746963500976562
6.784008026123047 -10.445375442504883 -3.710232734680176
25.025951385498047 19.4676456451416 -9.232708930969238
12.36801528930664 42.290000915527344 -12.83048152923584
5.590947151184082 28.275304794311523 -8.393044471740723
4.238178730010986 39.86863708496094 -11.674962043762207
0.7321337461471558 44.105037689208984 -12.844940185546875
-2.219289541244507 30.468734741210938 -8.895848274230957
-4.618423938751221 28.255966186523438 -8.337180137634277
-6.778775691986084 26.40183448791504 -7.937441349029541
-8.964140892028809 25.29029655456543 -7.813337326049805
-10.813783645629883 23.582584381103516 -7.554679870605469
-12.57473087310791 22.00054168701172 -7.379061222076416
-17.404006958007812 24.97801399230957 -8.864954948425293
-28.348485946655273 -5.710040092468262 -8.420722007751465
-16.22516441345215 -39.51182174682617 -12.43795394897461
-11.604057312011719 -37.46799850463867 -11.42177963256836
-8.611578941345215 -40.20005416870117 -11.971640586853027
-0.5253967046737671 -16.20381736755371 -4.720951080322266
6.907668113708496 -10.255850791931152 -3.6006886959075928
9.696531295776367 -11.940693855285645 -4.479135990142822
14.34018325805664 43.83726501464844 -13.43083667755127
8.978185653686523 38.89753723144531 -11.624579429626465
5.351161956787109 38.66191101074219 -11.365483283996582
2.0911669731140137 43.32667922973633 -12.631199836730957
-1.3088488578796387 31.84243392944336 -9.280186653137207
-3.803799867630005 29.007314682006836 -8.519099235534668
-6.020750522613525 26.96257781982422 -8.044734954833984
-8.27619457244873 25.925453186035156 -7.924698352813721
-10.172730445861816 24.17445182800293 -7.637351989746094
-11.950230598449707 22.53335189819336 -7.427237510681152
-14.868009567260742 22.84622573852539 -7.937441349029541
-10.339272499084473 13.151838302612305 -4.871506690979004
-13.224979400634766 -38.3641242980957 -11.816591262817383
-9.621173858642578 -38.86793518066406 -11.659746170043945
-6.51525354385376 -42.15239715576172 -12.420331001281738
6.61297607421875 -10.521803855895996 -3.61879301071167
14.946961402893066 0.9281079173088074 -4.360865592956543
26.3892822265625 17.97112274169922 -9.297088623046875
11.069173812866211 41.86748504638672 -12.610501289367676
6.438033103942871 37.69419860839844 -11.135313034057617
3.357208251953125 41.95132064819336 -12.255071640014648
-0.4245702922344208 44.91776657104492 -13.080409049987793
-2.951951742172241 29.792987823486328 -8.718045234680176
-5.264218807220459 27.66033935546875 -8.19912338256836
-7.464178085327148 26.216278076171875 -7.937439918518066
-9.516827583312988 24.78002166748047 -7.72967529296875
-11.33186149597168 23.10426902770996 -7.493497371673584
-13.208039283752441 21.77188491821289 -7.415280818939209
-8.21010971069336 11.152082443237305 -4.032553195953369
-14.618035316467285 -38.416717529296875 -11.969260215759277
-10.629104614257812 -37.775108337402344 -11.42708969116211
-7.668967247009277 -40.98456573486328 -12.141633033752441
-0.10106933116912842 -15.885720252990723 -4.625936508178711
6.327625751495361 -10.812276840209961 -3.6480159759521484
25.084842681884766 19.289846420288086 -9.214599609375
12.612445831298828 42.249481201171875 -12.839326858520508
7.699288368225098 37.82755661010742 -11.241049766540527
4.438851356506348 39.65106201171875 -11.61832046508789
0.9781274199485779 44.100311279296875 -12.844941139221191
-2.0584545135498047 30.617076873779297 -8.935667991638184
-4.477251052856445 28.386173248291016 -8.368099212646484
-6.63136100769043 26.43922233581543 -7.937441349029541
-8.844222068786621 25.401012420654297 -7.832177639007568
-10.701723098754883 23.68604850769043 -7.568583965301514
-12.459861755371094 22.084625244140625 -7.383836269378662
-16.590559005737305 24.096052169799805 -8.518960952758789
-16.794336318969727 -40.257259368896484 -12.701902389526367
-11.927552223205566 -37.76567459106445 -11.53262710571289
-8.801148414611816 -39.9945182800293 -11.924867630004883
0.7763018608093262 -15.114554405212402 -4.4070868492126465
3.086946964263916 -13.187997817993164 -3.944079875946045
6.865755558013916 -10.317358016967773 -3.608783721923828
9.654247283935547 -12.02506160736084 -4.490516185760498
25.838186264038086 18.599058151245117 -9.270513534545898
14.731745719909668 44.19841384887695 -13.566452026367188
9.270891189575195 39.167503356933594 -11.720528602600098
5.541420936584473 38.45562744140625 -11.313756942749023
2.3201122283935547 43.077972412109375 -12.562271118164062
-1.6422924995422363 46.23805618286133 -13.472780227661133
-3.6563878059387207 29.14327621459961 -8.552906036376953
-5.88939094543457 27.08373260498047 -8.070952415466309
-8.144505500793457 26.012962341308594 -7.937439918518066
-10.058170318603516 24.28022003173828 -7.652917385101318
-11.841962814331055 22.63330841064453 -7.438296794891357
-14.740347862243652 22.928810119628906 -7.937441349029541
-10.192697525024414 13.115323066711426 -4.836845874786377
-13.398756980895996 -38.17570877075195 -11.781392097473145
-9.801958084106445 -38.67192459106445 -11.617172241210938
-6.750308513641357 -42.11540603637695 -12.420331954956055
6.560524940490723 -10.56875991821289 -3.6222994327545166
14.90717887878418 0.8421947956085205 -4.347819805145264
11.40269660949707 42.17540740966797 -12.722216606140137
5.073445796966553 28.73782730102539 -8.49771785736084
3.572744131088257 41.71717834472656 -12.192304611206055
-0.17290771007537842 44.64491271972656 -13.000467300415039
-2.797520637512207 29.9354248046875 -8.755026817321777
-5.127705097198486 27.7862491607666 -8.227840423583984
-7.317845821380615 26.25750732421875 -7.937439918518066
-9.39948558807373 24.88835906982422 -7.746995449066162
-11.221606254577637 23.206058502197266 -7.506088733673096
-13.045390129089355 21.776824951171875 -7.392054080963135
-21.055377960205078 28.93692398071289 -10.420854568481445
-22.549638748168945 3.1317315101623535 -6.6293625831604
-15.000406265258789 -38.76938247680664 -12.10503101348877
-10.802809715270996 -37.58677291870117 -11.388176918029785
-7.864918231964111 -40.77210998535156 -12.091510772705078
-0.19031432271003723 -15.939149856567383 -4.641735553741455
6.282695293426514 -10.874241828918457 -3.657041311264038
25.167171478271484 19.130634307861328 -9.205487251281738
12.969972610473633 42.57923126220703 -12.961320877075195
7.957110404968262 38.00834274291992 -11.307782173156738
4.637679576873779 39.43548583984375 -11.562559127807617
1.1983789205551147 43.164466857910156 -12.574125289916992
-1.8972094058990479 30.78438949584961 -8.981268882751465
-4.33500862121582 28.51736831665039 -8.39951229095459
-6.495768070220947 26.524459838867188 -7.952031135559082
-8.723708152770996 25.512279510498047 -7.851362228393555
-10.58926773071289 23.789875030517578 -7.582764625549316
-12.344928741455078 22.168941497802734 -7.388894081115723
-15.83831787109375 23.280452728271484 -8.199254989624023
-17.0447940826416 -40.22449493408203 -12.721366882324219
-12.257217407226562 -38.06901168823242 -11.645947456359863
-8.98925495147705 -39.79056930541992 -11.878823280334473
0.6856493949890137 -14.980170249938965 -4.366718292236328
3.0020761489868164 -13.155768394470215 -3.9293715953826904
6.809959411621094 -10.35831069946289 -3.6097652912139893
25.945356369018555 18.45730972290039 -9.27187442779541
15.13143539428711 44.567054748535156 -13.705305099487305
9.893730163574219 40.78224182128906 -12.220057487487793
5.73000955581665 38.251155853271484 -11.26283073425293
2.546445369720459 42.832088470458984 -12.494515419006348
-1.3754321336746216 45.9487190246582 -13.386030197143555
-3.507814884185791 29.28030776977539 -8.587248802185059
-5.757176399230957 27.20567512512207 -8.09759521484375
-7.9992828369140625 26.057987213134766 -7.937439918518066
-9.943159103393555 24.38640022277832 -7.6687912940979
-11.733333587646484 22.733606338500977 -7.449629783630371
-14.612192153930664 23.01070213317871 -7.937441349029541
-10.114727973937988 13.165968894958496 -4.834630966186523
-13.57150936126709 -37.988407135009766 -11.746777534484863
-9.981363296508789 -38.4774055480957 -11.575287818908691
-6.969136714935303 -41.9808349609375 -12.39192008972168
6.507967472076416 -10.615772247314453 -3.6259169578552246
14.931598663330078 0.7600176930427551 -4.353636264801025
24.79890251159668 19.890899658203125 -9.257227897644043
11.736709594726562 42.46952438354492 -12.83047866821289
5.238059043884277 28.733205795288086 -8.50485897064209
3.786104679107666 41.48540115356445 -12.130549430847168
0.07563720643520355 44.37542724609375 -12.921920776367188
-2.641789436340332 30.079057693481445 -8.792586326599121
-4.990272045135498 27.91300392150879 -8.257003784179688
-7.162071228027344 26.264442443847656 -7.927332401275635
-9.281559944152832 24.997230529785156 -7.76464319229126
-11.110974311828613 23.308202743530273 -7.518951416015625
-12.900527000427246 21.81014060974121 -7.378829002380371
-20.83419418334961 28.97124481201172 -10.391192436218262
-22.53621482849121 3.258005380630493 -6.630652904510498
-15.391392707824707 -39.12999725341797 -12.24422836303711
-10.975264549255371 -37.39979553222656 -11.349892616271973
-8.05920124053955 -40.56146240234375 -12.042187690734863
-0.28046202659606934 -16.004852294921875 -4.661250114440918
6.242101192474365 -10.94448184967041 -3.6688919067382812
7.082546710968018 -10.184789657592773 -3.6123745441436768
25.248554229736328 18.97119903564453 -9.19639778137207
13.331884384155273 42.90729522705078 -13.08361530303955
8.219413757324219 38.19770812988281 -11.377582550048828
4.834518909454346 39.222068786621094 -11.507707595825195
1.4369237422943115 43.09159469604492 -12.555032730102539
-1.7358129024505615 30.979022979736328 -9.035087585449219
-4.191746711730957 28.649497985839844 -8.43140983581543
-6.367351531982422 26.642900466918945 -7.976766109466553
-8.602619171142578 25.624074935913086 -7.870876312255859
-10.476374626159668 23.894105911254883 -7.597248554229736
-12.237789154052734 22.267860412597656 -7.398989200592041
-15.206618309020996 22.62224006652832 -7.937441349029541
-17.484617233276367 -40.63015365600586 -12.8803071975708
-11.932126998901367 -36.36233901977539 -11.144051551818848
-9.175909996032715 -39.588191986083984 -11.83349609375
-5.968019962310791 -42.82868957519531 -12.59200668334961
0.6041461229324341 -15.035109519958496 -4.381680488586426
2.933109998703003 -13.19239616394043 -3.935363292694092
6.754106521606445 -10.399343490600586 -3.610872507095337
26.98495101928711 17.36549949645996 -9.130302429199219
12.62307357788086 43.16217803955078 -12.795114517211914
7.457053184509277 37.712852478027344 -10.937990188598633
4.23817253112793 39.86864471435547 -11.407514572143555
0.743359386920929 44.78104782104492 -12.74305534362793
-2.2192821502685547 30.4687442779541 -8.69206428527832
-4.618423938751221 28.255966186523438 -8.146194458007812
-6.937695026397705 27.02079200744629 -7.937439918518066
-8.964140892028809 25.29029655456543 -7.63435173034668
-10.813783645629883 23.582584381103516 -7.381619930267334
-12.57473087310791 22.00054168701172 -7.210026741027832
-17.404001235961914 24.97800636291504 -8.661883354187012
-16.45384407043457 -40.06867980957031 -12.324308395385742
-11.43016529083252 -36.906578063964844 -10.992904663085938
-8.611578941345215 -40.20005416870117 -11.697400093078613
-0.5264623761177063 -16.23652458190918 -4.622117519378662
6.907668113708496 -10.255850791931152 -3.5182063579559326
9.696273803710938 -11.940373420715332 -4.376413345336914
14.3402099609375 43.83729553222656 -13.12317943572998
8.978185653686523 38.89753723144531 -11.35828971862793
5.351159572601318 38.66191482543945 -11.105128288269043
2.0911717414855957 43.32666778564453 -12.341851234436035
-1.3088488578796387 31.84243392944336 -9.06760025024414
-3.803792715072632 29.007320404052734 -8.323945999145508
-6.079715251922607 27.226680755615234 -7.937441349029541
-8.27619457244873 25.925453186035156 -7.743166446685791
-10.172730445861816 24.17445182800293 -7.462400913238525
-11.950223922729492 22.53335952758789 -7.257102012634277
-15.216571807861328 23.381839752197266 -7.937441349029541
-10.339269638061523 13.151834487915039 -4.759912967681885
-12.517765045166016 -36.312583923339844 -10.928476333618164
-9.621180534362793 -38.86792755126953 -11.392653465270996
-6.547298431396484 -42.35981369018555 -12.19552230834961
-1.0683672428131104 -16.659652709960938 -4.749816417694092
6.24150276184082 -30.187978744506836 -8.770879745483398
6.63677453994751 -10.559663772583008 -3.548619508743286
14.946531295776367 0.9280834794044495 -4.260847568511963
11.069158554077148 41.867469787597656 -12.321629524230957
6.438033103942871 37.69419860839844 -10.880231857299805
3.274184465408325 40.913822174072266 -11.678200721740723
-0.42665526270866394 45.14324951171875 -12.844940185546875
-2.951951742172241 29.792987823486328 -8.518341064453125
-5.264240741729736 27.66031837463379 -8.011300086975098
-7.567631244659424 26.57963752746582 -7.863105297088623
-9.516827583312988 24.78002166748047 -7.552606105804443
-11.299199104309082 23.03768539428711 -7.300736904144287
-13.208027839660645 21.771888732910156 -7.245413780212402
-8.316421508789062 11.296487808227539 -3.991197109222412
-22.78450584411621 3.0348381996154785 -6.540003299713135
-14.61802864074707 -38.41671371459961 -11.695068359375
-10.629104614257812 -37.775108337402344 -11.165322303771973
-7.668953895568848 -40.984580993652344 -11.863510131835938
27.079124450683594 17.213281631469727 -9.12954044342041
12.82087230682373 42.947715759277344 -12.752542495727539
7.699280738830566 37.827552795410156 -10.983535766601562
4.438851356506348 39.65106201171875 -11.352174758911133
0.9873925447463989 44.51698303222656 -12.669286727905273
-2.0584545135498047 30.617076873779297 -8.73097038269043
-4.477265357971191 28.38616180419922 -8.176408767700195
-6.786830425262451 27.0590763092041 -7.937439918518066
-8.84421443939209 25.401020050048828 -7.652763366699219
-10.701723098754883 23.68604850769043 -7.395203590393066
-12.459861755371094 22.084625244140625 -7.214692115783691
-16.59052848815918 24.096019744873047 -8.323805809020996
-28.525487899780273 -5.580309867858887 -8.270034790039062
-16.80704116821289 -40.28773498535156 -12.420331001281738
-11.598560333251953 -36.7239990234375 -10.957626342773438
-8.801142692565918 -39.99452590942383 -11.651698112487793
-0.6192260384559631 -16.290849685668945 -4.638492584228516
0.7763018608093262 -15.114554405212402 -4.306129455566406
3.086953639984131 -13.188003540039062 -3.8537325859069824
6.868101119995117 -10.320879936218262 -3.527320146560669
9.653976440429688 -12.024724960327148 -4.3875250816345215
14.731752395629883 44.19841766357422 -13.25567626953125
9.270895957946777 39.167510986328125 -11.452040672302246
5.541426658630371 38.45561981201172 -11.054582595825195
2.320115804672241 43.07796859741211 -12.274500846862793
-1.642311930656433 46.238075256347656 -13.16414737701416
-3.656395196914673 29.143268585205078 -8.356978416442871
-5.927754878997803 27.26016616821289 -7.937439918518066
-8.152787208557129 26.039386749267578 -7.763492107391357
-10.058170318603516 24.28022003173828 -7.477612018585205
-11.841962814331055 22.63330841064453 -7.267907619476318
-15.085935592651367 23.46635627746582 -7.937439918518066
-10.192697525024414 13.115323066711426 -4.726047039031982
-12.853541374206543 -36.622276306152344 -11.04308795928955
-9.801937103271484 -38.67194366455078 -11.351058006286621
-6.764339447021484 -42.202880859375 -12.161012649536133
6.58919095993042 -10.614935874938965 -3.5547878742218018
14.906749725341797 0.8421710133552551 -4.24810266494751
11.402710914611816 42.17542266845703 -12.430782318115234
5.077336311340332 28.75986671447754 -8.309427261352539
3.4844372272491455 40.68586349487305 -11.618499755859375
-0.1748315393924713 45.14495849609375 -12.844940185546875
-2.797513246536255 29.935428619384766 -8.554471015930176
-5.127712249755859 27.78624153137207 -8.039355278015137
-7.388045310974121 26.509450912475586 -7.830025672912598
-9.399492263793945 24.88835334777832 -7.569530010223389
-11.221613883972168 23.206050872802734 -7.334140300750732
-13.045390129089355 21.776824951171875 -7.222725868225098
-21.4876708984375 29.531042098999023 -10.391191482543945
-22.767215728759766 3.1619482040405273 -6.540003299713135
-15.00041389465332 -38.76939392089844 -11.82773208618164
-10.802809715270996 -37.58677291870117 -11.127297401428223
-7.864912033081055 -40.772117614746094 -11.814526557922363
27.191251754760742 17.07227897644043 -9.135086059570312
13.017334938049316 42.73470687866211 -12.71065616607666
7.957117557525635 38.00835037231445 -11.048747062683105
4.637679576873779 39.43548583984375 -11.297683715820312
1.1983789205551147 43.164466857910156 -12.286077499389648
-1.8972094058990479 30.78438949584961 -8.775527954101562
-4.335011005401611 28.517370223999023 -8.207097053527832
-6.635849952697754 27.096506118774414 -7.937439918518066
-8.723715782165527 25.512271881103516 -7.671504974365234
-10.58926010131836 23.78988265991211 -7.409066200256348
-12.344928741455078 22.168941497802734 -7.219631195068359
-15.83831787109375 23.280452728271484 -8.011431694030762
-28.59781265258789 -5.428953647613525 -8.282094955444336
-17.228147506713867 -40.657142639160156 -12.56365966796875
-11.765765190124512 -36.5427131652832 -10.922940254211426
-8.989248275756836 -39.79057693481445 -11.606704711914062
-0.7128661870956421 -16.35112190246582 -4.6567158699035645
0.6856493949890137 -14.980170249938965 -4.266688346862793
3.0073890686035156 -13.179073333740234 -3.846158027648926
6.816034317016602 -10.367547035217285 -3.5302212238311768
15.131440162658691 44.56705856323242 -13.391349792480469
9.56862735748291 39.44211196899414 -11.54776668548584
5.730019569396973 38.25114822387695 -11.004819869995117
2.54644775390625 42.83208465576172 -12.208292961120605
-1.375463843345642 45.948753356933594 -13.079389572143555
-3.507814884185791 29.28030776977539 -8.390532493591309
-5.775606632232666 27.29281234741211 -7.937439918518066
-8.028738021850586 26.153921127319336 -7.784164905548096
-9.94315242767334 24.38640785217285 -7.493117332458496
-11.733333587646484 22.733606338500977 -7.278975486755371
-14.74433708190918 23.21881103515625 -7.825758934020996
-10.114727973937988 13.165968894958496 -4.723886489868164
-13.19642162322998 -36.93852233886719 -11.160473823547363
-9.98137092590332 -38.47739791870117 -11.310121536254883
-6.969123363494873 -41.98085021972656 -12.108049392700195
6.5504150390625 -10.685029029846191 -3.565967082977295
14.931197166442871 0.7599926590919495 -4.253791809082031
11.742000579833984 42.48868179321289 -12.542218208312988
5.223599910736084 28.653915405273438 -8.287101745605469
3.6925413608551025 40.460227966308594 -11.559768676757812
0.07695312052965164 45.14522171020508 -12.844940185546875
-2.641789436340332 30.079057693481445 -8.591169357299805
-4.990257263183594 27.91301727294922 -8.067855834960938
-7.162065505981445 26.264434814453125 -7.745734691619873
-9.281553268432617 24.997238159179688 -7.586774826049805
-11.110980987548828 23.308197021484375 -7.346715927124023
-12.900527000427246 21.81014060974121 -7.209795951843262
-21.3226261138916 29.650447845458984 -10.391191482543945
-22.74923324584961 3.2887938022613525 -6.540004730224609
-15.391407012939453 -39.13001251220703 -11.963750839233398
-10.975264549255371 -37.39979553222656 -11.089896202087402
-8.05920124053955 -40.56146240234375 -11.766331672668457
7.082546710968018 -10.184789657592773 -3.5296237468719482
27.31825828552246 16.940309524536133 -9.145866394042969
13.39552116394043 43.112152099609375 -12.844940185546875
8.21942138671875 38.197715759277344 -11.116955757141113
4.834521293640137 39.222068786621094 -11.244098663330078
1.4369311332702637 43.09160232543945 -12.267425537109375
-1.7358129024505615 30.979022979736328 -8.828115463256836
-4.191746711730957 28.649497985839844 -8.238268852233887
-6.48449182510376 27.133119583129883 -7.937439918518066
-8.602612495422363 25.624080657958984 -7.690577030181885
-10.476366996765137 23.89411163330078 -7.423211574554443
-12.237789154052734 22.267860412597656 -7.229501724243164
-15.563142776489258 23.152616500854492 -7.937441349029541
-28.730541229248047 -5.2882981300354 -8.311861038208008
-17.65306282043457 -41.02155303955078 -12.706483840942383
-11.932113647460938 -36.36235427856445 -10.88876724243164
-9.175909996032715 -39.588191986083984 -11.562421798706055
-5.968041896820068 -42.82875442504883 -12.303568840026855
-0.8076324462890625 -16.419782638549805 -4.677482604980469
0.6029424667358398 -15.005197525024414 -4.2727885246276855
2.9367783069610596 -13.208860397338867 -3.8500142097473145
6.765927791595459 -10.417548179626465 -3.534330129623413
12.623086929321289 43.16216278076172 -12.496190071105957
7.457053184509277 37.712852478027344 -10.682448387145996
4.238178730010986 39.86863708496094 -11.141011238098145
0.7433520555496216 44.78105545043945 -12.445353507995605
-2.2192821502685547 30.4687442779541 -8.48900032043457
-4.618438720703125 28.25595474243164 -7.955881118774414
-6.9666619300842285 27.133609771728516 -7.784368515014648
-8.964147567749023 25.29029083251953 -7.455996036529541
-10.813783645629883 23.582584381103516 -7.209168434143066
-12.19689655303955 21.33949089050293 -6.830008506774902
-17.40400505065918 24.978010177612305 -8.459527015686035
-14.4393310546875 -18.698556900024414 -6.564793586730957
-16.45383644104004 -40.06867218017578 -12.036382675170898
-11.430191040039062 -36.906551361083984 -10.736082077026367
-8.611593246459961 -40.20003890991211 -11.424120903015137
6.907668113708496 -10.255850791931152 -3.4360134601593018
9.696030616760254 -11.940052032470703 -4.2740583419799805
14.37191390991211 43.934242248535156 -12.844940185546875
8.978185653686523 38.89753723144531 -11.092939376831055
5.351169109344482 38.661903381347656 -10.845685005187988
2.0911645889282227 43.32667922973633 -12.05351734161377
-1.3088488578796387 31.84243392944336 -8.855761528015137
-3.8037779331207275 29.007333755493164 -8.129481315612793
-6.213825702667236 27.827253341674805 -7.922998905181885
-8.27619457244873 25.925453186035156 -7.562267780303955
-10.172722816467285 24.174457550048828 -7.288062572479248
-11.950230598449707 22.53335189819336 -7.087559700012207
-15.580573081970215 23.941164016723633 -7.937441349029541
-10.339272499084473 13.151838302612305 -4.648714065551758
-23.563390731811523 2.3830041885375977 -6.581132888793945
-29.071439743041992 -4.90461540222168 -8.192449569702148
-13.503341674804688 -19.74244499206543 -6.646464824676514
-18.714946746826172 -41.76490783691406 -12.717416763305664
-12.517757415771484 -36.31257629394531 -10.673161506652832
-9.621173858642578 -38.86793518066406 -11.126495361328125
-6.547298431396484 -42.35981369018555 -11.910635948181152
-1.0681731700897217 -16.65654945373535 -4.63798713684082
6.26403284072876 -30.29690170288086 -8.596885681152344
14.946102142333984 0.9280596971511841 -4.161186695098877
10.705053329467773 40.490257263183594 -11.63792610168457
6.43803071975708 37.6942024230957 -10.626041412353516
3.2741880416870117 40.913818359375 -11.405374526977539
-0.43531981110572815 46.05651092529297 -12.798629760742188
-2.951951742172241 29.792987823486328 -8.31933307647705
-5.340462684631348 28.060888290405273 -7.937439918518066
-7.567631244659424 26.57963752746582 -7.679405212402344
-9.516827583312988 24.78002166748047 -7.37615966796875
-11.299206733703613 23.03769302368164 -7.130177974700928
-12.770930290222168 21.05137825012207 -6.841976165771484
-8.438602447509766 11.462433815002441 -3.95521879196167
-14.037062644958496 -19.190895080566406 -6.606997013092041
-14.618042945861816 -38.41672134399414 -11.421850204467773
-10.629097938537598 -37.775115966796875 -10.9044771194458
-7.668973445892334 -40.98455810546875 -11.586339950561523
12.820876121520996 42.947715759277344 -12.45461654663086
7.699288368225098 37.82755661010742 -10.72694206237793
4.438851356506348 39.65106201171875 -11.086956977844238
0.9873827695846558 44.516990661621094 -12.37330436706543
-2.0584545135498047 30.617076873779297 -8.526995658874512
-4.477236270904541 28.386186599731445 -7.985385417938232
-6.8357768058776855 27.254201889038086 -7.807905197143555
-8.84421443939209 25.401020050048828 -7.473979473114014
-10.701723098754883 23.68604850769043 -7.222436428070068
-12.084088325500488 21.41859245300293 -6.833643436431885
-16.59054946899414 24.09604263305664 -8.129347801208496
-14.5433988571167 -18.61773109436035 -6.564793586730957
-16.84538459777832 -40.3796272277832 -12.157832145690918
-11.598573684692383 -36.7239875793457 -10.70163345336914
-8.801142692565918 -39.99452590942383 -11.379487991333008
0.7763018608093262 -15.114554405212402 -4.205530166625977
3.10146427154541 -13.24997329711914 -3.7813875675201416
6.88349723815918 -10.344011306762695 -3.4526443481445312
9.653707504272461 -12.02439022064209 -4.284902095794678
27.78545379638672 16.452245712280273 -8.972936630249023
14.73171615600586 44.198387145996094 -12.945993423461914
9.270883560180664 39.16749572753906 -11.184494018554688
5.541426658630371 38.45561981201172 -10.796321868896484
2.262629270553589 42.01057434082031 -11.690709114074707
-1.6422899961471558 46.23805236816406 -12.856606483459473
-3.656395196914673 29.143268585205078 -8.16174030303955
-6.069554328918457 27.91225814819336 -7.937439918518066
-8.152779579162598 26.03939437866211 -7.582118988037109
-10.0581636428833 24.280223846435547 -7.302918434143066
-11.841962814331055 22.63330841064453 -7.0981125831604
-15.349238395690918 23.87594223022461 -7.887309551239014
-10.192697525024414 13.115323066711426 -4.615636348724365
-23.47699737548828 2.506634473800659 -6.560806751251221
-13.5967378616333 -19.642940521240234 -6.638400554656982
-12.85352611541748 -36.62226104736328 -10.7850923538208
-9.801937103271484 -38.67194366455078 -11.085878372192383
-6.764333248138428 -42.202884674072266 -11.876909255981445
-1.165449857711792 -16.713109970092773 -4.655473709106445
6.089880466461182 -30.306381225585938 -8.589797019958496
14.906328201293945 0.8421533107757568 -4.14873743057251
11.027504920959473 40.78765869140625 -11.740898132324219
5.076773643493652 28.75666046142578 -8.114394187927246
3.4844372272491455 40.68586349487305 -11.347067832946777
-0.17729248106479645 45.77729797363281 -12.720565795898438
-2.797513246536255 29.935428619384766 -8.354620933532715
-5.183807373046875 28.09024429321289 -7.937441349029541
-7.388051509857178 26.509456634521484 -7.647103309631348
-9.399478912353516 24.88836669921875 -7.392690181732178
-10.964943885803223 22.675277709960938 -6.998968124389648
-12.63833999633789 21.097333908081055 -6.83389139175415
-22.001686096191406 30.23746109008789 -10.391192436218262
-14.13363265991211 -19.098478317260742 -6.60221529006958
-15.000420570373535 -38.7693977355957 -11.551410675048828
-10.802809715270996 -37.58677291870117 -10.867340087890625
-7.864912033081055 -40.772117614746094 -11.538517951965332
13.01733112335205 42.734710693359375 -12.413710594177246
7.957103252410889 38.008338928222656 -10.790620803833008
4.637679576873779 39.43548583984375 -11.033744812011719
1.1983715295791626 43.16447067260742 -11.999052047729492
-1.897216796875 30.78438377380371 -8.570512771606445
-4.335000991821289 28.517372131347656 -8.015360832214355
-6.704174518585205 27.37545394897461 -7.831809997558594
-8.723708152770996 25.512279510498047 -7.492282390594482
-10.58926010131836 23.78988265991211 -7.235973834991455
-11.97117805480957 21.497770309448242 -6.837493896484375
-16.06742286682129 23.61720848083496 -7.937441349029541
-14.647067070007324 -18.53628158569336 -6.564793586730957
-17.315584182739258 -40.86347961425781 -12.332415580749512
-11.765765190124512 -36.5427131652832 -10.667755126953125
-8.98926830291748 -39.79055404663086 -11.335540771484375
0.6856561303138733 -14.980177879333496 -4.1670074462890625
3.027475118637085 -13.267067909240723 -3.7813875675201416
6.859350204467773 -10.433438301086426 -3.4696571826934814
27.892133712768555 16.305885314941406 -8.977862358093262
15.131425857543945 44.56704330444336 -13.078502655029297
9.568620681762695 39.44210433959961 -11.277985572814941
5.730015754699707 38.25114822387695 -10.747725486755371
2.483386278152466 41.7712287902832 -11.627782821655273
-1.3830713033676147 46.20452117919922 -12.844940185546875
-3.5078282356262207 29.280292510986328 -8.194511413574219
-5.913764476776123 27.945680618286133 -7.937439918518066
-8.028738021850586 26.153921127319336 -7.602309226989746
-9.94315242767334 24.38640785217285 -7.318061351776123
-11.733341217041016 22.733598709106445 -7.108922958374023
-14.744340896606445 23.218812942504883 -7.642931938171387
-10.114727973937988 13.165968894958496 -4.613523006439209
-29.82674789428711 3.3530261516571045 -8.340383529663086
-13.689906120300293 -19.54376983642578 -6.630579471588135
-13.196429252624512 -36.93852615356445 -10.899742126464844
-9.98137092590332 -38.47739791870117 -11.045893669128418
-6.969123363494873 -41.98085021972656 -11.825178146362305
-1.2645635604858398 -16.784345626831055 -4.677207946777344
5.94195032119751 -30.448881149291992 -8.620651245117188
14.930803298950195 0.7599883675575256 -4.154304504394531
11.742000579833984 42.48868179321289 -12.24920654296875
5.243973255157471 28.765668869018555 -8.125065803527832
3.6925487518310547 40.46022415161133 -11.289709091186523
0.07756591588258743 45.50150680541992 -12.643855094909668
-2.641789436340332 30.079057693481445 -8.390460968017578
-5.027045726776123 28.118724822998047 -7.937439918518066
-7.162067890167236 26.26443862915039 -7.564777851104736
-9.281553268432617 24.997238159179688 -7.409529685974121
-11.110974311828613 23.308202743530273 -7.175080299377441
-12.506040573120117 21.143192291259766 -6.826035022735596
-21.832683563232422 30.359718322753906 -10.391191482543945
-14.230231285095215 -19.006362915039062 -6.597708702087402
-15.391399383544922 -39.1300048828125 -11.684247970581055
-10.975264549255371 -37.39979553222656 -10.830810546875
-8.059195518493652 -40.56147003173828 -11.491443634033203
7.082546710968018 -10.184789657592773 -3.4471652507781982
13.715956687927246 44.143436431884766 -12.844938278198242
8.219413757324219 38.19770812988281 -10.85723876953125
4.834518909454346 39.222068786621094 -10.981406211853027
1.4369335174560547 43.09160232543945 -11.980835914611816
-1.7358202934265137 30.979015350341797 -8.621870040893555
-4.191746711730957 28.649497985839844 -8.045804023742676
-6.571596145629883 27.49760627746582 -7.856138706207275
-8.602619171142578 25.624074935913086 -7.51090669631958
-10.476366996765137 23.89411163330078 -7.249788761138916
-11.85873031616211 21.57811164855957 -6.841901779174805
-15.935420036315918 23.70645523071289 -7.937439918518066
-17.671594619750977 -41.06460189819336 -12.4226655960083
-11.932113647460938 -36.36235427856445 -10.634382247924805
-9.175917625427246 -39.58818435668945 -11.29229736328125
-5.968041896820068 -42.82875442504883 -12.016130447387695
0.6028918027877808 -15.00390338897705 -4.172606945037842
2.953427314758301 -13.283750534057617 -3.7813875675201416
6.819316387176514 -10.499748229980469 -3.4789986610412598
12.623086929321289 43.16216278076172 -12.198287963867188
7.457053184509277 37.712852478027344 -10.427791595458984
4.238182067871094 39.86863327026367 -10.875420570373535
0.743359386920929 44.78104782104492 -12.148669242858887
-2.2192821502685547 30.4687442779541 -8.286630630493164
-4.720245361328125 28.878917694091797 -7.937439918518066
-6.9666619300842285 27.133609771728516 -7.59879732131958
-8.964140892028809 25.29029655456543 -7.278253078460693
-10.478405952453613 22.85120964050293 -6.819057464599609
-12.19689655303955 21.33949089050293 -6.667189598083496
-17.40400505065918 24.978010177612305 -8.25786018371582
-12.967143058776855 -20.308237075805664 -6.535852909088135
-16.453828811645508 -40.06866455078125 -11.7494478225708
-11.430171966552734 -36.90657043457031 -10.480148315429688
-8.509915351867676 -39.72540283203125 -11.020112991333008
6.907668113708496 -10.255850791931152 -3.3541018962860107
9.695760726928711 -11.93974494934082 -4.172053813934326
14.72289752960205 45.00717544555664 -12.844938278198242
8.978185653686523 38.89753723144531 -10.82848834991455
5.351159572601318 38.66191482543945 -10.587138175964355
2.039337158203125 42.2526741027832 -11.474510192871094
-1.3088451623916626 31.842430114746094 -8.644646644592285
-3.8046422004699707 29.013744354248047 -7.937441349029541
-6.213818073272705 27.827260971069336 -7.73412561416626
-8.27619457244873 25.925453186035156 -7.381993293762207
-10.172730445861816 24.17445182800293 -7.114322185516357
-11.579973220825195 21.835214614868164 -6.704241752624512
-15.96107292175293 24.525842666625977 -7.937441349029541
-10.339274406433105 13.15184211730957 -4.537895202636719
-30.17164421081543 3.051304817199707 -8.225894927978516
-12.517757415771484 -36.31257629394531 -10.41872501373291
-9.62116813659668 -38.86793899536133 -10.861258506774902
-6.547305583953857 -42.35981750488281 -11.626704216003418
14.945673942565918 0.9280358552932739 -4.0618696212768555
28.37651252746582 15.81877613067627 -8.812430381774902
10.705053329467773 40.490257263183594 -11.360479354858398
6.442041873931885 37.71766662597656 -10.379185676574707
3.2741880416870117 40.913818359375 -11.133479118347168
-0.43531492352485657 46.05650329589844 -12.493522644042969
-2.951937198638916 29.79300308227539 -8.121007919311523
-5.432928562164307 28.5467529296875 -7.882377624511719
-7.567631244659424 26.57963752746582 -7.496336460113525
-9.516827583312988 24.78002166748047 -7.200319766998291
-10.980579376220703 22.388046264648438 -6.76392936706543
-12.770930290222168 21.05137825012207 -6.678868293762207
-8.580897331237793 11.655733108520508 -3.926038980484009
-29.781707763671875 -4.060517311096191 -8.15311336517334
-14.52009391784668 -38.159366607666016 -11.074868202209473
-10.629104614257812 -37.775108337402344 -10.644524574279785
-7.668959617614746 -40.98457336425781 -11.31014633178711
-1.6405596733093262 -17.09551429748535 -4.658514499664307
12.820876121520996 42.947715759277344 -12.157707214355469
7.699288368225098 37.82755661010742 -10.471219062805176
4.438854694366455 39.651058197021484 -10.82265567779541
0.9873974323272705 44.516971588134766 -12.078333854675293
-2.0584545135498047 30.617076873779297 -8.323721885681152
-4.559054851531982 28.90479850769043 -7.937439918518066
-6.835762023925781 27.254213333129883 -7.621773719787598
-8.844222068786621 25.401012420654297 -7.295806884765625
-10.369791984558105 22.95138168334961 -6.831583023071289
-12.084091186523438 21.418596267700195 -6.670737266540527
-16.594497680664062 24.10177993774414 -7.937439918518066
-24.16106605529785 1.8091405630111694 -6.572110652923584
-13.06180477142334 -20.207056045532227 -6.526642799377441
-16.84538459777832 -40.3796272277832 -11.868002891540527
-11.598560333251953 -36.7239990234375 -10.446517944335938
-8.79486083984375 -39.965946197509766 -11.1002779006958
0.7763018608093262 -15.114554405212402 -4.105269908905029
6.88349723815918 -10.344011306762695 -3.370333433151245
9.65343189239502 -12.0240478515625 -4.18263578414917
14.97370433807373 44.92435836791992 -12.844938278198242
9.270895957946777 39.167510986328125 -10.917868614196777
5.541426658630371 38.45561981201172 -10.538949966430664
2.262622117996216 42.01058578491211 -11.412014961242676
-1.6808714866638184 47.324275970458984 -12.844941139221191
-3.6563878059387207 29.14327621459961 -7.967172622680664
-6.078234672546387 27.952177047729492 -7.759301662445068
-8.152779579162598 26.03939437866211 -7.401369571685791
-10.0581636428833 24.280223846435547 -7.128828048706055
-11.475029945373535 21.9320068359375 -6.714205265045166
-13.545829772949219 21.070716857910156 -6.794680118560791
-10.192697525024414 13.115323066711426 -4.505603790283203
-29.250072479248047 -4.767055511474609 -8.03884506225586
-12.853533744812012 -36.62226867675781 -10.527993202209473
-9.801937103271484 -38.67194366455078 -10.821603775024414
-6.764333248138428 -42.202884674072266 -11.593777656555176
14.905905723571777 0.8421221971511841 -4.049720287322998
28.474103927612305 15.66563892364502 -8.815462112426758
11.027504920959473 40.78765869140625 -11.461005210876465
5.076205730438232 28.753456115722656 -7.920070648193359
3.4844372272491455 40.68586349487305 -11.07656478881836
-0.17728270590305328 45.77729034423828 -12.417319297790527
-2.797506093978882 29.93543815612793 -8.15545654296875
-5.292004108428955 28.676593780517578 -7.90995454788208
-7.388049125671387 26.50945281982422 -7.464802265167236
-9.39948558807373 24.88835906982422 -7.216455936431885
-10.873713493347168 22.486610412597656 -6.775274276733398
-12.638341903686523 21.09733772277832 -6.670979022979736
-22.53898811340332 30.975900650024414 -10.391191482543945
-15.00041389465332 -38.76939392089844 -11.27603530883789
-10.802809715270996 -37.58677291870117 -10.60827350616455
-7.864931583404541 -40.7720947265625 -11.263445854187012
-1.743935465812683 -17.165685653686523 -4.680213451385498
13.017337799072266 42.73470687866211 -12.117773056030273
7.957110404968262 38.00834274291992 -10.533388137817383
4.637682914733887 39.435482025146484 -10.77071475982666
1.1982128620147705 43.15830993652344 -11.71133041381836
-1.8972021341323853 30.78439712524414 -8.366202354431152
-4.397703647613525 28.929784774780273 -7.937441349029541
-6.70416784286499 27.37546157836914 -7.645108699798584
-8.723715782165527 25.512271881103516 -7.31367301940918
-10.260781288146973 23.05192756652832 -6.844365119934082
-11.97117805480957 21.497770309448242 -6.67449426651001
-16.459796905517578 24.193960189819336 -7.937439918518066
-24.05459213256836 1.9361461400985718 -6.545979976654053
-13.168421745300293 -20.124818801879883 -6.523712158203125
-17.315568923950195 -40.86346435546875 -12.038422584533691
-11.76577091217041 -36.54270553588867 -10.413447380065918
-8.98925495147705 -39.79056930541992 -11.065317153930664
0.6856493949890137 -14.980170249938965 -4.067671298980713
15.224140167236328 44.840110778808594 -12.844940185546875
9.56862735748291 39.44211196899414 -11.009125709533691
5.730015754699707 38.25114822387695 -10.491512298583984
2.4833898544311523 41.77122497558594 -11.350579261779785
-1.4102319478988647 47.111473083496094 -12.78485107421875
-3.507807493209839 29.28031349182129 -7.999163627624512
-5.94175910949707 28.077926635742188 -7.784888744354248
-8.028738021850586 26.153921127319336 -7.421077728271484
-9.94315242767334 24.38640785217285 -7.143609523773193
-11.369734764099121 22.02912139892578 -6.724410057067871
-13.348420143127441 21.020580291748047 -6.754390716552734
-10.114727973937988 13.165968894958496 -4.503542900085449
-29.33157730102539 -4.612602233886719 -8.05405044555664
-13.196436882019043 -36.938533782958984 -10.639902114868164
-9.981363296508789 -38.4774055480957 -10.782572746276855
-6.969136714935303 -41.9808349609375 -11.543277740478516
14.930407524108887 0.7599554061889648 -4.055163383483887
28.59731101989746 15.526288986206055 -8.826659202575684
11.355534553527832 41.0902099609375 -11.56363582611084
5.241683006286621 28.753129959106445 -7.927916049957275
3.692537784576416 40.46023178100586 -11.020570755004883
0.07756835967302322 45.501502990722656 -12.342438697814941
-2.641796827316284 30.079051971435547 -8.190442085266113
-5.149806976318359 28.8054141998291 -7.937439918518066
-7.162065505981445 26.264434814453125 -7.384443283081055
-9.281553268432617 24.997238159179688 -7.23289680480957
-10.766472816467285 22.585521697998047 -6.786870002746582
-12.506033897399902 21.143199920654297 -6.663310527801514
-19.939279556274414 27.72681999206543 -9.263803482055664
-15.391392707824707 -39.12999725341797 -11.405707359313965
-10.975264549255371 -37.39979553222656 -10.572614669799805
-7.957594871520996 -40.05022430419922 -11.07611083984375
-1.8489696979522705 -17.24180793762207 -4.703707695007324
5.109691143035889 -31.443115234375 -8.640922546386719
7.082546710968018 -10.184789657592773 -3.364985466003418
13.78603744506836 44.36897277832031 -12.602791786193848
8.219399452209473 38.197696685791016 -10.598406791687012
4.834511756896973 39.222076416015625 -10.719619750976562
1.4309545755386353 42.91230392456055 -11.646567344665527
-1.7358129024505615 30.979022979736328 -8.416335105895996
-4.236275672912598 28.953866958618164 -7.937439918518066
-6.571596145629883 27.49760627746582 -7.668856143951416
-8.602612495422363 25.624080657958984 -7.331857681274414
-10.476366996765137 23.89411163330078 -7.076962947845459
-11.85873031616211 21.57811164855957 -6.678800106048584
-16.3245849609375 24.28538703918457 -7.937441349029541
-17.76239013671875 -41.27557373046875 -12.188824653625488
-11.932134628295898 -36.36233139038086 -10.380868911743164
-9.175904273986816 -39.588199615478516 -11.02310562133789
-5.968028545379639 -42.82876968383789 -11.729683876037598
0.6043536067008972 -15.040231704711914 -4.083001136779785
28.945690155029297 15.161617279052734 -8.647756576538086
12.261493682861328 41.92578887939453 -11.56047534942627
7.607460975646973 38.47349166870117 -10.379182815551758
4.238161563873291 39.868656158447266 -10.610718727111816
0.7249340415000916 43.67144775390625 -11.559269905090332
-2.2192747592926025 30.46875 -8.08493709564209
-4.76633882522583 29.160926818847656 -7.819871425628662
-6.966668605804443 27.133602142333984 -7.413841247558594
-8.964140892028809 25.29029655456543 -7.101100921630859
-10.478412628173828 22.85120391845703 -6.653083324432373
-12.1968994140625 21.339494705200195 -6.504908084869385
-17.40400505065918 24.978010177612305 -8.056867599487305
-27.30988311767578 18.8851318359375 -8.787354469299316
-24.357494354248047 1.6872484683990479 -6.461677074432373
-16.45383644104004 -40.06867218017578 -11.46346664428711
-11.430185317993164 -36.90655517578125 -10.22506046295166
-8.509915351867676 -39.72540283203125 -10.751888275146484
-2.094883441925049 -17.12535858154297 -4.5660223960876465
6.907668113708496 -10.255850791931152 -3.2724642753601074
9.695504188537598 -11.939423561096191 -4.070400714874268
29.650714874267578 14.354897499084473 -8.718339920043945
14.828245162963867 45.32923889160156 -12.621976852416992
8.978178977966309 38.89752960205078 -10.56492805480957
5.376920223236084 38.84807205200195 -10.379185676574707
2.039339542388916 42.2526741027832 -11.195225715637207
-1.3088537454605103 31.84239387512207 -8.434231758117676
-3.8995518684387207 29.73756217956543 -7.937439918518066
-6.213825702667236 27.827253341674805 -7.545875072479248
-8.27619457244873 25.925453186035156 -7.202314376831055
-9.857050895690918 23.424291610717773 -6.725767612457275
-11.579973220825195 21.835214614868164 -6.541059494018555
-13.788183212280273 21.186962127685547 -6.689965724945068
-10.339269638061523 13.151834487915039 -4.4274373054504395
-26.70977020263672 19.74728775024414 -8.790897369384766
-12.517749786376953 -36.31256866455078 -10.165127754211426
-9.621173858642578 -38.86793518066406 -10.596895217895508
-6.547291278839111 -42.35980987548828 -11.34365463256836
14.945249557495117 0.9280041456222534 -3.962890148162842
10.705045700073242 40.49024963378906 -11.08397102355957
6.575335502624512 38.49808883666992 -10.33609390258789
3.274184465408325 40.913822174072266 -10.862500190734863
-0.43532225489616394 46.05651092529297 -12.189428329467773
-2.957200765609741 29.84599494934082 -7.937441349029541
-5.43293571472168 28.546743392944336 -7.690518856048584
-7.567631244659424 26.57963752746582 -7.313874244689941
-9.22133731842041 24.01062774658203 -6.80694055557251
-10.980579376220703 22.388046264648438 -6.599298000335693
-12.77093505859375 21.05138397216797 -6.516305923461914
-23.27799415588379 31.619306564331055 -10.391191482543945
-25.921348571777344 20.463178634643555 -8.740118980407715
-29.814613342285156 -4.064996242523193 -7.963460445404053
-12.520856857299805 -20.78358268737793 -6.421417236328125
-14.52009391784668 -38.159366607666016 -10.805306434631348
-10.629104614257812 -37.775108337402344 -10.385440826416016
-7.668821811676025 -40.9838752746582 -11.034671783447266
-4.586386680603027 -47.79270553588867 -12.706483840942383
29.05343246459961 15.012090682983398 -8.654788970947266
12.612431526184082 42.24946594238281 -11.668943405151367
7.822007656097412 38.430442810058594 -10.37918472290039
4.438864707946777 39.65105056762695 -10.55923843383789
0.9629150032997131 43.413421630859375 -11.492223739624023
-2.0584471225738525 30.617084503173828 -8.12112045288086
-4.620623588562012 29.295185089111328 -7.848838806152344
-6.8357696533203125 27.254207611083984 -7.436262130737305
-8.84421443939209 25.401020050048828 -7.118226051330566
-10.369794845581055 22.951383590698242 -6.665301322937012
-12.084088325500488 21.41859245300293 -6.508370399475098
-17.00847816467285 24.703046798706055 -7.937441349029541
-27.18358039855957 19.0228328704834 -8.780723571777344
-16.84539222717285 -40.37961959838867 -11.579136848449707
-11.598554611206055 -36.72400665283203 -10.192251205444336
-8.794875144958496 -39.96596145629883 -10.830100059509277
-2.1982903480529785 -17.17524528503418 -4.582522392272949
0.7763018608093262 -15.114554405212402 -4.0053534507751465
4.527597427368164 -31.98360252380371 -8.548876762390137
6.88349723815918 -10.344011306762695 -3.2882912158966064
9.65316104888916 -12.023712158203125 -4.08071756362915
15.232938766479492 45.702117919921875 -12.749267578125
9.270891189575195 39.167503356933594 -10.652130126953125
5.593563079833984 38.81745529174805 -10.379185676574707
2.262622117996216 42.01058578491211 -11.134252548217773
-1.6838256120681763 47.40752029418945 -12.554349899291992
-3.733624219894409 29.758825302124023 -7.937439918518066
-6.078227519989014 27.952184677124023 -7.570444107055664
-8.152779579162598 26.03939437866211 -7.22122049331665
-9.746015548706055 23.52670669555664 -6.739455223083496
-11.47503662109375 21.93199920654297 -6.550779819488525
