ply
format ascii 1.0
element vertex 2048
property float32 x
property float32 y
property float32 z
end_header
-26.8112 -5.6324 1.8592
-21.0548 -6.4314 1.4940
-23.3630 -9.4905 1.7113
-22.4107 -11.5323 1.7104
-21.2850 -13.4827 1.7099
-19.9937 -15.3269 1.7097
-18.5422 -17.0478 1.7094
-16.9427 -18.6311 1.7090
-15.2080 -20.0642 1.7086
-13.3523 -21.3358 1.7081
-11.3906 -22.4356 1.7076
-9.3390 -23.3549 1.7070
-7.2162 -24.0934 1.7068
-5.4524 -26.6764 1.8478
-3.0680 -27.2242 1.8592
-0.6252 -27.3894 1.8592
1.8225 -27.3359 1.8592
4.2556 -27.0640 1.8592
6.6547 -26.5761 1.8592
9.0007 -25.8758 1.8592
11.2748 -24.9690 1.8592
11.1973 -19.8529 1.5468
11.3231 -16.4473 1.3551
17.2872 -20.8466 1.8379
8.0974 -8.1571 0.7800
19.2416 -16.1965 1.7068
20.6106 -14.4141 1.7068
21.8152 -12.5164 1.7068
22.8455 -10.5189 1.7068
23.6932 -8.4374 1.7068
24.3550 -6.2893 1.7070
24.1770 -3.9840 1.6629
21.1661 -1.5676 1.4403
25.1671 0.3893 1.7081
18.8397 1.9828 1.2856
23.0999 4.5446 1.5977
24.1788 7.0484 1.7092
23.4604 9.1816 1.7097
22.5573 11.2444 1.7105
21.4729 13.2194 1.7112
20.2161 15.0903 1.7120
18.7385 16.7903 1.7075
6.1627 6.6048 0.6130
16.8273 21.6196 1.8592
14.8300 23.0355 1.8592
9.9447 18.9813 1.4542
7.5926 18.3036 1.3448
6.9988 22.3229 1.5876
5.8295 26.7690 1.8592
3.4164 27.1825 1.8592
0.9247 25.9396 1.7615
-1.3515 25.1168 1.7070
-3.6079 25.0305 1.7162
-6.1503 25.9693 1.8111
-8.3964 25.1735 1.8009
-10.6093 24.3212 1.8007
-12.7407 23.2814 1.8011
-14.7753 22.0614 1.8019
-16.6984 20.6699 1.8033
-18.4960 19.1163 1.8052
-20.1549 17.4113 1.8075
-21.6624 15.5666 1.8103
-23.0070 13.5950 1.8136
-24.1778 11.5101 1.8172
-25.4917 9.4475 1.8450
-26.4363 7.1892 1.8592
-26.9726 4.8004 1.8592
-27.2935 2.3733 1.8592
-27.3963 -0.0729 1.8592
-27.2805 -2.5183 1.8592
-19.0215 -3.4897 1.3124
-19.2492 -5.3447 1.3557
-23.6020 -8.8902 1.7116
-22.7022 -10.9560 1.7107
-21.6241 -12.9334 1.7099
-20.3807 -14.8103 1.7097
-18.9739 -16.5680 1.7094
-17.4155 -18.1921 1.7091
-15.7182 -19.6695 1.7087
-13.8957 -20.9885 1.7082
-11.9628 -22.1385 1.7077
-9.9353 -23.1104 1.7071
-7.8310 -23.9007 1.7068
-5.7656 -24.9347 1.7368
-3.7644 -27.1367 1.8592
-1.3267 -27.3644 1.8592
1.1216 -27.3736 1.8592
3.5608 -27.1642 1.8592
5.9716 -26.7378 1.8592
8.3349 -26.0979 1.8592
10.6315 -25.2496 1.8592
12.8431 -24.1997 1.8592
10.8037 -16.5872 1.3434
16.9421 -21.5299 1.8592
8.1663 -8.6594 0.8078
18.8203 -16.6842 1.7068
20.2346 -14.9374 1.7068
21.4874 -13.0712 1.7068
22.5685 -11.1008 1.7068
23.4692 -9.0416 1.7068
24.1844 -6.9108 1.7069
24.1479 -4.6176 1.6685
21.0875 -2.1062 1.4382
25.1674 -0.2556 1.7080
19.0961 1.5163 1.3000
23.3019 3.9672 1.6041
24.3501 6.4263 1.7091
23.6845 8.5763 1.7095
22.8350 10.6615 1.7103
21.8018 12.6633 1.7110
20.5934 14.5656 1.7118
19.1811 16.3206 1.7091
19.1972 19.5456 1.8592
17.3757 21.1813 1.8592
15.4153 22.6480 1.8592
10.7675 19.3302 1.5016
8.0046 17.9810 1.3357
7.5602 22.1123 1.5859
6.5133 26.6109 1.8592
4.1117 27.0861 1.8592
1.6126 26.2923 1.7876
-0.7075 25.1408 1.7068
-2.9492 24.9772 1.7068
-5.5135 26.2633 1.8212
-7.7483 25.3784 1.8008
-9.9827 24.5849 1.8007
-12.1391 23.5981 1.8009
-14.2029 22.4290 1.8016
-16.1594 21.0858 1.8029
-17.9944 19.5776 1.8046
-19.6944 17.9147 1.8068
-21.2465 16.1089 1.8094
-22.6389 14.1722 1.8126
-23.8606 12.1184 1.8161
-25.1337 10.0544 1.8371
-26.2434 7.8641 1.8592
-26.8408 5.4899 1.8592
-27.2237 3.0718 1.8592
-27.3499 0.6282 1.8566
-27.3360 -1.8186 1.8592
-27.0645 -4.2517 1.8592
-24.4224 -6.1117 1.7085
-23.8256 -8.2837 1.7118
-16.1921 -7.3089 1.2056
-21.9497 -12.3758 1.7100
-20.7542 -14.2839 1.7098
-19.3932 -16.0772 1.7095
-17.8770 -17.7410 1.7092
-16.2181 -19.2617 1.7088
-14.4300 -20.6273 1.7084
-12.5272 -21.8267 1.7079
-10.5251 -22.8505 1.7073
-8.3879 -23.5438 1.6961
-6.2920 -24.3511 1.7068
-4.4584 -27.0314 1.8592
-2.0273 -27.3215 1.8592
0.4199 -27.3933 1.8592
2.8637 -27.2465 1.8592
5.2847 -26.8820 1.8592
7.6635 -26.3029 1.8592
9.9811 -25.5136 1.8592
12.2190 -24.5208 1.8592
10.5838 -17.1974 1.3704
12.1144 -16.2341 1.3746
16.9042 -18.8710 1.7193
8.5218 -7.9536 0.7911
19.8453 -15.4509 1.7068
21.1454 -13.6174 1.7068
22.2766 -11.6752 1.7068
23.2301 -9.6400 1.7068
23.9979 -7.5276 1.7068
22.6421 -4.9341 1.5726
24.9649 -3.1413 1.7076
22.5495 -0.8071 1.5313
25.1362 1.3490 1.7083
20.0971 2.8938 1.3779
24.5054 5.8000 1.7090
23.8943 7.9660 1.7093
23.0976 10.0717 1.7100
22.1162 12.0989 1.7108
20.9571 14.0314 1.7116
19.6121 15.8392 1.7108
19.6917 19.0473 1.8592
17.9126 20.7292 1.8592
15.9905 22.2456 1.8592
13.9406 23.5844 1.8592
8.6148 18.0895 1.3597
7.1237 19.2130 1.3906
7.1929 26.4353 1.8592
4.8042 26.9719 1.8592
2.3217 26.6555 1.8158
-0.0639 25.4323 1.7259
-2.3088 25.0491 1.7071
-4.6988 25.6321 1.7685
-7.0960 25.5704 1.8009
-9.3498 24.8331 1.8008
-11.5298 23.8999 1.8008
-13.6217 22.7823 1.8014
-15.6104 21.4881 1.8025
-17.4817 20.0262 1.8040
-19.2218 18.4065 1.8061
-20.8175 16.6404 1.8086
-22.2568 14.7399 1.8116
-23.5285 12.7182 1.8151
-24.7811 10.6577 1.8307
-26.0334 8.5339 1.8592
-26.6913 6.1757 1.8592
-27.1361 3.7682 1.8592
-27.3641 1.3306 1.8592
-27.3736 -1.1177 1.8592
-27.1646 -3.5570 1.8592
-24.5472 -5.4787 1.7069
-22.5302 -7.1918 1.6050
-23.2406 -9.7817 1.7112
-22.2629 -11.8112 1.7103
-21.1141 -13.7480 1.7099
-19.7997 -15.5759 1.7096
-18.3267 -17.2782 1.7093
-16.7074 -18.8412 1.7089
-14.9549 -20.2524 1.7085
-13.0834 -21.5005 1.7080
-11.1081 -22.5755 1.7075
-9.0318 -23.4340 1.7043
-6.9138 -24.1819 1.7068
-5.1495 -26.9083 1.8592
-2.7266 -27.2606 1.8592
-0.2820 -27.3951 1.8592
2.1648 -27.3109 1.8592
4.5943 -27.0086 1.8592
6.9872 -26.4906 1.8592
9.3242 -25.7610 1.8592
11.5868 -24.8258 1.8592
11.2911 -19.4458 1.5260
17.6413 -14.8325 1.7068
18.8951 -13.1983 1.7068
19.9979 -11.4587 1.7068
20.9411 -9.6277 1.7068
21.7169 -7.7198 1.7068
22.3222 -5.7509 1.7070
22.7510 -3.7358 1.7074
21.1854 -1.5570 1.5731
23.0617 0.3698 1.7081
18.8340 1.9930 1.4025
22.6368 4.4668 1.7087
22.1526 6.4713 1.7091
21.4954 8.4266 1.7098
20.6658 10.3162 1.7105
19.6704 12.1250 1.7112
18.5170 13.8383 1.7119
17.1768 15.4085 1.7088
6.1571 6.6063 0.6688
15.4093 19.8209 1.8592
13.5783 21.1174 1.8592
9.9260 18.9716 1.5856
7.5858 18.3165 1.4682
7.4973 23.9605 1.8592
5.3282 24.5341 1.8592
3.1167 24.9118 1.8592
0.8802 25.0906 1.8592
-1.3516 24.8551 1.8434
-3.5958 24.8472 1.8592
-5.6575 23.8281 1.8136
-7.7271 23.1231 1.8055
-9.7640 22.3489 1.8061
-11.7224 21.3918 1.8064
-13.5913 20.2687 1.8072
-15.3571 18.9876 1.8085
-17.0070 17.5574 1.8102
-18.5287 15.9881 1.8123
-19.9104 14.2905 1.8149
-21.1416 12.4766 1.8179
-22.2125 10.5590 1.8213
-23.2025 8.5843 1.8321
-24.1387 6.5498 1.8522
-24.7202 4.3851 1.8592
-25.0129 2.1607 1.8592
-25.1060 -0.0809 1.8592
-24.9985 -2.3219 1.8592
-19.0103 -3.4988 1.4315
-19.2440 -5.3550 1.4793
-21.6229 -8.1586 1.7115
-20.7982 -10.0516 1.7107
-19.8083 -11.8626 1.7098
-18.6614 -13.5772 1.7090
-17.3722 -15.1867 1.7088
-15.9441 -16.6738 1.7085
-14.3887 -18.0267 1.7081
-12.7188 -19.2345 1.7077
-10.9478 -20.2875 1.7072
-9.0910 -21.1796 1.7068
-7.1639 -21.9066 1.7068
-5.6422 -24.4639 1.8592
-3.4356 -24.8700 1.8592
-1.2016 -25.0774 1.8592
1.0420 -25.0845 1.8592
3.2772 -24.8913 1.8592
5.4863 -24.4993 1.8592
7.6516 -23.9117 1.8592
9.7557 -23.1332 1.8592
11.7820 -22.1699 1.8592
10.8152 -16.5843 1.4662
15.5368 -19.7212 1.8592
8.1578 -8.6406 0.8800
17.2556 -15.2796 1.7068
18.5507 -13.6781 1.7068
19.6978 -11.9673 1.7068
20.6875 -10.1610 1.7068
21.5120 -8.2736 1.7068
22.1663 -6.3205 1.7069
22.6465 -4.3172 1.7073
21.0805 -2.0934 1.5688
23.0624 -0.2211 1.7080
19.0904 1.5268 1.4182
22.7427 3.8852 1.7086
22.3089 5.9011 1.7089
21.7017 7.8722 1.7096
20.9208 9.7823 1.7103
19.9722 11.6157 1.7110
18.8632 13.3578 1.7117
17.5815 14.9767 1.7103
17.5822 17.9215 1.8592
15.9120 19.4196 1.8592
14.1148 20.7626 1.8592
10.7660 19.3533 1.6400
7.9888 17.9728 1.4565
7.5428 22.1024 1.7295
5.9550 24.3896 1.8592
3.7539 24.8238 1.8592
1.5228 25.0598 1.8592
-0.7198 25.0708 1.8574
-2.9435 24.8083 1.8501
-5.1298 24.3673 1.8441
-7.1330 23.3161 1.8057
-9.1883 22.5916 1.8061
-11.1696 21.6834 1.8063
-13.0655 20.6071 1.8069
-14.8623 19.3705 1.8081
-16.5467 17.9820 1.8097
-18.1064 16.4515 1.8117
-19.5293 14.7895 1.8142
-20.8047 13.0076 1.8170
-21.9225 11.1184 1.8203
-22.8857 9.1402 1.8250
-23.8736 7.1393 1.8453
-24.5997 5.0170 1.8592
-24.9494 2.8009 1.8592
-25.0998 0.5623 1.8592
-25.0498 -1.6807 1.8592
-24.7997 -3.9103 1.8592
-22.3949 -5.6178 1.7098
-21.8278 -7.6030 1.7117
-16.1742 -7.3118 1.3145
-20.1085 -11.3527 1.7101
-19.0056 -13.0963 1.7092
-17.7564 -14.7373 1.7088
-16.3670 -16.2608 1.7085
-14.8468 -17.6534 1.7082
-13.2084 -18.9037 1.7078
-11.4649 -20.0020 1.7073
-9.6306 -20.9396 1.7068
-7.7228 -21.7158 1.7068
-6.0604 -23.5098 1.7979
-4.0716 -24.7738 1.8592
-1.8437 -25.0383 1.8592
0.3990 -25.1029 1.8592
2.6385 -24.9671 1.8592
4.8568 -24.6319 1.8592
7.0364 -24.0999 1.8592
9.1599 -23.3755 1.8592
11.2102 -22.4644 1.8592
10.5669 -17.1482 1.4916
12.1264 -16.2311 1.5004
16.7620 -18.6910 1.8592
8.5281 -7.9505 0.8634
18.1942 -14.1488 1.7068
19.3847 -12.4680 1.7068
20.4204 -10.6877 1.7068
21.2930 -8.8220 1.7068
21.9958 -6.8859 1.7068
22.5272 -4.8957 1.7072
22.8789 -2.8657 1.7075
22.5713 -0.7951 1.6726
23.0327 1.2492 1.7082
20.1258 2.9096 1.5059
22.4517 5.3273 1.7088
21.8937 7.3128 1.7094
21.1621 9.2420 1.7101
20.2609 11.0989 1.7108
19.1970 12.8687 1.7115
17.9755 14.5343 1.7119
16.5572 16.0336 1.7068
16.4043 19.0056 1.8592
14.6421 20.3942 1.8592
12.7629 21.6199 1.8592
8.5825 18.0479 1.4800
7.1164 19.2267 1.5182
6.5779 24.2290 1.8592
4.3886 24.7195 1.8592
2.1643 25.0126 1.8592
-0.0774 25.1059 1.8592
-2.2948 24.7448 1.8403
-4.5409 24.6920 1.8592
-6.5344 23.4953 1.8060
-8.6066 22.8200 1.8061
-10.6098 21.9612 1.8062
-12.5317 20.9323 1.8067
-14.3582 19.7408 1.8077
-16.0762 18.3949 1.8092
-17.6728 16.9041 1.8111
-19.1361 15.2786 1.8134
-20.4548 13.5299 1.8162
-21.6188 11.6701 1.8193
-22.6185 9.7125 1.8229
-23.6194 7.7278 1.8404
-24.4631 5.6456 1.8592
-24.8694 3.4391 1.8592
-25.0771 1.2052 1.8592
-25.0846 -1.0384 1.8592
-24.8917 -3.2737 1.8592
-22.5115 -5.0378 1.7083
-22.0184 -7.0423 1.7119
-21.2917 -8.9756 1.7111
-20.3956 -10.8353 1.7103
-19.3375 -12.6069 1.7095
-18.1290 -14.2782 1.7089
-16.7791 -15.8370 1.7086
-15.2952 -17.2683 1.7083
-13.6893 -18.5605 1.7079
-11.9745 -19.7033 1.7075
-10.1647 -20.6877 1.7070
-8.2767 -21.5108 1.7068
-6.3753 -22.3465 1.7209
-4.7050 -24.6613 1.8592
-2.4845 -24.9829 1.8592
-0.2443 -25.1049 1.8592
1.9980 -25.0265 1.8592
4.2242 -24.7482 1.8592
6.4167 -24.2723 1.8592
8.5580 -23.6025 1.8592
10.6309 -22.7442 1.8592
11.2783 -19.3984 1.6617
11.5923 -16.3750 1.4858
16.2777 -19.1143 1.8592
8.2417 -8.0879 0.8551
17.8258 -14.6103 1.7068
19.0590 -12.9606 1.7068
16.4529 -9.1556 1.3944
21.0600 -9.3646 1.7068
21.8120 -7.4471 1.7068
22.3931 -5.4709 1.7071
22.7967 -3.4506 1.7074
22.3580 -1.3618 1.6588
23.0559 0.6587 1.7081
18.9093 2.2409 1.4101
22.5797 4.7501 1.7087
22.0712 6.7487 1.7092
21.3894 8.6957 1.7099
20.5361 10.5749 1.7106
19.5181 12.3712 1.7113
18.3432 14.0700 1.7120
16.9751 15.6157 1.7081
6.0802 6.6899 0.6695
15.1599 20.0124 1.8592
13.3127 21.2858 1.8592
9.5187 18.7616 1.5580
7.4351 18.6087 1.4840
7.1965 24.0525 1.8592
5.0205 24.5989 1.8592
2.8044 24.9489 1.8592
0.5659 25.0997 1.8592
-1.6600 24.7924 1.8401
-3.9068 24.8002 1.8592
-5.9355 23.6755 1.8075
-8.0160 23.0239 1.8054
-10.0434 22.2250 1.8061
-11.9900 21.2442 1.8065
-13.8452 20.0985 1.8074
-15.5956 18.7960 1.8087
-17.2283 17.3456 1.8105
-18.7309 15.7576 1.8127
-20.0922 14.0430 1.8153
-21.3016 12.2138 1.8184
-22.3493 10.2828 1.8218
-23.3467 8.3066 1.8351
-24.2746 6.2612 1.8565
-24.7732 4.0751 1.8592
-25.0380 1.8472 1.8592
-25.1030 -0.3954 1.8592
-24.9674 -2.6349 1.8592
-18.9911 -3.7418 1.4334
-19.7015 -5.7492 1.5198
-21.5176 -8.4283 1.7114
-20.6693 -10.3107 1.7105
-19.6569 -12.1090 1.7097
-18.4895 -13.8096 1.7090
-17.1802 -15.4028 1.7087
-15.7335 -16.8718 1.7084
-14.1613 -18.2050 1.7080
-12.4764 -19.3916 1.7076
-10.6923 -20.4222 1.7071
-8.8250 -21.2917 1.7068
-6.8889 -21.9946 1.7068
-5.3352 -24.5327 1.8592
-3.1237 -24.9110 1.8592
-0.8874 -25.0904 1.8592
1.3561 -25.0695 1.8592
3.5888 -24.8483 1.8592
5.7928 -24.4287 1.8592
7.9505 -23.8140 1.8592
10.0448 -23.0091 1.8592
12.0588 -22.0206 1.8592
11.0682 -16.5161 1.4723
15.7826 -19.5250 1.8592
7.9605 -8.2227 0.8475
17.4456 -15.0622 1.7068
18.7206 -13.4446 1.7068
19.8461 -11.7196 1.7068
20.8132 -9.9011 1.7068
21.6140 -8.0035 1.7068
22.2443 -6.0425 1.7070
22.6995 -4.0333 1.7073
20.9267 -1.8137 1.5555
23.0640 0.0678 1.7080
18.9643 1.7560 1.4104
22.6928 4.1699 1.7086
22.2338 6.1802 1.7089
21.6026 8.1440 1.7097
20.7978 10.0441 1.7104
19.8263 11.8657 1.7111
18.6955 13.5938 1.7118
17.3849 15.1891 1.7096
17.3563 18.1404 1.8592
15.6674 19.6174 1.8592
13.8536 20.9378 1.8592
10.3675 19.1993 1.6159
7.7399 18.0176 1.4522
7.2015 22.0003 1.7143
5.6491 24.4622 1.8592
3.4426 24.8689 1.8592
1.2087 25.0769 1.8592
-1.0293 24.9503 1.8493
-3.2690 24.8831 1.8585
-5.3641 23.9853 1.8201
-7.4239 23.2231 1.8055
-9.4706 22.4747 1.8061
-11.4408 21.5425 1.8063
-13.3236 20.4433 1.8071
-15.1054 19.1848 1.8083
-16.7731 17.7759 1.8099
-18.3142 16.2262 1.8120
-19.7171 14.5467 1.8145
-20.9711 12.7491 1.8175
-22.0661 10.8459 1.8208
-23.0524 8.8735 1.8292
-24.0023 6.8514 1.8485
-24.6606 4.7084 1.8592
-24.9825 2.4881 1.8592
-25.1049 0.2478 1.8592
-25.0267 -1.9944 1.8592
-24.7488 -4.2207 1.8592
-22.3325 -5.9005 1.7106
-21.7294 -7.8754 1.7116
-20.9296 -9.7791 1.7108
-19.9634 -11.6030 1.7100
-18.8388 -13.3325 1.7091
-17.5700 -14.9583 1.7088
-16.1615 -16.4641 1.7085
-14.6240 -17.8374 1.7081
-12.9700 -19.0670 1.7077
-11.2129 -20.1433 1.7072
-9.3676 -21.0587 1.7068
-7.4502 -21.8109 1.7068
-5.9056 -24.1575 1.8417
-3.7609 -24.8228 1.8592
-1.5299 -25.0595 1.8592
0.7135 -25.0960 1.8592
2.9510 -24.9321 1.8592
5.1651 -24.5691 1.8592
7.3378 -24.0099 1.8592
9.4520 -23.2589 1.8592
11.4907 -22.3222 1.8592
10.5531 -16.6549 1.4601
12.3915 -16.1597 1.5080
8.3887 -9.1215 0.9177
17.0540 -15.5042 1.7068
18.3700 -13.9198 1.7068
19.5394 -12.2242 1.7068
20.5527 -10.4310 1.7068
21.4018 -8.5545 1.7068
22.0809 -6.6100 1.7069
22.5874 -4.6133 1.7072
22.9136 -2.5789 1.7076
23.0568 -0.5231 1.7079
23.0159 1.5377 1.7082
22.7910 3.5870 1.7086
22.3838 5.6083 1.7089
21.8016 7.5870 1.7095
21.0459 9.5069 1.7102
20.1214 11.3525 1.7109
19.0354 13.1089 1.7116
17.7842 14.7519 1.7111
17.8153 17.6897 1.8592
16.1649 19.2096 1.8592
14.3855 20.5760 1.8592
11.2825 19.6710 1.6793
8.3336 18.1059 1.4760
6.9551 19.5395 1.5359
6.2738 24.3095 1.8592
4.0786 24.7725 1.8592
1.8508 25.0377 1.8592
-0.3919 25.1030 1.8592
-2.6097 24.7621 1.8439
-4.8499 24.6331 1.8592
-6.8277 23.4095 1.8058
-8.8917 22.7101 1.8061
-10.8844 21.8271 1.8062
-12.7937 20.7750 1.8068
-14.6058 19.5613 1.8079
-16.3075 18.1946 1.8094
-17.8861 16.6842 1.8114
-19.3299 15.0407 1.8138
-20.6275 13.2756 1.8166
-21.7690 11.4014 1.8198
-22.7450 9.4311 1.8234
-23.7443 7.4407 1.8427
-24.5319 5.3387 1.8592
-24.9105 3.1273 1.8592
-25.0903 0.8910 1.8592
-25.0696 -1.3525 1.8592
-24.8488 -3.5853 1.8592
-22.4563 -5.3217 1.7091
-21.9270 -7.3170 1.7118
-16.2865 -7.1072 1.3159
-20.2568 -11.0893 1.7102
-19.1768 -12.8473 1.7094
-17.9483 -14.5039 1.7089
-16.5789 -16.0456 1.7086
-15.0772 -17.4580 1.7082
-13.4552 -18.7299 1.7078
-11.7263 -19.8510 1.7074
-9.9043 -20.8125 1.7069
-8.0065 -21.6128 1.7068
-6.2215 -22.8907 1.7567
-4.3957 -24.7183 1.8592
-2.1713 -25.0121 1.8592
0.0703 -25.1060 1.8592
2.3113 -24.9995 1.8592
4.5339 -24.6934 1.8592
6.7203 -24.1900 1.8592
8.8530 -23.4934 1.8592
10.9150 -22.6093 1.8592
11.0101 -18.4026 1.5881
11.8521 -16.3050 1.4928
16.5159 -18.9088 1.8592
8.3810 -8.0211 0.8591
18.0074 -14.3859 1.7068
19.2198 -12.7208 1.7068
16.5653 -8.9482 1.3943
21.1757 -9.1001 1.7068
21.9034 -7.1733 1.7068
22.4605 -5.1902 1.7071
22.8387 -3.1648 1.7075
22.1994 -1.0732 1.6459
23.0465 0.9475 1.7081
20.1554 2.6449 1.5054
22.5189 5.0328 1.7088
21.9862 7.0251 1.7093
21.2800 8.9635 1.7100
20.4032 10.8319 1.7107
19.3627 12.6155 1.7114
18.1666 14.2995 1.7121
16.7709 15.8203 1.7074
16.6518 18.7891 1.8592
14.9078 20.2007 1.8592
13.0449 21.4510 1.8592
9.1252 18.5588 1.5315
7.2811 18.9074 1.5004
6.8575 24.0110 1.8492
4.7119 24.6599 1.8592
2.4916 24.9821 1.8592
0.2514 25.1048 1.8592
-1.9693 24.7568 1.8392
-4.2172 24.7493 1.8592
-6.2269 23.5811 1.8062
-8.3045 22.9236 1.8056
-10.3211 22.0978 1.8061
-12.2558 21.0934 1.8066
-14.0971 19.9252 1.8075
-15.8318 18.6014 1.8089
-17.4469 17.1312 1.8107
-18.9305 15.5247 1.8130
-20.2711 13.7933 1.8157
-21.4583 11.9490 1.8189
-22.4826 10.0049 1.8224
-23.4832 8.0251 1.8378
-24.3871 5.9654 1.8592
-24.8222 3.7644 1.8592
-25.0592 1.5334 1.8592
-25.0960 -0.7099 1.8592
-24.9325 -2.9475 1.8592
-22.5653 -4.7405 1.7075
-21.0548 -6.4314 1.6303
-21.4088 -8.6967 1.7112
-20.5371 -10.5681 1.7104
-19.5023 -12.3534 1.7096
-18.3147 -14.0399 1.7090
-16.9854 -15.6164 1.7087
-15.5204 -17.0671 1.7084
-13.9317 -18.3803 1.7080
-12.2320 -19.5456 1.7075
-10.4352 -20.5537 1.7070
-8.5575 -21.4006 1.7068
-6.6129 -22.0791 1.7068
-5.0275 -24.5976 1.8592
-2.8115 -24.9482 1.8592
-0.5729 -25.0996 1.8592
1.6701 -25.0505 1.8592
3.8998 -24.8014 1.8592
6.0983 -24.3542 1.8592
8.2483 -23.7125 1.8592
10.3322 -22.8815 1.8592
12.3337 -21.8678 1.8592
11.3232 -16.4474 1.4787
16.0260 -19.3257 1.8592
8.0973 -8.1571 0.8512
17.6329 -14.8425 1.7068
18.8876 -13.2091 1.7068
19.9914 -11.4700 1.7068
20.9355 -9.6395 1.7068
21.7125 -7.7320 1.7068
22.3189 -5.7635 1.7070
22.7489 -3.7487 1.7074
21.1661 -1.5676 1.5717
23.0619 0.3567 1.7080
18.8397 1.9828 1.4029
22.6393 4.4540 1.7087
22.1561 6.4587 1.7091
21.5001 8.4144 1.7098
20.6716 10.3045 1.7105
19.6772 12.1138 1.7112
18.5248 13.8278 1.7119
17.1858 15.3990 1.7089
6.1627 6.6048 0.6689
15.4204 19.8122 1.8592
13.5902 21.1097 1.8592
9.9447 18.9813 1.5869
7.5925 18.3034 1.4675
7.0129 22.3678 1.7360
5.3421 24.5311 1.8592
3.1308 24.9101 1.8592
0.8945 25.0901 1.8592
-1.3376 24.8588 1.8436
-3.5818 24.8492 1.8592
-5.6447 23.8344 1.8139
-7.7140 23.1275 1.8055
-9.7514 22.3544 1.8061
-11.7102 21.3983 1.8064
-13.5797 20.2763 1.8072
-15.3463 18.9962 1.8085
-16.9970 17.5670 1.8102
-18.5194 15.9984 1.8123
-19.9021 14.3016 1.8149
-21.1343 12.4884 1.8179
-22.2062 10.5715 1.8213
-23.1954 8.5965 1.8319
-24.1348 6.5634 1.8522
-24.7177 4.3991 1.8592
-25.0117 2.1749 1.8592
-25.1060 -0.0668 1.8592
-24.9998 -2.3078 1.8592
-19.0215 -3.4897 1.4321
-19.2492 -5.3447 1.4794
-21.6276 -8.1465 1.7115
-20.8040 -10.0399 1.7107
-19.8151 -11.8514 1.7098
-18.6691 -13.5666 1.7090
-17.3808 -15.1769 1.7088
-15.9535 -16.6649 1.7085
-14.3990 -18.0186 1.7081
-12.7297 -19.2273 1.7077
-10.9593 -20.2813 1.7072
-9.1030 -21.1744 1.7068
-7.1763 -21.9025 1.7068
-5.6560 -24.4607 1.8592
-3.4497 -24.8680 1.8592
-1.2158 -25.0767 1.8592
1.0278 -25.0851 1.8592
3.2631 -24.8932 1.8592
5.4724 -24.5025 1.8592
7.6381 -23.9161 1.8592
9.7426 -23.1387 1.8592
11.7694 -22.1765 1.8592
10.8038 -16.5873 1.4660
15.5257 -19.7300 1.8592
8.1674 -8.6606 0.8816
17.2469 -15.2893 1.7068
18.5430 -13.6886 1.7068
19.6910 -11.9784 1.7068
20.6817 -10.1727 1.7068
21.5074 -8.2858 1.7068
22.1626 -6.3330 1.7069
22.6441 -4.3300 1.7073
21.0875 -2.1062 1.5694
23.0622 -0.2342 1.7080
19.0961 1.5163 1.4186
22.7448 3.8723 1.7086
22.3122 5.8884 1.7089
21.7061 7.8599 1.7096
20.9263 9.7704 1.7103
19.9787 11.6044 1.7110
18.8707 13.3471 1.7117
17.5904 14.9670 1.7104
17.5923 17.9116 1.8592
15.9230 19.4105 1.8592
14.1266 20.7546 1.8592
10.7789 19.3507 1.6403
8.0047 17.9810 1.4576
7.5598 22.1114 1.7305
5.9688 24.3862 1.8592
3.7679 24.8217 1.8592
1.5370 25.0590 1.8592
-0.7057 25.0775 1.8578
-2.9290 24.8059 1.8498
-5.1196 24.3874 1.8454
-7.1198 23.3202 1.8057
-9.1754 22.5968 1.8061
-11.1573 21.6896 1.8063
-13.0538 20.6145 1.8069
-14.8513 19.3788 1.8081
-16.5364 17.9913 1.8096
-18.0969 16.4616 1.8117
-19.5207 14.8004 1.8141
-20.7971 13.0193 1.8170
-21.9159 11.1307 1.8203
-22.8681 9.1481 1.8240
-23.8693 7.1527 1.8453
-24.5969 5.0309 1.8592
-24.9478 2.8150 1.8592
-25.0995 0.5765 1.8592
-25.0507 -1.6666 1.8592
-24.8019 -3.8963 1.8592
-22.3976 -5.6050 1.7098
-21.8322 -7.5906 1.7117
-16.1790 -7.3030 1.3145
-20.1150 -11.3414 1.7101
-19.0131 -13.0856 1.7093
-17.7648 -14.7273 1.7089
-16.3762 -16.2516 1.7086
-14.8568 -17.6450 1.7082
-13.2191 -18.8963 1.7078
-11.4762 -19.9955 1.7073
-9.6425 -20.9342 1.7068
-7.7351 -21.7114 1.7068
-6.0675 -23.4824 1.7961
-4.0857 -24.7715 1.8592
-1.8578 -25.0373 1.8592
0.3848 -25.1032 1.8592
2.6243 -24.9686 1.8592
4.8429 -24.6346 1.8592
7.0228 -24.1039 1.8592
9.1467 -23.3807 1.8592
11.1974 -22.4708 1.8592
10.5621 -17.1621 1.4923
12.1145 -16.2343 1.5001
16.7514 -18.7004 1.8592
8.5217 -7.9536 0.8632
18.1862 -14.1591 1.7068
19.3777 -12.4790 1.7068
20.4144 -10.6992 1.7068
21.2880 -8.8341 1.7068
21.9919 -6.8984 1.7068
22.5244 -4.9084 1.7072
22.8772 -2.8785 1.7075
22.5495 -0.8071 1.6710
23.0334 1.2361 1.7082
20.0971 2.8938 1.5036
22.4547 5.3146 1.7088
21.8978 7.3004 1.7094
21.1672 9.2299 1.7101
20.2671 11.0873 1.7108
19.2042 12.8578 1.7115
17.9841 14.5245 1.7119
16.5662 16.0242 1.7068
16.4151 18.9963 1.8592
14.6536 20.3859 1.8592
12.7752 21.6127 1.8592
8.5960 18.0500 1.4805
7.1236 19.2127 1.5175
6.5915 24.2252 1.8592
4.4026 24.7170 1.8592
2.1785 25.0113 1.8592
-0.0631 25.1060 1.8592
-2.2808 24.7451 1.8403
-4.5269 24.6945 1.8592
-6.5212 23.4990 1.8060
-8.5937 22.8249 1.8061
-10.5974 21.9671 1.8062
-12.5198 20.9394 1.8067
-14.3470 19.7489 1.8077
-16.0656 18.4040 1.8091
-17.6631 16.9139 1.8110
-19.1273 15.2893 1.8134
-20.4470 13.5413 1.8162
-21.6119 11.6822 1.8193
-22.6127 9.7251 1.8229
-23.6138 7.7407 1.8403
-24.4599 5.6594 1.8592
-24.8674 3.4532 1.8592
-25.0765 1.2194 1.8592
-25.0852 -1.0243 1.8592
-24.8936 -3.2596 1.8592
-22.5139 -5.0249 1.7083
-22.0225 -7.0298 1.7119
-21.2968 -8.9636 1.7111
-20.4018 -10.8238 1.7103
-19.3447 -12.5959 1.7095
-18.1370 -14.2679 1.7089
-16.7880 -15.8276 1.7086
-15.3050 -17.2597 1.7083
-13.6998 -18.5528 1.7079
-11.9857 -19.6966 1.7075
-10.1764 -20.6820 1.7070
-8.2888 -21.5062 1.7068
-6.3827 -22.3245 1.7195
-4.7189 -24.6587 1.8592
-2.4986 -24.9815 1.8592
-0.2585 -25.1048 1.8592
1.9838 -25.0276 1.8592
4.2102 -24.7506 1.8592
6.4030 -24.2759 1.8592
8.5447 -23.6073 1.8592
10.6181 -22.7503 1.8592
11.2910 -19.4457 1.6652
16.2792 -13.6872 1.7068
17.4361 -12.1792 1.7068
18.4538 -10.5740 1.7068
19.3241 -8.8844 1.7068
20.0402 -7.1237 1.7068
20.5986 -5.3069 1.7070
20.9940 -3.4473 1.7074
21.1854 -1.5570 1.7047
21.2801 0.3412 1.7080
18.8340 1.9930 1.5199
20.8874 4.1216 1.7086
20.4437 5.9721 1.7092
19.8364 7.7763 1.7099
19.0702 9.5197 1.7105
18.1511 11.1885 1.7112
17.0862 12.7691 1.7118
15.8613 14.2285 1.7100
6.1571 6.6063 0.7247
14.2195 18.2904 1.8592
12.5298 19.4868 1.8592
10.7401 20.5276 1.8592
7.5857 18.3163 1.5910
6.9184 22.1104 1.8592
4.9168 22.6397 1.8592
2.8760 22.9883 1.8592
0.8123 23.1532 1.8592
-1.2579 23.1333 1.8592
-3.3182 22.9286 1.8592
-5.2271 22.0153 1.8159
-7.1475 21.3885 1.8098
-9.0313 20.6717 1.8103
-10.8445 19.7897 1.8110
-12.5730 18.7502 1.8117
-14.2058 17.5641 1.8129
-15.7309 16.2400 1.8145
-17.1368 14.7871 1.8165
-18.4128 13.2156 1.8189
-19.5490 11.5367 1.8217
-20.5363 9.7622 1.8248
-21.3666 7.9050 1.8283
-22.1363 6.0064 1.8407
-22.7503 4.0357 1.8542
-23.0816 1.9939 1.8592
-23.1674 -0.0747 1.8592
-23.0683 -2.1426 1.8592
-19.0103 -3.4988 1.5512
-19.2440 -5.3550 1.6030
-19.9523 -7.5283 1.7114
-19.1921 -9.2754 1.7106
-18.2793 -10.9469 1.7099
-17.2215 -12.5296 1.7091
-16.0272 -14.0109 1.7084
-14.7083 -15.3815 1.7079
-13.2737 -16.6298 1.7076
-11.7334 -17.7443 1.7072
-10.1005 -18.7170 1.7068
-8.3891 -19.5442 1.7068
-6.8161 -20.8429 1.7598
-5.2065 -22.5750 1.8592
-3.1703 -22.9497 1.8592
-1.1089 -23.1410 1.8592
0.9615 -23.1476 1.8592
3.0242 -22.9694 1.8592
5.0627 -22.6077 1.8592
7.0608 -22.0654 1.8592
9.0025 -21.3470 1.8592
10.8723 -20.4581 1.8592
10.8153 -16.5844 1.5889
14.3371 -18.1985 1.8592
8.1589 -8.6418 0.9538
15.9232 -14.0997 1.7068
17.1184 -12.6219 1.7068
18.1768 -11.0433 1.7068
19.0902 -9.3765 1.7068
19.8510 -7.6347 1.7068
20.4548 -5.8325 1.7070
20.8977 -3.9839 1.7073
21.0805 -2.0934 1.7001
21.2807 -0.2041 1.7079
19.0904 1.5268 1.5369
20.9851 3.5849 1.7085
20.5878 5.4458 1.7090
20.0270 7.2647 1.7097
19.3057 9.0270 1.7103
18.4298 10.7186 1.7110
17.4059 12.3258 1.7116
16.2340 13.8288 1.7114
14.8947 15.1822 1.7068
14.6834 17.9201 1.8592
13.0249 19.1594 1.8592
10.8186 19.4479 1.7860
7.9888 17.9728 1.5784
7.4825 21.9259 1.8592
5.4952 22.5063 1.8592
3.4640 22.9070 1.8592
1.4052 23.1248 1.8592
-0.6649 23.1579 1.8592
-2.7297 23.0061 1.8592
-4.7172 22.4073 1.8376
-6.5981 21.5677 1.8100
-8.4949 20.8868 1.8095
-10.3332 20.0596 1.8108
-12.0868 19.0634 1.8115
-13.7483 17.9186 1.8125
-15.3055 16.6331 1.8140
-16.7467 15.2161 1.8159
-18.0609 13.6775 1.8181
-19.2382 12.0282 1.8208
-20.2690 10.2799 1.8239
-21.1451 8.4450 1.8273
-21.9211 6.5553 1.8362
-22.5881 4.6067 1.8500
-23.0229 2.5846 1.8592
-23.1617 0.5189 1.8592
-23.1156 -1.5510 1.8592
-22.8848 -3.6084 1.8592
-20.6789 -5.1874 1.7109
-20.1412 -7.0155 1.7116
-16.1612 -7.3059 1.4233
-18.5561 -10.4763 1.7101
-17.5390 -12.0857 1.7093
-16.3829 -13.5974 1.7086
-15.0983 -15.0004 1.7080
-13.6962 -16.2852 1.7077
-12.1850 -17.4391 1.7073
-10.5768 -18.4526 1.7069
-8.8870 -19.3228 1.7068
-7.1265 -20.0391 1.7068
-5.7831 -22.4342 1.8592
-3.7572 -22.8609 1.8592
-1.7013 -23.1051 1.8592
0.3682 -23.1647 1.8592
2.4347 -23.0393 1.8592
4.4818 -22.7299 1.8592
6.4931 -22.2391 1.8592
8.4526 -21.5706 1.8592
10.3446 -20.7299 1.8592
10.5765 -17.1637 1.6179
12.1265 -16.2312 1.6260
15.4678 -17.2478 1.8592
8.5281 -7.9505 0.9357
16.7894 -13.0563 1.7068
17.8879 -11.5053 1.7068
18.8437 -9.8625 1.7068
19.6489 -8.1408 1.7068
20.2976 -6.3543 1.7069
20.7877 -4.5177 1.7072
21.1119 -2.6443 1.7075
21.2675 -0.7492 1.7078
21.2532 1.1527 1.7081
20.1258 2.9096 1.6319
20.7184 4.9160 1.7088
20.2043 6.7486 1.7095
19.5285 8.5285 1.7101
18.6963 10.2418 1.7108
17.7140 11.8745 1.7114
16.5894 13.4136 1.7121
15.2886 14.8051 1.7079
15.1377 17.5381 1.8592
13.5115 18.8194 1.8592
11.7775 19.9505 1.8592
8.5873 18.0581 1.6047
7.1163 19.2265 1.6453
6.0700 22.3582 1.8592
4.0498 22.8108 1.8592
1.9972 23.0812 1.8592
-0.0714 23.1674 1.8592
-2.1394 23.0685 1.8592
-4.1903 22.7854 1.8592
-6.0444 21.7331 1.8103
-7.9571 21.0979 1.8096
-9.8153 20.3167 1.8108
-11.5930 19.3645 1.8112
-13.2822 18.2615 1.8122
-14.8705 17.0154 1.8135
-16.3461 15.6351 1.8153
-17.6978 14.1303 1.8174
-18.9153 12.5116 1.8200
-19.9891 10.7904 1.8230
-20.9103 8.9790 1.8262
-21.6714 7.0904 1.8299
-22.4198 5.1740 1.8465
-22.9491 3.1735 1.8592
-23.1408 1.1121 1.8592
-23.1477 -0.9582 1.8592
-22.9698 -3.0209 1.8592
-20.7880 -4.6521 1.7095
-20.3168 -6.4981 1.7118
-19.6470 -8.2822 1.7111
-18.8208 -9.9987 1.7103
-17.8451 -11.6339 1.7096
-16.7280 -13.1748 1.7088
-15.4784 -14.6094 1.7081
-14.1098 -15.9299 1.7078
-12.6286 -17.1223 1.7074
-11.0469 -18.1769 1.7070
-9.3792 -19.0888 1.7068
-7.6376 -19.8499 1.7068
-6.3559 -22.2787 1.8592
-4.3417 -22.7572 1.8592
-2.2927 -23.0539 1.8592
-0.2254 -23.1665 1.8592
1.8437 -23.0941 1.8592
3.8980 -22.8373 1.8592
5.9213 -22.3981 1.8592
7.8972 -21.7801 1.8592
9.8101 -20.9881 1.8592
11.4480 -19.6903 1.8278
11.5924 -16.3751 1.6101
15.0208 -17.6384 1.8592
8.2416 -8.0879 0.9267
16.4494 -13.4822 1.7068
17.5873 -11.9598 1.7068
16.4332 -9.1447 1.5092
19.4339 -8.6415 1.7068
20.1277 -6.8721 1.7068
20.6640 -5.0485 1.7071
21.0361 -3.1842 1.7074
21.2402 -1.2937 1.7077
21.2747 0.6078 1.7080
18.9093 2.2409 1.5281
20.8351 4.3831 1.7086
20.3684 6.2281 1.7093
19.7385 8.0246 1.7099
18.9505 9.7584 1.7106
18.0105 11.4156 1.7112
16.9258 12.9828 1.7119
15.6756 14.4203 1.7093
6.0802 6.6899 0.7255
13.9892 18.4671 1.8592
12.2847 19.6422 1.8592
9.5187 18.7616 1.6883
7.4350 18.6085 1.6082
6.6409 22.1953 1.8592
4.6328 22.6995 1.8592
2.5878 23.0225 1.8592
0.5222 23.1616 1.8592
-1.5477 23.1157 1.8592
-3.6051 22.8852 1.8592
-5.4866 21.8847 1.8106
-7.4144 21.2960 1.8097
-9.2913 20.5608 1.8107
-11.0920 19.6531 1.8111
-12.8079 18.5926 1.8118
-14.4263 17.3867 1.8131
-15.9354 16.0439 1.8147
-17.3237 14.5738 1.8168
-18.5807 12.9865 1.8192
-19.6965 11.2935 1.8221
-20.6623 9.5066 1.8253
-21.4700 7.6388 1.8288
-22.2365 5.7355 1.8429
-22.8363 3.7565 1.8573
-23.1048 1.7046 1.8592
-23.1647 -0.3649 1.8592
-23.0396 -2.4315 1.8592
-18.9911 -3.7418 1.5534
-19.7015 -5.7492 1.6470
-19.8552 -7.7772 1.7113
-19.0732 -9.5145 1.7105
-18.1396 -11.1743 1.7098
-17.0621 -12.7435 1.7090
-15.8495 -14.2097 1.7083
-14.5140 -15.5641 1.7079
-13.0639 -16.7942 1.7075
-11.5098 -17.8892 1.7071
-9.8651 -18.8423 1.7068
-8.1436 -19.6477 1.7068
-6.6677 -21.2883 1.7902
-4.9233 -22.6385 1.8592
-2.8825 -22.9876 1.8592
-0.8189 -23.1531 1.8592
1.2514 -23.1338 1.8592
3.3117 -22.9297 1.8592
5.3455 -22.5425 1.8592
7.3366 -21.9752 1.8592
9.2692 -21.2325 1.8592
11.1277 -20.3202 1.8592
11.0683 -16.5163 1.5956
14.5640 -18.0174 1.8592
7.9604 -8.2227 0.9185
16.0986 -13.8992 1.7068
17.2752 -12.4065 1.7068
18.3137 -10.8147 1.7068
19.2061 -9.1365 1.7068
19.9451 -7.3855 1.7068
20.5268 -5.5759 1.7070
20.9465 -3.7218 1.7073
20.9267 -1.8137 1.6857
21.2822 0.0625 1.7079
18.9643 1.7560 1.5284
20.9390 3.8476 1.7085
20.5191 5.7036 1.7091
19.9354 7.5155 1.7098
19.1922 9.2687 1.7104
18.2950 10.9492 1.7111
17.2510 12.5435 1.7117
16.0530 14.0254 1.7107
16.0161 16.7396 1.8592
14.4577 18.1027 1.8592
12.7152 19.2172 1.8492
10.6193 19.6654 1.7936
7.7398 18.0174 1.5737
7.2072 22.0179 1.8592
5.2129 22.5734 1.8592
3.1767 22.9486 1.8592
1.1154 23.1406 1.8592
-0.9550 23.1478 1.8592
-3.0176 22.9701 1.8592
-4.9516 22.1411 1.8207
-6.8673 21.4818 1.8099
-8.7567 20.7806 1.8097
-10.5840 19.9292 1.8109
-12.3255 18.9118 1.8116
-13.9731 17.7467 1.8127
-15.5147 16.4422 1.8142
-16.9387 15.0076 1.8161
-18.2344 13.4528 1.8185
-19.3917 11.7889 1.8212
-20.4013 10.0276 1.8243
-21.2551 8.1817 1.8278
-22.0288 6.2880 1.8385
-22.6686 4.3281 1.8520
-23.0535 2.2960 1.8592
-23.1664 0.2287 1.8592
-23.0943 -1.8404 1.8592
-20.9659 -3.5756 1.7068
-20.6206 -5.4482 1.7116
-20.0504 -7.2669 1.7115
-16.4647 -7.6929 1.4584
-18.4223 -10.7073 1.7100
-17.3852 -12.3038 1.7092
-16.2103 -13.8007 1.7085
-14.9088 -15.1880 1.7080
-13.4907 -16.4551 1.7076
-11.9651 -17.5897 1.7072
-10.3446 -18.5832 1.7068
-8.6443 -19.4327 1.7068
-6.9682 -20.3999 1.7300
-5.5016 -22.5049 1.8592
-3.4705 -22.9062 1.8592
-1.4117 -23.1245 1.8592
0.6584 -23.1583 1.8592
2.7232 -23.0070 1.8592
4.7662 -22.6720 1.8592
6.7712 -22.1560 1.8592
8.7222 -21.4630 1.8592
10.6034 -20.5986 1.8592
10.5532 -16.6550 1.5823
12.3916 -16.1599 1.6342
8.3899 -9.1228 0.9946
15.7372 -14.3071 1.7068
16.9516 -12.8450 1.7068
18.0306 -11.2803 1.7068
18.9657 -9.6257 1.7068
19.7494 -7.8941 1.7068
20.3761 -6.0997 1.7069
20.8432 -4.2570 1.7072
21.1438 -2.3797 1.7075
21.2757 -0.4827 1.7078
21.2376 1.4189 1.7081
21.0297 3.3098 1.7084
20.6563 5.1755 1.7089
20.1192 7.0015 1.7096
19.4212 8.7730 1.7102
18.5675 10.4758 1.7109
17.5648 12.0962 1.7115
16.4206 13.6208 1.7121
15.0960 14.9896 1.7073
14.9168 17.7263 1.8592
13.2748 18.9872 1.8592
11.5266 20.0965 1.8592
8.3369 18.1131 1.6002
6.9550 19.5393 1.6644
5.7895 22.4324 1.8592
3.7637 22.8597 1.8592
1.7079 23.1044 1.8592
-0.3616 23.1646 1.8592
-2.4282 23.0399 1.8592
-4.4719 22.7135 1.8578
-6.3156 21.6540 1.8102
-8.2207 20.9964 1.8095
-10.0693 20.1926 1.8108
-11.8354 19.2188 1.8113
-13.5112 18.0953 1.8123
-15.0844 16.8299 1.8137
-16.5433 15.4315 1.8155
-17.8767 13.9101 1.8178
-19.0747 12.2763 1.8204
-20.1275 10.5417 1.8234
-21.0268 8.7187 1.8267
-21.8039 6.8327 1.8337
-22.5034 4.8972 1.8482
-22.9871 2.8859 1.8592
-23.1530 0.8222 1.8592
-23.1339 -1.2481 1.8592
-22.9301 -3.3084 1.8592
-20.7364 -4.9141 1.7102
-20.2326 -6.7516 1.7117
-16.2733 -7.1014 1.4249
-18.6929 -10.2331 1.7102
-17.6969 -11.8558 1.7094
-16.5606 -13.3825 1.7087
-15.2938 -14.8018 1.7080
-13.9087 -16.1050 1.7077
-12.4127 -17.2786 1.7073
-10.8179 -18.3133 1.7069
-9.1392 -19.2048 1.7068
-7.3883 -19.9440 1.7068
-6.0764 -22.3565 1.8592
-4.0563 -22.8097 1.8592
-2.0037 -23.0808 1.8592
0.0649 -23.1675 1.8592
2.1329 -23.0692 1.8592
4.1838 -22.7867 1.8592
6.2015 -22.3222 1.8592
8.1695 -21.6794 1.8592
10.0723 -20.8635 1.8592
11.8946 -19.8811 1.8592
11.8522 -16.3051 1.6177
15.2407 -17.4488 1.8592
8.3810 -8.0210 0.9310
16.6170 -13.2751 1.7068
17.7357 -11.7386 1.7068
16.5471 -8.9384 1.5093
19.5407 -8.3974 1.7068
20.2122 -6.6194 1.7068
20.7261 -4.7894 1.7071
21.0749 -2.9204 1.7074
21.2553 -1.0275 1.7078
21.2659 0.8743 1.7081
20.1554 2.6449 1.6314
20.7797 4.6441 1.7087
20.2898 6.4831 1.7094
19.6375 8.2717 1.7100
18.8277 9.9955 1.7107
17.8670 11.6410 1.7113
16.7627 13.1945 1.7120
15.4876 14.6097 1.7086
15.3660 17.3383 1.8592
13.7569 18.6410 1.8592
12.0377 19.7946 1.8592
9.1252 18.5588 1.6597
7.2810 18.9071 1.6259
6.3622 22.2768 1.8592
4.3247 22.6334 1.8492
2.2992 23.0531 1.8592
0.2320 23.1663 1.8592
-1.8371 23.0946 1.8592
-3.8916 22.8383 1.8592
-5.7598 21.8124 1.8105
-7.6803 21.2007 1.8096
-9.5483 20.4431 1.8107
-11.3379 19.5135 1.8111
-13.0408 18.4322 1.8120
-14.6447 17.2066 1.8133
-16.1374 15.8454 1.8150
-17.5080 14.3581 1.8171
-18.7458 12.7554 1.8196
-19.8411 11.0484 1.8225
-20.7852 9.2495 1.8257
-21.5702 7.3713 1.8293
-22.3266 5.4614 1.8446
-22.9056 3.4738 1.8592
-23.1243 1.4150 1.8592
-23.1583 -0.6551 1.8592
-23.0073 -2.7199 1.8592
-20.8385 -4.3777 1.7088
-20.4015 -6.2318 1.7119
-19.7550 -8.0248 1.7112
-18.9513 -9.7521 1.7104
-17.9971 -11.4000 1.7097
-16.9001 -12.9555 1.7089
-15.6692 -14.4063 1.7082
-14.3175 -15.7443 1.7078
-12.8521 -16.9561 1.7075
-11.2844 -18.0314 1.7070
-9.6283 -18.9644 1.7068
-7.8968 -19.7482 1.7068
-6.5192 -21.7664 1.8234
-4.6393 -22.6983 1.8592
-2.5944 -23.0219 1.8592
-0.5287 -23.1615 1.8592
1.5411 -23.1163 1.8592
3.5987 -22.8864 1.8592
5.6274 -22.4737 1.8592
7.6114 -21.8816 1.8592
9.5344 -21.1147 1.8592
11.3814 -20.1793 1.8592
11.3233 -16.4476 1.6025
14.7886 -17.8335 1.8592
8.0973 -8.1571 0.9224
16.2714 -13.6964 1.7068
17.4292 -12.1891 1.7068
18.4478 -10.5844 1.7068
19.3191 -8.8952 1.7068
20.0361 -7.1351 1.7068
20.5956 -5.3185 1.7070
20.9920 -3.4592 1.7074
21.1661 -1.5676 1.7033
21.2802 0.3292 1.7080
18.8397 1.9828 1.5203
20.8897 4.1098 1.7086
20.4471 5.9605 1.7092
19.8408 7.7650 1.7098
19.0756 9.5089 1.7105
18.1574 11.1782 1.7111
17.0934 12.7594 1.7118
15.8697 14.2197 1.7100
6.1627 6.6048 0.7249
14.2298 18.2824 1.8592
12.5408 19.4797 1.8592
10.7517 20.5215 1.8592
7.5924 18.3032 1.5902
6.9309 22.1064 1.8592
4.9296 22.6369 1.8592
2.8890 22.9866 1.8592
0.8254 23.1528 1.8592
-1.2448 23.1340 1.8592
-3.3052 22.9305 1.8592
-5.2153 22.0211 1.8161
-7.1354 21.3927 1.8098
-9.0194 20.6765 1.8103
-10.8333 19.7958 1.8110
-12.5623 18.7572 1.8117
-14.1958 17.5721 1.8129
-15.7216 16.2488 1.8145
-17.1283 14.7966 1.8165
-18.4051 13.2259 1.8189
-19.5422 11.5476 1.8216
-20.5305 9.7738 1.8248
-21.3619 7.9169 1.8283
-22.1312 6.0184 1.8406
-22.7473 4.0485 1.8542
-23.0805 2.0070 1.8592
-23.1675 -0.0616 1.8592
-23.0695 -2.1296 1.8592
-19.0215 -3.4897 1.5520
-19.2492 -5.3447 1.6032
-19.9566 -7.5171 1.7114
-19.1974 -9.2646 1.7106
-18.2856 -10.9366 1.7099
-17.2286 -12.5198 1.7091
-16.0351 -14.0019 1.7084
-14.7170 -15.3732 1.7079
-13.2831 -16.6223 1.7076
-11.7434 -17.7377 1.7072
-10.1111 -18.7114 1.7068
-8.4001 -19.5394 1.7068
-6.8227 -20.8231 1.7585
-5.2193 -22.5720 1.8592
-3.1833 -22.9479 1.8592
-1.1219 -23.1404 1.8592
0.9484 -23.1482 1.8592
3.0112 -22.9711 1.8592
5.0498 -22.6105 1.8592
7.0483 -22.0694 1.8592
8.9904 -21.3521 1.8592
10.8607 -20.4642 1.8592
10.8039 -16.5875 1.5886
14.3269 -18.2066 1.8592
8.1685 -8.6618 0.9555
15.9152 -14.1088 1.7068
17.1112 -12.6316 1.7068
18.1706 -11.0535 1.7068
19.0849 -9.3873 1.7068
19.8466 -7.6460 1.7068
20.4515 -5.8441 1.7070
20.8954 -3.9956 1.7073
21.0875 -2.1062 1.7007
21.2806 -0.2161 1.7079
19.0961 1.5163 1.5373
20.9871 3.5731 1.7085
20.5909 5.4341 1.7090
20.0310 7.2534 1.7097
19.3108 9.0161 1.7103
18.4358 10.7082 1.7110
17.4128 12.3159 1.7116
16.2421 13.8198 1.7114
14.9033 15.1737 1.7068
14.6936 17.9118 1.8592
13.0357 19.1521 1.8592
10.8329 19.4476 1.7865
8.0046 17.9810 1.5795
7.4950 21.9216 1.8592
5.5080 22.5032 1.8592
3.4770 22.9051 1.8592
1.4183 23.1240 1.8592
-0.6517 23.1583 1.8592
-2.7167 23.0076 1.8592
-4.7076 22.4245 1.8388
-6.5859 21.5715 1.8100
-8.4830 20.8917 1.8095
-10.3218 20.0654 1.8108
-12.0760 19.0702 1.8115
-13.7381 17.9263 1.8125
-15.2960 16.6417 1.8140
-16.7380 15.2254 1.8158
-18.0530 13.6876 1.8181
-19.2312 12.0390 1.8208
-20.2630 10.2912 1.8238
-21.1401 8.4568 1.8272
-21.9154 6.5671 1.8360
-22.5833 4.6191 1.8499
-23.0214 2.5976 1.8592
-23.1614 0.5320 1.8592
-23.1165 -1.5379 1.8592
-22.8869 -3.5955 1.8592
-20.6815 -5.1756 1.7109
-20.1452 -7.0041 1.7116
-16.1660 -7.2971 1.4234
-18.5621 -10.4658 1.7101
-17.5459 -12.0758 1.7093
-16.3907 -13.5881 1.7086
-15.1068 -14.9919 1.7080
-13.7054 -16.2775 1.7077
-12.1948 -17.4322 1.7073
-10.5873 -18.4466 1.7069
-8.8979 -19.3178 1.7068
-7.1378 -20.0350 1.7068
-5.7958 -22.4309 1.8592
-3.7702 -22.8588 1.8592
-1.7144 -23.1041 1.8592
0.3551 -23.1649 1.8592
2.4217 -23.0407 1.8592
4.4689 -22.7325 1.8592
6.4806 -22.2427 1.8592
8.4404 -21.5754 1.8592
10.3328 -20.7357 1.8592
10.5722 -17.1786 1.6188
12.1146 -16.2344 1.6256
15.4580 -17.2565 1.8592
8.5217 -7.9535 0.9355
16.7819 -13.0659 1.7068
17.8814 -11.5154 1.7068
18.8381 -9.8731 1.7068
19.6443 -8.1519 1.7068
20.2940 -6.3658 1.7069
20.7851 -4.5294 1.7072
21.1103 -2.6562 1.7075
21.2670 -0.7612 1.7078
21.2538 1.1407 1.7081
20.0971 2.8938 1.6295
20.7211 4.9043 1.7088
20.2081 6.7371 1.7095
19.5333 8.5175 1.7101
18.7020 10.2312 1.7108
17.7207 11.8645 1.7114
16.5970 13.4042 1.7121
15.2973 14.7967 1.7080
15.1476 17.5295 1.8592
13.5222 18.8118 1.8592
11.7887 19.9439 1.8592
8.6012 18.0609 1.6054
7.1235 19.2125 1.6444
6.0826 22.3547 1.8592
4.0623 22.8082 1.8592
2.0102 23.0801 1.8592
-0.0582 23.1674 1.8592
-2.1263 23.0697 1.8592
-4.1774 22.7878 1.8592
-6.0321 21.7366 1.8103
-7.9452 21.1025 1.8096
-9.8039 20.3222 1.8107
-11.5820 19.3710 1.8112
-13.2718 18.2689 1.8121
-14.8608 17.0238 1.8135
-16.3372 15.6443 1.8153
-17.6897 14.1402 1.8174
-18.9081 12.5222 1.8200
-19.9827 10.8016 1.8229
-20.9050 8.9907 1.8262
-21.6671 7.1026 1.8299
-22.4155 5.1864 1.8464
-22.9473 3.1866 1.8592
-23.1402 1.1252 1.8592
-23.1483 -0.9452 1.8592
-22.9715 -3.0079 1.8592
-20.7903 -4.6402 1.7095
-20.3206 -6.4865 1.7118
-19.6517 -8.2712 1.7111
-18.8265 -9.9881 1.7103
-17.8518 -11.6238 1.7096
-16.7355 -13.1654 1.7088
-15.4866 -14.6006 1.7081
-14.1188 -15.9220 1.7078
-12.6383 -17.1152 1.7074
-11.0572 -18.1707 1.7070
-9.3899 -19.0835 1.7068
-7.6488 -19.8456 1.7068
-6.3679 -22.2726 1.8590
-4.3546 -22.7547 1.8592
-2.3057 -23.0526 1.8592
-0.2385 -23.1664 1.8592
1.8306 -23.0952 1.8592
3.8851 -22.8395 1.8592
5.9086 -22.4014 1.8592
7.8849 -21.7845 1.8592
9.7982 -20.9936 1.8592
11.4380 -19.6988 1.8280
15.1945 -12.7752 1.7162
16.1851 -11.3054 1.7068
16.5449 -9.4802 1.6486
17.9376 -8.2469 1.7068
18.6023 -6.6126 1.7068
19.1207 -4.9261 1.7070
19.4875 -3.2000 1.7073
19.6987 -1.4477 1.7076
19.7526 0.3167 1.7079
18.8340 1.9930 1.6374
19.3906 3.8262 1.7087
18.9781 5.5439 1.7093
18.4138 7.2186 1.7099
17.7021 8.8368 1.7105
16.8485 10.3855 1.7111
15.8596 11.8523 1.7117
14.7320 13.2154 1.7110
6.1571 6.6063 0.7807
13.1993 16.9781 1.8592
11.6309 18.0887 1.8592
9.9695 19.0548 1.8592
8.2286 19.8687 1.8592
6.4220 20.5240 1.8592
4.5641 21.0154 1.8592
2.6697 21.3389 1.8592
0.7542 21.4918 1.8592
-1.1677 21.4735 1.8592
-3.0801 21.2836 1.8592
-4.8568 20.4558 1.8177
-6.6485 19.8954 1.8135
-8.3963 19.2184 1.8132
-10.0882 18.4096 1.8149
-11.6958 17.4421 1.8156
-13.2142 16.3380 1.8167
-14.6319 15.1054 1.8181
-15.9384 13.7530 1.8200
-17.1235 12.2903 1.8222
-18.1782 10.7277 1.8248
-19.0940 9.0766 1.8278
-19.8633 7.3488 1.8310
-20.4796 5.5569 1.8346
-21.0314 3.7308 1.8466
-21.3874 1.8476 1.8559
-21.5052 -0.0693 1.8592
-21.4132 -1.9889 1.8592
-19.0103 -3.4988 1.6711
-19.0779 -5.3088 1.7120
-18.5200 -6.9878 1.7113
-17.8149 -8.6098 1.7106
-16.9682 -10.1617 1.7099
-15.9867 -11.6312 1.7092
-14.8785 -13.0067 1.7085
-13.6525 -14.2774 1.7079
-12.3187 -15.4334 1.7072
-10.8894 -16.4679 1.7068
-9.3757 -17.3743 1.7068
-7.8108 -18.1969 1.7120
-6.6844 -20.4401 1.8592
-4.8329 -20.9553 1.8592
-2.9429 -21.3030 1.8592
-1.0293 -21.4807 1.8592
0.8925 -21.4868 1.8592
2.8072 -21.3214 1.8592
4.6995 -20.9856 1.8592
6.5542 -20.4823 1.8592
8.3565 -19.8154 1.8592
10.0922 -18.9902 1.8592
11.7472 -18.0134 1.8592
13.3085 -16.8927 1.8592
8.1600 -8.6430 1.0276
15.4858 -13.7124 1.7882
15.8902 -11.7163 1.7068
16.8727 -10.2509 1.7068
17.7205 -8.7037 1.7068
18.4269 -7.0871 1.7068
18.9873 -5.4141 1.7070
19.3982 -3.6980 1.7073
19.6542 -1.9518 1.7075
19.7532 -0.1894 1.7078
19.0904 1.5268 1.6557
19.4804 3.3279 1.7086
19.1120 5.0554 1.7091
18.5908 6.7438 1.7097
17.9209 8.3795 1.7103
17.1073 9.9494 1.7109
16.1564 11.4410 1.7115
15.0757 12.8421 1.7121
13.8339 14.1009 1.7078
13.6299 16.6344 1.8592
12.0905 17.7848 1.8592
10.4544 18.7931 1.8592
8.1936 18.4334 1.7440
6.9457 20.3528 1.8592
5.1010 20.8916 1.8592
3.2155 21.2635 1.8592
1.3044 21.4657 1.8592
-0.6172 21.4964 1.8592
-2.5338 21.3555 1.8592
-4.3657 20.7376 1.8322
-6.1374 20.0618 1.8138
-7.9012 19.4271 1.8132
-9.6110 18.6578 1.8145
-11.2437 17.7337 1.8153
-12.7888 16.6680 1.8163
-14.2365 15.4714 1.8177
-15.5759 14.1523 1.8194
-16.7968 12.7202 1.8216
-17.8898 11.1851 1.8241
-18.8461 9.5582 1.8269
-19.6582 7.8511 1.8301
-20.3190 6.0763 1.8335
-20.8894 4.2603 1.8431
-21.2987 2.3910 1.8529
-21.5000 0.4817 1.8592
-21.4571 -1.4397 1.8592
-19.5022 -3.0750 1.7069
-19.2027 -4.8171 1.7116
-18.6950 -6.5120 1.7115
-16.1481 -7.3000 1.5321
-17.2250 -9.7248 1.7101
-16.2813 -11.2191 1.7094
-15.2086 -12.6227 1.7087
-14.0154 -13.9245 1.7080
-12.7114 -15.1143 1.7074
-11.3079 -16.1838 1.7069
-9.8177 -17.1284 1.7068
-8.2494 -17.9364 1.7068
-7.0992 -19.9621 1.8317
-5.3682 -20.8246 1.8592
-3.4876 -21.2206 1.8592
-1.5729 -21.3619 1.8518
0.3418 -21.5027 1.8592
2.2600 -21.3863 1.8592
4.1603 -21.0991 1.8592
6.0273 -20.6435 1.8592
7.8462 -20.0229 1.8592
9.6024 -19.2425 1.8592
10.6347 -17.2582 1.7526
12.4155 -16.6181 1.7934
14.3580 -16.0103 1.8592
8.5281 -7.9505 1.0080
15.5848 -12.1196 1.7068
16.6045 -10.6798 1.7068
16.8661 -8.8274 1.6458
18.2392 -7.5567 1.7068
18.8415 -5.8984 1.7069
19.2961 -4.1936 1.7072
19.5968 -2.4546 1.7075
19.7410 -0.6954 1.7077
19.7275 1.0700 1.7080
19.5572 2.8274 1.7084
19.2334 4.5637 1.7090
18.7556 6.2647 1.7096
18.1278 7.9168 1.7102
17.3548 9.5069 1.7108
16.4425 11.0222 1.7114
15.3983 12.4504 1.7120
14.2013 13.7522 1.7091
14.0516 16.2797 1.8592
12.5421 17.4692 1.8592
10.9325 18.5191 1.8592
8.6234 18.1340 1.7360
7.4648 20.1681 1.8592
5.6345 20.7540 1.8592
3.7592 21.1742 1.8592
1.8539 21.4252 1.8592
-0.0663 21.5052 1.8592
-1.9859 21.4134 1.8592
-3.8896 21.1506 1.8592
-5.6223 20.2155 1.8141
-7.4013 19.6241 1.8132
-9.1236 18.8848 1.8132
-10.7844 18.0139 1.8151
-12.3554 16.9872 1.8160
-13.8322 15.8273 1.8173
-15.2037 14.5424 1.8189
-16.4595 13.1416 1.8209
-17.5901 11.6350 1.8233
-18.5865 10.0333 1.8261
-19.4406 8.3479 1.8291
-20.1454 6.5912 1.8325
-20.7364 4.7855 1.8399
-21.2002 2.9317 1.8503
-21.4806 1.0323 1.8592
-21.4869 -0.8895 1.8592
-21.3217 -2.8042 1.8592
-19.3046 -4.3201 1.7102
-18.8581 -6.0315 1.7117
-18.2368 -7.6878 1.7110
-17.4705 -9.2814 1.7103
-16.5654 -10.7996 1.7096
-15.5288 -12.2303 1.7089
-14.3692 -13.5624 1.7082
-13.0959 -14.7853 1.7076
-11.7195 -15.8898 1.7070
-10.2533 -16.8712 1.7068
-8.7062 -17.7192 1.7068
-7.3880 -19.2013 1.7787
-5.8999 -20.6802 1.8592
-4.0302 -21.1243 1.8592
-2.1257 -21.3744 1.8570
-0.2093 -21.5043 1.8592
1.7114 -21.4372 1.8592
3.6183 -21.1988 1.8592
5.4964 -20.7911 1.8592
7.3306 -20.2174 1.8592
9.1062 -19.4822 1.8592
10.8091 -18.5915 1.8592
12.4258 -17.5522 1.8592
13.9431 -16.3729 1.8592
8.2416 -8.0878 0.9983
15.2691 -12.5149 1.7068
16.3255 -11.1017 1.7068
16.4136 -9.1337 1.6239
18.0395 -8.0215 1.7068
18.6836 -6.3790 1.7068
19.1814 -4.6863 1.7071
19.5265 -2.9557 1.7074
19.7157 -1.2008 1.7077
19.7475 0.5642 1.7079
18.9093 2.2409 1.6462
19.3421 4.0690 1.7088
18.9081 5.7816 1.7094
18.3228 7.4491 1.7100
17.5909 9.0583 1.7106
16.7179 10.5963 1.7112
15.7106 12.0507 1.7118
14.5599 13.3939 1.7104
6.0802 6.6899 0.7816
12.9855 17.1422 1.8592
11.4034 18.2330 1.8592
9.7301 19.1782 1.8592
7.9143 19.8083 1.8441
6.1644 20.6029 1.8592
4.3004 21.0709 1.8592
2.4022 21.3707 1.8592
0.4847 21.4998 1.8592
-1.4366 21.4572 1.8592
-3.3464 21.2433 1.8592
-5.1034 20.3563 1.8144
-6.8968 19.8094 1.8134
-8.6365 19.1118 1.8132
-10.3184 18.2825 1.8150
-11.9143 17.2954 1.8157
-13.4192 16.1729 1.8169
-14.8220 14.9229 1.8184
-16.1120 13.5544 1.8203
-17.2794 12.0770 1.8226
-18.3151 10.5014 1.8252
-19.2108 8.8388 1.8282
-19.9590 7.1013 1.8315
-20.5535 5.3014 1.8351
-21.0898 3.4692 1.8478
-21.4326 1.5812 1.8580
-21.5027 -0.3387 1.8592
-21.3865 -2.2571 1.8592
-18.9911 -3.7418 1.6734
-19.0087 -5.5471 1.7119
-18.4299 -7.2189 1.7112
-17.7046 -8.8318 1.7105
-16.8386 -10.3728 1.7098
-15.8389 -11.8299 1.7091
-14.7136 -13.1913 1.7084
-13.4719 -14.4465 1.7078
-12.1238 -15.5857 1.7071
-10.6822 -16.6030 1.7068
-9.1573 -17.4904 1.7068
-7.6703 -18.5058 1.7319
-6.4278 -20.5223 1.8592
-4.5700 -21.0142 1.8592
-2.6746 -21.3297 1.8585
-0.7601 -21.4919 1.8592
1.1617 -21.4740 1.8592
3.0741 -21.2845 1.8592
4.9620 -20.9251 1.8592
6.8102 -20.3986 1.8592
8.6042 -19.7091 1.8592
10.3293 -18.8623 1.8592
11.9720 -17.8648 1.8592
13.5190 -16.7247 1.8592
7.9604 -8.2227 0.9894
15.3441 -13.2478 1.7526
16.0357 -11.5163 1.7068
16.9998 -10.0388 1.7068
17.8281 -8.4810 1.7068
18.5141 -6.8556 1.7068
19.0541 -5.1759 1.7070
19.4434 -3.4548 1.7073
19.6775 -1.7055 1.7076
19.7545 0.0581 1.7079
18.9643 1.7560 1.6466
19.4381 3.5718 1.7086
19.0481 5.2947 1.7092
18.5058 6.9765 1.7098
17.8154 8.6037 1.7104
16.9821 10.1635 1.7110
16.0126 11.6431 1.7116
14.9096 13.0264 1.7117
13.6513 14.2679 1.7072
13.4205 16.8039 1.8592
11.8668 17.9348 1.8592
10.2182 18.9226 1.8592
8.4881 19.7593 1.8592
6.6901 20.4382 1.8592
4.8389 20.9538 1.8592
2.9489 21.3021 1.8592
1.0353 21.4804 1.8592
-0.8865 21.4870 1.8592
-2.8011 21.3221 1.8592
-4.6008 20.5727 1.8225
-6.3878 19.9820 1.8137
-8.1440 19.3266 1.8132
-9.8459 18.5394 1.8148
-11.4657 17.5925 1.8155
-12.9978 16.5080 1.8165
-14.4310 15.2937 1.8179
-15.7544 13.9582 1.8197
-16.9579 12.5110 1.8219
-18.0322 10.9624 1.8244
-18.9688 9.3235 1.8273
-19.7600 7.6062 1.8305
-20.3991 5.8229 1.8340
-20.9583 4.0016 1.8447
-21.3394 2.1254 1.8540
-21.5043 0.2123 1.8592
-21.4374 -1.7083 1.8592
-19.4697 -3.3204 1.7075
-19.1471 -5.0589 1.7122
-18.6110 -6.7452 1.7114
-16.2902 -7.6114 1.5545
-17.1008 -9.9392 1.7100
-16.1386 -11.4215 1.7093
-15.0484 -12.8115 1.7086
-13.8391 -14.0982 1.7079
-12.5204 -15.2716 1.7073
-11.1039 -16.3237 1.7068
-9.6024 -17.2500 1.7068
-8.0241 -18.0384 1.7068
-6.9514 -20.3509 1.8592
-5.1069 -20.8902 1.8592
-3.2215 -21.2627 1.8592
-1.3104 -21.4654 1.8592
0.6111 -21.4967 1.8592
2.5278 -21.3563 1.8592
4.4243 -21.0453 1.8592
6.2854 -20.5663 1.8592
8.0964 -19.9231 1.8592
9.8427 -19.1207 1.8592
10.7856 -17.0218 1.7422
13.0861 -17.0655 1.8592
8.3910 -9.1241 1.0717
15.6401 -14.2188 1.8274
15.7353 -11.9234 1.7068
16.7370 -10.4710 1.7068
17.6050 -8.9350 1.7068
18.3324 -7.3277 1.7068
18.9143 -5.6621 1.7069
19.3476 -3.9515 1.7072
19.6264 -2.2089 1.7075
19.7486 -0.4480 1.7078
19.7129 1.3170 1.7081
19.5213 3.0724 1.7085
19.1756 4.8045 1.7091
18.6766 6.4994 1.7096
18.0281 8.1437 1.7102
17.2352 9.7241 1.7109
16.3040 11.2279 1.7115
15.2418 12.6430 1.7121
14.0228 13.9239 1.7085
13.8465 16.4545 1.8592
12.3223 17.6249 1.8592
10.6996 18.6547 1.8592
8.3628 18.1694 1.7292
7.2116 20.2601 1.8592
5.3741 20.8230 1.8592
3.4936 21.2196 1.8592
1.5853 21.4468 1.8592
-0.3357 21.5027 1.8592
-2.2540 21.3868 1.8592
-4.1442 21.0488 1.8547
-5.8746 20.1419 1.8139
-7.6462 19.5290 1.8132
-9.3630 18.7761 1.8139
-11.0098 17.8783 1.8152
-12.5683 16.8325 1.8161
-14.0309 15.6546 1.8175
-15.3869 14.3528 1.8192
-16.6257 12.9366 1.8212
-17.7380 11.4160 1.8237
-18.7149 9.8018 1.8265
-19.5485 8.1057 1.8296
-20.2318 6.3401 1.8330
-20.8136 4.5295 1.8415
-21.2532 2.6681 1.8518
-21.4918 0.7632 1.8592
-21.4741 -1.1585 1.8592
-21.2849 -3.0711 1.8592
-19.2564 -4.5634 1.7109
-18.7798 -6.2670 1.7116
-16.2602 -7.0957 1.5338
-17.3518 -9.4990 1.7102
-16.4278 -11.0056 1.7095
-15.3735 -12.4232 1.7088
-14.1973 -13.7406 1.7081
-12.9090 -14.9474 1.7075
-11.5192 -16.0349 1.7069
-10.0412 -16.9983 1.7068
-8.4835 -17.8269 1.7068
-7.2482 -19.5660 1.8039
-5.6404 -20.7525 1.8592
-3.7652 -21.1732 1.8592
-1.8588 -21.4122 1.8581
0.0602 -21.5053 1.8592
1.9798 -21.4140 1.8592
3.8836 -21.1518 1.8592
