ply
format ascii 1.0
element vertex 1947
property float32 x
property float32 y
property float32 z
end_header
22.4494 -13.4142 -7.7903
24.4481 -11.7861 -8.0849
22.7234 -8.5487 -7.2323
22.8503 -6.3348 -7.0636
20.3257 -3.7208 -6.1554
19.4564 -1.7885 -5.8203
18.7609 -0.0428 -5.5887
18.1137 1.5818 -5.4164
18.5413 3.3068 -5.6104
18.4595 22.8640 -8.7537
-37.8264 28.2249 -14.0592
-36.7863 22.6381 -12.8670
-40.5467 20.2037 -13.4948
18.5934 -36.6257 -12.2358
18.9561 -30.2932 -10.6452
22.6769 -29.9212 -11.1838
21.8374 -24.0164 -9.6695
19.8093 -18.2151 -8.0165
19.8209 -15.1969 -7.4402
21.0463 -13.3339 -7.4218
24.4037 -12.5605 -8.1760
22.6851 -9.2176 -7.2942
22.8138 -6.9713 -7.1062
20.5655 -4.3227 -6.2601
19.7757 -2.3402 -5.9321
18.9584 -0.5386 -5.6498
18.2987 1.1173 -5.4612
17.6769 2.6783 -5.3259
18.8140 22.0966 -8.6451
-36.2758 23.6519 -12.9002
-39.1056 20.7778 -13.1914
18.9263 -32.0796 -11.0954
20.9691 -29.6562 -10.5764
21.7485 -25.5682 -9.7745
19.5890 -19.2459 -7.9967
19.7625 -16.2171 -7.4443
19.9145 -13.5598 -7.0157
14.1447 -7.8824 -4.7152
24.4982 -10.9114 -7.8094
22.7670 -7.7889 -7.0069
20.7710 -5.0884 -6.2273
19.9521 -3.0330 -5.8767
19.2150 -1.1827 -5.6059
18.5376 0.5176 -5.4002
17.9034 2.1098 -5.2494
22.5387 4.7260 -6.7059
5.6137 8.9615 -3.0793
-36.8654 25.8127 -13.1049
-38.2128 21.9536 -12.8330
-42.2989 19.5057 -13.5638
-22.2226 5.7527 -6.6844
-21.3160 3.5257 -6.2914
18.8387 -34.4881 -11.4434
19.7826 -29.5882 -10.3643
23.6825 -29.3625 -10.9847
19.5332 -20.2205 -8.1867
19.7026 -17.0483 -7.5869
19.7163 -14.1925 -7.0741
22.6811 -13.4275 -7.6752
24.4549 -11.6668 -7.8900
22.7294 -8.4454 -7.0608
22.8075 -6.2230 -6.8842
20.2890 -3.6287 -6.0018
19.4234 -1.7057 -5.6778
18.7305 0.0336 -5.4542
18.0851 1.6536 -5.2883
18.9027 3.4508 -5.5953
-37.6912 27.8858 -13.6528
-36.9146 22.5102 -12.5902
-40.7775 20.1118 -13.2399
-21.5517 4.1457 -6.3908
18.6123 -36.2958 -11.8778
18.9704 -30.0431 -10.3465
22.8782 -29.9328 -10.9707
19.4746 -21.2432 -8.3919
19.8174 -18.0740 -7.8103
19.8273 -15.0739 -7.2527
21.2564 -13.3459 -7.3087
24.4107 -12.4385 -7.9779
22.6912 -9.1125 -7.1205
22.8195 -6.8715 -6.9397
20.5275 -4.2274 -6.1030
19.7416 -2.2546 -5.7860
18.9273 -0.4605 -5.5132
18.2697 1.1903 -5.3313
17.6492 2.7477 -5.2013
-36.9054 23.8487 -12.7952
-39.3259 20.6900 -12.9397
-21.8132 4.7900 -6.5032
18.3006 -38.1078 -12.3101
18.5861 -31.2115 -10.5781
21.4847 -29.6857 -10.6708
21.7788 -25.0393 -9.6635
19.6118 -18.8480 -7.9207
19.7822 -15.8717 -7.3854
19.9608 -13.2717 -6.9800
24.3655 -13.2282 -8.0733
24.5162 -10.5971 -7.7774
22.7827 -7.5148 -6.9858
20.6646 -4.8215 -6.1791
19.9628 -2.8098 -5.8704
19.1286 -0.9658 -5.5773
18.4574 0.7190 -5.3788
17.8274 2.3003 -5.2343
23.2438 5.1420 -6.9321
5.5656 9.1062 -3.1078
-36.5673 25.0079 -12.9002
-38.6537 21.6438 -12.9002
-42.9636 19.2409 -13.7081
-22.0954 5.4606 -6.6276
-18.3845 -2.1285 -5.3892
18.9195 -33.7465 -11.2658
20.2774 -29.6165 -10.4519
23.4919 -28.4780 -10.7501
19.5570 -19.8036 -8.1048
19.7348 -16.6994 -7.5280
19.8899 -13.9871 -7.0806
23.3262 -13.4644 -7.8429
24.4733 -11.3461 -7.8551
22.7453 -8.1671 -7.0374
22.6877 -5.9224 -6.8279
20.0840 -3.3640 -5.9298
19.3348 -1.4833 -5.6467
18.6486 0.2390 -5.4308
18.0081 1.8469 -5.2714
19.9581 3.8713 -5.9200
5.7809 8.9259 -3.0967
-24.4663 17.6874 -8.7912
-37.4325 22.2636 -12.6824
-41.4105 19.8596 -13.3735
-21.4451 3.8806 -6.3461
-20.5289 1.8449 -6.0020
-12.7891 -19.1927 -6.7159
18.6621 -35.4257 -11.6597
19.1179 -29.5501 -10.2487
23.2932 -29.7893 -11.0115
19.4996 -20.8054 -8.3034
19.8390 -17.6971 -7.7415
19.6912 -14.6307 -7.1435
21.8407 -13.3794 -7.4584
24.4295 -12.1108 -7.9399
22.7074 -8.8296 -7.0946
22.8349 -6.6025 -6.9218
20.4259 -3.9724 -6.0594
19.6501 -2.0250 -5.7523
18.8437 -0.2507 -5.4877
18.1914 1.3867 -5.3126
17.6316 2.9444 -5.2053
-36.6850 23.1372 -12.6297
-39.9305 20.4492 -13.0636
-21.7015 4.5153 -6.4547
18.5409 -37.5419 -12.1926
19.0553 -31.2117 -10.6486
22.0097 -29.7158 -10.7681
21.8084 -24.5222 -9.5561
19.6341 -18.4575 -7.8470
19.8017 -15.5316 -7.3283
20.4931 -13.3022 -7.1144
24.3847 -12.8927 -8.0321
24.5341 -10.2854 -7.7466
22.7983 -7.2422 -6.9657
20.5600 -4.5588 -6.1324
19.8686 -2.5736 -5.8340
19.0431 -0.7511 -5.5496
18.3778 0.9189 -5.3582
17.7519 2.4899 -5.2199
24.6398 5.7363 -7.3669
-36.8408 24.6033 -12.9002
-38.8899 21.2163 -12.9002
-43.6428 18.9703 -13.8572
-21.9752 5.1746 -6.5741
18.8174 -32.7137 -10.9896
20.7809 -29.6454 -10.5423
23.5257 -27.8871 -10.6243
19.5804 -19.3949 -8.0254
19.7551 -16.3463 -7.4666
19.9079 -13.6744 -7.0329
14.0837 -7.9238 -4.7056
24.4915 -11.0282 -7.8215
22.7611 -7.8906 -7.0149
22.5699 -5.6267 -6.7734
19.9875 -3.1217 -5.8908
19.2472 -1.2634 -5.6167
18.5675 0.4427 -5.4083
17.9316 2.0390 -5.2552
21.1438 4.3436 -6.2856
5.6496 8.9375 -3.0789
-36.9898 26.1250 -13.1868
-38.0003 22.0381 -12.7917
-42.0566 19.6022 -13.5116
-21.3504 3.6208 -6.3059
18.7101 -34.5869 -11.4508
19.6016 -29.5778 -10.3326
23.4762 -29.3507 -10.9444
19.5242 -20.3767 -8.2177
19.6329 -17.1284 -7.5869
19.7096 -14.3099 -7.0925
22.4494 -13.4142 -7.6153
24.4481 -11.7861 -7.9033
22.7234 -8.5487 -7.0697
22.8503 -6.3348 -6.9049
20.3257 -3.7208 -6.0171
19.4564 -1.7885 -5.6895
18.7609 -0.0428 -5.4631
18.1137 1.5818 -5.2947
18.5412 3.3068 -5.4843
-37.8264 28.2250 -13.7433
-36.7863 22.6381 -12.5779
-40.5467 20.2037 -13.1915
-21.5918 4.2448 -6.4078
18.5934 -36.6257 -11.9608
18.9561 -30.2932 -10.4060
22.5444 -29.7464 -10.8686
19.4652 -21.4075 -8.4254
19.8093 -18.2150 -7.8363
19.8203 -15.1965 -7.2728
21.0463 -13.3339 -7.2550
24.4037 -12.5605 -7.9923
22.6851 -9.2176 -7.1303
22.8138 -6.9712 -6.9465
20.5655 -4.3227 -6.1194
19.7757 -2.3402 -5.7988
18.9584 -0.5386 -5.5228
18.2987 1.1173 -5.3384
17.6769 2.6783 -5.2062
-37.0207 24.1376 -12.8692
-39.1216 20.7863 -12.9002
-21.8564 4.8930 -6.5220
18.1974 -38.2922 -12.3456
18.4755 -31.3155 -10.5877
20.9691 -29.6562 -10.3341
21.7485 -25.5682 -9.5506
19.5890 -19.2459 -7.8135
19.7625 -16.2171 -7.2738
19.9147 -13.5599 -6.8550
14.1443 -7.8821 -4.6071
24.4982 -10.9114 -7.6305
22.7670 -7.7889 -6.8464
20.7710 -5.0884 -6.0846
19.4791 -2.9611 -5.6060
19.2150 -1.1827 -5.4775
18.5376 0.5176 -5.2765
17.9034 2.1098 -5.1292
22.5387 4.7260 -6.5523
5.6137 8.9615 -3.0087
-37.1402 26.0051 -12.9002
-38.2128 21.9536 -12.5390
-42.2989 19.5057 -13.2531
18.8387 -34.4881 -11.1812
19.7826 -29.5882 -10.1269
23.4572 -29.0833 -10.6310
19.5331 -20.2205 -7.9992
19.7143 -17.0584 -7.4175
19.8911 -14.3182 -6.9733
22.6811 -13.4275 -7.4994
24.4549 -11.6668 -7.7093
22.7294 -8.4454 -6.8991
22.8075 -6.2230 -6.7265
20.2890 -3.6287 -5.8643
19.4234 -1.7057 -5.5477
18.7305 0.0336 -5.3293
18.0851 1.6536 -5.1671
18.9027 3.4508 -5.4672
4.0888 29.2652 -8.4076
-37.6913 27.8859 -13.3401
-36.9146 22.5102 -12.3018
-40.7774 20.1118 -12.9366
-22.5172 6.4609 -6.6652
-20.6811 2.0887 -5.9142
18.6123 -36.2959 -11.6057
18.9704 -30.0431 -10.1095
22.7445 -29.7578 -10.6567
19.4746 -21.2432 -8.1997
19.8174 -18.0740 -7.6314
19.8277 -15.0742 -7.0867
21.2565 -13.3459 -7.1412
24.4107 -12.4385 -7.7951
22.6912 -9.1125 -6.9573
22.8195 -6.8715 -6.7807
20.5275 -4.2274 -5.9632
19.5929 -2.2376 -5.6109
18.9273 -0.4605 -5.3869
18.2697 1.1903 -5.2092
17.6492 2.7477 -5.0821
-36.9054 23.8487 -12.5021
-40.1249 21.1104 -12.9002
-20.9636 2.6720 -6.0129
18.4863 -38.4945 -12.1501
18.5861 -31.2115 -10.3357
21.4848 -29.6857 -10.4263
19.4129 -22.3193 -8.4164
19.6118 -18.8480 -7.7392
19.7822 -15.8717 -7.2162
19.9608 -13.2717 -6.8201
24.3655 -13.2282 -7.8884
24.5162 -10.5971 -7.5992
22.7827 -7.5147 -6.8258
20.6646 -4.8215 -6.0375
19.3866 -2.7287 -5.5703
19.1286 -0.9658 -5.4495
18.4574 0.7190 -5.2556
17.8274 2.3003 -5.1144
23.2438 5.1420 -6.7733
5.5656 9.1062 -3.0369
-37.4246 25.5942 -12.9002
-38.7944 21.7226 -12.6505
-42.9636 19.2409 -13.3941
-18.3840 -2.1284 -5.2656
18.3904 -32.8026 -10.6999
20.2774 -29.6165 -10.2125
23.4919 -28.4780 -10.5038
19.5570 -19.8036 -7.9191
19.7348 -16.6993 -7.3556
19.8902 -13.9873 -6.9185
23.3262 -13.4644 -7.6632
24.4733 -11.3461 -7.6752
22.7453 -8.1671 -6.8762
22.6877 -5.9224 -6.6715
20.0840 -3.3640 -5.7940
19.3348 -1.4834 -5.5174
18.6486 0.2390 -5.3064
18.0081 1.8469 -5.1506
19.9582 3.8713 -5.7844
5.7809 8.9259 -3.0257
-37.3344 26.9901 -13.1077
-37.4325 22.2636 -12.3919
-41.4105 19.8596 -13.0672
-22.4219 6.1669 -6.6165
-20.5289 1.8449 -5.8645
-12.7891 -19.1927 -6.5621
18.6621 -35.4257 -11.3926
19.1179 -29.5501 -10.0139
23.2932 -29.7893 -10.7593
19.4996 -20.8055 -8.1132
19.8390 -17.6971 -7.5641
19.6912 -14.6307 -6.9799
21.8407 -13.3794 -7.2875
24.4295 -12.1108 -7.7580
22.7074 -8.8296 -6.9321
22.8349 -6.6025 -6.7632
20.4259 -3.9724 -5.9206
19.6501 -2.0250 -5.6206
18.8437 -0.2507 -5.3620
18.1914 1.3867 -5.1909
17.6316 2.9444 -5.0861
-38.2012 29.1658 -13.6749
-36.6850 23.1372 -12.3403
-40.3553 20.6668 -12.9002
-20.8480 2.4240 -5.9717
18.7131 -37.8906 -12.0239
19.0553 -31.2117 -10.4047
22.0097 -29.7157 -10.5215
19.4393 -21.8584 -8.3229
19.6341 -18.4575 -7.6673
19.8017 -15.5316 -7.1604
20.4931 -13.3022 -6.9515
24.3847 -12.8926 -7.8481
24.5341 -10.2854 -7.5692
22.7983 -7.2422 -6.8061
20.5600 -4.5588 -5.9919
19.2951 -2.4993 -5.5358
19.0431 -0.7511 -5.4224
18.3778 0.9189 -5.2355
17.7519 2.4899 -5.1003
24.6351 5.7352 -7.1967
-37.3393 24.9362 -12.7752
-39.3867 21.4873 -12.7657
-43.6428 18.9703 -13.5398
-21.1406 3.0196 -6.0761
18.4337 -32.0465 -10.5189
20.7809 -29.6454 -10.3008
23.5257 -27.8872 -10.3809
19.5804 -19.3949 -7.8415
19.7551 -16.3463 -7.2955
19.9081 -13.6745 -6.8719
14.0833 -7.9236 -4.5977
24.4915 -11.0282 -7.6423
22.7611 -7.8906 -6.8542
22.5699 -5.6267 -6.6182
19.5136 -3.0477 -5.6194
19.2472 -1.2634 -5.4881
18.5675 0.4427 -5.2844
17.9316 2.0390 -5.1349
21.1438 4.3436 -6.1416
5.6496 8.9375 -3.0084
-37.0340 26.1562 -12.9002
-38.0003 22.0381 -12.4987
-42.0566 19.6022 -13.2021
18.7101 -34.5869 -11.1885
19.6016 -29.5778 -10.0959
23.4442 -29.3107 -10.6792
19.5242 -20.3767 -8.0295
19.7066 -17.1927 -7.4409
19.8326 -14.3991 -6.9733
22.4494 -13.4142 -7.4408
24.4481 -11.7861 -7.7222
22.7234 -8.5487 -6.9078
22.8503 -6.3348 -6.7467
20.3257 -3.7208 -5.8793
19.4564 -1.7886 -5.5592
18.7609 -0.0428 -5.3380
18.1137 1.5818 -5.1734
18.5413 3.3068 -5.3587
4.1928 29.1427 -8.3772
-37.8264 28.2249 -13.4285
-36.7863 22.6381 -12.2897
-40.5802 20.2208 -12.9002
-20.7377 2.1798 -5.9329
18.5934 -36.6257 -11.6868
18.9561 -30.2932 -10.1676
22.5444 -29.7464 -10.6197
19.4652 -21.4075 -8.2324
19.8093 -18.2151 -7.6568
19.8208 -15.1968 -7.1063
21.0463 -13.3339 -7.0888
24.4037 -12.5605 -7.8092
22.6851 -9.2176 -6.9670
22.8138 -6.9712 -6.7874
20.5655 -4.3227 -5.9793
19.4363 -2.3000 -5.5687
18.9584 -0.5386 -5.3963
18.2987 1.1173 -5.2161
17.6769 2.6783 -5.0869
-37.0207 24.1376 -12.5744
-39.9899 21.2477 -12.8844
-21.0066 2.7645 -6.0284
18.4755 -31.3155 -10.3451
20.9691 -29.6562 -10.0927
21.7485 -25.5682 -9.3275
19.5890 -19.2459 -7.6309
19.7625 -16.2171 -7.1038
19.9147 -13.5599 -6.6949
14.1439 -7.8819 -4.4993
24.4982 -10.9114 -7.4522
22.7670 -7.7889 -6.6864
20.7710 -5.0884 -5.9425
19.4791 -2.9611 -5.4750
19.2150 -1.1827 -5.3495
18.5376 0.5176 -5.1532
17.9034 2.1098 -5.0094
22.5387 4.7260 -6.3992
5.6137 8.9615 -2.9384
-38.0082 26.6129 -12.8932
-38.2128 21.9536 -12.2461
-42.2989 19.5057 -12.9434
18.8387 -34.4881 -10.9200
19.7825 -29.5882 -9.8903
23.4572 -29.0832 -10.3826
19.5331 -20.2205 -7.8123
19.7137 -17.0579 -7.2440
20.0269 -14.4160 -6.8569
22.6811 -13.4275 -7.3242
24.4549 -11.6668 -7.5292
22.7294 -8.4454 -6.7379
22.8075 -6.2230 -6.5694
19.7070 -3.5246 -5.5630
19.4234 -1.7057 -5.4181
18.7305 0.0336 -5.2048
18.0851 1.6536 -5.0464
18.9027 3.4508 -5.3394
-37.6913 27.8859 -13.0284
-36.2440 22.1012 -11.7962
-41.6354 20.5349 -12.9002
18.6122 -36.2959 -11.3346
18.9704 -30.0432 -9.8733
22.7445 -29.7578 -10.4078
19.4746 -21.2432 -8.0081
19.6641 -17.9342 -7.3955
19.9770 -15.1877 -6.9733
21.2565 -13.3459 -6.9744
24.4107 -12.4385 -7.6130
22.6912 -9.1125 -6.7948
22.8195 -6.8715 -6.6223
20.5275 -4.2274 -5.8238
19.5929 -2.2376 -5.4798
18.9273 -0.4605 -5.2610
18.2697 1.1903 -5.0875
17.6492 2.7477 -4.9634
-36.9054 23.8487 -12.2101
-40.2155 21.1581 -12.6272
-22.6486 7.1439 -6.5992
18.5861 -31.2115 -10.0943
21.4847 -29.6857 -10.1827
19.4129 -22.3193 -8.2198
19.6118 -18.8480 -7.5584
19.7822 -15.8717 -7.0476
19.9608 -13.2717 -6.6608
24.3655 -13.2282 -7.7041
24.5162 -10.5971 -7.4217
22.7827 -7.5148 -6.6663
20.6646 -4.8215 -5.8965
19.3866 -2.7287 -5.4402
19.1286 -0.9658 -5.3222
18.4574 0.7190 -5.1328
17.8275 2.3003 -4.9949
23.2438 5.1420 -6.6151
5.5656 9.1062 -2.9655
-37.6683 25.7608 -12.6808
-38.7944 21.7226 -12.3550
-42.9637 19.2408 -13.0812
-18.3835 -2.1284 -5.1425
18.3904 -32.8026 -10.4499
20.2774 -29.6165 -9.9739
23.4919 -28.4780 -10.2584
19.5570 -19.8036 -7.7341
19.7346 -16.6992 -7.1836
19.8902 -13.9873 -6.7569
23.3262 -13.4644 -7.4842
24.4733 -11.3462 -7.4959
22.7453 -8.1671 -6.7155
22.6877 -5.9224 -6.5157
19.7282 -3.3044 -5.5584
19.3348 -1.4833 -5.3885
18.6486 0.2390 -5.1825
18.0081 1.8469 -5.0303
19.9581 3.8713 -5.6493
5.7809 8.9259 -2.9551
-37.6223 27.1983 -12.9002
-37.4325 22.2636 -12.1024
-41.8592 20.0747 -12.9002
-20.5420 1.8461 -5.7312
-12.8055 -19.2173 -6.4170
18.6621 -35.4257 -11.1264
19.1179 -29.5501 -9.7800
23.2931 -29.7893 -10.5079
19.4996 -20.8054 -7.9237
19.6855 -17.5602 -7.3303
20.0014 -14.8612 -6.9242
21.8407 -13.3794 -7.1173
24.4295 -12.1108 -7.5768
22.7074 -8.8296 -6.7701
22.8349 -6.6025 -6.6052
19.8400 -3.8584 -5.6164
19.6501 -2.0250 -5.4892
18.8437 -0.2507 -5.2367
18.1914 1.3867 -5.0697
17.6316 2.9444 -4.9673
-38.2012 29.1658 -13.3554
-35.9578 22.6785 -11.8132
-40.8345 20.9122 -12.7484
-22.7123 6.8897 -6.5952
19.1607 -38.7969 -12.0239
19.0553 -31.2117 -10.1616
22.0097 -29.7157 -10.2756
19.4393 -21.8584 -8.1285
19.6341 -18.4575 -7.4882
19.8017 -15.5316 -6.9931
20.4931 -13.3022 -6.7891
24.3847 -12.8926 -7.6648
24.5341 -10.2854 -7.3923
22.7983 -7.2422 -6.6471
20.5600 -4.5588 -5.8519
19.2951 -2.4993 -5.4065
19.0431 -0.7511 -5.2958
18.3778 0.9189 -5.1132
17.7519 2.4899 -4.9812
24.6382 5.7360 -7.0295
-37.3393 24.9362 -12.4768
-39.3867 21.4873 -12.4674
-43.6428 18.9703 -13.2235
18.4337 -32.0465 -10.2731
20.7809 -29.6454 -10.0601
23.5257 -27.8872 -10.1384
19.5804 -19.3949 -7.6583
19.7551 -16.3463 -7.1251
19.9081 -13.6745 -6.7113
14.0829 -7.9233 -4.4902
24.4915 -11.0282 -7.4638
22.7611 -7.8906 -6.6941
22.5699 -5.6267 -6.4636
19.5136 -3.0477 -5.4881
19.2472 -1.2634 -5.3599
18.5675 0.4427 -5.1610
17.9316 2.0390 -5.0149
21.1438 4.3436 -5.9981
5.6496 8.9375 -2.9381
-37.9199 26.7819 -12.9002
-38.0003 22.0381 -12.2067
-42.0781 19.6120 -12.9002
18.7101 -34.5869 -10.9271
19.6016 -29.5778 -9.8600
23.4442 -29.3107 -10.4297
19.5242 -20.3766 -7.8419
19.7059 -17.1921 -7.2669
20.0201 -14.5353 -6.8747
22.4494 -13.4142 -7.2670
24.4481 -11.7861 -7.5418
22.7234 -8.5487 -6.7464
22.8503 -6.3348 -6.5891
19.7426 -3.6140 -5.5772
19.4564 -1.7885 -5.4293
18.7609 -0.0428 -5.2132
18.1137 1.5818 -5.0525
18.5413 3.3068 -5.2335
-37.8264 28.2249 -13.1148
-36.1441 22.2429 -11.7931
-41.4654 20.6615 -12.8735
18.5934 -36.6257 -11.4138
18.9561 -30.2933 -9.9300
22.5443 -29.7464 -10.3716
19.4652 -21.4075 -8.0401
19.6561 -18.0742 -7.4201
19.9149 -15.2690 -6.9733
21.0463 -13.3339 -6.9232
24.4037 -12.5605 -7.6268
22.6851 -9.2176 -6.8042
22.8138 -6.9712 -6.6288
20.5655 -4.3227 -5.8396
19.4363 -2.3000 -5.4386
18.9584 -0.5386 -5.2703
18.2987 1.1173 -5.0943
17.6769 2.6783 -4.9681
-37.0207 24.1376 -12.2806
-39.9899 21.2477 -12.5834
-44.3371 18.6937 -13.3706
-22.6679 7.2517 -6.6134
18.4755 -31.3155 -10.1035
20.9691 -29.6562 -9.8521
21.7485 -25.5682 -9.1051
19.5890 -19.2459 -7.4490
19.7625 -16.2171 -6.9345
19.9147 -13.5599 -6.5353
14.1435 -7.8817 -4.3919
24.4982 -10.9114 -7.2745
22.7670 -7.7889 -6.5270
20.7710 -5.0884 -5.8008
19.4791 -2.9611 -5.3445
19.2150 -1.1827 -5.2220
18.5376 0.5176 -5.0304
17.9034 2.1098 -4.8899
22.5387 4.7260 -6.2466
5.6137 8.9615 -2.8684
-38.0082 26.6129 -12.5859
-37.3698 21.4693 -11.6905
-43.1870 19.9152 -12.9002
18.8387 -34.4881 -10.6597
19.7825 -29.5882 -9.6545
23.4572 -29.0833 -10.1351
19.5332 -20.2205 -7.6261
19.7140 -17.0582 -7.0715
20.0269 -14.4160 -6.6934
22.6811 -13.4275 -7.1496
24.4549 -11.6668 -7.3497
22.7294 -8.4454 -6.5773
22.8075 -6.2230 -6.4127
19.7070 -3.5246 -5.4304
19.4234 -1.7057 -5.2889
18.7305 0.0336 -5.0807
18.0851 1.6536 -4.9261
18.9027 3.4508 -5.2122
-38.2316 28.2856 -12.9002
-36.2440 22.1012 -11.5150
-41.7017 20.5677 -12.6127
18.6122 -36.2959 -11.0644
18.9704 -30.0432 -9.6379
22.7445 -29.7578 -10.1597
19.4746 -21.2432 -7.8172
19.5101 -17.7937 -7.1626
19.9825 -15.1918 -6.8089
21.2565 -13.3459 -6.8081
24.4107 -12.4385 -7.4315
22.6912 -9.1125 -6.6328
22.8195 -6.8715 -6.4644
19.9387 -4.1062 -5.5219
19.5929 -2.2376 -5.3492
18.9273 -0.4605 -5.1356
18.2697 1.1903 -4.9662
17.6492 2.7477 -4.8451
-35.9285 23.2174 -11.6035
-40.2155 21.1580 -12.3262
-24.7210 -1.2866 -6.7147
18.6155 -31.2609 -9.8692
21.4848 -29.6857 -9.9400
19.4129 -22.3193 -8.0238
19.6118 -18.8480 -7.3782
19.7822 -15.8717 -6.8796
19.9608 -13.2717 -6.5020
24.3655 -13.2282 -7.5204
24.5162 -10.5971 -7.2448
22.7827 -7.5147 -6.5074
20.6646 -4.8215 -5.7559
19.3866 -2.7287 -5.3105
19.1286 -0.9658 -5.1953
18.4574 0.7190 -5.0104
17.8274 2.3003 -4.8758
23.2438 5.1420 -6.4574
5.5656 9.1061 -2.8950
-37.6683 25.7608 -12.3785
-37.9379 21.2430 -11.7942
-43.0980 19.3010 -12.8092
-18.3831 -2.1283 -5.0198
18.3904 -32.8026 -10.2008
20.2774 -29.6165 -9.7361
23.4919 -28.4780 -10.0139
19.5570 -19.8036 -7.5497
19.7347 -16.6993 -7.0124
19.8902 -13.9873 -6.5958
23.3262 -13.4644 -7.3058
24.4733 -11.3461 -7.3172
22.7453 -8.1671 -6.5554
22.6877 -5.9224 -6.3603
19.7282 -3.3044 -5.4259
19.3348 -1.4834 -5.2600
18.6486 0.2390 -5.0589
18.0081 1.8469 -4.9104
19.9581 3.8713 -5.5146
5.7809 8.9259 -2.8846
3.8595 30.0363 -8.2144
-38.4929 27.8276 -12.8840
-36.6490 21.7976 -11.5666
-42.3500 20.3101 -12.7403
-20.5420 1.8461 -5.5944
-12.8052 -19.2167 -6.2639
18.6621 -35.4257 -10.8612
19.1179 -29.5501 -9.5468
23.2932 -29.7893 -10.2574
19.4996 -20.8054 -7.7348
19.5313 -17.4226 -7.0995
20.0014 -14.8611 -6.7591
21.8407 -13.3794 -6.9476
24.4295 -12.1108 -7.3962
22.7074 -8.8296 -6.6087
22.8349 -6.6025 -6.4478
19.8400 -3.8584 -5.4825
19.6501 -2.0250 -5.3584
18.8437 -0.2507 -5.1119
18.1914 1.3867 -4.9488
17.6316 2.9444 -4.8489
-38.2012 29.1658 -13.0370
-35.9578 22.6785 -11.5315
-40.8345 20.9122 -12.4445
-24.7265 -1.5604 -6.7205
19.0553 -31.2117 -9.9194
22.0097 -29.7158 -10.0307
19.4393 -21.8584 -7.9347
19.6341 -18.4575 -7.3097
19.9561 -15.6527 -6.8796
20.4931 -13.3022 -6.6272
24.3847 -12.8926 -7.4820
24.5341 -10.2854 -7.2161
22.7983 -7.2422 -6.4886
20.5600 -4.5588 -5.7124
19.2952 -2.4993 -5.2776
19.0431 -0.7511 -5.1695
18.3778 0.9189 -4.9913
17.7519 2.4899 -4.8624
24.9146 5.8003 -6.9389
2.2267 24.4964 -6.6721
-36.2178 24.1872 -11.8135
-39.3867 21.4873 -12.1702
-43.6428 18.9703 -12.9082
18.4337 -32.0465 -10.0282
20.7809 -29.6454 -9.8203
23.5257 -27.8872 -9.8967
19.5804 -19.3949 -7.4758
19.7551 -16.3463 -6.9552
19.9081 -13.6745 -6.5513
14.0825 -7.9231 -4.3830
24.4915 -11.0282 -7.2858
22.7611 -7.8906 -6.5345
22.5699 -5.6267 -6.3095
19.5136 -3.0477 -5.3573
19.2472 -1.2634 -5.2321
18.5675 0.4427 -5.0379
17.9316 2.0390 -4.8953
21.1438 4.3436 -5.8551
5.6496 8.9375 -2.8680
-38.1368 26.9351 -12.6647
-37.1622 21.5520 -11.6529
-43.0116 20.0473 -12.8721
18.7101 -34.5869 -10.6666
19.6016 -29.5778 -9.6250
23.4442 -29.3107 -10.1810
19.5242 -20.3767 -7.6549
19.7062 -17.1924 -7.0938
20.0201 -14.5353 -6.7109
22.4494 -13.4142 -7.0938
24.4481 -11.7861 -7.3620
22.7234 -8.5487 -6.5856
22.8503 -6.3348 -6.4320
19.7426 -3.6140 -5.4442
19.4564 -1.7885 -5.2999
18.7609 -0.0428 -5.0890
18.1137 1.5818 -4.9321
18.5412 3.3068 -5.1087
-38.1161 28.4412 -12.9002
-36.1441 22.2429 -11.5119
-41.4654 20.6615 -12.5666
18.5934 -36.6257 -11.1417
18.9561 -30.2932 -9.6933
22.5444 -29.7464 -10.1243
19.4652 -21.4075 -7.8484
19.5021 -17.9326 -7.1865
19.9754 -15.3153 -6.8277
21.0463 -13.3339 -6.7582
24.4037 -12.5605 -7.4449
22.6851 -9.2176 -6.6420
22.8138 -6.9712 -6.4708
20.5655 -4.3227 -5.7004
19.4363 -2.3000 -5.3089
18.9584 -0.5386 -5.1446
18.2987 1.1173 -4.9728
17.6769 2.6783 -4.8496
25.3732 6.2027 -7.0852
-35.9909 23.4662 -11.6544
-39.9899 21.2477 -12.2835
-44.3371 18.6937 -13.0518
18.4880 -31.3366 -9.8692
20.9691 -29.6562 -9.6123
21.7485 -25.5682 -8.8835
19.5890 -19.2459 -7.2677
19.7625 -16.2171 -6.7657
19.9147 -13.5599 -6.3762
14.1431 -7.8815 -4.2849
24.4982 -10.9114 -7.0975
22.7670 -7.7889 -6.3682
20.7710 -5.0884 -5.6596
19.4791 -2.9611 -5.2144
19.2150 -1.1827 -5.0949
18.5376 0.5176 -4.9079
17.9034 2.1098 -4.7709
22.5386 4.7260 -6.0946
5.6137 8.9615 -2.7986
-38.0082 26.6129 -12.2795
-37.3698 21.4693 -11.4059
-43.2597 19.9487 -12.6074
18.8387 -34.4881 -10.4002
19.7826 -29.5882 -9.4195
23.4572 -29.0833 -9.8884
19.5332 -20.2205 -7.4405
19.8679 -17.1914 -6.9532
20.0269 -14.4160 -6.5305
22.6811 -13.4275 -6.9756
24.4549 -11.6668 -7.1708
22.7294 -8.4454 -6.4172
22.8075 -6.2230 -6.2567
19.7070 -3.5246 -5.2982
19.4234 -1.7057 -5.1602
18.7305 0.0336 -4.9570
18.0851 1.6536 -4.8062
18.9027 3.4508 -5.0853
-36.2440 22.1012 -11.2347
-41.7017 20.5676 -12.3057
18.6122 -36.2958 -10.7950
18.9700 -30.0425 -9.4032
22.7445 -29.7578 -9.9124
19.4746 -21.2432 -7.6270
19.5101 -17.7937 -6.9883
19.9825 -15.1918 -6.6432
21.2565 -13.3459 -6.6424
24.4107 -12.4385 -7.2507
22.6912 -9.1125 -6.4714
22.8195 -6.8715 -6.3071
19.9387 -4.1062 -5.3875
19.5929 -2.2376 -5.2190
18.9273 -0.4605 -5.0106
18.2697 1.1903 -4.8453
17.6492 2.7477 -4.7272
-35.9285 23.2174 -11.3211
-39.3260 20.6900 -11.7602
-24.7018 -1.2856 -6.5462
18.8756 -31.6977 -9.7636
21.4847 -29.6857 -9.6981
19.4129 -22.3193 -7.8285
19.6118 -18.8480 -7.1986
19.7822 -15.8717 -6.7122
19.9608 -13.2717 -6.3437
24.3655 -13.2282 -7.3374
24.5162 -10.5971 -7.0684
22.7827 -7.5147 -6.3490
20.6646 -4.8215 -5.6158
19.3866 -2.7287 -5.1812
19.1286 -0.9658 -5.0689
18.4574 0.7190 -4.8885
17.8274 2.3003 -4.7572
23.2438 5.1420 -6.3002
5.5656 9.1062 -2.8245
-36.5363 24.9866 -11.7143
-37.9379 21.2430 -11.5071
-43.0980 19.3010 -12.4975
-18.3826 -2.1283 -4.8975
18.3903 -32.8026 -9.9525
20.2774 -29.6165 -9.4991
23.4919 -28.4780 -9.7701
19.5570 -19.8036 -7.3660
19.8887 -16.8295 -6.8951
19.8902 -13.9873 -6.4352
23.3263 -13.4645 -7.1279
24.4733 -11.3462 -7.1391
22.7453 -8.1671 -6.3959
22.6877 -5.9224 -6.2055
19.7282 -3.3044 -5.2938
19.3348 -1.4834 -5.1320
18.6486 0.2390 -4.9358
18.0081 1.8469 -4.7909
19.9581 3.8713 -5.3804
5.7809 8.9259 -2.8144
-38.4929 27.8276 -12.5704
-36.6490 21.7976 -11.2851
-42.3500 20.3101 -12.4302
-20.5420 1.8461 -5.4584
-12.8049 -19.2162 -6.1112
18.6621 -35.4257 -10.5968
19.1179 -29.5501 -9.3145
23.2932 -29.7893 -10.0078
19.4996 -20.8054 -7.5465
19.6627 -17.5398 -6.9733
20.0014 -14.8612 -6.5946
21.8407 -13.3794 -6.7785
24.4295 -12.1108 -7.2162
22.7074 -8.8296 -6.4479
22.8349 -6.6025 -6.2908
19.8400 -3.8584 -5.3490
19.6501 -2.0250 -5.2280
18.8437 -0.2507 -4.9875
18.1914 1.3867 -4.8283
17.6316 2.9444 -4.7308
-35.9578 22.6785 -11.2509
-40.8345 20.9122 -12.1416
-24.7265 -1.5604 -6.5569
18.9165 -30.9844 -9.6075
22.0097 -29.7158 -9.7865
19.4393 -21.8584 -7.7416
19.6340 -18.4574 -7.1317
19.9561 -15.6527 -6.7122
20.4931 -13.3022 -6.4659
24.3847 -12.8926 -7.2999
24.5341 -10.2854 -7.0405
22.7983 -7.2422 -6.3307
20.5600 -4.5588 -5.5734
19.2951 -2.4993 -5.1491
19.0431 -0.7511 -5.0437
18.3778 0.9189 -4.8698
17.7519 2.4899 -4.7441
25.5192 5.9411 -6.9343
2.2571 24.8314 -6.5987
-36.2178 24.1872 -11.5260
-38.5165 21.0125 -11.6116
18.8174 -32.7137 -9.9878
20.7809 -29.6454 -9.5813
23.5257 -27.8872 -9.6558
19.5804 -19.3950 -7.2938
19.7551 -16.3463 -6.7859
19.9081 -13.6745 -6.3919
14.0821 -7.9229 -4.2762
24.4915 -11.0282 -7.1085
22.7611 -7.8906 -6.3755
22.5699 -5.6267 -6.1560
19.5136 -3.0477 -5.2269
19.2472 -1.2634 -5.1047
18.5675 0.4427 -4.9153
17.9316 2.0390 -4.7762
21.1438 4.3436 -5.7126
5.6496 8.9375 -2.7983
3.5822 30.5384 -8.1374
-26.4713 18.6960 -8.5768
-37.1622 21.5520 -11.3693
-43.0116 20.0473 -12.5588
18.7101 -34.5869 -10.4070
19.6016 -29.5778 -9.3907
23.4442 -29.3107 -9.9332
19.5242 -20.3766 -7.4686
19.8548 -17.3220 -6.9733
20.0201 -14.5353 -6.5475
22.4494 -13.4142 -6.9211
24.4481 -11.7861 -7.1828
22.7234 -8.5487 -6.4253
22.8503 -6.3348 -6.2754
19.7426 -3.6141 -5.3117
19.4564 -1.7886 -5.1709
18.7609 -0.0428 -4.9651
18.1137 1.5818 -4.8121
18.5412 3.3068 -4.9844
-36.1441 22.2429 -11.2317
-41.4654 20.6615 -12.2607
18.5934 -36.6257 -10.8705
18.9555 -30.2924 -9.4571
22.5443 -29.7464 -9.8779
19.4652 -21.4075 -7.6574
19.5021 -17.9326 -7.0116
19.9754 -15.3154 -6.6615
21.0463 -13.3338 -6.5937
24.4037 -12.5605 -7.2637
22.6851 -9.2176 -6.4803
22.8138 -6.9713 -6.3133
20.5655 -4.3227 -5.5616
19.4363 -2.3000 -5.1797
18.9584 -0.5386 -5.0194
18.2987 1.1173 -4.8518
17.6769 2.6783 -4.7316
1.9834 24.8558 -6.5990
-35.9909 23.4662 -11.3708
-39.1055 20.7778 -11.7195
18.8602 -31.9674 -9.8229
20.9691 -29.6562 -9.3733
21.7485 -25.5682 -8.6626
19.5890 -19.2459 -7.0870
19.7625 -16.2171 -6.5975
19.9147 -13.5599 -6.2176
14.1427 -7.8813 -4.1783
24.6832 -10.9938 -6.9733
22.7670 -7.7889 -6.2098
20.7710 -5.0884 -5.5189
19.4791 -2.9611 -5.0847
19.2150 -1.1827 -4.9682
18.5376 0.5176 -4.7859
17.9034 2.1098 -4.6523
22.5387 4.7260 -5.9431
5.6137 8.9615 -2.7290
3.4971 30.9004 -8.0254
-36.8653 25.8126 -11.6141
-37.3698 21.4693 -11.1223
-43.2597 19.9487 -12.2939
7.8295 -33.1712 -8.7957
18.8387 -34.4881 -10.1416
19.7825 -29.5882 -9.1853
23.4572 -29.0833 -9.6426
19.5331 -20.2205 -7.2555
19.8679 -17.1914 -6.7803
20.0269 -14.4160 -6.3681
22.6811 -13.4275 -6.8021
24.4549 -11.6668 -6.9925
22.7294 -8.4453 -6.2576
22.8075 -6.2230 -6.1011
19.7070 -3.5246 -5.1665
19.4234 -1.7057 -5.0319
18.7305 0.0336 -4.8338
18.0851 1.6536 -4.6867
18.9027 3.4508 -4.9588
-38.8615 28.7517 -12.4754
-36.2440 22.1012 -10.9553
-40.7774 20.1118 -11.7338
18.6122 -36.2958 -10.5266
18.9704 -30.0432 -9.1696
22.7445 -29.7578 -9.6659
19.4746 -21.2432 -7.4373
19.8174 -18.0740 -6.9219
19.9825 -15.1918 -6.4780
21.2565 -13.3459 -6.4773
24.4107 -12.4385 -7.0704
22.6912 -9.1125 -6.3105
22.8195 -6.8715 -6.1502
19.9387 -4.1062 -5.2536
19.5929 -2.2376 -5.0892
18.9273 -0.4605 -4.8860
18.2697 1.1903 -4.7249
17.6492 2.7477 -4.6096
-35.9285 23.2174 -11.0396
-39.3259 20.6900 -11.4677
18.8754 -31.6973 -9.5207
21.4848 -29.6857 -9.4569
19.4129 -22.3193 -7.6339
19.6118 -18.8480 -7.0196
19.7822 -15.8717 -6.5453
19.9608 -13.2717 -6.1860
24.3655 -13.2282 -7.1549
24.8029 -10.7210 -6.9733
22.7827 -7.5147 -6.1911
20.6646 -4.8215 -5.4762
19.3866 -2.7287 -5.0524
19.1286 -0.9658 -4.9428
18.4574 0.7190 -4.7669
17.8274 2.3003 -4.6389
23.2438 5.1420 -6.1436
5.5656 9.1062 -2.7544
-36.5363 24.9866 -11.4230
-37.9379 21.2430 -11.2210
-43.0980 19.3010 -12.1867
-18.3821 -2.1282 -4.7756
8.2376 -33.2563 -8.8418
18.7016 -33.3577 -9.8692
20.2774 -29.6165 -9.2629
23.4919 -28.4780 -9.5272
19.5570 -19.8036 -7.1828
19.8887 -16.8295 -6.7237
19.8902 -13.9873 -6.2752
23.3263 -13.4645 -6.9507
24.4733 -11.3461 -6.9616
22.7453 -8.1671 -6.2368
22.6877 -5.9224 -6.0512
19.7282 -3.3044 -5.1622
19.3348 -1.4834 -5.0044
18.6486 0.2390 -4.8131
18.0081 1.8469 -4.6717
19.9581 3.8713 -5.2466
5.7809 8.9259 -2.7444
-38.4929 27.8276 -12.2578
-36.6490 21.7976 -11.0044
-42.3500 20.3101 -12.1211
-20.5420 1.8461 -5.3226
-12.8045 -19.2157 -5.9591
18.6621 -35.4257 -10.3333
19.1179 -29.5501 -9.0828
23.2932 -29.7893 -9.7589
19.4996 -20.8054 -7.3589
19.8390 -17.6971 -6.8608
20.0014 -14.8612 -6.4306
21.8407 -13.3794 -6.6100
24.4295 -12.1108 -7.0367
22.7074 -8.8296 -6.2875
22.8349 -6.6025 -6.1344
19.8400 -3.8584 -5.2160
19.6501 -2.0250 -5.0980
18.8437 -0.2507 -4.8634
18.1914 1.3867 -4.7083
17.6316 2.9444 -4.6132
-35.9578 22.6785 -10.9711
-39.9305 20.4492 -11.5776
18.7683 -30.7416 -9.2952
22.0097 -29.7157 -9.5432
19.4393 -21.8584 -7.5491
19.6341 -18.4575 -6.9544
19.9561 -15.6527 -6.5453
20.4931 -13.3022 -6.3051
24.3847 -12.8926 -7.1184
24.8368 -10.4123 -6.9501
22.7983 -7.2422 -6.1733
20.5600 -4.5588 -5.4348
19.2951 -2.4993 -5.0211
19.0431 -0.7511 -4.9183
18.3778 0.9189 -4.7487
17.7519 2.4899 -4.6261
25.5192 5.9411 -6.7619
-36.2178 24.1872 -11.2394
-38.5165 21.0125 -11.3229
18.8174 -32.7137 -9.7395
20.7809 -29.6454 -9.3430
23.5257 -27.8872 -9.4157
19.5804 -19.3950 -7.1124
19.7551 -16.3463 -6.6172
19.9081 -13.6745 -6.2329
14.0817 -7.9227 -4.1698
24.6382 -11.0943 -6.9733
22.7611 -7.8906 -6.2169
22.5699 -5.6267 -6.0029
19.5136 -3.0477 -5.0969
19.2472 -1.2634 -4.9778
18.5675 0.4427 -4.7931
17.9315 2.0390 -4.6574
21.1438 4.3436 -5.5705
5.6496 8.9375 -2.7286
-26.8872 18.9898 -8.4949
-37.1622 21.5520 -11.0865
-43.0116 20.0473 -12.2465
7.7224 -33.3245 -8.8280
18.7101 -34.5869 -10.1482
19.6016 -29.5778 -9.1572
23.4442 -29.3108 -9.6862
19.5242 -20.3767 -7.2829
19.8602 -17.3267 -6.8017
20.0201 -14.5353 -6.3847
22.4494 -13.4142 -6.7490
24.4481 -11.7861 -7.0042
22.7234 -8.5487 -6.2655
22.8503 -6.3348 -6.1194
19.7426 -3.6140 -5.1796
19.4564 -1.7885 -5.0423
18.7609 -0.0428 -4.8416
18.1137 1.5818 -4.6924
18.5413 3.3068 -4.8604
-36.1441 22.2429 -10.9524
-40.5467 20.2037 -11.6909
18.5934 -36.6257 -10.6002
18.9561 -30.2932 -9.2222
22.5443 -29.7464 -9.6323
19.4652 -21.4075 -7.4670
19.8093 -18.2151 -6.9449
19.9754 -15.3154 -6.4959
21.0463 -13.3339 -6.4297
24.4037 -12.5605 -7.0831
22.6851 -9.2176 -6.3192
22.8138 -6.9713 -6.1563
20.5655 -4.3227 -5.4233
19.4363 -2.3000 -5.0509
18.9584 -0.5386 -4.8946
18.2987 1.1173 -4.7312
17.6769 2.6783 -4.6139
-35.9909 23.4662 -11.0880
-39.1056 20.7778 -11.4280
18.8602 -31.9674 -9.5786
20.9691 -29.6562 -9.1350
21.7485 -25.5682 -8.4424
19.5890 -19.2459 -6.9068
19.7625 -16.2171 -6.4298
19.9147 -13.5599 -6.0596
14.1423 -7.8810 -4.0719
24.8005 -11.0461 -6.8283
22.7670 -7.7889 -6.0520
20.7710 -5.0884 -5.3786
19.4791 -2.9611 -4.9555
19.2150 -1.1827 -4.8419
18.5376 0.5176 -4.6642
17.9034 2.1098 -4.5340
22.5386 4.7260 -5.7920
5.6137 8.9615 -2.6596
-27.4006 19.1855 -8.4129
-37.3698 21.4693 -10.8396
-42.2989 19.5057 -11.7153
7.9352 -33.6189 -8.6878
18.8387 -34.4881 -9.8838
19.7826 -29.5882 -8.9518
23.4572 -29.0833 -9.3975
19.5331 -20.2205 -7.0710
19.8679 -17.1914 -6.6080
20.0269 -14.4160 -6.2062
22.6810 -13.4275 -6.6292
24.4549 -11.6668 -6.8148
22.7294 -8.4454 -6.0985
22.8075 -6.2230 -5.9460
19.7070 -3.5246 -5.0352
19.4234 -1.7057 -4.9040
18.7305 0.0336 -4.7109
18.0851 1.6536 -4.5676
18.9027 3.4508 -4.8328
-37.6913 27.8858 -11.7922
-36.2440 22.1012 -10.6769
-40.7775 20.1118 -11.4355
18.6122 -36.2958 -10.2590
18.9704 -30.0431 -8.9365
22.7445 -29.7578 -9.4202
19.4746 -21.2432 -7.2483
19.8174 -18.0740 -6.7459
19.9825 -15.1918 -6.3133
21.2565 -13.3459 -6.3126
24.7034 -12.5877 -6.9733
22.6912 -9.1125 -6.1501
22.8195 -6.8715 -5.9939
19.9387 -4.1062 -5.1200
19.5929 -2.2376 -4.9598
18.9273 -0.4605 -4.7618
18.2697 1.1903 -4.6048
17.6492 2.7477 -4.4924
-35.9285 23.2174 -10.7589
-39.3260 20.6900 -11.1762
9.2498 -33.5612 -8.7557
18.4863 -38.4945 -10.7403
18.8756 -31.6977 -9.2788
21.4847 -29.6857 -9.2165
19.4129 -22.3193 -7.4398
19.6118 -18.8480 -6.8412
19.7822 -15.8717 -6.3789
19.9608 -13.2717 -6.0288
24.3655 -13.2282 -6.9731
24.8187 -10.7279 -6.8003
22.7827 -7.5148 -6.0337
20.6647 -4.8215 -5.3370
19.3866 -2.7287 -4.9240
19.1286 -0.9658 -4.8172
18.4574 0.7190 -4.6457
17.8275 2.3003 -4.5210
23.2438 5.1420 -5.9874
5.5656 9.1062 -2.6844
3.2066 31.4305 -7.9461
-36.5363 24.9866 -11.1326
-37.9379 21.2430 -10.9358
-43.0980 19.3010 -11.8769
-18.3817 -2.1282 -4.6541
8.2888 -33.4627 -8.6706
18.7732 -33.4855 -9.6552
20.2774 -29.6165 -9.0275
23.4919 -28.4780 -9.2850
19.5570 -19.8036 -7.0002
19.8887 -16.8295 -6.5528
19.8902 -13.9873 -6.1157
23.5805 -13.6112 -6.8479
24.4733 -11.3461 -6.7846
22.7453 -8.1671 -6.0783
22.6877 -5.9224 -5.8974
19.7282 -3.3044 -5.0310
19.3348 -1.4834 -4.8772
18.6486 0.2390 -4.6907
18.0081 1.8469 -4.5530
19.9581 3.8713 -5.1132
21.5010 15.9591 -6.7346
5.7809 8.9259 -2.6747
-37.3344 26.9901 -11.5867
-36.6490 21.7976 -10.7247
-41.4105 19.8596 -11.5510
-20.5420 1.8461 -5.1873
-12.8042 -19.2152 -5.8075
18.6621 -35.4257 -10.0706
19.1179 -29.5501 -8.8520
23.2931 -29.7893 -9.5108
19.4996 -20.8055 -7.1718
19.8390 -17.6971 -6.6865
20.0014 -14.8612 -6.2672
21.8407 -13.3794 -6.4419
24.7310 -12.2602 -6.9425
22.7074 -8.8296 -6.1277
22.8349 -6.6025 -5.9785
19.8400 -3.8584 -5.0834
19.6501 -2.0250 -4.9684
18.8437 -0.2507 -4.7398
18.1914 1.3867 -4.5886
17.6316 2.9444 -4.4959
1.6956 26.2409 -6.6136
-35.9578 22.6785 -10.6922
-39.9305 20.4492 -11.2833
18.5409 -37.5419 -10.5309
19.0639 -31.2259 -9.2016
22.0097 -29.7158 -9.3006
19.4393 -21.8584 -7.3572
19.6341 -18.4575 -6.7776
19.9561 -15.6527 -6.3789
20.4931 -13.3022 -6.1449
24.5106 -12.9592 -6.9733
24.8368 -10.4123 -6.7734
22.7983 -7.2422 -6.0164
20.5600 -4.5588 -5.2966
19.2952 -2.4993 -4.8935
19.0431 -0.7511 -4.7933
18.3778 0.9189 -4.6280
17.7519 2.4899 -4.5085
25.5192 5.9411 -6.5900
-36.2178 24.1872 -10.9537
-38.5165 21.0125 -11.0351
8.6350 -33.2843 -8.6485
18.8174 -32.7137 -9.4919
20.7809 -29.6454 -9.1055
23.5257 -27.8872 -9.1764
19.5804 -19.3950 -6.9316
19.7551 -16.3463 -6.4490
19.9081 -13.6745 -6.0745
14.0813 -7.9225 -4.0637
24.7937 -11.1643 -6.8389
22.7611 -7.8906 -6.0589
22.5699 -5.6267 -5.8503
19.5136 -3.0477 -4.9674
19.2472 -1.2634 -4.8513
18.5675 0.4427 -4.6712
17.9316 2.0390 -4.5390
21.1438 4.3436 -5.4289
21.2516 16.1404 -6.7118
5.6496 8.9375 -2.6593
-36.9898 26.1250 -11.3897
-37.1622 21.5520 -10.8047
-42.0566 19.6022 -11.6702
7.7962 -33.6430 -8.6858
18.7101 -34.5869 -9.8902
19.6016 -29.5778 -8.9244
23.4442 -29.3107 -9.4400
19.5242 -20.3767 -7.0978
19.8602 -17.3267 -6.6288
20.0201 -14.5353 -6.2224
22.4494 -13.4142 -6.5774
24.4481 -11.7861 -6.8262
22.7234 -8.5487 -6.1062
22.8503 -6.3348 -5.9638
19.7426 -3.6140 -5.0480
19.4564 -1.7885 -4.9141
18.7609 -0.0428 -4.7186
18.1137 1.5818 -4.5731
18.5412 3.3068 -4.7369
-36.1441 22.2429 -10.6740
-40.5467 20.2037 -11.3938
18.5934 -36.6257 -10.3308
18.9561 -30.2932 -8.9878
22.5443 -29.7464 -9.3874
19.4652 -21.4075 -7.2772
19.8093 -18.2151 -6.7684
19.9754 -15.3153 -6.3308
21.0463 -13.3339 -6.2663
24.6519 -12.6882 -6.9733
22.6851 -9.2176 -6.1586
22.8138 -6.9713 -5.9998
20.5655 -4.3227 -5.2855
19.4363 -2.3000 -4.9225
18.9584 -0.5386 -4.7702
18.2987 1.1173 -4.6109
17.6769 2.6783 -4.4967
-35.9909 23.4662 -10.8062
-39.1056 20.7778 -11.1376
9.0995 -33.5488 -8.7427
18.8602 -31.9675 -9.3351
20.9691 -29.6562 -8.8975
21.7485 -25.5682 -8.2229
19.5890 -19.2459 -6.7273
19.7625 -16.2171 -6.2626
19.9147 -13.5599 -5.9020
14.1419 -7.8808 -3.9660
24.8005 -11.0460 -6.6508
22.7670 -7.7889 -5.8946
20.7710 -5.0884 -5.2387
19.4791 -2.9611 -4.8266
19.2150 -1.1827 -4.7160
18.5376 0.5176 -4.5429
17.9034 2.1098 -4.4161
22.4743 4.7125 -5.6253
5.6137 8.9615 -2.5905
3.8762 18.9194 -4.7310
-27.7719 19.4455 -8.3052
-37.3698 21.4693 -10.5577
-42.2989 19.5057 -11.4106
18.7275 -34.2844 -9.5700
19.7826 -29.5882 -8.7191
23.6825 -29.3626 -9.2410
19.5331 -20.2205 -6.8872
19.8679 -17.1914 -6.4362
20.0269 -14.4160 -6.0449
22.6810 -13.4275 -6.4569
24.4549 -11.6668 -6.6376
22.7294 -8.4454 -5.9400
22.8075 -6.2230 -5.7914
19.7070 -3.5246 -4.9042
19.4234 -1.7057 -4.7765
18.7305 0.0336 -4.5884
18.0851 1.6536 -4.4488
18.9027 3.4508 -4.7071
-37.6913 27.8859 -11.4856
-36.4084 22.2015 -10.4464
-40.7775 20.1118 -11.1382
18.6122 -36.2958 -9.9923
18.9704 -30.0432 -8.7041
22.7445 -29.7578 -9.1753
19.4746 -21.2432 -7.0598
19.8174 -18.0740 -6.5705
19.9825 -15.1918 -6.1492
21.2565 -13.3459 -6.1485
24.7120 -12.5920 -6.7943
22.6912 -9.1125 -5.9902
22.8195 -6.8715 -5.8381
19.9387 -4.1062 -4.9869
19.5929 -2.2376 -4.8309
18.9273 -0.4605 -4.6380
18.2697 1.1903 -4.4850
17.6492 2.7477 -4.3756
-35.9285 23.2174 -10.4792
-39.3260 20.6900 -10.8856
18.4863 -38.4945 -10.4611
19.0227 -31.9448 -9.1080
21.4847 -29.6857 -8.9769
19.4129 -22.3193 -7.2464
19.6118 -18.8480 -6.6633
19.7822 -15.8717 -6.2130
19.9608 -13.2717 -5.8720
24.3655 -13.2282 -6.7918
24.8187 -10.7279 -6.6235
22.7827 -7.5148 -5.8769
20.6646 -4.8215 -5.1982
19.3866 -2.7287 -4.7960
19.1286 -0.9658 -4.6919
18.4574 0.7190 -4.5250
17.8275 2.3003 -4.4034
22.3955 4.9543 -5.6189
5.5656 9.1062 -2.6145
-36.5363 24.9866 -10.8432
-37.9379 21.2430 -10.6514
-42.9636 19.2409 -11.5321
-18.3812 -2.1281 -4.5329
18.7728 -33.4848 -9.4040
20.2774 -29.6165 -8.7927
23.7818 -28.8294 -9.1552
19.5570 -19.8036 -6.8182
19.8887 -16.8295 -6.3824
19.8902 -13.9873 -5.9567
23.6479 -13.6501 -6.6889
24.4733 -11.3461 -6.6082
22.7453 -8.1671 -5.9202
22.6877 -5.9224 -5.7441
19.7282 -3.3044 -4.9002
19.3348 -1.4833 -4.7504
18.6486 0.2390 -4.5687
18.0081 1.8469 -4.4346
19.9581 3.8713 -4.9803
21.5010 15.9592 -6.5595
5.7809 8.9259 -2.6051
-37.3344 26.9901 -11.2855
-36.6509 21.7988 -10.4464
-41.4105 19.8596 -11.2506
-20.5420 1.8461 -5.0525
-12.8039 -19.2147 -5.6564
10.6682 -33.7590 -8.6731
18.6621 -35.4258 -9.8088
19.1179 -29.5501 -8.6218
23.2932 -29.7893 -9.2636
19.4996 -20.8054 -6.9853
19.8390 -17.6971 -6.5126
20.0014 -14.8611 -6.1042
21.8407 -13.3794 -6.2744
24.7310 -12.2602 -6.7620
22.7074 -8.8296 -5.9684
22.8349 -6.6025 -5.8230
19.8400 -3.8584 -4.9513
19.6501 -2.0250 -4.8392
18.8437 -0.2507 -4.6166
18.1914 1.3867 -4.4693
17.6316 2.9444 -4.3790
-38.2012 29.1658 -11.7738
-36.0691 22.7486 -10.4464
-39.9305 20.4492 -10.9899
18.5409 -37.5420 -10.2571
19.0639 -31.2259 -8.9623
22.0097 -29.7157 -9.0588
19.4393 -21.8584 -7.1659
19.6341 -18.4575 -6.6014
19.9561 -15.6527 -6.2130
20.4931 -13.3022 -5.9851
24.6856 -13.0517 -6.8405
24.8368 -10.4123 -6.5973
22.7983 -7.2422 -5.8599
20.5600 -4.5588 -5.1589
19.3065 -2.5008 -4.7690
19.0431 -0.7511 -4.6686
18.3778 0.9189 -4.5076
17.7519 2.4899 -4.3913
22.3009 5.1918 -5.6092
2.9172 32.0933 -7.8943
-36.2178 24.1872 -10.6689
-38.5165 21.0125 -10.7482
-43.6428 18.9703 -11.6575
18.8174 -32.7137 -9.2451
20.7809 -29.6454 -8.8688
23.5257 -27.8872 -8.9378
19.5804 -19.3950 -6.7514
19.7551 -16.3463 -6.2813
19.9081 -13.6745 -5.9166
14.0809 -7.9222 -3.9579
24.7937 -11.1643 -6.6611
22.7611 -7.8906 -5.9014
22.5699 -5.6267 -5.6982
19.5136 -3.0477 -4.8382
19.2472 -1.2634 -4.7251
18.5675 0.4427 -4.5498
17.9316 2.0390 -4.4210
21.1438 4.3436 -5.2878
21.2516 16.1404 -6.5373
5.6496 8.9375 -2.5901
3.9339 18.8107 -4.7078
-36.9898 26.1250 -11.0936
-37.1622 21.5520 -10.5238
-42.0566 19.6022 -11.3667
18.7101 -34.5869 -9.6331
19.6016 -29.5778 -8.6924
23.4762 -29.3507 -9.2071
19.5242 -20.3767 -6.9132
19.8602 -17.3267 -6.4565
20.0201 -14.5353 -6.0606
22.4494 -13.4142 -6.4064
24.4481 -11.7861 -6.6487
22.7234 -8.5487 -5.9475
22.8503 -6.3348 -5.8088
19.7426 -3.6141 -4.9167
19.4564 -1.7885 -4.7863
18.7609 -0.0428 -4.5959
18.1137 1.5818 -4.4542
18.5413 3.3068 -4.6137
1.4366 26.8232 -6.5803
-37.8263 28.2249 -11.5617
-36.3176 22.3497 -10.4464
-40.5467 20.2037 -11.0975
18.5934 -36.6257 -10.0622
18.9561 -30.2932 -8.7541
22.5443 -29.7464 -9.1433
19.4652 -21.4075 -7.0880
19.8093 -18.2151 -6.5924
19.9754 -15.3153 -6.1661
21.0463 -13.3338 -6.1034
24.7049 -12.7155 -6.8065
22.6851 -9.2176 -5.9984
22.8138 -6.9713 -5.8438
20.5655 -4.3227 -5.1480
19.4363 -2.3000 -4.7945
18.9584 -0.5386 -4.6461
18.2987 1.1173 -4.4910
17.6769 2.6783 -4.3797
-35.9909 23.4662 -10.5252
-39.1056 20.7778 -10.8480
-44.3371 18.6937 -11.7872
18.9263 -32.0796 -9.1243
20.9691 -29.6562 -8.6607
21.7485 -25.5682 -8.0040
19.5890 -19.2459 -6.5482
19.7625 -16.2171 -6.0959
19.9147 -13.5599 -5.7450
14.1415 -7.8806 -3.8603
24.8005 -11.0460 -6.4738
22.7670 -7.7889 -5.7377
20.7710 -5.0884 -5.0993
19.7730 -3.0058 -4.7690
19.2150 -1.1827 -4.5905
18.5376 0.5176 -4.4220
17.9034 2.1098 -4.2986
22.4742 4.7125 -5.4755
5.6137 8.9615 -2.5215
-36.8653 25.8126 -10.7312
-37.9869 21.8238 -10.4464
-42.2989 19.5057 -11.1069
-7.8820 -36.0691 -8.8037
18.6074 -34.0647 -9.2556
19.7826 -29.5882 -8.4870
23.6825 -29.3626 -8.9951
19.5332 -20.2205 -6.7039
19.8679 -17.1914 -6.2649
20.0269 -14.4160 -5.8840
22.6811 -13.4275 -6.2850
24.4549 -11.6668 -6.4609
22.7294 -8.4454 -5.7819
22.8075 -6.2230 -5.6373
19.7070 -3.5246 -4.7737
19.4234 -1.7057 -4.6493
18.7305 0.0336 -4.4663
18.0851 1.6536 -4.3304
18.9027 3.4508 -4.5818
1.3423 27.1345 -6.4781
-37.6913 27.8859 -11.1799
-36.9146 22.5102 -10.3098
-40.7774 20.1118 -10.8417
-8.8376 -35.9169 -8.8198
18.6122 -36.2958 -9.7263
18.9704 -30.0431 -8.4724
22.8782 -29.9328 -8.9836
19.7618 -21.5566 -6.9733
19.8174 -18.0740 -6.3956
19.9825 -15.1918 -5.9855
21.2565 -13.3459 -5.9848
24.7120 -12.5920 -6.6135
22.6912 -9.1125 -5.8307
22.8195 -6.8715 -5.6827
19.9387 -4.1062 -4.8542
19.7416 -2.2546 -4.7380
18.9273 -0.4605 -4.5146
18.2697 1.1903 -4.3657
17.6492 2.7477 -4.2592
-36.7954 23.7777 -10.4464
-39.3260 20.6900 -10.5959
-44.5977 18.5899 -11.5212
-9.7306 -35.5201 -8.7819
18.4863 -38.4945 -10.1826
19.0227 -31.9448 -8.8655
21.4848 -29.6857 -8.7380
19.4129 -22.3193 -7.0535
19.6118 -18.8480 -6.4860
19.7822 -15.8717 -6.0477
19.9608 -13.2717 -5.7157
24.3655 -13.2282 -6.6110
24.8187 -10.7279 -6.4472
22.7827 -7.5148 -5.7204
20.6646 -4.8215 -5.0598
19.8049 -2.7876 -4.7690
19.1286 -0.9658 -4.5670
18.4574 0.7190 -4.4045
17.8275 2.3003 -4.2862
22.3955 4.9543 -5.4693
5.5656 9.1062 -2.5446
3.6592 18.9187 -4.5948
-36.5363 24.9867 -10.5546
-38.2251 21.4038 -10.4464
-42.9636 19.2409 -11.2251
-18.3808 -2.1281 -4.4122
-10.6253 -35.1558 -8.7574
-7.5063 -36.2617 -8.8299
11.6934 -33.8953 -8.5498
18.9195 -33.7465 -9.2252
20.2774 -29.6165 -8.5587
23.7818 -28.8294 -8.9115
19.5570 -19.8036 -6.6367
19.8887 -16.8295 -6.2125
19.8902 -13.9873 -5.7982
23.6479 -13.6501 -6.5108
24.4733 -11.3461 -6.4323
22.7453 -8.1671 -5.7627
22.6877 -5.9224 -5.5912
19.7282 -3.3044 -4.7697
19.3348 -1.4833 -4.6239
18.6486 0.2390 -4.4471
18.0081 1.8469 -4.3166
19.9581 3.8713 -4.8477
21.5010 15.9591 -6.3849
5.7809 8.9259 -2.5358
-37.3344 26.9901 -10.9851
-37.4325 22.2636 -10.3852
-41.4105 19.8596 -10.9512
-20.5420 1.8461 -4.9179
-12.8035 -19.2142 -5.5057
-8.4156 -35.9033 -8.7932
18.6621 -35.4257 -9.5477
19.1179 -29.5501 -8.3923
23.2932 -29.7893 -9.0170
19.4996 -20.8055 -6.7994
19.8390 -17.6971 -6.3393
20.0014 -14.8612 -5.9417
21.8408 -13.3794 -6.1074
24.7310 -12.2602 -6.5820
22.7074 -8.8296 -5.8095
22.8349 -6.6025 -5.6680
19.8400 -3.8584 -4.8195
19.5463 -2.0143 -4.6855
18.8437 -0.2507 -4.4937
18.1914 1.3867 -4.3503
17.6316 2.9444 -4.2625
-38.2011 29.1657 -11.4604
-36.6850 23.1372 -10.3420
-39.9304 20.4492 -10.6974
-9.3550 -35.6884 -8.7974
18.5409 -37.5419 -9.9841
19.0639 -31.2259 -8.7238
22.0097 -29.7158 -8.8177
19.4393 -21.8584 -6.9752
19.6341 -18.4575 -6.4257
19.9561 -15.6527 -6.0477
20.4931 -13.3022 -5.8258
24.6856 -13.0517 -6.6584
24.8368 -10.4123 -6.4217
22.7983 -7.2422 -5.7040
20.5600 -4.5588 -5.0216
19.7637 -2.5600 -4.7520
19.0431 -0.7511 -4.5444
18.3778 0.9189 -4.3877
17.7519 2.4899 -4.2744
22.3009 5.1918 -5.4599
3.4771 19.1043 -4.6303
-36.4323 24.3305 -10.4464
-38.5165 21.0125 -10.4621
-43.6428 18.9703 -11.3473
-10.2442 -35.2951 -8.7635
18.8174 -32.7137 -8.9991
20.7809 -29.6454 -8.6328
23.5257 -27.8871 -8.6999
19.5804 -19.3950 -6.5717
19.7551 -16.3463 -6.1141
19.9081 -13.6745 -5.7591
14.0806 -7.9220 -3.8524
24.7937 -11.1643 -6.4838
22.7611 -7.8906 -5.7443
22.5699 -5.6267 -5.5465
19.7606 -3.0863 -4.7690
19.2472 -1.2634 -4.5994
18.5675 0.4427 -4.4287
17.9316 2.0390 -4.3034
21.1438 4.3436 -5.1470
21.2777 16.1602 -6.3711
5.6496 8.9375 -2.5212
-36.9898 26.1250 -10.7983
-37.8976 21.9785 -10.4464
-42.0567 19.6022 -11.0642
-8.0261 -36.0240 -8.8006
18.5636 -34.3159 -9.3032
19.6016 -29.5778 -8.4610
23.4762 -29.3507 -8.9621
19.5242 -20.3767 -6.7292
19.8602 -17.3267 -6.2846
20.0201 -14.5353 -5.8993
22.4494 -13.4142 -6.2359
24.4481 -11.7861 -6.4717
22.7234 -8.5487 -5.7892
22.8503 -6.3348 -5.6542
19.7426 -3.6140 -4.7859
19.4564 -1.7885 -4.6589
18.7609 -0.0428 -4.4736
18.1137 1.5818 -4.3357
18.5413 3.3068 -4.4909
-37.8264 28.2250 -11.2540
-36.7863 22.6381 -10.2996
-40.5467 20.2037 -10.8022
-8.9775 -35.8551 -8.8136
18.5934 -36.6257 -9.7944
18.9561 -30.2932 -8.5211
22.6769 -29.9212 -8.9523
19.6738 -21.6369 -6.9733
19.8093 -18.2151 -6.4169
19.9754 -15.3154 -6.0020
21.0463 -13.3339 -5.9409
24.7049 -12.7155 -6.6254
22.6851 -9.2176 -5.8388
22.8138 -6.9712 -5.6883
20.5655 -4.3227 -5.0110
19.7757 -2.3402 -4.7484
18.9584 -0.5386 -4.5225
18.2987 1.1173 -4.3715
17.6769 2.6783 -4.2632
-36.6982 23.9274 -10.4464
-39.1056 20.7778 -10.5592
-44.3371 18.6937 -11.4735
-9.8684 -35.4559 -8.7758
18.9263 -32.0796 -8.8815
20.9691 -29.6562 -8.4246
21.7485 -25.5682 -7.7858
19.5890 -19.2459 -6.3697
19.7625 -16.2171 -5.9297
19.9147 -13.5599 -5.5883
14.1411 -7.8804 -3.7550
24.8005 -11.0460 -6.2973
22.7670 -7.7889 -5.5813
20.7710 -5.0884 -4.9603
19.9521 -3.0330 -4.6811
19.2150 -1.1827 -4.4654
18.5376 0.5176 -4.3015
17.9034 2.1098 -4.1814
22.4742 4.7125 -5.3263
45.6920 13.9379 -11.0804
5.6137 8.9615 -2.4528
-36.8929 25.8319 -10.4464
-38.2128 21.9536 -10.2221
-42.2989 19.5057 -10.8041
18.8387 -34.4881 -9.1151
19.7826 -29.5882 -8.2556
23.6825 -29.3626 -8.7498
19.5332 -20.2205 -6.5211
19.8679 -17.1913 -6.0941
20.0269 -14.4160 -5.7236
22.6811 -13.4275 -6.1137
24.4549 -11.6668 -6.2848
22.7294 -8.4454 -5.6242
22.8075 -6.2230 -5.4836
20.1818 -3.6095 -4.7555
19.4234 -1.7057 -4.5226
18.7305 0.0336 -4.3445
18.0851 1.6536 -4.2123
18.9027 3.4508 -4.4569
45.8765 12.6943 -11.0409
-37.6913 27.8858 -10.8751
-36.9146 22.5102 -10.0287
-40.7774 20.1118 -10.5462
-11.8730 -34.5899 -8.4826
18.6122 -36.2958 -9.4612
18.9704 -30.0432 -8.2415
22.8782 -29.9327 -8.7386
20.3157 -22.1607 -6.9733
19.8174 -18.0740 -6.2213
19.9825 -15.1918 -5.8223
21.2565 -13.3459 -5.8217
24.7120 -12.5920 -6.4332
22.6912 -9.1125 -5.6718
22.8195 -6.8715 -5.5278
20.5275 -4.2274 -4.8613
19.6373 -2.2427 -4.5845
18.9273 -0.4605 -4.3915
18.2697 1.1903 -4.2466
17.7664 2.7660 -4.1706
45.1438 11.2310 -10.7903
44.4538 15.3866 -10.9112
-36.9054 23.8487 -10.1920
-39.8577 20.9698 -10.4464
-44.5977 18.5899 -11.2071
12.7549 -34.0597 -8.4359
18.4863 -38.4945 -9.9050
19.0228 -31.9448 -8.6238
21.4847 -29.6857 -8.4997
21.7788 -25.0393 -7.6974
19.6118 -18.8480 -6.3092
19.7822 -15.8717 -5.8828
19.9608 -13.2717 -5.5599
24.3655 -13.2282 -6.4308
24.8187 -10.7279 -6.2715
22.7827 -7.5148 -5.5645
20.6646 -4.8215 -4.9219
19.8573 -2.7950 -4.6513
19.1286 -0.9658 -4.4425
18.4574 0.7190 -4.2844
17.8326 2.3010 -4.1706
22.3955 4.9543 -5.3202
45.6137 14.4656 -11.0994
5.5656 9.1062 -2.4755
3.6592 18.9187 -4.4695
-37.1753 25.4237 -10.4464
-38.7944 21.7226 -10.3130
-42.9636 19.2409 -10.9191
-18.3803 -2.1280 -4.2918
18.9196 -33.7465 -8.9737
20.2774 -29.6165 -8.3254
23.7818 -28.8294 -8.6686
19.5570 -19.8036 -6.4558
19.8887 -16.8295 -6.0431
19.8902 -13.9873 -5.6401
23.6479 -13.6501 -6.3333
24.4733 -11.3461 -6.2570
22.7453 -8.1671 -5.6056
22.6877 -5.9224 -5.4388
20.0840 -3.3640 -4.7234
19.3348 -1.4833 -4.4979
18.6486 0.2390 -4.3259
18.0081 1.8469 -4.1989
19.9581 3.8713 -4.7156
44.8718 12.9505 -10.8328
5.7809 8.9259 -2.4666
-37.3344 26.9901 -10.6856
-37.4325 22.2636 -10.1021
-41.4105 19.8596 -10.6526
-20.5420 1.8461 -4.7839
-12.8032 -19.2137 -5.3554
18.6621 -35.4257 -9.2874
19.1179 -29.5501 -8.1635
23.2932 -29.7893 -8.7712
19.4996 -20.8054 -6.6140
19.8390 -17.6971 -6.1664
20.0014 -14.8612 -5.7797
21.8407 -13.3794 -5.9409
24.7310 -12.2602 -6.4026
22.7074 -8.8296 -5.6511
22.8349 -6.6025 -5.5135
20.1825 -3.9250 -4.7690
19.5463 -2.0143 -4.5578
18.8437 -0.2507 -4.3712
18.1914 1.3867 -4.2317
17.7348 2.9617 -4.1706
45.9825 11.9794 -11.0216
-38.2012 29.1658 -11.1480
-36.6850 23.1372 -10.0601
-40.0865 20.5291 -10.4464
-12.3791 -34.3657 -8.4725
18.5409 -37.5419 -9.7119
19.0639 -31.2259 -8.4860
22.0097 -29.7158 -8.5773
19.9788 -22.4650 -6.9733
19.6341 -18.4575 -6.2505
19.9561 -15.6527 -5.8828
20.4931 -13.3022 -5.6670
24.6856 -13.0517 -6.4769
24.8368 -10.4123 -6.2467
22.7983 -7.2422 -5.5485
20.5600 -4.5588 -4.8847
19.7637 -2.5600 -4.6225
19.0431 -0.7511 -4.4205
18.3778 0.9189 -4.2681
17.8061 2.4975 -4.1706
22.3009 5.1918 -5.3110
45.5352 14.9950 -11.1198
3.6171 19.8737 -4.6854
-37.3393 24.9362 -10.4146
-39.3867 21.4873 -10.4068
-43.6428 18.9703 -11.0379
18.8174 -32.7137 -8.7537
20.7809 -29.6454 -8.3974
23.5257 -27.8872 -8.4627
19.5804 -19.3950 -6.3926
19.7551 -16.3463 -5.9474
19.9081 -13.6745 -5.6021
14.0802 -7.9218 -3.7473
24.7937 -11.1643 -6.3070
22.7611 -7.8906 -5.5877
22.5699 -5.6267 -5.3953
19.9875 -3.1217 -4.6923
19.2475 -1.2634 -4.4741
18.5675 0.4427 -4.3080
17.9316 2.0390 -4.1860
21.1438 4.3436 -5.0067
45.7208 13.7434 -11.0737
5.6496 8.9375 -2.4525
-36.9898 26.1250 -10.5039
-38.0003 22.0381 -10.1892
-42.0566 19.6022 -10.7626
18.7101 -34.5869 -9.1210
19.6016 -29.5778 -8.2304
23.4762 -29.3507 -8.7177
19.5242 -20.3766 -6.5458
19.8602 -17.3267 -6.1133
20.0201 -14.5353 -5.7385
