ply
format ascii 1.0
element vertex 2177
property float32 x
property float32 y
property float32 z
end_header
0.4981 -1.1840 0.3569
0.6026 -1.1363 0.3574
0.7026 -1.0796 0.3579
0.8022 -0.9733 0.3589
0.8875 -0.8995 0.3595
4.8666 -4.1226 1.8147
5.2325 -3.6843 1.8208
5.5600 -3.2140 1.8272
5.8459 -2.7150 1.8339
6.0878 -2.1908 1.8409
6.2846 -1.6456 1.8484
6.4333 -1.0828 1.8562
6.5315 -0.5066 1.8640
6.5778 0.0785 1.8717
6.5713 0.6678 1.8793
6.5112 1.2564 1.8868
6.3975 1.8394 1.8940
1.2153 0.4704 0.3708
1.1711 0.5782 0.3716
1.1171 0.6818 0.3724
1.0539 0.7803 0.3731
0.9819 0.8728 0.3738
0.9016 0.9586 0.3744
0.8137 1.0367 0.3750
0.7188 1.1066 0.3754
0.6179 1.1676 0.3759
0.5117 1.2191 0.3762
0.4011 1.2607 0.3764
0.2872 1.2920 0.3766
0.1708 1.3127 0.3766
0.0530 1.3226 0.3766
-0.0652 1.3217 0.3765
-0.1828 1.3099 0.3763
-0.2987 1.2875 0.3760
-0.4120 1.2545 0.3757
-0.5217 1.2113 0.3753
-0.6269 1.1583 0.3747
-0.7266 1.0961 0.3742
-0.8201 1.0251 0.3735
-4.6232 4.8246 1.9012
-5.0197 4.3794 1.8954
-5.3731 3.9014 1.8893
-5.6808 3.3951 1.8830
-5.9407 2.8649 1.8765
-6.1512 2.3153 1.8700
-6.3111 1.7511 1.8635
-6.4197 1.1769 1.8570
-6.4765 0.5973 1.8505
-3.4487 0.0090 0.9812
-3.5237 -0.3063 1.0064
-3.6033 -0.6410 1.0413
-3.6893 -1.0028 1.0878
-1.1913 -0.4413 0.3615
-1.1447 -0.5446 0.3607
-1.0893 -0.6433 0.3599
-1.0256 -0.7365 0.3592
-0.9541 -0.8236 0.3586
-0.8754 -0.9040 0.3580
-0.7901 -0.9771 0.3575
-0.6989 -1.0424 0.3571
-0.6024 -1.0994 0.3567
-0.5015 -1.1478 0.3564
-0.3969 -1.1872 0.3562
-0.2892 -1.2174 0.3560
-0.1794 -1.2380 0.3559
-0.0682 -1.2491 0.3559
0.0435 -1.2505 0.3560
0.1550 -1.2422 0.3562
0.2654 -1.2242 0.3564
0.3739 -1.1967 0.3567
0.4797 -1.1598 0.3571
0.5820 -1.1138 0.3576
0.6800 -1.0590 0.3581
0.7731 -0.9957 0.3587
0.8604 -0.9244 0.3593
4.7395 -4.2580 1.8128
5.1174 -3.8307 1.8188
5.4577 -3.3705 1.8251
5.7575 -2.8805 1.8317
6.0140 -2.3641 1.8386
6.2256 -1.8254 1.8459
6.3903 -1.2679 1.8537
6.5052 -0.6955 1.8614
6.5685 -0.1128 1.8692
6.5793 0.4757 1.8769
6.5366 1.0651 1.8844
6.4404 1.6504 1.8917
6.2907 2.2267 1.8987
1.1865 0.5435 0.3713
1.1357 0.6486 0.3721
1.0755 0.7489 0.3729
1.0063 0.8434 0.3736
0.9286 0.9314 0.3742
0.8431 1.0121 0.3748
0.7504 1.0848 0.3753
0.6514 1.1487 0.3757
0.5468 1.2034 0.3761
0.4376 1.2483 0.3763
0.3246 1.2829 0.3765
0.2089 1.3071 0.3766
0.0914 1.3206 0.3766
-0.0268 1.3232 0.3766
-0.1447 1.3150 0.3764
-0.2612 1.2959 0.3761
-0.3755 1.2664 0.3758
-0.4864 1.2265 0.3754
-0.5932 1.1766 0.3749
-0.6947 1.1173 0.3744
-0.7903 1.0491 0.3737
-0.8792 0.9727 0.3730
-4.8951 4.5282 1.8973
-5.2629 4.0604 1.8913
-5.5857 3.5629 1.8850
-5.8614 3.0400 1.8787
-6.0881 2.4962 1.8722
-6.2646 1.9362 1.8656
-6.3900 1.3648 1.8591
-6.4637 0.7864 1.8526
-3.4250 0.1087 0.9750
-3.4988 -0.2018 0.9972
-3.5767 -0.5295 1.0288
-3.6605 -0.8815 1.0713
-1.2045 -0.4067 0.3617
-1.1609 -0.5115 0.3609
-1.1083 -0.6117 0.3602
-1.0472 -0.7068 0.3595
-0.9782 -0.7959 0.3588
-0.9018 -0.8786 0.3582
-0.8185 -0.9541 0.3577
-0.7292 -1.0220 0.3572
-0.6344 -1.0817 0.3568
-0.5348 -1.1330 0.3565
-0.4313 -1.1754 0.3562
-0.3246 -1.2086 0.3560
-0.2154 -1.2324 0.3560
-0.1046 -1.2466 0.3559
0.0071 -1.2511 0.3560
0.1187 -1.2460 0.3561
0.2296 -1.2312 0.3563
0.3388 -1.2067 0.3566
0.4456 -1.1729 0.3570
0.5491 -1.1298 0.3574
0.6486 -1.0778 0.3579
0.7434 -1.0172 0.3585
0.8326 -0.9485 0.3591
4.6089 -4.3896 1.8109
4.9983 -3.9737 1.8168
5.3512 -3.5239 1.8230
5.6645 -3.0432 1.8295
5.9353 -2.5350 1.8363
6.1615 -2.0030 1.8434
6.3421 -1.4513 1.8511
6.4733 -0.8833 1.8589
6.5536 -0.3035 1.8667
6.5816 0.2836 1.8744
6.5564 0.8733 1.8819
6.4776 1.4605 1.8893
6.3453 2.0403 1.8964
1.2010 0.5084 0.3711
1.1534 0.6149 0.3719
1.0961 0.7168 0.3726
1.0298 0.8133 0.3734
0.9548 0.9035 0.3740
0.8718 0.9867 0.3746
0.7813 1.0620 0.3751
0.6843 1.1289 0.3756
0.5814 1.1866 0.3760
0.4736 1.2347 0.3763
0.3617 1.2728 0.3765
0.2468 1.3004 0.3766
0.1298 1.3174 0.3766
0.0118 1.3235 0.3766
-0.1063 1.3188 0.3765
-0.2235 1.3033 0.3762
-0.3386 1.2771 0.3759
-0.4507 1.2406 0.3755
-0.5589 1.1939 0.3751
-0.6623 1.1377 0.3745
-0.7599 1.0723 0.3739
-0.8510 0.9984 0.3733
-4.7661 4.6734 1.8992
-5.1479 4.2163 1.8933
-5.4856 3.7280 1.8871
-5.7769 3.2128 1.8807
-6.0197 2.6753 1.8743
-6.2127 2.1201 1.8678
-6.3548 1.5519 1.8612
-6.4453 0.9753 1.8547
-6.4842 0.3949 1.8483
-3.4744 -0.0991 0.9889
-3.5508 -0.4204 1.0174
-3.6324 -0.7636 1.0561
-1.2168 -0.3718 0.3620
-1.1761 -0.4778 0.3612
-1.1264 -0.5796 0.3604
-1.0680 -0.6764 0.3597
-1.0015 -0.7676 0.3590
-0.9274 -0.8524 0.3584
-0.8464 -0.9303 0.3578
-0.7589 -1.0007 0.3574
-0.6658 -1.0632 0.3569
-0.5678 -1.1173 0.3566
-0.4654 -1.1626 0.3563
-0.3596 -1.1988 0.3561
-0.2512 -1.2257 0.3560
-0.1408 -1.2430 0.3559
-0.0293 -1.2507 0.3560
0.0824 -1.2487 0.3561
0.1936 -1.2370 0.3563
0.3034 -1.2157 0.3565
0.4111 -1.1849 0.3569
0.5158 -1.1448 0.3573
0.6167 -1.0957 0.3577
0.7131 -1.0379 0.3583
0.8042 -0.9718 0.3589
0.8893 -0.8978 0.3595
4.8753 -4.1130 1.8148
5.2404 -3.6739 1.8210
5.5669 -3.2030 1.8274
5.8519 -2.7034 1.8341
6.0927 -2.1787 1.8410
6.2886 -1.6330 1.8486
6.4361 -1.0699 1.8564
6.5331 -0.4934 1.8641
6.5783 0.0919 1.8719
6.5705 0.6812 1.8795
6.5092 1.2697 1.8869
6.3943 1.8525 1.8941
1.2144 0.4729 0.3708
1.1699 0.5806 0.3716
1.1158 0.6841 0.3724
1.0524 0.7825 0.3731
0.9801 0.8749 0.3738
0.8997 0.9604 0.3744
0.8116 1.0384 0.3750
0.7166 1.1081 0.3755
0.6155 1.1688 0.3759
0.5092 1.2202 0.3762
0.3986 1.2615 0.3764
0.2845 1.2926 0.3766
0.1681 1.3130 0.3766
0.0503 1.3227 0.3766
-0.0679 1.3216 0.3765
-0.1855 1.3096 0.3763
-0.3014 1.2868 0.3760
-0.4146 1.2536 0.3757
-0.5242 1.2102 0.3752
-0.6292 1.1570 0.3747
-0.7288 1.0946 0.3741
-0.8221 1.0234 0.3735
-4.6326 4.8149 1.9011
-5.0282 4.3688 1.8952
-5.3806 3.8902 1.8891
-5.6872 3.3833 1.8828
-5.9460 2.8526 1.8764
-6.1554 2.3026 1.8699
-6.3142 1.7381 1.8634
-6.4215 1.1637 1.8568
-6.4772 0.5841 1.8504
-3.4503 0.0020 0.9817
-3.5254 -0.3137 1.0070
-3.6052 -0.6489 1.0422
-3.6914 -1.0115 1.0890
-1.1904 -0.4437 0.3614
-1.1435 -0.5469 0.3607
-1.0879 -0.6455 0.3599
-1.0240 -0.7385 0.3592
-0.9524 -0.8255 0.3586
-0.8735 -0.9057 0.3580
-0.7881 -0.9786 0.3575
-0.6967 -1.0438 0.3571
-0.6002 -1.1006 0.3567
-0.4992 -1.1488 0.3564
-0.3944 -1.1880 0.3562
-0.2867 -1.2179 0.3560
-0.1769 -1.2384 0.3559
-0.0657 -1.2493 0.3559
0.0460 -1.2504 0.3560
0.1575 -1.2419 0.3562
0.2679 -1.2237 0.3564
0.3763 -1.1960 0.3567
0.4820 -1.1589 0.3571
0.5843 -1.1127 0.3576
0.6822 -1.0577 0.3581
0.7751 -0.9942 0.3587
0.8623 -0.9227 0.3593
4.7485 -4.2486 1.8129
5.1256 -3.8206 1.8189
5.4650 -3.3597 1.8253
5.7638 -2.8691 1.8319
6.0193 -2.3521 1.8388
6.2299 -1.8129 1.8461
6.3935 -1.2550 1.8538
6.5072 -0.6824 1.8616
6.5694 -0.0995 1.8694
6.5789 0.4891 1.8770
6.5351 1.0784 1.8845
6.4376 1.6636 1.8918
6.2867 2.2396 1.8988
1.1855 0.5460 0.3714
1.1345 0.6510 0.3721
1.0740 0.7511 0.3729
1.0046 0.8455 0.3736
0.9267 0.9334 0.3742
0.8411 1.0139 0.3748
0.7482 1.0863 0.3753
0.6491 1.1501 0.3757
0.5444 1.2045 0.3761
0.4350 1.2492 0.3764
0.3220 1.2836 0.3765
0.2062 1.3075 0.3766
0.0887 1.3208 0.3766
-0.0294 1.3231 0.3766
-0.1473 1.3146 0.3764
-0.2639 1.2954 0.3761
-0.3780 1.2656 0.3758
-0.4889 1.2254 0.3754
-0.5955 1.1754 0.3749
-0.6970 1.1159 0.3743
-0.7925 1.0475 0.3737
-0.8811 0.9708 0.3730
-4.9040 4.5179 1.8972
-5.2707 4.0494 1.8911
-5.5925 3.5513 1.8849
-5.8671 3.0278 1.8785
-6.0927 2.4836 1.8720
-6.2680 1.9233 1.8655
-6.3922 1.3516 1.8590
-6.4647 0.7732 1.8525
-3.4266 0.1018 0.9754
-3.5005 -0.2091 0.9978
-3.5786 -0.5372 1.0296
-3.6624 -0.8898 1.0724
-1.2037 -0.4092 0.3617
-1.1598 -0.5138 0.3609
-1.1070 -0.6139 0.3602
-1.0457 -0.7089 0.3594
-0.9765 -0.7979 0.3588
-0.8999 -0.8804 0.3582
-0.8166 -0.9557 0.3577
-0.7271 -1.0234 0.3572
-0.6322 -1.0830 0.3568
-0.5325 -1.1341 0.3565
-0.4289 -1.1762 0.3562
-0.3221 -1.2092 0.3560
-0.2129 -1.2328 0.3559
-0.1020 -1.2468 0.3559
0.0096 -1.2511 0.3560
0.1213 -1.2458 0.3561
0.2321 -1.2307 0.3563
0.3412 -1.2061 0.3566
0.4480 -1.1720 0.3570
0.5514 -1.1287 0.3574
0.6508 -1.0765 0.3579
0.7455 -1.0158 0.3585
0.8346 -0.9468 0.3591
4.6181 -4.3805 1.8111
5.0067 -3.9638 1.8169
5.3588 -3.5133 1.8232
5.6711 -3.0319 1.8297
5.9410 -2.5232 1.8365
6.1662 -1.9907 1.8436
6.3456 -1.4386 1.8513
6.4757 -0.8703 1.8591
6.5548 -0.2902 1.8668
6.5816 0.2970 1.8745
6.5552 0.8867 1.8821
6.4752 1.4738 1.8895
6.3417 2.0533 1.8966
1.2000 0.5109 0.3711
1.1521 0.6172 0.3719
1.0947 0.7191 0.3727
1.0282 0.8154 0.3734
0.9530 0.9055 0.3740
0.8698 0.9885 0.3746
0.7792 1.0637 0.3752
0.6820 1.1303 0.3756
0.5790 1.1878 0.3760
0.4711 1.2357 0.3763
0.3592 1.2735 0.3765
0.2442 1.3009 0.3766
0.1271 1.3176 0.3766
0.0091 1.3236 0.3766
-0.1090 1.3186 0.3765
-0.2261 1.3028 0.3762
-0.3412 1.2764 0.3759
-0.4532 1.2396 0.3755
-0.5613 1.1927 0.3751
-0.6646 1.1363 0.3745
-0.7621 1.0707 0.3739
-0.8530 0.9967 0.3733
-4.7752 4.6634 1.8991
-5.1560 4.2055 1.8931
-5.4928 3.7165 1.8870
-5.7829 3.2008 1.8806
-6.0247 2.6629 1.8741
-6.2165 2.1074 1.8676
-6.3574 1.5389 1.8611
-6.4468 0.9621 1.8546
-6.4845 0.3817 1.8482
-3.4761 -0.1062 0.9895
-3.5526 -0.4280 1.0181
-3.6344 -0.7717 1.0571
-1.2160 -0.3742 0.3620
-1.1751 -0.4802 0.3612
-1.1251 -0.5818 0.3604
-1.0666 -0.6785 0.3597
-0.9999 -0.7696 0.3590
-0.9257 -0.8542 0.3584
-0.8444 -0.9320 0.3578
-0.7569 -1.0022 0.3573
-0.6637 -1.0645 0.3569
-0.5655 -1.1184 0.3566
-0.4631 -1.1635 0.3563
-0.3572 -1.1995 0.3561
-0.2487 -1.2262 0.3560
-0.1383 -1.2433 0.3559
-0.0268 -1.2508 0.3560
0.0850 -1.2486 0.3561
0.1961 -1.2367 0.3563
0.3059 -1.2151 0.3565
0.4135 -1.1841 0.3569
0.5181 -1.1438 0.3573
0.6189 -1.0945 0.3577
0.7152 -1.0365 0.3583
0.8062 -0.9702 0.3589
0.8912 -0.8960 0.3596
4.8840 -4.1034 1.8150
5.2483 -3.6635 1.8211
5.5739 -3.1919 1.8275
5.8579 -2.6917 1.8343
6.0977 -2.1665 1.8412
6.2925 -1.6204 1.8488
6.4389 -1.0569 1.8565
6.5348 -0.4802 1.8643
6.5787 0.1052 1.8720
6.5697 0.6946 1.8797
6.5072 1.2831 1.8871
6.3910 1.8657 1.8943
1.2135 0.4754 0.3708
1.1688 0.5830 0.3716
1.1145 0.6864 0.3724
1.0508 0.7847 0.3731
0.9784 0.8769 0.3738
0.8977 0.9623 0.3744
0.8095 1.0401 0.3750
0.7144 1.1096 0.3755
0.6132 1.1701 0.3759
0.5067 1.2212 0.3762
0.3960 1.2623 0.3764
0.2819 1.2932 0.3766
0.1654 1.3134 0.3766
0.0476 1.3228 0.3766
-0.0706 1.3214 0.3765
-0.1881 1.3092 0.3763
-0.3040 1.2862 0.3760
-0.4171 1.2527 0.3757
-0.5266 1.2091 0.3752
-0.6315 1.1557 0.3747
-0.7310 1.0930 0.3741
-0.8242 1.0217 0.3735
-4.6421 4.8052 1.9010
-5.0367 4.3583 1.8951
-5.3881 3.8790 1.8890
-5.6936 3.3715 1.8827
-5.9514 2.8403 1.8763
-6.1596 2.2900 1.8697
-6.3172 1.7252 1.8632
-6.4234 1.1506 1.8567
-6.4779 0.5709 1.8503
-3.4520 -0.0050 0.9822
-3.5272 -0.3211 1.0077
-3.6070 -0.6569 1.0432
-3.6934 -1.0201 1.0902
-1.1894 -0.4461 0.3614
-1.1424 -0.5492 0.3606
-1.0866 -0.6476 0.3599
-1.0225 -0.7406 0.3592
-0.9506 -0.8274 0.3586
-0.8716 -0.9075 0.3580
-0.7860 -0.9802 0.3575
-0.6946 -1.0451 0.3570
-0.5980 -1.1018 0.3567
-0.4968 -1.1498 0.3564
-0.3920 -1.1888 0.3562
-0.2843 -1.2185 0.3560
-0.1744 -1.2388 0.3559
-0.0632 -1.2494 0.3559
0.0486 -1.2504 0.3560
0.1600 -1.2416 0.3562
0.2704 -1.2232 0.3564
0.3788 -1.1953 0.3567
0.4844 -1.1579 0.3571
0.5865 -1.1115 0.3576
0.6844 -1.0563 0.3581
0.7772 -0.9926 0.3587
0.8642 -0.9210 0.3593
4.7575 -4.2393 1.8131
5.1337 -3.8105 1.8191
5.4723 -3.3489 1.8254
5.7701 -2.8576 1.8320
6.0246 -2.3401 1.8389
6.2342 -1.8004 1.8463
6.3967 -1.2421 1.8540
6.5092 -0.6692 1.8618
6.5702 -0.0861 1.8695
6.5785 0.5025 1.8772
6.5334 1.0918 1.8847
6.4347 1.6768 1.8920
1.2259 0.4395 0.3705
1.1844 0.5484 0.3714
1.1332 0.6533 0.3722
1.0726 0.7533 0.3729
1.0029 0.8476 0.3736
0.9249 0.9353 0.3742
0.8390 1.0156 0.3748
0.7461 1.0879 0.3753
0.6467 1.1514 0.3757
0.5419 1.2056 0.3761
0.4325 1.2501 0.3764
0.3194 1.2843 0.3765
0.2036 1.3080 0.3766
0.0861 1.3209 0.3766
-0.0321 1.3231 0.3766
-0.1500 1.3143 0.3764
-0.2665 1.2948 0.3761
-0.3806 1.2648 0.3758
-0.4914 1.2244 0.3754
-0.5979 1.1741 0.3749
-0.6992 1.1144 0.3743
-0.7945 1.0458 0.3737
-0.8831 0.9690 0.3730
-4.9128 4.5076 1.8970
-5.2785 4.0384 1.8910
-5.5993 3.5396 1.8848
-5.8728 3.0156 1.8784
-6.0973 2.4710 1.8719
-6.2714 1.9104 1.8653
-6.3944 1.3386 1.8588
-6.4658 0.7600 1.8523
-3.4282 0.0949 0.9758
-3.5023 -0.2163 0.9984
-3.5804 -0.5449 1.0304
-3.6644 -0.8982 1.0735
-1.2028 -0.4116 0.3617
-1.1587 -0.5161 0.3609
-1.1057 -0.6162 0.3601
-1.0442 -0.7109 0.3594
-0.9749 -0.7998 0.3588
-0.8981 -0.8822 0.3582
-0.8146 -0.9573 0.3577
-0.7250 -1.0249 0.3572
-0.6300 -1.0843 0.3568
-0.5302 -1.1351 0.3565
-0.4265 -1.1771 0.3562
-0.3196 -1.2099 0.3560
-0.2104 -1.2332 0.3559
-0.0995 -1.2470 0.3559
0.0122 -1.2511 0.3560
0.1238 -1.2455 0.3561
0.2346 -1.2303 0.3563
0.3437 -1.2054 0.3566
0.4503 -1.1711 0.3570
0.5537 -1.1276 0.3574
0.6530 -1.0752 0.3579
0.7475 -1.0143 0.3585
0.8365 -0.9452 0.3591
4.6273 -4.3714 1.8112
5.0152 -3.9539 1.8171
5.3663 -3.5026 1.8233
5.6777 -3.0207 1.8299
5.9466 -2.5113 1.8367
6.1708 -1.9784 1.8438
6.3491 -1.4258 1.8515
6.4781 -0.8572 1.8592
6.5560 -0.2769 1.8670
6.5816 0.3104 1.8747
6.5540 0.9001 1.8823
6.4728 1.4870 1.8896
6.3380 2.0664 1.8967
1.1990 0.5133 0.3711
1.1510 0.6196 0.3719
1.0933 0.7213 0.3727
1.0266 0.8176 0.3734
0.9512 0.9075 0.3740
0.8678 0.9903 0.3746
0.7771 1.0653 0.3752
0.6797 1.1317 0.3756
0.5766 1.1890 0.3760
0.4686 1.2367 0.3763
0.3566 1.2743 0.3765
0.2415 1.3014 0.3766
0.1245 1.3179 0.3766
0.0064 1.3236 0.3766
-0.1117 1.3184 0.3765
-0.2287 1.3024 0.3762
-0.3438 1.2757 0.3759
-0.4557 1.2387 0.3755
-0.5637 1.1916 0.3751
-0.6668 1.1349 0.3745
-0.7642 1.0691 0.3739
-0.8550 0.9949 0.3732
-4.7843 4.6534 1.8989
-5.1642 4.1947 1.8930
-5.4999 3.7051 1.8868
-5.7890 3.1888 1.8805
-6.0296 2.6504 1.8740
-6.2203 2.0945 1.8675
-6.3600 1.5258 1.8609
-6.4482 0.9489 1.8544
-6.4847 0.3685 1.8480
-3.4778 -0.1133 0.9900
-3.5544 -0.4355 1.0189
-3.6363 -0.7799 1.0581
-1.2151 -0.3767 0.3620
-1.1740 -0.4825 0.3612
-1.1239 -0.5841 0.3604
-1.0651 -0.6807 0.3597
-0.9983 -0.7716 0.3590
-0.9239 -0.8561 0.3584
-0.8425 -0.9337 0.3578
-0.7548 -1.0037 0.3573
-0.6615 -1.0658 0.3569
-0.5632 -1.1195 0.3566
-0.4607 -1.1644 0.3563
-0.3548 -1.2002 0.3561
-0.2462 -1.2266 0.3560
-0.1357 -1.2436 0.3559
-0.0242 -1.2508 0.3560
0.0875 -1.2484 0.3561
0.1986 -1.2363 0.3563
0.3084 -1.2145 0.3565
0.4159 -1.1833 0.3569
0.5204 -1.1428 0.3573
0.6212 -1.0933 0.3578
0.7173 -1.0351 0.3583
0.8082 -0.9686 0.3589
0.8930 -0.8942 0.3596
4.8927 -4.0937 1.8151
5.2561 -3.6532 1.8212
5.5808 -3.1808 1.8277
5.8638 -2.6800 1.8344
6.1026 -2.1543 1.8414
6.2964 -1.6077 1.8490
6.4416 -1.0439 1.8567
6.5363 -0.4669 1.8645
6.5791 0.1186 1.8722
6.5689 0.7080 1.8798
6.5051 1.2964 1.8873
6.3878 1.8788 1.8945
1.2126 0.4779 0.3708
1.1677 0.5854 0.3717
1.1131 0.6887 0.3724
1.0493 0.7869 0.3732
0.9767 0.8789 0.3738
0.8958 0.9641 0.3745
0.8074 1.0417 0.3750
0.7121 1.1110 0.3755
0.6108 1.1714 0.3759
0.5043 1.2223 0.3762
0.3934 1.2632 0.3764
0.2793 1.2937 0.3766
0.1628 1.3137 0.3766
0.0449 1.3229 0.3766
-0.0733 1.3213 0.3765
-0.1908 1.3088 0.3763
-0.3066 1.2855 0.3760
-0.4197 1.2518 0.3757
-0.5291 1.2080 0.3752
-0.6339 1.1544 0.3747
-0.7332 1.0915 0.3741
-0.8262 1.0199 0.3735
-4.6515 4.7954 1.9008
-5.0452 4.3477 1.8950
-5.3956 3.8677 1.8888
-5.7000 3.3596 1.8825
-5.9566 2.8279 1.8761
-6.1637 2.2772 1.8696
-6.3202 1.7122 1.8631
-6.4252 1.1375 1.8565
-6.4785 0.5577 1.8501
-3.4537 -0.0120 0.9827
-3.5289 -0.3285 1.0084
-3.6089 -0.6648 1.0441
-3.6955 -1.0287 1.0914
-1.1884 -0.4485 0.3614
-1.1412 -0.5515 0.3606
-1.0852 -0.6498 0.3599
-1.0209 -0.7426 0.3592
-0.9489 -0.8293 0.3586
-0.8697 -0.9092 0.3580
-0.7840 -0.9818 0.3575
-0.6925 -1.0465 0.3570
-0.5957 -1.1030 0.3567
-0.4945 -1.1508 0.3564
-0.3896 -1.1896 0.3561
-0.2818 -1.2191 0.3560
-0.1719 -1.2391 0.3559
-0.0606 -1.2495 0.3559
0.0511 -1.2503 0.3560
0.1626 -1.2413 0.3562
0.2728 -1.2227 0.3564
0.3812 -1.1945 0.3568
0.4868 -1.1570 0.3571
0.5888 -1.1104 0.3576
0.6866 -1.0549 0.3581
0.7842 -0.9515 0.3590
0.8675 -0.8793 0.3597
4.7575 -4.0302 1.8156
5.1149 -3.6015 1.8216
5.4345 -3.1415 1.8279
5.7136 -2.6536 1.8345
5.9494 -2.1411 1.8412
6.1408 -1.6080 1.8485
6.2855 -1.0580 1.8561
6.3808 -0.4950 1.8636
6.4255 0.0767 1.8712
6.4184 0.6523 1.8786
6.3592 1.2271 1.8859
6.2476 1.7963 1.8930
1.1871 0.4595 0.3707
1.1438 0.5648 0.3715
1.0911 0.6660 0.3722
1.0293 0.7621 0.3729
0.9589 0.8524 0.3736
0.8805 0.9361 0.3742
0.7946 1.0124 0.3748
0.7019 1.0806 0.3752
0.6034 1.1401 0.3756
0.4996 1.1904 0.3759
0.3917 1.2310 0.3762
0.2804 1.2616 0.3763
0.1667 1.2818 0.3764
0.0517 1.2915 0.3764
-0.0637 1.2906 0.3763
-0.1785 1.2791 0.3761
-0.2917 1.2572 0.3758
-0.4024 1.2250 0.3755
-0.5095 1.1829 0.3750
-0.6122 1.1312 0.3745
-0.7096 1.0704 0.3740
-0.8009 1.0011 0.3733
-0.8854 0.9240 0.3726
-4.9026 4.2772 1.8946
-5.2481 3.8107 1.8886
-5.5491 3.3164 1.8825
-5.8035 2.7987 1.8762
-6.0096 2.2620 1.8698
-6.1663 1.7110 1.8634
-6.2729 1.1500 1.8571
-6.3290 0.5837 1.8508
-3.4486 0.0090 1.0042
-3.5237 -0.3063 1.0299
-3.6033 -0.6410 1.0657
-1.2009 -0.3264 0.3624
-1.1644 -0.4313 0.3616
-1.1188 -0.5323 0.3608
-1.0647 -0.6288 0.3601
-1.0025 -0.7199 0.3594
-0.9326 -0.8051 0.3588
-0.8557 -0.8837 0.3582
-0.7724 -0.9552 0.3577
-0.6833 -1.0190 0.3573
-0.5890 -1.0748 0.3569
-0.4903 -1.1222 0.3566
-0.3880 -1.1607 0.3564
-0.2828 -1.1902 0.3562
-0.1754 -1.2105 0.3562
-0.0667 -1.2213 0.3562
0.0425 -1.2226 0.3562
0.1515 -1.2145 0.3564
0.2594 -1.1969 0.3566
0.3655 -1.1700 0.3569
0.4689 -1.1339 0.3573
0.5690 -1.0889 0.3578
0.6648 -1.0353 0.3583
0.7557 -0.9734 0.3588
0.8410 -0.9036 0.3595
4.6335 -4.1627 1.8138
5.0025 -3.7447 1.8196
5.3348 -3.2946 1.8258
5.6273 -2.8154 1.8323
5.8775 -2.3105 1.8390
6.0833 -1.7836 1.8460
6.2437 -1.2388 1.8536
6.3553 -0.6795 1.8612
6.4166 -0.1102 1.8688
6.4264 0.4646 1.8762
6.3842 1.0402 1.8836
6.2897 1.6118 1.8907
1.1991 0.4244 0.3704
1.1590 0.5309 0.3712
1.1093 0.6335 0.3720
1.0504 0.7314 0.3727
0.9828 0.8237 0.3734
0.9069 0.9096 0.3740
0.8233 0.9884 0.3746
0.7328 1.0593 0.3751
0.6361 1.1217 0.3755
0.5339 1.1751 0.3758
0.4273 1.2189 0.3761
0.3169 1.2527 0.3763
0.2040 1.2763 0.3764
0.0893 1.2895 0.3764
-0.0261 1.2920 0.3763
-0.1412 1.2840 0.3762
-0.2551 1.2655 0.3759
-0.3667 1.2366 0.3756
-0.4750 1.1976 0.3752
-0.5793 1.1490 0.3747
-0.6785 1.0912 0.3742
-0.7719 1.0246 0.3735
-0.8587 0.9499 0.3729
-4.7808 4.4225 1.8964
-5.1404 3.9659 1.8906
-5.4561 3.4802 1.8845
-5.7258 2.9697 1.8782
-5.9478 2.4387 1.8719
-6.1208 1.8918 1.8655
-6.2437 1.3335 1.8591
-6.3162 0.7685 1.8528
-3.4249 0.1087 0.9978
-3.4988 -0.2018 1.0205
-3.5767 -0.5295 1.0529
-3.6604 -0.8815 1.0964
-1.1773 -0.3975 0.3618
-1.1346 -0.4999 0.3610
-1.0833 -0.5979 0.3603
-1.0236 -0.6908 0.3596
-0.9562 -0.7780 0.3590
-0.8815 -0.8588 0.3584
-0.8002 -0.9327 0.3579
-0.7129 -0.9991 0.3574
-0.6202 -1.0576 0.3570
-0.5229 -1.1077 0.3567
-0.4217 -1.1492 0.3564
-0.3173 -1.1816 0.3563
-0.2106 -1.2049 0.3562
-0.1022 -1.2188 0.3562
0.0069 -1.2232 0.3562
0.1161 -1.2182 0.3563
0.2245 -1.2037 0.3565
0.3312 -1.1798 0.3568
0.4356 -1.1467 0.3572
0.5368 -1.1045 0.3576
0.6341 -1.0536 0.3581
0.7267 -0.9944 0.3586
0.8139 -0.9272 0.3593
0.8950 -0.8524 0.3599
4.8862 -3.8845 1.8177
5.2307 -3.4446 1.8238
5.5365 -2.9745 1.8302
5.8008 -2.4776 1.8368
6.0211 -1.9574 1.8436
6.1967 -1.4181 1.8511
6.3244 -0.8630 1.8587
6.4022 -0.2965 1.8663
6.4289 0.2770 1.8738
6.4037 0.8529 1.8812
6.3262 1.4263 1.8884
1.2100 0.3891 0.3701
1.1731 0.4966 0.3709
1.1265 0.6006 0.3717
1.0706 0.7001 0.3725
1.0057 0.7943 0.3732
0.9325 0.8824 0.3738
0.8513 0.9636 0.3744
0.7630 1.0371 0.3749
0.6682 1.1024 0.3754
0.5678 1.1587 0.3757
0.4625 1.2057 0.3760
0.3532 1.2428 0.3762
0.2410 1.2698 0.3764
0.1268 1.2864 0.3764
0.0115 1.2924 0.3763
-0.1038 1.2878 0.3762
-0.2182 1.2726 0.3760
-0.3306 1.2471 0.3757
-0.4401 1.2114 0.3753
-0.5458 1.1659 0.3749
-0.6468 1.1110 0.3743
-0.7421 1.0472 0.3738
-0.8312 0.9751 0.3731
-4.6547 4.5642 1.8983
-5.0280 4.1180 1.8925
-5.3582 3.6414 1.8865
-5.6431 3.1384 1.8803
-5.8808 2.6136 1.8740
-6.0699 2.0714 1.8676
-6.2092 1.5163 1.8612
-6.2982 0.9530 1.8549
-6.3366 0.3859 1.8486
-3.4744 -0.0991 1.0121
-3.5508 -0.4204 1.0412
-3.6324 -0.7636 1.0809
-1.1892 -0.3634 0.3621
-1.1495 -0.4670 0.3613
-1.1009 -0.5665 0.3605
-1.0439 -0.6612 0.3598
-0.9790 -0.7503 0.3592
-0.9066 -0.8333 0.3586
-0.8274 -0.9095 0.3580
-0.7419 -0.9783 0.3575
-0.6509 -1.0394 0.3571
-0.5551 -1.0923 0.3568
-0.4550 -1.1366 0.3565
-0.3516 -1.1720 0.3563
-0.2456 -1.1983 0.3562
-0.1376 -1.2153 0.3562
-0.0287 -1.2228 0.3562
0.0806 -1.2209 0.3563
0.1893 -1.2094 0.3565
0.2967 -1.1886 0.3567
0.4019 -1.1584 0.3571
0.5042 -1.1192 0.3575
0.6029 -1.0712 0.3579
0.6971 -1.0146 0.3585
0.7861 -0.9499 0.3590
0.8693 -0.8776 0.3597
4.7661 -4.0208 1.8158
5.1226 -3.5913 1.8218
5.4414 -3.1307 1.8280
5.7194 -2.6422 1.8346
5.9543 -2.1291 1.8414
6.1447 -1.5956 1.8486
6.2882 -1.0453 1.8562
6.3824 -0.4820 1.8638
6.4259 0.0897 1.8714
6.4177 0.6654 1.8788
6.3572 1.2401 1.8861
6.2444 1.8091 1.8931
1.1862 0.4619 0.3707
1.1427 0.5671 0.3715
1.0898 0.6682 0.3722
1.0278 0.7642 0.3730
0.9572 0.8544 0.3736
0.8786 0.9379 0.3742
0.7925 1.0140 0.3748
0.6998 1.0820 0.3752
0.6011 1.1414 0.3756
0.4972 1.1914 0.3759
0.3892 1.2318 0.3762
0.2778 1.2621 0.3763
0.1641 1.2821 0.3764
0.0491 1.2916 0.3764
-0.0663 1.2904 0.3763
-0.1811 1.2787 0.3761
-0.2943 1.2566 0.3758
-0.4048 1.2241 0.3755
-0.5119 1.1818 0.3750
-0.6144 1.1299 0.3745
-0.7117 1.0689 0.3740
-0.8029 0.9995 0.3733
-0.8872 0.9221 0.3726
-4.9110 4.2669 1.8944
-5.2555 3.7998 1.8885
-5.5554 3.3049 1.8823
-5.8087 2.7867 1.8760
-6.0137 2.2496 1.8697
-6.1693 1.6983 1.8633
-6.2747 1.1371 1.8569
-6.3296 0.5708 1.8506
-3.4503 0.0020 1.0047
-3.5254 -0.3137 1.0306
-3.6051 -0.6489 1.0667
-1.2002 -0.3289 0.3624
-1.1634 -0.4337 0.3616
-1.1177 -0.5346 0.3608
-1.0634 -0.6309 0.3601
-1.0010 -0.7219 0.3594
-0.9310 -0.8070 0.3588
-0.8539 -0.8854 0.3582
-0.7704 -0.9567 0.3577
-0.6812 -1.0204 0.3573
-0.5868 -1.0760 0.3569
-0.4880 -1.1231 0.3566
-0.3856 -1.1615 0.3564
-0.2804 -1.1908 0.3562
-0.1730 -1.2108 0.3562
-0.0642 -1.2214 0.3562
0.0450 -1.2226 0.3562
0.1540 -1.2142 0.3564
0.2619 -1.1964 0.3566
0.3679 -1.1693 0.3569
0.4713 -1.1330 0.3573
0.5712 -1.0878 0.3578
0.6669 -1.0339 0.3583
0.7577 -0.9719 0.3588
0.8429 -0.9020 0.3595
4.6422 -4.1535 1.8139
5.0105 -3.7348 1.8198
5.3419 -3.2840 1.8260
5.6335 -2.8042 1.8324
5.8827 -2.2987 1.8392
6.0875 -1.7714 1.8462
6.2468 -1.2262 1.8538
6.3572 -0.6667 1.8613
6.4174 -0.0972 1.8689
6.4261 0.4777 1.8764
6.3827 1.0533 1.8837
6.2869 1.6247 1.8909
1.1983 0.4269 0.3704
1.1579 0.5333 0.3712
1.1081 0.6358 0.3720
1.0490 0.7336 0.3727
0.9811 0.8257 0.3734
0.9051 0.9115 0.3740
0.8213 0.9901 0.3746
0.7307 1.0608 0.3751
0.6338 1.1230 0.3755
0.5316 1.1762 0.3758
0.4248 1.2198 0.3761
0.3144 1.2534 0.3763
0.2014 1.2767 0.3764
0.0866 1.2896 0.3764
-0.0288 1.2920 0.3763
-0.1439 1.2837 0.3761
-0.2577 1.2649 0.3759
-0.3692 1.2358 0.3756
-0.4774 1.1967 0.3752
-0.5816 1.1478 0.3747
-0.6807 1.0898 0.3741
-0.7739 1.0230 0.3735
-0.8606 0.9482 0.3729
-4.7895 4.4124 1.8963
-5.1480 3.9552 1.8904
-5.4628 3.4689 1.8843
-5.7314 2.9578 1.8781
-5.9523 2.4264 1.8718
-6.1241 1.8792 1.8654
-6.2459 1.3207 1.8590
-6.3173 0.7556 1.8527
-3.4266 0.1018 0.9982
-3.5005 -0.2091 1.0211
-3.5786 -0.5372 1.0537
-3.6624 -0.8898 1.0975
-1.1764 -0.3999 0.3618
-1.1336 -0.5022 0.3610
-1.0820 -0.6001 0.3603
-1.0222 -0.6929 0.3596
-0.9546 -0.7799 0.3590
-0.8797 -0.8606 0.3584
-0.7983 -0.9343 0.3578
-0.7108 -1.0005 0.3574
-0.6180 -1.0588 0.3570
-0.5206 -1.1087 0.3567
-0.4194 -1.1500 0.3564
-0.3149 -1.1822 0.3563
-0.2081 -1.2053 0.3562
-0.0997 -1.2190 0.3562
0.0094 -1.2232 0.3562
0.1186 -1.2180 0.3563
0.2269 -1.2032 0.3566
0.3336 -1.1791 0.3568
0.4379 -1.1458 0.3572
0.5391 -1.1035 0.3576
0.6362 -1.0524 0.3581
0.7287 -0.9930 0.3587
0.8158 -0.9256 0.3593
0.8968 -0.8507 0.3599
4.8944 -3.8749 1.8178
5.2381 -3.4342 1.8239
5.5430 -2.9635 1.8303
5.8063 -2.4660 1.8369
6.0255 -1.9453 1.8438
6.2002 -1.4056 1.8513
6.3267 -0.8502 1.8589
6.4034 -0.2835 1.8665
6.4289 0.2901 1.8740
6.4025 0.8660 1.8814
6.3238 1.4393 1.8886
1.2093 0.3915 0.3701
1.1721 0.4990 0.3710
1.1253 0.6029 0.3718
1.0692 0.7023 0.3725
1.0042 0.7964 0.3732
0.9307 0.8843 0.3738
0.8494 0.9653 0.3744
0.7609 1.0387 0.3749
0.6660 1.1037 0.3754
0.5654 1.1599 0.3757
0.4600 1.2066 0.3760
0.3507 1.2435 0.3762
0.2384 1.2703 0.3764
0.1241 1.2866 0.3764
0.0088 1.2924 0.3763
-0.1065 1.2875 0.3762
-0.2208 1.2722 0.3760
-0.3331 1.2464 0.3757
-0.4426 1.2105 0.3753
-0.5482 1.1648 0.3749
-0.6490 1.1097 0.3743
-0.7442 1.0457 0.3737
-0.8331 0.9734 0.3731
-4.6636 4.5544 1.8982
-5.0359 4.1075 1.8924
-5.3652 3.6302 1.8863
-5.6491 3.1267 1.8801
-5.8857 2.6014 1.8738
-6.0736 2.0589 1.8675
-6.2118 1.5036 1.8611
-6.2996 0.9401 1.8547
-6.3369 0.3730 1.8485
-3.4760 -0.1062 1.0127
-3.5526 -0.4280 1.0420
-3.6343 -0.7717 1.0819
-1.1884 -0.3658 0.3621
-1.1485 -0.4693 0.3613
-1.0997 -0.5687 0.3605
-1.0425 -0.6633 0.3598
-0.9774 -0.7523 0.3592
-0.9049 -0.8351 0.3586
-0.8255 -0.9111 0.3580
-0.7399 -0.9798 0.3575
-0.6488 -1.0407 0.3571
-0.5528 -1.0934 0.3568
-0.4527 -1.1375 0.3565
-0.3492 -1.1727 0.3563
-0.2431 -1.1988 0.3562
-0.1352 -1.2156 0.3562
-0.0262 -1.2229 0.3562
0.0831 -1.2207 0.3563
0.1918 -1.2091 0.3565
0.2991 -1.1880 0.3567
0.4043 -1.1576 0.3571
0.5065 -1.1182 0.3575
0.6051 -1.0700 0.3579
0.6992 -1.0132 0.3585
0.7881 -0.9484 0.3591
0.8711 -0.8758 0.3597
4.7746 -4.0114 1.8159
5.1303 -3.5812 1.8219
5.4481 -3.1199 1.8282
5.7253 -2.6308 1.8348
5.9591 -2.1172 1.8415
6.1485 -1.5833 1.8488
6.2909 -1.0326 1.8564
6.3840 -0.4691 1.8640
6.4263 0.1028 1.8715
6.4169 0.6785 1.8790
6.3552 1.2531 1.8862
6.2412 1.8219 1.8933
1.1853 0.4643 0.3707
1.1416 0.5695 0.3715
1.0885 0.6704 0.3723
1.0263 0.7664 0.3730
0.9555 0.8564 0.3736
0.8767 0.9397 0.3742
0.7905 1.0157 0.3748
0.6976 1.0835 0.3752
0.5987 1.1426 0.3756
0.4948 1.1925 0.3759
0.3867 1.2326 0.3762
0.2753 1.2627 0.3763
0.1615 1.2824 0.3764
0.0465 1.2917 0.3764
-0.0690 1.2903 0.3763
-0.1837 1.2783 0.3761
-0.2968 1.2559 0.3758
-0.4073 1.2233 0.3754
-0.5142 1.1807 0.3750
-0.6167 1.1286 0.3745
-0.7139 1.0674 0.3739
-0.8049 0.9978 0.3733
-0.8891 0.9203 0.3726
-4.9193 4.2566 1.8943
-5.2628 3.7888 1.8883
-5.5617 3.2933 1.8822
-5.8139 2.7746 1.8759
-6.0178 2.2373 1.8695
-6.1723 1.6856 1.8631
-6.2765 1.1243 1.8568
-6.3303 0.5579 1.8505
-3.4520 -0.0050 1.0052
-3.5272 -0.3211 1.0313
-3.6070 -0.6569 1.0676
-1.1994 -0.3313 0.3623
-1.1625 -0.4360 0.3615
-1.1166 -0.5368 0.3608
-1.0621 -0.6330 0.3600
-0.9995 -0.7239 0.3594
-0.9293 -0.8088 0.3587
-0.8521 -0.8871 0.3582
-0.7685 -0.9583 0.3577
-0.6791 -1.0218 0.3572
-0.5846 -1.0772 0.3569
-0.4858 -1.1241 0.3566
-0.3833 -1.1623 0.3564
-0.2779 -1.1913 0.3562
-0.1705 -1.2112 0.3562
-0.0618 -1.2216 0.3562
0.0475 -1.2225 0.3562
0.1565 -1.2139 0.3564
0.2643 -1.1959 0.3566
0.3703 -1.1685 0.3569
0.4736 -1.1320 0.3573
0.5734 -1.0866 0.3578
0.6690 -1.0326 0.3583
0.7597 -0.9703 0.3589
0.8448 -0.9003 0.3595
4.6510 -4.1444 1.8140
5.0184 -3.7249 1.8199
5.3489 -3.2734 1.8261
5.6396 -2.7930 1.8326
5.8878 -2.2870 1.8393
6.0917 -1.7592 1.8464
6.2498 -1.2136 1.8539
6.3592 -0.6538 1.8615
6.4181 -0.0841 1.8691
6.4257 0.4908 1.8766
6.3811 1.0663 1.8839
6.2841 1.6376 1.8910
1.1975 0.4293 0.3704
1.1569 0.5356 0.3712
1.1068 0.6381 0.3720
1.0475 0.7357 0.3728
0.9795 0.8278 0.3734
0.9032 0.9134 0.3741
0.8194 0.9918 0.3746
0.7285 1.0623 0.3751
0.6315 1.1243 0.3755
0.5292 1.1773 0.3759
0.4223 1.2206 0.3761
0.3119 1.2540 0.3763
0.1988 1.2772 0.3764
0.0840 1.2898 0.3764
-0.0314 1.2919 0.3763
-0.1465 1.2834 0.3761
-0.2602 1.2644 0.3759
-0.3717 1.2350 0.3756
-0.4799 1.1957 0.3752
-0.5839 1.1466 0.3747
-0.6829 1.0883 0.3741
-0.7760 1.0214 0.3735
-0.8625 0.9464 0.3728
-4.7981 4.4024 1.8962
-5.1557 3.9444 1.8903
-5.4694 3.4575 1.8842
-5.7370 2.9459 1.8780
-5.9568 2.4141 1.8716
-6.1274 1.8666 1.8652
-6.2481 1.3079 1.8588
-6.3183 0.7427 1.8525
-3.4282 0.0949 0.9987
-3.5022 -0.2163 1.0218
-3.5804 -0.5449 1.0546
-3.6644 -0.8982 1.0986
-1.1755 -0.4023 0.3618
-1.1325 -0.5045 0.3610
-1.0807 -0.6023 0.3603
-1.0207 -0.6949 0.3596
-0.9530 -0.7819 0.3589
-0.8780 -0.8624 0.3584
-0.7964 -0.9359 0.3578
-0.7088 -1.0019 0.3574
-0.6159 -1.0600 0.3570
-0.5184 -1.1098 0.3567
-0.4170 -1.1508 0.3564
-0.3125 -1.1829 0.3563
-0.2057 -1.2057 0.3562
-0.0973 -1.2192 0.3562
0.0119 -1.2232 0.3562
0.1211 -1.2177 0.3563
0.2294 -1.2028 0.3566
0.3360 -1.1785 0.3568
0.4403 -1.1449 0.3572
0.5413 -1.1024 0.3576
0.6384 -1.0511 0.3581
0.7308 -0.9915 0.3587
0.8177 -0.9239 0.3593
0.8986 -0.8489 0.3599
4.9027 -3.8652 1.8180
5.2455 -3.4238 1.8241
5.5495 -2.9524 1.8305
5.8118 -2.4544 1.8371
6.0300 -1.9332 1.8439
6.2036 -1.3931 1.8515
6.3290 -0.8375 1.8590
6.4045 -0.2705 1.8666
6.4289 0.3032 1.8742
6.4013 0.8791 1.8815
6.3214 1.4523 1.8887
1.2085 0.3940 0.3702
1.1712 0.5014 0.3710
1.1242 0.6052 0.3718
1.0678 0.7045 0.3725
1.0026 0.7985 0.3732
0.9289 0.8862 0.3739
0.8475 0.9671 0.3744
0.7588 1.0403 0.3750
0.6638 1.1051 0.3754
0.5631 1.1611 0.3758
0.4576 1.2076 0.3760
0.3482 1.2443 0.3762
0.2358 1.2708 0.3764
0.1215 1.2869 0.3764
0.0062 1.2924 0.3763
-0.1091 1.2873 0.3762
-0.2234 1.2717 0.3760
-0.3357 1.2457 0.3757
-0.4450 1.2096 0.3753
-0.5505 1.1636 0.3748
-0.6512 1.1083 0.3743
-0.7463 1.0441 0.3737
-0.8351 0.9717 0.3731
-4.6726 4.5446 1.8981
-5.0439 4.0970 1.8922
-5.3722 3.6190 1.8862
-5.6550 3.1150 1.8800
-5.8905 2.5893 1.8737
-6.0773 2.0464 1.8673
-6.2143 1.4908 1.8609
-6.3010 0.9273 1.8546
-6.3372 0.3601 1.8483
-3.4777 -0.1133 1.0132
-3.5544 -0.4355 1.0428
-3.6363 -0.7799 1.0829
-1.1876 -0.3682 0.3621
-1.1475 -0.4716 0.3613
-1.0985 -0.5709 0.3605
-1.0412 -0.6654 0.3598
-0.9758 -0.7542 0.3591
-0.9031 -0.8369 0.3585
-0.8236 -0.9127 0.3580
-0.7379 -0.9813 0.3575
-0.6467 -1.0420 0.3571
-0.5506 -1.0945 0.3568
-0.4504 -1.1384 0.3565
-0.3468 -1.1734 0.3563
-0.2407 -1.1993 0.3562
-0.1327 -1.2159 0.3562
-0.0237 -1.2230 0.3562
0.0855 -1.2206 0.3563
0.1942 -1.2087 0.3565
0.3015 -1.1874 0.3567
0.4066 -1.1569 0.3571
0.5088 -1.1172 0.3575
0.6073 -1.0688 0.3579
0.7012 -1.0118 0.3585
0.7900 -0.9468 0.3591
0.8729 -0.8741 0.3597
4.7831 -4.0020 1.8160
5.1380 -3.5710 1.8220
5.4549 -3.1091 1.8283
5.7311 -2.6193 1.8349
5.9639 -2.1053 1.8417
6.1522 -1.5710 1.8490
6.2936 -1.0199 1.8566
6.3855 -0.4562 1.8642
6.4266 0.1159 1.8717
6.4161 0.6916 1.8791
6.3532 1.2662 1.8864
6.2380 1.8348 1.8934
1.1844 0.4668 0.3707
1.1405 0.5718 0.3715
1.0872 0.6727 0.3723
1.0248 0.7685 0.3730
0.9538 0.8584 0.3737
0.8748 0.9416 0.3743
0.7885 1.0173 0.3748
0.6954 1.0849 0.3753
0.5964 1.1438 0.3756
0.4924 1.1935 0.3760
0.3842 1.2334 0.3762
0.2727 1.2633 0.3763
0.1589 1.2828 0.3764
0.0438 1.2918 0.3764
-0.0716 1.2901 0.3763
-0.1863 1.2779 0.3761
-0.2994 1.2553 0.3758
-0.4098 1.2224 0.3754
-0.5166 1.1796 0.3750
-0.6190 1.1273 0.3745
-0.7160 1.0660 0.3739
-0.8069 0.9961 0.3733
-0.8909 0.9185 0.3726
-4.9276 4.2463 1.8942
-5.2701 3.7778 1.8882
-5.5680 3.2818 1.8820
-5.8191 2.7626 1.8758
-6.0219 2.2248 1.8694
-6.1752 1.6729 1.8630
-6.2783 1.1115 1.8566
-6.3309 0.5450 1.8504
-3.4536 -0.0120 1.0057
-3.5289 -0.3285 1.0320
-3.6089 -0.6648 1.0686
-1.1987 -0.3337 0.3623
-1.1615 -0.4383 0.3615
-1.1154 -0.5391 0.3607
-1.0607 -0.6352 0.3600
-0.9980 -0.7259 0.3594
-0.9276 -0.8107 0.3587
-0.8502 -0.8888 0.3582
-0.7665 -0.9598 0.3577
-0.6770 -1.0231 0.3572
-0.5824 -1.0783 0.3569
-0.4835 -1.1251 0.3566
-0.3809 -1.1630 0.3564
-0.2755 -1.1919 0.3562
-0.1680 -1.2115 0.3562
-0.0593 -1.2217 0.3562
0.0500 -1.2224 0.3563
0.1589 -1.2136 0.3564
0.2668 -1.1954 0.3566
0.3727 -1.1678 0.3570
0.4759 -1.1311 0.3573
0.5756 -1.0855 0.3578
0.6712 -1.0313 0.3583
0.7669 -0.9305 0.3592
0.8483 -0.8599 0.3598
0.9234 -0.7822 0.3605
5.0021 -3.5220 1.8224
5.3143 -3.0720 1.8285
5.5867 -2.5946 1.8349
5.8168 -2.0933 1.8416
6.0030 -1.5719 1.8485
6.1438 -1.0341 1.8559
6.2364 -0.4838 1.8634
6.2795 0.0749 1.8707
6.2720 0.6374 1.8780
6.2136 1.1990 1.8851
1.1928 0.3430 0.3697
1.1601 0.4490 0.3706
1.1177 0.5519 0.3713
1.0662 0.6507 0.3721
1.0058 0.7447 0.3728
0.9369 0.8329 0.3734
0.8602 0.9146 0.3740
0.7763 0.9891 0.3746
0.6858 1.0557 0.3750
0.5894 1.1138 0.3754
0.4881 1.1629 0.3757
0.3826 1.2026 0.3759
0.2739 1.2324 0.3761
0.1629 1.2522 0.3761
0.0505 1.2616 0.3761
-0.0622 1.2608 0.3760
-0.1744 1.2496 0.3758
-0.2850 1.2282 0.3756
-0.3931 1.1968 0.3752
-0.4978 1.1556 0.3748
-0.5981 1.1052 0.3743
-0.6933 1.0459 0.3738
-0.7826 0.9782 0.3732
-0.8652 0.9029 0.3725
-4.7905 4.1794 1.8938
-5.1285 3.7238 1.8880
-5.4230 3.2410 1.8820
-5.6720 2.7353 1.8758
-5.8739 2.2110 1.8696
-6.0276 1.6724 1.8634
-6.1322 1.1242 1.8572
-6.1875 0.5707 1.8510
-3.4486 0.0090 1.0273
-3.5236 -0.3063 1.0536
-3.6032 -0.6410 1.0902
-1.1742 -0.3192 0.3625
-1.1385 -0.4217 0.3617
-1.0940 -0.5205 0.3609
-1.0412 -0.6149 0.3602
-0.9804 -0.7040 0.3595
-0.9121 -0.7873 0.3589
-0.8369 -0.8643 0.3584
-0.7554 -0.9342 0.3579
-0.6682 -0.9967 0.3575
-0.5761 -1.0513 0.3571
-0.4796 -1.0976 0.3568
-0.3795 -1.1353 0.3566
-0.2766 -1.1642 0.3564
-0.1716 -1.1840 0.3564
-0.0653 -1.1946 0.3564
0.0416 -1.1959 0.3565
0.1482 -1.1879 0.3566
0.2538 -1.1707 0.3568
0.3575 -1.1443 0.3571
0.4587 -1.1090 0.3575
0.5565 -1.0650 0.3579
0.6502 -1.0125 0.3584
0.7391 -0.9519 0.3590
0.8224 -0.8837 0.3596
0.8997 -0.8083 0.3603
4.8923 -3.6622 1.8204
5.2168 -3.2217 1.8265
5.5025 -2.7529 1.8328
5.7466 -2.2591 1.8394
5.9470 -1.7437 1.8461
6.1032 -1.2109 1.8535
6.2117 -0.6642 1.8609
6.2710 -0.1077 1.8683
6.2801 0.4540 1.8757
6.2382 1.0164 1.8828
6.1453 1.5748 1.8898
1.1718 0.4148 0.3703
1.1326 0.5188 0.3711
1.0840 0.6190 0.3719
1.0264 0.7147 0.3726
0.9603 0.8048 0.3732
0.8860 0.8888 0.3738
0.8044 0.9657 0.3744
0.7159 1.0349 0.3749
0.6214 1.0959 0.3753
0.5216 1.1480 0.3756
0.4174 1.1907 0.3759
0.3096 1.2238 0.3760
0.1993 1.2469 0.3761
0.0872 1.2597 0.3761
-0.0255 1.2622 0.3761
-0.1380 1.2544 0.3759
-0.2492 1.2363 0.3757
-0.3582 1.2081 0.3754
-0.4641 1.1701 0.3750
-0.5659 1.1226 0.3745
-0.6629 1.0661 0.3740
-0.7542 1.0011 0.3734
-0.8390 0.9282 0.3727
-0.9168 0.8480 0.3720
-5.0230 3.8754 1.8899
-5.3320 3.4010 1.8839
-5.5960 2.9023 1.8778
-5.8134 2.3835 1.8716
-5.9829 1.8491 1.8654
-6.1035 1.3036 1.8592
-6.1749 0.7513 1.8530
-3.4249 0.1087 1.0208
-3.4988 -0.2018 1.0440
-3.5767 -0.5295 1.0771
-1.1838 -0.2851 0.3627
-1.1511 -0.3887 0.3619
-1.1095 -0.4888 0.3612
-1.0593 -0.5847 0.3604
-1.0010 -0.6756 0.3598
-0.9351 -0.7609 0.3591
-0.8621 -0.8399 0.3586
-0.7826 -0.9122 0.3580
-0.6972 -0.9772 0.3576
-0.6066 -1.0344 0.3572
-0.5114 -1.0834 0.3569
-0.4125 -1.1240 0.3567
-0.3104 -1.1558 0.3565
-0.2060 -1.1785 0.3564
-0.1000 -1.1921 0.3564
0.0068 -1.1965 0.3564
0.1136 -1.1915 0.3566
0.2195 -1.1773 0.3568
0.3240 -1.1539 0.3570
0.4260 -1.1215 0.3574
0.5250 -1.0802 0.3578
0.6201 -1.0305 0.3583
0.7107 -0.9725 0.3588
0.7959 -0.9067 0.3594
0.8752 -0.8336 0.3601
4.7786 -3.7990 1.8185
5.1152 -3.3685 1.8245
5.4138 -2.9086 1.8307
5.6718 -2.4225 1.8372
5.8867 -1.9137 1.8439
6.0574 -1.3862 1.8511
6.1816 -0.8435 1.8585
6.2571 -0.2898 1.8659
6.2827 0.2708 1.8733
6.2575 0.8334 1.8805
6.1812 1.3936 1.8875
1.1825 0.3802 0.3700
1.1464 0.4853 0.3708
1.1008 0.5869 0.3716
1.0461 0.6841 0.3723
0.9827 0.7761 0.3730
0.9111 0.8621 0.3737
0.8318 0.9414 0.3742
0.7455 1.0132 0.3747
0.6528 1.0770 0.3752
0.5547 1.1320 0.3755
0.4518 1.1779 0.3758
0.3451 1.2141 0.3760
0.2354 1.2405 0.3761
0.1238 1.2566 0.3762
0.0112 1.2625 0.3761
-0.1014 1.2581 0.3760
-0.2132 1.2433 0.3758
-0.3230 1.2184 0.3755
-0.4300 1.1835 0.3751
-0.5333 1.1391 0.3747
-0.6319 1.0855 0.3742
-0.7251 1.0232 0.3736
-0.8121 0.9528 0.3729
-0.8923 0.8749 0.3723
-4.9131 4.0240 1.8918
-5.2362 3.5584 1.8859
-5.5150 3.0672 1.8798
-5.7478 2.5545 1.8737
-5.9330 2.0247 1.8674
-6.0696 1.4823 1.8612
-6.1571 0.9317 1.8550
-6.1951 0.3773 1.8489
-3.4743 -0.0991 1.0354
-3.5508 -0.4204 1.0651
-1.1925 -0.2507 0.3630
-1.1628 -0.3553 0.3622
-1.1240 -0.4566 0.3614
-1.0766 -0.5540 0.3607
-1.0209 -0.6466 0.3600
-0.9574 -0.7338 0.3593
-0.8866 -0.8149 0.3587
-0.8092 -0.8894 0.3582
-0.7257 -0.9568 0.3577
-0.6367 -1.0166 0.3573
-0.5429 -1.0684 0.3570
-0.4451 -1.1117 0.3567
-0.3439 -1.1464 0.3565
-0.2402 -1.1721 0.3564
-0.1346 -1.1887 0.3564
-0.0280 -1.1961 0.3564
0.0788 -1.1942 0.3565
0.1852 -1.1830 0.3567
0.2902 -1.1625 0.3569
0.3931 -1.1330 0.3573
0.4932 -1.0946 0.3576
0.5896 -1.0476 0.3581
0.6817 -0.9923 0.3586
0.7688 -0.9290 0.3592
0.8501 -0.8582 0.3598
4.6612 -3.9324 1.8167
5.0096 -3.5121 1.8225
5.3209 -3.0614 1.8287
5.5924 -2.5835 1.8351
5.8215 -2.0817 1.8417
6.0067 -1.5598 1.8487
6.1465 -1.0217 1.8561
6.2380 -0.4711 1.8635
6.2799 0.0877 1.8709
6.2713 0.6502 1.8782
6.2117 1.2117 1.8853
1.1922 0.3454 0.3698
1.1592 0.4514 0.3706
1.1167 0.5542 0.3714
1.0649 0.6529 0.3721
1.0043 0.7468 0.3728
0.9353 0.8348 0.3735
0.8584 0.9164 0.3740
0.7743 0.9907 0.3746
0.6836 1.0571 0.3750
0.5872 1.1151 0.3754
0.4858 1.1639 0.3757
0.3802 1.2034 0.3759
0.2714 1.2330 0.3761
0.1603 1.2525 0.3761
0.0479 1.2617 0.3761
-0.0648 1.2606 0.3760
-0.1769 1.2492 0.3758
-0.2875 1.2276 0.3756
-0.3955 1.1959 0.3752
-0.5001 1.1546 0.3748
-0.6003 1.1039 0.3743
-0.6954 1.0444 0.3738
-0.7845 0.9766 0.3732
-0.8669 0.9011 0.3725
-4.7986 4.1694 1.8937
-5.1357 3.7131 1.8878
-5.4292 3.2298 1.8818
-5.6771 2.7236 1.8757
-5.8779 2.1989 1.8695
-6.0305 1.6600 1.8632
-6.1340 1.1116 1.8570
-6.1881 0.5580 1.8509
-3.4503 0.0020 1.0278
-3.5254 -0.3137 1.0543
-3.6051 -0.6489 1.0912
-1.1734 -0.3215 0.3624
-1.1376 -0.4240 0.3617
-1.0929 -0.5227 0.3609
-1.0399 -0.6170 0.3602
-0.9789 -0.7060 0.3595
-0.9105 -0.7892 0.3589
-0.8351 -0.8659 0.3584
-0.7535 -0.9357 0.3579
-0.6662 -0.9980 0.3574
-0.5739 -1.0524 0.3571
-0.4774 -1.0985 0.3568
-0.3772 -1.1361 0.3566
-0.2742 -1.1647 0.3564
-0.1692 -1.1843 0.3564
-0.0628 -1.1947 0.3564
0.0440 -1.1958 0.3565
0.1506 -1.1876 0.3566
0.2561 -1.1702 0.3568
0.3598 -1.1436 0.3571
0.4609 -1.1081 0.3575
0.5586 -1.0639 0.3579
0.6522 -1.0112 0.3584
0.7410 -0.9504 0.3590
0.8243 -0.8820 0.3596
0.9014 -0.8065 0.3603
4.9001 -3.6525 1.8206
5.2237 -3.2114 1.8266
5.5085 -2.7420 1.8330
5.7517 -2.2475 1.8395
5.9510 -1.7317 1.8463
6.1062 -1.1986 1.8537
6.2135 -0.6516 1.8611
6.2717 -0.0950 1.8685
6.2797 0.4668 1.8758
6.2367 1.0292 1.8830
6.1426 1.5874 1.8899
1.1710 0.4172 0.3703
1.1316 0.5211 0.3711
1.0828 0.6213 0.3719
1.0250 0.7168 0.3726
0.9586 0.8068 0.3732
0.8843 0.8906 0.3739
0.8025 0.9673 0.3744
0.7139 1.0364 0.3749
0.6192 1.0972 0.3753
0.5193 1.1490 0.3756
0.4150 1.1916 0.3759
0.3072 1.2244 0.3760
0.1967 1.2473 0.3761
0.0847 1.2599 0.3761
-0.0281 1.2621 0.3761
-0.1405 1.2541 0.3759
-0.2517 1.2357 0.3757
-0.3607 1.2073 0.3754
-0.4665 1.1691 0.3750
-0.5682 1.1214 0.3745
-0.6650 1.0647 0.3740
-0.7562 0.9995 0.3734
-0.8409 0.9265 0.3727
-0.9184 0.8461 0.3720
-5.0306 3.8649 1.8898
-5.3385 3.3900 1.8838
-5.6015 2.8907 1.8777
-5.8178 2.3715 1.8715
-5.9862 1.8368 1.8653
-6.1057 1.2911 1.8590
-6.1759 0.7387 1.8529
-3.4266 0.1018 1.0212
-3.5005 -0.2091 1.0446
-3.5785 -0.5372 1.0779
-1.1832 -0.2875 0.3627
-1.1503 -0.3910 0.3619
-1.1084 -0.4910 0.3611
-1.0581 -0.5868 0.3604
-0.9996 -0.6776 0.3597
-0.9335 -0.7628 0.3591
-0.8604 -0.8417 0.3585
-0.7807 -0.9138 0.3580
-0.6952 -0.9786 0.3576
-0.6045 -1.0356 0.3572
-0.5092 -1.0845 0.3569
-0.4102 -1.1248 0.3566
-0.3080 -1.1564 0.3565
-0.2036 -1.1789 0.3564
-0.0976 -1.1923 0.3564
0.0092 -1.1965 0.3564
0.1160 -1.1913 0.3566
0.2219 -1.1769 0.3568
0.3263 -1.1533 0.3570
0.4283 -1.1207 0.3574
0.5272 -1.0792 0.3578
0.6222 -1.0292 0.3583
0.7127 -0.9711 0.3588
0.7978 -0.9051 0.3594
0.8770 -0.8318 0.3601
4.7867 -3.7896 1.8187
5.1224 -3.3583 1.8246
5.4202 -2.8978 1.8309
5.6772 -2.4111 1.8374
5.8910 -1.9019 1.8441
6.0608 -1.3740 1.8513
6.1839 -0.8311 1.8587
6.2583 -0.2771 1.8661
6.2827 0.2835 1.8734
6.2563 0.8462 1.8807
6.1789 1.4063 1.8877
1.1818 0.3826 0.3700
1.1454 0.4876 0.3709
1.0997 0.5891 0.3716
1.0448 0.6862 0.3724
0.9812 0.7781 0.3730
0.9094 0.8640 0.3737
0.8299 0.9432 0.3742
0.7434 1.0148 0.3747
0.6507 1.0783 0.3752
0.5524 1.1331 0.3755
0.4494 1.1788 0.3758
0.3426 1.2148 0.3760
0.2329 1.2409 0.3761
0.1213 1.2569 0.3762
0.0086 1.2625 0.3761
-0.1040 1.2578 0.3760
-0.2157 1.2428 0.3758
-0.3255 1.2177 0.3755
-0.4324 1.1826 0.3751
-0.5356 1.1380 0.3747
-0.6341 1.0842 0.3741
-0.7272 1.0217 0.3736
-0.8140 0.9511 0.3729
-0.8940 0.8731 0.3722
-4.9209 4.0137 1.8916
-5.2430 3.5475 1.8858
-5.5208 3.0558 1.8797
-5.7525 2.5426 1.8735
-5.9366 2.0125 1.8673
-6.0721 1.4698 1.8611
-6.1585 0.9191 1.8549
-6.1954 0.3647 1.8487
-3.4760 -0.1062 1.0360
-3.5526 -0.4280 1.0659
-1.1919 -0.2531 0.3630
-1.1620 -0.3576 0.3622
-1.1230 -0.4589 0.3614
-1.0754 -0.5561 0.3606
-1.0195 -0.6486 0.3600
-0.9559 -0.7357 0.3593
-0.8850 -0.8167 0.3587
-0.8074 -0.8911 0.3582
-0.7237 -0.9583 0.3577
-0.6346 -1.0179 0.3573
-0.5407 -1.0695 0.3570
-0.4428 -1.1126 0.3567
-0.3416 -1.1471 0.3565
-0.2378 -1.1726 0.3564
-0.1322 -1.1890 0.3564
-0.0256 -1.1961 0.3564
0.0813 -1.1940 0.3565
0.1876 -1.1826 0.3567
0.2925 -1.1620 0.3569
0.3954 -1.1323 0.3573
0.4954 -1.0937 0.3577
0.5918 -1.0464 0.3581
0.6838 -0.9909 0.3586
0.7707 -0.9274 0.3592
0.8519 -0.8565 0.3598
4.6696 -3.9232 1.8168
5.0171 -3.5022 1.8227
5.3275 -3.0508 1.8288
5.5981 -2.5723 1.8352
5.8262 -2.0700 1.8419
6.0104 -1.5478 1.8489
6.1491 -1.0093 1.8563
6.2395 -0.4585 1.8637
6.2803 0.1005 1.8711
6.2705 0.6630 1.8783
6.2097 1.2245 1.8854
1.1916 0.3478 0.3698
1.1583 0.4538 0.3706
1.1156 0.5565 0.3714
1.0636 0.6551 0.3721
1.0028 0.7488 0.3728
0.9336 0.8368 0.3735
0.8566 0.9182 0.3741
0.7723 0.9923 0.3746
0.6815 1.0585 0.3750
0.5849 1.1163 0.3754
0.4834 1.1650 0.3757
0.3778 1.2042 0.3759
0.2689 1.2335 0.3761
0.1578 1.2528 0.3762
0.0454 1.2618 0.3761
-0.0674 1.2605 0.3760
-0.1795 1.2488 0.3758
-0.2900 1.2270 0.3756
-0.3979 1.1951 0.3752
-0.5024 1.1535 0.3748
-0.6026 1.1027 0.3743
-0.6975 1.0430 0.3738
-0.7865 0.9749 0.3731
-0.8687 0.8993 0.3725
-4.8068 4.1593 1.8935
-5.1428 3.7024 1.8877
-5.4353 3.2185 1.8817
-5.6822 2.7118 1.8756
-5.8819 2.1867 1.8693
-6.0334 1.6477 1.8631
-6.1358 1.0991 1.8569
-6.1888 0.5454 1.8507
-3.4520 -0.0050 1.0283
-3.5271 -0.3211 1.0550
-3.6070 -0.6569 1.0922
-1.1727 -0.3239 0.3624
-1.1367 -0.4263 0.3616
-1.0918 -0.5249 0.3609
-1.0386 -0.6190 0.3602
-0.9774 -0.7079 0.3595
-0.9088 -0.7910 0.3589
-0.8333 -0.8676 0.3584
-0.7516 -0.9372 0.3579
-0.6642 -0.9993 0.3574
-0.5718 -1.0536 0.3571
-0.4751 -1.0995 0.3568
-0.3749 -1.1368 0.3566
-0.2718 -1.1653 0.3564
-0.1668 -1.1847 0.3564
-0.0604 -1.1948 0.3564
0.0465 -1.1957 0.3565
0.1530 -1.1873 0.3566
0.2585 -1.1697 0.3568
0.3622 -1.1429 0.3571
0.4632 -1.1072 0.3575
0.5608 -1.0627 0.3580
0.6543 -1.0099 0.3585
0.7430 -0.9490 0.3590
0.8261 -0.8804 0.3596
0.9030 -0.8047 0.3603
4.9078 -3.6428 1.8207
5.2307 -3.2010 1.8268
5.5145 -2.7310 1.8331
5.7567 -2.2360 1.8397
5.9551 -1.7198 1.8465
6.1091 -1.1863 1.8538
6.2154 -0.6390 1.8613
6.2725 -0.0822 1.8687
6.2793 0.4796 1.8760
6.2351 1.0420 1.8831
6.1399 1.6000 1.8901
1.1702 0.4196 0.3703
1.1305 0.5234 0.3711
1.0815 0.6235 0.3719
1.0236 0.7189 0.3726
0.9570 0.8088 0.3733
0.8825 0.8924 0.3739
0.8005 0.9690 0.3744
0.7118 1.0379 0.3749
0.6170 1.0984 0.3753
0.5170 1.1501 0.3756
0.4126 1.1925 0.3759
0.3047 1.2251 0.3761
0.1942 1.2477 0.3761
0.0821 1.2600 0.3761
-0.0307 1.2621 0.3761
-0.1431 1.2538 0.3759
-0.2542 1.2352 0.3757
-0.3631 1.2066 0.3753
-0.4688 1.1681 0.3749
-0.5705 1.1202 0.3745
-0.6672 1.0633 0.3739
-0.7582 0.9980 0.3733
-0.8427 0.9247 0.3727
-0.9201 0.8442 0.3720
-5.0380 3.8544 1.8896
-5.3450 3.3788 1.8837
-5.6069 2.8791 1.8776
-5.8221 2.3595 1.8714
-5.9894 1.8245 1.8651
-6.1078 1.2786 1.8589
-6.1770 0.7261 1.8527
-3.4282 0.0949 1.0216
-3.5022 -0.2163 1.0453
-3.5804 -0.5449 1.0788
-1.1825 -0.2898 0.3627
-1.1494 -0.3933 0.3619
-1.1074 -0.4933 0.3611
-1.0568 -0.5889 0.3604
-0.9982 -0.6796 0.3597
-0.9319 -0.7646 0.3591
-0.8586 -0.8434 0.3585
-0.7789 -0.9153 0.3580
-0.6932 -0.9799 0.3576
-0.6024 -1.0368 0.3572
-0.5070 -1.0855 0.3569
-0.4079 -1.1256 0.3566
-0.3057 -1.1570 0.3565
-0.2012 -1.1793 0.3564
-0.0951 -1.1925 0.3564
0.0116 -1.1965 0.3564
0.1184 -1.1911 0.3566
0.2243 -1.1764 0.3568
0.3287 -1.1526 0.3570
0.4306 -1.1198 0.3574
0.5294 -1.0782 0.3578
0.6244 -1.0280 0.3583
0.7147 -0.9697 0.3588
0.7997 -0.9035 0.3594
0.8787 -0.8301 0.3601
4.7947 -3.7801 1.8188
5.1297 -3.3482 1.8248
5.4265 -2.8870 1.8310
5.6825 -2.3998 1.8375
5.8954 -1.8901 1.8442
6.0641 -1.3618 1.8514
6.1861 -0.8185 1.8589
6.2594 -0.2644 1.8663
6.2826 0.2963 1.8736
6.2551 0.8590 1.8808
6.1765 1.4190 1.8879
1.1811 0.3851 0.3701
1.1445 0.4900 0.3709
1.0985 0.5914 0.3716
1.0434 0.6884 0.3724
0.9796 0.7802 0.3731
0.9076 0.8659 0.3737
0.8280 0.9449 0.3742
0.7414 1.0163 0.3747
0.6485 1.0797 0.3752
0.5501 1.1343 0.3755
0.4470 1.1797 0.3758
0.3401 1.2155 0.3760
0.2304 1.2414 0.3761
0.1187 1.2571 0.3762
0.0061 1.2625 0.3761
-0.1066 1.2576 0.3760
-0.2182 1.2424 0.3758
-0.3279 1.2170 0.3755
-0.4348 1.1817 0.3751
-0.5379 1.1368 0.3746
-0.6363 1.0828 0.3741
-0.7292 1.0202 0.3735
-0.8159 0.9494 0.3729
-0.8957 0.8712 0.3722
-4.9287 4.0034 1.8915
-5.2498 3.5366 1.8856
-5.5266 3.0443 1.8796
-5.7572 2.5307 1.8734
-5.9403 2.0002 1.8672
-6.0747 1.4574 1.8609
-6.1599 0.9065 1.8547
-6.1957 0.3521 1.8486
-3.4777 -0.1133 1.0365
-3.5544 -0.4355 1.0667
-1.1913 -0.2555 0.3630
-1.1612 -0.3600 0.3621
-1.1220 -0.4612 0.3614
-1.0742 -0.5583 0.3606
-1.0181 -0.6507 0.3599
-0.9543 -0.7376 0.3593
-0.8833 -0.8184 0.3587
-0.8055 -0.8927 0.3582
-0.7217 -0.9597 0.3577
-0.6325 -1.0192 0.3573
-0.5385 -1.0705 0.3570
-0.4406 -1.1135 0.3567
-0.3393 -1.1477 0.3565
-0.2354 -1.1731 0.3564
-0.1298 -1.1892 0.3564
-0.0232 -1.1962 0.3564
0.0837 -1.1938 0.3565
0.1900 -1.1822 0.3567
0.2949 -1.1614 0.3569
0.3977 -1.1315 0.3573
0.4976 -1.0927 0.3577
0.5939 -1.0453 0.3581
0.6858 -0.9895 0.3586
0.7726 -0.9259 0.3592
0.8536 -0.8548 0.3599
4.6779 -3.9140 1.8169
5.0246 -3.4923 1.8228
5.3341 -3.0402 1.8290
5.6037 -2.5611 1.8354
5.8309 -2.0583 1.8420
6.0141 -1.5357 1.8490
6.1517 -0.9969 1.8564
6.2410 -0.4458 1.8639
6.2806 0.1132 1.8712
6.2697 0.6758 1.8785
6.2077 1.2372 1.8856
1.1909 0.3503 0.3698
1.1575 0.4561 0.3706
1.1145 0.5588 0.3714
1.0623 0.6573 0.3721
1.0013 0.7509 0.3728
0.9319 0.8387 0.3735
0.8547 0.9199 0.3741
0.7703 0.9939 0.3746
0.6794 1.0600 0.3750
0.5827 1.1175 0.3754
0.4810 1.1660 0.3757
0.3753 1.2049 0.3759
0.2664 1.2341 0.3761
0.1553 1.2531 0.3762
0.0428 1.2619 0.3761
-0.0699 1.2603 0.3760
-0.1820 1.2485 0.3758
-0.2925 1.2264 0.3756
-0.4003 1.1943 0.3752
-0.5047 1.1525 0.3748
-0.6048 1.1014 0.3743
-0.6996 1.0415 0.3737
-0.7884 0.9733 0.3731
-0.8705 0.8975 0.3724
-4.8149 4.1492 1.8934
-5.1500 3.6917 1.8876
-5.4415 3.2072 1.8816
-5.6873 2.7001 1.8754
-5.8859 2.1746 1.8692
-6.0363 1.6353 1.8629
-6.1375 1.0865 1.8567
-6.1894 0.5328 1.8506
-3.4536 -0.0120 1.0288
-3.5289 -0.3285 1.0558
-3.6089 -0.6648 1.0931
-1.1720 -0.3263 0.3624
-1.1357 -0.4286 0.3616
-1.0907 -0.5271 0.3609
-1.0373 -0.6211 0.3602
-0.9759 -0.7099 0.3595
-0.9072 -0.7928 0.3589
-0.8315 -0.8693 0.3583
-0.7496 -0.9387 0.3579
-0.6621 -1.0007 0.3574
-0.5696 -1.0547 0.3571
-0.4729 -1.1004 0.3568
-0.3726 -1.1376 0.3566
-0.2695 -1.1658 0.3564
-0.1644 -1.1850 0.3564
-0.0580 -1.1950 0.3564
0.0489 -1.1956 0.3565
0.1554 -1.1870 0.3566
0.2609 -1.1692 0.3569
0.3645 -1.1422 0.3572
0.4654 -1.1063 0.3575
0.5630 -1.0616 0.3580
0.6564 -1.0086 0.3585
0.7502 -0.9103 0.3593
0.8299 -0.8412 0.3600
0.9033 -0.7652 0.3606
4.8937 -3.4457 1.8231
5.1988 -3.0052 1.8291
5.4648 -2.5380 1.8354
5.6895 -2.0475 1.8419
5.8707 -1.5373 1.8486
6.0079 -1.0113 1.8558
6.0979 -0.4730 1.8631
6.1395 0.0732 1.8703
6.1317 0.6231 1.8774
6.0740 1.1721 1.8843
1.1663 0.3353 0.3696
1.1342 0.4390 0.3705
1.0927 0.5396 0.3712
1.0423 0.6362 0.3720
0.9832 0.7280 0.3726
0.9159 0.8142 0.3733
0.8409 0.8940 0.3738
0.7588 0.9668 0.3744
0.6703 1.0319 0.3748
0.5761 1.0887 0.3752
0.4771 1.1366 0.3755
0.3740 1.1754 0.3757
0.2677 1.2045 0.3759
0.1592 1.2238 0.3759
0.0494 1.2331 0.3759
-0.0608 1.2322 0.3758
-0.1704 1.2213 0.3756
-0.2785 1.2004 0.3754
-0.3842 1.1697 0.3750
-0.4865 1.1295 0.3746
-0.5846 1.0803 0.3741
-0.6777 1.0223 0.3736
-0.7650 0.9562 0.3730
-0.8457 0.8826 0.3724
-0.9194 0.8021 0.3716
-5.0137 3.6405 1.8874
-5.3020 3.1688 1.8815
-5.5459 2.6745 1.8755
-5.7437 2.1620 1.8694
-5.8944 1.6355 1.8633
-5.9972 1.0994 1.8572
-6.0517 0.5582 1.8512
-3.4486 0.0090 1.0505
-3.5236 -0.3063 1.0774
-1.1744 -0.2089 0.3633
-1.1485 -0.3122 0.3625
-1.1137 -0.4125 0.3618
-1.0702 -0.5092 0.3610
-1.0186 -0.6015 0.3603
-0.9591 -0.6888 0.3597
-0.8923 -0.7703 0.3591
-0.8188 -0.8456 0.3585
-0.7391 -0.9140 0.3581
-0.6538 -0.9752 0.3576
-0.5637 -1.0286 0.3573
-0.4693 -1.0740 0.3570
-0.3714 -1.1109 0.3568
-0.2706 -1.1391 0.3567
-0.1679 -1.1585 0.3566
-0.0639 -1.1689 0.3566
0.0407 -1.1702 0.3567
0.1450 -1.1624 0.3568
