ply
format ascii 1.0
element vertex 1924
property float32 x
property float32 y
property float32 z
end_header
24.0669 1.0613 -4.0440
24.2067 3.2490 -4.1000
-6.0650 35.1314 -5.9848
-16.7702 45.9917 -8.2179
-10.2264 21.7783 -4.0389
-28.1829 -11.4922 -5.1093
-22.9144 -11.8288 -4.3289
-19.9933 -12.6995 -3.9761
-20.1725 -15.5027 -4.2709
-20.5145 -18.9051 -4.6831
-26.3539 -29.0455 -6.5838
-22.1684 -29.3130 -6.1695
-18.4506 -29.5506 -5.8482
-17.7249 -34.9981 -6.5857
20.6787 -30.0052 -6.1173
20.9847 -25.2825 -5.5157
21.9530 -22.0972 -5.2289
24.3812 -20.5077 -5.3482
29.5682 -20.6644 -6.0557
23.4654 -8.3511 -4.1812
23.6096 -6.0930 -4.0932
23.7491 -3.9109 -4.0405
23.8861 -1.7674 -4.0207
24.0228 0.3722 -4.0332
24.1615 2.5425 -4.0784
24.4699 4.8126 -4.1865
-15.2642 45.8955 -8.1194
-11.3005 14.0176 -3.0226
-24.5182 -11.7821 -4.5665
-20.1506 -12.0054 -3.9376
-20.2430 -14.6563 -4.1954
-20.3111 -17.6716 -4.5195
-27.8180 -28.9519 -6.7401
-23.4490 -29.2311 -6.2908
-19.5971 -29.4773 -5.9421
-17.7216 -32.6427 -6.2352
20.5673 -31.7481 -6.3502
20.8947 -26.6904 -5.6902
21.7990 -23.2338 -5.3482
23.6229 -21.0511 -5.3117
27.6824 -20.5482 -5.7874
34.8722 -21.3416 -6.8633
23.4177 -9.0960 -4.2173
23.5642 -6.8050 -4.1174
23.7049 -4.6028 -4.0537
23.8424 -2.4509 -4.0235
23.9790 -0.3138 -4.0257
24.1168 1.8429 -4.0603
24.2711 4.0570 -4.1309
18.6715 18.8849 -4.4581
-7.2284 35.0902 -6.0143
-14.4935 13.2920 -3.3013
-9.4993 0.2601 -1.5953
-26.0783 -11.6266 -4.7932
-21.3852 -11.9266 -4.1105
-20.0550 -13.6642 -4.0738
-20.2440 -16.6212 -4.3971
-29.3545 -28.8538 -6.9097
-24.7819 -29.1460 -6.4223
-20.7822 -29.4016 -6.0442
-17.5651 -30.2595 -5.8735
-17.6489 -37.8220 -7.0064
20.4470 -33.6306 -6.6071
20.7988 -28.1918 -5.8811
21.1263 -23.8471 -5.3482
22.3446 -21.0878 -5.1577
25.9498 -20.4374 -5.5450
31.9256 -20.8150 -6.3978
23.4207 -9.8763 -4.2669
23.5181 -7.5261 -4.1452
23.6603 -5.2999 -4.0703
23.7986 -3.1358 -4.0296
23.9353 -0.9977 -4.0215
24.0725 1.1490 -4.0456
24.2124 3.3391 -4.1030
-6.2018 35.1634 -5.9940
-16.9640 46.0041 -8.2310
-9.5037 0.5323 -1.5979
-27.9322 -11.5082 -5.0714
-22.7419 -11.8444 -4.3044
-20.0001 -12.8058 -3.9867
-20.1803 -15.6254 -4.2845
-20.5239 -19.0517 -4.7010
-26.1729 -29.0571 -6.5649
-22.0095 -29.3231 -6.1548
-18.3078 -29.5597 -5.8368
-17.8487 -35.5620 -6.6795
20.6922 -29.7931 -6.0893
20.9957 -25.1100 -5.4946
21.9675 -21.9520 -5.2133
24.4553 -20.4191 -5.3482
29.8209 -20.6805 -6.0920
23.4713 -8.2575 -4.1769
23.6154 -6.0032 -4.0904
23.7547 -3.8234 -4.0390
23.8916 -1.6808 -4.0206
24.0284 0.4595 -4.0344
24.1672 2.6317 -4.0809
24.5228 4.9154 -4.1985
17.2909 8.6936 -3.2489
-15.4533 45.9076 -8.1314
-11.3134 13.9301 -3.0125
-24.3186 -11.7949 -4.5372
-20.0013 -12.0150 -3.9169
-20.1986 -14.7361 -4.1972
-20.3199 -17.8090 -4.5358
-27.6283 -28.9641 -6.7195
-23.2837 -29.2417 -6.2749
-19.4497 -29.4867 -5.9298
-17.6729 -32.8365 -6.2599
20.5819 -31.5196 -6.3194
20.9065 -26.5069 -5.6672
21.8831 -23.1546 -5.3482
23.8097 -21.0633 -5.3365
27.9131 -20.5629 -5.8200
34.8828 -21.1748 -6.8502
23.4238 -9.0009 -4.2125
23.5700 -6.7143 -4.1141
23.7105 -4.5148 -4.0518
23.8480 -2.3641 -4.0230
23.9845 -0.2269 -4.0265
24.1225 1.9314 -4.0624
24.2898 4.1506 -4.1366
18.6730 19.0238 -4.4749
19.4342 34.9043 -6.7064
-14.5293 13.2282 -3.2985
-25.8574 -11.6408 -4.7603
-21.2226 -11.9370 -4.0875
-20.0650 -13.7778 -4.0859
-20.2523 -16.7513 -4.4120
-29.1555 -28.8665 -6.8874
-24.6097 -29.1570 -6.4050
-20.6296 -29.4113 -6.0307
-17.5706 -30.5228 -5.9122
-18.1441 -39.2541 -7.2595
20.4628 -33.3836 -6.5731
20.8113 -27.9957 -5.8559
21.2126 -23.7704 -5.3482
22.4389 -21.0236 -5.1618
26.1616 -20.4510 -5.5744
32.2079 -20.8331 -6.4392
23.4135 -9.7734 -4.2591
23.5240 -7.4341 -4.1415
23.6660 -5.2112 -4.0680
23.8042 -3.0488 -4.0287
23.9408 -0.9110 -4.0219
24.0781 1.2368 -4.0473
24.2182 3.4294 -4.1061
-17.1584 46.0165 -8.2444
-9.4248 0.4936 -1.5843
-27.6851 -11.5240 -5.0341
-22.6507 -11.9014 -4.2953
-20.0070 -12.9126 -3.9973
-20.1882 -15.7490 -4.2983
-20.4138 -19.0878 -4.6916
-25.9932 -29.0686 -6.5461
-21.8513 -29.3332 -6.1403
-18.1654 -29.5688 -5.8256
-17.7019 -35.5903 -6.6728
31.3719 -20.7796 -6.0788
23.4351 -10.0831 -4.1213
23.5063 -7.7106 -3.9964
23.6490 -5.4777 -3.9215
23.7875 -3.3100 -3.8797
23.9242 -1.1710 -3.8694
24.0613 0.9736 -3.8901
24.2009 3.1589 -3.9427
-16.5772 45.9794 -7.8957
-10.1202 21.7568 -3.8763
-28.4375 -11.4759 -4.9538
-23.0968 -11.8172 -4.1911
-19.9866 -12.5937 -3.8162
-20.1647 -15.3808 -4.0969
-20.5052 -18.7595 -4.4896
-26.5359 -29.0339 -6.3541
-22.3282 -29.3028 -5.9513
-18.5940 -29.5414 -5.6388
-17.8703 -34.9701 -6.3441
-11.9561 -39.5286 -6.6713
20.6650 -30.2192 -5.9140
21.0521 -25.5515 -5.3482
21.9435 -22.2483 -5.0481
24.9452 -21.1369 -5.2818
29.3251 -20.6531 -5.7942
23.4594 -8.4449 -4.0278
23.6039 -6.1829 -3.9417
23.7435 -3.9984 -3.8896
23.8805 -1.8541 -3.8693
24.0172 0.2850 -3.8801
24.1558 2.4534 -3.9223
24.4173 4.7104 -4.0172
33.2744 9.5654 -5.5929
19.1429 20.3532 -4.5137
24.7811 31.5757 -6.4841
19.6639 30.2729 -5.8315
-15.2319 46.3587 -7.8828
-24.7205 -11.7692 -4.4229
-20.3015 -11.9958 -3.8093
-20.2355 -14.5394 -4.0252
-20.3024 -17.5351 -4.3337
-28.0088 -28.9397 -6.5060
-23.6151 -29.2205 -6.0692
-19.7453 -29.4678 -5.7302
-10.6874 -19.5169 -3.5946
20.5526 -31.9788 -6.1409
20.8829 -26.8755 -5.4981
21.8657 -23.4748 -5.1824
23.4378 -21.0391 -5.0879
27.4542 -20.5336 -5.5383
33.9458 -20.9441 -6.4435
23.4116 -9.1915 -4.0630
23.5583 -6.8959 -3.9654
23.6992 -4.6910 -3.9027
23.8369 -2.5377 -3.8724
23.9734 -0.4006 -3.8733
24.1112 1.7546 -3.9053
24.2524 3.9635 -3.9698
18.7915 18.8690 -4.3019
-7.0991 35.1060 -5.7859
-14.4991 13.3942 -3.1887
-9.4302 0.2924 -1.5241
-26.3021 -11.6123 -4.6446
-21.6399 -11.9660 -3.9946
-20.0479 -13.5532 -3.9092
-20.2357 -16.4919 -4.2171
-29.5551 -28.8409 -6.6710
-24.9551 -29.1349 -6.1970
-20.9354 -29.3918 -5.8294
-17.5518 -29.9854 -5.6128
-17.7286 -37.6361 -6.7206
20.4310 -33.8805 -6.3913
20.7862 -28.3895 -5.6840
21.7836 -24.7695 -5.3286
22.2615 -21.1625 -4.9619
25.9347 -20.5783 -5.3482
31.6470 -20.7972 -6.1175
23.4279 -9.9795 -4.1137
23.5122 -7.6183 -3.9926
23.6547 -5.3888 -3.9191
23.7931 -3.2229 -3.8787
23.9297 -1.0844 -3.8696
24.0669 1.0613 -3.8916
24.2067 3.2490 -3.9455
-16.7702 45.9917 -7.9082
-10.2264 21.7783 -3.8867
-28.1829 -11.4922 -4.9167
-22.9144 -11.8288 -4.1658
-19.9933 -12.6995 -3.8263
-20.1725 -15.5027 -4.1099
-20.5145 -18.9051 -4.5066
-26.3539 -29.0455 -6.3357
-22.1684 -29.3130 -5.9370
-18.4506 -29.5506 -5.6278
-17.8254 -35.1965 -6.3734
20.4406 -36.1963 -6.7152
20.6787 -30.0052 -5.8867
21.1446 -25.4751 -5.3482
21.9530 -22.0972 -5.0318
25.1447 -21.1499 -5.3078
29.5682 -20.6644 -5.8274
23.9566 -11.0237 -4.2601
23.4654 -8.3511 -4.0236
23.6096 -6.0930 -3.9389
23.7491 -3.9109 -3.8882
23.8861 -1.7674 -3.8692
24.0228 0.3722 -3.8812
24.1615 2.5425 -3.9247
24.4699 4.8126 -4.0287
19.1401 20.4986 -4.5305
19.5877 30.3962 -5.8415
-15.2642 45.8955 -7.8134
-11.3005 14.0176 -2.9086
-24.5182 -11.7821 -4.3943
-20.1506 -12.0054 -3.7891
-20.2430 -14.6563 -4.0372
-20.3111 -17.6716 -4.3492
-27.8180 -28.9519 -6.4860
-23.4490 -29.2311 -6.0537
-19.5971 -29.4773 -5.7182
-17.6792 -32.5648 -5.9859
20.5673 -31.7481 -6.1109
20.8947 -26.6904 -5.4757
21.8758 -23.3156 -5.1648
23.6229 -21.0511 -5.1115
27.6824 -20.5482 -5.5692
34.2550 -20.9639 -6.4877
23.4177 -9.0960 -4.0583
23.5642 -6.8050 -3.9622
23.7049 -4.6028 -3.9009
23.8424 -2.4508 -3.8719
23.9790 -0.3137 -3.8740
24.1168 1.8429 -3.9073
24.2711 4.0570 -3.9752
18.7756 18.9902 -4.3140
19.5733 34.8564 -6.4579
-7.2284 35.0902 -5.7876
-14.4932 13.2917 -3.1768
-9.4987 0.2601 -1.5350
-26.0783 -11.6266 -4.6125
-21.3852 -11.9266 -3.9556
-20.0550 -13.6642 -3.9203
-20.2440 -16.6211 -4.2313
-29.3545 -28.8538 -6.6493
-24.7819 -29.1460 -6.1802
-20.7822 -29.4016 -5.8163
-17.8172 -30.6937 -5.7332
-17.7347 -38.0060 -6.7752
20.4470 -33.6306 -6.3581
20.7988 -28.1918 -5.6595
21.7943 -24.6012 -5.3094
22.3446 -21.0878 -4.9633
26.0090 -20.4842 -5.3482
31.9256 -20.8150 -6.1567
23.4207 -9.8763 -4.1061
23.5181 -7.5261 -3.9890
23.6603 -5.2999 -3.9169
23.7986 -3.1358 -3.8777
23.9353 -0.9977 -3.8699
24.0725 1.1490 -3.8932
24.2124 3.3391 -3.9484
-16.9640 46.0041 -7.9208
-9.5032 0.5322 -1.5376
-27.9392 -11.5110 -4.8814
-22.7419 -11.8444 -4.1422
-20.0001 -12.8058 -3.8364
-20.1803 -15.6254 -4.1230
-20.5239 -19.0517 -4.5238
-26.1729 -29.0571 -6.3174
-22.0095 -29.3231 -5.9229
-18.3078 -29.5597 -5.6169
-17.8487 -35.5620 -6.4278
20.3674 -35.7631 -6.6485
20.6922 -29.7931 -5.8598
21.2367 -25.3983 -5.3482
21.9675 -21.9520 -5.0168
25.3462 -21.1629 -5.3341
29.8209 -20.6805 -5.8624
23.7585 -10.8283 -4.2179
23.4713 -8.2575 -4.0194
23.6154 -6.0032 -3.9362
23.7547 -3.8234 -3.8868
23.8916 -1.6808 -3.8691
24.0284 0.4595 -3.8823
24.1672 2.6317 -3.9271
24.5228 4.9154 -4.0403
17.2909 8.6936 -3.1264
19.1426 20.6509 -4.5488
-15.4534 45.9076 -7.8249
-11.3134 13.9301 -2.8990
-24.3186 -11.7949 -4.3662
-20.0013 -12.0150 -3.7692
-20.1986 -14.7361 -4.0390
-20.3199 -17.8090 -4.3648
-27.6284 -28.9641 -6.4663
-23.2837 -29.2417 -6.0384
-19.4497 -29.4867 -5.7063
-17.6856 -32.8601 -6.0283
20.5819 -31.5196 -6.0812
20.9065 -26.5069 -5.4536
21.8858 -23.1575 -5.1473
23.8097 -21.0633 -5.1354
27.9131 -20.5629 -5.6006
34.5685 -20.9839 -6.5326
23.4238 -9.0009 -4.0537
23.5700 -6.7143 -3.9590
23.7105 -4.5148 -3.8991
23.8480 -2.3641 -3.8714
23.9845 -0.2269 -3.8747
24.1225 1.9314 -3.9093
24.2898 4.1506 -3.9807
19.4211 34.8808 -6.4493
-14.5289 13.2278 -3.1741
-25.8575 -11.6408 -4.5809
-21.2226 -11.9370 -3.9335
-20.0650 -13.7778 -3.9319
-20.2523 -16.7513 -4.2457
-29.1555 -28.8665 -6.6278
-24.6097 -29.1570 -6.1636
-20.6296 -29.4113 -5.8034
-17.8357 -30.9835 -5.7752
-17.7410 -38.3820 -6.8307
20.4628 -33.3836 -6.3254
20.8113 -27.9957 -5.6352
21.8049 -24.4341 -5.2903
22.4389 -21.0236 -4.9673
26.1616 -20.4510 -5.3643
32.2079 -20.8331 -6.1965
23.4135 -9.7734 -4.0986
23.5240 -7.4341 -3.9854
23.6660 -5.2112 -3.9147
23.8042 -3.0488 -3.8768
23.9408 -0.9110 -3.8703
24.0781 1.2368 -3.8948
24.2182 3.4294 -3.9513
-9.4761 25.4136 -4.3815
-9.4243 0.4935 -1.5245
-27.6946 -11.5279 -4.8460
-22.6507 -11.9014 -4.1334
-20.0070 -12.9126 -3.8467
-20.1882 -15.7490 -4.1362
-20.4138 -19.0878 -4.5148
-25.9932 -29.0686 -6.2994
-21.8513 -29.3332 -5.9089
-18.1654 -29.5688 -5.6060
-17.7098 -35.6062 -6.4241
20.3436 -35.4224 -6.5988
31.3719 -20.7796 -5.8412
23.4351 -10.0831 -3.9602
23.5063 -7.7106 -3.8401
23.6490 -5.4777 -3.7682
23.7875 -3.3100 -3.7281
23.9242 -1.1710 -3.7182
24.0613 0.9736 -3.7380
24.2009 3.1589 -3.7885
19.2147 21.6363 -4.4918
-16.5772 45.9794 -7.5870
-10.1202 21.7568 -3.7248
-28.4375 -11.4759 -4.7602
-23.0968 -11.8172 -4.0273
-19.9866 -12.5937 -3.6670
-20.1647 -15.3808 -3.9368
-20.5052 -18.7595 -4.3141
-26.5359 -29.0339 -6.1057
-22.3282 -29.3028 -5.7187
-18.5940 -29.5414 -5.4184
-17.8703 -34.9702 -6.0961
-11.9556 -39.5269 -6.4102
20.6650 -30.2192 -5.6828
21.6853 -26.3202 -5.2937
21.9435 -22.2483 -4.8508
24.9452 -21.1369 -5.0754
29.3251 -20.6531 -5.5678
36.5593 -21.1388 -6.5554
23.4594 -8.4449 -3.8703
23.6039 -6.1829 -3.7876
23.7435 -3.9984 -3.7376
23.8805 -1.8541 -3.7181
24.0172 0.2850 -3.7284
24.1558 2.4534 -3.7690
24.4173 4.7104 -3.8601
33.2733 9.5651 -5.3742
24.7805 31.5749 -6.2305
19.6709 30.2837 -5.6056
-15.2319 46.3587 -7.5747
-35.2027 -13.0493 -5.8278
-24.7205 -11.7692 -4.2500
-20.3015 -11.9958 -3.6604
-20.2355 -14.5394 -3.8679
-20.3024 -17.5351 -4.1643
-28.0088 -28.9397 -6.2517
-23.6150 -29.2205 -5.8320
-19.7453 -29.4678 -5.5062
-10.6870 -19.5162 -3.4540
20.5526 -31.9788 -5.9008
21.1397 -27.2061 -5.3482
21.8657 -23.4748 -4.9799
23.4378 -21.0391 -4.8890
27.5905 -20.6355 -5.3482
33.9458 -20.9441 -6.1916
23.4116 -9.1915 -3.9042
23.5583 -6.8959 -3.8104
23.6992 -4.6910 -3.7502
23.8369 -2.5377 -3.7211
23.9734 -0.4006 -3.7219
24.1112 1.7546 -3.7526
24.2524 3.9635 -3.8146
18.7626 18.8400 -4.1274
-7.1019 35.1202 -5.5621
-14.4984 13.3936 -3.0639
-9.4300 0.2924 -1.4645
-26.3021 -11.6123 -4.4631
-21.6399 -11.9660 -3.8385
-20.0479 -13.5532 -3.7564
-20.2357 -16.4919 -4.0522
-29.5551 -28.8409 -6.4102
-24.9551 -29.1349 -5.9548
-20.9354 -29.3918 -5.6015
-17.5518 -29.9854 -5.3934
-18.0210 -38.2568 -6.5644
20.4310 -33.8805 -6.1415
20.7862 -28.3895 -5.4618
21.7836 -24.7695 -5.1203
22.2615 -21.1625 -4.7679
26.7896 -21.2566 -5.3086
31.6470 -20.7972 -5.8784
23.4279 -9.9795 -3.9529
23.5122 -7.6183 -3.8366
23.6547 -5.3888 -3.7660
23.7931 -3.2229 -3.7271
23.9297 -1.0844 -3.7184
24.0669 1.0613 -3.7395
24.2067 3.2490 -3.7913
19.2079 21.7871 -4.5086
-16.7702 45.9917 -7.5990
-10.2264 21.7783 -3.7348
-28.1829 -11.4922 -4.7245
-22.9144 -11.8288 -4.0029
-19.9933 -12.6995 -3.6767
-20.1725 -15.5027 -3.9492
-20.5145 -18.9051 -4.3304
-26.3539 -29.0455 -6.0880
-22.1684 -29.3130 -5.7049
-18.4506 -29.5506 -5.4078
-17.8933 -35.3306 -6.1476
20.4406 -36.1962 -6.4527
20.6787 -30.0052 -5.6566
21.6967 -26.1404 -5.2734
21.9530 -22.0972 -4.8351
25.1447 -21.1499 -5.1003
29.5682 -20.6644 -5.5996
23.9566 -11.0237 -4.0936
23.4653 -8.3511 -3.8663
23.6096 -6.0930 -3.7850
23.7491 -3.9109 -3.7362
23.8861 -1.7674 -3.7179
24.0228 0.3722 -3.7295
24.1615 2.5425 -3.7713
24.4699 4.8126 -3.8712
19.5973 30.4112 -5.6160
-15.2642 45.8955 -7.5080
-11.3005 14.0176 -2.7950
-34.8715 -13.0704 -5.7808
-24.5182 -11.7821 -4.2226
-20.1506 -12.0054 -3.6410
-20.2430 -14.6563 -3.8794
-20.3111 -17.6716 -4.1792
-27.8180 -28.9519 -6.2325
-23.4490 -29.2311 -5.8171
-19.5971 -29.4773 -5.4947
-17.8216 -32.8270 -5.7982
20.5673 -31.7481 -5.8720
21.2383 -27.1292 -5.3482
21.8758 -23.3156 -4.9629
23.6229 -21.0511 -4.9117
27.6824 -20.5482 -5.3516
34.2550 -20.9639 -6.2341
23.4177 -9.0960 -3.8997
23.5642 -6.8050 -3.8073
23.7049 -4.6028 -3.7484
23.8424 -2.4509 -3.7205
23.9790 -0.3137 -3.7225
24.1168 1.8429 -3.7545
24.2711 4.0570 -3.8198
18.7764 18.9910 -4.1455
-7.2313 35.1043 -5.5636
-14.4928 13.2914 -3.0525
-9.4980 0.2601 -1.4749
-26.0783 -11.6266 -4.4322
-21.3852 -11.9266 -3.8010
-20.0550 -13.6642 -3.7670
-20.2440 -16.6211 -4.0659
-29.3545 -28.8538 -6.3894
-24.7819 -29.1460 -5.9387
-20.7822 -29.4016 -5.5890
-17.8172 -30.6937 -5.5091
-17.8887 -38.3361 -6.5669
20.4470 -33.6306 -6.1096
20.7988 -28.1918 -5.4383
21.7943 -24.6012 -5.1018
22.3446 -21.0878 -4.7693
27.0078 -21.2708 -5.3365
31.9256 -20.8150 -5.9160
23.4207 -9.8763 -3.9456
23.5181 -7.5261 -3.8331
23.6603 -5.2999 -3.7638
23.7986 -3.1358 -3.7262
23.9353 -0.9977 -3.7187
24.0725 1.1490 -3.7410
24.2124 3.3391 -3.7940
19.2109 21.9505 -4.5280
-16.9640 46.0041 -7.6112
-9.5026 0.5322 -1.4774
-27.9718 -11.5245 -4.6961
-22.7419 -11.8444 -3.9803
-20.0001 -12.8058 -3.6865
-20.1803 -15.6254 -3.9618
-20.5239 -19.0517 -4.3470
-26.1729 -29.0571 -6.0705
-22.0095 -29.3231 -5.6913
-18.3078 -29.5597 -5.3973
-17.8590 -35.5824 -6.1801
20.3674 -35.7631 -6.3886
20.6922 -29.7931 -5.6308
21.7081 -25.9620 -5.2532
21.9675 -21.9520 -4.8207
25.3462 -21.1629 -5.1256
29.8209 -20.6805 -5.6333
23.7585 -10.8284 -4.0530
23.4713 -8.2575 -3.8623
23.6154 -6.0032 -3.7824
23.7547 -3.8234 -3.7349
23.8916 -1.6808 -3.7178
24.0284 0.4595 -3.7306
24.1672 2.6317 -3.7736
24.5228 4.9154 -3.8823
17.2909 8.6936 -3.0042
-15.4533 45.9076 -7.5191
-11.3134 13.9301 -2.7857
-34.5455 -13.0913 -5.7346
-24.3186 -11.7949 -4.1955
-20.0013 -12.0150 -3.6219
-20.1986 -14.7361 -3.8811
-20.3199 -17.8090 -4.1942
-27.6283 -28.9641 -6.2135
-23.2837 -29.2417 -5.8023
-19.4497 -29.4867 -5.4832
-17.7758 -33.0278 -5.8222
20.5819 -31.5196 -5.8435
21.3364 -27.0521 -5.3482
21.8858 -23.1575 -4.9461
23.8097 -21.0633 -4.9346
27.9131 -20.5629 -5.3817
34.5685 -20.9839 -6.2773
23.4238 -9.0009 -3.8953
23.5700 -6.7143 -3.8043
23.7105 -4.5148 -3.7467
23.8480 -2.3641 -3.7200
23.9845 -0.2269 -3.7233
24.1225 1.9314 -3.7565
24.2898 4.1506 -3.8251
18.7190 19.0707 -4.1481
19.4349 34.9056 -6.2016
-14.5285 13.2275 -3.0499
-25.8574 -11.6408 -4.4018
-21.2226 -11.9370 -3.7797
-20.0650 -13.7778 -3.7782
-20.2523 -16.7513 -4.0798
-29.1555 -28.8665 -6.3688
-24.6097 -29.1570 -5.9227
-20.6296 -29.4113 -5.5766
-17.8357 -30.9835 -5.5495
-17.8328 -38.5806 -6.5976
20.4628 -33.3836 -6.0781
20.8113 -27.9957 -5.4149
21.8049 -24.4341 -5.0835
22.4389 -21.0236 -4.7731
27.1442 -21.2191 -5.3482
32.2079 -20.8331 -5.9543
23.4135 -9.7734 -3.9384
23.5240 -7.4341 -3.8296
23.6660 -5.2112 -3.7616
23.8042 -3.0488 -3.7253
23.9408 -0.9110 -3.7190
24.0781 1.2368 -3.7425
24.2182 3.4294 -3.7969
19.2175 22.1194 -4.5484
-9.4101 25.2366 -4.1809
-9.4237 0.4935 -1.4648
-27.8012 -11.5723 -4.6745
-22.6507 -11.9014 -3.9718
-20.0070 -12.9126 -3.6963
-20.1882 -15.7489 -3.9746
-20.4138 -19.0878 -4.3383
-25.9932 -29.0686 -6.0532
-21.8513 -29.3332 -5.6779
-18.1654 -29.5688 -5.3869
-17.8058 -35.7991 -6.2065
20.3436 -35.4224 -6.3409
31.3719 -20.7796 -5.6040
23.4351 -10.0831 -3.7994
23.5063 -7.7106 -3.6842
23.6490 -5.4777 -3.6152
23.7875 -3.3100 -3.5767
23.9242 -1.1710 -3.5672
24.0613 0.9736 -3.5863
24.2009 3.1589 -3.6347
-16.5772 45.9794 -7.2790
-28.4375 -11.4759 -4.5669
-23.0968 -11.8172 -3.8638
-19.9866 -12.5937 -3.5181
-20.1647 -15.3808 -3.7769
-20.5052 -18.7595 -4.1389
-26.5359 -29.0339 -5.8578
-22.3282 -29.3028 -5.4865
-18.5940 -29.5414 -5.1984
-17.9034 -35.0349 -5.8594
-11.9552 -39.5253 -6.1497
20.6650 -30.2192 -5.4521
21.6853 -26.3202 -5.0788
21.9435 -22.2483 -4.6538
24.9452 -21.1369 -4.8693
29.3609 -20.6783 -5.3482
36.5593 -21.1389 -6.2893
23.4594 -8.4449 -3.7132
23.6039 -6.1829 -3.6338
23.7435 -3.9984 -3.5858
23.8805 -1.8541 -3.5671
24.0172 0.2850 -3.5770
24.1558 2.4534 -3.6159
24.4173 4.7104 -3.7034
33.2723 9.5648 -5.1558
24.7799 31.5741 -5.9774
19.6709 30.2837 -5.3780
-15.2319 46.3587 -7.2671
-35.6062 -13.1988 -5.6553
-24.7204 -11.7692 -4.0775
-20.3015 -11.9958 -3.5118
-20.2355 -14.5394 -3.7108
-20.3024 -17.5351 -3.9952
-28.0088 -28.9397 -5.9979
-23.6150 -29.2205 -5.5952
-19.7453 -29.4678 -5.2826
-10.6867 -19.5156 -3.3136
20.5526 -31.9788 -5.6613
21.5923 -27.7885 -5.2409
21.7439 -23.3440 -4.7511
23.4378 -21.0391 -4.6905
28.5759 -21.3725 -5.3143
33.9458 -20.9441 -5.9402
23.4116 -9.1915 -3.7457
23.5583 -6.8959 -3.6557
23.6992 -4.6910 -3.5979
23.8369 -2.5377 -3.5700
23.9734 -0.4006 -3.5708
24.1112 1.7546 -3.6003
24.2524 3.9635 -3.6597
18.8033 18.8808 -3.9684
19.2797 23.1709 -4.4891
-7.1019 35.1202 -5.3363
-14.4977 13.3929 -2.9394
-9.4297 0.2924 -1.4050
-26.3021 -11.6123 -4.2819
-21.6399 -11.9660 -3.6826
-20.0479 -13.5532 -3.6039
-20.2357 -16.4919 -3.8877
-29.5551 -28.8409 -6.1500
-24.9551 -29.1349 -5.7130
-20.9354 -29.3918 -5.3741
-17.5518 -29.9854 -5.1744
-18.0534 -38.3256 -6.3092
20.4310 -33.8805 -5.8921
20.8873 -28.5276 -5.2656
21.7836 -24.7695 -4.9124
22.2615 -21.1625 -4.5743
26.7895 -21.2566 -5.0930
31.6470 -20.7972 -5.6397
23.4279 -9.9795 -3.7924
23.5122 -7.6183 -3.6808
23.6547 -5.3888 -3.6131
23.7931 -3.2229 -3.5758
23.9297 -1.0844 -3.5674
24.0669 1.0613 -3.5877
24.2067 3.2490 -3.6373
-16.7702 45.9917 -7.2905
-28.1829 -11.4922 -4.5327
-22.9144 -11.8288 -3.8404
-19.9933 -12.6995 -3.5274
-20.1725 -15.5027 -3.7889
-20.5145 -18.9051 -4.1546
-26.3539 -29.0455 -5.8408
-22.1684 -29.3130 -5.4733
-18.4506 -29.5506 -5.1882
-17.8816 -35.3075 -5.8941
20.4406 -36.1962 -6.1907
20.6787 -30.0052 -5.4270
21.6967 -26.1404 -5.0593
21.9530 -22.0972 -4.6388
25.1447 -21.1499 -4.8933
29.5682 -20.6644 -5.3723
23.9566 -11.0237 -3.9274
23.4654 -8.3511 -3.7093
23.6096 -6.0930 -3.6313
23.7491 -3.9109 -3.5845
23.8861 -1.7674 -3.5670
24.0228 0.3722 -3.5781
24.1615 2.5425 -3.6181
24.4699 4.8126 -3.7140
19.5973 30.4112 -5.3879
-15.2642 45.8955 -7.2031
-11.3005 14.0176 -2.6815
-35.2713 -13.2203 -5.6097
-24.5182 -11.7821 -4.0511
-20.1506 -12.0054 -3.4932
-20.2430 -14.6563 -3.7219
-20.3111 -17.6716 -4.0095
-27.8180 -28.9519 -5.9795
-23.4490 -29.2311 -5.5809
-19.5971 -29.4773 -5.2716
-17.9711 -33.1024 -5.6095
20.5673 -31.7481 -5.6336
21.6044 -27.5969 -5.2195
21.8758 -23.3156 -4.7614
23.6229 -21.0511 -4.7123
28.8137 -21.3879 -5.3441
34.2550 -20.9639 -5.9810
23.4177 -9.0960 -3.7414
23.5642 -6.8050 -3.6527
23.7049 -4.6028 -3.5962
23.8424 -2.4509 -3.5695
23.9790 -0.3137 -3.5714
24.1168 1.8429 -3.6021
24.2711 4.0570 -3.6647
18.8095 19.0244 -3.9842
19.2831 23.3467 -4.5095
-7.2313 35.1043 -5.3377
-14.4925 13.2910 -2.9285
-9.4974 0.2600 -1.4149
-26.0783 -11.6266 -4.2523
-21.3852 -11.9266 -3.6466
-20.0550 -13.6642 -3.6141
-20.2440 -16.6212 -3.9008
-29.3545 -28.8538 -6.1300
-24.7819 -29.1460 -5.6975
-20.7822 -29.4016 -5.3621
-17.8172 -30.6937 -5.2854
-17.9314 -38.4275 -6.3153
20.4470 -33.6306 -5.8615
21.0544 -28.5383 -5.2816
21.7943 -24.6012 -4.8947
22.3446 -21.0878 -4.5756
27.0079 -21.2708 -5.1198
31.9256 -20.8150 -5.6759
23.4207 -9.8763 -3.7854
23.5181 -7.5261 -3.6774
23.6603 -5.2999 -3.6110
23.7986 -3.1358 -3.5749
23.9353 -0.9977 -3.5677
24.0725 1.1490 -3.5891
24.2124 3.3391 -3.6400
-16.9640 46.0041 -7.3022
-9.5020 0.5322 -1.4173
-27.9718 -11.5245 -4.5054
-22.7419 -11.8444 -3.8187
-20.0001 -12.8058 -3.5368
-20.1803 -15.6254 -3.8010
-20.5239 -19.0517 -4.1705
-26.1729 -29.0571 -5.8240
-22.0095 -29.3231 -5.4603
-18.3078 -29.5597 -5.1782
-17.8897 -35.6436 -5.9394
20.3674 -35.7631 -6.1292
20.6922 -29.7931 -5.4021
21.7081 -25.9620 -5.0399
21.9675 -21.9520 -4.6250
25.3462 -21.1629 -4.9175
29.8208 -20.6805 -5.4045
23.7585 -10.8284 -3.8884
23.4713 -8.2575 -3.7055
23.6154 -6.0032 -3.6288
23.7547 -3.8234 -3.5832
23.8916 -1.6808 -3.5669
24.0284 0.4595 -3.5791
24.1672 2.6317 -3.6204
24.5228 4.9154 -3.7247
17.2909 8.6936 -2.8822
-15.4533 45.9076 -7.2138
-11.3134 13.9301 -2.6726
-34.9415 -13.2413 -5.5648
-24.3186 -11.7949 -4.0252
-20.0013 -12.0150 -3.4748
-20.1986 -14.7361 -3.7236
-20.3199 -17.8090 -4.0239
-27.6283 -28.9641 -5.9612
-23.2837 -29.2417 -5.5668
-19.4497 -29.4867 -5.2606
-17.9920 -33.4295 -5.6538
20.5819 -31.5196 -5.6062
21.6164 -27.4071 -5.1984
21.8858 -23.1575 -4.7453
23.8097 -21.0633 -4.7343
28.9133 -21.2997 -5.3482
34.5685 -20.9839 -6.0224
23.4238 -9.0008 -3.7371
23.5700 -6.7143 -3.6498
23.7105 -4.5148 -3.5946
23.8480 -2.3641 -3.5690
23.9845 -0.2269 -3.5721
24.1225 1.9314 -3.6040
24.2898 4.1506 -3.6698
19.2889 23.5268 -4.5308
19.4344 34.9047 -5.9497
-14.5281 13.2271 -2.9260
-25.8574 -11.6408 -4.2231
-21.2226 -11.9370 -3.6263
-20.0650 -13.7778 -3.6248
-20.2523 -16.7513 -3.9141
-29.1555 -28.8665 -6.1102
-24.6097 -29.1570 -5.6822
-20.6295 -29.4113 -5.3502
-17.8357 -30.9835 -5.3242
-17.9364 -38.8048 -6.3665
20.4628 -33.3836 -5.8314
21.2226 -28.5490 -5.2978
21.8049 -24.4341 -4.8772
22.4389 -21.0236 -4.5793
27.2286 -21.2851 -5.1470
32.2079 -20.8331 -5.7126
23.4135 -9.7734 -3.7785
23.5240 -7.4341 -3.6741
23.6660 -5.2112 -3.6089
23.8042 -3.0488 -3.5740
23.9408 -0.9110 -3.5680
24.0781 1.2368 -3.5906
24.2182 3.4294 -3.6427
-9.4936 25.4606 -4.0468
-9.4231 0.4935 -1.4053
-27.8012 -11.5723 -4.4847
-22.6507 -11.9014 -3.8106
-20.0070 -12.9126 -3.5462
-20.1882 -15.7489 -3.8132
-20.4138 -19.0878 -4.1621
-25.9932 -29.0686 -5.8074
-21.8513 -29.3332 -5.4474
-18.1654 -29.5688 -5.1682
-17.8979 -35.9845 -5.9853
20.3436 -35.4224 -6.0834
31.3719 -20.7796 -5.3673
23.4351 -10.0831 -3.6389
23.5063 -7.7106 -3.5286
23.6490 -5.4777 -3.4625
23.7875 -3.3100 -3.4256
23.9242 -1.1710 -3.4165
24.0613 0.9736 -3.4348
24.2009 3.1589 -3.4812
-16.5772 45.9794 -6.9715
-28.4375 -11.4759 -4.3740
-23.0968 -11.8172 -3.7006
-19.9866 -12.5937 -3.3695
-20.1647 -15.3808 -3.6174
-20.5052 -18.7595 -3.9641
-26.5359 -29.0339 -5.6103
-22.3282 -29.3028 -5.2547
-18.5940 -29.5414 -4.9788
-18.1220 -35.4626 -5.6804
-11.9547 -39.5237 -5.8897
21.1934 -30.9919 -5.3553
21.6853 -26.3202 -4.8643
21.9435 -22.2483 -4.4572
24.2049 -20.5097 -4.5252
29.4858 -20.7663 -5.1441
36.5593 -21.1388 -6.0236
23.4594 -8.4449 -3.5563
23.6039 -6.1829 -3.4803
23.7435 -3.9984 -3.4343
23.8805 -1.8541 -3.4165
24.0172 0.2850 -3.4259
24.1558 2.4534 -3.4632
24.4173 4.7104 -3.5470
33.2712 9.5645 -4.9378
19.3562 24.6634 -4.4719
19.6709 30.2837 -5.1508
-15.2319 46.3587 -6.9602
-35.6062 -13.1988 -5.4164
-24.7205 -11.7692 -3.9052
-20.3015 -11.9958 -3.3634
-20.2355 -14.5394 -3.5541
-20.3024 -17.5351 -3.8264
-28.0088 -28.9397 -5.7445
-23.6150 -29.2205 -5.3588
-19.7453 -29.4678 -5.0595
-10.6863 -19.5150 -3.1735
20.5526 -31.9788 -5.4221
21.5923 -27.7884 -5.0195
21.7439 -23.3440 -4.5504
23.4378 -21.0391 -4.4924
28.5759 -21.3725 -5.0898
33.9458 -20.9441 -5.6893
23.4116 -9.1915 -3.5875
23.5583 -6.8959 -3.5013
23.6992 -4.6910 -3.4459
23.8369 -2.5377 -3.4192
23.9734 -0.4006 -3.4199
24.1112 1.7546 -3.4482
24.2524 3.9635 -3.5051
18.7844 18.8619 -3.7970
-7.1019 35.1202 -5.1108
-14.4969 13.3922 -2.8151
-9.4295 0.2924 -1.3456
-38.0168 -12.8694 -5.7248
-26.3021 -11.6123 -4.1010
-21.6399 -11.9660 -3.5271
-20.0479 -13.5532 -3.4517
-20.2357 -16.4919 -3.7235
-29.5551 -28.8409 -5.8902
-24.9551 -29.1349 -5.4717
-20.9354 -29.3918 -5.1471
-17.5518 -29.9854 -4.9558
-18.0264 -38.2684 -6.0337
20.4310 -33.8805 -5.6432
20.8873 -28.5276 -5.0431
21.7836 -24.7695 -4.7049
22.2615 -21.1625 -4.3811
26.7896 -21.2566 -4.8779
31.6470 -20.7972 -5.4014
23.4279 -9.9795 -3.6322
23.5122 -7.6183 -3.5253
23.6547 -5.3888 -3.4604
23.7931 -3.2229 -3.4247
23.9297 -1.0844 -3.4167
24.0669 1.0613 -3.4361
24.2067 3.2490 -3.4837
-16.7702 45.9917 -6.9825
-28.1829 -11.4922 -4.3412
-22.9144 -11.8288 -3.6782
-19.9933 -12.6995 -3.3784
-20.1725 -15.5027 -3.6288
-20.5145 -18.9051 -3.9791
-26.3539 -29.0455 -5.5941
-22.1684 -29.3130 -5.2421
-18.4506 -29.5506 -4.9691
-18.1453 -35.8282 -5.7284
20.4406 -36.1962 -5.9292
21.3056 -30.9149 -5.3553
21.6967 -26.1404 -4.8455
21.9530 -22.0972 -4.4429
25.1447 -21.1499 -4.6865
29.5682 -20.6644 -5.1453
23.9566 -11.0237 -3.7615
23.4654 -8.3511 -3.5526
23.6096 -6.0930 -3.4779
23.7491 -3.9109 -3.4331
23.8861 -1.7674 -3.4163
24.0228 0.3722 -3.4269
24.1615 2.5425 -3.4653
24.4699 4.8126 -3.5571
19.3600 24.8533 -4.4936
19.5973 30.4112 -5.1603
-15.2642 45.8955 -6.8989
-11.3005 14.0176 -2.5682
-35.2712 -13.2203 -5.3727
-24.5182 -11.7821 -3.8800
-20.1506 -12.0054 -3.3456
-20.2430 -14.6563 -3.5647
-20.3111 -17.6716 -3.8401
-27.8180 -28.9519 -5.7269
-23.4490 -29.2311 -5.3451
-19.5971 -29.4773 -5.0489
-17.9711 -33.1024 -5.3725
20.5673 -31.7481 -5.3956
21.6044 -27.5969 -4.9990
21.8758 -23.3156 -4.5603
23.6229 -21.0511 -4.5132
28.8138 -21.3879 -5.1184
34.2550 -20.9639 -5.7283
23.4177 -9.0960 -3.5833
23.5642 -6.8050 -3.4984
23.7049 -4.6028 -3.4443
23.8424 -2.4508 -3.4187
23.9790 -0.3137 -3.4205
24.1168 1.8429 -3.4499
24.2711 4.0570 -3.5099
18.7713 18.9859 -3.8082
-7.2313 35.1043 -5.1122
-14.4921 13.2907 -2.8047
-9.4967 0.2600 -1.3551
-37.6385 -12.8936 -5.6748
-26.0783 -11.6266 -4.0726
-21.3852 -11.9266 -3.4926
-20.0550 -13.6642 -3.4614
-20.2440 -16.6212 -3.7361
-29.3545 -28.8538 -5.8710
-24.7819 -29.1460 -5.4569
-20.7822 -29.4016 -5.1356
-17.8172 -30.6937 -5.0622
-18.0319 -38.6428 -6.0824
20.4470 -33.6306 -5.6139
21.0544 -28.5383 -5.0585
21.7943 -24.6012 -4.6879
22.3446 -21.0878 -4.3824
27.0078 -21.2708 -4.9036
31.9256 -20.8150 -5.4361
23.4207 -9.8763 -3.6255
23.5181 -7.5261 -3.5221
23.6603 -5.2999 -3.4584
23.7986 -3.1358 -3.4239
23.9353 -0.9977 -3.4170
24.0725 1.1490 -3.4375
24.2124 3.3391 -3.4862
-16.9640 46.0041 -6.9937
-9.5014 0.5321 -1.3574
-27.9718 -11.5245 -4.3151
-22.7419 -11.8444 -3.6573
-20.0001 -12.8058 -3.3874
-20.1803 -15.6254 -3.6404
-20.5239 -19.0517 -3.9943
-26.1729 -29.0571 -5.5780
-22.0095 -29.3231 -5.2296
-18.3078 -29.5597 -4.9594
-18.0318 -35.9267 -5.7337
20.3674 -35.7631 -5.8703
21.3954 -30.8054 -5.3498
21.7081 -25.9620 -4.8270
21.9675 -21.9520 -4.4297
25.3462 -21.1629 -4.7098
30.8525 -21.3959 -5.3553
23.7585 -10.8283 -3.7242
23.4713 -8.2575 -3.5490
23.6154 -6.0032 -3.4755
23.7547 -3.8234 -3.4319
23.8916 -1.6808 -3.4162
24.0284 0.4595 -3.4279
24.1672 2.6317 -3.4675
24.5228 4.9154 -3.5674
17.2909 8.6936 -2.7605
19.3671 25.0491 -4.5163
-15.4533 45.9076 -6.9091
-11.3134 13.9301 -2.5597
-34.9415 -13.2413 -5.3298
-24.3186 -11.7949 -3.8552
-20.0013 -12.0150 -3.3281
-20.1986 -14.7361 -3.5663
-20.3199 -17.8090 -3.8539
-27.6283 -28.9641 -5.7094
-23.2837 -29.2417 -5.3316
-19.4497 -29.4867 -5.0384
-17.9920 -33.4295 -5.4150
20.5819 -31.5196 -5.3694
21.6164 -27.4071 -4.9788
21.8858 -23.1575 -4.5448
23.8097 -21.0633 -4.5343
29.0542 -21.4035 -5.1473
34.5685 -20.9839 -5.7680
23.4238 -9.0009 -3.5792
23.5700 -6.7143 -3.4957
23.7105 -4.5148 -3.4427
23.8480 -2.3641 -3.4182
23.9845 -0.2269 -3.4212
24.1225 1.9314 -3.4517
24.2898 4.1506 -3.5148
19.4340 34.9039 -5.6982
-14.5278 13.2267 -2.8023
-37.4914 -12.9953 -5.6597
-25.8574 -11.6408 -4.0447
-21.2226 -11.9370 -3.4731
-20.0650 -13.7778 -3.4717
-20.2523 -16.7513 -3.7488
-29.1555 -28.8665 -5.8521
-24.6097 -29.1570 -5.4422
-20.6296 -29.4113 -5.1242
-17.8357 -30.9835 -5.0993
-18.1441 -39.2541 -6.1682
20.4628 -33.3836 -5.5850
21.2226 -28.5490 -5.0740
21.8049 -24.4341 -4.6711
22.4389 -21.0236 -4.3859
27.2286 -21.2851 -4.9296
32.2079 -20.8331 -5.4713
23.4135 -9.7734 -3.6189
23.5240 -7.4341 -3.5189
23.6660 -5.2112 -3.4565
23.8042 -3.0488 -3.4230
23.9408 -0.9110 -3.4173
24.0781 1.2368 -3.4389
24.2182 3.4294 -3.4888
-9.4853 25.4384 -3.8724
-9.4225 0.4935 -1.3458
-27.8013 -11.5723 -4.2953
-22.6507 -11.9014 -3.6496
-20.0070 -12.9126 -3.3964
-20.1882 -15.7490 -3.6521
-20.4138 -19.0878 -3.9863
-25.9932 -29.0686 -5.5621
-21.8513 -29.3332 -5.2173
-18.1654 -29.5688 -4.9499
-18.2029 -36.5976 -5.8302
20.3436 -35.4224 -5.8265
32.6518 -21.6274 -5.3403
23.4351 -10.0831 -3.4787
23.5063 -7.7106 -3.3732
23.6490 -5.4777 -3.3100
23.7875 -3.3100 -3.2748
23.9242 -1.1710 -3.2661
24.0613 0.9736 -3.2836
24.2009 3.1589 -3.3279
19.4313 26.2713 -4.4556
-16.7054 46.3350 -6.7161
-28.4375 -11.4759 -4.1814
-23.0968 -11.8172 -3.5377
-19.9866 -12.5937 -3.2212
-20.1647 -15.3808 -3.4581
-20.5052 -18.7595 -3.7896
-26.5359 -29.0339 -5.3633
-22.3282 -29.3028 -5.0234
-18.5940 -29.5414 -4.7596
-18.1220 -35.4626 -5.4303
-11.9542 -39.5221 -5.6302
21.3670 -31.2457 -5.1615
21.6853 -26.3202 -4.6501
21.2679 -21.5633 -4.1298
24.2049 -20.5097 -4.3260
29.4858 -20.7663 -4.9176
36.5593 -21.1389 -5.7584
23.4594 -8.4449 -3.3998
23.6039 -6.1829 -3.3271
23.7435 -3.9984 -3.2831
23.8805 -1.8541 -3.2660
24.0172 0.2850 -3.2751
24.1558 2.4534 -3.3107
24.4173 4.7104 -3.3908
33.2701 9.5642 -4.7203
24.7786 31.5726 -5.4726
19.6709 30.2837 -4.9240
-35.6062 -13.1988 -5.1780
-24.7205 -11.7692 -3.7333
-20.3015 -11.9958 -3.2154
-20.2355 -14.5394 -3.3976
-20.3024 -17.5351 -3.6580
-28.0088 -28.9397 -5.4916
-23.6150 -29.2205 -5.1229
-19.7453 -29.4678 -4.8367
-10.6860 -19.5143 -3.0337
21.2342 -33.0394 -5.3553
21.5923 -27.7885 -4.7985
21.1494 -22.7057 -4.2311
22.5736 -20.2633 -4.1362
28.5759 -21.3725 -4.8657
33.9458 -20.9441 -5.4388
23.4116 -9.1915 -3.4295
23.5583 -6.8959 -3.3471
23.6992 -4.6910 -3.2942
23.8369 -2.5377 -3.2687
23.9734 -0.4006 -3.2694
24.1112 1.7546 -3.2964
24.2524 3.9635 -3.3508
18.8908 18.9687 -3.6503
-7.1019 35.1202 -4.8858
-14.4962 13.3915 -2.6910
-9.4292 0.2924 -1.2863
-38.4527 -13.0169 -5.5355
-26.3021 -11.6123 -3.9204
-21.6399 -11.9660 -3.3718
-20.0479 -13.5532 -3.2997
-20.2357 -16.4919 -3.5596
-29.5551 -28.8409 -5.6309
-24.9551 -29.1349 -5.2308
-20.9354 -29.3918 -4.9205
-17.5518 -29.9855 -4.7376
-18.1403 -38.5103 -5.8045
20.4310 -33.8805 -5.3948
20.8873 -28.5276 -4.8211
21.7836 -24.7695 -4.4978
21.7084 -20.6368 -4.0841
26.7896 -21.2566 -4.6631
32.8217 -21.5692 -5.3553
23.4279 -9.9795 -3.4723
23.5122 -7.6183 -3.3701
23.6547 -5.3888 -3.3081
23.7931 -3.2229 -3.2739
23.9297 -1.0844 -3.2663
24.0669 1.0613 -3.2848
24.2067 3.2490 -3.3303
-16.7702 45.9917 -6.6751
-28.1829 -11.4922 -4.1501
-22.9144 -11.8288 -3.5163
-19.9933 -12.6995 -3.2297
-20.1725 -15.5027 -3.4691
-20.5145 -18.9051 -3.8039
-26.3539 -29.0455 -5.3478
-22.1684 -29.3130 -5.0113
-18.4506 -29.5506 -4.7503
-18.1453 -35.8282 -5.4762
20.4406 -36.1962 -5.6682
21.3812 -31.0246 -5.1377
21.6967 -26.1403 -4.6322
21.2938 -21.4336 -4.1197
25.1447 -21.1499 -4.4802
29.5682 -20.6644 -4.9188
23.9566 -11.0237 -3.5958
23.4653 -8.3511 -3.3962
23.6096 -6.0930 -3.3248
23.7491 -3.9109 -3.2819
23.8861 -1.7674 -3.2659
24.0228 0.3722 -3.2760
24.1615 2.5425 -3.3127
24.4699 4.8126 -3.4005
19.5973 30.4112 -4.9331
-11.3005 14.0176 -2.4551
-35.1189 -13.1631 -5.1140
-24.5182 -11.7821 -3.7092
-20.1506 -12.0054 -3.1983
-20.2430 -14.6563 -3.4078
-20.3111 -17.6716 -3.6710
-27.8180 -28.9519 -5.4747
-23.4490 -29.2311 -5.1098
-19.5971 -29.4773 -4.8266
-17.9711 -33.1024 -5.1360
21.2652 -32.8255 -5.3331
21.6044 -27.5969 -4.7790
21.1592 -22.5519 -4.2167
22.7190 -20.2456 -4.1494
28.8137 -21.3879 -4.8930
34.2550 -20.9639 -5.4761
23.4177 -9.0960 -3.4256
23.5642 -6.8050 -3.3444
23.7049 -4.6028 -3.2927
23.8424 -2.4509 -3.2682
23.9790 -0.3137 -3.2699
24.1168 1.8429 -3.2980
24.2711 4.0570 -3.3554
18.8317 19.0469 -3.6522
19.5984 34.9010 -5.4579
-7.2313 35.1043 -4.8872
-14.4917 13.2904 -2.6812
-9.4961 0.2600 -1.2953
-38.0700 -13.0414 -5.4872
-26.0783 -11.6266 -3.8933
-21.3852 -11.9266 -3.3388
-20.0550 -13.6642 -3.3090
-20.2440 -16.6212 -3.5716
-29.3545 -28.8538 -5.6125
-24.7819 -29.1460 -5.2166
-20.7822 -29.4016 -4.9095
-17.8172 -30.6937 -4.8393
-18.1166 -38.8244 -5.8419
20.4470 -33.6306 -5.3668
21.0544 -28.5383 -4.8358
21.7943 -24.6012 -4.4815
21.7845 -20.5592 -4.0844
27.0078 -21.2708 -4.6877
32.8997 -21.4501 -5.3553
23.4207 -9.8763 -3.4659
23.5181 -7.5261 -3.3670
23.6603 -5.2999 -3.3062
23.7986 -3.1358 -3.2731
23.9353 -0.9977 -3.2665
24.0725 1.1490 -3.2861
24.2124 3.3391 -3.3327
-16.9639 46.0041 -6.6858
-9.5008 0.5321 -1.2975
-27.9718 -11.5245 -4.1251
-22.7419 -11.8444 -3.4963
-20.0001 -12.8058 -3.2382
-20.1803 -15.6254 -3.4801
-20.5239 -19.0517 -3.8184
-26.1729 -29.0571 -5.3324
-22.0095 -29.3231 -4.9994
-18.3078 -29.5597 -4.7411
-18.1691 -36.2002 -5.5229
20.3674 -35.7631 -5.6119
21.3954 -30.8054 -5.1142
21.7081 -25.9620 -4.6145
21.3196 -21.3045 -4.1097
25.3462 -21.1629 -4.5024
31.0399 -21.5259 -5.1506
23.7585 -10.8283 -3.5602
23.4713 -8.2575 -3.3927
23.6154 -6.0032 -3.3225
23.7547 -3.8234 -3.2808
23.8916 -1.6808 -3.2658
24.0284 0.4595 -3.2770
24.1672 2.6317 -3.3148
24.5228 4.9154 -3.4103
17.2909 8.6936 -2.6389
-11.3134 13.9301 -2.4470
-34.9415 -13.2413 -5.0951
-24.3186 -11.7949 -3.6854
-20.0013 -12.0150 -3.1815
-20.1986 -14.7361 -3.4093
-20.3199 -17.8090 -3.6843
-27.6283 -28.9641 -5.4580
-23.2837 -29.2417 -5.0969
-19.4497 -29.4867 -4.8166
-17.9920 -33.4295 -5.1766
21.2804 -32.5894 -5.3072
21.6164 -27.4071 -4.7596
21.1690 -22.3990 -4.2024
22.8806 -20.2413 -4.1655
29.0542 -21.4035 -4.9206
34.5685 -20.9839 -5.5141
23.4238 -9.0009 -3.4217
23.5700 -6.7143 -3.3417
23.7105 -4.5148 -3.2911
23.8480 -2.3641 -3.2677
23.9845 -0.2269 -3.2706
24.1225 1.9314 -3.2997
24.2898 4.1506 -3.3601
19.4335 34.9031 -5.4472
-14.5274 13.2264 -2.6789
-37.6938 -13.0654 -5.4398
-25.8574 -11.6408 -3.8666
-21.2226 -11.9370 -3.3202
-20.0650 -13.7778 -3.3189
-20.2523 -16.7513 -3.5837
-29.1555 -28.8665 -5.5944
-24.6097 -29.1570 -5.2026
-20.6296 -29.4113 -4.8986
-17.8357 -30.9835 -4.8748
-18.1441 -39.2541 -5.8966
20.5247 -33.4847 -5.3553
21.2226 -28.5490 -4.8506
21.8049 -24.4341 -4.4655
21.8701 -20.4907 -4.0865
27.2286 -21.2851 -4.7126
32.9772 -21.3307 -5.3553
23.4135 -9.7734 -3.4595
23.5240 -7.4341 -3.3640
23.6660 -5.2112 -3.3043
23.8042 -3.0488 -3.2723
23.9408 -0.9110 -3.2668
24.0781 1.2368 -3.2875
24.2182 3.4294 -3.3352
-9.4936 25.4606 -3.7052
-9.4220 0.4934 -1.2865
-40.6626 -12.8052 -5.8130
-27.8013 -11.5723 -4.1062
-22.6507 -11.9014 -3.4889
-20.0070 -12.9126 -3.2469
-20.1882 -15.7490 -3.4913
-20.4138 -19.0878 -3.8108
-25.9932 -29.0686 -5.3172
-21.8513 -29.3332 -4.9876
-18.1654 -29.5688 -4.7319
-18.2938 -36.7805 -5.6013
20.3436 -35.4224 -5.5699
32.6518 -21.6274 -5.0948
23.4351 -10.0831 -3.3188
23.5063 -7.7106 -3.2181
23.6490 -5.4777 -3.1578
23.7875 -3.3100 -3.1242
23.9242 -1.1710 -3.1159
24.0613 0.9736 -3.1326
24.2009 3.1589 -3.1749
3.5000 34.6289 -4.5277
0.3955 34.7608 -4.5222
-2.7287 34.9237 -4.5569
-16.7054 46.3350 -6.4073
-41.9826 -12.7209 -5.7066
-28.4375 -11.4759 -3.9892
-23.0968 -11.8172 -3.3750
-19.9866 -12.5937 -3.0731
-20.1647 -15.3808 -3.2991
-20.5052 -18.7595 -3.6153
-26.5359 -29.0339 -5.1167
-22.3282 -29.3028 -4.7924
-18.5940 -29.5414 -4.5408
-18.1219 -35.4626 -5.1806
-11.9537 -39.5205 -5.3711
21.3670 -31.2457 -4.9241
21.6853 -26.3202 -4.4363
21.2679 -21.5633 -3.9399
23.9704 -20.3110 -4.0871
29.4858 -20.7663 -4.6915
36.5593 -21.1388 -5.4936
23.4594 -8.4449 -3.2434
23.6039 -6.1829 -3.1741
23.7435 -3.9984 -3.1322
23.8805 -1.8541 -3.1159
24.0172 0.2850 -3.1245
24.1558 2.4534 -3.1585
24.4173 4.7104 -3.2349
33.2691 9.5639 -4.5031
24.7780 31.5718 -5.2209
19.6709 30.2837 -4.6976
4.4976 34.5893 -4.5375
1.3878 34.7187 -4.5200
-1.7235 34.8614 -4.5405
-35.7107 -13.2376 -4.9544
-24.7205 -11.7692 -3.5616
-20.3015 -11.9958 -3.0675
-20.1177 -14.4547 -3.2225
-20.3024 -17.5351 -3.4898
-28.0088 -28.9397 -5.2391
-23.6150 -29.2205 -4.8873
-19.7453 -29.4678 -4.6144
-10.6857 -19.5137 -2.8941
21.2499 -33.0638 -5.1129
21.5923 -27.7885 -4.5779
21.1494 -22.7057 -4.0365
22.5736 -20.2633 -3.9461
28.5759 -21.3725 -4.6420
35.0355 -21.6165 -5.3553
23.4116 -9.1915 -3.2718
23.5583 -6.8959 -3.1932
23.6992 -4.6910 -3.1428
23.8369 -2.5377 -3.1184
23.9734 -0.4006 -3.1190
24.1112 1.7546 -3.1448
24.2524 3.9635 -3.1968
2.3802 34.6784 -4.5218
-0.7250 34.8132 -4.5297
-7.1019 35.1202 -4.6611
-14.4955 13.3909 -2.5671
-9.4290 0.2924 -1.2272
-38.4527 -13.0169 -5.2810
-26.3021 -11.6123 -3.7402
-21.5543 -11.9187 -3.2040
-20.0479 -13.5532 -3.1480
-20.2357 -16.4919 -3.3959
-29.5551 -28.8409 -5.3720
-24.9551 -29.1349 -4.9903
-20.9354 -29.3918 -4.6942
-17.5518 -29.9854 -4.5198
-18.2733 -38.7924 -5.5782
21.1233 -35.0285 -5.3211
20.8873 -28.5276 -4.5994
21.0694 -23.9573 -4.1503
21.7084 -20.6368 -3.8964
26.7896 -21.2566 -4.4487
32.9376 -21.6453 -5.1271
23.4279 -9.9795 -3.3126
23.5122 -7.6183 -3.2152
23.6547 -5.3888 -3.1560
23.7931 -3.2229 -3.1234
23.9297 -1.0844 -3.1161
24.0669 1.0612 -3.1338
24.2067 3.2490 -3.1772
19.5167 26.5878 -4.2905
3.3738 34.6347 -4.5268
0.2695 34.7668 -4.5228
-2.8576 34.9429 -4.5607
-16.7702 45.9917 -6.3682
-41.5340 -12.7495 -5.6518
-28.1829 -11.4922 -3.9593
-22.9144 -11.8288 -3.3546
-19.9933 -12.6994 -3.0812
-20.1725 -15.5027 -3.3096
-20.5145 -18.9051 -3.6290
-26.3539 -29.0455 -5.1019
-22.1684 -29.3130 -4.7809
-18.4506 -29.5506 -4.5319
-18.1453 -35.8282 -5.2244
20.4406 -36.1963 -5.4076
21.3812 -31.0246 -4.9015
21.6967 -26.1404 -4.4192
21.2938 -21.4336 -3.9303
24.1618 -20.3232 -4.1072
29.5682 -20.6644 -4.6927
23.9566 -11.0237 -3.4305
23.4654 -8.3511 -3.2401
23.6096 -6.0930 -3.1719
23.7491 -3.9109 -3.1310
23.8861 -1.7674 -3.1157
24.0228 0.3722 -3.1254
24.1615 2.5425 -3.1604
24.4699 4.8126 -3.2442
19.5973 30.4112 -4.7063
4.3338 34.3020 -4.4977
1.2620 34.7236 -4.5200
-1.8506 34.8686 -4.5423
-11.3005 14.0176 -2.3422
-35.1189 -13.1631 -4.8789
-24.5182 -11.7821 -3.5386
-20.1506 -12.0054 -3.0513
-20.1262 -14.5718 -3.2323
-20.3111 -17.6715 -3.5023
-27.8180 -28.9519 -5.2230
-23.4490 -29.2311 -4.8749
-19.5971 -29.4773 -4.6047
-17.9711 -33.1024 -4.8998
21.2652 -32.8255 -5.0879
21.6044 -27.5969 -4.5592
21.1592 -22.5519 -4.0228
22.7190 -20.2456 -3.9586
28.8138 -21.3879 -4.6680
35.1136 -21.4894 -5.3553
23.4177 -9.0960 -3.2681
23.5642 -6.8050 -3.1906
23.7049 -4.6028 -3.1413
23.8424 -2.4509 -3.1179
23.9790 -0.3138 -3.1196
24.1168 1.8429 -3.1464
24.2711 4.0570 -3.2011
19.5977 34.8997 -5.2068
2.2542 34.6837 -4.5214
-0.8515 34.8190 -4.5308
-7.2313 35.1043 -4.6625
-14.4914 13.2900 -2.5579
-9.4954 0.2600 -1.2357
-38.0700 -13.0414 -5.2349
-26.0783 -11.6266 -3.7143
-21.3852 -11.9266 -3.1853
-20.0550 -13.6642 -3.1569
-20.2440 -16.6211 -3.4074
-29.3545 -28.8538 -5.3545
-24.7819 -29.1460 -4.9768
-20.7822 -29.4016 -4.6837
-17.8172 -30.6937 -4.6168
-18.1166 -38.8244 -5.5733
21.1400 -34.7704 -5.2935
21.0544 -28.5383 -4.6134
21.0798 -23.7947 -4.1353
21.7845 -20.5592 -3.8966
27.0078 -21.2708 -4.4721
33.2271 -21.6636 -5.1599
23.4207 -9.8763 -3.3065
23.5181 -7.5261 -3.2122
23.6603 -5.2999 -3.1542
23.7986 -3.1358 -3.1226
23.9353 -0.9977 -3.1163
24.0725 1.1490 -3.1351
24.2124 3.3391 -3.1795
19.4645 26.7191 -4.3003
3.2476 34.6404 -4.5260
0.1434 34.7727 -4.5235
-2.9878 34.9725 -4.5660
-16.9639 46.0041 -6.3784
-9.5002 0.5321 -1.2378
-41.4939 -12.9021 -5.6527
-27.9718 -11.5245 -3.9355
-22.7419 -11.8444 -3.3356
-20.0001 -12.8058 -3.0894
-20.1803 -15.6254 -3.3201
-20.5239 -19.0517 -3.6429
-26.1729 -29.0571 -5.0872
-22.0095 -29.3231 -4.7695
-18.3078 -29.5597 -4.5231
-18.1691 -36.2002 -5.2690
20.3729 -35.7728 -5.3553
21.3954 -30.8054 -4.8791
20.9957 -25.1101 -4.2579
21.3196 -21.3045 -3.9208
24.3553 -20.3355 -4.1275
31.0399 -21.5259 -4.9138
23.7585 -10.8284 -3.3965
23.4713 -8.2576 -3.2367
23.6154 -6.0032 -3.1697
23.7547 -3.8234 -3.1299
23.8916 -1.6808 -3.1156
24.0284 0.4594 -3.1263
24.1672 2.6317 -3.1624
24.5228 4.9154 -3.2535
17.2909 8.6936 -2.5176
4.2006 34.2447 -4.4881
1.1362 34.7284 -4.5201
-1.9778 34.8759 -4.5442
-11.3134 13.9301 -2.3345
-34.9415 -13.2413 -4.8608
-24.3186 -11.7949 -3.5160
-20.0013 -12.0150 -3.0353
-20.1349 -14.6896 -3.2422
-20.3199 -17.8090 -3.5149
-27.6283 -28.9641 -5.2071
-23.2837 -29.2417 -4.8625
-19.4497 -29.4867 -4.5951
-17.9920 -33.4295 -4.9386
21.2804 -32.5894 -5.0632
21.6164 -27.4071 -4.5408
21.1690 -22.3990 -4.0092
22.8806 -20.2413 -3.9740
29.0542 -21.4035 -4.6944
35.1912 -21.3620 -5.3553
23.4238 -9.0008 -3.2643
23.5700 -6.7143 -3.1881
23.7105 -4.5148 -3.1398
23.8480 -2.3641 -3.1175
23.9845 -0.2269 -3.1202
24.1225 1.9314 -3.1480
24.2898 4.1506 -3.2056
19.4330 34.9022 -5.1966
2.1284 34.6889 -4.5210
-0.9778 34.8249 -4.5320
-14.5270 13.2260 -2.5557
-37.6938 -13.0654 -5.1897
-25.8574 -11.6408 -3.6888
-21.2226 -11.9370 -3.1675
-20.0650 -13.7778 -3.1663
-20.2523 -16.7513 -3.4190
-29.1555 -28.8665 -5.3372
-24.6097 -29.1570 -4.9634
-20.6296 -29.4113 -4.6733
-17.8357 -30.9835 -4.6506
-18.1441 -39.2541 -5.6255
21.1564 -34.5152 -5.2663
21.2226 -28.5490 -4.6276
21.0901 -23.6331 -4.1205
21.8701 -20.4907 -3.8986
27.2286 -21.2851 -4.4959
33.5204 -21.6820 -5.1932
23.4135 -9.7734 -3.3005
23.5240 -7.4341 -3.2093
23.6660 -5.2112 -3.1524
23.8042 -3.0488 -3.1219
23.9408 -0.9110 -3.1166
24.0781 1.2368 -3.1363
24.2182 3.4294 -3.1819
19.4687 26.9296 -4.3228
3.1215 34.6461 -4.5252
0.0175 34.7786 -4.5242
-17.1584 46.0165 -6.3887
-9.4214 0.4934 -1.2273
-41.1251 -12.9509 -5.6088
-27.8013 -11.5723 -3.9174
-22.6507 -11.9014 -3.3285
-20.0070 -12.9126 -3.0976
-20.1882 -15.7489 -3.3308
-20.4138 -19.0878 -3.6356
-25.9932 -29.0686 -5.0727
-21.8513 -29.3332 -4.7582
-18.1654 -29.5688 -4.5144
-18.2939 -36.7805 -5.3438
20.5024 -35.6988 -5.3553
32.6518 -21.6274 -4.8497
23.4351 -10.0831 -3.1591
23.5063 -7.7106 -3.0633
23.6490 -5.4777 -3.0059
23.7875 -3.3100 -2.9739
23.9242 -1.1710 -2.9660
24.0613 0.9736 -2.9819
24.2009 3.1589 -3.0221
-16.7054 46.3350 -6.0990
-42.4602 -12.8656 -5.4938
-28.4375 -11.4759 -3.7972
-23.0968 -11.8172 -3.2126
-19.9866 -12.5937 -2.9252
-20.1647 -15.3808 -3.1404
-20.5052 -18.7595 -3.4414
-26.5359 -29.0339 -4.8705
-22.3282 -29.3028 -4.5618
-18.5940 -29.5414 -4.3223
-18.1220 -35.4626 -4.9314
-11.9532 -39.5189 -5.1125
21.3670 -31.2457 -4.6872
20.9736 -25.4563 -4.0843
21.2679 -21.5633 -3.7503
23.9704 -20.3110 -3.8904
29.4858 -20.7663 -4.4658
37.4403 -21.6482 -5.3553
23.4594 -8.4449 -3.0874
23.6039 -6.1829 -3.0214
23.7435 -3.9984 -2.9815
23.8805 -1.8541 -2.9659
24.0172 0.2850 -2.9742
24.1558 2.4534 -3.0065
24.4173 4.7104 -3.0793
33.2680 9.5636 -4.2863
24.7774 31.5711 -4.9695
19.6709 30.2837 -4.4716
-35.7107 -13.2376 -4.7160
-24.7205 -11.7692 -3.3903
-20.3015 -11.9958 -2.9199
-20.1049 -14.4456 -3.0655
-20.3024 -17.5351 -3.3219
-28.0088 -28.9397 -4.9870
-23.6150 -29.2205 -4.6522
-19.7453 -29.4678 -4.3923
-10.6853 -19.5131 -2.7548
21.2499 -33.0638 -4.8669
20.8829 -26.8755 -4.2145
21.1494 -22.7057 -3.8423
22.5736 -20.2633 -3.7562
27.4542 -20.5336 -4.2452
35.3259 -21.7956 -5.1399
23.4116 -9.1915 -3.1144
23.5583 -6.8960 -3.0396
23.6992 -4.6910 -2.9915
23.8369 -2.5377 -2.9683
23.9734 -0.4006 -2.9690
24.1112 1.7546 -2.9935
24.2524 3.9635 -3.0429
-3.8739 35.0192 -4.3628
-7.1019 35.1202 -4.4370
-18.3146 46.0904 -6.1413
-14.4948 13.3902 -2.4435
-9.4287 0.2923 -1.1681
-38.2866 -12.9607 -5.0052
-26.3021 -11.6123 -3.5602
-21.5495 -11.9161 -3.0492
-20.0479 -13.5532 -2.9965
-20.2357 -16.4919 -3.2325
-29.5551 -28.8409 -5.1135
-24.9551 -29.1349 -4.7502
-20.9354 -29.3918 -4.4684
-17.5518 -29.9854 -4.3023
-18.2733 -38.7924 -5.3098
21.1233 -35.0285 -5.0651
20.8873 -28.5276 -4.3781
21.0694 -23.9573 -3.9506
21.7084 -20.6368 -3.7089
25.7403 -20.4241 -4.0688
32.9376 -21.6453 -4.8804
23.4279 -9.9795 -3.1532
23.5122 -7.6183 -3.0605
23.6547 -5.3888 -3.0041
23.7931 -3.2229 -2.9731
23.9297 -1.0844 -2.9662
24.0669 1.0613 -2.9830
24.2067 3.2490 -3.0243
-16.7702 45.9917 -6.0618
-42.0065 -12.8945 -5.4411
-28.1829 -11.4922 -3.7688
-22.9144 -11.8288 -3.1932
-19.9933 -12.6995 -2.9329
-20.1725 -15.5027 -3.1503
-20.5145 -18.9051 -3.4544
-26.3539 -29.0455 -4.8564
-22.1684 -29.3130 -4.5509
-18.4506 -29.5506 -4.3138
-18.1453 -35.8282 -4.9730
21.3812 -31.0246 -4.6656
20.9847 -25.2825 -4.0685
21.2938 -21.4336 -3.7412
24.1619 -20.3232 -3.9095
29.5682 -20.6644 -4.4669
23.9566 -11.0237 -3.2655
23.4654 -8.3511 -3.0842
23.6097 -6.0930 -3.0193
23.7491 -3.9109 -2.9804
23.8861 -1.7674 -2.9658
24.0228 0.3722 -2.9750
24.1615 2.5425 -3.0084
24.4699 4.8126 -3.0881
19.5973 30.4112 -4.4799
4.3336 34.3002 -4.2810
-11.3005 14.0176 -2.2295
-45.3230 -12.5074 -5.8220
-35.1189 -13.1631 -4.6441
-24.5182 -11.7821 -3.3684
-20.1506 -12.0054 -2.9045
-20.1123 -14.5617 -3.0747
-20.3111 -17.6716 -3.3337
-27.8180 -28.9519 -4.9717
-23.4490 -29.2311 -4.6403
-19.5971 -29.4773 -4.3831
-17.9711 -33.1024 -4.6641
21.2652 -32.8255 -4.8431
20.8947 -26.6904 -4.1973
21.1592 -22.5519 -3.8292
22.7190 -20.2456 -3.7682
28.8137 -21.3879 -4.4434
35.6471 -21.8158 -5.1751
23.4177 -9.0960 -3.1108
23.5642 -6.8050 -3.0371
23.7049 -4.6028 -2.9901
23.8424 -2.4508 -2.9679
23.9790 -0.3137 -2.9695
24.1168 1.8429 -2.9950
24.2711 4.0570 -3.0471
19.5970 34.8985 -4.9561
-7.2313 35.1043 -4.4381
-14.4910 13.2897 -2.4347
-9.4948 0.2600 -1.1761
-38.0796 -13.0447 -4.9843
-26.0783 -11.6266 -3.5356
-21.3852 -11.9266 -3.0320
-20.0550 -13.6642 -3.0050
-20.2440 -16.6212 -3.2434
-29.3545 -28.8538 -5.0968
-24.7819 -29.1460 -4.7373
-20.7822 -29.4016 -4.4584
-17.8167 -30.6929 -4.3945
-18.1166 -38.8244 -5.3052
21.1400 -34.7704 -5.0388
21.0544 -28.5383 -4.3914
21.0798 -23.7947 -3.9363
21.7845 -20.5592 -3.7091
25.9498 -20.4374 -4.0902
33.2271 -21.6636 -4.9117
23.4207 -9.8763 -3.1474
23.5181 -7.5261 -3.0576
23.6603 -5.2999 -3.0024
23.7986 -3.1358 -2.9724
23.9353 -0.9977 -2.9664
24.0725 1.1490 -2.9842
24.2124 3.3391 -3.0265
-16.9640 46.0041 -6.0715
-9.4997 0.5320 -1.1782
-41.5614 -12.9230 -5.3895
-27.9718 -11.5245 -3.7461
-22.7372 -11.8419 -3.1745
-20.0001 -12.8058 -2.9407
-20.1803 -15.6254 -3.1604
-20.5239 -19.0517 -3.4676
-26.1729 -29.0571 -4.8425
-22.0095 -29.3231 -4.5400
-18.3078 -29.5597 -4.3055
-18.1691 -36.2002 -5.0155
21.3954 -30.8054 -4.6443
20.9957 -25.1101 -4.0530
21.3196 -21.3045 -3.7321
24.3553 -20.3355 -3.9289
31.0399 -21.5259 -4.6774
23.7585 -10.8283 -3.2331
23.4713 -8.2575 -3.0810
23.6154 -6.0032 -3.0172
23.7547 -3.8234 -2.9793
23.8916 -1.6808 -2.9657
24.0284 0.4595 -2.9759
24.1672 2.6317 -3.0102
24.5228 4.9154 -3.0970
17.2909 8.6936 -2.3965
4.2088 34.3118 -4.2806
-11.3134 13.9301 -2.2221
-44.8086 -12.5403 -5.7617
-34.9414 -13.2413 -4.6269
-24.3186 -11.7949 -3.3468
-20.0013 -12.0150 -2.8892
-20.1198 -14.6786 -3.0839
-20.3199 -17.8090 -3.3458
-27.6284 -28.9641 -4.9565
-23.2837 -29.2417 -4.6286
-19.4497 -29.4867 -4.3740
-17.9920 -33.4295 -4.7009
21.2804 -32.5894 -4.8196
20.9065 -26.5069 -4.1803
21.1690 -22.3990 -3.8163
22.8806 -20.2413 -3.7828
29.0542 -21.4035 -4.4685
35.9727 -21.8363 -5.2108
23.4238 -9.0008 -3.1073
23.5700 -6.7143 -3.0347
23.7105 -4.5148 -2.9887
23.8480 -2.3641 -2.9675
23.9845 -0.2269 -2.9701
24.1225 1.9314 -2.9966
24.2898 4.1506 -3.0513
19.4326 34.9014 -4.9465
-14.5266 13.2257 -2.4326
-37.8044 -13.1038 -4.9544
-25.8574 -11.6408 -3.5114
-21.2226 -11.9370 -3.0151
-20.0621 -13.7758 -3.0135
-20.2523 -16.7513 -3.2545
-29.1555 -28.8665 -5.0804
-24.6097 -29.1570 -4.7246
-20.6296 -29.4113 -4.4485
-17.8357 -30.9835 -4.4268
-18.1441 -39.2541 -5.3548
21.1564 -34.5152 -5.0129
21.2226 -28.5490 -4.4049
21.0901 -23.6331 -3.9222
21.8701 -20.4907 -3.7110
26.1616 -20.4510 -4.1119
33.5204 -21.6820 -4.9434
23.4135 -9.7734 -3.1417
23.5240 -7.4341 -3.0549
23.6660 -5.2112 -3.0007
23.8042 -3.0488 -2.9717
23.9408 -0.9110 -2.9667
24.0781 1.2368 -2.9854
24.2182 3.4294 -3.0288
19.6240 27.1443 -4.1476
-17.1583 46.0165 -6.0813
-9.4209 0.4934 -1.1682
-41.1250 -12.9509 -5.3389
