ply
format ascii 1.0
element vertex 2079
property float32 x
property float32 y
property float32 z
end_header
14.9608 3.3582 1.7071
14.6016 4.6794 1.7071
14.1260 5.9631 1.7071
13.5378 7.1994 1.7071
12.8416 8.3782 1.7071
12.0432 9.4902 1.7071
11.1487 10.5266 1.7071
10.1653 11.4791 1.7071
9.1009 12.3401 1.7071
7.9639 13.1026 1.7071
6.7634 13.7608 1.7071
5.5090 14.3092 1.7071
4.2107 14.7436 1.7071
2.8789 15.0604 1.7071
1.5240 15.2571 1.7071
0.1570 15.3322 1.7071
-1.2112 15.2851 1.7071
-2.5697 15.1162 1.7071
-3.9078 14.8267 1.7071
-5.2148 14.4190 1.7071
-6.4801 13.8964 1.7071
-7.6938 13.2630 1.7071
-8.8462 12.5239 1.7071
-10.7623 12.6668 1.8506
-11.9065 11.7127 1.8595
-12.9038 10.6040 1.8595
-13.7982 9.4107 1.8595
-14.5826 8.1425 1.8595
-15.2508 6.8092 1.8595
-15.7973 5.4218 1.8595
-16.2180 3.9911 1.8595
-16.5093 2.5286 1.8595
-16.6691 1.0459 1.8595
-16.6959 -0.4451 1.8595
-16.5896 -1.9325 1.8595
-16.3511 -3.4046 1.8595
-15.9823 -4.8495 1.8595
-15.4860 -6.2558 1.8595
-14.8663 -7.6122 1.8595
-14.1280 -8.9079 1.8595
-13.2771 -10.1325 1.8595
-12.2769 -11.2366 1.8530
-10.8000 -11.8210 1.7827
-9.4584 -12.4167 1.7378
-8.2044 -13.0380 1.7151
-6.9958 -13.6926 1.7119
-5.7973 -14.3879 1.7271
-4.5862 -15.1629 1.7637
-3.3256 -16.0428 1.8241
-1.9178 -16.5913 1.8595
-0.4303 -16.6963 1.8595
1.0607 -16.6681 1.8595
2.5432 -16.5070 1.8595
4.0054 -16.2144 1.8595
5.4358 -15.7925 1.8595
6.8228 -15.2447 1.8595
8.1554 -14.5753 1.8595
9.4230 -13.7898 1.8595
10.6154 -12.8943 1.8595
11.7232 -11.8961 1.8595
12.7376 -10.8029 1.8595
13.6504 -9.6237 1.8595
14.4544 -8.3678 1.8595
15.1432 -7.0451 1.8595
15.7113 -5.6663 1.8595
9.5718 -2.5137 1.1018
16.4681 -2.7845 1.8595
15.4149 -1.2077 1.7215
15.3321 0.1707 1.7071
15.2557 1.5376 1.7071
15.0578 2.8922 1.7071
14.7398 4.2238 1.7071
14.3043 5.5218 1.7071
13.7547 6.7756 1.7071
13.0955 7.9755 1.7071
12.3320 9.1118 1.7071
8.2715 7.3379 1.2311
10.5167 11.1580 1.7071
8.8627 11.2674 1.5960
8.3667 12.8491 1.7071
7.1873 13.5442 1.7071
5.4218 12.8757 1.5554
4.6663 14.6057 1.7071
3.3449 14.9637 1.7071
1.9969 15.2025 1.7071
0.6329 15.3200 1.7071
-0.7361 15.3154 1.7071
-2.0993 15.1887 1.7071
-3.4457 14.9409 1.7071
-4.7646 14.5740 1.7071
-6.0457 14.0909 1.7071
-7.2784 13.4954 1.7071
-8.4532 12.7924 1.7071
-9.9573 12.4849 1.7780
-11.5372 12.0766 1.8595
-12.5684 10.9994 1.8595
-13.4994 9.8345 1.8595
-14.3228 8.5912 1.8595
-15.0321 7.2794 1.8595
-15.6214 5.9095 1.8595
-16.0863 4.4926 1.8595
-16.4229 3.0398 1.8595
-16.6285 1.5628 1.8595
-16.7017 0.0734 1.8595
-16.6416 -1.4167 1.8595
-16.4489 -2.8954 1.8595
-16.1251 -4.3510 1.8595
-15.6727 -5.7721 1.8595
-15.0954 -7.1470 1.8595
-14.3977 -8.4650 1.8595
-13.5853 -9.7155 1.8595
-12.6645 -10.8886 1.8595
-11.2948 -11.6170 1.8040
-9.9131 -12.2080 1.7509
-8.6327 -12.8179 1.7206
-7.4138 -13.4621 1.7111
-6.2132 -14.1374 1.7193
-5.0107 -14.8827 1.7484
-3.7716 -15.7219 1.8001
-2.4319 -16.5238 1.8595
-0.9484 -16.6749 1.8595
0.5428 -16.6930 1.8595
2.0296 -16.5780 1.8595
3.5002 -16.3309 1.8595
4.9430 -15.9536 1.8595
6.3463 -15.4491 1.8595
7.6990 -14.8215 1.8595
8.9904 -14.0756 1.8595
10.2101 -13.2176 1.8595
12.1780 -10.0906 1.8595
13.0296 -8.9641 1.8595
13.7772 -7.7662 1.8595
14.4150 -6.5063 1.8595
14.9379 -5.1946 1.8595
9.6540 -2.4173 1.1701
15.6232 -2.4577 1.8595
15.1859 -1.0147 1.7895
14.5155 0.3281 1.7071
14.4283 1.6215 1.7071
14.2262 2.9020 1.7071
13.9107 4.1594 1.7071
13.4842 5.3836 1.7071
12.9502 6.5649 1.7071
12.3130 7.6939 1.7071
11.5777 8.7615 1.7071
8.3124 7.5463 1.3200
9.8365 10.6792 1.7071
8.8449 11.5141 1.7071
7.7826 12.2572 1.7071
6.6583 12.9025 1.7071
5.4809 13.4450 1.7071
4.2598 13.8803 1.7071
3.0047 14.2049 1.7071
1.7257 14.4163 1.7071
0.4329 14.5128 1.7071
-0.8633 14.4935 1.7071
-2.1526 14.3587 1.7071
-3.4249 14.1095 1.7071
-4.6697 13.7478 1.7071
-5.8774 13.2765 1.7071
-7.0382 12.6993 1.7071
-8.1471 12.0270 1.7080
-10.0024 12.2506 1.8595
-11.0552 11.3096 1.8595
-12.0199 10.2784 1.8595
-12.8889 9.1653 1.8595
-13.6550 7.9791 1.8595
-14.3123 6.7293 1.8595
-14.8555 5.4259 1.8595
-15.2802 4.0792 1.8595
-15.5832 2.7000 1.8595
-15.7619 1.2992 1.8595
-15.8150 -0.1119 1.8595
-15.7419 -1.5221 1.8595
-15.5434 -2.9202 1.8595
-15.2210 -4.2950 1.8595
-14.7772 -5.6355 1.8595
-14.2156 -6.9311 1.8595
-13.5407 -8.1715 1.8595
-12.7578 -9.3467 1.8595
-11.8733 -10.4474 1.8595
-10.8941 -11.4649 1.8595
-9.7320 -12.2698 1.8414
-8.4627 -12.8818 1.8122
-7.2471 -13.5242 1.8041
-6.0525 -14.2120 1.8162
-4.8485 -14.9662 1.8497
-3.5127 -15.4203 1.8595
-2.1233 -15.6721 1.8595
-0.7169 -15.7990 1.8595
0.6952 -15.8000 1.8595
2.1018 -15.6750 1.8595
3.4916 -15.4251 1.8595
4.8535 -15.0521 1.8595
6.1768 -14.5592 1.8595
7.4508 -13.9502 1.8595
8.6654 -13.2300 1.8595
9.8110 -12.4044 1.8595
10.8783 -11.4798 1.8595
11.8590 -10.4637 1.8595
12.7450 -9.3642 1.8595
13.5295 -8.1901 1.8595
14.2061 -6.9507 1.8595
14.7695 -5.6558 1.8595
9.4319 -2.6754 1.1527
15.5394 -2.9415 1.8595
15.7316 -1.5429 1.8586
14.5187 -0.1226 1.7071
14.4717 1.1729 1.7071
14.3094 2.4590 1.7071
14.0330 3.7256 1.7071
13.6448 4.9625 1.7071
13.1478 6.1598 1.7071
12.5459 7.3080 1.7071
11.8439 8.3978 1.7071
8.4594 7.2136 1.3072
10.1634 10.3688 1.7071
9.1250 11.1448 1.6936
8.1593 12.0097 1.7071
7.0556 12.6896 1.7071
5.6696 12.7598 1.6417
4.6886 13.7413 1.7071
3.4442 14.1048 1.7071
2.1724 14.3558 1.7071
0.8832 14.4923 1.7071
-0.4130 14.5133 1.7071
-1.7059 14.4187 1.7071
-2.9852 14.2090 1.7071
-4.2407 13.8861 1.7071
-5.4624 13.4525 1.7071
-6.6406 12.9116 1.7071
-7.7658 12.2678 1.7071
-9.4590 12.3486 1.8289
-10.6988 11.6473 1.8595
-11.6951 10.6466 1.8595
-12.5981 9.5610 1.8595
-13.4007 8.3992 1.8595
-14.0965 7.1703 1.8595
-14.6799 5.8844 1.8595
-15.1462 4.5515 1.8595
-15.4919 3.1824 1.8595
-15.7140 1.7879 1.8595
-15.8108 0.3791 1.8595
-15.7816 -1.0327 1.8595
-15.6265 -2.4363 1.8595
-15.3469 -3.8204 1.8595
-14.9354 -5.1708 1.8583
-14.3832 -6.4682 1.8543
-13.7878 -7.7472 1.8595
-13.0418 -8.9462 1.8595
-12.1919 -10.0738 1.8595
-11.2447 -11.1212 1.8595
-10.1932 -12.0625 1.8569
-8.8952 -12.6653 1.8197
-7.6653 -13.2958 1.8045
-6.4674 -13.9668 1.8097
-5.2704 -14.6960 1.8357
-3.9897 -15.3038 1.8595
-2.6087 -15.5987 1.8595
-1.2070 -15.7692 1.8595
0.2044 -15.8140 1.8595
1.6142 -15.7327 1.8595
3.0111 -15.5260 1.8595
4.3839 -15.1956 1.8595
5.7219 -14.7439 1.8595
7.0142 -14.1748 1.8595
8.2506 -13.4926 1.8595
9.4212 -12.7029 1.8595
10.5167 -11.8120 1.8595
11.5284 -10.8268 1.8595
12.4482 -9.7553 1.8595
13.2687 -8.6061 1.8595
13.9835 -7.3883 1.8595
14.5868 -6.1115 1.8595
10.0217 -3.1820 1.2363
9.8550 -2.1844 1.1869
15.6843 -2.0316 1.8595
14.7266 -0.5819 1.7329
14.5012 0.7231 1.7071
14.3789 2.0137 1.7071
14.1420 3.2882 1.7071
10.1686 3.3446 1.2586
13.3327 5.7487 1.7071
12.7668 6.9150 1.7071
12.0991 8.0262 1.7071
11.3349 9.0734 1.7071
10.4804 10.0483 1.7071
9.5423 10.9431 1.7071
8.5282 11.7506 1.7071
7.4461 12.4645 1.7071
6.0623 12.5763 1.6415
5.1129 13.5892 1.7071
3.8805 13.9911 1.7071
2.6170 14.2814 1.7071
1.3327 14.4579 1.7071
0.0377 14.5192 1.7071
-1.2575 14.4647 1.7071
-2.5427 14.2948 1.7071
-3.8076 14.0110 1.7071
-5.0422 13.6156 1.7071
-6.2366 13.1115 1.7071
-7.3812 12.5030 1.7071
-8.7353 12.1684 1.7612
-10.3321 11.9738 1.8595
-11.3590 11.0045 1.8595
-12.2953 9.9474 1.8595
-13.1336 8.8111 1.8595
-13.8671 7.6045 1.8595
-14.4901 6.3372 1.8595
-14.9977 5.0195 1.8595
-15.3856 3.6617 1.8595
-15.6509 2.2748 1.8595
-15.7914 0.8697 1.8595
-15.8060 -0.5423 1.8595
-15.6946 -1.9500 1.8595
-15.4581 -3.3422 1.8595
-15.0984 -4.7077 1.8595
-14.5601 -6.0116 1.8521
-14.0217 -7.3155 1.8595
-13.3132 -8.5371 1.8595
-12.4987 -9.6905 1.8595
-11.5845 -10.7668 1.8595
-10.5779 -11.7572 1.8595
-9.3376 -12.4545 1.8302
-8.0878 -13.0733 1.8075
-6.8814 -13.7265 1.8054
-5.6880 -14.4339 1.8241
-4.4629 -15.1726 1.8595
-3.0917 -15.5102 1.8595
-1.6959 -15.7241 1.8595
-0.2865 -15.8127 1.8595
1.1251 -15.7752 1.8595
2.5277 -15.6120 1.8595
3.9101 -15.3243 1.8595
5.2615 -14.9145 1.8595
6.5708 -14.3857 1.8595
7.8278 -13.7423 1.8595
9.0224 -12.9892 1.8595
10.1450 -12.1327 1.8595
11.1868 -11.1794 1.8595
12.1394 -10.1371 1.8595
12.9952 -9.0138 1.8595
13.7474 -7.8188 1.8595
14.3900 -6.5614 1.8595
14.9180 -5.2517 1.8595
9.6263 -2.4495 1.1679
15.6137 -2.5174 1.8595
15.2524 -1.0777 1.7978
14.5166 0.2726 1.7071
14.4345 1.5664 1.7071
14.2372 2.8476 1.7071
13.9265 4.1062 1.7071
13.5047 5.3320 1.7071
12.9752 6.5154 1.7071
12.3424 7.6468 1.7071
11.6111 8.7172 1.7071
8.2473 7.4300 1.3052
9.8774 10.6416 1.7071
8.8512 11.4316 1.6999
7.8294 12.2273 1.7071
6.7076 12.8769 1.7071
5.5323 13.4239 1.7071
4.3128 13.8639 1.7071
3.0590 14.1933 1.7071
1.7808 14.4096 1.7071
0.4884 14.5110 1.7071
-0.8079 14.4967 1.7071
-2.0977 14.3669 1.7071
-3.3709 14.1225 1.7071
-4.6171 13.7655 1.7071
-5.8266 13.2988 1.7071
-6.9895 12.7261 1.7071
-8.0969 12.0519 1.7071
-9.9555 12.2888 1.8595
-11.0119 11.3518 1.8595
-11.9806 10.3243 1.8595
-12.8537 9.2145 1.8595
-13.6244 8.0313 1.8595
-14.2865 6.7840 1.8595
-14.8346 5.4826 1.8595
-15.2645 4.1376 1.8595
-15.5727 2.7595 1.8595
-15.7568 1.3594 1.8595
-15.8152 -0.0514 1.8595
-15.7476 -1.4619 1.8595
-15.5544 -2.8607 1.8595
-15.2373 -4.2368 1.8595
-14.7986 -5.5790 1.8595
-14.2420 -6.8767 1.8595
-13.5718 -8.1197 1.8595
-12.7935 -9.2979 1.8595
-11.9131 -10.4020 1.8595
-10.9378 -11.4231 1.8595
-9.7884 -12.2445 1.8432
-8.5158 -12.8553 1.8130
-7.2985 -13.4958 1.8040
-6.1034 -14.1809 1.8152
-4.9006 -14.9319 1.8478
-3.5716 -15.4067 1.8595
-2.1832 -15.6639 1.8595
-0.7772 -15.7962 1.8595
0.6348 -15.8025 1.8595
2.0418 -15.6829 1.8595
3.4326 -15.4383 1.8595
4.7959 -15.0706 1.8595
6.1211 -14.5827 1.8595
7.3974 -13.9786 1.8595
8.6148 -13.2631 1.8595
9.7635 -12.4418 1.8595
10.8344 -11.5213 1.8595
11.8189 -10.5090 1.8595
12.7091 -9.4129 1.8595
13.4981 -8.2417 1.8595
14.1794 -7.0049 1.8595
14.7478 -5.7122 1.8595
9.5001 -2.7341 1.1623
15.5280 -3.0009 1.8595
15.7338 -1.6039 1.8595
14.5181 -0.1781 1.7071
14.4761 1.1175 1.7071
14.3188 2.4043 1.7071
14.0472 3.6719 1.7071
13.6637 4.9103 1.7071
13.1712 6.1095 1.7071
12.5738 7.2599 1.7071
11.8761 8.3526 1.7071
8.4982 7.1909 1.3089
10.2030 10.3299 1.7071
9.1765 11.1207 1.6952
8.2048 11.9783 1.7071
7.1040 12.6625 1.7071
5.7180 12.7372 1.6416
4.7411 13.7233 1.7071
3.4981 14.0915 1.7071
2.2272 14.3474 1.7071
0.9386 14.4888 1.7071
-0.3575 14.5148 1.7071
-1.6508 14.4251 1.7071
-2.9309 14.2203 1.7071
-4.1876 13.9022 1.7071
-5.4109 13.4733 1.7071
-6.5911 12.9369 1.7071
-7.7188 12.2974 1.7071
-9.3670 12.3257 1.8202
-10.6542 11.6881 1.8595
-11.6543 10.6912 1.8595
-12.5615 9.6091 1.8595
-13.3685 8.4503 1.8595
-14.0690 7.2242 1.8595
-14.6573 5.9404 1.8595
-15.1287 4.6094 1.8595
-15.4796 3.2416 1.8595
-15.7070 1.8479 1.8595
-15.8092 0.4395 1.8595
-15.7854 -0.9724 1.8595
-15.6358 -2.3765 1.8595
-15.3614 -3.7617 1.8595
-14.9647 -5.1169 1.8595
-14.3911 -6.4057 1.8521
-13.8173 -7.6945 1.8595
-13.0759 -8.8963 1.8595
-12.2303 -10.0272 1.8595
-11.2871 -11.0781 1.8595
-10.2505 -12.0367 1.8589
-8.9490 -12.6389 1.8208
-7.7172 -13.2685 1.8048
-6.5185 -13.9372 1.8091
-5.3219 -14.6631 1.8341
-4.0482 -15.2884 1.8595
-2.6683 -15.5886 1.8595
-1.2672 -15.7645 1.8595
0.1440 -15.8146 1.8595
1.5540 -15.7388 1.8595
2.9517 -15.5374 1.8595
4.3258 -15.2122 1.8595
5.6655 -14.7657 1.8595
6.9599 -14.2015 1.8595
8.1989 -13.5241 1.8595
9.3726 -12.7388 1.8595
10.4715 -11.8520 1.8595
11.4870 -10.8708 1.8595
12.4108 -9.8028 1.8595
13.2358 -8.6568 1.8595
13.9551 -7.4417 1.8595
14.5633 -6.1672 1.8595
10.1003 -3.2495 1.2475
9.8265 -2.2175 1.1844
15.6765 -2.0915 1.8595
14.7912 -0.6411 1.7407
14.5038 0.6677 1.7071
14.3865 1.9587 1.7071
14.1544 3.2341 1.7071
10.1647 3.3004 1.2566
13.3546 5.6977 1.7071
12.7931 6.8661 1.7071
12.1297 7.9799 1.7071
11.3695 9.0300 1.7071
10.5188 10.0082 1.7071
9.5841 10.9065 1.7071
8.5731 11.7179 1.7071
7.4937 12.4359 1.7071
6.3546 13.0548 1.7071
5.1652 13.5696 1.7071
3.9339 13.9761 1.7071
2.6715 14.2713 1.7071
1.3879 14.4527 1.7071
0.0932 14.5189 1.7071
-1.2022 14.4694 1.7071
-2.4880 14.3044 1.7071
-3.7541 14.0255 1.7071
-4.9901 13.6347 1.7071
-6.1864 13.1353 1.7071
-7.3334 12.5311 1.7071
-8.6498 12.1471 1.7533
-10.2863 12.0132 1.8595
-11.3169 11.0478 1.8595
-12.2572 9.9944 1.8595
-13.0998 8.8612 1.8595
-13.8379 7.6574 1.8595
-14.4658 6.3926 1.8595
-14.9783 5.0768 1.8595
-15.3715 3.7205 1.8595
-15.6421 2.3346 1.8595
-15.7880 0.9301 1.8595
-15.8080 -0.4819 1.8595
-15.7020 -1.8900 1.8595
-15.4708 -3.2830 1.8595
-15.1163 -4.6499 1.8595
-14.5830 -5.9559 1.8521
-14.0495 -7.2618 1.8595
-13.3458 -8.4861 1.8595
-12.5356 -9.6427 1.8595
-11.6256 -10.7224 1.8595
-10.6228 -11.7166 1.8595
-9.3925 -12.4284 1.8317
-8.1399 -13.0458 1.8080
-6.9328 -13.6981 1.8051
-5.7394 -14.4027 1.8229
-4.5208 -15.1554 1.8595
-3.1510 -15.4982 1.8595
-1.7560 -15.7175 1.8595
-0.3470 -15.8115 1.8595
1.0647 -15.7794 1.8595
2.4679 -15.6216 1.8595
3.8516 -15.3391 1.8595
5.2044 -14.9345 1.8595
6.5158 -14.4107 1.8595
7.7752 -13.7721 1.8595
8.9727 -13.0236 1.8595
10.0986 -12.1714 1.8595
11.1440 -11.2221 1.8595
12.1005 -10.1834 1.8595
12.9607 -9.0634 1.8595
13.7174 -7.8713 1.8595
14.3649 -6.6163 1.8595
14.8977 -5.3087 1.8595
9.5986 -2.4816 1.1657
15.6040 -2.5771 1.8595
15.3196 -1.1413 1.8062
14.5175 0.2171 1.7071
14.4403 1.5112 1.7071
14.2480 2.7932 1.7071
13.9420 4.0530 1.7071
13.5250 5.2804 1.7071
13.0000 6.4658 1.7071
12.3715 7.5995 1.7071
11.6443 8.6728 1.7071
8.2401 7.3665 1.2996
9.9180 10.6038 1.7071
8.8117 11.2912 1.6840
7.8761 12.1973 1.7071
6.7567 12.8512 1.7071
5.5835 13.4027 1.7071
4.3658 13.8473 1.7071
3.1133 14.1815 1.7071
1.8359 14.4027 1.7071
0.5439 14.5090 1.7071
-0.7524 14.4997 1.7071
-2.0428 14.3748 1.7071
-3.3168 14.1353 1.7071
-4.5645 13.7831 1.7071
-5.7757 13.3210 1.7071
-6.9409 12.7527 1.7071
-8.0507 12.0828 1.7071
-9.9085 12.3267 1.8595
-10.9685 11.3938 1.8595
-11.9410 10.3700 1.8595
-12.8184 9.2636 1.8595
-13.5936 8.0833 1.8595
-14.2604 6.8385 1.8595
-14.8135 5.5393 1.8595
-15.2486 4.1959 1.8595
-15.5621 2.8190 1.8595
-15.7515 1.4197 1.8595
-15.8153 0.0090 1.8595
-15.7531 -1.4017 1.8595
-15.5653 -2.8012 1.8595
-15.2533 -4.1785 1.8595
-14.7608 -5.5004 1.8521
-14.2682 -6.8223 1.8595
-13.6028 -8.0678 1.8595
-12.8289 -9.2489 1.8595
-11.9528 -10.3564 1.8595
-10.9814 -11.3813 1.8595
-9.8449 -12.2191 1.8450
-8.5689 -12.8287 1.8139
-7.3497 -13.4674 1.8039
-6.1543 -14.1499 1.8143
-4.9528 -14.8986 1.8460
-3.6305 -15.3930 1.8595
-2.2430 -15.6554 1.8595
-0.8377 -15.7931 1.8595
0.5744 -15.8049 1.8595
1.9819 -15.6906 1.8595
3.3735 -15.4513 1.8595
4.7383 -15.0888 1.8595
6.0653 -14.6060 1.8595
7.3440 -14.0068 1.8595
8.5641 -13.2959 1.8595
9.7159 -12.4790 1.8595
10.7902 -11.5626 1.8595
11.7786 -10.5541 1.8595
12.6731 -9.4614 1.8595
13.4665 -8.2933 1.8595
14.1526 -7.0590 1.8595
14.7258 -5.7685 1.8595
9.5696 -2.7937 1.1721
15.5164 -3.0602 1.8595
15.7276 -1.6640 1.8595
14.5173 -0.2337 1.7071
14.4803 1.0622 1.7071
14.3278 2.3495 1.7071
14.0611 3.6182 1.7071
13.6823 4.8580 1.7071
13.1945 6.0591 1.7071
12.6014 7.2119 1.7071
11.9079 8.3071 1.7071
8.5372 7.1680 1.3107
10.2424 10.2908 1.7071
9.2281 11.0966 1.6969
8.2509 11.9469 1.7071
7.1524 12.6353 1.7071
5.7664 12.7146 1.6415
4.7935 13.7051 1.7071
3.5520 14.0780 1.7071
2.2821 14.3387 1.7071
0.9940 14.4852 1.7071
-0.3020 14.5161 1.7071
-1.5956 14.4313 1.7071
-2.8765 14.2314 1.7071
-4.1345 13.9181 1.7071
-5.3594 13.4939 1.7071
-6.5417 12.9620 1.7071
-7.6718 12.3268 1.7071
-9.2757 12.3030 1.8116
-10.6095 11.7288 1.8595
-11.6134 10.7357 1.8595
-12.5247 9.6570 1.8595
-13.3361 8.5014 1.8595
-14.0413 7.2779 1.8595
-14.6345 5.9964 1.8595
-15.1110 4.6672 1.8595
-15.4670 3.3007 1.8595
-15.6998 1.9080 1.8595
-15.8074 0.5000 1.8595
-15.7890 -0.9120 1.8595
-15.6447 -2.3167 1.8595
-15.3757 -3.7030 1.8595
-14.9841 -5.0597 1.8595
-14.4154 -6.3507 1.8521
-13.8466 -7.6416 1.8595
-13.1098 -8.8463 1.8595
-12.2685 -9.9804 1.8595
-11.3294 -11.0349 1.8595
-10.2999 -12.0015 1.8595
-9.0034 -12.6131 1.8221
-7.7692 -13.2412 1.8051
-6.5695 -13.9075 1.8085
-5.3734 -14.6303 1.8325
-4.1066 -15.2728 1.8595
-2.7279 -15.5783 1.8595
-1.3275 -15.7595 1.8595
0.0835 -15.8151 1.8595
1.4938 -15.7446 1.8595
2.8923 -15.5486 1.8595
4.2676 -15.2286 1.8595
5.6090 -14.7872 1.8595
6.9056 -14.2280 1.8595
8.1472 -13.5553 1.8595
9.3238 -12.7746 1.8595
10.4262 -11.8920 1.8595
11.4453 -10.9146 1.8595
12.3733 -9.8502 1.8595
13.2025 -8.7073 1.8595
13.9266 -7.4950 1.8595
14.5396 -6.2229 1.8595
10.1804 -3.3183 1.2590
9.7980 -2.2505 1.1820
15.6683 -2.1514 1.8595
14.8542 -0.7007 1.7485
14.5063 0.6122 1.7071
14.3939 1.9037 1.7071
14.1667 3.1800 1.7071
13.8266 4.4310 1.7071
13.3762 5.6466 1.7071
12.8192 6.8172 1.7071
12.1601 7.9335 1.7071
11.4040 8.9865 1.7071
10.5568 9.9679 1.7071
9.6257 10.8698 1.7071
8.6178 11.6851 1.7071
7.5412 12.4072 1.7071
6.4044 13.0304 1.7071
5.2166 13.5497 1.7071
3.9872 13.9610 1.7071
2.7261 14.2610 1.7071
1.4431 14.4473 1.7071
0.1494 14.5186 1.7071
-1.1469 14.4738 1.7071
-2.4333 14.3138 1.7071
-3.7004 14.0397 1.7071
-4.9380 13.6537 1.7071
-6.1362 13.1588 1.7071
-7.2855 12.5590 1.7071
-8.5652 12.1260 1.7455
-10.2403 12.0524 1.8595
-11.2745 11.0910 1.8595
-12.2189 10.0411 1.8595
-13.0658 8.9112 1.8595
-13.8086 7.7102 1.8595
-14.4413 6.4478 1.8595
-14.9588 5.1340 1.8595
-15.3572 3.7793 1.8595
-15.6331 2.3944 1.8595
-15.7843 0.9904 1.8595
-15.8097 -0.4215 1.8595
-15.7091 -1.8300 1.8595
-15.4832 -3.2239 1.8595
-15.1340 -4.5921 1.8595
-14.6056 -5.9002 1.8521
-14.0772 -7.2081 1.8595
-13.3781 -8.4351 1.8595
-12.5724 -9.5947 1.8595
-11.6664 -10.6779 1.8595
-10.6675 -11.6760 1.8595
-9.4474 -12.4023 1.8331
-8.1920 -13.0183 1.8085
-6.9841 -13.6697 1.8049
-5.7907 -14.3714 1.8218
-4.5787 -15.1380 1.8595
-3.2102 -15.4861 1.8595
-1.8160 -15.7107 1.8595
-0.4075 -15.8101 1.8595
1.0044 -15.7834 1.8595
2.4082 -15.6309 1.8595
3.7928 -15.3538 1.8595
5.1473 -14.9542 1.8595
6.4607 -14.4355 1.8595
7.7225 -13.8017 1.8595
8.9228 -13.0578 1.8595
10.0520 -12.2099 1.8595
11.1010 -11.2646 1.8595
12.0615 -10.2296 1.8595
12.9259 -9.1129 1.8595
13.6873 -7.9236 1.8595
14.3395 -6.6712 1.8595
14.8774 -5.3656 1.8595
9.5710 -2.5135 1.1635
15.5940 -2.6367 1.8595
15.3864 -1.2055 1.8146
14.5183 0.1616 1.7071
14.4460 1.4559 1.7071
14.2585 2.7387 1.7071
13.9575 3.9996 1.7071
13.5450 5.2287 1.7071
13.0247 6.4160 1.7071
12.4005 7.5522 1.7071
11.6774 8.6282 1.7071
8.2638 7.3311 1.2989
9.9585 10.5658 1.7071
8.8627 11.2674 1.6855
7.9227 12.1671 1.7071
6.8058 12.8253 1.7071
5.4218 12.8757 1.6426
4.4187 13.8305 1.7071
3.1674 14.1695 1.7071
1.8909 14.3956 1.7071
0.5993 14.5068 1.7071
-0.6970 14.5025 1.7071
-1.9878 14.3825 1.7071
-3.2628 14.1479 1.7071
-4.5117 13.8004 1.7071
-5.7248 13.3429 1.7071
-6.8921 12.7791 1.7071
-8.0045 12.1134 1.7071
-9.8613 12.3645 1.8595
-10.9248 11.4356 1.8595
-11.9013 10.4156 1.8595
-12.7829 9.3125 1.8595
-13.5626 8.1352 1.8595
-14.2342 6.8930 1.8595
-14.7923 5.5959 1.8595
-15.2324 4.2541 1.8595
-15.5512 2.8785 1.8595
-15.7459 1.4799 1.8595
-15.8152 0.0695 1.8595
-15.7583 -1.3414 1.8595
-15.5759 -2.7417 1.8595
-15.2692 -4.1201 1.8595
-14.7817 -5.4440 1.8521
-14.2941 -6.7677 1.8595
-13.6335 -8.0157 1.8595
-12.8641 -9.1998 1.8595
-11.9923 -10.3106 1.8595
-11.0248 -11.3392 1.8595
-9.9014 -12.1937 1.8468
-8.6220 -12.8021 1.8148
-7.4011 -13.4390 1.8039
-6.2051 -14.1191 1.8133
-5.0049 -14.8654 1.8442
-3.6893 -15.3790 1.8595
-2.3029 -15.6467 1.8595
-0.8980 -15.7898 1.8595
0.5140 -15.8069 1.8595
1.9219 -15.6981 1.8595
3.3144 -15.4641 1.8595
4.6806 -15.1068 1.8595
6.0095 -14.6291 1.8595
7.2904 -14.0347 1.8595
8.5132 -13.3285 1.8595
9.6681 -12.5160 1.8595
11.5634 -9.5813 1.8595
12.3719 -8.5117 1.8595
13.0818 -7.3742 1.8595
13.6874 -6.1779 1.8595
14.1840 -4.9324 1.8595
9.6533 -2.4171 1.2322
14.8347 -2.3337 1.8595
14.9837 -1.0012 1.8595
13.7829 0.3115 1.7071
13.7001 1.5397 1.7071
13.5082 2.7556 1.7071
13.2086 3.9495 1.7071
12.8036 5.1119 1.7071
12.2966 6.2336 1.7071
11.6916 7.3056 1.7071
10.9934 8.3193 1.7071
8.2911 7.5270 1.3866
9.3402 10.1403 1.7071
8.3985 10.9330 1.7071
7.3898 11.6385 1.7071
6.3222 12.2513 1.7071
5.2043 12.7664 1.7071
4.0448 13.1797 1.7071
2.8531 13.4880 1.7071
1.6386 13.6887 1.7071
0.4111 13.7803 1.7071
-0.8197 13.7620 1.7071
-2.0440 13.6340 1.7071
-3.2520 13.3974 1.7071
-4.4340 13.0539 1.7071
-5.5807 12.6064 1.7071
-6.6829 12.0583 1.7071
-8.1228 11.9913 1.7934
-9.4976 11.6323 1.8595
-10.4973 10.7388 1.8595
-11.4133 9.7597 1.8595
-12.2383 8.7027 1.8595
-12.9658 7.5764 1.8595
-13.5899 6.3897 1.8595
-14.1057 5.1520 1.8595
-14.5090 3.8733 1.8595
-14.7966 2.5637 1.8595
-14.9663 1.2336 1.8595
-15.0167 -0.1062 1.8595
-14.9474 -1.4453 1.8595
-14.7589 -2.7728 1.8595
-14.4528 -4.0782 1.8595
-14.0314 -5.3511 1.8595
-13.4981 -6.5813 1.8595
-12.8573 -7.7591 1.8595
-12.1139 -8.8750 1.8595
-11.2740 -9.9201 1.8595
-10.3442 -10.8862 1.8595
-9.3320 -11.7655 1.8595
-8.2453 -12.5510 1.8595
-7.0929 -13.2364 1.8595
-5.8840 -13.8163 1.8595
-4.6282 -14.2861 1.8595
-3.3354 -14.6420 1.8595
-2.0161 -14.8811 1.8595
-0.6807 -15.0017 1.8595
0.6601 -15.0026 1.8595
1.9957 -14.8839 1.8595
3.3154 -14.6466 1.8595
4.6086 -14.2924 1.8595
5.8650 -13.8244 1.8595
7.0748 -13.2462 1.8595
8.2281 -12.5623 1.8595
9.3158 -11.7783 1.8595
10.3293 -10.9004 1.8595
11.2604 -9.9356 1.8595
12.1018 -8.8916 1.8595
12.8466 -7.7767 1.8595
13.4891 -6.5998 1.8595
14.0240 -5.3703 1.8595
9.4362 -2.6767 1.2146
14.7551 -2.7931 1.8595
14.9454 -1.4658 1.8595
14.1985 -0.1199 1.7582
13.7413 1.1137 1.7071
13.5872 2.3349 1.7071
13.3248 3.5376 1.7071
12.9562 4.7120 1.7071
12.4842 5.8489 1.7071
11.9128 6.9391 1.7071
11.2463 7.9741 1.7071
8.4521 7.2074 1.3755
9.6505 9.8455 1.7071
8.7338 10.6670 1.7071
7.7476 11.4035 1.7071
6.6995 12.0492 1.7071
5.5981 12.5987 1.7071
4.4519 13.0478 1.7071
3.2704 13.3929 1.7071
2.0628 13.6312 1.7071
0.8387 13.7609 1.7071
-0.3921 13.7808 1.7071
-1.6198 13.6909 1.7071
-2.8345 13.4919 1.7071
-4.0267 13.1852 1.7071
-5.1867 12.7735 1.7071
-6.3054 12.2600 1.7071
-7.4799 11.8161 1.7317
-9.1319 11.9215 1.8595
-10.1589 11.0595 1.8595
-11.1049 10.1093 1.8595
-11.9623 9.0784 1.8595
-12.7244 7.9752 1.8595
-13.3850 6.8085 1.8595
-13.9390 5.5874 1.8595
-14.3818 4.3218 1.8595
-14.7099 3.0218 1.8595
-14.9208 1.6976 1.8595
-15.0128 0.3600 1.8595
-14.9851 -0.9806 1.8595
-14.7788 -2.3041 1.8521
-14.5724 -3.6276 1.8595
-14.1907 -4.9130 1.8595
-13.6959 -6.1591 1.8595
-13.0919 -7.3562 1.8595
-12.3836 -8.4947 1.8595
-11.5765 -9.5654 1.8595
-10.6772 -10.5599 1.8595
-9.6927 -11.4702 1.8595
-8.6309 -12.2890 1.8595
-7.5004 -13.0099 1.8595
-6.3100 -13.6270 1.8595
-5.0694 -14.1356 1.8595
-3.7883 -14.5314 1.8595
-2.4771 -14.8114 1.8595
-1.1461 -14.9733 1.8595
0.1941 -15.0158 1.8595
1.5327 -14.9387 1.8595
2.8591 -14.7424 1.8595
4.1627 -14.4286 1.8595
5.4331 -13.9998 1.8595
6.6602 -13.4594 1.8595
7.8342 -12.8117 1.8595
8.9457 -12.0618 1.8595
9.9860 -11.2158 1.8595
10.9466 -10.2804 1.8595
11.8200 -9.2630 1.8595
12.5991 -8.1718 1.8595
13.2777 -7.0154 1.8595
13.8506 -5.8031 1.8595
10.0267 -3.1836 1.3027
9.8542 -2.1842 1.2498
14.8927 -1.9290 1.8595
14.7007 -0.5809 1.8218
13.7693 0.6866 1.7071
13.6532 1.9120 1.7071
13.4282 3.1223 1.7071
10.1687 3.3447 1.3255
12.6598 5.4585 1.7071
12.1224 6.5660 1.7071
11.4884 7.6211 1.7071
10.7628 8.6155 1.7071
9.9515 9.5411 1.7071
9.0607 10.3908 1.7071
8.0978 11.1575 1.7071
7.0703 11.8354 1.7071
5.9864 12.4189 1.7071
4.8548 12.9033 1.7071
3.6845 13.2849 1.7071
2.4849 13.5606 1.7071
1.2654 13.7282 1.7071
0.0358 13.7864 1.7071
-1.1940 13.7346 1.7071
-2.4144 13.5734 1.7071
-3.6154 13.3039 1.7071
-4.7877 12.9284 1.7071
-5.9218 12.4498 1.7071
-7.0087 11.8719 1.7071
-8.7199 12.1470 1.8516
-9.8107 11.3695 1.8595
-10.7857 10.4491 1.8595
-11.6747 9.4454 1.8595
-12.4707 8.3664 1.8595
-13.1672 7.2207 1.8595
-13.7588 6.0174 1.8595
-14.2407 4.7662 1.8595
-14.6091 3.4769 1.8595
-14.8610 2.1600 1.8595
-14.9944 0.8258 1.8595
-15.0083 -0.5150 1.8595
-14.9025 -1.8516 1.8595
-14.6779 -3.1735 1.8595
-14.3364 -4.4701 1.8595
-13.8252 -5.7082 1.8521
-13.3140 -6.9463 1.8595
-12.6413 -8.1062 1.8595
-11.8679 -9.2014 1.8595
-10.9998 -10.2234 1.8595
-10.0441 -11.1638 1.8595
-9.0083 -12.0152 1.8595
-7.9006 -12.7708 1.8595
-6.7300 -13.4246 1.8595
-5.5057 -13.9714 1.8595
-4.2376 -14.4068 1.8595
-2.9357 -14.7273 1.8595
-1.6103 -14.9305 1.8595
-0.2721 -15.0146 1.8595
1.0683 -14.9790 1.8595
2.4001 -14.8241 1.8595
3.7128 -14.5509 1.8595
4.9959 -14.1617 1.8595
6.2392 -13.6596 1.8595
7.4327 -13.0487 1.8595
8.5670 -12.3337 1.8595
9.6330 -11.5204 1.8595
10.6222 -10.6152 1.8595
11.5267 -9.6254 1.8595
12.3393 -8.5589 1.8595
13.0536 -7.4242 1.8595
13.6638 -6.2302 1.8595
14.1650 -4.9866 1.8595
9.6255 -2.4493 1.2299
14.8257 -2.3904 1.8595
14.9798 -1.0584 1.8595
13.7875 0.2589 1.7076
13.7059 1.4873 1.7071
13.5187 2.7039 1.7071
13.2236 3.8990 1.7071
12.8231 5.0629 1.7071
12.3204 6.1865 1.7071
11.7195 7.2608 1.7071
11.0251 8.2772 1.7071
8.2309 7.4152 1.3718
9.3789 10.1045 1.7071
8.4402 10.9008 1.7071
7.4343 11.6102 1.7071
6.3691 12.2270 1.7071
5.2530 12.7464 1.7071
4.0951 13.1641 1.7071
2.9046 13.4770 1.7071
1.6909 13.6823 1.7071
0.4638 13.7786 1.7071
-0.7671 13.7650 1.7071
-1.9919 13.6417 1.7071
-3.2007 13.4097 1.7071
-4.3841 13.0708 1.7071
-5.5325 12.6276 1.7071
-6.6368 12.0838 1.7071
-8.0412 11.9691 1.7855
-9.4530 11.6686 1.8595
-10.4561 10.7789 1.8595
-11.3759 9.8032 1.8595
-12.2050 8.7495 1.8595
-12.9367 7.6259 1.8595
-13.5654 6.4416 1.8595
-14.0859 5.2059 1.8595
-14.4941 3.9287 1.8595
-14.7868 2.6202 1.8595
-14.9615 1.2908 1.8595
-15.0170 -0.0489 1.8595
-14.9528 -1.3881 1.8595
-14.7694 -2.7163 1.8595
-14.4682 -4.0229 1.8595
-14.0517 -5.2974 1.8595
-13.5232 -6.5297 1.8595
-12.8868 -7.7099 1.8595
-12.1477 -8.8286 1.8595
-11.3118 -9.8770 1.8595
-10.3858 -10.8466 1.8595
-9.3768 -11.7297 1.8595
-8.2932 -12.5194 1.8595
-7.1435 -13.2092 1.8595
-5.9368 -13.7937 1.8595
-4.6828 -14.2683 1.8595
-3.3914 -14.6291 1.8595
-2.0730 -14.8733 1.8595
-0.7380 -14.9989 1.8595
0.6028 -15.0050 1.8595
1.9388 -14.8914 1.8595
3.2593 -14.6591 1.8595
4.5539 -14.3100 1.8595
5.8121 -13.8467 1.8595
7.0241 -13.2731 1.8595
8.1800 -12.5937 1.8595
9.2707 -11.8138 1.8595
10.2876 -10.9398 1.8595
11.2224 -9.9786 1.8595
12.0677 -8.9378 1.8595
12.8168 -7.8258 1.8595
13.4638 -6.6514 1.8595
14.0034 -5.4239 1.8595
9.5046 -2.7353 1.2247
14.7443 -2.8494 1.8595
14.9397 -1.5229 1.8595
14.2586 -0.1749 1.7657
13.7455 1.0611 1.7071
13.5961 2.2830 1.7071
13.3382 3.4866 1.7071
12.9741 4.6624 1.7071
12.5065 5.8011 1.7071
11.9392 6.8935 1.7071
11.2767 7.9310 1.7071
8.4909 7.1847 1.3773
9.6881 9.8085 1.7071
8.7746 10.6336 1.7071
7.7911 11.3738 1.7071
6.7455 12.0234 1.7071
5.6462 12.5772 1.7071
4.5018 13.0307 1.7071
3.3216 13.3803 1.7071
2.1148 13.6232 1.7071
0.8912 13.7576 1.7071
-0.3395 13.7822 1.7071
-1.5675 13.6970 1.7071
-2.7829 13.5026 1.7071
-3.9762 13.2005 1.7071
-5.1378 12.7932 1.7071
-6.2585 12.2840 1.7071
-7.4037 11.7954 1.7245
-9.0863 11.9564 1.8595
-10.1165 11.0982 1.8595
-11.0661 10.1516 1.8595
-11.9275 9.1241 1.8595
-12.6938 8.0238 1.8595
-13.3589 6.8596 1.8595
-13.9175 5.6406 1.8595
-14.3651 4.3768 1.8595
-14.6983 3.0780 1.8595
-14.9143 1.7546 1.8595
-15.0113 0.4173 1.8595
-14.9887 -0.9233 1.8595
-14.7928 -2.2484 1.8528
-14.5861 -3.5719 1.8595
-14.2094 -4.8587 1.8595
-13.7194 -6.1067 1.8595
-13.1200 -7.3061 1.8595
-12.4160 -8.4473 1.8595
-11.6130 -9.5211 1.8595
-10.7175 -10.5190 1.8595
-9.7364 -11.4330 1.8595
-8.6779 -12.2559 1.8595
-7.5501 -12.9811 1.8595
-6.3621 -13.6028 1.8595
-5.1234 -14.1161 1.8595
-3.8439 -14.5168 1.8595
-2.5337 -14.8018 1.8595
-1.2033 -14.9688 1.8595
0.1367 -15.0165 1.8595
1.4756 -14.9444 1.8595
2.8028 -14.7532 1.8595
4.1075 -14.4444 1.8595
5.3795 -14.0205 1.8595
6.6086 -13.4847 1.8595
7.7851 -12.8415 1.8595
8.8996 -12.0959 1.8595
9.9430 -11.2539 1.8595
10.9072 -10.3221 1.8595
11.7845 -9.3081 1.8595
12.5677 -8.2199 1.8595
13.2508 -7.0661 1.8595
13.8283 -5.8562 1.8595
10.1054 -3.2511 1.3145
9.8257 -2.2173 1.2473
14.8853 -1.9859 1.8595
14.7650 -0.6400 1.8300
13.7718 0.6340 1.7071
13.6604 1.8598 1.7071
13.4400 3.0709 1.7071
10.1648 3.3004 1.3234
12.6805 5.4101 1.7071
12.1474 6.5196 1.7071
11.5175 7.5771 1.7071
10.7957 8.5743 1.7071
9.9878 9.5031 1.7071
9.1004 10.3561 1.7071
8.1404 11.1265 1.7071
7.1155 11.8083 1.7071
6.0339 12.3959 1.7071
4.9041 12.8847 1.7071
3.7353 13.2707 1.7071
2.5367 13.5510 1.7071
1.3178 13.7233 1.7071
0.0885 13.7861 1.7071
-1.1415 13.7391 1.7071
-2.3625 13.5825 1.7071
-3.5646 13.3176 1.7071
-4.7383 12.9466 1.7071
-5.8742 12.4723 1.7071
-6.9633 11.8987 1.7071
-8.6347 12.1258 1.8433
-9.7671 11.4069 1.8595
-10.7457 10.4902 1.8595
-11.6385 9.4899 1.8595
-12.4386 8.4140 1.8595
-13.1395 7.2709 1.8595
-13.7357 6.0699 1.8595
-14.2224 4.8206 1.8595
-14.5957 3.5327 1.8595
-14.8526 2.2168 1.8595
-14.9911 0.8831 1.8595
-15.0101 -0.4576 1.8595
-14.9095 -1.7946 1.8595
-14.6900 -3.1173 1.8595
-14.3534 -4.4152 1.8595
-13.8470 -5.6553 1.8521
-13.3405 -6.8953 1.8595
-12.6722 -8.0578 1.8595
-11.9029 -9.1560 1.8595
-11.0388 -10.1812 1.8595
-10.0866 -11.1253 1.8595
-9.0541 -11.9807 1.8595
-7.9494 -12.7405 1.8595
-6.7813 -13.3988 1.8595
-5.5591 -13.9502 1.8595
-4.2926 -14.3905 1.8595
-2.9919 -14.7160 1.8595
-1.6673 -14.9242 1.8595
-0.3295 -15.0135 1.8595
1.0110 -14.9830 1.8595
2.3434 -14.8331 1.8595
3.6572 -14.5650 1.8595
4.9418 -14.1807 1.8595
6.1869 -13.6834 1.8595
7.3828 -13.0770 1.8595
8.5198 -12.3663 1.8595
9.5889 -11.5571 1.8595
10.5815 -10.6557 1.8595
11.4898 -9.6694 1.8595
12.3065 -8.6060 1.8595
13.0251 -7.4740 1.8595
13.6398 -6.2824 1.8595
14.1458 -5.0407 1.8595
9.5978 -2.4814 1.2275
14.8164 -2.4470 1.8595
14.9756 -1.1157 1.8595
13.8388 0.2069 1.7138
13.7115 1.4349 1.7071
13.5289 2.6522 1.7071
13.2384 3.8484 1.7071
12.8424 5.0139 1.7071
12.3439 6.1394 1.7071
11.7471 7.2160 1.7071
11.0567 8.2350 1.7071
8.2306 7.3581 1.3671
9.4175 10.0686 1.7071
8.4818 10.8685 1.7071
7.4786 11.5817 1.7071
6.4157 12.2026 1.7071
5.3017 12.7262 1.7071
4.1454 13.1484 1.7071
2.9561 13.4658 1.7071
1.7432 13.6758 1.7071
0.5164 13.7767 1.7071
-0.7145 13.7679 1.7071
-1.9397 13.6493 1.7071
-3.1494 13.4219 1.7071
-4.3341 13.0874 1.7071
-5.4842 12.6487 1.7071
-6.5906 12.1090 1.7071
-7.9603 11.9471 1.7777
-9.4084 11.7046 1.8595
-10.4149 10.8187 1.8595
-11.3384 9.8466 1.8595
-12.1715 8.7960 1.8595
-12.9075 7.6753 1.8595
-13.5407 6.4934 1.8595
-14.0659 5.2597 1.8595
-14.4790 3.9841 1.8595
-14.7766 2.6767 1.8595
-14.9565 1.3480 1.8595
-15.0171 0.0086 1.8595
-14.9580 -1.3309 1.8595
-14.7797 -2.6598 1.8595
-14.4835 -3.9676 1.8595
-14.0719 -5.2437 1.8595
-13.5481 -6.4780 1.8595
-12.9162 -7.6606 1.8595
-12.1814 -8.7821 1.8595
-11.3495 -9.8337 1.8595
-10.4272 -10.8068 1.8595
-9.4216 -11.6938 1.8595
-8.3411 -12.4876 1.8595
-7.1939 -13.1818 1.8595
-5.9895 -13.7710 1.8595
-4.7373 -14.2503 1.8595
-3.4473 -14.6160 1.8595
-2.1298 -14.8653 1.8595
-0.7954 -14.9960 1.8595
0.5454 -15.0072 1.8595
1.8818 -14.8987 1.8595
3.2032 -14.6715 1.8595
4.4992 -14.3272 1.8595
5.7592 -13.8688 1.8595
6.9733 -13.2998 1.8595
8.1319 -12.6248 1.8595
9.2255 -11.8492 1.8595
10.2457 -10.9790 1.8595
11.1841 -10.0214 1.8595
12.0334 -8.9839 1.8595
12.7868 -7.8747 1.8595
13.4383 -6.7028 1.8595
13.9825 -5.4774 1.8595
9.5741 -2.7950 1.2350
14.7333 -2.9058 1.8595
14.9338 -1.5800 1.8595
14.3191 -0.2305 1.7733
13.7494 1.0086 1.7071
13.6047 2.2310 1.7071
13.3514 3.4356 1.7071
12.9918 4.6128 1.7071
12.5286 5.7533 1.7071
11.9654 6.8479 1.7071
11.3069 7.8879 1.7071
8.5299 7.1619 1.3792
9.7255 9.7714 1.7071
8.8151 10.6000 1.7071
7.8345 11.3440 1.7071
6.7914 11.9976 1.7071
5.6942 12.5555 1.7071
4.5516 13.0134 1.7071
3.3727 13.3675 1.7071
2.1669 13.6151 1.7071
0.9438 13.7541 1.7071
-0.2868 13.7834 1.7071
-1.5151 13.7029 1.7071
-2.7313 13.5131 1.7071
-3.9258 13.2156 1.7071
-5.0889 12.8128 1.7071
-6.2115 12.3078 1.7071
-7.3309 11.7792 1.7180
-9.0405 11.9910 1.8595
-10.0741 11.1368 1.8595
-11.0272 10.1938 1.8595
-11.8926 9.1696 1.8595
-12.6631 8.0723 1.8595
-13.3326 6.9106 1.8595
-13.8959 5.6938 1.8595
-14.3484 4.4316 1.8595
-14.6864 3.1341 1.8595
-14.9074 1.8116 1.8595
-15.0096 0.4747 1.8595
-14.9921 -0.8660 1.8595
-14.8007 -2.1917 1.8527
-14.5997 -3.5161 1.8595
-14.2278 -4.8044 1.8595
-13.7426 -6.0543 1.8595
-13.1478 -7.2560 1.8595
-12.4481 -8.3998 1.8595
-11.6493 -9.4766 1.8595
-10.7576 -10.4779 1.8595
-9.7801 -11.3957 1.8595
-8.7246 -12.2227 1.8595
-7.5996 -12.9522 1.8595
-6.4140 -13.5784 1.8595
-5.1773 -14.0964 1.8595
-3.8993 -14.5020 1.8595
-2.5902 -14.7920 1.8595
-1.2605 -14.9641 1.8595
0.0793 -15.0169 1.8595
1.4185 -14.9499 1.8595
2.7463 -14.7638 1.8595
4.0522 -14.4600 1.8595
5.3259 -14.0409 1.8595
6.5571 -13.5099 1.8595
7.7360 -12.8712 1.8595
8.8533 -12.1298 1.8595
9.8999 -11.2918 1.8595
10.8677 -10.3638 1.8595
11.7488 -9.3531 1.8595
12.5362 -8.2678 1.8595
13.2237 -7.1167 1.8595
13.8058 -5.9088 1.8595
10.1855 -3.3199 1.3265
9.7972 -2.2503 1.2447
14.8775 -2.0428 1.8595
14.8283 -0.6995 1.8382
13.7741 0.5813 1.7071
13.6674 1.8076 1.7071
13.4517 3.0195 1.7071
13.1287 4.2074 1.7071
12.7010 5.3616 1.7071
12.1723 6.4732 1.7071
11.5463 7.5331 1.7071
10.8284 8.5330 1.7071
10.0241 9.4648 1.7071
9.1399 10.3212 1.7071
8.1828 11.0953 1.7071
7.1606 11.7810 1.7071
6.0812 12.3727 1.7071
4.9533 12.8658 1.7071
3.7860 13.2564 1.7071
2.5885 13.5412 1.7071
1.3703 13.7181 1.7071
0.1412 13.7857 1.7071
-1.0890 13.7433 1.7071
-2.3105 13.5914 1.7071
-3.5136 13.3311 1.7071
-4.6888 12.9646 1.7071
-5.8265 12.4947 1.7071
-6.9177 11.9252 1.7071
-8.5502 12.1048 1.8351
-9.7235 11.4442 1.8595
-10.7055 10.5312 1.8595
-11.6022 9.5344 1.8595
-12.4064 8.4615 1.8595
-13.1117 7.3211 1.8595
-13.7124 6.1224 1.8595
-14.2038 4.8749 1.8595
-14.5821 3.5885 1.8595
-14.8440 2.2735 1.8595
-14.9876 0.9404 1.8595
-15.0118 -0.4002 1.8595
-14.9162 -1.7376 1.8595
-14.7018 -3.0612 1.8595
-14.3701 -4.3603 1.8595
-13.8684 -5.6024 1.8521
-13.3667 -6.8443 1.8595
-12.7029 -8.0093 1.8595
-11.9378 -9.1105 1.8595
-11.0776 -10.1390 1.8595
-10.1291 -11.0867 1.8595
-9.0998 -11.9460 1.8595
-7.9980 -12.7100 1.8595
-6.8324 -13.3728 1.8595
-5.6124 -13.9289 1.8595
-4.3476 -14.3740 1.8595
-3.0481 -14.7045 1.8595
-1.7244 -14.9178 1.8595
-0.3869 -15.0121 1.8595
0.9537 -14.9868 1.8595
2.2867 -14.8420 1.8595
3.6014 -14.5788 1.8595
4.8875 -14.1995 1.8595
6.1346 -13.7069 1.8595
7.3327 -13.1051 1.8595
8.4725 -12.3988 1.8595
9.5446 -11.5937 1.8595
10.5407 -10.6961 1.8595
11.4528 -9.7133 1.8595
12.2735 -8.6530 1.8595
12.9964 -7.5237 1.8595
13.6157 -6.3345 1.8595
14.1265 -5.0948 1.8595
9.5703 -2.5133 1.2252
14.8069 -2.5037 1.8595
14.9713 -1.1729 1.8595
13.8904 0.1546 1.7201
13.7169 1.3825 1.7071
13.5389 2.6005 1.7071
13.2530 3.7977 1.7071
12.8614 4.9648 1.7071
12.3673 6.0922 1.7071
11.7746 7.1711 1.7071
11.0880 8.1927 1.7071
8.2562 7.3243 1.3667
9.4559 10.0325 1.7071
8.5233 10.8360 1.7071
7.5228 11.5530 1.7071
6.4623 12.1780 1.7071
5.3503 12.7059 1.7071
4.1956 13.1325 1.7071
3.0076 13.4544 1.7071
1.7955 13.6690 1.7071
0.5691 13.7747 1.7071
-0.6618 13.7705 1.7071
-1.8875 13.6566 1.7071
-3.0981 13.4338 1.7071
-4.2840 13.1039 1.7071
-5.4358 12.6695 1.7071
-6.5442 12.1342 1.7071
-7.8801 11.9252 1.7699
-9.3636 11.7405 1.8595
-10.3735 10.8585 1.8595
-11.3006 9.8899 1.8595
-12.1378 8.8425 1.8595
-12.8781 7.7246 1.8595
-13.5158 6.5451 1.8595
-14.0457 5.3134 1.8595
-14.4637 4.0394 1.8595
-14.7663 2.7332 1.8595
-14.9512 1.4052 1.8595
-15.0170 0.0660 1.8595
-14.9630 -1.2737 1.8595
-14.7897 -2.6033 1.8595
-14.4986 -3.9122 1.8595
-14.0918 -5.1899 1.8595
-13.5727 -6.4261 1.8595
-12.9454 -7.6112 1.8595
-12.2149 -8.7355 1.8595
-11.3870 -9.7902 1.8595
-10.4683 -10.7669 1.8595
-9.4663 -11.6577 1.8595
-8.3887 -12.4556 1.8595
-7.2442 -13.1542 1.8595
-6.0420 -13.7480 1.8595
-4.7916 -14.2321 1.8595
-3.5031 -14.6028 1.8595
-2.1866 -14.8570 1.8595
-0.8527 -14.9929 1.8595
0.4880 -15.0092 1.8595
1.8248 -14.9058 1.8595
3.1472 -14.6836 1.8595
4.4443 -14.3444 1.8595
5.7062 -13.8907 1.8595
6.9224 -13.3264 1.8595
8.0835 -12.6558 1.8595
9.1802 -11.8843 1.8595
11.0070 -9.1203 1.8595
11.7767 -8.1021 1.8595
12.4524 -7.0194 1.8595
13.0289 -5.8807 1.8595
13.5015 -4.6951 1.8595
9.6525 -2.4169 1.2944
14.1209 -2.2214 1.8595
14.2627 -0.9530 1.8595
13.6888 0.3094 1.7812
13.0409 1.4656 1.7071
12.8582 2.6230 1.7071
12.5730 3.7595 1.7071
12.1876 4.8659 1.7071
11.7050 5.9336 1.7071
11.1291 6.9541 1.7071
10.4644 7.9190 1.7071
8.2699 7.5077 1.4530
8.8908 9.6524 1.7071
7.9944 10.4069 1.7071
7.0343 11.0785 1.7071
6.0181 11.6618 1.7071
4.9538 12.1521 1.7071
3.8502 12.5455 1.7071
2.7158 12.8390 1.7071
1.5598 13.0300 1.7071
0.3913 13.1172 1.7071
-0.7803 13.0998 1.7071
-1.9456 12.9780 1.7071
-3.0955 12.7527 1.7071
-4.2207 12.4258 1.7071
-5.3122 11.9998 1.7071
-6.3673 11.4887 1.7087
-8.0169 11.8349 1.8595
-9.0405 11.0726 1.8595
-9.9922 10.2221 1.8595
-10.8641 9.2901 1.8595
-11.6495 8.2840 1.8595
-12.3419 7.2119 1.8595
-12.9360 6.0822 1.8595
-13.4270 4.9041 1.8595
-13.8109 3.6869 1.8595
-14.0847 2.4403 1.8595
-14.2462 1.1743 1.8595
-14.2942 -0.1011 1.8595
-14.2282 -1.3757 1.8595
-13.9928 -2.6289 1.8521
-13.7573 -3.8820 1.8595
-13.3562 -5.0936 1.8595
-12.8486 -6.2646 1.8595
-12.2387 -7.3858 1.8595
-11.5311 -8.4479 1.8595
-10.7316 -9.4428 1.8595
-9.8465 -10.3624 1.8595
-8.8829 -11.1994 1.8595
-7.8486 -11.9471 1.8595
-6.7516 -12.5995 1.8595
-5.6009 -13.1515 1.8595
-4.4055 -13.5987 1.8595
-3.1749 -13.9375 1.8595
-1.9191 -14.1651 1.8595
-0.6480 -14.2798 1.8595
0.6284 -14.2807 1.8595
1.8997 -14.1677 1.8595
3.1558 -13.9418 1.8595
4.3868 -13.6047 1.8595
5.5828 -13.1592 1.8595
6.7344 -12.6088 1.8595
7.8322 -11.9579 1.8595
8.8676 -11.2116 1.8595
9.8323 -10.3759 1.8595
10.7186 -9.4576 1.8595
11.5195 -8.4638 1.8595
12.2285 -7.4025 1.8595
12.8400 -6.2823 1.8595
13.3492 -5.1119 1.8595
9.4406 -2.6779 1.2765
14.0451 -2.6587 1.8595
14.2263 -1.3953 1.8595
14.1737 -0.1197 1.8439
13.0801 1.0601 1.7071
12.9334 2.2226 1.7071
12.6837 3.3674 1.7071
12.3327 4.4853 1.7071
11.8835 5.5675 1.7071
11.3395 6.6052 1.7071
10.7052 7.5904 1.7071
8.4449 7.2013 1.4437
9.1861 9.3717 1.7071
8.3136 10.1538 1.7071
7.3748 10.8548 1.7071
6.3771 11.4694 1.7071
5.3287 11.9925 1.7071
4.2377 12.4200 1.7071
3.1130 12.7485 1.7071
1.9635 12.9753 1.7071
0.7983 13.0987 1.7071
-0.3733 13.1178 1.7071
-1.5419 13.0322 1.7071
-2.6981 12.8427 1.7071
-3.8329 12.5508 1.7071
-4.9371 12.1589 1.7071
-6.0020 11.6701 1.7071
-7.4672 11.7962 1.8161
-8.6925 11.3479 1.8595
-9.6700 10.5273 1.8595
-10.5705 9.6228 1.8595
-11.3867 8.6416 1.8595
-12.1121 7.5915 1.8595
-12.7410 6.4809 1.8595
-13.2683 5.3186 1.8595
-13.6898 4.1139 1.8595
-14.0022 2.8764 1.8595
-14.2029 1.6159 1.8595
-14.2905 0.3426 1.8595
-14.2640 -0.9334 1.8595
-14.1239 -2.2020 1.8595
-13.8712 -3.4530 1.8595
-13.5079 -4.6766 1.8595
-13.0369 -5.8628 1.8595
-12.4620 -7.0023 1.8595
-11.7878 -8.0859 1.8595
-11.0195 -9.1052 1.8595
-10.1634 -10.0518 1.8595
-9.2263 -10.9183 1.8595
-8.2157 -11.6977 1.8595
-7.1395 -12.3839 1.8595
-6.0064 -12.9714 1.8595
-4.8255 -13.4554 1.8595
-3.6060 -13.8322 1.8595
-2.3579 -14.0987 1.8595
-1.0909 -14.2528 1.8595
0.1848 -14.2933 1.8595
1.4590 -14.2199 1.8595
2.7215 -14.0331 1.8595
3.9624 -13.7344 1.8595
5.1716 -13.3262 1.8595
6.3398 -12.8118 1.8595
7.4572 -12.1952 1.8595
8.5153 -11.4814 1.8595
9.5055 -10.6761 1.8595
10.4198 -9.7857 1.8595
11.2512 -8.8173 1.8595
11.9928 -7.7786 1.8595
12.6389 -6.6778 1.8595
13.1842 -5.5239 1.8595
10.0317 -3.1852 1.3692
9.8534 -2.1840 1.3129
14.1761 -1.8362 1.8595
14.2834 -0.5644 1.8595
13.2892 0.6627 1.7309
12.9962 1.8200 1.7071
12.7820 2.9720 1.7071
10.1687 3.3447 1.3925
12.0506 5.1959 1.7071
11.5391 6.2501 1.7071
10.9356 7.2544 1.7071
10.2450 8.2009 1.7071
9.4726 9.0821 1.7071
8.6248 9.8908 1.7071
7.7082 10.6207 1.7071
6.7301 11.2659 1.7071
5.6984 11.8213 1.7071
4.6212 12.2824 1.7071
3.5072 12.6457 1.7071
2.3653 12.9081 1.7071
1.2045 13.0677 1.7071
0.0340 13.1230 1.7071
-1.1366 13.0737 1.7071
-2.2982 12.9202 1.7071
-3.4415 12.6637 1.7071
-4.5574 12.3063 1.7071
-5.6369 11.8507 1.7071
-6.8623 11.6239 1.7559
-8.3360 11.6123 1.8595
-9.3386 10.8225 1.8595
-10.2667 9.9463 1.8595
-11.1130 8.9909 1.8595
-11.8707 7.9638 1.8595
-12.5337 6.8732 1.8595
-13.0968 5.7279 1.8595
-13.5555 4.5368 1.8595
-13.9061 3.3096 1.8595
-14.1459 2.0560 1.8595
-14.2729 0.7861 1.8595
-14.2861 -0.4902 1.8595
-14.1290 -1.7555 1.8521
-13.9717 -3.0208 1.8595
-13.6466 -4.2550 1.8595
-13.2126 -5.4553 1.8595
-12.6734 -6.6121 1.8595
-12.0330 -7.7161 1.8595
-11.2968 -8.7587 1.8595
-10.4705 -9.7315 1.8595
-9.5608 -10.6266 1.8595
-8.5748 -11.4370 1.8595
-7.5205 -12.1563 1.8595
-6.4062 -12.7787 1.8595
-5.2408 -13.2991 1.8595
-4.0337 -13.7136 1.8595
-2.7944 -14.0187 1.8595
-1.5328 -14.2121 1.8595
-0.2590 -14.2922 1.8595
1.0169 -14.2583 1.8595
2.2846 -14.1108 1.8595
3.5342 -13.8507 1.8595
4.7555 -13.4803 1.8595
5.9390 -13.0024 1.8595
7.0751 -12.4208 1.8595
8.1548 -11.7402 1.8595
9.1695 -10.9660 1.8595
10.1111 -10.1044 1.8595
10.9721 -9.1623 1.8595
11.7456 -8.1471 1.8595
12.4255 -7.0669 1.8595
13.0063 -5.9304 1.8595
13.4834 -4.7467 1.8595
9.6247 -2.4491 1.2919
14.1123 -2.2753 1.8595
14.2590 -1.0075 1.8595
13.7467 0.2582 1.7886
13.0465 1.4158 1.7071
12.8682 2.5738 1.7071
12.5873 3.7114 1.7071
12.2061 4.8193 1.7071
11.7275 5.8888 1.7071
11.1555 6.9115 1.7071
10.4946 7.8790 1.7071
8.2172 7.4028 1.4387
8.9276 9.6183 1.7071
8.0341 10.3763 1.7071
7.0766 11.0515 1.7071
6.0626 11.6387 1.7071
5.0003 12.1331 1.7071
3.8981 12.5307 1.7071
2.7648 12.8285 1.7071
1.6095 13.0240 1.7071
0.4414 13.1156 1.7071
-0.7302 13.1027 1.7071
-1.8961 12.9854 1.7071
-3.0467 12.7645 1.7071
-4.1731 12.4418 1.7071
-5.2663 12.0200 1.7071
-6.3175 11.5023 1.7071
-7.9716 11.8654 1.8595
-8.9982 11.1071 1.8595
-9.9530 10.2602 1.8595
-10.8285 9.3315 1.8595
-11.6177 8.3285 1.8595
-12.3143 7.2590 1.8595
-12.9127 6.1316 1.8595
-13.4081 4.9554 1.8595
-13.7967 3.7397 1.8595
-14.0753 2.4941 1.8595
-14.2417 1.2287 1.8595
-14.2944 -0.0465 1.8595
-14.2333 -1.3213 1.8595
-14.0028 -2.5754 1.8521
-13.7721 -3.8293 1.8595
-13.3756 -5.0425 1.8595
-12.8725 -6.2155 1.8595
-12.2668 -7.3389 1.8595
-11.5633 -8.4038 1.8595
-10.7676 -9.4017 1.8595
-9.8860 -10.3247 1.8595
-8.9257 -11.1654 1.8595
-7.8942 -11.9170 1.8595
-6.7998 -12.5736 1.8595
-5.6511 -13.1300 1.8595
-4.4574 -13.5818 1.8595
-3.2282 -13.9252 1.8595
-1.9732 -14.1577 1.8595
-0.7025 -14.2772 1.8595
0.5738 -14.2830 1.8595
1.8455 -14.1749 1.8595
3.1025 -13.9538 1.8595
4.3348 -13.6214 1.8595
5.5325 -13.1805 1.8595
6.6861 -12.6345 1.8595
7.7864 -11.9877 1.8595
8.8247 -11.2454 1.8595
9.7926 -10.4134 1.8595
10.6824 -9.4985 1.8595
11.4870 -8.5077 1.8595
12.2001 -7.4492 1.8595
12.8160 -6.3313 1.8595
13.3296 -5.1629 1.8595
9.5090 -2.7366 1.2872
14.0349 -2.7123 1.8595
14.2209 -1.4496 1.8595
14.2342 -0.1746 1.8518
13.0841 1.0101 1.7071
12.9419 2.1731 1.7071
12.6964 3.3188 1.7071
12.3498 4.4381 1.7071
11.9047 5.5220 1.7071
11.3647 6.5618 1.7071
10.7341 7.5494 1.7071
8.4837 7.1785 1.4457
9.2219 9.3366 1.7071
8.3523 10.1219 1.7071
7.4162 10.8266 1.7071
6.4210 11.4449 1.7071
5.3745 11.9720 1.7071
4.2852 12.4037 1.7071
3.1617 12.7365 1.7071
2.0131 12.9677 1.7071
0.8483 13.0956 1.7071
-0.3231 13.1191 1.7071
-1.4920 13.0380 1.7071
-2.6491 12.8529 1.7071
-3.7849 12.5654 1.7071
-4.8906 12.1777 1.7071
-5.9574 11.6929 1.7071
-7.3912 11.7755 1.8086
-8.6490 11.3810 1.8595
-9.6297 10.5642 1.8595
-10.5336 9.6632 1.8595
-11.3536 8.6851 1.8595
-12.0830 7.6377 1.8595
-12.7161 6.5295 1.8595
-13.2478 5.3692 1.8595
-13.6740 4.1662 1.8595
-13.9911 2.9299 1.8595
-14.1966 1.6702 1.8595
-14.2890 0.3972 1.8595
-14.2675 -0.8789 1.8595
-14.1322 -2.1480 1.8595
-13.8843 -3.4000 1.8595
-13.5257 -4.6249 1.8595
-13.0592 -5.8129 1.8595
-12.4887 -6.9546 1.8595
-11.8186 -8.0408 1.8595
-11.0542 -9.0630 1.8595
-10.2018 -10.0129 1.8595
-9.2680 -10.8829 1.8595
-8.2603 -11.6662 1.8595
-7.1868 -12.3565 1.8595
-6.0559 -12.9483 1.8595
-4.8769 -13.4369 1.8595
-3.6589 -13.8183 1.8595
-2.4117 -14.0896 1.8595
-1.1454 -14.2486 1.8595
0.1301 -14.2939 1.8595
1.4046 -14.2253 1.8595
2.6679 -14.0434 1.8595
3.9099 -13.7494 1.8595
5.1207 -13.3459 1.8595
6.2907 -12.8359 1.8595
7.4106 -12.2236 1.8595
8.4713 -11.5139 1.8595
9.4646 -10.7124 1.8595
10.3824 -9.8255 1.8595
11.2174 -8.8602 1.8595
11.9630 -7.8243 1.8595
12.6132 -6.7261 1.8595
13.1629 -5.5742 1.8595
10.1105 -3.2528 1.3816
9.8248 -2.2172 1.3102
14.1690 -1.8904 1.8595
14.2812 -0.6190 1.8595
13.3439 0.6143 1.7377
13.0031 1.7704 1.7071
12.7933 2.9231 1.7071
10.1648 3.3004 1.3903
12.0704 5.1498 1.7071
11.5629 6.2059 1.7071
10.9633 7.2126 1.7071
10.2762 8.1617 1.7071
9.5073 9.0458 1.7071
8.6625 9.8578 1.7071
7.7487 10.5911 1.7071
6.7731 11.2401 1.7071
5.7435 11.7994 1.7071
4.6682 12.2647 1.7071
3.5556 12.6322 1.7071
2.4146 12.8990 1.7071
1.2544 13.0630 1.7071
0.0842 13.1228 1.7071
-1.0866 13.0780 1.7071
-2.2488 12.9289 1.7071
-3.3931 12.6768 1.7071
-4.5103 12.3236 1.7071
-5.5915 11.8722 1.7071
-6.7900 11.6025 1.7488
-8.2916 11.6440 1.8595
-9.2972 10.8581 1.8595
-10.2286 9.9855 1.8595
-11.0785 9.0333 1.8595
-11.8401 8.0091 1.8595
-12.5073 6.9211 1.8595
-13.0748 5.7779 1.8595
-13.5380 4.5886 1.8595
-13.8934 3.3628 1.8595
-14.1379 2.1101 1.8595
-14.2698 0.8406 1.8595
-14.2879 -0.4356 1.8595
-14.1356 -1.7015 1.8521
-13.9831 -2.9673 1.8595
-13.6627 -4.2028 1.8595
-13.2334 -5.4047 1.8595
-12.6985 -6.5635 1.8595
-12.0625 -7.6701 1.8595
-11.3302 -8.7155 1.8595
-10.5077 -9.6914 1.8595
-9.6013 -10.5900 1.8595
-8.6185 -11.4042 1.8595
-7.5669 -12.1275 1.8595
-6.4550 -12.7541 1.8595
-5.2916 -13.2790 1.8595
-4.0861 -13.6981 1.8595
-2.8479 -14.0079 1.8595
-1.5871 -14.2061 1.8595
-0.3137 -14.2911 1.8595
0.9623 -14.2621 1.8595
2.2307 -14.1194 1.8595
3.4812 -13.8641 1.8595
4.7040 -13.4984 1.8595
5.8892 -13.0250 1.8595
7.0276 -12.4478 1.8595
8.1099 -11.7713 1.8595
9.1275 -11.0010 1.8595
10.0724 -10.1430 1.8595
10.9370 -9.2041 1.8595
11.7144 -8.1919 1.8595
12.3984 -7.1144 1.8595
12.9835 -5.9801 1.8595
13.4652 -4.7982 1.8595
9.5970 -2.4812 1.2895
14.1035 -2.3293 1.8595
14.2551 -1.0620 1.8595
13.8052 0.2064 1.7961
13.0517 1.3658 1.7071
12.8779 2.5246 1.7071
12.6014 3.6632 1.7071
12.2244 4.7726 1.7071
11.7500 5.8440 1.7071
11.1819 6.8688 1.7071
10.5246 7.8388 1.7071
8.2211 7.3496 1.4345
8.9643 9.5841 1.7071
8.0737 10.3455 1.7071
7.1188 11.0244 1.7071
6.1070 11.6155 1.7071
5.0466 12.1139 1.7071
3.9460 12.5157 1.7071
2.8139 12.8178 1.7071
1.6593 13.0177 1.7071
0.4916 13.1138 1.7071
-0.6801 13.1054 1.7071
-1.8464 12.9925 1.7071
-2.9979 12.7760 1.7071
-4.1256 12.4577 1.7071
-5.2203 12.0400 1.7071
-6.2734 11.5264 1.7071
-7.9262 11.8958 1.8595
-8.9557 11.1414 1.8595
-9.9137 10.2982 1.8595
-10.7928 9.3728 1.8595
-11.5858 8.3728 1.8595
-12.2864 7.3060 1.8595
-12.8892 6.1810 1.8595
-13.3891 5.0066 1.8595
-13.7823 3.7924 1.8595
-14.0656 2.5479 1.8595
-14.2368 1.2832 1.8595
-14.2945 0.0082 1.8595
-14.2383 -1.2669 1.8595
-14.0125 -2.5218 1.8521
-13.7866 -3.7767 1.8595
-13.3948 -4.9914 1.8595
-12.8961 -6.1663 1.8595
-12.2947 -7.2920 1.8595
-11.5953 -8.3596 1.8595
-10.8034 -9.3605 1.8595
-9.9254 -10.2868 1.8595
-8.9683 -11.1312 1.8595
-7.9397 -11.8867 1.8595
-6.8477 -12.5476 1.8595
-5.7013 -13.1083 1.8595
-4.5093 -13.5646 1.8595
-3.2814 -13.9128 1.8595
-2.0273 -14.1500 1.8595
-0.7571 -14.2745 1.8595
0.5191 -14.2851 1.8595
1.7912 -14.1818 1.8595
3.0491 -13.9655 1.8595
4.2827 -13.6379 1.8595
5.4821 -13.2015 1.8595
6.6378 -12.6599 1.8595
7.7406 -12.0174 1.8595
8.7816 -11.2790 1.8595
9.7527 -10.4508 1.8595
10.6460 -9.5392 1.8595
11.4544 -8.5516 1.8595
12.1715 -7.4958 1.8595
12.7917 -6.3803 1.8595
13.3098 -5.2138 1.8595
9.5786 -2.7963 1.2981
14.0244 -2.7660 1.8595
14.2152 -1.5040 1.8595
14.2927 -0.2300 1.8595
13.0879 0.9601 1.7071
12.9501 2.1236 1.7071
12.7090 3.2703 1.7071
12.3667 4.3909 1.7071
11.9257 5.4765 1.7071
11.3897 6.5184 1.7071
10.7628 7.5083 1.7071
8.5226 7.1557 1.4476
9.2575 9.3012 1.7071
8.3909 10.0899 1.7071
7.4575 10.7981 1.7071
6.4646 11.4203 1.7071
5.4202 11.9514 1.7071
4.3326 12.3872 1.7071
3.2104 12.7243 1.7071
2.0626 12.9599 1.7071
0.8984 13.0923 1.7071
-0.2729 13.1202 1.7071
-1.4422 13.0436 1.7071
-2.5999 12.8629 1.7071
-3.7369 12.5798 1.7071
-4.8441 12.1963 1.7071
-5.9126 11.7156 1.7071
-7.3160 11.7551 1.8011
-8.6055 11.4140 1.8595
-9.5893 10.6009 1.8595
-10.4966 9.7034 1.8595
-11.3203 8.7284 1.8595
-12.0538 7.6839 1.8595
-12.6911 6.5781 1.8595
-13.2272 5.4198 1.8595
-13.6579 4.2184 1.8595
-13.9798 2.9833 1.8595
-14.1901 1.7245 1.8595
-14.2874 0.4519 1.8595
-14.2707 -0.8243 1.8595
-14.1403 -2.0939 1.8595
-13.8972 -3.3469 1.8595
-13.5432 -4.5732 1.8595
-13.0490 -5.7487 1.8549
-12.5152 -6.9068 1.8595
-11.8492 -7.9956 1.8595
-11.0888 -9.0207 1.8595
-10.2400 -9.9738 1.8595
-9.3095 -10.8474 1.8595
