ply
format ascii 1.0
element vertex 1975
property float32 x
property float32 y
property float32 z
end_header
-23.4646 -5.9212 -1.4926
-28.3360 -9.9128 -1.8516
-18.2172 -12.5849 -1.3656
-23.5521 -28.0625 -2.2596
-14.7384 -21.1371 -1.5893
-12.4514 -21.7693 -1.5468
-10.8740 -23.6964 -1.6081
-9.1520 -25.8001 -1.6884
-7.2330 -28.1460 -1.7924
-5.0427 -30.8162 -1.9260
-3.2365 -44.3417 -2.7422
0.6779 -41.1357 -2.5375
4.6334 -43.6225 -2.7057
33.7060 -26.2094 -2.6335
29.9381 -6.5134 -1.8897
27.4218 -3.4426 -1.7046
32.3568 -1.1507 -1.9970
34.9663 1.8827 -2.1598
18.1646 2.6179 -1.1319
17.0099 4.0271 -1.0781
15.9518 5.3184 -1.0371
14.9638 6.5242 -1.0068
8.2848 4.5313 -0.5824
13.9267 9.3213 -1.0336
32.4428 26.1908 -2.5717
30.0771 29.0779 -2.5803
22.7643 26.3270 -2.1466
20.7273 28.8130 -2.1892
10.2981 17.4051 -1.2473
7.7420 16.2368 -1.1095
6.5640 17.6746 -1.1629
5.2558 19.2711 -1.2320
3.7696 21.0848 -1.3211
1.9036 21.6823 -1.3425
-0.0355 20.0934 -1.2393
-1.9729 21.5957 -1.3375
-4.5029 24.6832 -1.5475
-7.4693 27.0111 -1.7285
-13.1107 34.9244 -2.3008
-41.4983 17.9190 -2.7879
-37.4256 12.3310 -2.4304
-33.0448 7.7002 -2.0927
-30.2139 4.2455 -1.8818
-27.9928 1.4081 -1.7287
-26.0058 -1.0168 -1.6052
-24.2709 -3.1341 -1.5094
-22.6318 -5.0077 -1.4296
-26.4912 -8.4012 -1.7141
-20.5108 -13.2953 -1.5076
-18.6266 -14.5896 -1.4593
-32.0753 -36.0105 -2.9744
-17.1539 -23.1202 -1.7756
-12.9465 -21.1644 -1.5302
-11.4073 -23.0448 -1.5860
-7.3531 -18.9408 -1.2532
-7.8913 -27.3434 -1.7553
-5.7996 -29.8935 -1.8781
-4.6722 -45.5182 -2.8222
-0.5457 -42.1369 -2.5991
3.2055 -41.8800 -2.5906
7.9795 -47.7061 -2.9833
30.8939 -7.6799 -1.9635
28.3398 -4.4083 -1.7690
31.3342 -2.0387 -1.9367
34.7533 0.8469 -2.1441
18.5581 2.1193 -1.1521
17.3780 3.5778 -1.0943
16.2915 4.9039 -1.0494
15.2829 6.1348 -1.0157
14.3296 7.2981 -0.9918
13.2254 8.2991 -0.9630
33.2210 25.2411 -2.5733
25.1008 22.8769 -2.0947
23.7350 25.8703 -2.1654
21.4073 27.9831 -2.1731
11.7584 18.6016 -1.3573
8.1078 15.7905 -1.0948
6.9645 17.1858 -1.1437
5.7036 18.7245 -1.2073
4.2825 20.4589 -1.2892
2.6172 22.2670 -1.3828
0.5683 20.5378 -1.2672
-1.2821 20.7600 -1.2829
-3.5690 23.4535 -1.4632
-6.6576 27.1632 -1.7249
-11.1188 32.4936 -2.1182
-43.4854 20.3153 -2.9603
-32.6249 11.8243 -2.1403
-39.6776 10.4857 -2.5312
-31.2022 5.3249 -1.9523
-28.6334 2.2865 -1.7717
-26.6284 -0.2570 -1.6425
-24.8193 -2.4649 -1.5383
-23.2137 -4.4243 -1.4575
-24.8999 -7.0972 -1.5969
-30.5896 -11.7594 -2.0213
-21.2735 -12.9170 -1.5350
-17.9440 -13.2219 -1.3747
-33.9120 -35.8883 -3.0454
-19.5663 -24.8114 -1.9489
-13.4899 -20.6615 -1.5219
-11.6001 -21.7967 -1.5229
-10.3050 -24.3916 -1.6332
-8.2447 -25.7037 -1.6649
-6.5204 -29.0147 -1.8342
-4.2316 -31.9417 -1.9874
-1.8314 -43.1904 -2.6663
1.9201 -40.8526 -2.5225
6.2543 -45.6007 -2.8389
31.0016 -7.8113 -1.7743
28.2810 -4.4911 -1.5892
31.2216 -2.1310 -1.7367
34.6151 0.7337 -1.9215
18.6167 2.0662 -1.0395
17.4184 3.5286 -0.9863
16.3285 4.8586 -0.9454
15.3176 6.0923 -0.9148
14.3627 7.2577 -0.8931
13.2570 8.2604 -0.8669
33.3049 25.1386 -2.3157
25.5516 23.1398 -1.9131
24.3575 26.3804 -1.9926
21.4800 27.8943 -1.9538
11.9313 18.7433 -1.2331
8.1467 15.7430 -0.9837
7.0069 17.1341 -1.0273
5.7509 18.6669 -1.0840
4.3363 20.3932 -1.1571
2.6968 22.3322 -1.2484
0.6334 20.5339 -1.1401
-1.2111 20.6766 -1.1494
-3.4924 23.4501 -1.3158
-6.5794 27.2174 -1.5540
-10.9227 32.2543 -1.8899
-43.7102 20.5897 -2.6814
-32.5551 11.9160 -1.9239
-39.5536 10.5874 -2.2724
-31.1785 5.4227 -1.7563
-28.7988 2.3918 -1.6037
-26.6973 -0.1730 -1.4816
-24.8796 -2.3912 -1.3871
-23.2679 -4.3581 -1.3137
-24.7412 -6.9673 -1.4265
-30.3359 -11.5516 -1.8015
-17.8042 -13.0319 -1.2245
-19.6313 -24.7320 -1.7524
-13.5627 -20.6297 -1.3701
-11.6539 -21.7311 -1.3685
-10.3650 -24.3182 -1.4671
-8.3650 -25.7968 -1.5050
-6.5961 -28.9225 -1.6463
-4.3131 -31.7818 -1.7799
-1.9740 -43.3072 -2.4059
1.7891 -40.8277 -2.2680
6.0782 -45.3858 -2.5412
32.0451 -9.0849 -1.8485
29.1124 -5.5058 -1.6443
28.1101 -2.7516 -1.5675
33.3842 -0.2749 -1.8528
18.9666 1.5417 -1.0561
17.7994 3.0635 -1.0023
16.6775 4.4327 -0.9577
15.6434 5.6948 -0.9239
14.6723 6.8799 -0.8993
13.7443 8.0125 -0.8829
19.0375 13.5091 -1.2955
31.7211 27.0716 -2.3143
29.3487 29.9669 -2.3278
22.1497 27.0770 -1.9414
13.7114 20.2019 -1.3550
9.1387 16.4551 -1.0446
7.3934 16.6623 -1.0116
6.1797 18.1435 -1.0637
4.8230 19.7993 -1.1309
3.2700 21.6946 -1.2176
1.2754 21.1388 -1.1753
-0.5730 19.7015 -1.0938
-2.6706 22.4471 -1.2545
-4.2061 19.9533 -1.1317
-7.9951 26.1145 -1.5157
-39.7591 15.8944 -2.3763
-38.4296 11.5084 -2.2263
-32.2387 6.5898 -1.8261
-29.4848 3.3248 -1.6467
-27.3535 0.6279 -1.5184
-25.4523 -1.6923 -1.4156
-23.7798 -3.7334 -1.3359
-23.3719 -5.8452 -1.3370
-28.1935 -9.7961 -1.6564
-18.0865 -12.4382 -1.2182
-17.9571 -14.8741 -1.2940
-24.6740 -29.2732 -2.1247
-14.8951 -21.2657 -1.4409
-12.4874 -21.7253 -1.3907
-10.9128 -23.6490 -1.4454
-9.1948 -25.7478 -1.5173
-7.2813 -28.0872 -1.6103
-5.0984 -30.7484 -1.7297
-3.3370 -44.4241 -2.4723
0.5919 -41.2047 -2.2870
4.5265 -43.4921 -2.4267
33.6412 -26.2733 -2.3689
30.0045 -6.5944 -1.7049
27.4770 -3.5085 -1.5373
32.2768 -1.2162 -1.7925
35.0246 1.8116 -1.9463
18.1934 2.5827 -1.0198
17.0360 3.9953 -0.9711
15.9760 5.2889 -0.9339
14.9865 6.4964 -0.9065
8.2912 4.5120 -0.5239
13.6485 9.0933 -0.9102
32.4988 26.1225 -2.3140
24.5111 23.5966 -1.8882
22.8116 26.2693 -1.9308
20.7765 28.7529 -1.9687
10.3950 17.4845 -1.1289
7.7687 16.2044 -0.9973
6.5932 17.6389 -1.0450
5.2886 19.2311 -1.1069
3.8073 21.0388 -1.1865
1.9536 21.7232 -1.2104
0.0070 20.1282 -1.1171
-1.9213 21.5326 -1.1997
-4.4338 24.5990 -1.3872
-7.4883 27.3045 -1.5713
-12.9562 34.7360 -2.0575
-16.9457 35.4100 -2.1786
-41.5064 18.0269 -2.5114
-37.3493 12.3935 -2.1839
-40.7692 9.5912 -2.3243
-30.3725 4.3333 -1.7026
-28.0436 1.4702 -1.5585
-26.0496 -0.9633 -1.4467
-24.3096 -3.0868 -1.3599
-22.6667 -4.9651 -1.2878
-26.3689 -8.3010 -1.5342
-21.4906 -13.8659 -1.4194
-18.7972 -14.6592 -1.3229
-32.1498 -35.9409 -2.6762
-15.7714 -21.1632 -1.4648
-12.9817 -21.1215 -1.3759
-11.4451 -22.9986 -1.4257
-7.3911 -18.9199 -1.1273
-7.9376 -27.2870 -1.5771
-5.8525 -29.8290 -1.6870
-4.7787 -45.6054 -2.5448
-0.6359 -42.2108 -2.3428
3.1075 -41.7604 -2.3240
7.8497 -47.5478 -2.6745
30.9656 -7.7674 -1.7717
28.2621 -4.4575 -1.5878
31.2590 -2.1003 -1.7387
34.6610 0.7713 -1.9240
18.6017 2.0844 -1.0388
17.4049 3.5450 -0.9857
16.3162 4.8737 -0.9450
15.3060 6.1065 -0.9145
14.3517 7.2712 -0.8929
13.2465 8.2733 -0.8667
33.2770 25.1728 -2.3156
25.5284 23.1681 -1.9132
24.1467 26.2077 -1.9777
21.4558 27.9239 -1.9543
11.8732 18.6958 -1.2291
8.1337 15.7588 -0.9842
6.9927 17.1513 -1.0279
5.7351 18.6861 -1.0848
4.3184 20.4151 -1.1580
2.6702 22.3104 -1.2470
0.6111 20.5157 -1.1391
-1.2347 20.7054 -1.1511
-3.5235 23.4880 -1.3181
-6.6068 27.2049 -1.5537
-10.9878 32.3337 -1.8952
-43.6350 20.4979 -2.6755
-32.5726 11.8834 -1.9242
-39.5948 10.5536 -2.2741
-31.1987 5.3922 -1.7571
-28.6606 2.3498 -1.5959
-26.6743 -0.2010 -1.4804
-24.8594 -2.4158 -1.3861
-23.2498 -4.3802 -1.3130
-24.7939 -7.0104 -1.4299
-30.4199 -11.6204 -1.8072
-17.7944 -13.0537 -1.2248
-19.6096 -24.7585 -1.7528
-13.5384 -20.6403 -1.3699
-11.6360 -21.7530 -1.3691
-10.3450 -24.3427 -1.4679
-8.3239 -25.7632 -1.5025
-6.5709 -28.9532 -1.6477
-4.2848 -31.8256 -1.7822
-1.9263 -43.2682 -2.4036
1.8327 -40.8360 -2.2685
6.1367 -45.4572 -2.5456
32.0061 -9.0373 -1.8457
29.0816 -5.4681 -1.6422
28.1443 -2.7249 -1.5692
33.4269 -0.2399 -1.8551
18.9940 1.5641 -1.0577
17.7855 3.0805 -1.0017
16.6648 4.4482 -0.9572
15.6316 5.7092 -0.9235
14.6611 6.8936 -0.8991
13.7335 8.0257 -0.8828
19.3175 13.7385 -1.3155
31.6931 27.1058 -2.3144
29.3204 30.0014 -2.3281
22.1258 27.1062 -1.9418
13.6412 20.1445 -1.3502
9.0970 16.4209 -1.0418
7.3797 16.6790 -1.0122
6.1646 18.1620 -1.0644
4.8059 19.8202 -1.1318
3.2501 21.7188 -1.2187
1.2545 21.1644 -1.1766
-0.5947 19.7279 -1.0953
-2.6988 22.4815 -1.2566
-4.2268 19.9470 -1.1316
-8.2184 26.7428 -1.5526
-39.7810 15.8544 -2.3766
-38.4692 11.4759 -2.2279
-32.0792 6.5218 -1.8167
-29.5187 3.2970 -1.6484
-27.3293 0.5984 -1.5170
-25.4313 -1.7179 -1.4146
-23.7611 -3.7563 -1.3350
-23.4182 -5.8831 -1.3400
-28.2646 -9.8543 -1.6612
-18.0672 -12.4531 -1.2178
-17.9212 -14.8763 -1.2926
-24.5044 -29.1344 -2.1127
-14.8163 -21.2011 -1.4354
-12.4694 -21.7473 -1.3912
-10.8934 -23.6727 -1.4462
-9.1734 -25.7740 -1.5183
-7.2571 -28.1166 -1.6115
-5.0706 -30.7823 -1.7313
-3.2867 -44.3829 -2.4698
0.6349 -41.1695 -2.2850
4.5798 -43.5571 -2.4306
33.6628 -26.2329 -2.3684
29.9713 -6.5539 -1.7026
27.4487 -3.4754 -1.5355
32.3167 -1.1835 -1.7947
34.9954 1.8472 -1.9448
18.1790 2.6003 -1.0191
17.0229 4.0112 -0.9706
15.9639 5.3037 -0.9336
14.9751 6.5103 -0.9062
8.2875 4.5214 -0.5239
13.7863 9.2062 -0.9200
32.4708 26.1566 -2.3140
24.4882 23.6246 -1.8883
22.7879 26.2982 -1.9312
20.7519 28.7830 -1.9692
10.3464 17.4447 -1.1256
7.7554 16.2206 -0.9978
6.5786 17.6567 -1.0457
5.2722 19.2511 -1.1077
3.7885 21.0618 -1.1876
1.9286 21.7028 -1.2092
-0.0142 20.1108 -1.1161
-1.9470 21.5641 -1.2016
-4.4683 24.6410 -1.3898
-7.5139 27.2848 -1.5706
-13.0332 34.8299 -2.0638
-17.0014 35.4301 -2.1809
-41.4567 17.9532 -2.5072
-37.3875 12.3623 -2.1854
-40.8123 9.5559 -2.3262
-30.3616 4.2990 -1.7018
-28.0183 1.4392 -1.5570
-26.0277 -0.9901 -1.4455
-24.2903 -3.1104 -1.3590
-22.6493 -4.9864 -1.2871
-26.4298 -8.3509 -1.5382
-19.1246 -12.3681 -1.2640
-18.7758 -14.6744 -1.3225
-32.1126 -35.9757 -2.6762
-15.7310 -21.1557 -1.4631
-12.9641 -21.1430 -1.3764
-11.4262 -23.0217 -1.4263
-7.3720 -18.9301 -1.1274
-7.9144 -27.3152 -1.5783
-5.8261 -29.8612 -1.6884
-4.7253 -45.5617 -2.5421
-0.5907 -42.1738 -2.3407
3.1565 -41.8202 -2.3275
7.9145 -47.6268 -2.6794
30.9298 -7.7237 -1.7692
28.2576 -4.4261 -1.5873
31.2965 -2.0696 -1.7406
34.7071 0.8091 -1.9267
18.5868 2.1026 -1.0381
17.3915 3.5615 -0.9852
16.3038 4.8888 -0.9446
15.2945 6.1206 -0.9142
14.3407 7.2847 -0.8927
13.2359 8.2862 -0.8666
33.2490 25.2069 -2.3155
25.5053 23.1963 -1.9133
23.9393 26.0377 -1.9629
21.4315 27.9535 -1.9548
11.8156 18.6486 -1.2252
8.1207 15.7747 -0.9846
6.9786 17.1685 -1.0285
5.7194 18.7053 -1.0855
4.3004 20.4370 -1.1590
2.6436 22.2887 -1.2456
0.5893 20.5122 -1.1388
-1.2585 20.7344 -1.1528
-3.5465 23.4720 -1.3174
-6.6323 27.1840 -1.5529
-11.0531 32.4134 -1.9005
-43.5602 20.4066 -2.6696
-32.5901 11.8507 -1.9245
-39.6361 10.5197 -2.2758
-31.2331 5.3641 -1.7587
-28.6338 2.3171 -1.5943
-26.6513 -0.2291 -1.4791
-24.8393 -2.4404 -1.3851
-23.2317 -4.4023 -1.3122
-24.8467 -7.0537 -1.4334
-30.5046 -11.6898 -1.8130
-17.7845 -13.0754 -1.2250
-34.1518 -36.0656 -2.7565
-19.5879 -24.7850 -1.7532
-13.5142 -20.6509 -1.3697
-11.6180 -21.7748 -1.3697
-10.3250 -24.3671 -1.4687
-8.2830 -25.7297 -1.5001
-6.5457 -28.9839 -1.6490
-4.2564 -31.8697 -1.7844
-1.8788 -43.2292 -2.4013
1.8763 -40.8443 -2.2691
6.1954 -45.5288 -2.5500
31.9673 -8.9898 -1.8429
29.0507 -5.4305 -1.6401
28.1786 -2.6981 -1.5710
33.4697 -0.2048 -1.8575
19.0104 1.5857 -1.0587
17.7716 3.0975 -1.0011
16.6521 4.4637 -0.9568
15.6198 5.7236 -0.9232
14.6499 6.9072 -0.8989
13.7227 8.0389 -0.8826
19.6061 13.9750 -1.3362
25.7570 22.0761 -1.8826
29.2921 30.0359 -2.3283
22.1018 27.1354 -1.9422
13.5717 20.0875 -1.3454
9.0555 16.3869 -1.0390
7.3660 16.6957 -1.0127
6.1494 18.1805 -1.0651
4.7887 19.8411 -1.1327
3.2303 21.7430 -1.2199
1.2335 21.1900 -1.1780
-0.6164 19.7544 -1.0968
-2.7271 22.5161 -1.2587
-4.2475 19.9408 -1.1315
-8.2435 26.7235 -1.5520
-39.7946 15.8110 -2.3764
-38.5088 11.4434 -2.2295
-32.0445 6.4795 -1.8143
-29.5143 3.2650 -1.6479
-27.3052 0.5689 -1.5157
-25.4104 -1.7435 -1.4135
-23.7424 -3.7791 -1.3342
-23.4646 -5.9212 -1.3430
-28.3360 -9.9129 -1.6660
-18.0574 -12.4745 -1.2180
-17.8875 -14.8804 -1.2913
-24.3366 -28.9972 -2.1009
-14.7384 -21.1371 -1.4300
-12.4514 -21.7693 -1.3918
-10.8740 -23.6965 -1.4469
-9.1520 -25.8001 -1.5192
-7.2330 -28.1460 -1.6128
-5.0427 -30.8162 -1.7329
-3.2365 -44.3417 -2.4674
0.6779 -41.1357 -2.2832
4.6334 -43.6225 -2.4345
33.7051 -26.2086 -2.3695
29.9381 -6.5134 -1.7003
27.4218 -3.4426 -1.5338
32.3568 -1.1507 -1.7968
34.9663 1.8827 -1.9433
18.1646 2.6179 -1.0185
17.0099 4.0271 -0.9701
15.9518 5.3184 -0.9332
14.9638 6.5242 -0.9059
8.2846 4.5312 -0.5240
13.9267 9.3213 -0.9300
32.4428 26.1908 -2.3139
24.4653 23.6525 -1.8885
22.7643 26.3270 -1.9315
20.7273 28.8130 -1.9698
10.2981 17.4051 -1.1223
7.7420 16.2368 -0.9983
6.5640 17.6746 -1.0463
5.2558 19.2711 -1.1085
3.7696 21.0848 -1.1887
1.9036 21.6823 -1.2079
-0.0354 20.0934 -1.1151
-1.9729 21.5957 -1.2035
-4.5029 24.6832 -1.3924
-7.5395 27.2651 -1.5699
-13.1106 34.9244 -2.0703
-41.4983 17.9190 -2.5085
-37.4256 12.3310 -2.1868
-33.0448 7.7002 -1.8830
-30.3313 4.2620 -1.6998
-27.9928 1.4081 -1.5555
-26.0058 -1.0168 -1.4443
-24.2709 -3.1341 -1.3581
-22.6318 -5.0077 -1.2864
-26.4912 -8.4012 -1.5423
-19.0845 -12.3708 -1.2622
-18.7544 -14.6896 -1.3221
-32.0753 -36.0105 -2.6763
-15.7127 -21.1779 -1.4635
-12.9465 -21.1644 -1.3769
-11.4073 -23.0448 -1.4270
-7.3530 -18.9404 -1.1276
-7.8913 -27.3434 -1.5794
-5.7996 -29.8935 -1.6899
-4.6722 -45.5182 -2.5394
-0.5457 -42.1369 -2.3387
3.2055 -41.8800 -2.3310
7.9795 -47.7062 -2.6843
30.8939 -7.6799 -1.7667
28.2400 -4.3928 -1.5861
31.3342 -2.0387 -1.7426
34.7533 0.8469 -1.9293
18.5718 2.1209 -1.0374
17.3780 3.5778 -0.9847
16.2915 4.9039 -0.9442
15.2829 6.1348 -0.9139
14.3296 7.2981 -0.8924
13.2254 8.2991 -0.8665
33.2210 25.2411 -2.3154
25.4822 23.2246 -1.9134
23.7349 25.8703 -1.9484
21.4073 27.9831 -1.9553
11.7584 18.6016 -1.2213
8.1078 15.7905 -0.9851
6.9645 17.1858 -1.0291
5.7036 18.7245 -1.0863
4.2825 20.4589 -1.1600
2.6172 22.2670 -1.2443
0.5683 20.5379 -1.1402
-1.2823 20.7634 -1.1545
-3.5690 23.4535 -1.3166
-6.6576 27.1633 -1.5521
-11.1188 32.4936 -1.9059
-43.4854 20.3153 -2.6637
-32.6236 11.8239 -1.9257
-39.6776 10.4857 -2.2776
-31.2022 5.3249 -1.7567
-28.6334 2.2865 -1.5941
-26.6284 -0.2570 -1.4779
-24.8193 -2.4649 -1.3842
-23.2137 -4.4243 -1.3115
-24.8998 -7.0972 -1.4369
-30.5896 -11.7594 -1.8187
-17.7747 -13.0971 -1.2253
-33.9120 -35.8883 -2.7402
-19.5663 -24.8114 -1.7536
-13.4899 -20.6615 -1.3694
-11.6001 -21.7967 -1.3703
-10.3050 -24.3916 -1.4695
-8.2447 -25.7037 -1.4981
-6.5204 -29.0147 -1.6504
-4.2316 -31.9417 -1.7881
-1.8314 -43.1904 -2.3991
1.9201 -40.8526 -2.2697
6.2543 -45.6007 -2.5544
31.0016 -7.8113 -1.5768
28.2810 -4.4911 -1.4123
29.0201 -1.9807 -1.4346
34.6151 0.7337 -1.7076
18.6167 2.0662 -0.9238
17.4184 3.5286 -0.8765
16.3285 4.8586 -0.8402
15.3176 6.0923 -0.8130
14.3627 7.2577 -0.7937
13.2570 8.2604 -0.7704
33.3050 25.1386 -2.0580
25.5516 23.1398 -1.7002
24.3574 26.3803 -1.7708
21.4800 27.8943 -1.7364
11.9313 18.7434 -1.0958
8.1467 15.7430 -0.8742
7.0069 17.1341 -0.9130
5.7509 18.6669 -0.9633
4.3363 20.3932 -1.0283
2.6967 22.3322 -1.1094
0.6334 20.5339 -1.0132
-1.2113 20.6800 -1.0217
-3.4924 23.4501 -1.1693
-6.5794 27.2174 -1.3810
-10.9228 32.2544 -1.6795
-43.7102 20.5896 -2.3830
-32.5543 11.9157 -1.7097
-39.5536 10.5874 -2.0194
-31.1785 5.4227 -1.5608
-28.7988 2.3918 -1.4252
-26.6973 -0.1730 -1.3167
-24.8796 -2.3912 -1.2327
-23.2679 -4.3581 -1.1675
-24.7412 -6.9672 -1.2677
-30.3359 -11.5516 -1.6010
-17.6816 -12.9422 -1.0807
-19.6313 -24.7320 -1.5573
-13.5627 -20.6297 -1.2176
-11.6539 -21.7311 -1.2162
-10.3650 -24.3182 -1.3038
-8.3650 -25.7968 -1.3375
-6.5961 -28.9224 -1.4631
-4.3131 -31.7817 -1.5818
-2.0208 -44.3343 -2.1888
1.8239 -41.6239 -2.0549
6.0782 -45.3858 -2.2584
32.0451 -9.0849 -1.6427
29.1124 -5.5058 -1.4613
28.0826 -2.7489 -1.3917
31.1246 -0.2563 -1.5351
18.9666 1.5417 -0.9385
17.7994 3.0635 -0.8908
16.6775 4.4327 -0.8511
15.6434 5.6948 -0.8211
14.6723 6.8799 -0.7992
13.5520 7.9004 -0.7737
19.0375 13.5091 -1.1513
26.1490 22.3163 -1.6955
29.3487 29.9669 -2.0687
22.1497 27.0770 -1.7253
13.7113 20.2019 -1.2042
9.1387 16.4551 -0.9283
7.3934 16.6623 -0.8990
6.1797 18.1435 -0.9453
4.8230 19.7993 -1.0050
3.2700 21.6946 -1.0821
1.2754 21.1388 -1.0445
-0.5730 19.7015 -0.9721
-2.6706 22.4471 -1.1149
-4.2060 19.9528 -1.0057
-7.9952 26.1145 -1.3470
-39.7591 15.8944 -2.1118
-38.4296 11.5084 -1.9785
-32.2387 6.5898 -1.6229
-29.4848 3.3248 -1.4634
-27.3534 0.6279 -1.3494
-25.4523 -1.6923 -1.2581
-23.7798 -3.7334 -1.1872
-23.3719 -5.8452 -1.1882
-28.1935 -9.7961 -1.4720
-18.0058 -12.3827 -1.0778
-19.3412 -16.0205 -1.2386
-24.6740 -29.2732 -1.8882
-14.8951 -21.2657 -1.2805
-12.4874 -21.7253 -1.2359
-10.9128 -23.6490 -1.2846
-9.1948 -25.7478 -1.3484
-7.2813 -28.0872 -1.4310
-4.9590 -29.9080 -1.4952
-3.4163 -45.4800 -2.2494
0.6059 -42.1777 -2.0804
4.6705 -44.8761 -2.2252
33.6404 -26.2726 -2.1052
30.0045 -6.5944 -1.5151
27.4757 -3.5084 -1.3661
30.0553 -1.1325 -1.4834
35.0246 1.8116 -1.7297
18.1934 2.5827 -0.9063
17.0360 3.9953 -0.8630
15.9760 5.2889 -0.8300
14.9865 6.4964 -0.8056
8.2909 4.5119 -0.4655
13.6485 9.0933 -0.8089
32.4988 26.1225 -2.0564
24.8402 23.9135 -1.7006
22.8116 26.2693 -1.7159
20.7765 28.7529 -1.7496
10.3950 17.4845 -1.0032
7.7687 16.2044 -0.8863
6.5932 17.6389 -0.9287
5.2886 19.2311 -0.9837
3.8073 21.0388 -1.0545
1.9536 21.7232 -1.0757
0.0070 20.1282 -0.9927
-1.9213 21.5326 -1.0662
-4.4338 24.5990 -1.2328
-7.5594 27.5638 -1.4096
-12.9562 34.7360 -1.8285
-16.9453 35.4092 -1.9360
-41.5064 18.0269 -2.2318
-37.3493 12.3935 -1.9408
-40.7692 9.5912 -2.0656
-30.3725 4.3333 -1.5131
-28.0437 1.4702 -1.3850
-26.0496 -0.9633 -1.2856
-24.3096 -3.0868 -1.2086
-22.6667 -4.9651 -1.1444
-26.3689 -8.3010 -1.3634
-19.0115 -12.2664 -1.1159
-18.9549 -14.7822 -1.1855
-32.1498 -35.9409 -2.3783
-15.7714 -21.1632 -1.3017
-12.9817 -21.1215 -1.2227
-11.4451 -22.9986 -1.2670
-7.3909 -18.9195 -1.0018
-7.9376 -27.2870 -1.4016
-5.8525 -29.8290 -1.4992
-4.7787 -45.6054 -2.2616
-0.6509 -43.2096 -2.1313
3.2063 -43.0873 -2.1309
7.8498 -47.5478 -2.3768
30.9656 -7.7674 -1.5745
28.2521 -4.4559 -1.4106
29.0548 -1.9522 -1.4362
34.6610 0.7713 -1.7099
18.6017 2.0844 -0.9232
17.4049 3.5450 -0.8760
16.3162 4.8737 -0.8398
15.3060 6.1065 -0.8128
14.3517 7.2712 -0.7935
13.2465 8.2733 -0.7703
33.2770 25.1728 -2.0579
25.5284 23.1681 -1.7003
24.1467 26.2077 -1.7575
21.4558 27.9239 -1.7368
11.8732 18.6958 -1.0923
8.1337 15.7588 -0.8746
6.9927 17.1513 -0.9135
5.7351 18.6861 -0.9640
4.3184 20.4151 -1.0291
2.6702 22.3104 -1.1082
0.6111 20.5157 -1.0123
-1.2350 20.7089 -1.0232
-3.5235 23.4880 -1.1714
-6.6068 27.2049 -1.3807
-10.9878 32.3337 -1.6842
-43.6350 20.4979 -2.3777
-32.5718 11.8831 -1.7100
-39.5948 10.5535 -2.0210
-31.1987 5.3922 -1.5615
-28.6606 2.3498 -1.4183
-26.6743 -0.2010 -1.3156
-24.8594 -2.4158 -1.2318
-23.2498 -4.3802 -1.1668
-24.7939 -7.0104 -1.2708
-30.4199 -11.6204 -1.6060
-17.6704 -12.9627 -1.0809
-19.6096 -24.7585 -1.5577
-13.5384 -20.6403 -1.2174
-11.6360 -21.7530 -1.2167
-10.3450 -24.3427 -1.3045
-8.3239 -25.7632 -1.3353
-6.5709 -28.9532 -1.4643
-4.2848 -31.8256 -1.5838
-1.9720 -44.2942 -2.1867
1.8690 -41.6435 -2.0559
6.1367 -45.4572 -2.2623
32.0061 -9.0373 -1.6403
29.0816 -5.4681 -1.4594
28.1153 -2.7221 -1.3931
31.1644 -0.2237 -1.5371
18.9940 1.5641 -0.9399
17.7855 3.0805 -0.8902
16.6648 4.4482 -0.8507
15.6316 5.7092 -0.8208
14.6611 6.8936 -0.7990
13.5414 7.9134 -0.7735
19.3175 13.7385 -1.1691
26.1259 22.3444 -1.6955
29.3204 30.0014 -2.0689
22.1258 27.1062 -1.7257
13.6412 20.1445 -1.1999
9.0970 16.4209 -0.9258
7.3797 16.6790 -0.8995
6.1646 18.1620 -0.9459
4.8059 19.8202 -1.0058
3.2501 21.7188 -1.0831
1.2545 21.1644 -1.0456
-0.5947 19.7279 -0.9734
-2.6988 22.4815 -1.1167
-4.2267 19.9466 -1.0056
-8.2955 26.9937 -1.3928
-39.7810 15.8544 -2.1121
-38.4692 11.4759 -1.9799
-32.0792 6.5218 -1.6145
-29.5187 3.2970 -1.4649
-27.3293 0.5984 -1.3482
-25.4313 -1.7179 -1.2571
-23.7611 -3.7563 -1.1864
-23.4182 -5.8831 -1.1909
-28.2646 -9.8543 -1.4763
-17.9930 -12.4019 -1.0778
-19.2846 -16.0081 -1.2361
-24.5044 -29.1344 -1.8776
-14.8164 -21.2011 -1.2757
-12.4694 -21.7473 -1.2364
-10.8934 -23.6727 -1.2852
-9.1734 -25.7740 -1.3493
-7.2571 -28.1166 -1.4322
-4.9320 -29.9410 -1.4966
-3.3648 -45.4378 -2.2471
0.6499 -42.1415 -2.0787
4.7256 -44.9433 -2.2288
33.6620 -26.2323 -2.1048
29.9713 -6.5539 -1.5131
27.4487 -3.4754 -1.3646
30.0925 -1.1020 -1.4852
34.9954 1.8472 -1.7284
18.1790 2.6003 -0.9057
17.0229 4.0112 -0.8626
15.9639 5.3036 -0.8296
14.9751 6.5103 -0.8053
8.2873 4.5213 -0.4656
13.7863 9.2062 -0.8176
32.4708 26.1566 -2.0564
24.8170 23.9418 -1.7007
22.7879 26.2982 -1.7162
20.7519 28.7830 -1.7500
10.3464 17.4447 -1.0003
7.7554 16.2206 -0.8867
6.5786 17.6567 -0.9293
5.2722 19.2511 -0.9844
3.7885 21.0618 -1.0554
1.9286 21.7028 -1.0746
-0.0142 20.1108 -0.9919
-1.9470 21.5641 -1.0679
-4.4683 24.6410 -1.2351
-7.5852 27.5438 -1.4090
-13.0332 34.8300 -1.8341
-17.0007 35.4287 -1.9381
-41.4567 17.9532 -2.2281
-37.3875 12.3623 -1.9421
-40.8123 9.5559 -2.0673
-30.3616 4.2990 -1.5124
-28.0183 1.4392 -1.3837
-26.0277 -0.9901 -1.2846
-24.2903 -3.1104 -1.2078
-22.6493 -4.9864 -1.1438
-26.4298 -8.3509 -1.3670
-18.9741 -12.2707 -1.1144
-18.9319 -14.7964 -1.1851
-32.1126 -35.9757 -2.3784
-15.7310 -21.1557 -1.3002
-12.9641 -21.1430 -1.2232
-11.4262 -23.0217 -1.2676
-7.3719 -18.9297 -1.0019
-7.9144 -27.3152 -1.4026
-5.8261 -29.8612 -1.5005
-4.7254 -45.5617 -2.2592
-0.6047 -43.1716 -2.1294
3.2568 -43.1490 -2.1342
7.9145 -47.6268 -2.3812
30.9298 -7.7237 -1.5723
28.2233 -4.4207 -1.4089
29.0897 -1.9237 -1.4378
34.7071 0.8091 -1.7122
18.5868 2.1026 -0.9225
17.3915 3.5615 -0.8755
16.3038 4.8888 -0.8395
15.2945 6.1206 -0.8125
14.3407 7.2847 -0.7933
13.2359 8.2862 -0.7702
33.2490 25.2069 -2.0578
25.5053 23.1963 -1.7003
23.9393 26.0377 -1.7444
21.4315 27.9535 -1.7372
11.8156 18.6486 -1.0888
8.1207 15.7747 -0.8750
6.9786 17.1685 -0.9140
5.7194 18.7053 -0.9647
4.3004 20.4370 -1.0300
2.6436 22.2887 -1.1070
0.5893 20.5122 -1.0121
-1.2587 20.7378 -1.0247
-3.5465 23.4720 -1.1708
-6.6323 27.1840 -1.3800
-11.0531 32.4134 -1.6890
-43.5602 20.4066 -2.3724
-32.5893 11.8504 -1.7103
-39.6361 10.5197 -2.0225
-31.2331 5.3641 -1.5630
-28.6338 2.3171 -1.4168
-26.6513 -0.2291 -1.3145
-24.8393 -2.4404 -1.2310
-23.2317 -4.4023 -1.1662
-24.8467 -7.0537 -1.2739
-30.5046 -11.6898 -1.6112
-17.6592 -12.9832 -1.0810
-34.1518 -36.0657 -2.4497
-19.5879 -24.7850 -1.5581
-13.5142 -20.6509 -1.2172
-11.6181 -21.7748 -1.2172
-10.3250 -24.3671 -1.3052
-8.2830 -25.7297 -1.3331
-6.5457 -28.9839 -1.4655
-4.2564 -31.8697 -1.5858
-1.9233 -44.2543 -2.1847
1.9139 -41.6632 -2.0570
6.1954 -45.5288 -2.2662
31.9673 -8.9898 -1.6378
29.0507 -5.4305 -1.4576
28.1481 -2.6952 -1.3946
31.2043 -0.1909 -1.5390
19.0104 1.5857 -0.9408
17.7716 3.0975 -0.8897
16.6521 4.4637 -0.8503
15.6198 5.7236 -0.8205
14.6499 6.9072 -0.7988
13.5307 7.9264 -0.7734
19.6061 13.9750 -1.1875
26.1029 22.3725 -1.6955
29.2921 30.0359 -2.0692
22.1018 27.1354 -1.7261
13.5717 20.0875 -1.1956
9.0555 16.3869 -0.9234
7.3660 16.6958 -0.9000
6.1494 18.1805 -0.9466
4.7887 19.8411 -1.0067
3.2303 21.7430 -1.0841
1.2335 21.1900 -1.0468
-0.6164 19.7544 -0.9748
-2.7271 22.5161 -1.1186
-4.2474 19.9403 -1.0055
-8.3208 26.9741 -1.3922
-39.7946 15.8110 -2.1119
-38.5088 11.4434 -1.9813
-32.0444 6.4795 -1.6124
-29.5143 3.2650 -1.4645
-27.3052 0.5689 -1.3470
-25.4104 -1.7435 -1.2562
-23.7424 -3.7791 -1.1857
-23.4646 -5.9212 -1.1935
-28.3360 -9.9129 -1.4806
-17.9802 -12.4212 -1.0778
-19.2282 -15.9957 -1.2336
-24.3366 -28.9972 -1.8671
-14.7384 -21.1371 -1.2709
-12.4514 -21.7693 -1.2369
-10.8740 -23.6965 -1.2859
-9.1520 -25.8001 -1.3501
-7.2330 -28.1460 -1.4333
-5.0427 -30.8162 -1.5401
-3.3134 -45.3956 -2.2449
0.6939 -42.1055 -2.0769
4.7808 -45.0109 -2.2324
33.7041 -26.2078 -2.1057
29.9381 -6.5134 -1.5111
27.4218 -3.4426 -1.3631
30.1298 -1.0715 -1.4869
34.9663 1.8827 -1.7270
18.1646 2.6179 -0.9051
17.0099 4.0271 -0.8621
15.9518 5.3184 -0.8293
14.9638 6.5242 -0.8051
8.2844 4.5310 -0.4657
13.9267 9.3213 -0.8265
32.4428 26.1908 -2.0564
24.7938 23.9701 -1.7009
22.7643 26.3270 -1.7165
20.7273 28.8130 -1.7505
10.2981 17.4051 -0.9974
7.7420 16.2368 -0.8872
6.5640 17.6746 -0.9299
5.2558 19.2711 -0.9852
3.7696 21.0848 -1.0564
1.9036 21.6823 -1.0735
-0.0355 20.0934 -0.9910
-1.9729 21.5957 -1.0695
-4.5029 24.6832 -1.2375
-7.6111 27.5238 -1.4084
-13.1107 34.9245 -1.8398
-41.4983 17.9190 -2.2293
-37.4256 12.3310 -1.9434
-33.0448 7.7002 -1.6734
-30.3313 4.2620 -1.5106
-27.9928 1.4081 -1.3823
-26.0058 -1.0168 -1.2836
-24.2709 -3.1341 -1.2070
-22.6318 -5.0077 -1.1432
-26.4912 -8.4012 -1.3707
-18.9368 -12.2750 -1.1130
-18.9089 -14.8106 -1.1846
-32.0753 -36.0105 -2.3784
-15.7128 -21.1779 -1.3006
-12.9465 -21.1644 -1.2236
-11.4073 -23.0448 -1.2682
-7.3528 -18.9399 -1.0020
-7.8913 -27.3434 -1.4036
-5.7996 -29.8935 -1.5018
-4.6722 -45.5182 -2.2567
-0.5586 -43.1338 -2.1275
3.3074 -43.2108 -2.1374
7.9795 -47.7062 -2.3855
30.8939 -7.6799 -1.5701
28.1946 -4.3857 -1.4073
29.1247 -1.8950 -1.4395
34.7533 0.8469 -1.7145
18.5718 2.1209 -0.9219
17.3780 3.5778 -0.8751
16.2915 4.9039 -0.8391
15.2829 6.1348 -0.8122
14.3296 7.2981 -0.7931
13.2254 8.2991 -0.7701
33.2210 25.2411 -2.0577
25.4822 23.2246 -1.7004
23.7349 25.8703 -1.7316
21.4073 27.9831 -1.7376
11.7584 18.6016 -1.0853
8.1078 15.7905 -0.8754
6.9645 17.1858 -0.9146
5.7036 18.7245 -0.9654
4.2825 20.4589 -1.0309
2.6172 22.2670 -1.1058
0.5683 20.5379 -1.0133
-1.2825 20.7668 -1.0262
-3.5690 23.4535 -1.1700
-6.6576 27.1632 -1.3793
-11.1188 32.4936 -1.6938
-43.4854 20.3153 -2.3672
-32.6224 11.8234 -1.7113
-39.6776 10.4857 -2.0241
-31.2022 5.3249 -1.5611
-28.6334 2.2865 -1.4167
-26.6284 -0.2570 -1.3134
-24.8193 -2.4649 -1.2301
-23.2137 -4.4243 -1.1655
-24.8999 -7.0972 -1.2770
-30.5896 -11.7594 -1.6163
-22.3998 -13.6009 -1.2925
-17.6480 -13.0038 -1.0812
-33.9120 -35.8883 -2.4352
-19.5662 -24.8114 -1.5584
-13.4899 -20.6615 -1.2170
-11.6001 -21.7967 -1.2178
-10.3050 -24.3916 -1.3059
-8.2447 -25.7037 -1.3313
-6.5204 -29.0147 -1.4667
-4.2316 -31.9417 -1.5892
-1.8748 -44.2144 -2.1826
1.9591 -41.6829 -2.0581
6.2543 -45.6007 -2.2701
31.0016 -7.8113 -1.3794
28.2810 -4.4911 -1.2355
29.0201 -1.9807 -1.2550
32.2721 0.6840 -1.3927
18.6167 2.0662 -0.8082
17.1748 3.4792 -0.7561
16.1001 4.7907 -0.7248
15.1034 6.0071 -0.7013
14.1618 7.1562 -0.6846
13.2570 8.2604 -0.6739
33.3050 25.1386 -1.8004
25.5516 23.1398 -1.4874
24.3574 26.3803 -1.5492
21.4800 27.8943 -1.5190
11.9313 18.7433 -0.9587
8.1467 15.7430 -0.7648
7.0040 17.1270 -0.7984
5.7509 18.6669 -0.8428
4.3363 20.3932 -0.8996
2.6968 22.3322 -0.9706
0.6334 20.5339 -0.8864
-1.2115 20.6834 -0.8939
-3.4924 23.4501 -1.0230
-6.5794 27.2174 -1.2082
-10.9228 32.2543 -1.4693
-43.7102 20.5896 -2.0847
-32.5536 11.9154 -1.4957
-39.5536 10.5874 -1.7667
-31.1785 5.4227 -1.3654
-28.7988 2.3918 -1.2469
-26.6973 -0.1730 -1.1519
-24.7833 -2.3820 -1.0742
-23.1779 -4.3413 -1.0174
-24.7412 -6.9673 -1.1090
-30.3359 -11.5516 -1.4006
-22.3564 -13.4776 -1.1263
-17.5977 -12.8808 -0.9410
-19.6313 -24.7320 -1.3624
-13.1412 -19.9886 -1.0321
-11.5908 -21.6135 -1.0582
-10.0261 -23.5231 -1.1033
-8.3077 -25.6202 -1.1621
-6.5961 -28.9225 -1.2800
-4.3131 -31.7817 -1.3838
-2.0208 -44.3343 -1.9149
1.8239 -41.6239 -1.7977
6.2719 -46.8325 -2.0387
32.0451 -9.0849 -1.4371
29.1124 -5.5058 -1.2784
28.0826 -2.7489 -1.2175
31.1246 -0.2563 -1.3430
18.9666 1.5417 -0.8210
17.5505 3.0207 -0.7684
16.4442 4.3707 -0.7341
15.4246 5.6151 -0.7082
14.4671 6.7837 -0.6894
13.5520 7.9004 -0.6768
19.0376 13.5092 -1.0072
26.1946 22.3551 -1.4858
29.3487 29.9669 -1.8098
22.1497 27.0770 -1.5094
13.7113 20.2019 -1.0534
9.1387 16.4551 -0.8121
7.3934 16.6623 -0.7865
6.1797 18.1435 -0.8270
4.8230 19.7993 -0.8792
3.2700 21.6946 -0.9466
1.2754 21.1388 -0.9137
-0.5730 19.7015 -0.8504
-2.6706 22.4471 -0.9753
-4.2059 19.9523 -0.8798
-7.9951 26.1145 -1.1784
-39.7591 15.8944 -1.8475
-38.4296 11.5084 -1.7309
-32.2387 6.5898 -1.4198
-29.4848 3.3248 -1.2802
-27.3535 0.6279 -1.1805
-25.3539 -1.6857 -1.0963
-23.6878 -3.7190 -1.0346
-23.3719 -5.8452 -1.0395
-28.1935 -9.7961 -1.2878
-17.9337 -12.3331 -0.9391
-19.6733 -16.2956 -1.1022
-23.7817 -28.2145 -1.5921
-13.8759 -19.8107 -1.0436
-12.0800 -21.0165 -1.0459
-10.5562 -22.8762 -1.0871
-8.8938 -24.9050 -1.1410
-7.2813 -28.0872 -1.2519
-4.9590 -29.9080 -1.3081
-3.4163 -45.4800 -1.9678
0.6059 -42.1777 -1.8200
4.6705 -44.8761 -1.9467
33.6396 -26.2720 -1.8416
30.0045 -6.5944 -1.3255
27.4757 -3.5084 -1.1951
30.0552 -1.1325 -1.2977
33.5555 1.7356 -1.4497
18.1934 2.5827 -0.7929
16.7977 3.9394 -0.7444
15.7525 5.2149 -0.7159
14.7769 6.4056 -0.6949
8.2907 4.5118 -0.4073
13.6486 9.0934 -0.7076
32.4988 26.1225 -1.7990
24.8835 23.9551 -1.4903
22.8116 26.2693 -1.5011
20.7765 28.7529 -1.5306
10.3950 17.4845 -0.8777
7.7687 16.2044 -0.7754
6.5909 17.6327 -0.8122
5.2886 19.2311 -0.8606
3.8073 21.0388 -0.9225
1.9536 21.7232 -0.9411
0.0070 20.1282 -0.8685
-1.9213 21.5326 -0.9327
-4.4338 24.5990 -1.0785
-7.6318 27.8278 -1.2450
-12.9562 34.7360 -1.5996
-16.9449 35.4083 -1.6937
-41.5064 18.0269 -1.9525
-37.3493 12.3935 -1.6979
-40.7692 9.5912 -1.8071
-30.3725 4.3333 -1.3237
-28.0437 1.4702 -1.2117
-25.9488 -0.9596 -1.1204
-24.2156 -3.0749 -1.0532
-22.6667 -4.9651 -1.0012
-26.3689 -8.3010 -1.1928
-18.9242 -12.2101 -0.9717
-20.4307 -15.9331 -1.1179
-32.1498 -35.9409 -2.0806
-15.4575 -20.7419 -1.1161
-12.5700 -20.4517 -1.0358
-11.0713 -22.2475 -1.0722
-7.3907 -18.9191 -0.8764
-7.9376 -27.2870 -1.2261
-5.8525 -29.8290 -1.3116
-4.1438 -39.5461 -1.7156
-0.6509 -43.2096 -1.8646
3.2063 -43.0873 -1.8642
8.0997 -49.0616 -2.1455
30.9656 -7.7674 -1.3775
28.2521 -4.4559 -1.2341
29.0548 -1.9522 -1.2564
32.3150 0.7191 -1.3946
18.6017 2.0844 -0.8076
17.1615 3.4954 -0.7557
16.0879 4.8056 -0.7244
15.0920 6.0211 -0.7011
14.1509 7.1695 -0.6845
13.2465 8.2733 -0.6739
33.2770 25.1728 -1.8003
25.5284 23.1681 -1.4874
24.1467 26.2077 -1.5376
21.4558 27.9239 -1.5194
11.8732 18.6958 -0.9556
8.1337 15.7588 -0.7652
6.9899 17.1443 -0.7988
5.7351 18.6861 -0.8434
4.3184 20.4151 -0.9003
2.6702 22.3104 -0.9695
0.6111 20.5157 -0.8856
-1.2351 20.7123 -0.8952
-3.5235 23.4880 -1.0248
-6.6068 27.2049 -1.2079
-10.9878 32.3337 -1.4734
-43.6350 20.4979 -2.0801
-32.5710 11.8828 -1.4959
-39.5948 10.5536 -1.7680
-31.1987 5.3922 -1.3661
-28.6606 2.3498 -1.2408
-26.6743 -0.2010 -1.1509
-24.7633 -2.4065 -1.0735
-23.1599 -4.3632 -1.0169
-24.7939 -7.0104 -1.1117
-30.4199 -11.6204 -1.4050
-22.3115 -13.4827 -1.1248
-17.5866 -12.9012 -0.9411
-19.6096 -24.7585 -1.3627
-13.1186 -20.0002 -1.0320
-11.5730 -21.6353 -1.0587
-10.0067 -23.5467 -1.1039
-8.2862 -25.6465 -1.1629
-6.5709 -28.9532 -1.2810
-4.2848 -31.8256 -1.3856
-1.9720 -44.2942 -1.9130
1.8690 -41.6435 -1.7986
6.3324 -46.9063 -2.0422
32.0061 -9.0373 -1.4350
29.0816 -5.4681 -1.2768
28.1153 -2.7221 -1.2188
31.1644 -0.2237 -1.3447
18.9940 1.5641 -0.8223
17.5368 3.0374 -0.7679
16.4317 4.3860 -0.7338
15.4129 5.6293 -0.7080
14.4560 6.7972 -0.6892
13.5414 7.9134 -0.6767
19.3175 13.7385 -1.0228
26.1715 22.3833 -1.4859
29.3204 30.0014 -1.8100
22.1258 27.1062 -1.5097
13.6412 20.1445 -1.0497
9.0970 16.4209 -0.8100
7.3797 16.6790 -0.7869
6.1646 18.1620 -0.8275
4.8059 19.8202 -0.8799
3.2501 21.7188 -0.9475
1.2545 21.1644 -0.9148
-0.5947 19.7279 -0.8516
-2.6988 22.4815 -0.9770
-4.2266 19.9461 -0.8797
-8.3740 27.2492 -1.2300
-39.7778 15.8532 -1.8476
-38.4692 11.4759 -1.7321
-32.0792 6.5218 -1.4124
-29.5187 3.2970 -1.2816
-27.3293 0.5984 -1.1795
-25.3329 -1.7112 -1.0955
-23.6691 -3.7417 -1.0339
-23.4182 -5.8831 -1.0418
-28.2645 -9.8543 -1.2915
-17.9209 -12.3523 -0.9391
-19.6151 -16.2824 -1.0999
-23.7565 -28.2452 -1.5924
-13.8421 -19.8070 -1.0426
-12.0626 -21.0378 -1.0463
-10.5374 -22.8991 -1.0876
-8.8731 -24.9303 -1.1418
-7.2571 -28.1166 -1.2529
-4.9320 -29.9410 -1.3093
-3.3648 -45.4378 -1.9659
0.6499 -42.1415 -1.8185
4.7256 -44.9433 -1.9498
33.6612 -26.2316 -1.8413
29.9713 -6.5539 -1.3237
27.4487 -3.4754 -1.1938
30.0925 -1.1020 -1.2993
33.6019 1.7736 -1.4518
18.1790 2.6003 -0.7923
16.7848 3.9551 -0.7440
15.7406 5.2295 -0.7157
14.7657 6.4193 -0.6947
8.2871 4.5212 -0.4073
13.7863 9.2062 -0.7153
32.4708 26.1566 -1.7990
24.8602 23.9835 -1.4904
22.7879 26.2982 -1.5014
20.7519 28.7830 -1.5310
10.3464 17.4447 -0.8751
7.7554 16.2206 -0.7757
6.5763 17.6505 -0.8127
5.2722 19.2511 -0.8612
3.7885 21.0618 -0.9233
1.9286 21.7028 -0.9401
-0.0142 20.1108 -0.8677
-1.9470 21.5641 -0.9342
-4.4683 24.6410 -1.0805
-7.6578 27.8076 -1.2445
-13.0332 34.8299 -1.6046
-17.0000 35.4273 -1.6954
-41.4567 17.9532 -1.9492
-37.3875 12.3623 -1.6990
-40.8123 9.5559 -1.8085
-30.3616 4.2990 -1.3231
-28.0183 1.4392 -1.2105
-25.9270 -0.9863 -1.1195
-24.1963 -3.0984 -1.0525
-22.6493 -4.9864 -1.0006
-26.4298 -8.3509 -1.1959
-18.8871 -12.2144 -0.9705
-20.4138 -15.9546 -1.1179
-32.1126 -35.9757 -2.0807
-15.3701 -20.6703 -1.1114
-12.5511 -20.4693 -1.0360
-11.0530 -22.2698 -1.0727
-7.3717 -18.9293 -0.8765
-7.9144 -27.3152 -1.2270
-5.8261 -29.8612 -1.3127
-4.0929 -39.4641 -1.7119
-0.6047 -43.1716 -1.8629
3.2568 -43.1490 -1.8670
8.1665 -49.1431 -2.1494
30.9298 -7.7237 -1.3755
28.2233 -4.4207 -1.2326
29.0897 -1.9237 -1.2579
32.3580 0.7543 -1.3965
18.5868 2.1026 -0.8071
17.1482 3.5116 -0.7552
16.0758 4.8204 -0.7241
15.0805 6.0350 -0.7008
14.1401 7.1828 -0.6843
13.2359 8.2862 -0.6738
33.2490 25.2069 -1.8002
25.5053 23.1963 -1.4875
23.9393 26.0377 -1.5261
21.4315 27.9535 -1.5198
11.8156 18.6486 -0.9525
8.1207 15.7747 -0.7655
6.9758 17.1615 -0.7993
5.7194 18.7053 -0.8440
4.3004 20.4370 -0.9011
2.6436 22.2887 -0.9684
0.5893 20.5122 -0.8854
-1.2589 20.7412 -0.8966
-3.5465 23.4720 -1.0243
-6.6323 27.1840 -1.2073
-11.0531 32.4134 -1.4776
-43.5602 20.4066 -2.0755
-32.5886 11.8501 -1.4962
-39.6361 10.5197 -1.7694
-31.2331 5.3641 -1.3673
-28.6338 2.3171 -1.2395
-26.6513 -0.2291 -1.1500
-24.7432 -2.4309 -1.0727
-23.1419 -4.3852 -1.0163
-24.8468 -7.0537 -1.1144
-30.5046 -11.6898 -1.4095
-22.2575 -13.4823 -1.1228
-17.5754 -12.9216 -0.9412
-34.1518 -36.0657 -2.1431
-19.5879 -24.7850 -1.3630
-13.0960 -20.0118 -1.0319
-11.5552 -21.6570 -1.0591
-9.9874 -23.5704 -1.1045
-8.2647 -25.6727 -1.1637
-6.5457 -28.9839 -1.2821
-4.2564 -31.8697 -1.3873
-1.9233 -44.2543 -1.9112
1.9139 -41.6632 -1.7995
6.3929 -46.9803 -2.0457
31.9673 -8.9898 -1.4328
29.0507 -5.4305 -1.2752
28.1481 -2.6952 -1.2201
31.2043 -0.1909 -1.3464
19.0104 1.5857 -0.8231
17.5230 3.0542 -0.7675
16.4192 4.4013 -0.7334
15.4013 5.6436 -0.7077
14.4450 6.8106 -0.6891
13.5307 7.9264 -0.6766
19.6061 13.9750 -1.0388
26.1483 22.4115 -1.4859
29.2921 30.0359 -1.8102
22.1018 27.1354 -1.5100
13.5717 20.0875 -1.0460
9.0555 16.3869 -0.8078
7.3660 16.6957 -0.7874
6.1494 18.1805 -0.8281
4.7887 19.8411 -0.8807
3.2303 21.7430 -0.9484
1.2335 21.1900 -0.9158
-0.6164 19.7544 -0.8527
-2.7271 22.5161 -0.9786
-4.2473 19.9398 -0.8796
-8.3995 27.2293 -1.2295
-39.7946 15.8110 -1.8476
-38.5088 11.4434 -1.7333
-32.0444 6.4795 -1.4106
-29.5143 3.2650 -1.2812
-27.3052 0.5689 -1.1784
-25.3121 -1.7367 -1.0947
-23.6505 -3.7645 -1.0333
-23.4646 -5.9212 -1.0442
-28.3360 -9.9129 -1.2953
-17.9082 -12.3714 -0.9391
-19.5570 -16.2692 -1.0976
-23.7313 -28.2760 -1.5928
-13.8105 -19.8063 -1.0418
-12.0452 -21.0590 -1.0468
-10.5186 -22.9221 -1.0882
-8.8524 -24.9555 -1.1425
-7.2330 -28.1460 -1.2539
-5.0427 -30.8162 -1.3473
-3.3134 -45.3955 -1.9639
0.6939 -42.1055 -1.8170
4.7808 -45.0109 -1.9530
33.7031 -26.2071 -1.8421
29.9381 -6.5134 -1.3219
27.4218 -3.4426 -1.1924
30.1298 -1.0715 -1.3008
33.6484 1.8117 -1.4539
18.1646 2.6179 -0.7918
16.7719 3.9708 -0.7437
15.7287 5.2440 -0.7154
14.7545 6.4329 -0.6945
8.2842 4.5309 -0.4074
13.9267 9.3213 -0.7231
32.4428 26.1908 -1.7990
24.8370 24.0119 -1.4906
22.7643 26.3270 -1.5017
20.7273 28.8130 -1.5314
10.2981 17.4051 -0.8726
7.7420 16.2368 -0.7761
6.5617 17.6684 -0.8132
5.2558 19.2711 -0.8618
3.7696 21.0848 -0.9242
1.9036 21.6823 -0.9391
-0.0355 20.0934 -0.8670
-1.9729 21.5957 -0.9357
-4.5029 24.6832 -1.0826
-7.6839 27.7873 -1.2439
-13.1107 34.9244 -1.6095
-41.4983 17.9190 -1.9503
-37.4256 12.3310 -1.7002
-33.0448 7.7002 -1.4640
-30.3313 4.2620 -1.3216
-27.9928 1.4081 -1.2093
-25.9052 -1.0128 -1.1186
-24.1770 -3.1220 -1.0518
-22.6318 -5.0077 -1.0001
-26.4912 -8.4012 -1.1991
-18.8501 -12.2188 -0.9692
-20.3969 -15.9762 -1.1179
-32.0753 -36.0105 -2.0807
-15.2836 -20.5995 -1.1067
-12.5321 -20.4870 -1.0362
-11.0348 -22.2921 -1.0732
-7.3526 -18.9395 -0.8766
-7.8913 -27.3434 -1.2279
-5.7996 -29.8935 -1.3139
-4.0488 -39.4445 -1.7108
-0.5586 -43.1338 -1.8612
3.3074 -43.2108 -1.8699
8.2335 -49.2248 -2.1534
30.8939 -7.6799 -1.3735
28.1946 -4.3857 -1.2311
29.1247 -1.8950 -1.2593
32.4010 0.7896 -1.3984
18.5718 2.1209 -0.8065
17.1350 3.5278 -0.7548
16.0636 4.8353 -0.7238
15.0691 6.0489 -0.7006
14.1292 7.1960 -0.6841
13.2254 8.2991 -0.6737
33.2210 25.2411 -1.8002
25.4822 23.2246 -1.4876
23.7349 25.8703 -1.5148
21.4073 27.9831 -1.5202
11.7584 18.6016 -0.9495
8.1078 15.7905 -0.7659
6.9616 17.1788 -0.7998
5.7036 18.7245 -0.8445
4.2825 20.4589 -0.9019
2.6172 22.2670 -0.9674
0.5683 20.5379 -0.8865
-1.2827 20.7703 -0.8979
-3.5690 23.4535 -1.0236
-6.6576 27.1632 -1.2067
-11.1188 32.4936 -1.4818
-43.4854 20.3153 -2.0709
-32.6211 11.8229 -1.4971
-39.6776 10.4857 -1.7707
-31.2022 5.3249 -1.3657
-28.6334 2.2865 -1.2394
-26.6284 -0.2570 -1.1490
-24.7232 -2.4553 -1.0720
-23.1239 -4.4072 -1.0157
-24.8999 -7.0972 -1.1171
-30.5896 -11.7594 -1.4140
-22.2038 -13.4819 -1.1208
-17.5643 -12.9421 -0.9414
-33.9119 -35.8883 -2.1304
-19.5662 -24.8114 -1.3634
-13.0733 -20.0234 -1.0318
-11.5374 -21.6788 -1.0596
-9.9680 -23.5940 -1.1051
-8.2432 -25.6990 -1.1645
-6.5204 -29.0147 -1.2831
-4.2317 -31.9416 -1.3902
-1.8748 -44.2144 -1.9094
1.9591 -41.6829 -1.8005
6.4537 -47.0545 -2.0493
31.0016 -7.8113 -1.1822
28.2810 -4.4911 -1.0588
29.0201 -1.9807 -1.0756
32.2721 0.6840 -1.1936
18.3563 2.0373 -0.6829
17.1748 3.4792 -0.6480
16.1001 4.7907 -0.6211
15.1034 6.0071 -0.6010
14.1618 7.1562 -0.5867
13.2570 8.2604 -0.5776
33.3050 25.1386 -1.5429
25.5516 23.1398 -1.2747
24.3574 26.3803 -1.3277
21.4800 27.8943 -1.3018
11.9394 18.7561 -0.8221
8.1467 15.7430 -0.6554
7.0371 17.2079 -0.6874
5.7509 18.6669 -0.7223
4.3340 20.3825 -0.7705
2.6967 22.3322 -0.8318
0.6334 20.5339 -0.7596
-1.2117 20.6868 -0.7662
-3.4924 23.4501 -0.8767
-6.5794 27.2174 -1.0354
-10.9228 32.2543 -1.2592
-43.7102 20.5896 -1.7866
-32.5528 11.9152 -1.2818
-39.5536 10.5874 -1.5140
-31.1785 5.4227 -1.1702
-28.6874 2.3825 -1.0644
-26.5940 -0.1723 -0.9834
-24.7833 -2.3820 -0.9206
-23.1779 -4.3413 -0.8719
-24.7412 -6.9673 -0.9504
-30.3359 -11.5515 -1.2003
-17.5147 -12.8200 -0.8026
-18.3369 -23.1014 -1.0906
-13.1412 -19.9886 -0.8845
-11.5908 -21.6135 -0.9069
-10.0261 -23.5231 -0.9455
-8.3077 -25.6202 -0.9959
-6.3808 -27.9785 -1.0611
-4.1641 -30.6838 -1.1450
-2.0208 -44.3343 -1.6410
1.8239 -41.6239 -1.5406
6.2719 -46.8325 -1.7472
32.0451 -9.0849 -1.2316
29.1124 -5.5058 -1.0956
28.0826 -2.7489 -1.0434
31.1246 -0.2563 -1.1509
18.7751 1.5261 -0.6965
17.5505 3.0207 -0.6585
16.4442 4.3707 -0.6292
15.4246 5.6151 -0.6070
14.4671 6.7837 -0.5908
13.5520 7.9004 -0.5800
19.0375 13.5091 -0.8632
26.1946 22.3551 -1.2734
23.8728 24.3756 -1.2616
22.1497 27.0770 -1.2935
13.7126 20.2037 -0.9029
9.1387 16.4551 -0.6960
7.3934 16.6623 -0.6740
6.1797 18.1435 -0.7087
4.8230 19.7993 -0.7535
3.2700 21.6946 -0.8113
1.2754 21.1388 -0.7830
-0.5730 19.7015 -0.7288
-2.6706 22.4471 -0.8359
-4.2058 19.9519 -0.7540
-7.9951 26.1145 -1.0098
-39.7591 15.8944 -1.5833
-38.4296 11.5084 -1.4833
-32.2387 6.5898 -1.2167
-29.4569 3.3217 -1.0961
-27.2476 0.6254 -1.0078
-25.3539 -1.6857 -0.9396
-23.6878 -3.7190 -0.8866
-23.3719 -5.8452 -0.8908
-28.1935 -9.7961 -1.1036
-17.8622 -12.2839 -0.8016
-20.0168 -16.5801 -0.9611
-23.7817 -28.2145 -1.3644
-13.8759 -19.8107 -0.8944
-12.0800 -21.0165 -0.8963
-10.5562 -22.8762 -0.9316
-8.8938 -24.9050 -0.9779
-7.0434 -27.1698 -1.0379
-4.9322 -29.7463 -1.1149
-3.4163 -45.4800 -1.6864
0.6059 -42.1777 -1.5598
4.6705 -44.8761 -1.6683
33.6388 -26.2714 -1.5782
30.0045 -6.5944 -1.1359
27.4757 -3.5084 -1.0242
30.0553 -1.1325 -1.1121
33.5555 1.7356 -1.2424
17.9389 2.5466 -0.6700
16.7977 3.9394 -0.6380
15.7525 5.2149 -0.6136
14.7769 6.4056 -0.5955
8.2905 4.5116 -0.3490
13.6485 9.0933 -0.6064
26.4351 21.2485 -1.2541
24.8835 23.9551 -1.2772
22.8116 26.2693 -1.2865
20.7765 28.7529 -1.3117
10.3950 17.4845 -0.7521
7.7687 16.2044 -0.6645
6.6216 17.7150 -0.6993
5.2886 19.2311 -0.7375
3.8056 21.0295 -0.7902
1.9536 21.7232 -0.8065
0.0070 20.1282 -0.7443
-1.9213 21.5326 -0.7994
-4.4338 24.5990 -0.9242
-7.7056 28.0969 -1.0773
-12.9562 34.7360 -1.3709
-16.9445 35.4075 -1.4514
-41.5064 18.0269 -1.6733
-37.3493 12.3935 -1.4551
-40.7692 9.5912 -1.5487
-30.2744 4.3193 -1.1308
-27.9352 1.4645 -1.0344
-25.9488 -0.9596 -0.9602
-24.2156 -3.0749 -0.9026
-22.6667 -4.9651 -0.8580
-26.3689 -8.3010 -1.0222
-18.8358 -12.1530 -0.8289
-20.5292 -16.0099 -0.9626
-32.6516 -36.5019 -1.8109
-15.4575 -20.7419 -0.9565
-12.5700 -20.4517 -0.8877
-11.0713 -22.2475 -0.9189
-7.3906 -18.9186 -0.7510
-7.6782 -26.3952 -1.0165
-5.6617 -28.8561 -1.0873
-4.8923 -46.6894 -1.7359
-0.6509 -43.2096 -1.5979
3.2063 -43.0872 -1.5976
8.0997 -49.0616 -1.8387
30.9656 -7.7674 -1.1805
28.2521 -4.4559 -1.0576
29.0548 -1.9522 -1.0768
32.3150 0.7191 -1.1952
18.3415 2.0553 -0.6825
17.1615 3.4954 -0.6476
16.0879 4.8056 -0.6209
15.0920 6.0211 -0.6008
14.1509 7.1695 -0.5866
13.2465 8.2733 -0.5775
33.2770 25.1728 -1.5429
25.5284 23.1681 -1.2747
24.1467 26.2077 -1.3177
21.4558 27.9239 -1.3021
11.8815 18.7088 -0.8195
8.1337 15.7588 -0.6557
7.0229 17.2252 -0.6878
5.7351 18.6861 -0.7228
4.3161 20.4044 -0.7712
2.6702 22.3104 -0.8309
0.6111 20.5157 -0.7589
-1.2354 20.7157 -0.7674
-3.5235 23.4880 -0.8782
-6.6068 27.2049 -1.0352
-10.9878 32.3337 -1.2627
-43.6350 20.4979 -1.7826
-32.5703 11.8825 -1.2820
-39.5948 10.5536 -1.5152
-31.1987 5.3922 -1.1707
-28.6606 2.3498 -1.0633
-26.5711 -0.2002 -0.9825
-24.7633 -2.4065 -0.9200
-23.1599 -4.3632 -0.8714
-24.7939 -7.0104 -0.9527
-30.4199 -11.6204 -1.2041
-17.5036 -12.8403 -0.8027
-18.2235 -23.0085 -1.0853
-13.1186 -20.0002 -0.8844
-11.5730 -21.6353 -0.9073
-10.0067 -23.5467 -0.9460
-8.2862 -25.6465 -0.9966
-6.3564 -28.0082 -1.0620
-4.1357 -30.7184 -1.1461
-1.9720 -44.2942 -1.6395
1.8690 -41.6435 -1.5414
6.3324 -46.9063 -1.7502
32.0061 -9.0373 -1.2298
29.0816 -5.4681 -1.0942
28.1153 -2.7221 -1.0445
31.1644 -0.2237 -1.1524
18.7598 1.5448 -0.6960
17.5368 3.0374 -0.6581
16.4317 4.3860 -0.6289
15.4129 5.6293 -0.6067
14.4560 6.7972 -0.5907
13.5414 7.9134 -0.5799
19.3175 13.7385 -0.8765
26.1715 22.3833 -1.2734
23.8497 24.4037 -1.2617
22.1258 27.1062 -1.2938
13.6429 20.1470 -0.8997
9.0970 16.4209 -0.6941
7.3797 16.6790 -0.6744
6.1646 18.1620 -0.7092
4.8059 19.8202 -0.7541
3.2501 21.7188 -0.8120
1.2545 21.1644 -0.7840
-0.5947 19.7279 -0.7298
-2.6988 22.4815 -0.8373
-4.2265 19.9456 -0.7539
-8.4540 27.5094 -1.0642
-39.7810 15.8544 -1.5835
-38.4692 11.4759 -1.4844
-32.0792 6.5218 -1.2104
-29.4285 3.2869 -1.0949
-27.2236 0.5961 -1.0069
-25.3329 -1.7112 -0.9389
-23.6691 -3.7417 -0.8861
-23.4182 -5.8831 -0.8928
-28.2645 -9.8543 -1.1068
-17.8495 -12.3030 -0.8016
-19.9568 -16.5661 -0.9591
-23.7565 -28.2452 -1.3647
-13.8421 -19.8070 -0.8935
-12.0626 -21.0378 -0.8967
-10.5374 -22.8991 -0.9321
-8.8731 -24.9303 -0.9785
-7.0201 -27.1983 -1.0387
-4.9054 -29.7792 -1.1160
-3.3648 -45.4378 -1.6847
0.6499 -42.1415 -1.5584
4.7256 -44.9433 -1.6710
33.6604 -26.2310 -1.5780
29.9713 -6.5539 -1.1344
27.4487 -3.4754 -1.0231
30.0925 -1.1020 -1.1135
33.6019 1.7736 -1.2442
17.9247 2.5639 -0.6695
16.7848 3.9551 -0.6376
15.7406 5.2295 -0.6133
14.7657 6.4193 -0.5953
8.2869 4.5211 -0.3491
13.7863 9.2062 -0.6130
26.4124 21.2762 -1.2541
24.8602 23.9835 -1.2773
22.7879 26.2982 -1.2867
20.7519 28.7830 -1.3121
10.3464 17.4447 -0.7500
7.7554 16.2206 -0.6648
6.6070 17.7328 -0.6997
5.2722 19.2511 -0.7381
3.7869 21.0530 -0.7909
1.9286 21.7028 -0.8057
-0.0142 20.1108 -0.7436
-1.9470 21.5641 -0.8006
-4.4683 24.6410 -0.9260
-7.7318 28.0763 -1.0768
-13.0332 34.8299 -1.3751
-16.9994 35.4259 -1.4529
-41.4567 17.9532 -1.6705
-37.3874 12.3623 -1.4561
-40.8123 9.5559 -1.5499
-30.2441 4.2823 -1.1295
-27.9099 1.4336 -1.0334
-25.9270 -0.9863 -0.9594
-24.1963 -3.0984 -0.9020
-22.6493 -4.9864 -0.8575
-26.4298 -8.3509 -1.0249
-18.7986 -12.1572 -0.8278
-20.5122 -16.0315 -0.9626
-32.6145 -36.5380 -1.8110
-15.3701 -20.6703 -0.9525
-12.5511 -20.4693 -0.8878
-11.0530 -22.2698 -0.9193
-7.3715 -18.9288 -0.7511
-7.6558 -26.4225 -1.0172
-5.6361 -28.8874 -1.0883
-4.8377 -46.6447 -1.7340
-0.6047 -43.1716 -1.5965
3.2549 -43.1236 -1.5991
8.1665 -49.1431 -1.8421
30.9298 -7.7237 -1.1788
28.2233 -4.4207 -1.0563
29.0897 -1.9237 -1.0780
32.3580 0.7543 -1.1968
18.3268 2.0732 -0.6820
17.1482 3.5116 -0.6472
16.0757 4.8204 -0.6206
15.0805 6.0350 -0.6006
14.1401 7.1828 -0.5864
13.2359 8.2862 -0.5774
33.2490 25.2069 -1.5428
25.5053 23.1963 -1.2748
23.9393 26.0377 -1.3079
21.4315 27.9535 -1.3025
11.8241 18.6619 -0.8169
8.1207 15.7747 -0.6560
7.0087 17.2426 -0.6882
5.7194 18.7053 -0.7233
4.2982 20.4263 -0.7718
2.6436 22.2887 -0.8299
0.5893 20.5122 -0.7588
-1.2591 20.7447 -0.7685
-3.5465 23.4720 -0.8778
-6.6323 27.1840 -1.0347
-11.0531 32.4134 -1.2663
-43.5602 20.4066 -1.7787
-32.5878 11.8498 -1.2822
-39.6361 10.5197 -1.5164
-31.2331 5.3641 -1.1718
-28.6338 2.3171 -1.0622
-26.5482 -0.2282 -0.9817
-24.7432 -2.4309 -0.9193
-23.1419 -4.3852 -0.8709
-24.8467 -7.0537 -0.9551
-30.5046 -11.6898 -1.2079
-17.4925 -12.8607 -0.8028
-18.1111 -22.9164 -1.0801
-13.0960 -20.0118 -0.8843
-11.5552 -21.6570 -0.9077
-9.9874 -23.5704 -0.9466
-8.2647 -25.6727 -0.9973
-6.3321 -28.0380 -1.0629
-4.1073 -30.7531 -1.1472
-1.9233 -44.2543 -1.6379
1.9139 -41.6632 -1.5422
6.3929 -46.9803 -1.7532
31.9673 -8.9899 -1.2279
29.0507 -5.4305 -1.0928
28.1481 -2.6952 -1.0456
31.2043 -0.1909 -1.1539
18.7445 1.5635 -0.6955
17.5230 3.0542 -0.6577
16.4192 4.4013 -0.6286
15.4013 5.6436 -0.6065
14.4450 6.8106 -0.5905
13.5307 7.9264 -0.5798
19.6061 13.9750 -0.8903
26.1483 22.4115 -1.2734
23.8267 24.4318 -1.2619
22.1018 27.1354 -1.2941
13.5739 20.0908 -0.8966
9.0555 16.3869 -0.6923
7.3660 16.6957 -0.6748
6.1494 18.1805 -0.7097
4.7887 19.8411 -0.7547
3.2303 21.7430 -0.8128
1.2335 21.1900 -0.7849
-0.6164 19.7544 -0.7308
-2.7271 22.5161 -0.8387
-4.2472 19.9394 -0.7538
-8.4797 27.4892 -1.0637
-39.7946 15.8110 -1.5834
-38.5088 11.4434 -1.4855
-32.0444 6.4795 -1.2089
-29.4001 3.2523 -1.0937
-27.1995 0.5667 -1.0060
-25.3121 -1.7367 -0.9382
-23.6505 -3.7645 -0.8855
-23.4646 -5.9212 -0.8948
-28.3361 -9.9129 -1.1100
-17.8368 -12.3221 -0.8016
-19.8970 -16.5520 -0.9570
-23.7313 -28.2760 -1.3650
-13.8105 -19.8063 -0.8928
-12.0452 -21.0590 -0.8971
-10.5186 -22.9221 -0.9326
-8.8524 -24.9555 -0.9791
-6.9968 -27.2268 -1.0395
-4.8784 -29.8120 -1.1170
-3.3134 -45.3955 -1.6830
0.6939 -42.1055 -1.5571
4.7808 -45.0109 -1.6737
33.7022 -26.2064 -1.5786
29.9381 -6.5135 -1.1329
27.4218 -3.4426 -1.0219
30.1298 -1.0715 -1.1148
33.6484 1.8117 -1.2460
17.9105 2.5813 -0.6691
16.7719 3.9708 -0.6373
15.7287 5.2440 -0.6131
14.7545 6.4329 -0.5952
8.2840 4.5308 -0.3491
13.9267 9.3213 -0.6197
26.3896 21.3040 -1.2541
24.8370 24.0119 -1.2774
22.7643 26.3270 -1.2869
20.7273 28.8130 -1.3124
10.2981 17.4051 -0.7478
7.7420 16.2368 -0.6651
6.5923 17.7508 -0.7002
5.2558 19.2711 -0.7386
3.7685 21.0787 -0.7918
1.9036 21.6823 -0.8048
-0.0355 20.0934 -0.7430
-1.9729 21.5957 -0.8019
-4.5029 24.6832 -0.9278
-7.7581 28.0557 -1.0763
-13.1107 34.9244 -1.3794
-41.4983 17.9190 -1.6714
-37.4256 12.3310 -1.4571
-33.0448 7.7002 -1.2546
-30.2139 4.2455 -1.1282
-27.8845 1.4026 -1.0324
-25.9052 -1.0129 -0.9586
-24.1770 -3.1220 -0.9014
-22.6318 -5.0077 -0.8571
-26.4912 -8.4012 -1.0276
-18.7616 -12.1614 -0.8267
-20.4952 -16.0532 -0.9626
-32.5773 -36.5741 -1.8111
-15.2836 -20.5995 -0.9485
-12.5321 -20.4870 -0.8880
-11.0348 -22.2921 -0.9198
-7.3524 -18.9390 -0.7512
-7.6334 -26.4498 -1.0179
-5.6105 -28.9186 -1.0893
-4.6722 -45.5182 -1.6920
-0.5586 -43.1338 -1.5951
3.2980 -43.0883 -1.5979
8.2335 -49.2248 -1.8455
30.8939 -7.6799 -1.1771
28.1946 -4.3857 -1.0551
29.1247 -1.8950 -1.0792
32.4010 0.7896 -1.1984
18.3121 2.0912 -0.6815
17.1350 3.5278 -0.6469
16.0636 4.8353 -0.6203
15.0691 6.0489 -0.6004
14.1292 7.1960 -0.5863
13.2254 8.2991 -0.5773
33.2210 25.2411 -1.5427
25.4822 23.2246 -1.2749
23.7349 25.8703 -1.2982
21.4073 27.9831 -1.3028
11.7670 18.6153 -0.8143
8.1078 15.7905 -0.6563
6.9945 17.2599 -0.6886
5.7036 18.7245 -0.7238
4.2803 20.4483 -0.7725
2.6172 22.2670 -0.8290
0.5683 20.5379 -0.7597
-1.2829 20.7737 -0.7696
-3.5690 23.4535 -0.8772
-6.6576 27.1633 -1.0341
-11.1188 32.4936 -1.2699
-43.4854 20.3153 -1.7748
-32.6198 11.8225 -1.2829
-39.6776 10.4857 -1.5175
-31.2022 5.3249 -1.1704
