ply
format ascii 1.0
element vertex 2013
property float32 x
property float32 y
property float32 z
end_header
34.0560 -11.4389 0.0000
48.5148 -11.5989 0.0000
42.5888 -6.2321 0.0000
24.7374 0.8276 0.0000
24.1678 2.9832 0.0000
24.7182 5.3251 0.0000
24.7072 7.6851 0.0000
24.5289 10.1094 0.0000
24.6798 12.8580 0.0000
25.1228 40.5871 0.0000
20.4370 40.7474 0.0000
-35.3696 20.0808 -0.0000
-27.2936 -5.4933 -0.0000
-19.0933 -5.6558 -0.0000
-19.2084 -7.6133 -0.0000
-19.0744 -9.6108 -0.0000
-19.1877 -11.9258 -0.0000
-30.4207 -22.9094 -0.0000
-25.3242 -22.8850 -0.0000
-21.1554 -22.8651 -0.0000
-9.4251 -12.2144 -0.0000
-15.6835 -24.5854 -0.0000
-15.6567 -30.1871 -0.0000
-16.8475 -41.0924 -0.0000
24.1731 -35.7927 -0.0000
23.4569 -24.0582 0.0000
23.4400 -20.0935 0.0000
23.2601 -16.5813 0.0000
23.4105 -13.7146 0.0000
24.3608 -11.4854 0.0000
31.2653 -11.4550 0.0000
41.5017 -7.2288 0.0000
24.7402 0.1558 0.0000
24.7308 2.3732 0.0000
24.1604 4.5224 0.0000
24.7110 6.9565 0.0000
24.5326 9.3403 0.0000
24.6842 12.0200 0.0000
32.5236 19.6075 0.0000
26.6423 40.5401 0.0000
21.8180 40.7046 0.0000
-9.6180 42.4250 0.0000
-45.3958 -7.8610 -0.0000
-20.4580 -5.4606 -0.0000
-19.0871 -6.9719 -0.0000
-19.0775 -8.9716 -0.0000
-19.0671 -11.1450 -0.0000
-19.0556 -13.5559 -0.0000
-26.7574 -22.8919 -0.0000
-22.3430 -22.8708 -0.0000
-18.6456 -22.8531 -0.0000
-15.6902 -23.1830 0.0000
-15.6658 -28.2976 -0.0000
-18.1769 -41.1181 -0.0000
17.9093 -43.8044 -0.0000
22.9000 -44.2586 -0.0000
23.4626 -25.4089 0.0000
23.3780 -21.1679 0.0000
22.8685 -17.2571 0.0000
23.4151 -14.5851 0.0000
23.5172 -11.8783 0.0000
28.8519 -11.4683 0.0000
41.4438 -4.5867 0.0000
24.8408 -0.5180 0.0000
24.7336 1.6975 0.0000
24.5586 3.9102 0.0000
24.7143 6.2386 0.0000
24.7021 8.6447 0.0000
24.6885 11.2036 0.0000
24.7351 14.0110 0.0000
28.2133 40.4915 0.0000
23.2282 40.6457 0.0000
18.7030 40.8010 0.0000
-22.9908 -5.4727 -0.0000
-19.0898 -6.3912 -0.0000
-19.0805 -8.3483 -0.0000
-19.0704 -10.4630 -0.0000
-19.0592 -12.7938 -0.0000
-28.2855 -22.8992 -0.0000
-23.5960 -22.8768 -0.0000
-19.7070 -22.8582 -0.0000
-16.3808 -22.8423 -0.0000
-15.6740 -26.5830 -0.0000
-19.5217 -41.1052 -0.0000
-16.1951 -43.8201 -0.0000
21.4010 -44.2657 -0.0000
23.2837 -22.2621 0.0000
23.4370 -18.7058 0.0000
22.8583 -15.1146 -0.0000
23.4048 -12.6303 0.0000
26.7342 -11.4763 0.0000
34.9565 -11.4337 0.0000
17.7827 -4.1027 0.0000
41.4493 -5.7301 0.0000
24.7365 1.0240 0.0000
24.5618 3.2298 0.0000
24.7173 5.5303 0.0000
24.7060 7.9001 0.0000
24.5279 10.3373 0.0000
24.6785 13.1072 0.0000
24.6880 40.6006 0.0000
20.0402 40.7596 0.0000
16.9605 44.0427 0.0000
-12.2444 21.0842 -0.0000
-9.4432 7.7491 -0.0000
-26.4631 -5.5450 -0.0000
-19.0926 -5.8207 -0.0000
-19.2075 -7.7898 -0.0000
-19.0735 -9.8008 -0.0000
-19.1867 -12.1372 -0.0000
-29.9208 -22.9070 -0.0000
-24.9219 -22.8831 -0.0000
-20.8199 -22.8635 -0.0000
-9.3294 -12.2907 -0.0000
-15.6815 -25.0177 -0.0000
-15.6348 -30.7387 -0.0000
-16.4674 -41.0906 -0.0000
24.3852 -35.4965 -0.0000
22.8925 -23.1097 -0.0000
23.4386 -19.7720 0.0000
23.2588 -16.3037 0.0000
23.4092 -13.4656 0.0000
24.8661 -11.4835 0.0000
32.0373 -11.4505 0.0000
48.3011 -12.5337 0.0000
41.5001 -6.8899 0.0000
24.7394 0.3520 0.0000
24.7299 2.5712 0.0000
24.1595 4.7208 0.0000
24.7099 7.1681 0.0000
24.5316 9.5633 0.0000
24.6829 12.2625 0.0000
16.6242 17.7655 0.0000
26.1933 40.5540 0.0000
21.4108 40.7172 0.0000
-43.2919 -7.8509 -0.0000
-19.8142 -5.4575 -0.0000
-19.0862 -7.1437 -0.0000
-19.0766 -9.1566 -0.0000
-19.0661 -11.3482 -0.0000
-19.0545 -13.7839 -0.0000
-26.3295 -22.8898 -0.0000
-21.9897 -22.8691 -0.0000
-18.3444 -22.8517 -0.0000
-15.6883 -23.5811 -0.0000
-15.6632 -28.8303 -0.0000
-17.7867 -41.1139 -0.0000
23.4602 -24.8378 0.2105
23.4428 -20.7500 0.1929
22.9294 -16.9004 0.1755
23.4132 -14.2197 0.1687
23.6935 -11.6336 0.1626
29.8188 -11.4646 0.1968
41.4597 -7.9009 0.2600
41.4416 -4.1136 0.2565
24.7807 -0.2370 0.1527
24.7324 1.9780 0.1528
24.5572 4.1947 0.1535
24.7130 6.5359 0.1575
24.1402 8.7551 0.1582
24.6868 11.5405 0.1679
18.8648 19.2222 0.1659
27.5536 40.5119 0.3018
22.6421 40.6791 0.2868
17.5519 39.4596 0.2660
-15.4029 20.0968 0.1560
-21.8883 -5.4720 0.1390
-19.0887 -6.6312 0.1245
-19.0792 -8.6055 0.1289
-19.0690 -10.7440 0.1348
-19.0577 -13.1072 0.1425
-27.6380 -22.8961 0.2211
-23.0667 -22.8742 0.2001
-19.2598 -22.8560 0.1841
-15.9923 -22.8404 0.1718
-15.6707 -27.2763 0.1938
-18.9320 -41.0526 0.2785
-16.1545 -45.2751 0.2961
22.0193 -44.2628 0.3045
17.7551 -23.8288 0.1831
23.5098 -26.2843 0.2173
22.8843 -21.3912 0.1930
23.4347 -18.2749 0.1831
23.3475 -15.0622 0.1712
23.4296 -12.3043 0.1630
27.5814 -11.4731 0.1840
36.3147 -11.4259 0.2345
17.6670 -3.8665 0.1114
41.4470 -5.2537 0.2574
25.4922 -0.9363 0.1571
24.7353 1.3037 0.1526
24.5605 3.5120 0.1528
24.7160 5.8237 0.1564
24.7044 8.2081 0.1604
24.3138 10.5718 0.1634
24.6766 13.4655 0.1732
29.1656 40.4741 0.3073
24.0758 40.6195 0.2909
19.4804 40.7770 0.2784
-12.4798 20.9419 0.1502
-9.4315 7.5630 0.0745
-24.7634 -5.4812 0.1562
-19.0914 -6.0567 0.1234
-19.2063 -8.0428 0.1283
-19.0722 -10.0738 0.1329
-19.1853 -12.4416 0.1408
-29.2270 -22.9037 0.2287
-24.3613 -22.8804 0.2059
-20.3506 -22.8613 0.1885
-16.9378 -22.8449 0.1752
-15.6784 -25.6516 0.1852
-15.6498 -31.6470 0.2175
-16.1716 -41.7096 0.2756
-9.2854 -32.2301 0.2066
20.8026 -44.8288 0.3044
23.1838 -22.8814 0.2007
23.4367 -19.3220 0.1871
23.2569 -15.9140 0.1736
23.4074 -13.1152 0.1653
25.6155 -11.4806 0.1729
33.1961 -11.4438 0.2163
28.9479 -7.1640 0.1837
41.4525 -6.4020 0.2584
24.7382 0.6313 0.1524
24.1687 2.7889 0.1499
24.7190 5.1204 0.1555
24.7083 7.4710 0.1590
24.5300 9.8830 0.1629
24.6811 12.6109 0.1707
25.5617 40.5735 0.2954
20.8367 40.7350 0.2819
-28.4881 -5.4990 0.1787
-19.0941 -5.4917 0.1224
-19.2092 -7.4379 0.1269
-19.0753 -9.4223 0.1311
-19.1887 -11.7165 0.1385
-19.0529 -14.1131 0.1460
-25.7337 -22.8870 0.2121
-21.4960 -22.8667 0.1933
-17.9226 -22.8496 0.1789
-15.6855 -24.1638 0.1775
-15.6595 -29.6153 0.2064
-17.2303 -41.0943 0.2745
23.4585 -24.4448 0.2087
23.4413 -20.4195 0.1915
23.1401 -16.7741 0.1761
23.4119 -13.9660 0.1679
23.9392 -11.5196 0.1637
30.5325 -11.4619 0.2009
41.4581 -7.5604 0.2596
24.7574 -0.0405 0.1525
24.7316 2.1755 0.1529
24.4111 4.3692 0.1528
24.7121 6.7457 0.1578
24.1392 8.9719 0.1586
24.6855 11.7794 0.1685
27.0957 40.5260 0.3003
22.2284 40.6919 0.2856
-47.7066 -7.8720 0.2978
-21.3608 -5.5206 0.1359
-19.0879 -6.8011 0.1248
-19.0784 -8.7879 0.1294
-19.0681 -10.9436 0.1354
-19.0567 -13.3303 0.1433
-27.1934 -22.8940 0.2190
-22.7020 -22.8725 0.1985
-18.9506 -22.8546 0.1829
-15.7229 -22.8391 0.1708
-15.6683 -27.7798 0.1965
-18.5717 -41.1258 0.2780
-16.1491 -46.4195 0.3028
22.4579 -44.2607 0.3057
23.4644 -25.8185 0.2149
23.0105 -21.1697 0.1926
23.4331 -17.9766 0.1819
23.4165 -14.8451 0.1708
23.4539 -12.0807 0.1625
28.2045 -11.4708 0.1876
37.3276 -11.4200 0.2405
41.4454 -4.9198 0.2571
24.9683 -0.7188 0.1539
24.7345 1.5005 0.1526
24.5595 3.7108 0.1530
24.7151 6.0308 0.1567
24.7032 8.4258 0.1608
24.1308 10.7206 0.1627
24.7053 13.7365 0.1741
28.6911 40.4888 0.3057
23.6501 40.6327 0.2896
19.0903 40.7890 0.2774
-9.5122 7.5045 0.0746
-24.0930 -5.5336 0.1523
-19.0906 -6.2235 0.1237
-19.1126 -8.1824 0.1281
-19.0713 -10.2675 0.1334
-19.0678 -12.5814 0.1407
-28.7515 -22.9014 0.2264
-23.9754 -22.8786 0.2041
-20.0266 -22.8597 0.1872
-16.6577 -22.8436 0.1742
-15.6762 -26.1112 0.1876
-15.6467 -32.2827 0.2210
-16.1658 -42.6961 0.2813
20.9706 -44.2678 0.3017
23.2854 -22.6200 0.2000
23.4386 -19.0133 0.1859
22.8596 -15.3774 0.1697
23.4061 -12.8716 0.1646
26.1649 -11.4785 0.1760
34.0560 -11.4389 0.2213
48.5148 -11.5988 0.3073
42.5888 -6.2321 0.2652
24.7374 0.8276 0.1525
24.1678 2.9832 0.1500
24.7182 5.3251 0.1558
24.7072 7.6851 0.1594
24.5289 10.1094 0.1634
24.6798 12.8580 0.1714
25.1228 40.5871 0.2940
20.4370 40.7474 0.2808
-35.3688 20.0803 0.2505
-27.2936 -5.4933 0.1715
-19.0933 -5.6558 0.1227
-19.2084 -7.6133 0.1273
-19.0744 -9.6108 0.1316
-19.1877 -11.9258 0.1392
-30.4207 -22.9094 0.2346
-25.3242 -22.8850 0.2102
-21.1554 -22.8651 0.1919
-9.4249 -12.2141 0.0950
-15.6835 -24.5854 0.1796
-15.6567 -30.1871 0.2095
-16.8475 -41.0924 0.2736
24.1477 -35.7550 0.2658
23.4569 -24.0582 0.2070
23.4400 -20.0935 0.1902
23.2601 -16.5813 0.1760
23.4105 -13.7146 0.1671
24.3608 -11.4854 0.1659
31.2653 -11.4550 0.2051
41.5017 -7.2288 0.2595
24.7402 0.1558 0.1524
24.7308 2.3732 0.1530
24.1604 4.5224 0.1514
24.7110 6.9565 0.1581
24.5326 9.3403 0.1617
24.6842 12.0200 0.1691
32.5228 19.6070 0.2339
26.6423 40.5401 0.2988
21.8180 40.7046 0.2845
-9.6180 42.4250 0.2680
-45.3957 -7.8610 0.2838
-20.4580 -5.4606 0.1304
-19.0871 -6.9719 0.1252
-19.0775 -8.9716 0.1299
-19.0671 -11.1450 0.1360
-19.0556 -13.5559 0.1440
-26.7574 -22.8919 0.2169
-22.3430 -22.8708 0.1969
-18.6456 -22.8531 0.1817
-15.6902 -23.1830 0.1724
-15.6658 -28.2977 0.1992
-18.1795 -41.1238 0.2770
17.9087 -43.8030 0.2915
22.9000 -44.2586 0.3070
23.4626 -25.4088 0.2130
23.3780 -21.1679 0.1943
22.8685 -17.2571 0.1765
23.4151 -14.5851 0.1699
23.5172 -11.8783 0.1623
28.8519 -11.4683 0.1913
41.4438 -4.5867 0.2569
24.8408 -0.5180 0.1531
24.7336 1.6975 0.1527
24.5586 3.9102 0.1532
24.7143 6.2386 0.1570
24.7021 8.6447 0.1612
24.6885 11.2036 0.1670
24.7351 14.0110 0.1751
28.2133 40.4915 0.3040
23.2282 40.6457 0.2884
18.7030 40.8010 0.2765
-22.9908 -5.4727 0.1456
-19.0898 -6.3912 0.1240
-19.0805 -8.3483 0.1283
-19.0704 -10.4630 0.1340
-19.0592 -12.7938 0.1414
-28.2855 -22.8992 0.2242
-23.5960 -22.8768 0.2024
-19.7070 -22.8582 0.1859
-16.3808 -22.8423 0.1731
-15.6740 -26.5830 0.1901
-19.5217 -41.1052 0.2803
-16.1951 -43.8201 0.2878
21.4010 -44.2657 0.3029
23.2837 -22.2621 0.1984
23.4370 -18.7058 0.1847
22.8583 -15.1146 0.1688
23.4048 -12.6303 0.1638
26.7343 -11.4763 0.1792
34.9565 -11.4337 0.2266
17.7801 -4.1021 0.1124
41.4493 -5.7301 0.2578
24.7365 1.0240 0.1525
24.5618 3.2298 0.1526
24.7173 5.5303 0.1560
24.7060 7.9001 0.1598
24.5279 10.3373 0.1640
24.6785 13.1072 0.1721
24.6880 40.6006 0.2927
20.0402 40.7596 0.2798
16.9601 44.0417 0.2907
-12.2444 21.0843 0.1502
-9.4428 7.7487 0.0752
-26.4632 -5.5450 0.1665
-19.0926 -5.8207 0.1229
-19.2075 -7.7898 0.1277
-19.0735 -9.8008 0.1321
-19.1867 -12.1372 0.1398
-29.9208 -22.9070 0.2321
-24.9219 -22.8831 0.2084
-20.8199 -22.8635 0.1905
-9.3291 -12.2904 0.0950
-15.6815 -25.0177 0.1819
-15.6348 -30.7387 0.2124
-16.4674 -41.0906 0.2727
24.3832 -35.4936 0.2653
22.8925 -23.1097 0.2004
23.4386 -19.7720 0.1889
23.2588 -16.3037 0.1750
23.4092 -13.4656 0.1664
24.8661 -11.4835 0.1687
32.0373 -11.4505 0.2096
48.3011 -12.5337 0.3074
41.5001 -6.8899 0.2591
24.7394 0.3520 0.1524
24.7299 2.5712 0.1532
24.1595 4.7208 0.1516
24.7099 7.1681 0.1585
24.5316 9.5633 0.1622
24.6829 12.2625 0.1698
16.6242 17.7655 0.1499
26.1933 40.5540 0.2974
21.4109 40.7172 0.2834
-43.2919 -7.8509 0.2710
-19.8142 -5.4575 0.1266
-19.0862 -7.1437 0.1255
-19.0766 -9.1566 0.1303
-19.0661 -11.3482 0.1367
-19.0545 -13.7839 0.1449
-26.3294 -22.8898 0.2149
-21.9897 -22.8691 0.1954
-18.3444 -22.8517 0.1805
-15.6883 -23.5811 0.1745
-15.6632 -28.8303 0.2021
-17.7867 -41.1139 0.2759
23.4602 -24.8378 0.4209
23.4428 -20.7500 0.3857
22.9294 -16.9004 0.3510
23.4132 -14.2197 0.3375
23.6935 -11.6336 0.3252
29.8188 -11.4646 0.3936
33.8490 -6.4505 0.4246
41.4416 -4.1136 0.5131
24.7807 -0.2370 0.3053
24.7324 1.9780 0.3057
24.5572 4.1946 0.3069
24.7130 6.5358 0.3150
24.1402 8.7551 0.3164
24.6868 11.5405 0.3358
18.8643 19.2217 0.3318
27.5536 40.5119 0.6037
22.6421 40.6791 0.5736
17.5519 39.4596 0.5321
-15.4026 20.0964 0.3120
-21.8883 -5.4720 0.2780
-19.0887 -6.6312 0.2490
-19.0792 -8.6055 0.2579
-19.0690 -10.7440 0.2697
-19.0577 -13.1072 0.2850
-27.6379 -22.8961 0.4422
-23.0667 -22.8742 0.4002
-19.2598 -22.8560 0.3682
-15.9923 -22.8404 0.3435
-15.6707 -27.2762 0.3876
-18.9320 -41.0526 0.5570
-16.1545 -45.2751 0.5923
22.0193 -44.2628 0.6091
17.7546 -23.8282 0.3661
23.5098 -26.2843 0.4345
22.8843 -21.3912 0.3859
23.4347 -18.2749 0.3661
23.3475 -15.0622 0.3423
23.4296 -12.3043 0.3261
27.5814 -11.4731 0.3680
36.3147 -11.4259 0.4691
17.6666 -3.8664 0.2228
33.1687 -4.2044 0.4119
25.4922 -0.9363 0.3143
24.7353 1.3037 0.3052
24.5605 3.5120 0.3057
24.7160 5.8237 0.3129
24.7044 8.2081 0.3207
24.3138 10.5718 0.3267
24.6766 13.4655 0.3464
29.1656 40.4741 0.6147
24.0758 40.6195 0.5818
19.4804 40.7770 0.5568
-12.4798 20.9419 0.3004
-9.4312 7.5628 0.1489
-24.7634 -5.4812 0.3125
-19.0914 -6.0567 0.2468
-19.2063 -8.0428 0.2565
-19.0722 -10.0738 0.2657
-19.1853 -12.4416 0.2817
-29.2271 -22.9037 0.4575
-24.3613 -22.8804 0.4118
-20.3506 -22.8613 0.3771
-16.9378 -22.8449 0.3504
-15.6784 -25.6516 0.3704
-15.6498 -31.6470 0.4350
-16.1716 -41.7096 0.5512
-9.2760 -32.1975 0.4128
-3.5051 -34.3263 0.4251
20.8026 -44.8288 0.6089
23.1838 -22.8814 0.4013
23.4367 -19.3220 0.3742
23.2569 -15.9141 0.3472
23.4074 -13.1152 0.3306
25.6155 -11.4806 0.3458
33.1961 -11.4438 0.4326
26.7049 -6.6089 0.3390
41.4525 -6.4020 0.5168
24.7382 0.6313 0.3049
24.1687 2.7889 0.2998
24.7190 5.1204 0.3110
24.7083 7.4710 0.3180
24.5300 9.8830 0.3258
24.6811 12.6109 0.3415
25.5616 40.5735 0.5908
20.8367 40.7350 0.5637
-28.4881 -5.4990 0.3575
-19.0941 -5.4917 0.2448
-19.2092 -7.4379 0.2538
-19.0753 -9.4223 0.2621
-19.1887 -11.7165 0.2770
-19.0529 -14.1131 0.2921
-25.7337 -22.8870 0.4243
-21.4960 -22.8667 0.3867
-17.9226 -22.8496 0.3578
-15.6855 -24.1638 0.3549
-15.6595 -29.6153 0.4127
-17.2303 -41.0943 0.5490
23.4585 -24.4448 0.4174
23.4413 -20.4195 0.3830
23.1400 -16.7741 0.3521
23.4119 -13.9660 0.3359
23.9392 -11.5196 0.3273
30.5325 -11.4619 0.4018
41.4581 -7.5604 0.5192
41.5085 -3.7880 0.5135
24.7574 -0.0405 0.3050
24.7316 2.1755 0.3059
24.4111 4.3692 0.3055
24.7121 6.7457 0.3156
24.1392 8.9720 0.3173
24.6855 11.7794 0.3370
27.0956 40.5260 0.6006
22.2284 40.6919 0.5713
-47.7066 -7.8720 0.5957
-21.3608 -5.5206 0.2718
-19.0879 -6.8011 0.2496
-19.0784 -8.7879 0.2588
-19.0681 -10.9436 0.2709
-19.0567 -13.3303 0.2865
-27.1934 -22.8940 0.4380
-22.7020 -22.8725 0.3970
-18.9506 -22.8546 0.3658
-15.7229 -22.8391 0.3416
-15.6683 -27.7798 0.3929
-18.5714 -41.1252 0.5559
-16.1491 -46.4195 0.6055
22.4579 -44.2607 0.6115
23.4644 -25.8185 0.4298
23.0105 -21.1697 0.3852
23.4331 -17.9766 0.3639
23.4165 -14.8451 0.3416
23.4539 -12.0807 0.3250
28.2045 -11.4708 0.3751
37.3277 -11.4200 0.4809
41.4454 -4.9198 0.5142
24.9683 -0.7188 0.3078
24.7345 1.5005 0.3053
24.5595 3.7109 0.3060
24.7151 6.0308 0.3134
24.7032 8.4258 0.3216
24.1308 10.7206 0.3253
24.7053 13.7365 0.3483
28.6911 40.4888 0.6114
23.6501 40.6327 0.5793
19.0903 40.7890 0.5549
-9.5119 7.5043 0.1493
-24.0930 -5.5336 0.3046
-19.0906 -6.2235 0.2474
-19.1126 -8.1824 0.2561
-19.0713 -10.2675 0.2669
-19.0678 -12.5814 0.2814
-28.7515 -22.9014 0.4529
-23.9754 -22.8786 0.4083
-20.0266 -22.8597 0.3744
-16.6577 -22.8436 0.3483
-15.6762 -26.1112 0.3752
-15.6467 -32.2827 0.4420
-16.1669 -42.6989 0.5625
-3.2302 -34.3250 0.4248
20.9706 -44.2678 0.6035
23.2854 -22.6200 0.4000
23.4386 -19.0134 0.3718
22.8596 -15.3774 0.3394
23.4061 -12.8716 0.3291
26.1649 -11.4785 0.3520
34.0560 -11.4389 0.4426
26.8382 -6.4165 0.3400
42.5889 -6.2321 0.5303
24.7374 0.8276 0.3050
24.1678 2.9832 0.3000
24.7182 5.3251 0.3115
24.7072 7.6851 0.3188
24.5289 10.1094 0.3269
24.6798 12.8580 0.3429
25.1228 40.5871 0.5881
20.4370 40.7474 0.5617
-35.3680 20.0798 0.5011
-27.2936 -5.4933 0.3430
-19.0933 -5.6558 0.2453
-19.2084 -7.6133 0.2546
-19.0744 -9.6108 0.2631
-19.1877 -11.9258 0.2783
-30.4207 -22.9094 0.4692
-25.3242 -22.8850 0.4205
-21.1554 -22.8651 0.3838
-9.4247 -12.2138 0.1901
-15.6835 -24.5854 0.3593
-15.6567 -30.1871 0.4190
-16.8475 -41.0924 0.5472
24.1242 -35.7202 0.5311
23.4569 -24.0582 0.4140
23.4400 -20.0935 0.3804
23.2601 -16.5813 0.3519
23.4105 -13.7146 0.3343
24.3608 -11.4854 0.3318
31.2653 -11.4550 0.4102
30.1873 -8.0894 0.3851
31.0430 -5.4071 0.3882
43.8910 -3.6548 0.5426
24.7402 0.1558 0.3048
24.7308 2.3732 0.3061
24.1604 4.5224 0.3028
24.7110 6.9565 0.3163
24.5326 9.3403 0.3234
24.6842 12.0200 0.3383
32.5221 19.6065 0.4679
26.6423 40.5401 0.5977
21.8180 40.7046 0.5690
-9.6180 42.4250 0.5360
-45.3958 -7.8610 0.5676
-20.4580 -5.4606 0.2609
-19.0871 -6.9719 0.2504
-19.0775 -8.9716 0.2597
-19.0671 -11.1450 0.2721
-19.0556 -13.5559 0.2881
-26.7574 -22.8919 0.4338
-22.3430 -22.8708 0.3939
-18.6456 -22.8531 0.3634
-15.6902 -23.1830 0.3449
-15.6658 -28.2976 0.3985
-18.1793 -41.1234 0.5540
17.8782 -43.7283 0.5820
22.9000 -44.2586 0.6140
23.4626 -25.4089 0.4261
23.3780 -21.1679 0.3886
22.8685 -17.2571 0.3530
23.4151 -14.5851 0.3399
23.5172 -11.8783 0.3246
28.8519 -11.4683 0.3825
24.5769 -7.3064 0.3159
41.5306 -8.4012 0.5221
41.4438 -4.5867 0.5137
24.8408 -0.5180 0.3061
24.7336 1.6975 0.3055
24.5586 3.9102 0.3064
24.7143 6.2386 0.3141
24.7021 8.6447 0.3225
24.6885 11.2036 0.3340
24.7351 14.0110 0.3503
28.2133 40.4915 0.6081
23.2282 40.6457 0.5768
18.7030 40.8010 0.5530
-22.9909 -5.4727 0.2912
-19.0898 -6.3912 0.2480
-19.0805 -8.3483 0.2566
-19.0704 -10.4630 0.2680
-19.0592 -12.7938 0.2828
-28.2855 -22.8992 0.4484
-23.5960 -22.8768 0.4049
-19.7070 -22.8582 0.3718
-16.3808 -22.8423 0.3463
-15.6740 -26.5830 0.3802
-19.5217 -41.1052 0.5606
-16.1619 -43.7302 0.5744
0.1182 -34.0521 0.4195
21.4010 -44.2657 0.6058
23.2837 -22.2621 0.3969
23.4370 -18.7058 0.3695
22.8583 -15.1146 0.3376
23.4048 -12.6303 0.3277
26.7342 -11.4763 0.3585
34.9565 -11.4337 0.4531
17.7775 -4.1015 0.2248
41.4493 -5.7301 0.5155
24.7365 1.0240 0.3050
24.5618 3.2298 0.3052
24.7173 5.5303 0.3121
24.7060 7.9001 0.3196
24.5279 10.3373 0.3279
24.6785 13.1072 0.3443
24.6880 40.6006 0.5855
20.0402 40.7596 0.5596
16.9597 44.0406 0.5815
-12.2444 21.0842 0.3004
-9.4423 7.7484 0.1505
-26.4631 -5.5450 0.3331
-19.0926 -5.8207 0.2459
-19.2075 -7.7898 0.2554
-19.0735 -9.8008 0.2642
-19.1867 -12.1372 0.2797
-29.9208 -22.9070 0.4643
-24.9219 -22.8831 0.4168
-20.8199 -22.8635 0.3810
-9.3289 -12.2901 0.1901
-15.6815 -25.0177 0.3638
-15.6348 -30.7387 0.4249
-16.4674 -41.0906 0.5454
24.3672 -35.4703 0.5302
22.8925 -23.1097 0.4008
23.4386 -19.7720 0.3778
23.2588 -16.3037 0.3500
23.4092 -13.4656 0.3327
24.8661 -11.4835 0.3375
32.0373 -11.4505 0.4192
48.3011 -12.5337 0.6148
26.2663 -4.3607 0.3281
24.7394 0.3520 0.3048
24.7299 2.5712 0.3063
24.1595 4.7208 0.3033
24.7099 7.1681 0.3170
24.5316 9.5633 0.3244
24.6829 12.2625 0.3396
16.6242 17.7656 0.2998
26.1933 40.5540 0.5948
21.4108 40.7172 0.5668
-43.2918 -7.8509 0.5421
-19.8142 -5.4575 0.2532
-19.0862 -7.1437 0.2511
-19.0766 -9.1566 0.2607
-19.0661 -11.3482 0.2734
-19.0545 -13.7839 0.2897
-26.3294 -22.8898 0.4298
-21.9897 -22.8691 0.3909
-18.3444 -22.8517 0.3610
-15.6883 -23.5811 0.3489
-15.6632 -28.8302 0.4042
-17.7851 -41.1101 0.5519
23.4602 -24.8378 0.6315
23.4428 -20.7500 0.5786
22.9294 -16.9004 0.5264
23.4132 -14.2197 0.5063
23.6935 -11.6336 0.4879
29.8188 -11.4646 0.5904
33.8294 -6.4468 0.6365
41.4416 -4.1136 0.7697
24.7807 -0.2371 0.4580
24.7324 1.9780 0.4586
24.5572 4.1947 0.4604
24.7130 6.5359 0.4725
24.1402 8.7551 0.4746
24.6868 11.5405 0.5037
18.8638 19.2212 0.4978
27.5536 40.5119 0.9055
22.6421 40.6791 0.8605
17.5519 39.4596 0.7982
-15.4022 20.0959 0.4680
-21.8883 -5.4720 0.4170
-19.0887 -6.6312 0.3735
-19.0792 -8.6055 0.3868
-19.0690 -10.7440 0.4045
-19.0577 -13.1072 0.4275
-27.6380 -22.8961 0.6633
-23.0667 -22.8742 0.6004
-19.2598 -22.8560 0.5524
-15.9923 -22.8404 0.5153
-15.6707 -27.2762 0.5814
-18.9320 -41.0526 0.8355
-16.1545 -45.2751 0.8884
22.0193 -44.2628 0.9137
17.6969 -23.7507 0.5474
23.5098 -26.2843 0.6518
22.8843 -21.3912 0.5790
23.4347 -18.2749 0.5492
23.3475 -15.0622 0.5135
23.4296 -12.3043 0.4891
27.5814 -11.4731 0.5521
22.4385 -7.0599 0.4348
17.6661 -3.8663 0.3342
33.1423 -4.2010 0.6174
25.4922 -0.9363 0.4715
24.7353 1.3038 0.4578
24.5605 3.5120 0.4586
24.7160 5.8237 0.4693
24.7044 8.2081 0.4811
24.3138 10.5718 0.4901
24.6766 13.4655 0.5196
29.1656 40.4741 0.9220
24.0758 40.6195 0.8727
19.4804 40.7770 0.8352
-12.4798 20.9419 0.4506
-9.4310 7.5626 0.2234
-24.7634 -5.4812 0.4688
-19.0914 -6.0567 0.3702
-19.2063 -8.0428 0.3848
-19.0722 -10.0738 0.3986
-19.1853 -12.4416 0.4226
-29.2270 -22.9037 0.6863
-24.3613 -22.8804 0.6177
-20.3506 -22.8613 0.5657
-16.9378 -22.8449 0.5256
-15.6784 -25.6516 0.5556
-15.6498 -31.6470 0.6525
-16.1716 -41.7096 0.8268
-9.2548 -32.1238 0.6179
-3.5051 -34.3267 0.6377
20.8026 -44.8287 0.9134
23.1838 -22.8814 0.6020
23.4367 -19.3220 0.5614
23.2569 -15.9141 0.5208
23.4074 -13.1152 0.4959
25.6155 -11.4806 0.5188
33.1961 -11.4438 0.6490
26.7038 -6.6086 0.5084
41.4525 -6.4020 0.7752
24.7382 0.6313 0.4574
24.1687 2.7889 0.4497
24.7190 5.1204 0.4666
24.7083 7.4710 0.4771
24.5300 9.8830 0.4888
24.6811 12.6109 0.5123
25.5617 40.5735 0.8863
20.8367 40.7350 0.8457
-28.4880 -5.4990 0.5362
-19.0941 -5.4917 0.3672
-19.2092 -7.4379 0.3807
-19.0753 -9.4223 0.3932
-19.1887 -11.7165 0.4155
-19.0529 -14.1131 0.4382
-25.7337 -22.8870 0.6365
-21.4960 -22.8667 0.5800
-17.9226 -22.8496 0.5367
-15.6855 -24.1638 0.5324
-15.6595 -29.6153 0.6192
-17.2303 -41.0943 0.8236
23.4585 -24.4448 0.6262
23.4413 -20.4195 0.5746
23.1400 -16.7741 0.5282
23.4119 -13.9660 0.5038
23.9392 -11.5196 0.4910
30.5325 -11.4619 0.6028
30.0285 -8.3026 0.5758
35.9900 -6.5632 0.6761
44.1894 -4.0327 0.8201
24.7574 -0.0405 0.4576
24.7316 2.1755 0.4589
24.4111 4.3692 0.4583
24.7121 6.7457 0.4734
24.1392 8.9720 0.4760
24.6855 11.7794 0.5055
27.0956 40.5260 0.9010
22.2284 40.6919 0.8570
-47.7066 -7.8720 0.8936
-21.3608 -5.5206 0.4078
-19.0879 -6.8011 0.3745
-19.0784 -8.7879 0.3882
-19.0681 -10.9436 0.4063
-19.0567 -13.3303 0.4298
-27.1935 -22.8940 0.6570
-22.7020 -22.8725 0.5956
-18.9506 -22.8546 0.5487
-15.7229 -22.8391 0.5125
-15.6683 -27.7798 0.5895
-18.5676 -41.1168 0.8338
-16.1491 -46.4195 0.9084
17.6203 -44.0928 0.8776
22.4579 -44.2607 0.9173
17.9875 -23.7453 0.5506
23.4644 -25.8185 0.6448
23.0105 -21.1697 0.5779
23.4331 -17.9766 0.5459
23.4165 -14.8451 0.5124
23.4539 -12.0807 0.4876
28.2045 -11.4708 0.5627
37.3276 -11.4200 0.7215
35.1552 -7.4022 0.6640
41.4454 -4.9198 0.7714
24.9683 -0.7188 0.4617
24.7345 1.5005 0.4580
24.5595 3.7108 0.4591
24.7151 6.0308 0.4702
24.7032 8.4258 0.4824
24.1308 10.7206 0.4880
24.7053 13.7365 0.5224
28.6911 40.4888 0.9172
23.6501 40.6327 0.8689
19.0903 40.7890 0.8324
-9.5117 7.5041 0.2239
-24.0930 -5.5336 0.4569
-19.0906 -6.2235 0.3711
-19.1126 -8.1824 0.3842
-19.0713 -10.2675 0.4003
-19.0678 -12.5814 0.4222
-28.7515 -22.9014 0.6793
-23.9754 -22.8786 0.6125
-20.0266 -22.8597 0.5617
-16.6577 -22.8436 0.5225
-15.6762 -26.1112 0.5629
-15.6467 -32.2827 0.6630
-16.1669 -42.6989 0.8438
-3.2302 -34.3254 0.6372
20.9706 -44.2678 0.9053
23.2854 -22.6200 0.6000
23.4386 -19.0133 0.5578
22.8596 -15.3774 0.5092
23.4061 -12.8716 0.4937
26.1649 -11.4785 0.5281
22.5298 -7.5674 0.4392
26.8257 -6.4135 0.5098
42.5888 -6.2321 0.7955
24.7374 0.8276 0.4575
24.1678 2.9832 0.4501
24.7182 5.3251 0.4673
24.7072 7.6851 0.4782
24.5289 10.1094 0.4903
24.6798 12.8580 0.5143
25.1228 40.5871 0.8822
20.4370 40.7474 0.8425
-35.3671 20.0794 0.7517
-27.2936 -5.4933 0.5146
-19.0933 -5.6558 0.3680
-19.2084 -7.6133 0.3819
-19.0744 -9.6108 0.3948
-19.1877 -11.9258 0.4175
-30.4207 -22.9094 0.7038
-25.3242 -22.8850 0.6308
-21.1554 -22.8651 0.5757
-9.4245 -12.2135 0.2851
-15.6835 -24.5854 0.5390
-15.6567 -30.1871 0.6285
-16.8475 -41.0924 0.8208
24.1282 -35.7261 0.7968
23.4569 -24.0582 0.6210
23.4400 -20.0935 0.5706
23.2601 -16.5813 0.5279
23.4105 -13.7146 0.5015
24.3608 -11.4854 0.4978
31.2653 -11.4550 0.6154
30.1706 -8.0849 0.5773
31.0692 -5.4116 0.5829
24.7402 0.1558 0.4573
24.7308 2.3732 0.4592
24.1604 4.5224 0.4543
24.7110 6.9565 0.4745
24.5326 9.3403 0.4852
24.6842 12.0200 0.5074
32.5213 19.6061 0.7018
26.6423 40.5401 0.8966
21.8180 40.7046 0.8536
-9.6180 42.4250 0.8040
-45.3958 -7.8610 0.8515
-20.4580 -5.4606 0.3913
-19.0871 -6.9719 0.3756
-19.0775 -8.9716 0.3896
-19.0671 -11.1450 0.4082
-19.0556 -13.5559 0.4322
-26.7574 -22.8919 0.6508
-22.3430 -22.8708 0.5909
-18.6456 -22.8531 0.5451
-15.6902 -23.1830 0.5174
-15.6658 -28.2976 0.5978
-18.1756 -41.1151 0.8308
17.8626 -43.6902 0.8724
22.9000 -44.2586 0.9210
23.4626 -25.4089 0.6392
23.3780 -21.1679 0.5829
22.8685 -17.2571 0.5295
23.4151 -14.5851 0.5098
23.5172 -11.8783 0.4870
28.8519 -11.4683 0.5738
24.6174 -7.3185 0.4747
29.8189 -6.0321 0.5623
41.4438 -4.5867 0.7707
24.8408 -0.5180 0.4592
24.7336 1.6975 0.4582
24.5586 3.9102 0.4596
24.7143 6.2386 0.4711
24.7021 8.6447 0.4837
24.6885 11.2036 0.5011
24.7351 14.0110 0.5254
28.2133 40.4915 0.9121
23.2282 40.6457 0.8652
18.7030 40.8010 0.8295
-22.9909 -5.4727 0.4368
-19.0898 -6.3912 0.3721
-19.0805 -8.3483 0.3849
-19.0704 -10.4630 0.4020
-19.0592 -12.7938 0.4243
-28.2855 -22.8992 0.6726
-23.5960 -22.8768 0.6074
-19.7071 -22.8582 0.5578
-16.3807 -22.8423 0.5195
-15.6740 -26.5830 0.5704
-19.5217 -41.1052 0.8410
-16.1619 -43.7302 0.8617
0.1183 -34.0527 0.6294
21.4010 -44.2657 0.9087
23.2837 -22.2621 0.5954
23.4370 -18.7058 0.5542
22.8583 -15.1146 0.5065
23.4048 -12.6303 0.4915
26.7343 -11.4763 0.5377
22.4919 -7.3567 0.4374
17.7750 -4.1009 0.3372
41.4493 -5.7301 0.7734
24.7365 1.0240 0.4576
24.5618 3.2298 0.4579
24.7173 5.5303 0.4681
24.7060 7.9001 0.4794
24.5279 10.3373 0.4919
24.6785 13.1072 0.5165
24.6880 40.6006 0.8782
20.0402 40.7597 0.8395
16.9593 44.0396 0.8722
-12.2444 21.0842 0.4506
-9.4418 7.7480 0.2257
-26.2141 -5.4928 0.4950
-19.0926 -5.8207 0.3689
-19.2075 -7.7898 0.3831
-19.0735 -9.8008 0.3963
-19.1867 -12.1372 0.4196
-29.9208 -22.9070 0.6964
-24.9219 -22.8831 0.6253
-20.8199 -22.8635 0.5715
-9.3286 -12.2897 0.2852
-15.6815 -25.0177 0.5457
-15.6348 -30.7387 0.6374
-16.4674 -41.0906 0.8181
24.3861 -35.4979 0.7960
22.8925 -23.1097 0.6012
23.4386 -19.7720 0.5667
23.2588 -16.3037 0.5250
23.4092 -13.4656 0.4991
24.8661 -11.4835 0.5062
32.0373 -11.4505 0.6288
27.4250 -7.1165 0.5237
26.2527 -4.3585 0.4919
24.7394 0.3520 0.4573
24.7299 2.5712 0.4595
24.1595 4.7208 0.4550
24.7099 7.1681 0.4755
24.5316 9.5633 0.4866
24.6829 12.2625 0.5094
16.6242 17.7656 0.4497
26.1933 40.5540 0.8923
21.4109 40.7172 0.8502
-43.2919 -7.8509 0.8132
-19.8142 -5.4575 0.3798
-19.0862 -7.1437 0.3766
-19.0766 -9.1566 0.3911
-19.0661 -11.3482 0.4101
-19.0545 -13.7839 0.4346
-26.3294 -22.8898 0.6448
-21.9897 -22.8691 0.5864
-18.3444 -22.8517 0.5416
-15.6883 -23.5811 0.5235
-15.6632 -28.8303 0.6064
-17.7811 -41.1011 0.8277
23.4602 -24.8378 0.8420
23.4428 -20.7500 0.7716
22.9294 -16.9004 0.7020
23.4132 -14.2197 0.6751
23.6935 -11.6336 0.6505
29.8187 -11.4646 0.7873
25.8832 -4.9325 0.6494
41.4416 -4.1135 1.0263
24.7807 -0.2371 0.6108
24.7324 1.9780 0.6115
24.5572 4.1947 0.6140
24.7130 6.5358 0.6300
24.1402 8.7551 0.6329
24.6868 11.5405 0.6716
18.8633 19.2207 0.6637
27.5536 40.5119 1.2075
22.6421 40.6791 1.1474
17.5519 39.4596 1.0644
-15.4018 20.0954 0.6240
-21.8799 -5.4699 0.5558
-19.0887 -6.6312 0.4980
-19.0792 -8.6055 0.5158
-19.0690 -10.7440 0.5394
-19.0577 -13.1072 0.5700
-27.6380 -22.8961 0.8845
-23.0667 -22.8742 0.8006
-19.2597 -22.8560 0.7366
-15.9923 -22.8404 0.6872
-15.6707 -27.2763 0.7753
-18.9320 -41.0526 1.1141
-16.1545 -45.2751 1.1847
22.0193 -44.2628 1.2184
24.0879 -39.2010 1.1339
17.6718 -23.7171 0.7289
23.5098 -26.2843 0.8691
22.8843 -21.3912 0.7720
23.4347 -18.2749 0.7324
23.3475 -15.0622 0.6847
23.4296 -12.3043 0.6522
27.5814 -11.4731 0.7362
22.4129 -7.0519 0.5790
17.6657 -3.8662 0.4457
32.9820 -4.1807 0.8193
25.4921 -0.9363 0.6287
24.7353 1.3037 0.6105
24.5605 3.5120 0.6115
24.7160 5.8237 0.6258
24.7044 8.2081 0.6416
24.3138 10.5718 0.6534
24.6766 13.4655 0.6928
29.1656 40.4741 1.2295
24.0758 40.6195 1.1637
19.4804 40.7770 1.1137
-12.4798 20.9419 0.6008
-9.4308 7.5624 0.2979
-24.7634 -5.4812 0.6251
-19.0914 -6.0567 0.4936
-19.0965 -7.9968 0.5102
-19.0722 -10.0738 0.5316
-19.0701 -12.3669 0.5602
-29.2270 -22.9037 0.9151
-24.3613 -22.8804 0.8237
-20.3506 -22.8613 0.7543
-16.9378 -22.8449 0.7009
-15.6784 -25.6516 0.7409
-15.6498 -31.6470 0.8701
-16.1716 -41.7096 1.1025
-9.2470 -32.0968 0.8232
-3.5052 -34.3271 0.8504
20.8026 -44.8288 1.2180
20.9740 -36.3074 1.0334
27.5737 -39.1828 1.1808
23.1838 -22.8814 0.8028
23.4367 -19.3220 0.7486
23.2569 -15.9140 0.6945
23.4074 -13.1152 0.6613
25.6155 -11.4806 0.6918
33.1961 -11.4438 0.8654
25.5774 -6.3298 0.6494
32.3617 -4.9980 0.8070
24.7382 0.6313 0.6099
24.1687 2.7889 0.5996
24.7190 5.1204 0.6221
24.7083 7.4710 0.6362
24.5300 9.8830 0.6518
24.6811 12.6109 0.6831
25.5616 40.5735 1.1818
20.8367 40.7350 1.1276
-28.4881 -5.4990 0.7150
-19.0941 -5.4917 0.4896
-19.1000 -7.3956 0.5048
-19.0753 -9.4223 0.5243
-19.0746 -11.6468 0.5508
-19.0529 -14.1131 0.5843
-25.7337 -22.8870 0.8487
-21.4960 -22.8667 0.7735
-17.9226 -22.8496 0.7157
-15.6855 -24.1638 0.7100
-15.6595 -29.6153 0.8256
-17.2303 -41.0943 1.0982
20.9947 -38.7340 1.0858
26.0182 -39.1911 1.1593
23.4585 -24.4448 0.8350
23.4413 -20.4195 0.7662
23.1400 -16.7741 0.7044
23.4119 -13.9660 0.6718
23.9392 -11.5196 0.6547
30.5325 -11.4619 0.8037
29.9380 -8.2776 0.7655
31.1113 -5.6735 0.7794
44.2637 -4.0395 1.0954
24.7574 -0.0405 0.6102
24.7316 2.1755 0.6119
24.4111 4.3692 0.6112
24.7121 6.7457 0.6313
24.1392 8.9719 0.6347
24.6855 11.7794 0.6741
27.0957 40.5260 1.2014
22.2283 40.6919 1.1427
-47.7067 -7.8720 1.1916
-21.1542 -5.4671 0.5385
-19.0879 -6.8011 0.4994
-19.0784 -8.7879 0.5177
-19.0681 -10.9436 0.5418
-19.0567 -13.3303 0.5731
-27.1935 -22.8940 0.8761
-22.7020 -22.8725 0.7942
-18.9506 -22.8546 0.7317
-15.7229 -22.8391 0.6833
-15.6683 -27.7798 0.7860
-18.5638 -41.1083 1.1116
-16.1491 -46.4195 1.2112
17.5298 -43.8662 1.1642
22.4579 -44.2607 1.2232
24.5175 -39.1996 1.1395
17.9632 -23.7132 0.7332
23.4644 -25.8185 0.8598
23.0105 -21.1697 0.7706
23.4331 -17.9766 0.7279
23.4165 -14.8451 0.6833
23.4539 -12.0807 0.6502
28.2045 -11.4708 0.7504
37.3276 -11.4200 0.9620
24.0798 -5.0702 0.6065
41.4454 -4.9198 1.0286
24.9683 -0.7188 0.6156
24.7345 1.5005 0.6107
24.5595 3.7108 0.6121
24.7151 6.0308 0.6270
24.7032 8.4258 0.6433
24.1308 10.7206 0.6508
24.7053 13.7365 0.6967
28.6911 40.4888 1.2230
23.6501 40.6327 1.1587
19.0903 40.7890 1.1099
-9.5114 7.5039 0.2986
-23.8491 -5.4776 0.6031
-19.0906 -6.2235 0.4949
-19.0955 -8.1750 0.5119
-19.0713 -10.2675 0.5338
-19.0678 -12.5814 0.5630
-28.7515 -22.9014 0.9059
-23.9754 -22.8786 0.8167
-20.0266 -22.8597 0.7490
-16.6577 -22.8436 0.6968
-15.6762 -26.1112 0.7506
-15.6467 -32.2827 0.8841
-16.1669 -42.6989 1.1252
-3.2302 -34.3258 0.8497
20.9706 -44.2678 1.2072
21.0337 -35.7530 1.0223
28.0391 -39.1803 1.1874
23.2854 -22.6200 0.8001
23.4386 -19.0133 0.7438
22.8596 -15.3774 0.6790
23.4061 -12.8716 0.6583
26.1649 -11.4785 0.7042
22.5037 -7.5587 0.5851
25.6268 -6.1268 0.6494
42.5888 -6.2321 1.0608
24.7374 0.8276 0.6100
24.1678 2.9832 0.6001
24.7182 5.3251 0.6232
24.7072 7.6851 0.6377
24.5289 10.1094 0.6538
24.6798 12.8580 0.6858
25.1228 40.5871 1.1764
20.4370 40.7474 1.1235
-35.3663 20.0789 1.0023
-27.2937 -5.4933 0.6861
-19.0933 -5.6558 0.4908
-19.0990 -7.5700 0.5063
-19.0744 -9.6108 0.5264
-19.0733 -11.8547 0.5535
-30.4207 -22.9094 0.9385
-25.3242 -22.8850 0.8412
-21.1554 -22.8651 0.7677
-9.4242 -12.2132 0.3802
-15.6835 -24.5854 0.7187
-15.6567 -30.1871 0.8381
-16.8475 -41.0924 1.0945
20.9907 -38.0041 1.0700
24.1549 -35.7658 1.0636
23.4569 -24.0582 0.8281
23.4400 -20.0935 0.7609
23.2601 -16.5813 0.7040
23.4105 -13.7146 0.6687
24.3608 -11.4854 0.6638
31.2653 -11.4550 0.8206
28.2095 -7.5594 0.7198
31.0959 -5.4163 0.7779
24.7402 0.1558 0.6097
24.7308 2.3732 0.6123
24.1604 4.5224 0.6058
24.7110 6.9565 0.6327
24.5326 9.3403 0.6469
24.6842 12.0200 0.6766
32.5205 19.6056 0.9359
26.6423 40.5401 1.1956
21.8180 40.7046 1.1382
-9.6180 42.4250 1.0721
-45.3958 -7.8610 1.1354
-20.4580 -5.4606 0.5218
-19.0871 -6.9719 0.5008
-19.0775 -8.9716 0.5196
-19.0671 -11.1450 0.5443
-19.0556 -13.5559 0.5763
-26.7574 -22.8919 0.8678
-22.3430 -22.8708 0.7880
-18.6456 -22.8531 0.7269
-15.6902 -23.1830 0.6899
-15.6658 -28.2977 0.7971
-18.1719 -41.1066 1.1076
17.8267 -43.6024 1.1609
22.9000 -44.2586 1.2281
24.9511 -39.1982 1.1451
30.1667 -39.1739 1.2185
23.4626 -25.4088 0.8523
23.3780 -21.1679 0.7772
22.8685 -17.2571 0.7061
23.4151 -14.5851 0.6799
23.5172 -11.8783 0.6493
28.8519 -11.4683 0.7652
24.6861 -7.3389 0.6347
25.8259 -5.2243 0.6494
41.4438 -4.5867 1.0276
24.8408 -0.5180 0.6123
24.7336 1.6975 0.6110
24.5586 3.9102 0.6129
24.7143 6.2386 0.6282
24.7021 8.6447 0.6450
24.6885 11.2036 0.6682
24.7351 14.0110 0.7006
28.2133 40.4915 1.2163
23.2282 40.6457 1.1538
18.7030 40.8010 1.1062
-22.9908 -5.4727 0.5824
-19.0898 -6.3912 0.4961
-19.0805 -8.3483 0.5133
-19.0704 -10.4630 0.5361
-19.0592 -12.7938 0.5657
-28.2855 -22.8992 0.8969
-23.5960 -22.8768 0.8100
-19.7070 -22.8582 0.7438
-16.3808 -22.8423 0.6927
-15.6740 -26.5830 0.7605
-19.5217 -41.1052 1.1215
-16.1619 -43.7302 1.1490
0.1183 -34.0534 0.8392
21.4010 -44.2657 1.2117
23.4838 -39.2030 1.1262
28.5113 -39.1800 1.1942
23.2837 -22.2621 0.7939
23.4370 -18.7058 0.7390
22.8583 -15.1146 0.6754
23.4048 -12.6303 0.6554
26.7342 -11.4763 0.7170
22.4660 -7.3483 0.5825
17.7724 -4.1003 0.4495
33.4494 -4.6241 0.8322
24.7365 1.0240 0.6102
24.5618 3.2298 0.6105
24.7173 5.5303 0.6242
24.7060 7.9001 0.6393
24.5279 10.3373 0.6560
24.6785 13.1072 0.6887
24.6880 40.6006 1.1711
20.0402 40.7597 1.1194
16.9589 44.0386 1.1630
-12.2444 21.0843 0.6009
-9.4414 7.7476 0.3010
-26.1914 -5.4880 0.6595
-19.0926 -5.8207 0.4919
-19.0980 -7.7453 0.5079
-19.0735 -9.8008 0.5285
-19.0720 -12.0646 0.5562
-29.9208 -22.9070 0.9287
-24.9219 -22.8831 0.8338
-20.8199 -22.8635 0.7621
-9.3284 -12.2894 0.3802
-15.6815 -25.0177 0.7277
-15.6348 -30.7387 0.8499
-16.4674 -41.0906 1.0910
20.9868 -37.2950 1.0547
24.3713 -35.4764 1.0607
22.8925 -23.1097 0.8017
23.4386 -19.7720 0.7557
23.2588 -16.3037 0.7000
23.4092 -13.4656 0.6656
24.8661 -11.4835 0.6750
32.0373 -11.4505 0.8385
28.1166 -7.2960 0.7159
26.2195 -4.3530 0.6550
24.7394 0.3520 0.6098
24.7299 2.5712 0.6128
24.1595 4.7208 0.6067
24.7099 7.1681 0.6341
24.5316 9.5633 0.6489
24.6829 12.2625 0.6792
16.6242 17.7655 0.5996
26.1933 40.5540 1.1898
21.4108 40.7172 1.1338
-43.2918 -7.8509 1.0843
-19.8142 -5.4575 0.5065
-19.0862 -7.1437 0.5022
-19.0766 -9.1566 0.5215
-19.0661 -11.3482 0.5468
-19.0545 -13.7839 0.5796
-26.3294 -22.8898 0.8598
-21.9897 -22.8691 0.7819
-18.3444 -22.8517 0.7222
-15.6883 -23.5811 0.6980
-15.6632 -28.8303 0.8086
-17.7793 -41.0969 1.1035
25.3892 -39.1968 1.1509
30.6607 -39.1689 1.2259
23.4602 -24.8378 1.0526
23.4428 -20.7500 0.9646
22.9294 -16.9004 0.8776
23.4132 -14.2197 0.8440
23.6935 -11.6336 0.8132
29.8188 -11.4646 0.9843
32.7001 -6.2316 1.0256
41.4416 -4.1136 1.2831
24.7807 -0.2370 0.7635
24.7324 1.9780 0.7644
24.5572 4.1947 0.7676
24.7130 6.5359 0.7876
24.1402 8.7551 0.7912
24.6868 11.5405 0.8396
18.8628 19.2202 0.8297
27.5536 40.5119 1.5095
22.6421 40.6791 1.4344
17.5519 39.4596 1.3306
-26.5159 41.8675 1.5269
-15.4014 20.0949 0.7800
-21.8695 -5.4673 0.6945
-19.0887 -6.6312 0.6226
-19.0792 -8.6055 0.6448
-19.0690 -10.7440 0.6743
-19.0577 -13.1072 0.7126
-27.6380 -22.8961 1.1057
-23.0667 -22.8742 1.0009
-19.2598 -22.8560 0.9209
-15.9923 -22.8404 0.8590
-15.6707 -27.2763 0.9692
-20.1569 -43.7088 1.4829
-13.8879 -38.9225 1.2732
-9.6783 -37.3796 1.1896
-7.5062 -45.3631 1.4166
-3.4615 -46.3079 1.4307
0.6872 -46.5543 1.4345
4.8168 -46.0894 1.4277
8.8057 -44.9370 1.4108
12.5436 -43.1541 1.3846
15.2836 -39.1432 1.2947
17.1522 -34.4791 1.1865
20.9714 -34.1292 1.2342
17.6543 -23.6936 0.9103
23.5098 -26.2843 1.0865
22.8843 -21.3912 0.9651
23.4347 -18.2749 0.9156
23.3475 -15.0622 0.8560
23.4296 -12.3043 0.8154
27.5814 -11.4731 0.9204
22.3872 -7.0438 0.7231
17.6653 -3.8661 0.5571
32.9770 -4.1801 1.0241
25.4922 -0.9363 0.7859
24.7353 1.3037 0.7631
24.5605 3.5120 0.7644
24.7160 5.8237 0.7824
24.7044 8.2081 0.8021
24.3138 10.5718 0.8169
24.6766 13.4655 0.8661
29.1656 40.4741 1.5370
24.0758 40.6195 1.4548
19.4804 40.7770 1.3923
-12.4798 20.9419 0.7511
-9.4305 7.5622 0.3724
-24.7634 -5.4812 0.7814
-19.0914 -6.0567 0.6171
-19.0826 -7.9910 0.6374
-19.0722 -10.0738 0.6645
-19.0613 -12.3612 0.6999
-29.2270 -22.9037 1.1440
-24.3613 -22.8804 1.0297
-20.3506 -22.8613 0.9430
-16.9378 -22.8449 0.8762
-15.6784 -25.6516 0.9262
-15.6498 -31.6470 1.0877
-15.3349 -39.5515 1.3069
-9.2393 -32.0699 1.0282
-8.1148 -41.9384 1.3161
-3.5052 -34.3275 1.0631
-0.5767 -46.5547 1.4344
3.5719 -46.3051 1.4309
7.6158 -45.3569 1.4170
11.4406 -43.7577 1.3935
15.0646 -41.9061 1.3720
16.1935 -34.8962 1.1853
19.9951 -34.6128 1.2316
22.4357 -31.8815 1.2011
26.9772 -31.8607 1.2862
23.1838 -22.8814 1.0036
23.4367 -19.3220 0.9358
23.2569 -15.9141 0.8682
23.4074 -13.1152 0.8267
25.6155 -11.4806 0.8648
33.1961 -11.4438 1.0818
26.6600 -6.5978 0.8462
32.3617 -4.9980 1.0089
24.7382 0.6313 0.7624
24.1687 2.7889 0.7496
24.7190 5.1204 0.7778
24.7083 7.4710 0.7953
24.5300 9.8830 0.8148
24.6811 12.6109 0.8539
25.5616 40.5735 1.4775
20.8367 40.7350 1.4097
-28.4881 -5.4990 0.8939
-19.0941 -5.4917 0.6121
-19.0862 -7.3902 0.6306
-19.0753 -9.4223 0.6555
-19.0647 -11.6408 0.6882
-19.0529 -14.1131 0.7305
-25.7337 -22.8870 1.0610
-21.4960 -22.8667 0.9669
-17.9226 -22.8496 0.8947
-15.6855 -24.1638 0.8876
-15.6595 -29.6153 1.0321
-17.2613 -41.1682 1.3753
-12.1043 -38.0952 1.2315
-8.3688 -37.7291 1.1907
-5.9387 -45.8149 1.4233
-1.8389 -46.4894 1.4334
2.3172 -46.4561 1.4331
6.4057 -45.7166 1.4223
10.3083 -44.3082 1.4016
13.9701 -42.4469 1.3768
15.3009 -35.4637 1.1900
18.6913 -34.4843 1.2085
21.1459 -31.8520 1.1779
25.5283 -31.8645 1.2579
23.4585 -24.4447 1.0438
23.4413 -20.4195 0.9578
23.1400 -16.7741 0.8805
23.4119 -13.9660 0.8399
23.9392 -11.5196 0.8185
30.5325 -11.4619 1.0048
29.8878 -8.2637 0.9554
31.1162 -5.6744 0.9745
44.3382 -4.0463 1.3717
24.7574 -0.0405 0.7628
24.7316 2.1755 0.7649
24.4111 4.3692 0.7641
24.7121 6.7457 0.7892
24.1392 8.9720 0.7934
24.6855 11.7794 0.8427
27.0956 40.5260 1.5020
22.2284 40.6919 1.4286
-26.7875 41.5634 1.5235
-47.7067 -7.8720 1.4897
-21.1415 -5.4639 0.6728
-19.0879 -6.8011 0.6243
-19.0784 -8.7879 0.6472
-19.0681 -10.9436 0.6774
-19.0567 -13.3303 0.7165
-27.1935 -22.8940 1.0952
-22.7020 -22.8725 0.9929
-18.9506 -22.8546 0.9147
-15.7229 -22.8391 0.8543
-15.6683 -27.7798 0.9826
-19.5662 -43.3281 1.4647
-13.4763 -38.7368 1.2636
-9.3835 -37.4629 1.1899
-7.1546 -45.4742 1.4183
-3.0958 -46.3584 1.4315
1.0562 -46.5417 1.4343
5.1782 -46.0143 1.4266
9.1490 -44.8032 1.4089
12.8600 -42.9681 1.3818
15.2859 -38.2513 1.2691
17.4306 -34.3526 1.1868
20.9683 -33.5251 1.2183
17.9451 -23.6894 0.9156
23.4644 -25.8185 1.0749
23.0105 -21.1697 0.9633
23.4331 -17.9766 0.9099
23.4165 -14.8451 0.8542
23.4539 -12.0807 0.8128
28.2045 -11.4708 0.9381
37.3276 -11.4200 1.2027
35.3508 -7.4434 1.1130
41.4454 -4.9198 1.2859
24.9683 -0.7188 0.7696
24.7345 1.5005 0.7635
24.5595 3.7109 0.7653
24.7151 6.0308 0.7838
24.7032 8.4258 0.8042
24.1308 10.7206 0.8135
24.7053 13.7365 0.8709
28.6910 40.4888 1.5289
23.6501 40.6327 1.4485
19.0903 40.7890 1.3875
-9.5112 7.5037 0.3733
-23.8456 -5.4768 0.7538
-19.0906 -6.2235 0.6186
-19.0815 -8.1690 0.6395
-19.0713 -10.2675 0.6673
-19.0603 -12.5764 0.7035
-28.7515 -22.9014 1.1325
-23.9754 -22.8786 1.0210
-20.0266 -22.8597 0.9363
-16.6577 -22.8436 0.8710
-15.6762 -26.1112 0.9383
-15.6467 -32.2827 1.1053
-14.9061 -39.3690 1.2970
-9.0746 -32.4637 1.0385
-8.1048 -43.7442 1.3707
-3.2213 -34.2312 1.0593
-0.2075 -46.5614 1.4346
3.9367 -46.2487 1.4301
7.9657 -45.2404 1.4153
11.7660 -43.5867 1.3910
15.2797 -41.4684 1.3616
16.4745 -34.7769 1.1856
20.3819 -34.6452 1.2384
22.8142 -31.8793 1.2078
27.4119 -31.8584 1.2949
23.2854 -22.6200 1.0002
23.4386 -19.0133 0.9299
22.8596 -15.3774 0.8488
23.4061 -12.8716 0.8230
26.1649 -11.4785 0.8803
22.4777 -7.5499 0.7306
26.7936 -6.4058 0.8488
32.8986 -4.8141 1.0244
24.7374 0.8276 0.7626
24.1678 2.9832 0.7503
24.7182 5.3251 0.7790
24.7072 7.6851 0.7972
24.5289 10.1094 0.8174
24.6798 12.8580 0.8574
25.1228 40.5871 1.4707
20.4370 40.7474 1.4045
-35.3323 20.0596 1.2518
-27.2937 -5.4933 0.8578
-19.0933 -5.6558 0.6135
-19.0851 -7.5645 0.6325
-19.0744 -9.6108 0.6581
-19.0637 -11.8487 0.6915
-30.4207 -22.9094 1.1733
-25.3242 -22.8850 1.0516
-21.1554 -22.8651 0.9597
-9.4240 -12.2129 0.4753
-15.6835 -24.5854 0.8985
-15.6567 -30.1871 1.0477
-16.6112 -40.5160 1.3491
-11.7141 -37.9062 1.2224
-8.1432 -38.1405 1.2016
-5.5804 -45.9027 1.4247
-1.4706 -46.5153 1.4338
2.6845 -46.4187 1.4325
6.7610 -45.6179 1.4208
10.6420 -44.1530 1.3993
14.2922 -42.2929 1.3754
15.5092 -35.1767 1.1844
19.0689 -34.5247 1.2152
21.5352 -31.8868 1.1855
25.9436 -31.8619 1.2659
23.4569 -24.0582 1.0352
23.4400 -20.0935 0.9512
23.2601 -16.5813 0.8801
23.4105 -13.7146 0.8359
24.3608 -11.4854 0.8298
31.2653 -11.4550 1.0259
29.1049 -7.7993 0.9284
41.4564 -7.2209 1.2965
24.7402 0.1558 0.7623
24.7308 2.3732 0.7655
24.1604 4.5224 0.7573
24.7110 6.9565 0.7909
24.5326 9.3403 0.8088
24.6842 12.0200 0.8459
32.5198 19.6052 1.1699
26.6423 40.5401 1.4946
21.8180 40.7046 1.4229
-9.6180 42.4250 1.3403
-45.3958 -7.8610 1.4194
-20.4580 -5.4606 0.6524
-19.0871 -6.9719 0.6261
-19.0775 -8.9716 0.6495
-19.0671 -11.1450 0.6804
-19.0556 -13.5559 0.7205
-26.7574 -22.8919 1.0849
-22.3430 -22.8708 0.9851
-18.6456 -22.8531 0.9087
-15.6902 -23.1830 0.8625
-15.6658 -28.2977 0.9965
-18.9107 -42.7778 1.4410
-13.0696 -38.5502 1.2541
-9.0880 -37.5440 1.1901
-6.8013 -45.5801 1.4199
-2.7294 -46.4034 1.4321
1.4250 -46.5235 1.4340
5.5385 -45.9338 1.4255
9.4903 -44.6644 1.4068
13.1823 -42.8059 1.3800
15.2882 -37.3936 1.2447
17.7874 -34.3775 1.1925
20.9653 -32.9365 1.2029
24.5428 -31.8707 1.2393
23.4626 -25.4089 1.0655
23.3780 -21.1679 0.9717
22.8685 -17.2571 0.8827
23.4151 -14.5851 0.8499
23.5172 -11.8783 0.8117
28.8519 -11.4683 0.9566
24.7169 -7.3481 0.7945
29.7535 -6.0188 0.9353
41.4438 -4.5867 1.2847
24.8408 -0.5180 0.7655
24.7336 1.6975 0.7638
24.5586 3.9102 0.7662
24.7143 6.2386 0.7853
24.7021 8.6447 0.8063
24.6885 11.2036 0.8353
24.7351 14.0110 0.8759
28.2133 40.4915 1.5205
23.2282 40.6457 1.4424
18.7029 40.8010 1.3829
-22.9908 -5.4727 0.7281
-19.0898 -6.3912 0.6202
-19.0805 -8.3483 0.6417
-19.0704 -10.4630 0.6702
-19.0592 -12.7938 0.7072
-28.2855 -22.8992 1.1212
-23.5960 -22.8768 1.0126
-19.7070 -22.8582 0.9298
-16.3808 -22.8423 0.8660
-15.6740 -26.5830 0.9508
-21.0175 -44.2548 1.5094
-14.4823 -39.1853 1.2871
-10.0964 -37.2564 1.1893
-8.0037 -45.1962 1.4141
-3.9806 -46.2265 1.4295
0.1183 -34.0541 1.0492
4.3007 -46.1869 1.4292
8.3138 -45.1187 1.4135
12.0888 -43.4113 1.3884
15.2814 -40.4802 1.3331
16.7548 -34.6555 1.1860
20.7714 -34.6751 1.2453
23.1970 -31.8771 1.2146
27.8526 -31.8561 1.3037
23.2837 -22.2621 0.9925
23.4370 -18.7058 0.9239
22.8583 -15.1146 0.8443
23.4048 -12.6303 0.8194
26.7343 -11.4763 0.8964
22.4402 -7.3398 0.7274
17.7698 -4.0997 0.5619
32.6569 -4.5146 1.0157
24.7365 1.0240 0.7628
24.5618 3.2298 0.7633
24.7173 5.5303 0.7804
24.7060 7.9001 0.7992
24.5279 10.3373 0.8201
24.6785 13.1072 0.8609
24.6880 40.6006 1.4640
20.0402 40.7597 1.3994
16.9153 43.9254 1.4502
-12.2444 21.0842 0.7512
-9.4409 7.7472 0.3763
-26.1914 -5.4880 0.8245
-19.0926 -5.8207 0.6150
-19.0841 -7.7397 0.6345
-19.0735 -9.8008 0.6607
-19.0627 -12.0587 0.6950
-29.9208 -22.9070 1.1610
-24.9219 -22.8831 1.0424
-20.8199 -22.8635 0.9527
-9.3281 -12.2891 0.4753
-15.6815 -25.0177 0.9097
-15.6348 -30.7387 1.0625
-15.9789 -39.8715 1.3234
-9.6301 -32.0615 1.0314
-8.1288 -39.6084 1.2458
-5.2207 -45.9851 1.4259
-1.1019 -46.5356 1.4341
3.0513 -46.3758 1.4319
7.1151 -45.5138 1.4193
10.9733 -43.9931 1.3969
14.6124 -42.1356 1.3740
15.7921 -35.0625 1.1848
19.4492 -34.5627 1.2219
21.9039 -31.8846 1.1918
26.3681 -31.8638 1.2743
22.8925 -23.1097 1.0022
23.4386 -19.7720 0.9448
23.2588 -16.3037 0.8751
23.4092 -13.4656 0.8320
24.8661 -11.4835 0.8439
32.0373 -11.4505 1.0482
28.3274 -7.3507 0.9017
26.1961 -4.3491 0.8181
24.7394 0.3520 0.7623
24.7299 2.5712 0.7660
24.1595 4.7208 0.7584
24.7099 7.1681 0.7927
24.5316 9.5633 0.8112
24.6829 12.2625 0.8492
16.6242 17.7655 0.7496
26.1933 40.5540 1.4874
21.4109 40.7172 1.4174
-43.2919 -7.8509 1.3556
-19.8142 -5.4575 0.6332
-19.0862 -7.1437 0.6279
-19.0766 -9.1566 0.6519
-19.0661 -11.3482 0.6836
-19.0545 -13.7839 0.7246
-26.3294 -22.8898 1.0749
-21.9897 -22.8691 0.9775
-18.3444 -22.8517 0.9028
-15.6883 -23.5811 0.8726
-15.6632 -28.8303 1.0109
-18.2170 -42.1087 1.4135
-12.6678 -38.3630 1.2447
-8.7917 -37.6221 1.1904
-6.4464 -45.6807 1.4213
-2.3624 -46.4428 1.4327
1.7936 -46.4996 1.4337
5.8973 -45.8480 1.4242
9.8294 -44.5208 1.4047
13.5087 -42.6602 1.3787
15.2904 -36.5684 1.2212
18.1585 -34.4231 1.1991
20.9624 -32.3624 1.1880
24.9459 -31.8682 1.2469
23.4602 -24.8378 1.2633
23.4428 -20.7500 1.1576
22.9294 -16.9004 1.0533
23.4132 -14.2197 1.0129
23.6935 -11.6336 0.9760
29.8188 -11.4646 1.1813
24.4201 -6.9608 0.9389
26.0750 -4.9690 0.9815
45.4961 -4.5160 1.6906
24.7807 -0.2370 0.9164
24.7324 1.9780 0.9175
24.5572 4.1947 0.9212
24.7130 6.5359 0.9452
24.1402 8.7551 0.9495
24.6868 11.5405 1.0077
18.8623 19.2197 0.9958
27.5536 40.5119 1.8117
22.6421 40.6791 1.7215
17.5519 39.4596 1.5969
-26.4758 41.8043 1.8297
-15.4011 20.0944 0.9362
-21.8695 -5.4673 0.8335
-19.0887 -6.6312 0.7472
-19.0792 -8.6055 0.7739
-19.0690 -10.7440 0.8093
-19.0577 -13.1072 0.8553
-27.6380 -22.8961 1.3271
-23.0667 -22.8742 1.2012
-19.2598 -22.8560 1.1052
-15.9923 -22.8404 1.0310
-15.6707 -27.2762 1.1632
-14.4553 -31.3452 1.2764
-11.0428 -30.9489 1.2151
-8.1592 -31.5123 1.2036
-5.9026 -35.6719 1.3370
-2.6978 -36.0905 1.3382
0.5343 -36.1963 1.3386
3.7611 -35.9880 1.3380
6.9502 -35.4681 1.3364
10.1008 -34.7501 1.3381
13.1898 -33.7808 1.3409
15.2726 -30.7008 1.2679
17.3421 -28.2228 1.2249
17.6361 -23.6692 1.0915
23.5098 -26.2843 1.3040
22.8843 -21.3912 1.1583
23.4347 -18.2749 1.0989
23.3475 -15.0622 1.0274
23.4296 -12.3043 0.9786
27.5814 -11.4731 1.1046
22.3617 -7.0358 0.8668
17.6649 -3.8660 0.6687
32.9931 -4.1821 1.2297
25.4922 -0.9363 0.9433
24.7353 1.3037 0.9159
24.5605 3.5120 0.9174
24.7160 5.8237 0.9390
24.7044 8.2081 0.9626
24.3138 10.5718 0.9804
24.6766 13.4655 1.0395
29.1656 40.4741 1.8447
24.0758 40.6195 1.7460
19.4804 40.7770 1.6710
-12.4798 20.9419 0.9014
-9.4303 7.5620 0.4470
-24.7634 -5.4812 0.9378
-19.0914 -6.0567 0.7406
-19.0822 -7.9909 0.7650
-19.0722 -10.0738 0.7976
-19.0613 -12.3612 0.8401
-29.2270 -22.9037 1.3730
-24.3613 -22.8804 1.2358
-20.3506 -22.8613 1.1317
-16.9378 -22.8449 1.0516
-15.6784 -25.6516 1.1116
-15.5620 -31.4696 1.2981
-12.0523 -31.0851 1.2328
-8.9794 -31.1678 1.1994
-6.8658 -35.4835 1.3364
-3.6112 -35.3653 1.3145
-0.4484 -36.1974 1.3386
2.7835 -36.0844 1.3382
5.9874 -35.6587 1.3370
9.1491 -34.9931 1.3374
12.2594 -34.1026 1.3400
15.2615 -32.8878 1.3406
16.5243 -28.6046 1.2215
19.9810 -28.3934 1.2838
24.1210 -28.4875 1.3803
23.1838 -22.8814 1.2045
23.4367 -19.3220 1.1232
23.2569 -15.9140 1.0420
23.4074 -13.1152 0.9921
25.6155 -11.4806 1.0380
33.1961 -11.4438 1.2984
26.1057 -6.4606 0.9944
32.3617 -4.9980 1.2108
45.7091 -2.9229 1.6936
24.7382 0.6313 0.9150
24.1687 2.7889 0.8996
24.7190 5.1204 0.9334
24.7083 7.4710 0.9545
24.5300 9.8830 0.9779
24.6811 12.6109 1.0249
25.5616 40.5735 1.7732
20.8367 40.7350 1.6919
-28.4881 -5.4990 1.0728
-19.0941 -5.4917 0.7347
-19.0851 -7.3898 0.7568
-19.0753 -9.4223 0.7867
-19.0647 -11.6408 0.8260
-19.0529 -14.1131 0.8767
-25.7337 -22.8870 1.2734
-21.4960 -22.8667 1.1605
-17.9226 -22.8496 1.0738
-15.6855 -24.1638 1.0652
-15.6595 -29.6153 1.2388
-13.0830 -31.2029 1.2511
-9.8373 -30.9602 1.2012
-7.8279 -35.2908 1.3367
-4.6501 -35.8733 1.3376
-1.4307 -36.1695 1.3385
1.8032 -36.1520 1.3384
5.0191 -35.8208 1.3375
8.1920 -35.2118 1.3368
11.3219 -34.4005 1.3391
14.3804 -33.3300 1.3422
15.7008 -28.9669 1.2183
18.7746 -28.2801 1.2552
22.9005 -28.5846 1.3543
23.4585 -24.4447 1.2528
23.4413 -20.4195 1.1495
23.1400 -16.7741 1.0568
23.4119 -13.9660 1.0080
23.9392 -11.5196 0.9824
30.5325 -11.4619 1.2059
29.9182 -8.2721 1.1478
31.0884 -5.6693 1.1685
44.4129 -4.0531 1.6491
24.7574 -0.0405 0.9155
24.7316 2.1755 0.9180
24.4111 4.3692 0.9170
24.7121 6.7457 0.9472
24.1392 8.9720 0.9523
24.6855 11.7794 1.0114
27.0957 40.5260 1.8026
22.2284 40.6919 1.7145
-26.7619 41.5237 1.8267
-47.7067 -7.8720 1.7879
-21.1415 -5.4639 0.8074
-19.0879 -6.8011 0.7493
-19.0784 -8.7879 0.7767
-19.0681 -10.9436 0.8129
-19.0567 -13.3303 0.8599
-27.1935 -22.8940 1.3144
-22.7020 -22.8725 1.1916
-18.9506 -22.8546 1.0978
-15.7229 -22.8391 1.0253
-15.6683 -27.7798 1.1793
-14.1352 -31.3014 1.2700
