ply
format ascii 1.0
element vertex 2176
property float32 x
property float32 y
property float32 z
end_header
-5.8128 5.4907 1.9588
-6.2480 4.9258 1.9490
-6.6005 4.3085 1.9309
-6.9473 3.6967 1.9278
-7.2070 3.0446 1.9166
-7.4050 2.3753 1.9050
-7.5406 1.6949 1.8933
-7.6139 1.0093 1.8815
-7.6254 0.3242 1.8697
-7.5631 -0.3543 1.8548
-7.4385 -1.0187 1.8392
-7.2580 -1.6643 1.8241
-7.0241 -2.2866 1.8096
-6.6229 -2.8315 1.7645
-6.4088 -3.4457 1.7825
-6.0337 -3.9757 1.7701
-5.6125 -4.4640 1.7568
-1.0209 -0.9727 0.3454
-0.9255 -1.0546 0.3437
-0.8240 -1.1279 0.3422
-0.7173 -1.1922 0.3408
-0.6061 -1.2472 0.3397
-0.4911 -1.2926 0.3387
-0.3730 -1.3283 0.3380
-0.2527 -1.3541 0.3374
-0.1308 -1.3699 0.3371
-0.0081 -1.3756 0.3370
0.1147 -1.3712 0.3371
0.2367 -1.3567 0.3374
0.3573 -1.3322 0.3379
0.4757 -1.2978 0.3386
0.5912 -1.2536 0.3395
0.7029 -1.1998 0.3406
0.8102 -1.1367 0.3420
0.9124 -1.0646 0.3435
1.0086 -0.9838 0.3451
5.5549 -4.5255 1.7552
5.9812 -4.0424 1.7685
6.3624 -3.5175 1.7809
6.6997 -2.9577 1.7940
6.9902 -2.3665 1.8079
7.2309 -1.7475 1.8223
7.4186 -1.1047 1.8374
3.0678 -0.1797 0.7528
3.0682 0.0945 0.7520
3.0686 0.3703 0.7572
3.0690 0.6522 0.7686
3.0694 0.9451 0.7868
7.2460 2.9614 1.9176
6.9925 3.6163 1.9285
6.6766 4.2475 1.9385
6.3014 4.8492 1.9478
5.8733 5.4190 1.9576
1.0700 1.1806 0.3903
0.9655 1.2780 0.3924
0.8516 1.3653 0.3942
0.7294 1.4417 0.3958
0.6000 1.5061 0.3971
0.4645 1.5578 0.3982
0.3244 1.5963 0.3990
0.1810 1.6210 0.3996
0.0357 1.6316 0.3998
-0.1099 1.6280 0.3997
-0.2544 1.6102 0.3993
-0.3964 1.5785 0.3987
-0.5343 1.5332 0.3977
-0.6669 1.4749 0.3965
-0.7928 1.4044 0.3951
-0.9109 1.3223 0.3933
-1.0202 1.2297 0.3914
-5.6434 5.6838 1.9621
-6.0981 5.1329 1.9526
-6.4713 4.5264 1.9346
-6.8393 3.9255 1.9318
-7.1209 3.2809 1.9207
-7.3411 2.6171 1.9092
-7.4991 1.9401 1.8975
-7.5947 1.2557 1.8857
-7.6283 0.5697 1.8739
-7.5937 -0.1120 1.8604
-7.4898 -0.7822 1.8448
-7.3291 -1.4351 1.8295
-7.1140 -2.0662 1.8147
-6.8476 -2.6714 1.8006
-6.5329 -3.2470 1.7871
-6.1731 -3.7896 1.7745
-5.7680 -4.2933 1.7614
-1.0535 -0.9413 0.3461
-0.9605 -1.0262 0.3443
-0.8611 -1.1026 0.3427
-0.7562 -1.1702 0.3413
-0.6465 -1.2285 0.3401
-0.5328 -1.2774 0.3391
-0.4157 -1.3166 0.3382
-0.2961 -1.3460 0.3376
-0.1746 -1.3654 0.3372
-0.0521 -1.3747 0.3370
0.0707 -1.3740 0.3370
0.1930 -1.3631 0.3372
0.3143 -1.3422 0.3377
0.4335 -1.3113 0.3383
0.5501 -1.2706 0.3392
0.6633 -1.2202 0.3402
0.7723 -1.1604 0.3415
0.8763 -1.0915 0.3429
0.9748 -1.0137 0.3445
1.0668 -0.9276 0.3463
5.8325 -4.2203 1.7636
6.2306 -3.7102 1.7764
6.5839 -3.1624 1.7892
6.8915 -2.5821 1.8028
7.1505 -1.9726 1.8171
7.3575 -1.3379 1.8319
3.0677 -0.2786 0.7546
3.0681 -0.0039 0.7516
3.0685 0.2708 0.7546
3.0689 0.5500 0.7638
3.0693 0.8383 0.7794
7.3215 2.7219 1.9135
7.0908 3.3836 1.9247
6.7971 4.0241 1.9350
6.4422 4.6366 1.9444
6.0333 5.2188 1.9542
1.1051 1.1435 0.3896
1.0042 1.2442 0.3917
0.8935 1.3352 0.3936
0.7742 1.4156 0.3953
0.6472 1.4844 0.3967
0.5137 1.5408 0.3979
0.3751 1.5840 0.3988
0.2327 1.6137 0.3994
0.0880 1.6294 0.3997
-0.0577 1.6309 0.3998
-0.2028 1.6182 0.3995
-0.3458 1.5914 0.3990
-0.4853 1.5510 0.3981
-0.6200 1.4973 0.3970
-0.7484 1.4311 0.3956
-0.8695 1.3530 0.3940
-0.9821 1.2641 0.3921
-5.4673 5.8714 1.9653
-5.9411 5.3352 1.9561
-6.3608 4.7598 1.9462
-6.6967 4.1345 1.9280
-7.0268 3.5148 1.9247
-7.2692 2.8572 1.9134
-7.4496 2.1842 1.9018
-7.5676 1.5018 1.8900
-7.6233 0.8158 1.8782
-7.6167 0.1318 1.8661
-7.5338 -0.5434 1.8504
-7.3931 -1.2030 1.8349
-7.1973 -1.8424 1.8200
-6.9489 -2.4574 1.8056
-6.6512 -3.0440 1.7919
-6.3072 -3.5988 1.7789
-5.9188 -4.1175 1.7663
-1.0853 -0.9088 0.3468
-0.9946 -0.9967 0.3449
-0.8974 -1.0762 0.3433
-0.7944 -1.1469 0.3418
-0.6864 -1.2086 0.3405
-0.5740 -1.2610 0.3394
-0.4580 -1.3037 0.3385
-0.3393 -1.3366 0.3378
-0.2184 -1.3596 0.3373
-0.0962 -1.3725 0.3371
0.0266 -1.3754 0.3370
0.1492 -1.3681 0.3371
0.2709 -1.3508 0.3375
0.3910 -1.3235 0.3381
0.5086 -1.2863 0.3388
0.6231 -1.2394 0.3398
0.7337 -1.1829 0.3410
0.8396 -1.1173 0.3424
0.8776 -1.0481 0.3438
0.9721 -0.9702 0.3454
1.0602 -0.8842 0.3472
5.7834 -4.0062 1.7695
6.1589 -3.4978 1.7814
6.4922 -2.9555 1.7941
6.7802 -2.3824 1.8075
7.0198 -1.7820 1.8215
7.2080 -1.1581 1.8361
3.0678 -0.2151 0.7735
3.0682 0.0592 0.7718
3.0686 0.3346 0.7763
3.0690 0.6154 0.7872
3.0694 0.9066 0.8050
7.0742 2.7969 1.9132
6.8345 3.4357 1.9239
6.5352 4.0529 1.9341
6.1801 4.6439 1.9443
5.7697 5.2022 1.9539
1.0528 1.1351 0.3894
0.9522 1.2308 0.3914
0.8425 1.3168 0.3932
0.7246 1.3923 0.3948
0.5996 1.4563 0.3961
0.4686 1.5081 0.3972
0.3329 1.5471 0.3980
0.1939 1.5727 0.3985
0.0529 1.5847 0.3988
-0.0886 1.5830 0.3988
-0.2293 1.5676 0.3985
-0.3676 1.5385 0.3978
-0.5023 1.4963 0.3970
-0.6319 1.4414 0.3958
-0.7552 1.3744 0.3944
-0.8712 1.2962 0.3928
-0.9787 1.2077 0.3910
-5.4285 5.5943 1.9606
-5.8782 5.0642 1.9514
-6.2495 4.4789 1.9338
-6.5895 3.8834 1.9237
-6.8982 3.2749 1.9206
-7.1214 2.6313 1.9095
-7.2842 1.9739 1.8981
-7.3863 1.3085 1.8867
-7.4279 0.6406 1.8751
-7.4052 -0.0242 1.8625
-7.3129 -0.6789 1.8472
-7.1648 -1.3177 1.8322
-6.9634 -1.9360 1.8178
-6.7113 -2.5299 1.8039
-6.4116 -3.0955 1.7907
-6.0674 -3.6294 1.7782
-5.6803 -4.1276 1.7660
-1.0388 -0.9068 0.3468
-0.9489 -0.9908 0.3451
-0.8528 -1.0666 0.3435
-0.7512 -1.1337 0.3421
-0.6448 -1.1919 0.3408
-0.5343 -1.2410 0.3398
-0.4205 -1.2805 0.3390
-0.3041 -1.3105 0.3384
-0.1857 -1.3307 0.3379
-0.0663 -1.3411 0.3377
0.0536 -1.3416 0.3377
0.1731 -1.3322 0.3379
0.2916 -1.3130 0.3383
0.4082 -1.2841 0.3389
0.5224 -1.2455 0.3397
0.6332 -1.1975 0.3407
0.7401 -1.1402 0.3419
0.8422 -1.0740 0.3433
0.9389 -0.9991 0.3448
1.0294 -0.9160 0.3466
5.6369 -4.1783 1.7647
6.0288 -3.6844 1.7770
6.3776 -3.1539 1.7894
6.6822 -2.5915 1.8026
6.9395 -2.0004 1.8164
7.1465 -1.3845 1.8308
3.0676 -0.3142 0.7756
3.0680 -0.0391 0.7717
3.0684 0.2353 0.7740
3.0688 0.5137 0.7826
3.0692 0.8006 0.7978
7.1451 2.5634 1.9092
6.9276 3.2087 1.9202
6.6488 3.8339 1.9303
6.3140 4.4352 1.9407
5.9232 5.0059 1.9505
1.0865 1.0987 0.3886
0.9894 1.1975 0.3907
0.8829 1.2871 0.3926
0.7678 1.3665 0.3942
0.6452 1.4347 0.3957
0.5162 1.4910 0.3968
0.3821 1.5346 0.3977
0.2441 1.5651 0.3984
0.1036 1.5820 0.3987
-0.0379 1.5852 0.3988
-0.1790 1.5747 0.3986
-0.3183 1.5505 0.3981
-0.4544 1.5130 0.3973
-0.5860 1.4625 0.3963
-0.7117 1.3998 0.3950
-0.8305 1.3255 0.3934
-0.9411 1.2406 0.3916
-1.0427 1.1459 0.3897
-5.7227 5.2590 1.9548
-6.1388 4.7045 1.9452
-6.4740 4.1004 1.9274
-6.8035 3.5014 1.9245
-7.0482 2.8642 1.9135
-7.2327 2.2111 1.9022
-7.3566 1.5479 1.8908
-7.4199 0.8802 1.8793
-7.4232 0.2137 1.8678
-7.3526 -0.4455 1.8526
-7.2242 -1.0905 1.8376
-7.0416 -1.7167 1.8229
-6.8074 -2.3198 1.8088
-6.5245 -2.8959 1.7953
-6.1958 -3.4416 1.7826
-5.8248 -3.9537 1.7706
-1.0694 -0.8748 0.3475
-0.9819 -0.9616 0.3457
-0.8880 -1.0403 0.3440
-0.7883 -1.1106 0.3425
-0.6835 -1.1721 0.3413
-0.5744 -1.2244 0.3402
-0.4617 -1.2674 0.3393
-0.3461 -1.3009 0.3386
-0.2284 -1.3246 0.3381
-0.1093 -1.3385 0.3378
0.0105 -1.3426 0.3377
0.1303 -1.3367 0.3378
0.2492 -1.3211 0.3381
0.3666 -1.2956 0.3387
0.4817 -1.2605 0.3394
0.5939 -1.2158 0.3403
0.7022 -1.1618 0.3414
0.8061 -1.0988 0.3427
0.9048 -1.0270 0.3442
0.9977 -0.9467 0.3459
1.0838 -0.8585 0.3478
5.8935 -3.8664 1.7728
6.2573 -3.3481 1.7849
6.5782 -2.7968 1.7978
6.8528 -2.2156 1.8114
7.0782 -1.6082 1.8256
3.0675 -0.4139 0.7785
3.0679 -0.1375 0.7724
3.0683 0.1366 0.7725
3.0687 0.4131 0.7788
3.0691 0.6963 0.7915
7.2080 2.3280 1.9051
7.0128 2.9790 1.9163
6.7558 3.6122 1.9268
6.4407 4.2226 1.9370
6.0698 4.8049 1.9470
5.6443 5.3530 1.9565
1.0254 1.1630 0.3900
0.9222 1.2561 0.3919
0.8100 1.3392 0.3937
0.6900 1.4116 0.3952
0.5632 1.4722 0.3964
0.4307 1.5204 0.3974
0.2940 1.5557 0.3982
0.1542 1.5775 0.3986
0.0130 1.5857 0.3988
-0.1285 1.5800 0.3987
-0.2686 1.5607 0.3983
-0.4060 1.5279 0.3976
-0.5394 1.4821 0.3967
-0.6674 1.4237 0.3955
-0.7887 1.3535 0.3940
-0.9024 1.2722 0.3923
-1.0074 1.1809 0.3904
-5.5606 5.4488 1.9581
-5.9956 4.9077 1.9487
-6.3511 4.3138 1.9310
-6.7012 3.7251 1.9283
-6.9673 3.0950 1.9175
-7.1735 2.4470 1.9063
-7.3191 1.7867 1.8949
-7.4041 1.1200 1.8834
-7.4288 0.4525 1.8719
-7.3849 -0.2103 1.8581
-7.2767 -0.8610 1.8429
-7.1133 -1.4944 1.8281
-6.8972 -2.1062 1.8138
-6.6314 -2.6924 1.8001
-6.3188 -3.2494 1.7871
-5.9627 -3.7740 1.7748
-5.5630 -4.2605 1.7623
-1.0141 -0.9313 0.3463
-0.9224 -1.0130 0.3446
-0.8247 -1.0864 0.3431
-0.7217 -1.1511 0.3417
-0.6140 -1.2067 0.3405
-0.5025 -1.2531 0.3396
-0.3879 -1.2900 0.3388
-0.2708 -1.3172 0.3382
-0.1521 -1.3346 0.3378
-0.0325 -1.3422 0.3377
0.0874 -1.3400 0.3377
0.2067 -1.3278 0.3380
0.3247 -1.3059 0.3384
0.4407 -1.2742 0.3391
0.5540 -1.2329 0.3400
0.6638 -1.1822 0.3410
0.7694 -1.1224 0.3423
0.8701 -1.0537 0.3437
0.9651 -0.9765 0.3453
1.0537 -0.8911 0.3471
5.7525 -4.0434 1.7685
6.1315 -3.5381 1.7805
6.4682 -2.9983 1.7931
6.7597 -2.4275 1.8064
7.0031 -1.8290 1.8204
7.1954 -1.2067 1.8350
3.0677 -0.2362 0.7738
3.0681 0.0382 0.7717
3.0685 0.3133 0.7758
3.0689 0.5935 0.7862
3.0693 0.8838 0.8033
7.0900 2.7471 1.9124
6.8551 3.3874 1.9231
6.5601 4.0063 1.9333
6.2093 4.5996 1.9435
5.8031 5.1606 1.9532
1.0601 1.1274 0.3892
0.9603 1.2238 0.3912
0.8513 1.3106 0.3931
0.7339 1.3869 0.3947
0.6094 1.4518 0.3960
0.4788 1.5046 0.3971
0.3435 1.5445 0.3980
0.2047 1.5712 0.3985
0.0638 1.5843 0.3988
-0.0778 1.5836 0.3988
-0.2186 1.5692 0.3985
-0.3571 1.5412 0.3979
-0.4921 1.5000 0.3970
-0.6221 1.4460 0.3959
-0.7460 1.3800 0.3945
-0.8626 1.3026 0.3929
-0.9708 1.2148 0.3911
-1.0697 1.1176 0.3891
-5.8455 5.1063 1.9522
-6.2463 4.5418 1.9424
-6.5654 3.9301 1.9245
-6.8786 3.3235 1.9214
-7.1064 2.6813 1.9103
-7.2738 2.0248 1.8990
-7.3806 1.3597 1.8875
-7.4268 0.6918 1.8760
-7.4099 0.0265 1.8637
-7.3220 -0.6292 1.8483
-7.1781 -1.2693 1.8334
-6.9807 -1.8894 1.8189
-6.7324 -2.4852 1.8049
-6.4362 -3.0531 1.7917
-6.0953 -3.5896 1.7791
-5.7117 -4.0909 1.7670
-1.0454 -0.9000 0.3469
-0.9561 -0.9846 0.3452
-0.8604 -1.0611 0.3436
-0.7592 -1.1289 0.3422
-0.6532 -1.1878 0.3409
-0.5430 -1.2375 0.3399
-0.4294 -1.2778 0.3390
-0.3131 -1.3085 0.3384
-0.1949 -1.3295 0.3380
-0.0755 -1.3407 0.3377
0.0444 -1.3419 0.3377
0.1640 -1.3333 0.3379
0.2825 -1.3149 0.3382
0.3994 -1.2867 0.3388
0.5137 -1.2488 0.3396
0.6248 -1.2015 0.3406
0.7320 -1.1449 0.3418
0.8345 -1.0794 0.3432
0.9317 -1.0052 0.3447
1.0227 -0.9226 0.3464
5.6050 -4.2144 1.7637
6.0003 -3.7237 1.7761
6.3523 -3.1958 1.7885
6.6605 -2.6357 1.8016
6.9215 -2.0467 1.8153
7.1325 -1.4326 1.8297
3.0676 -0.3354 0.7761
3.0680 -0.0602 0.7718
3.0684 0.2142 0.7736
3.0688 0.4921 0.7817
3.0692 0.7781 0.7964
7.1592 2.5131 1.9083
6.9465 3.1598 1.9194
6.6723 3.7867 1.9296
6.3417 4.3900 1.9399
5.9552 4.9633 1.9498
1.0935 1.0907 0.3885
0.9972 1.1902 0.3905
0.8914 1.2806 0.3924
0.7769 1.3608 0.3941
0.6549 1.4299 0.3956
0.5263 1.4871 0.3967
0.3925 1.5317 0.3977
0.2548 1.5632 0.3983
0.1145 1.5812 0.3987
-0.0270 1.5855 0.3988
-0.1682 1.5760 0.3986
-0.3077 1.5528 0.3981
-0.4441 1.5163 0.3974
-0.5761 1.4668 0.3964
-0.7023 1.4050 0.3951
-0.8216 1.3316 0.3935
-0.9330 1.2475 0.3918
-1.0353 1.1535 0.3898
-5.6886 5.3000 1.9555
-6.1087 4.7484 1.9460
-6.4483 4.1464 1.9282
-6.7823 3.5495 1.9253
-7.0316 2.9138 1.9143
-7.2207 2.2617 1.9031
-7.3493 1.5991 1.8917
-7.4172 0.9315 1.8802
-7.4250 0.2647 1.8687
-7.3601 -0.3954 1.8538
-7.2360 -1.0416 1.8387
-7.0575 -1.6694 1.8240
-6.8272 -2.2744 1.8099
-6.5478 -2.8527 1.7964
-6.2226 -3.4008 1.7835
-5.8548 -3.9157 1.7715
-1.0758 -0.8678 0.3476
-0.9889 -0.9552 0.3458
-0.8954 -1.0346 0.3441
-0.7961 -1.1055 0.3427
-0.6917 -1.1677 0.3413
-0.5829 -1.2207 0.3402
-0.4705 -1.2645 0.3393
-0.3551 -1.2986 0.3386
-0.2375 -1.3231 0.3381
-0.1184 -1.3378 0.3378
0.0013 -1.3426 0.3377
0.1211 -1.3375 0.3378
0.2401 -1.3226 0.3381
0.3577 -1.2979 0.3386
0.4730 -1.2635 0.3393
0.5854 -1.2196 0.3402
0.6941 -1.1663 0.3413
0.7983 -1.1039 0.3426
0.8975 -1.0328 0.3441
0.9908 -0.9532 0.3458
1.0775 -0.8656 0.3476
5.8639 -3.9048 1.7719
6.2309 -3.3892 1.7839
6.5551 -2.8403 1.7968
6.8334 -2.2613 1.8103
7.0627 -1.6557 1.8245
3.0674 -0.4353 0.7792
3.0678 -0.1586 0.7726
3.0682 0.1155 0.7722
3.0686 0.3916 0.7781
3.0690 0.6742 0.7903
7.2205 2.2775 1.9042
7.0300 2.9296 1.9155
6.7777 3.5643 1.9260
6.4669 4.1766 1.9362
6.1002 4.7614 1.9463
5.6789 5.3122 1.9558
1.0329 1.1555 0.3898
0.9304 1.2493 0.3918
0.8189 1.3332 0.3935
0.6995 1.4064 0.3951
0.5731 1.4680 0.3963
0.4411 1.5172 0.3974
0.3046 1.5534 0.3981
0.1650 1.5763 0.3986
0.0238 1.5855 0.3988
-0.1176 1.5810 0.3987
-0.2579 1.5627 0.3983
-0.3956 1.5309 0.3977
-0.5293 1.4860 0.3968
-0.6578 1.4286 0.3956
-0.7797 1.3593 0.3941
-0.8940 1.2789 0.3924
-0.9996 1.1883 0.3906
-5.5250 5.4888 1.9587
-5.9641 4.9506 1.9495
-6.3239 4.3590 1.9318
-6.6784 3.7725 1.9291
-6.9489 3.1441 1.9183
-7.1598 2.4973 1.9072
-7.3101 1.8378 1.8958
-7.3997 1.1714 1.8843
-7.4290 0.5036 1.8728
-7.3909 -0.1598 1.8593
-7.2870 -0.8116 1.8441
-7.1277 -1.4465 1.8292
-6.9156 -2.0601 1.8149
-6.6535 -2.6484 1.8011
-6.3444 -3.2078 1.7881
-5.9915 -3.7349 1.7757
-5.5952 -4.2247 1.7633
-1.0209 -0.9247 0.3464
-0.9297 -1.0071 0.3447
-0.8324 -1.0811 0.3432
-0.7298 -1.1464 0.3418
-0.6224 -1.2028 0.3406
-0.5112 -1.2499 0.3396
-0.3968 -1.2875 0.3388
-0.2799 -1.3154 0.3383
-0.1613 -1.3336 0.3379
-0.0417 -1.3420 0.3377
0.0782 -1.3405 0.3377
0.1976 -1.3291 0.3380
0.3157 -1.3079 0.3384
0.4319 -1.2769 0.3390
0.5454 -1.2364 0.3399
0.6555 -1.1865 0.3409
0.7615 -1.1273 0.3422
0.8625 -1.0593 0.3436
0.9580 -0.9827 0.3452
1.0471 -0.8979 0.3469
5.7213 -4.0804 1.7674
6.1039 -3.5782 1.7795
6.4438 -3.0409 1.7921
6.7390 -2.4723 1.8054
6.9862 -1.8758 1.8193
7.1825 -1.2553 1.8339
3.0677 -0.2574 0.7743
3.0681 0.0171 0.7717
3.0685 0.2920 0.7752
3.0689 0.5717 0.7851
3.0693 0.8610 0.8018
7.1055 2.6972 1.9115
6.8753 3.3389 1.9223
6.5847 3.9596 1.9325
6.2383 4.5551 1.9427
5.8362 5.1188 1.9525
1.0674 1.1197 0.3891
0.9683 1.2167 0.3911
0.8599 1.3043 0.3929
0.7432 1.3814 0.3945
0.6192 1.4473 0.3959
0.4891 1.5010 0.3970
0.3540 1.5419 0.3979
0.2154 1.5696 0.3985
0.0746 1.5838 0.3988
-0.0669 1.5842 0.3988
-0.2078 1.5708 0.3985
-0.3466 1.5439 0.3980
-0.4819 1.5036 0.3971
-0.6123 1.4506 0.3960
-0.7367 1.3855 0.3947
-0.8539 1.3089 0.3931
-0.9628 1.2219 0.3913
-1.0624 1.1253 0.3892
-5.8125 5.1481 1.9529
-6.2175 4.5864 1.9432
-6.5410 3.9767 1.9253
-6.8586 3.3721 1.9222
-7.0910 2.7312 1.9112
-7.2631 2.0756 1.8999
-7.3745 1.4110 1.8884
-7.4254 0.7431 1.8769
-7.4143 0.0774 1.8649
-7.3308 -0.5793 1.8495
-7.1911 -1.2208 1.8345
-6.9977 -1.8425 1.8200
-6.7532 -2.4404 1.8060
-6.4606 -3.0106 1.7927
-6.1230 -3.5496 1.7801
-5.7429 -4.0539 1.7680
-1.0520 -0.8932 0.3471
-0.9631 -0.9784 0.3453
-0.8680 -1.0555 0.3437
-0.7672 -1.1240 0.3423
-0.6615 -1.1836 0.3410
-0.5515 -1.2340 0.3400
-0.4382 -1.2751 0.3391
-0.3221 -1.3065 0.3384
-0.2040 -1.3282 0.3380
-0.0847 -1.3401 0.3377
0.0352 -1.3422 0.3377
0.1548 -1.3343 0.3378
0.2735 -1.3166 0.3382
0.3905 -1.2892 0.3388
0.5050 -1.2521 0.3396
0.6164 -1.2055 0.3405
0.7240 -1.1496 0.3417
0.8268 -1.0847 0.3430
0.9244 -1.0112 0.3446
1.0159 -0.9293 0.3463
5.5728 -4.2504 1.7628
5.9715 -3.7628 1.7752
6.3268 -3.2375 1.7875
6.6384 -2.6798 1.8005
6.9032 -2.0929 1.8143
7.1181 -1.4805 1.8286
3.0676 -0.3567 0.7767
3.0680 -0.0812 0.7719
3.0683 0.1931 0.7732
3.0688 0.4705 0.7808
3.0692 0.7557 0.7950
7.1730 2.4629 1.9075
6.9650 3.1107 1.9185
6.6955 3.7394 1.9288
6.3691 4.3447 1.9391
5.9868 4.9205 1.9490
1.1005 1.0827 0.3883
1.0050 1.1829 0.3904
0.8998 1.2740 0.3923
0.7860 1.3550 0.3940
0.6645 1.4250 0.3954
0.5364 1.4831 0.3967
0.4030 1.5287 0.3976
0.2655 1.5612 0.3983
0.1253 1.5803 0.3987
-0.0161 1.5856 0.3988
-0.1574 1.5772 0.3987
-0.2971 1.5551 0.3982
-0.4338 1.5196 0.3975
-0.5661 1.4711 0.3964
-0.6929 1.4102 0.3952
-0.8127 1.3377 0.3937
-0.9247 1.2543 0.3919
-1.0278 1.1610 0.3900
-5.6542 5.3408 1.9562
-6.0784 4.7920 1.9467
-6.4223 4.1922 1.9289
-6.7607 3.5974 1.9261
-7.0145 2.9633 1.9152
-7.2083 2.3122 1.9040
-7.3415 1.6502 1.8925
-7.4141 0.9829 1.8810
-7.4265 0.3158 1.8695
-7.3673 -0.3451 1.8550
-7.2475 -0.9926 1.8398
-7.0731 -1.6219 1.8251
-6.8466 -2.2288 1.8109
-6.5710 -2.8093 1.7974
-6.2492 -3.3599 1.7845
-5.8844 -3.8774 1.7724
-1.0822 -0.8607 0.3478
-0.9958 -0.9488 0.3459
-0.9028 -1.0288 0.3443
-0.8040 -1.1004 0.3428
-0.6999 -1.1632 0.3414
-0.5914 -1.2170 0.3403
-0.4792 -1.2614 0.3394
-0.3640 -1.2963 0.3387
-0.2466 -1.3216 0.3381
-0.1276 -1.3370 0.3378
-0.0079 -1.3426 0.3377
0.1119 -1.3383 0.3378
0.2310 -1.3241 0.3381
0.3487 -1.3001 0.3386
0.4642 -1.2665 0.3393
0.5769 -1.2233 0.3402
0.6859 -1.1707 0.3412
0.7905 -1.1090 0.3425
0.8900 -1.0385 0.3440
0.9838 -0.9596 0.3456
1.0711 -0.8726 0.3475
5.8340 -3.9429 1.7710
6.2041 -3.4300 1.7830
6.5318 -2.8835 1.7958
6.8138 -2.3067 1.8093
7.0469 -1.7031 1.8234
7.2283 -1.0764 1.8380
3.0678 -0.1797 0.7729
3.0682 0.0945 0.7720
3.0686 0.3703 0.7774
3.0690 0.6522 0.7891
3.0694 0.9451 0.8078
7.0468 2.8800 1.9146
6.7992 3.5164 1.9252
6.4927 4.1305 1.9354
6.1304 4.7176 1.9455
5.7131 5.2713 1.9551
1.0404 1.1479 0.3897
0.9386 1.2424 0.3916
0.8278 1.3272 0.3934
0.7089 1.4012 0.3950
0.5831 1.4637 0.3963
0.4514 1.5138 0.3973
0.3152 1.5511 0.3981
0.1759 1.5750 0.3986
0.0347 1.5853 0.3988
-0.1068 1.5818 0.3987
-0.2472 1.5646 0.3984
-0.3852 1.5338 0.3978
-0.5192 1.4899 0.3968
-0.6481 1.4334 0.3957
-0.7706 1.3650 0.3942
-0.8855 1.2854 0.3926
-0.9918 1.1956 0.3907
-5.4891 5.5285 1.9594
-5.9322 4.9932 1.9502
-6.2963 4.4040 1.9325
-6.6512 3.8176 1.9288
-6.9303 3.1931 1.9192
-7.1457 2.5474 1.9080
-7.3007 1.8887 1.8967
-7.3950 1.2226 1.8852
-7.4289 0.5548 1.8737
-7.3965 -0.1091 1.8605
-7.2969 -0.7620 1.8452
-7.1418 -1.3984 1.8304
-6.9337 -2.0138 1.8160
-6.6754 -2.6042 1.8022
-6.3698 -3.1659 1.7890
-6.0201 -3.6956 1.7767
-5.6272 -4.1885 1.7643
-1.0276 -0.9181 0.3466
-0.9369 -1.0010 0.3448
-0.8401 -1.0757 0.3433
-0.7378 -1.1417 0.3419
-0.6308 -1.1988 0.3407
-0.5199 -1.2466 0.3397
-0.4057 -1.2849 0.3389
-0.2890 -1.3136 0.3383
-0.1705 -1.3326 0.3379
-0.0509 -1.3417 0.3377
0.0690 -1.3410 0.3377
0.1884 -1.3303 0.3379
0.3067 -1.3099 0.3384
0.4231 -1.2797 0.3390
0.5368 -1.2399 0.3398
0.6472 -1.1906 0.3408
0.7535 -1.1322 0.3421
0.8549 -1.0648 0.3435
0.9509 -0.9889 0.3450
1.0405 -0.9047 0.3468
5.6899 -4.1172 1.7664
6.0760 -3.6181 1.7786
6.4193 -3.0833 1.7911
6.7180 -2.5170 1.8043
6.9690 -1.9226 1.8182
7.1693 -1.3037 1.8327
3.0677 -0.2786 0.7747
3.0681 -0.0039 0.7716
3.0685 0.2708 0.7747
3.0689 0.5500 0.7841
3.0693 0.8383 0.8002
7.1206 2.6472 1.9107
6.8952 3.2903 1.9215
6.6089 3.9127 1.9317
6.2669 4.5104 1.9420
5.8690 5.0767 1.9517
1.0746 1.1118 0.3889
0.9762 1.2096 0.3909
0.8686 1.2979 0.3928
0.7525 1.3759 0.3944
0.6290 1.4426 0.3958
0.4992 1.4973 0.3970
0.3645 1.5392 0.3978
0.2262 1.5680 0.3984
0.0855 1.5832 0.3988
-0.0561 1.5846 0.3988
-0.1970 1.5723 0.3985
-0.3360 1.5464 0.3980
-0.4716 1.5072 0.3972
-0.6025 1.4551 0.3961
-0.7274 1.3909 0.3948
-0.8452 1.3152 0.3932
-0.9547 1.2289 0.3914
-1.0551 1.1331 0.3894
-5.7792 5.1898 1.9536
-6.1883 4.6307 1.9439
-6.5162 4.0231 1.9261
-6.8383 3.4206 1.9231
-7.0753 2.7810 1.9120
-7.2521 2.1263 1.9008
-7.3681 1.4622 1.8893
-7.4237 0.7944 1.8778
-7.4183 0.1283 1.8661
-7.3392 -0.5294 1.8507
-7.2038 -1.1722 1.8356
-7.0144 -1.7956 1.8211
-6.7737 -2.3954 1.8070
-6.4847 -2.9678 1.7937
-6.1505 -3.5094 1.7810
-5.7739 -4.0168 1.7690
-1.0585 -0.8864 0.3472
-0.9702 -0.9722 0.3454
-0.8755 -1.0499 0.3438
-0.7751 -1.1190 0.3424
-0.6697 -1.1793 0.3411
-0.5601 -1.2305 0.3400
-0.4470 -1.2723 0.3392
-0.3311 -1.3044 0.3385
-0.2131 -1.3269 0.3380
-0.0939 -1.3396 0.3377
0.0260 -1.3424 0.3377
0.1456 -1.3353 0.3378
0.2644 -1.3183 0.3382
0.3816 -1.2916 0.3387
0.4963 -1.2552 0.3395
0.6080 -1.2094 0.3404
0.7159 -1.1542 0.3416
0.8191 -1.0900 0.3429
0.8566 -1.0230 0.3443
0.9487 -0.9469 0.3459
1.0346 -0.8628 0.3477
5.6437 -3.9094 1.7718
6.0090 -3.4127 1.7834
6.3331 -2.8831 1.7958
6.6128 -2.3236 1.8089
6.8452 -1.7377 1.8226
7.0274 -1.1290 1.8368
3.0678 -0.2151 0.7936
3.0682 0.0592 0.7919
3.0686 0.3346 0.7966
3.0690 0.6154 0.8078
3.0694 0.9066 0.8259
6.8868 2.7228 1.9111
6.6537 3.3448 1.9219
6.3630 3.9461 1.9322
6.0164 4.5209 1.9421
5.6162 5.0637 1.9515
1.0243 1.1045 0.3887
0.9264 1.1974 0.3907
0.8195 1.2809 0.3924
0.7048 1.3542 0.3940
0.5831 1.4163 0.3953
0.4557 1.4666 0.3963
0.3237 1.5044 0.3971
0.1885 1.5292 0.3976
0.0514 1.5409 0.3979
-0.0862 1.5392 0.3979
-0.2229 1.5242 0.3975
-0.3575 1.4961 0.3970
-0.4884 1.4551 0.3961
-0.6145 1.4018 0.3950
-0.7346 1.3368 0.3936
-0.8474 1.2609 0.3921
-0.9521 1.1749 0.3903
-1.0478 1.0798 0.3883
-5.7220 4.9296 1.9491
-6.0843 4.3606 1.9318
-6.4415 3.7962 1.9296
-6.7177 3.1892 1.9191
-6.9361 2.5628 1.9083
-7.0957 1.9229 1.8972
-7.1963 1.2748 1.8861
-7.2380 0.6242 1.8749
-7.2170 -0.0236 1.8625
-7.1286 -0.6618 1.8476
-6.9856 -1.2847 1.8330
-6.7906 -1.8880 1.8189
-6.5460 -2.4675 1.8054
-6.2548 -3.0197 1.7925
-5.9200 -3.5413 1.7803
-1.0944 -0.7953 0.3491
-1.0137 -0.8849 0.3473
-0.9261 -0.9670 0.3455
-0.8324 -1.0411 0.3440
-0.7333 -1.1067 0.3426
-0.6295 -1.1637 0.3414
-0.5217 -1.2116 0.3404
-0.4106 -1.2503 0.3396
-0.2969 -1.2796 0.3390
-0.1814 -1.2994 0.3386
-0.0647 -1.3096 0.3384
0.0523 -1.3101 0.3384
0.1690 -1.3009 0.3385
0.2847 -1.2821 0.3389
0.3986 -1.2538 0.3395
0.5100 -1.2160 0.3403
0.6182 -1.1691 0.3413
0.7225 -1.1131 0.3425
0.8221 -1.0483 0.3438
0.9163 -0.9751 0.3453
1.0046 -0.8939 0.3470
1.0860 -0.8050 0.3489
5.8825 -3.5949 1.7791
6.2217 -3.0768 1.7912
6.5178 -2.5277 1.8041
6.7675 -1.9508 1.8176
6.9679 -1.3499 1.8316
3.0676 -0.3142 0.7958
3.0680 -0.0391 0.7918
3.0684 0.2353 0.7942
3.0688 0.5137 0.8030
3.0692 0.8006 0.8186
6.9563 2.4956 1.9072
6.7441 3.1237 1.9181
6.4739 3.7330 1.9286
6.1471 4.3180 1.9386
5.7658 4.8729 1.9482
1.0572 1.0690 0.3880
0.9626 1.1651 0.3900
0.8588 1.2521 0.3918
0.7468 1.3291 0.3934
0.6275 1.3953 0.3948
0.5020 1.4499 0.3960
0.3715 1.4922 0.3969
0.2374 1.5218 0.3975
0.1008 1.5383 0.3978
-0.0368 1.5414 0.3979
-0.1740 1.5312 0.3977
-0.3095 1.5077 0.3972
-0.4419 1.4713 0.3964
-0.5699 1.4223 0.3954
-0.6922 1.3615 0.3942
-0.8078 1.2894 0.3927
-0.9156 1.2069 0.3909
-1.0145 1.1149 0.3890
-5.5704 5.1190 1.9524
-5.9761 4.5799 1.9431
-6.3035 3.9924 1.9256
-6.6252 3.4095 1.9229
-6.8644 2.7895 1.9122
-7.0452 2.1538 1.9012
-7.1670 1.5080 1.8901
-7.2298 0.8577 1.8789
-7.2341 0.2082 1.8677
-7.1667 -0.4343 1.8529
-7.0431 -1.0632 1.8382
-6.8664 -1.6740 1.8239
-6.6393 -2.2625 1.8102
-6.3645 -2.8249 1.7970
-6.0450 -3.3578 1.7845
-5.6839 -3.8581 1.7729
-1.0435 -0.8536 0.3479
-0.9583 -0.9385 0.3461
-0.8667 -1.0154 0.3445
-0.7695 -1.0841 0.3431
-0.6673 -1.1442 0.3418
-0.5608 -1.1954 0.3408
-0.4508 -1.2375 0.3399
-0.3380 -1.2702 0.3392
-0.2230 -1.2934 0.3387
-0.1067 -1.3070 0.3384
0.0103 -1.3110 0.3383
0.1272 -1.3053 0.3385
0.2434 -1.2900 0.3388
0.3580 -1.2650 0.3393
0.4704 -1.2307 0.3400
0.5798 -1.1870 0.3409
0.6855 -1.1342 0.3420
0.7869 -1.0725 0.3433
0.8832 -1.0023 0.3448
0.9736 -0.9239 0.3464
1.0576 -0.8378 0.3482
5.7508 -3.7728 1.7750
6.1048 -3.2665 1.7868
6.4167 -2.7282 1.7994
6.6833 -2.1608 1.8127
6.9018 -1.5681 1.8265
3.0675 -0.4139 0.7988
3.0679 -0.1375 0.7925
3.0683 0.1366 0.7926
3.0687 0.4131 0.7991
3.0691 0.6963 0.8122
7.0181 2.2667 1.9033
6.8270 2.9001 1.9142
6.5774 3.5168 1.9248
6.2708 4.1112 1.9351
5.9088 4.6775 1.9448
1.0888 1.0326 0.3872
0.9977 1.1316 0.3893
0.8971 1.2219 0.3912
0.7879 1.3027 0.3929
0.6711 1.3729 0.3944
0.5477 1.4317 0.3956
0.4189 1.4785 0.3966
0.2859 1.5127 0.3973
0.1500 1.5339 0.3977
0.0126 1.5418 0.3979
-0.1249 1.5364 0.3978
-0.2612 1.5176 0.3974
-0.3948 1.4858 0.3967
-0.5245 1.4413 0.3958
-0.6491 1.3846 0.3946
-0.7672 1.3165 0.3932
-0.8779 1.2376 0.3916
-0.9801 1.1489 0.3897
-1.0730 1.0514 0.3877
-5.8365 4.7774 1.9465
-6.1835 4.2000 1.9291
-6.5252 3.6272 1.9266
-6.7852 3.0142 1.9161
-6.9871 2.3834 1.9052
-7.1301 1.7406 1.8941
-7.2140 1.0913 1.8829
-7.2392 0.4409 1.8717
-7.1977 -0.2050 1.8583
-7.0937 -0.8393 1.8434
-6.9358 -1.4571 1.8290
-6.7264 -2.0541 1.8150
-6.4684 -2.6263 1.8017
-6.1646 -3.1701 1.7889
-5.8181 -3.6825 1.7770
-1.0724 -0.8213 0.3486
-0.9896 -0.9089 0.3468
-0.9003 -0.9887 0.3451
-0.8050 -1.0605 0.3436
-0.7045 -1.1237 0.3423
-0.5995 -1.1781 0.3411
-0.4907 -1.2235 0.3402
-0.3787 -1.2595 0.3394
-0.2645 -1.2862 0.3389
-0.1486 -1.3032 0.3385
-0.0317 -1.3107 0.3383
0.0853 -1.3085 0.3384
0.2018 -1.2966 0.3386
0.3171 -1.2751 0.3391
0.4303 -1.2441 0.3397
0.5409 -1.2037 0.3406
0.6480 -1.1542 0.3416
0.7511 -1.0957 0.3428
0.8492 -1.0285 0.3442
0.9419 -0.9530 0.3458
1.0283 -0.8696 0.3475
5.6140 -3.9461 1.7709
5.9824 -3.4521 1.7825
6.3098 -2.9249 1.7948
6.5930 -2.3676 1.8078
6.8291 -1.7836 1.8215
7.0152 -1.1765 1.8357
3.0677 -0.2362 0.7940
3.0681 0.0382 0.7919
3.0685 0.3133 0.7960
3.0689 0.5936 0.8067
3.0693 0.8838 0.8243
6.9023 2.6744 1.9103
6.6737 3.2977 1.9211
6.3873 3.9008 1.9315
6.0450 4.4778 1.9414
5.6488 5.0233 1.9508
1.0315 1.0970 0.3886
0.9342 1.1906 0.3905
0.8280 1.2749 0.3923
0.7139 1.3489 0.3939
0.5927 1.4119 0.3952
0.4657 1.4631 0.3963
0.3340 1.5019 0.3971
0.1990 1.5278 0.3976
0.0620 1.5405 0.3979
-0.0756 1.5399 0.3979
-0.2125 1.5259 0.3976
-0.3473 1.4987 0.3970
-0.4785 1.4587 0.3962
-0.6050 1.4063 0.3951
-0.7256 1.3422 0.3938
-0.8391 1.2671 0.3922
-0.9444 1.1818 0.3904
-1.0408 1.0874 0.3884
-5.6901 4.9705 1.9498
-6.0566 4.4039 1.9325
-6.4179 3.8418 1.9303
-6.6985 3.2365 1.9199
-6.9214 2.6115 1.9091
-7.0856 1.9724 1.8981
-7.1907 1.3248 1.8869
-7.2369 0.6741 1.8757
-7.2215 0.0259 1.8637
-7.1373 -0.6133 1.8487
-6.9985 -1.2375 1.8341
-6.8073 -1.8424 1.8200
-6.5665 -2.4239 1.8064
-6.2787 -2.9784 1.7934
-5.9472 -3.5024 1.7812
-5.5750 -3.9930 1.7697
-1.0201 -0.8783 0.3474
-0.9331 -0.9610 0.3457
-0.8398 -1.0357 0.3441
-0.7411 -1.1020 0.3427
-0.6377 -1.1596 0.3415
-0.5301 -1.2082 0.3405
-0.4192 -1.2477 0.3397
-0.3057 -1.2777 0.3390
-0.1903 -1.2982 0.3386
-0.0737 -1.3091 0.3384
0.0433 -1.3104 0.3384
0.1601 -1.3019 0.3385
0.2759 -1.2839 0.3389
0.3899 -1.2563 0.3395
0.5016 -1.2193 0.3402
0.6100 -1.1730 0.3412
0.7146 -1.1177 0.3424
0.8146 -1.0536 0.3437
0.9093 -0.9810 0.3452
0.9980 -0.9004 0.3469
1.0800 -0.8121 0.3487
5.8547 -3.6334 1.7782
6.1972 -3.1177 1.7903
6.4966 -2.5709 1.8031
6.7500 -1.9960 1.8165
6.9543 -1.3968 1.8305
3.0676 -0.3354 0.7964
3.0680 -0.0602 0.7919
3.0684 0.2142 0.7938
3.0688 0.4921 0.8021
3.0692 0.7781 0.8171
6.9701 2.4468 1.9064
6.7624 3.0760 1.9172
6.4966 3.6870 1.9278
6.1742 4.2740 1.9379
5.7970 4.8315 1.9475
1.0641 1.0613 0.3878
0.9702 1.1580 0.3899
0.8671 1.2457 0.3917
0.7557 1.3236 0.3933
0.6369 1.3906 0.3947
0.5119 1.4462 0.3959
0.3817 1.4894 0.3968
0.2478 1.5200 0.3974
0.1113 1.5375 0.3978
-0.0263 1.5416 0.3979
-0.1636 1.5324 0.3977
-0.2992 1.5100 0.3972
-0.4319 1.4745 0.3965
-0.5603 1.4265 0.3955
-0.6831 1.3665 0.3943
-0.7992 1.2953 0.3928
-0.9076 1.2136 0.3911
-1.0073 1.1223 0.3892
-5.5371 5.1589 1.9531
-5.9468 4.6225 1.9438
-6.2784 4.0371 1.9263
-6.6044 3.4564 1.9237
-6.8481 2.8378 1.9130
-7.0334 2.2030 1.9021
-7.1598 1.5578 1.8910
-7.2270 0.9077 1.8797
-7.2358 0.2580 1.8685
-7.1739 -0.3854 1.8540
-7.0545 -1.0155 1.8393
-6.8818 -1.6278 1.8250
-6.6585 -2.2182 1.8112
-6.3872 -2.7827 1.7980
-6.0710 -3.3180 1.7855
-5.7131 -3.8209 1.7737
-1.0498 -0.8468 0.3481
-0.9651 -0.9322 0.3463
-0.8740 -1.0098 0.3447
-0.7771 -1.0792 0.3432
-0.6753 -1.1399 0.3419
-0.5691 -1.1918 0.3408
-0.4594 -1.2346 0.3399
-0.3467 -1.2680 0.3392
-0.2319 -1.2920 0.3387
-0.1156 -1.3063 0.3384
0.0013 -1.3110 0.3383
0.1183 -1.3061 0.3384
0.2345 -1.2915 0.3387
0.3492 -1.2673 0.3392
0.4618 -1.2336 0.3399
0.5715 -1.1907 0.3408
0.6776 -1.1386 0.3419
0.7793 -1.0776 0.3432
0.8760 -1.0080 0.3446
0.9669 -0.9302 0.3463
1.0514 -0.8446 0.3480
5.7219 -3.8102 1.7741
6.0790 -3.3066 1.7859
6.3943 -2.7706 1.7984
6.6645 -2.2054 1.8116
6.8868 -1.6144 1.8255
3.0675 -0.4353 0.7995
3.0678 -0.1586 0.7928
3.0682 0.1155 0.7924
3.0686 0.3916 0.7983
3.0690 0.6742 0.8109
7.0304 2.2175 1.9024
6.8437 2.8520 1.9134
6.5986 3.4702 1.9240
6.2963 4.0665 1.9343
5.9385 4.6352 1.9441
1.0954 1.0246 0.3871
1.0050 1.1243 0.3892
0.9051 1.2153 0.3911
0.7966 1.2968 0.3928
0.6803 1.3679 0.3943
0.5574 1.4276 0.3955
0.4289 1.4753 0.3965
0.2962 1.5105 0.3972
0.1605 1.5327 0.3977
0.0232 1.5417 0.3979
-0.1144 1.5373 0.3978
-0.2508 1.5195 0.3974
-0.3847 1.4887 0.3968
-0.5148 1.4452 0.3959
-0.6397 1.3894 0.3947
-0.7584 1.3221 0.3933
-0.8696 1.2440 0.3917
-0.9725 1.1561 0.3899
-1.0662 1.0592 0.3879
-5.8057 4.8191 1.9472
-6.1569 4.2439 1.9298
-6.5029 3.6734 1.9274
-6.7673 3.0619 1.9169
-6.9737 2.4324 1.9060
-7.1212 1.7903 1.8950
-7.2097 1.1413 1.8838
-7.2394 0.4908 1.8726
-7.2034 -0.1557 1.8594
-7.1036 -0.7911 1.8446
-6.9497 -1.4103 1.8301
-6.7443 -2.0090 1.8161
-6.4899 -2.5833 1.8027
-6.1895 -3.1294 1.7899
-5.8462 -3.6443 1.7779
-1.0784 -0.8143 0.3487
-0.9962 -0.9024 0.3469
-0.9074 -0.9829 0.3452
-0.8125 -1.0552 0.3437
-0.7124 -1.1191 0.3424
-0.6077 -1.1742 0.3412
-0.4991 -1.2203 0.3402
-0.3874 -1.2571 0.3395
-0.2733 -1.2845 0.3389
-0.1575 -1.3023 0.3385
-0.0407 -1.3105 0.3384
0.0763 -1.3090 0.3384
0.1929 -1.2978 0.3386
0.3083 -1.2771 0.3390
0.4217 -1.2468 0.3397
0.5325 -1.2071 0.3405
0.6400 -1.1583 0.3415
0.7433 -1.1005 0.3427
0.8419 -1.0340 0.3441
0.9350 -0.9591 0.3457
1.0219 -0.8762 0.3474
5.5841 -3.9826 1.7701
5.9555 -3.4912 1.7816
6.2861 -2.9665 1.7938
6.5729 -2.4114 1.8068
6.8127 -1.8293 1.8204
7.0027 -1.2239 1.8346
3.0677 -0.2574 0.7945
3.0681 0.0171 0.7918
3.0685 0.2920 0.7955
3.0689 0.5717 0.8056
3.0693 0.8610 0.8227
6.9175 2.6258 1.9095
6.6933 3.2505 1.9202
6.4113 3.8553 1.9307
6.0732 4.4345 1.9407
5.6810 4.9826 1.9501
1.0386 1.0894 0.3884
0.9420 1.1837 0.3904
0.8365 1.2687 0.3922
0.7229 1.3436 0.3937
0.6022 1.4075 0.3951
0.4756 1.4596 0.3962
0.3442 1.4994 0.3970
0.2095 1.5263 0.3976
0.0726 1.5400 0.3979
-0.0651 1.5404 0.3979
-0.2021 1.5274 0.3976
-0.3370 1.5013 0.3971
-0.4686 1.4622 0.3963
-0.5955 1.4108 0.3952
-0.7166 1.3475 0.3939
-0.8306 1.2732 0.3923
-0.9366 1.1887 0.3906
-1.0337 1.0949 0.3886
-5.6579 5.0112 1.9505
-6.0529 4.4650 1.9411
-6.3940 3.8873 1.9311
-6.6790 3.2838 1.9207
-6.9064 2.6601 1.9100
-7.0751 2.0218 1.8990
-7.1847 1.3747 1.8878
-7.2354 0.7241 1.8766
-7.2256 0.0755 1.8648
-7.1457 -0.5647 1.8499
-7.0110 -1.1902 1.8352
-6.8238 -1.7968 1.8210
-6.5867 -2.3802 1.8074
-6.3024 -2.9368 1.7944
-5.9741 -3.4633 1.7821
-5.6050 -3.9565 1.7706
-1.0265 -0.8716 0.3475
-0.9400 -0.9549 0.3458
-0.8472 -1.0302 0.3442
-0.7489 -1.0972 0.3428
-0.6458 -1.1555 0.3416
-0.5385 -1.2048 0.3406
-0.4278 -1.2450 0.3397
-0.3145 -1.2757 0.3391
-0.1992 -1.2970 0.3386
-0.0827 -1.3086 0.3384
0.0343 -1.3106 0.3383
0.1512 -1.3029 0.3385
0.2670 -1.2856 0.3389
0.3813 -1.2588 0.3394
0.4931 -1.2224 0.3402
0.6018 -1.1769 0.3411
0.7067 -1.1222 0.3423
0.8071 -1.0588 0.3436
0.9022 -0.9869 0.3451
0.9914 -0.9069 0.3467
1.0740 -0.8191 0.3486
5.8267 -3.6716 1.7773
6.1724 -3.1585 1.7893
6.4752 -2.6139 1.8021
6.7322 -2.0411 1.8155
6.9404 -1.4436 1.8294
3.0676 -0.3567 0.7970
3.0680 -0.0812 0.7920
3.0684 0.1931 0.7934
3.0688 0.4705 0.8012
3.0692 0.7558 0.8157
6.9837 2.3978 1.9055
6.7804 3.0283 1.9164
6.5191 3.6409 1.9270
6.2009 4.2299 1.9371
5.8278 4.7898 1.9468
1.0709 1.0535 0.3877
0.9777 1.1509 0.3897
0.8753 1.2393 0.3916
0.7645 1.3180 0.3932
0.6463 1.3859 0.3946
0.5217 1.4423 0.3958
0.3919 1.4866 0.3967
0.2582 1.5181 0.3974
0.1218 1.5366 0.3978
-0.0157 1.5418 0.3979
-0.1530 1.5336 0.3977
-0.2889 1.5121 0.3973
-0.4218 1.4777 0.3966
-0.5506 1.4306 0.3956
-0.6739 1.3716 0.3944
-0.7906 1.3011 0.3929
-0.8996 1.2202 0.3912
-0.9999 1.1296 0.3893
-5.5035 5.1986 1.9537
-5.9172 4.6650 1.9445
-6.2530 4.0817 1.9271
-6.5833 3.5030 1.9245
-6.8315 2.8859 1.9139
-7.0213 2.2522 1.9029
-7.1521 1.6076 1.8918
-7.2240 0.9577 1.8806
-7.2372 0.3077 1.8694
-7.1808 -0.3364 1.8552
-7.0656 -0.9677 1.8404
-6.8969 -1.5815 1.8261
-6.6773 -2.1737 1.8122
-6.4097 -2.7403 1.7990
-6.0968 -3.2780 1.7864
-5.7420 -3.7835 1.7746
-1.0560 -0.8399 0.3482
-0.9718 -0.9259 0.3464
-0.8812 -1.0041 0.3448
-0.7848 -1.0741 0.3433
-0.6833 -1.1356 0.3420
-0.5774 -1.1882 0.3409
-0.4679 -1.2316 0.3400
-0.3554 -1.2658 0.3393
-0.2408 -1.2905 0.3388
-0.1246 -1.3056 0.3385
-0.0077 -1.3110 0.3383
0.1093 -1.3068 0.3384
0.2256 -1.2929 0.3387
0.3405 -1.2695 0.3392
0.4533 -1.2366 0.3399
0.5632 -1.1943 0.3408
0.6696 -1.1429 0.3418
0.7716 -1.0826 0.3431
0.8687 -1.0137 0.3445
0.9601 -0.9365 0.3461
1.0452 -0.8515 0.3479
5.6929 -3.8475 1.7732
6.0530 -3.3465 1.7849
6.3716 -2.8128 1.7974
6.6454 -2.2497 1.8106
6.8715 -1.6607 1.8244
7.0470 -1.0494 1.8387
3.0678 -0.1797 0.7931
3.0682 0.0945 0.7922
3.0686 0.3703 0.7977
3.0690 0.6522 0.8097
3.0694 0.9451 0.8288
6.8601 2.8037 1.9125
6.6195 3.4234 1.9232
6.3215 4.0216 1.9335
5.9679 4.5926 1.9434
1.1019 1.0167 0.3869
1.0123 1.1169 0.3890
0.9131 1.2087 0.3909
0.8052 1.2909 0.3926
0.6895 1.3628 0.3942
0.5670 1.4234 0.3954
0.4390 1.4721 0.3964
0.3065 1.5083 0.3972
0.1710 1.5315 0.3977
0.0337 1.5415 0.3979
-0.1038 1.5381 0.3978
-0.2404 1.5214 0.3975
-0.3745 1.4915 0.3969
-0.5049 1.4489 0.3960
-0.6303 1.3941 0.3948
-0.7495 1.3277 0.3935
-0.8614 1.2504 0.3918
-0.9650 1.1632 0.3900
-1.0594 1.0670 0.3880
-5.7747 4.8606 1.9479
-6.1300 4.2877 1.9306
-6.4802 3.7194 1.9282
-6.7490 3.1096 1.9177
-6.9599 2.4812 1.9069
-7.1120 1.8399 1.8958
-7.2050 1.1912 1.8846
-7.2391 0.5407 1.8734
-7.2088 -0.1064 1.8606
-7.1132 -0.7428 1.8457
-6.9634 -1.3635 1.8312
-6.7618 -1.9639 1.8171
-6.5111 -2.5401 1.8037
-6.2141 -3.0886 1.7908
-5.8740 -3.6059 1.7787
-1.0845 -0.8072 0.3489
-1.0028 -0.8959 0.3470
-0.9144 -0.9770 0.3453
-0.8200 -1.0500 0.3438
-0.7202 -1.1145 0.3425
-0.6159 -1.1703 0.3413
-0.5076 -1.2171 0.3403
-0.3961 -1.2546 0.3395
-0.2821 -1.2827 0.3389
-0.1664 -1.3012 0.3385
-0.0497 -1.3102 0.3384
0.0673 -1.3094 0.3384
0.1840 -1.2990 0.3386
0.2995 -1.2790 0.3390
0.4131 -1.2495 0.3396
0.5241 -1.2105 0.3404
0.6318 -1.1624 0.3414
0.7355 -1.1052 0.3426
0.8345 -1.0394 0.3440
0.9280 -0.9651 0.3455
1.0154 -0.8829 0.3473
5.5538 -4.0187 1.7691
5.9284 -3.5302 1.7806
6.2623 -3.0079 1.7929
6.5525 -2.4550 1.8058
6.7960 -1.8749 1.8194
6.9900 -1.2711 1.8335
3.0677 -0.2786 0.7949
3.0681 -0.0039 0.7918
3.0685 0.2708 0.7950
3.0689 0.5500 0.8046
3.0693 0.8383 0.8211
6.9323 2.5772 1.9086
6.7126 3.2032 1.9194
6.4350 3.8097 1.9299
6.1011 4.3911 1.9399
5.7130 4.9418 1.9494
1.0456 1.0818 0.3883
0.9498 1.1768 0.3903
0.8449 1.2626 0.3921
0.7319 1.3383 0.3936
0.6117 1.4030 0.3950
0.4855 1.4561 0.3961
0.3545 1.4968 0.3970
0.2199 1.5247 0.3975
0.0831 1.5394 0.3979
-0.0545 1.5408 0.3979
-0.1916 1.5289 0.3976
-0.3268 1.5037 0.3971
-0.4586 1.4657 0.3963
-0.5860 1.4152 0.3953
-0.7075 1.3528 0.3940
-0.8221 1.2793 0.3924
-0.9288 1.1956 0.3907
-1.0266 1.1025 0.3888
-5.6254 5.0517 1.9512
-6.0245 4.5081 1.9418
-6.3698 3.9327 1.9319
-6.6591 3.3309 1.9215
-6.8910 2.7086 1.9108
-7.0642 2.0712 1.8998
-7.1784 1.4246 1.8887
-7.2336 0.7741 1.8774
-7.2294 0.1251 1.8660
-7.1539 -0.5160 1.8510
-7.0233 -1.1428 1.8363
-6.8400 -1.7510 1.8221
-6.6066 -2.3363 1.8084
-6.3259 -2.8951 1.7954
-6.0008 -3.4240 1.7830
-5.6347 -3.9199 1.7714
-1.0329 -0.8649 0.3477
-0.9469 -0.9488 0.3459
-0.8545 -1.0247 0.3443
-0.7566 -1.0924 0.3429
-0.6538 -1.1513 0.3417
-0.5469 -1.2014 0.3406
-0.4364 -1.2422 0.3398
-0.3233 -1.2737 0.3391
-0.2081 -1.2957 0.3387
-0.0917 -1.3081 0.3384
0.0253 -1.3108 0.3383
0.1422 -1.3039 0.3385
0.2582 -1.2873 0.3388
0.3726 -1.2612 0.3394
0.4846 -1.2256 0.3401
0.5936 -1.1807 0.3410
0.6988 -1.1268 0.3422
0.7996 -1.0640 0.3435
0.8365 -0.9990 0.3448
0.9264 -0.9246 0.3464
1.0101 -0.8424 0.3481
1.0870 -0.7530 0.3500
5.8658 -3.3314 1.7853
6.1812 -2.8140 1.7974
6.4531 -2.2675 1.8102
6.6786 -1.6954 1.8236
6.8550 -1.1014 1.8374
3.0678 -0.2151 0.8139
3.0682 0.0592 0.8121
3.0686 0.3346 0.8169
3.0690 0.6154 0.8284
3.0694 0.9066 0.8470
6.7114 2.6535 1.9100
6.4832 3.2592 1.9204
6.1991 3.8445 1.9305
5.8607 4.4039 1.9401
1.0835 0.9769 0.3861
0.9973 1.0753 0.3881
0.9018 1.1656 0.3900
0.7977 1.2468 0.3917
0.6859 1.3180 0.3932
0.5675 1.3783 0.3945
0.4434 1.4271 0.3955
0.3150 1.4638 0.3963
0.1834 1.4880 0.3968
0.0500 1.4993 0.3970
-0.0839 1.4977 0.3970
-0.2169 1.4831 0.3967
-0.3479 1.4558 0.3961
-0.4753 1.4160 0.3953
-0.5981 1.3642 0.3942
-0.7149 1.3011 0.3929
-0.8249 1.2273 0.3914
-0.9269 1.1438 0.3896
-1.0202 1.0513 0.3877
-5.5734 4.8016 1.9469
-5.9272 4.2479 1.9299
-6.2758 3.6985 1.9279
-6.5459 3.1076 1.9177
-6.7596 2.4976 1.9072
-6.9163 1.8742 1.8964
-7.0153 1.2427 1.8855
-7.0570 0.6086 1.8746
-7.0376 -0.0230 1.8625
-6.9528 -0.6455 1.8480
-6.8147 -1.2533 1.8338
-6.6256 -1.8421 1.8200
-6.3881 -2.4080 1.8068
-6.1050 -2.9474 1.7941
-5.7792 -3.4571 1.7822
-1.0684 -0.7764 0.3495
-0.9897 -0.8640 0.3477
-0.9043 -0.9443 0.3460
-0.8130 -1.0167 0.3445
-0.7162 -1.0809 0.3432
-0.6149 -1.1366 0.3420
-0.5096 -1.1835 0.3410
-0.4011 -1.2214 0.3402
-0.2901 -1.2501 0.3396
-0.1772 -1.2694 0.3392
-0.0632 -1.2794 0.3390
0.0511 -1.2799 0.3390
0.1651 -1.2709 0.3392
0.2781 -1.2525 0.3396
0.3894 -1.2248 0.3401
0.4982 -1.1879 0.3409
0.6038 -1.1419 0.3419
0.7056 -1.0871 0.3430
0.8028 -1.0238 0.3443
0.8948 -0.9522 0.3458
0.9808 -0.8728 0.3475
1.0603 -0.7859 0.3493
5.7426 -3.5095 1.7811
6.0729 -3.0032 1.7930
6.3607 -2.4668 1.8055
6.6032 -1.9035 1.8187
6.7975 -1.3169 1.8324
3.0676 -0.3142 0.8161
3.0680 -0.0391 0.8120
3.0684 0.2353 0.8144
3.0688 0.5137 0.8235
3.0692 0.8006 0.8395
6.7794 2.4322 1.9061
6.5716 3.0438 1.9167
6.3075 3.6371 1.9269
5.9883 4.2064 1.9367
5.6162 4.7464 1.9460
1.0293 1.0409 0.3874
0.9371 1.1342 0.3894
0.8360 1.2188 0.3911
0.7269 1.2936 0.3927
0.6107 1.3579 0.3941
0.4885 1.4110 0.3952
0.3615 1.4521 0.3960
0.2310 1.4808 0.3966
0.0981 1.4967 0.3970
-0.0358 1.4998 0.3970
-0.1694 1.4898 0.3968
-0.3012 1.4671 0.3964
-0.4300 1.4317 0.3956
-0.5546 1.3842 0.3946
-0.6737 1.3250 0.3934
-0.7863 1.2550 0.3919
-0.8913 1.1748 0.3903
-0.9878 1.0855 0.3884
-1.0750 0.9878 0.3864
-5.8214 4.4613 1.9410
-6.1654 3.9050 1.9314
-6.4554 3.3222 1.9214
-6.6895 2.7184 1.9110
-6.8666 2.0992 1.9003
-6.9864 1.4700 1.8894
-7.0486 0.8362 1.8785
-7.0539 0.2031 1.8676
-6.9894 -0.4235 1.8532
-6.8702 -1.0371 1.8388
-6.6992 -1.6332 1.8249
-6.4788 -2.2078 1.8114
-6.2117 -2.7571 1.7986
-5.9009 -3.2778 1.7864
-1.0949 -0.7432 0.3502
-1.0188 -0.8334 0.3483
-0.9357 -0.9163 0.3466
-0.8464 -0.9916 0.3450
-0.7515 -1.0588 0.3436
-0.6518 -1.1176 0.3424
-0.5478 -1.1677 0.3413
-0.4404 -1.2088 0.3405
-0.3302 -1.2408 0.3398
-0.2179 -1.2636 0.3393
-0.1042 -1.2769 0.3391
0.0101 -1.2808 0.3390
0.1243 -1.2752 0.3391
0.2377 -1.2602 0.3394
0.3497 -1.2358 0.3399
0.4595 -1.2022 0.3406
0.5663 -1.1594 0.3415
0.6696 -1.1078 0.3426
0.7685 -1.0475 0.3438
0.8624 -0.9788 0.3453
0.9507 -0.9022 0.3468
1.0325 -0.8179 0.3486
5.6144 -3.6833 1.7771
5.9590 -3.1885 1.7886
6.2624 -2.6626 1.8009
6.5215 -2.1085 1.8139
6.7335 -1.5299 1.8274
3.0675 -0.4139 0.8192
3.0679 -0.1375 0.8127
3.0683 0.1366 0.8128
3.0687 0.4131 0.8194
3.0691 0.6963 0.8329
6.8400 2.2092 1.9023
6.6527 2.8261 1.9129
6.4087 3.4266 1.9233
6.1091 4.0052 1.9333
5.7557 4.5563 1.9428
1.0601 1.0054 0.3867
0.9713 1.1017 0.3887
0.8733 1.1895 0.3905
0.7669 1.2679 0.3922
0.6531 1.3361 0.3936
0.5330 1.3933 0.3948
0.4076 1.4387 0.3957
0.2782 1.4719 0.3964
0.1459 1.4925 0.3969
0.0123 1.5002 0.3970
-0.1216 1.4949 0.3969
-0.2541 1.4767 0.3966
-0.3842 1.4458 0.3959
-0.5105 1.4026 0.3950
-0.6317 1.3476 0.3939
-0.7467 1.2813 0.3925
-0.8545 1.2047 0.3909
-0.9541 1.1185 0.3891
-1.0448 1.0238 0.3871
-5.6851 4.6535 1.9443
-6.0334 4.0980 1.9302
-6.3576 3.5341 1.9250
-6.6119 2.9372 1.9147
-6.8096 2.3229 1.9041
-6.9500 1.6966 1.8933
-7.0329 1.0639 1.8824
-7.0585 0.4299 1.8715
-7.0192 -0.1999 1.8584
-6.9191 -0.8187 1.8439
-6.7664 -1.4215 1.8298
-6.5634 -2.0043 1.8162
-6.3128 -2.5631 1.8031
-6.0173 -3.0944 1.7907
-5.6800 -3.5950 1.7790
-1.0469 -0.8018 0.3490
-0.9663 -0.8874 0.3472
-0.8791 -0.9655 0.3456
-0.7862 -1.0356 0.3441
-0.6881 -1.0975 0.3428
-0.5856 -1.1507 0.3417
-0.4793 -1.1951 0.3408
-0.3700 -1.2304 0.3400
-0.2584 -1.2565 0.3395
-0.1451 -1.2732 0.3391
-0.0310 -1.2805 0.3390
0.0833 -1.2783 0.3390
0.1972 -1.2667 0.3393
0.3097 -1.2456 0.3397
0.4204 -1.2153 0.3403
0.5284 -1.1758 0.3411
0.6330 -1.1273 0.3422
0.7335 -1.0701 0.3433
0.8293 -1.0044 0.3447
0.9197 -0.9306 0.3463
1.0039 -0.8490 0.3480
1.0814 -0.7601 0.3498
5.8399 -3.3699 1.7844
6.1585 -2.8548 1.7964
6.4338 -2.3104 1.8092
6.6630 -1.7402 1.8225
6.8433 -1.1477 1.8364
3.0677 -0.2362 0.8143
3.0681 0.0382 0.8120
3.0685 0.3133 0.8163
3.0689 0.5936 0.8272
3.0694 0.8838 0.8453
6.7265 2.6063 1.9091
6.5028 3.2133 1.9196
6.2229 3.8004 1.9297
5.8886 4.3620 1.9394
1.0897 0.9690 0.3859
1.0043 1.0680 0.3880
0.9095 1.1590 0.3899
0.8060 1.2409 0.3916
0.6948 1.3129 0.3931
0.5768 1.3741 0.3944
0.4531 1.4238 0.3954
0.3250 1.4614 0.3962
0.1936 1.4866 0.3967
0.0603 1.4989 0.3970
-0.0736 1.4983 0.3970
-0.2068 1.4847 0.3967
-0.3379 1.4583 0.3962
-0.4657 1.4195 0.3954
-0.5888 1.3686 0.3943
-0.7062 1.3063 0.3930
-0.8167 1.2334 0.3915
-0.9194 1.1505 0.3898
-1.0133 1.0587 0.3878
-5.5423 4.8414 1.9476
-5.9001 4.2901 1.9306
-6.2528 3.7430 1.9286
-6.5271 3.1537 1.9185
-6.7453 2.5450 1.9080
-6.9063 1.9224 1.8972
-7.0098 1.2914 1.8864
-7.0559 0.6573 1.8754
-7.0419 0.0252 1.8637
-6.9612 -0.5982 1.8491
-6.8271 -1.2072 1.8348
-6.6419 -1.7977 1.8210
-6.4080 -2.3655 1.8078
-6.1283 -2.9070 1.7951
-5.8057 -3.4190 1.7831
-1.0742 -0.7694 0.3497
-0.9960 -0.8575 0.3478
-0.9111 -0.9384 0.3461
-0.8202 -1.0114 0.3446
-0.7238 -1.0763 0.3433
-0.6228 -1.1326 0.3421
-0.5178 -1.1802 0.3411
-0.4095 -1.2188 0.3403
-0.2987 -1.2482 0.3397
-0.1859 -1.2683 0.3392
-0.0720 -1.2789 0.3390
0.0423 -1.2802 0.3390
0.1564 -1.2719 0.3392
0.2695 -1.2543 0.3395
0.3809 -1.2272 0.3401
0.4899 -1.1910 0.3408
0.5959 -1.1457 0.3418
0.6980 -1.0916 0.3429
0.7955 -1.0289 0.3442
0.8879 -0.9580 0.3457
0.9744 -0.8791 0.3473
1.0544 -0.7928 0.3491
5.7156 -3.5470 1.7802
6.0489 -3.0432 1.7920
6.3401 -2.5090 1.8045
6.5862 -1.9476 1.8177
6.7844 -1.3626 1.8313
3.0676 -0.3354 0.8167
3.0680 -0.0602 0.8121
3.0684 0.2142 0.8140
3.0688 0.4921 0.8225
3.0692 0.7781 0.8380
6.7930 2.3846 1.9053
6.5896 2.9974 1.9159
6.3297 3.5923 1.9261
6.0147 4.1637 1.9360
5.6466 4.7061 1.9453
1.0360 1.0334 0.3873
0.9445 1.1273 0.3892
0.8441 1.2126 0.3910
0.7355 1.2883 0.3926
0.6198 1.3534 0.3940
0.4981 1.4073 0.3951
0.3714 1.4493 0.3960
0.2411 1.4790 0.3966
0.1083 1.4960 0.3969
-0.0255 1.5000 0.3970
-0.1591 1.4911 0.3969
-0.2912 1.4693 0.3964
-0.4203 1.4348 0.3957
-0.5452 1.3882 0.3947
-0.6648 1.3300 0.3935
-0.7779 1.2607 0.3921
-0.8835 1.1813 0.3904
-0.9807 1.0926 0.3886
-1.0686 0.9956 0.3865
-5.7928 4.5028 1.9417
-6.1409 3.9487 1.9322
-6.4350 3.3677 1.9222
-6.6735 2.7654 1.9118
-6.8551 2.1472 1.9011
-6.9792 1.5186 1.8903
-7.0459 0.8849 1.8794
-7.0555 0.2515 1.8684
-6.9964 -0.3758 1.8543
-6.8812 -0.9906 1.8399
-6.7141 -1.5881 1.8259
-6.4974 -2.1645 1.8125
-6.2338 -2.7159 1.7996
-5.9262 -3.2389 1.7873
-5.5777 -3.7303 1.7758
-1.0249 -0.8267 0.3485
-0.9423 -0.9102 0.3467
-0.8535 -0.9861 0.3451
-0.7590 -1.0539 0.3437
-0.6596 -1.1134 0.3425
-0.5559 -1.1642 0.3414
-0.4487 -1.2060 0.3405
-0.3387 -1.2387 0.3399
-0.2265 -1.2621 0.3394
-0.1130 -1.2762 0.3391
0.0013 -1.2808 0.3390
0.1155 -1.2760 0.3391
0.2291 -1.2617 0.3394
0.3412 -1.2380 0.3399
0.4511 -1.2051 0.3405
0.5582 -1.1630 0.3414
0.6618 -1.1120 0.3425
0.7611 -1.0524 0.3437
0.8554 -0.9844 0.3451
0.9441 -0.9083 0.3467
1.0265 -0.8246 0.3485
5.5863 -3.7199 1.7762
5.9340 -3.2277 1.7877
6.2407 -2.7040 1.8000
6.5033 -2.1520 1.8129
6.7189 -1.5751 1.8264
3.0675 -0.4353 0.8199
3.0679 -0.1586 0.8130
3.0682 0.1155 0.8126
3.0686 0.3916 0.8187
3.0690 0.6742 0.8316
6.8521 2.1613 1.9015
6.6692 2.7792 1.9121
6.4294 3.3812 1.9225
6.1340 3.9616 1.9325
5.7847 4.5151 1.9420
1.0666 0.9977 0.3865
0.9784 1.0946 0.3885
0.8811 1.1831 0.3904
0.7754 1.2623 0.3920
0.6621 1.3313 0.3935
0.5424 1.3893 0.3947
0.4174 1.4357 0.3957
0.2882 1.4698 0.3964
0.1562 1.4914 0.3968
0.0225 1.5001 0.3970
-0.1113 1.4958 0.3969
-0.2440 1.4785 0.3966
-0.3743 1.4486 0.3960
-0.5009 1.4063 0.3951
-0.6226 1.3522 0.3940
-0.7381 1.2868 0.3926
-0.8465 1.2110 0.3910
-0.9468 1.1255 0.3892
-1.0381 1.0313 0.3873
-5.6551 4.6941 1.9450
-5.9981 4.1344 1.9280
-6.3358 3.5790 1.9258
-6.5944 2.9837 1.9155
-6.7965 2.3706 1.9050
-6.9413 1.7450 1.8942
-7.0286 1.1126 1.8833
-7.0586 0.4785 1.8723
-7.0246 -0.1518 1.8595
-6.9287 -0.7717 1.8450
-6.7799 -1.3759 1.8309
-6.5807 -1.9603 1.8172
-6.3336 -2.5211 1.8041
-6.0415 -3.0546 1.7916
-5.7073 -3.5577 1.7799
-1.0528 -0.7950 0.3491
-0.9727 -0.8811 0.3473
-0.8860 -0.9598 0.3457
-0.7935 -1.0306 0.3442
-0.6958 -1.0930 0.3429
-0.5936 -1.1470 0.3418
-0.4876 -1.1920 0.3408
-0.3785 -1.2280 0.3401
-0.2670 -1.2548 0.3395
-0.1539 -1.2722 0.3392
-0.0398 -1.2802 0.3390
0.0746 -1.2788 0.3390
0.1884 -1.2679 0.3392
0.3011 -1.2476 0.3397
0.4120 -1.2180 0.3403
0.5202 -1.1792 0.3411
0.6251 -1.1314 0.3421
0.7260 -1.0748 0.3433
0.8222 -1.0097 0.3446
0.9130 -0.9365 0.3461
0.9977 -0.8555 0.3478
1.0757 -0.7672 0.3497
5.8138 -3.4081 1.7835
6.1355 -2.8954 1.7955
6.4143 -2.3532 1.8082
6.6471 -1.7848 1.8215
6.8312 -1.1939 1.8353
3.0677 -0.2574 0.8147
3.0681 0.0171 0.8120
3.0685 0.2920 0.8157
3.0689 0.5717 0.8262
3.0693 0.8610 0.8437
6.7414 2.5590 1.9083
6.5220 3.1673 1.9188
6.2464 3.7561 1.9290
5.9162 4.3199 1.9387
1.0958 0.9611 0.3858
1.0112 1.0607 0.3878
0.9171 1.1523 0.3897
0.8142 1.2350 0.3915
0.7036 1.3077 0.3930
0.5861 1.3698 0.3943
0.4628 1.4204 0.3954
0.3350 1.4590 0.3962
0.2038 1.4851 0.3967
0.0706 1.4984 0.3970
-0.0633 1.4988 0.3970
-0.1966 1.4862 0.3968
-0.3279 1.4608 0.3962
-0.4560 1.4229 0.3954
-0.5796 1.3729 0.3944
-0.6974 1.3115 0.3931
-0.8085 1.2393 0.3916
-0.9118 1.1572 0.3899
-1.0064 1.0661 0.3880
-5.5109 4.8810 1.9483
-5.8964 4.3495 1.9391
-6.2294 3.7873 1.9294
-6.5080 3.1997 1.9193
-6.7305 2.5923 1.9088
-6.8959 1.9706 1.8981
-7.0038 1.3401 1.8872
-7.0543 0.7060 1.8763
-7.0458 0.0736 1.8648
-6.9693 -0.5507 1.8502
-6.8392 -1.1611 1.8359
-6.6579 -1.7531 1.8221
-6.4277 -2.3228 1.8088
-6.1514 -2.8665 1.7960
-5.8319 -3.3808 1.7840
-1.0799 -0.7623 0.3498
-1.0023 -0.8510 0.3480
-0.9179 -0.9324 0.3463
-0.8274 -1.0061 0.3447
-0.7314 -1.0716 0.3434
-0.6307 -1.1286 0.3422
-0.5260 -1.1769 0.3412
-0.4179 -1.2162 0.3403
-0.3072 -1.2463 0.3397
-0.1946 -1.2671 0.3393
-0.0808 -1.2785 0.3390
0.0336 -1.2804 0.3390
0.1477 -1.2729 0.3391
0.2609 -1.2559 0.3395
0.3724 -1.2296 0.3400
0.4817 -1.1941 0.3408
0.5878 -1.1495 0.3417
0.6903 -1.0961 0.3428
0.7882 -1.0340 0.3441
0.8810 -0.9637 0.3456
0.9680 -0.8855 0.3472
1.0485 -0.7997 0.3490
5.6883 -3.5844 1.7794
6.0248 -3.0830 1.7911
6.3194 -2.5510 1.8035
6.5690 -1.9916 1.8166
6.7709 -1.4083 1.8303
3.0676 -0.3567 0.8173
3.0680 -0.0812 0.8122
3.0684 0.1931 0.8136
3.0688 0.4705 0.8216
3.0692 0.7558 0.8365
6.8062 2.3369 1.9045
6.6072 2.9509 1.9151
6.3517 3.5474 1.9254
6.0408 4.1207 1.9352
5.6767 4.6656 1.9446
1.0427 1.0258 0.3871
0.9519 1.1204 0.3891
0.8521 1.2064 0.3909
0.7441 1.2828 0.3925
0.6290 1.3488 0.3939
0.5076 1.4036 0.3950
0.3813 1.4465 0.3959
0.2512 1.4772 0.3966
0.1186 1.4951 0.3969
-0.0153 1.5002 0.3970
-0.1489 1.4922 0.3969
-0.2811 1.4714 0.3964
-0.4105 1.4379 0.3957
-0.5358 1.3922 0.3948
-0.6558 1.3348 0.3936
-0.7695 1.2664 0.3922
-0.8757 1.1878 0.3905
-0.9735 1.0998 0.3887
-1.0622 1.0033 0.3867
-5.7639 4.5441 1.9425
-6.1161 3.9923 1.9329
-6.4144 3.4132 1.9230
-6.6572 2.8123 1.9126
-6.8432 2.1951 1.9019
-6.9717 1.5671 1.8911
-7.0428 0.9336 1.8802
-7.0568 0.3001 1.8693
-7.0030 -0.3280 1.8554
-6.8920 -0.9439 1.8410
-6.7287 -1.5429 1.8270
-6.5157 -2.1211 1.8135
-6.2557 -2.6745 1.8005
-5.9513 -3.1998 1.7882
-5.6058 -3.6938 1.7767
-1.0309 -0.8200 0.3486
-0.9489 -0.9041 0.3469
-0.8605 -0.9806 0.3453
-0.7664 -1.0490 0.3438
-0.6674 -1.1091 0.3426
-0.5640 -1.1606 0.3415
-0.4571 -1.2031 0.3406
-0.3472 -1.2365 0.3399
-0.2352 -1.2607 0.3394
-0.1217 -1.2755 0.3391
-0.0075 -1.2808 0.3390
0.1068 -1.2767 0.3391
0.2204 -1.2631 0.3393
0.3326 -1.2402 0.3398
0.4428 -1.2079 0.3405
0.5501 -1.1666 0.3413
0.6540 -1.1163 0.3424
0.7536 -1.0573 0.3436
0.8484 -0.9899 0.3450
0.9375 -0.9144 0.3466
1.0204 -0.8313 0.3483
5.5580 -3.7563 1.7753
5.9087 -3.2667 1.7868
6.2186 -2.7453 1.7990
6.4847 -2.1953 1.8119
6.7041 -1.6202 1.8253
6.8740 -1.0236 1.8393
3.0678 -0.1797 0.8133
3.0682 0.0945 0.8124
3.0686 0.3703 0.8180
3.0690 0.6522 0.8304
3.0694 0.9451 0.8500
6.6852 2.7323 1.9113
6.4498 3.3357 1.9217
6.1586 3.9180 1.9318
5.8134 4.4736 1.9413
1.0729 0.9900 0.3864
0.9855 1.0874 0.3884
0.8889 1.1766 0.3903
0.7838 1.2565 0.3919
0.6711 1.3264 0.3934
0.5518 1.3852 0.3946
0.4272 1.4325 0.3956
0.2982 1.4676 0.3963
0.1664 1.4902 0.3968
0.0328 1.4998 0.3970
-0.1010 1.4966 0.3970
-0.2339 1.4803 0.3966
