ply
format ascii 1.0
element vertex 2177
property float32 x
property float32 y
property float32 z
end_header
0.7784 -1.2624 0.3440
0.8912 -1.1921 0.3452
0.9980 -1.1122 0.3466
5.6379 -5.2532 1.7874
6.0997 -4.7409 1.7919
6.5162 -4.1888 1.7968
6.8933 -3.6057 1.8044
7.2237 -2.9909 1.8135
7.5009 -2.3463 1.8230
7.7219 -1.6764 1.8328
7.8842 -0.9858 1.8430
7.9856 -0.2797 1.8534
8.0331 0.4372 1.8660
8.0166 1.1605 1.8788
7.9346 1.8842 1.8916
7.7867 2.6023 1.9043
7.5726 3.3085 1.9168
7.2930 3.9965 1.9289
6.9491 4.6597 1.9407
6.5428 5.2917 1.9518
6.0769 5.8861 1.9623
1.0920 1.2655 0.3877
0.9790 1.3639 0.3894
0.8567 1.4514 0.3909
0.7261 1.5272 0.3922
0.5885 1.5903 0.3933
0.4451 1.6401 0.3942
0.2974 1.6759 0.3948
0.1468 1.6973 0.3952
-0.0053 1.7041 0.3953
-0.1574 1.6963 0.3951
-0.3079 1.6738 0.3947
-0.4553 1.6370 0.3941
-0.5983 1.5862 0.3932
-0.7354 1.5222 0.3921
-0.8654 1.4456 0.3908
-0.9871 1.3572 0.3893
-5.5930 6.4001 1.9715
-6.1114 5.8461 1.9617
-6.5734 5.2489 1.9511
-6.9754 4.6145 1.9399
-7.3148 3.9493 1.9282
-7.5899 3.2598 1.9160
-7.7994 2.5525 1.9035
-7.9428 1.8338 1.8908
-8.0201 1.1099 1.8780
-8.0321 0.3869 1.8652
-7.9807 -0.3294 1.8527
-3.2095 -0.4217 0.7508
-3.2107 -0.7180 0.7631
-3.2119 -1.0268 0.7822
-3.2133 -1.3540 0.8088
-3.2147 -1.7071 0.8443
-6.4888 -4.2287 1.7965
-6.0690 -4.7781 1.7916
-1.0913 -1.0296 0.3480
-0.9906 -1.1180 0.3465
-0.8834 -1.1972 0.3451
-0.7703 -1.2668 0.3439
-0.6522 -1.3266 0.3429
-0.5298 -1.3760 0.3420
-0.4041 -1.4151 0.3413
-0.2758 -1.4434 0.3409
-0.1457 -1.4610 0.3406
-0.0147 -1.4677 0.3404
0.1164 -1.4634 0.3405
0.2468 -1.4483 0.3408
0.3756 -1.4224 0.3412
0.5020 -1.3858 0.3419
0.6252 -1.3386 0.3427
0.7443 -1.2812 0.3437
0.8586 -1.2137 0.3448
0.9673 -1.1366 0.3462
1.0695 -1.0503 0.3477
5.9687 -4.8956 1.7906
6.3988 -4.3549 1.7953
6.7866 -3.7800 1.8019
7.1321 -3.1747 1.8108
7.4252 -2.5384 1.8201
7.6630 -1.8755 1.8299
7.8428 -1.1905 1.8400
7.9623 -0.4883 1.8503
8.0257 0.2258 1.8623
8.0282 0.9478 1.8751
7.9655 1.6720 1.8879
7.8370 2.3924 1.9006
7.6423 3.1028 1.9132
7.3818 3.7967 1.9254
7.0566 4.4679 1.9373
6.6685 5.1097 1.9486
6.2197 5.7159 1.9593
5.7136 6.2800 1.9693
1.0132 1.3361 0.3889
0.8935 1.4269 0.3905
0.7652 1.5062 0.3919
0.6295 1.5731 0.3930
0.4877 1.6269 0.3939
0.3412 1.6668 0.3946
0.1912 1.6925 0.3951
0.0394 1.7037 0.3953
-0.1128 1.7001 0.3952
-0.2639 1.6819 0.3949
-0.4124 1.6492 0.3943
-0.5568 1.6025 0.3935
-0.6958 1.5423 0.3925
-0.8280 1.4693 0.3912
-0.9523 1.3843 0.3897
-1.0675 1.2882 0.3881
-5.9649 6.0136 1.9646
-6.4438 5.4283 1.9543
-6.8637 4.8042 1.9433
-7.2218 4.1474 1.9317
-7.5159 3.4644 1.9196
-7.7447 2.7617 1.9072
-7.9075 2.0457 1.8945
-8.0042 1.3226 1.8818
-8.0353 0.5987 1.8690
-8.0019 -0.1201 1.8563
-3.4693 -0.3635 0.8091
-3.2103 -0.6300 0.7588
-3.2116 -0.9345 0.7758
-3.2129 -1.2556 0.8001
-3.2142 -1.6002 0.8328
-6.6030 -4.0603 1.7980
-6.1971 -4.6208 1.7930
-5.7451 -5.1423 1.7884
-1.0209 -1.0929 0.3469
-0.9155 -1.1749 0.3455
-0.8041 -1.2474 0.3442
-0.6873 -1.3101 0.3432
-0.5661 -1.3626 0.3422
-0.4413 -1.4047 0.3415
-0.3137 -1.4362 0.3410
-0.1840 -1.4569 0.3406
-0.0532 -1.4668 0.3405
0.0780 -1.4658 0.3405
0.2086 -1.4539 0.3407
0.3380 -1.4311 0.3411
0.4652 -1.3976 0.3417
0.5894 -1.3535 0.3424
0.7098 -1.2991 0.3434
0.8256 -1.2346 0.3445
0.9360 -1.1602 0.3458
1.0402 -1.0766 0.3472
5.8338 -5.0468 1.7892
6.2773 -4.5177 1.7939
6.6757 -3.9512 1.7993
7.0359 -3.3558 1.8081
7.3447 -2.7282 1.8173
7.5991 -2.0726 1.8270
7.7962 -1.3936 1.8370
7.9336 -0.6960 1.8473
8.0129 0.0151 1.8586
8.0342 0.7353 1.8713
7.9907 1.4595 1.8841
7.8816 2.1816 1.8969
7.7063 2.8956 1.9095
7.4651 3.5951 1.9219
7.1587 4.2736 1.9338
6.7888 4.9247 1.9454
6.3576 5.5419 1.9563
5.8679 6.1191 1.9665
1.0466 1.3074 0.3884
0.9296 1.4014 0.3901
0.8037 1.4842 0.3915
0.6701 1.5548 0.3927
0.5299 1.6125 0.3937
0.3846 1.6566 0.3945
0.2355 1.6865 0.3950
0.0841 1.7019 0.3952
-0.0682 1.7027 0.3952
-0.2198 1.6887 0.3950
-0.3692 1.6603 0.3945
-0.5149 1.6177 0.3938
-0.6556 1.5614 0.3928
-0.7900 1.4920 0.3916
-0.9167 1.4105 0.3902
-1.0347 1.3175 0.3886
-5.8136 6.1771 1.9675
-6.3091 5.6045 1.9574
-6.7467 4.9911 1.9466
-7.1232 4.3432 1.9351
-7.4363 3.6673 1.9232
-7.6844 2.9696 1.9109
-7.8666 2.2569 1.8983
-7.9827 1.5353 1.8855
-8.0329 0.8111 1.8727
-8.0184 0.0901 1.8600
-7.9446 -0.6221 1.8484
-3.2100 -0.5429 0.7551
-3.2112 -0.8437 0.7701
-3.2125 -1.1592 0.7922
-3.2138 -1.4961 0.8223
-6.7159 -3.8906 1.8003
-6.3212 -4.4601 1.7944
-5.8824 -4.9934 1.7897
-1.0506 -1.0672 0.3473
-0.9471 -1.1518 0.3459
-0.8374 -1.2271 0.3446
-0.7221 -1.2927 0.3435
-0.6021 -1.3482 0.3425
-0.4783 -1.3934 0.3417
-0.3514 -1.4281 0.3411
-0.2222 -1.4520 0.3407
-0.0917 -1.4651 0.3405
0.0395 -1.4672 0.3404
0.1704 -1.4585 0.3406
0.3002 -1.4389 0.3409
0.4281 -1.4086 0.3415
0.5533 -1.3676 0.3422
0.6749 -1.3161 0.3431
0.7921 -1.2545 0.3441
0.9042 -1.1831 0.3454
1.0103 -1.1021 0.3468
5.6952 -5.1944 1.7879
6.1518 -4.6772 1.7925
6.5627 -4.1206 1.7974
6.9354 -3.5341 1.8055
7.2596 -2.9156 1.8146
7.5302 -2.2678 1.8241
7.7444 -1.5951 1.8340
7.8995 -0.9024 1.8442
7.9945 -0.1948 1.8549
8.0346 0.5232 1.8676
8.0103 1.2468 1.8804
7.9205 1.9701 1.8931
7.7646 2.6872 1.9058
7.5427 3.3916 1.9183
7.2554 4.0769 1.9304
6.9039 4.7367 1.9420
6.4904 5.3646 1.9531
6.0176 5.9541 1.9635
1.0791 1.2778 0.3879
0.9649 1.3749 0.3896
0.8415 1.4611 0.3911
0.7100 1.5354 0.3924
0.5717 1.5970 0.3934
0.4278 1.6451 0.3943
0.2796 1.6792 0.3948
0.1287 1.6989 0.3952
-0.0235 1.7040 0.3953
-0.1754 1.6943 0.3951
-0.3256 1.6701 0.3947
-0.4726 1.6316 0.3940
-0.6149 1.5793 0.3931
-0.7513 1.5137 0.3920
-0.8803 1.4356 0.3906
-1.0010 1.3459 0.3891
-5.6576 6.3366 1.9703
-6.1695 5.7771 1.9605
-6.6244 5.1751 1.9498
-7.0191 4.5367 1.9385
-7.3510 3.8683 1.9267
-7.6183 3.1764 1.9145
-7.8199 2.4674 1.9020
-7.9554 1.7477 1.8893
-8.0249 1.0236 1.8765
-8.0293 0.3011 1.8637
-7.9714 -0.4141 1.8515
-3.2097 -0.4565 0.7520
-3.2109 -0.7541 0.7650
-3.2121 -1.0647 0.7849
-3.2134 -1.3945 0.8125
-3.2148 -1.7514 0.8492
-6.4413 -4.2961 1.7959
-6.0159 -4.8409 1.7911
-1.0796 -1.0406 0.3478
-0.9782 -1.1279 0.3463
-0.8702 -1.2060 0.3449
-0.7565 -1.2745 0.3438
-0.6378 -1.3330 0.3428
-0.5150 -1.3812 0.3419
-0.3889 -1.4190 0.3413
-0.2603 -1.4461 0.3408
-0.1301 -1.4623 0.3405
0.0010 -1.4677 0.3404
0.1320 -1.4622 0.3405
0.2622 -1.4458 0.3408
0.3908 -1.4186 0.3413
0.5168 -1.3807 0.3420
0.6396 -1.3323 0.3428
0.7582 -1.2737 0.3438
0.8719 -1.2050 0.3450
0.9798 -1.1268 0.3464
5.5530 -5.3383 1.7867
6.0223 -4.8333 1.7911
6.4470 -4.2879 1.7959
0.9480 -1.1028 0.3468
1.0470 -1.0181 0.3482
5.8340 -4.7371 1.7920
6.2498 -4.2083 1.7966
6.6269 -3.6481 1.8038
6.9595 -3.0567 1.8125
7.2409 -2.4355 1.8216
7.4682 -1.7887 1.8312
7.6389 -1.1209 1.8410
7.7506 -0.4369 1.8511
7.8082 0.2584 1.8629
7.8056 0.9607 1.8753
7.7397 1.6646 1.8877
7.6097 2.3642 1.9001
7.4155 3.0535 1.9123
7.1576 3.7263 1.9242
6.8370 4.3763 1.9357
6.4554 4.9974 1.9466
6.0154 5.5832 1.9570
1.0853 1.2048 0.3867
0.9777 1.3026 0.3884
0.8608 1.3900 0.3899
0.7358 1.4662 0.3912
0.6037 1.5304 0.3923
0.4657 1.5817 0.3932
0.3232 1.6197 0.3938
0.1775 1.6438 0.3942
0.0301 1.6538 0.3944
-0.1177 1.6495 0.3943
-0.2642 1.6311 0.3940
-0.4082 1.5987 0.3934
-0.5482 1.5527 0.3926
-0.6828 1.4937 0.3916
-0.8108 1.4223 0.3904
-0.9311 1.3393 0.3889
-1.0426 1.2456 0.3873
-5.8205 5.8102 1.9610
-6.2835 5.2404 1.9510
-6.6892 4.6329 1.9402
-7.0348 3.9939 1.9290
-7.3185 3.3296 1.9172
-7.5387 2.6463 1.9051
-7.6948 1.9501 1.8928
-7.7867 1.2472 1.8804
-7.8150 0.5435 1.8680
-7.7805 -0.1553 1.8556
-3.3149 -0.3639 0.7952
-3.2104 -0.6465 0.7809
-3.2116 -0.9518 0.7987
-3.2129 -1.2740 0.8242
-3.2143 -1.6202 0.8583
-6.4067 -3.9834 1.7989
-6.0086 -4.5266 1.7938
-1.0852 -0.9810 0.3488
-0.9890 -1.0693 0.3473
-0.8860 -1.1488 0.3459
-0.7772 -1.2190 0.3447
-0.6633 -1.2796 0.3437
-0.5450 -1.3303 0.3428
-0.4232 -1.3709 0.3421
-0.2987 -1.4010 0.3416
-0.1723 -1.4207 0.3412
-0.0448 -1.4298 0.3411
0.0830 -1.4282 0.3411
0.2103 -1.4160 0.3413
0.3363 -1.3931 0.3417
0.4601 -1.3599 0.3423
0.5809 -1.3163 0.3431
0.6980 -1.2626 0.3440
0.8105 -1.1990 0.3451
0.9176 -1.1260 0.3464
1.0186 -1.0439 0.3478
5.7035 -4.8850 1.7907
6.1324 -4.3675 1.7952
6.5199 -3.8156 1.8013
6.8670 -3.2336 1.8099
7.1638 -2.6207 1.8189
7.4073 -1.9810 1.8283
7.5948 -1.3189 1.8381
7.7240 -0.6391 1.8481
7.7971 0.0533 1.8593
7.8129 0.7540 1.8716
7.7657 1.4581 1.8841
7.6545 2.1596 1.8965
7.4792 2.8526 1.9087
7.2399 3.5309 1.9207
6.9375 4.1882 1.9323
6.5736 4.8184 1.9435
6.1505 5.4152 1.9540
5.6710 5.9725 1.9639
1.0103 1.2749 0.3879
0.8960 1.3655 0.3894
0.7733 1.4451 0.3908
0.6431 1.5128 0.3920
0.5067 1.5680 0.3929
0.3654 1.6099 0.3937
0.2205 1.6381 0.3941
0.0734 1.6523 0.3944
-0.0743 1.6522 0.3944
-0.2214 1.6380 0.3941
-0.3663 1.6097 0.3936
-0.5075 1.5676 0.3929
-0.6439 1.5124 0.3919
-0.7740 1.4445 0.3908
-0.8967 1.3648 0.3894
-1.0108 1.2742 0.3878
-5.6741 5.9695 1.9639
-6.1533 5.4118 1.9540
-6.5762 4.8148 1.9435
-6.9397 4.1845 1.9323
-7.2417 3.5270 1.9207
-7.4807 2.8485 1.9087
-7.6556 2.1555 1.8965
-7.7664 1.4539 1.8841
-7.8132 0.7498 1.8716
-7.7970 0.0491 1.8592
-7.7236 -0.6433 1.8481
-3.2101 -0.5592 0.7770
-3.2113 -0.8607 0.7928
-3.2125 -1.1772 0.8158
-3.2139 -1.5155 0.8473
-6.5178 -3.8190 1.8013
-6.1300 -4.3708 1.7952
-5.7009 -4.8880 1.7906
-1.0179 -1.0443 0.3477
-0.9169 -1.1264 0.3463
-0.8097 -1.1993 0.3451
-0.6972 -1.2628 0.3440
-0.5802 -1.3165 0.3430
-0.4593 -1.3600 0.3423
-0.3355 -1.3933 0.3417
-0.2096 -1.4160 0.3413
-0.0823 -1.4282 0.3411
0.0455 -1.4298 0.3411
0.1731 -1.4206 0.3413
0.2995 -1.4009 0.3416
0.4240 -1.3707 0.3421
0.5458 -1.3301 0.3428
0.6640 -1.2794 0.3437
0.7780 -1.2187 0.3448
0.8868 -1.1484 0.3460
0.9897 -1.0689 0.3474
5.5694 -5.0294 1.7894
6.0111 -4.5234 1.7938
6.4089 -3.9800 1.7989
6.7702 -3.4079 1.8073
7.0820 -2.8037 1.8162
7.3415 -2.1714 1.8255
7.5457 -1.5153 1.8352
7.6923 -0.8402 1.8451
7.7806 -0.1511 1.8556
7.8147 0.5477 1.8680
7.7861 1.2514 1.8804
7.6938 1.9542 1.8929
7.5373 2.6504 1.9052
7.3168 3.3336 1.9172
7.0328 3.9977 1.9290
6.6867 4.6365 1.9403
6.2807 5.2438 1.9510
5.8174 5.8133 1.9611
1.0421 1.2463 0.3874
0.9305 1.3400 0.3890
0.8101 1.4229 0.3904
0.6820 1.4942 0.3917
0.5474 1.5532 0.3927
0.4073 1.5990 0.3935
0.2634 1.6313 0.3940
0.1168 1.6496 0.3943
-0.0310 1.6537 0.3944
-0.1784 1.6436 0.3942
-0.3240 1.6194 0.3938
-0.4665 1.5814 0.3931
-0.6044 1.5299 0.3923
-0.7365 1.4657 0.3911
-0.8615 1.3894 0.3898
-0.9782 1.3019 0.3883
-1.0858 1.2041 0.3866
-6.0183 5.5799 1.9570
-6.4580 4.9938 1.9466
-6.8392 4.3726 1.9356
-7.1595 3.7225 1.9242
-7.4171 3.0495 1.9123
-7.6109 2.3601 1.9001
-7.7405 1.6604 1.8877
-7.8061 0.9565 1.8753
-7.8083 0.2542 1.8629
-7.7503 -0.4411 1.8511
-3.2097 -0.4727 0.7736
-3.2109 -0.7709 0.7874
-3.2122 -1.0823 0.8083
-3.2135 -1.4135 0.8371
-3.2149 -1.7721 0.8753
-6.2475 -4.2117 1.7966
-5.8314 -4.7402 1.7920
-1.0463 -1.0185 0.3482
-0.9472 -1.1032 0.3467
-0.8418 -1.1789 0.3454
-0.7308 -1.2452 0.3443
-0.6150 -1.3018 0.3433
-0.4951 -1.3483 0.3425
-0.3721 -1.3846 0.3419
-0.2467 -1.4104 0.3414
-0.1197 -1.4257 0.3412
0.0080 -1.4304 0.3411
0.1357 -1.4244 0.3412
0.2625 -1.4078 0.3415
0.3877 -1.3807 0.3420
0.5104 -1.3431 0.3426
0.6297 -1.2953 0.3434
0.7450 -1.2375 0.3444
0.8554 -1.1700 0.3456
0.9601 -1.0932 0.3469
1.0584 -1.0074 0.3484
5.8859 -4.6761 1.7925
6.2963 -4.1428 1.7972
6.6691 -3.5794 1.8048
6.9958 -2.9842 1.8136
7.2709 -2.3597 1.8228
7.4916 -1.7101 1.8323
7.6553 -1.0401 1.8422
7.7599 -0.3546 1.8523
7.8112 0.3418 1.8644
7.8011 1.0446 1.8768
7.7276 1.7483 1.8892
7.5899 2.4470 1.9016
7.3881 3.1347 1.9137
7.1226 3.8051 1.9256
6.7947 4.4520 1.9370
6.4060 5.0691 1.9479
5.9592 5.6504 1.9582
1.0730 1.2170 0.3869
0.9642 1.3135 0.3885
0.8463 1.3997 0.3900
0.7204 1.4745 0.3913
0.5875 1.5372 0.3924
0.4489 1.5869 0.3933
0.3060 1.6233 0.3939
0.1600 1.6457 0.3943
0.0125 1.6540 0.3944
-0.1352 1.6481 0.3943
-0.2815 1.6280 0.3940
-0.4251 1.5939 0.3934
-0.5645 1.5464 0.3925
-0.6984 1.4858 0.3915
-0.8256 1.4130 0.3902
-0.9449 1.3287 0.3888
-1.0552 1.2338 0.3871
-5.8786 5.7444 1.9599
-6.3349 5.1698 1.9497
-6.7336 4.5583 1.9389
-7.0719 3.9160 1.9276
-7.3480 3.2491 1.9158
-7.5607 2.5639 1.9037
-7.7091 1.8666 1.8914
-7.7934 1.1633 1.8789
-7.8141 0.4599 1.8665
-7.7723 -0.2379 1.8542
-3.2094 -0.3869 0.7708
-3.2106 -0.6822 0.7827
-3.2118 -0.9892 0.8014
-3.2131 -1.3138 0.8277
-3.2145 -1.6634 0.8630
-6.3609 -4.0495 1.7980
-5.9582 -4.5890 1.7933
-1.0741 -0.9920 0.3486
-0.9770 -1.0792 0.3471
-0.8734 -1.1576 0.3458
-0.7639 -1.2267 0.3446
-0.6494 -1.2862 0.3436
-0.5307 -1.3357 0.3427
-0.4085 -1.3750 0.3420
-0.2837 -1.4039 0.3415
-0.1571 -1.4223 0.3412
-0.0295 -1.4301 0.3411
0.0983 -1.4273 0.3411
0.2254 -1.4138 0.3414
0.3512 -1.3897 0.3418
0.4746 -1.3552 0.3424
0.5951 -1.3104 0.3432
0.7116 -1.2555 0.3441
0.8235 -1.1908 0.3452
0.9300 -1.1167 0.3465
1.0302 -1.0335 0.3480
5.7569 -4.8254 1.7912
6.1805 -4.3033 1.7958
6.5638 -3.7480 1.8023
6.9051 -3.1621 1.8110
7.1956 -2.5458 1.8200
7.4326 -1.9032 1.8295
7.6133 -1.2387 1.8393
7.7355 -0.5572 1.8493
7.8022 0.1364 1.8607
7.8106 0.8379 1.8731
7.7558 1.5419 1.8856
7.6370 2.2427 1.8980
7.4540 2.9343 1.9102
7.2072 3.6104 1.9221
6.8973 4.2648 1.9337
6.5263 4.8914 1.9448
6.0962 5.4838 1.9552
5.6103 6.0360 1.9650
0.9971 1.2862 0.3881
0.8818 1.3755 0.3896
0.7581 1.4538 0.3910
0.6272 1.5201 0.3921
0.4901 1.5737 0.3930
0.3483 1.6140 0.3937
0.2031 1.6406 0.3942
0.0559 1.6530 0.3944
-0.0919 1.6513 0.3944
-0.2388 1.6353 0.3941
-0.3833 1.6054 0.3936
-0.5241 1.5617 0.3928
-0.6597 1.5049 0.3918
-0.7890 1.4356 0.3906
-0.9107 1.3546 0.3892
-1.0238 1.2627 0.3876
-5.7341 5.9053 1.9627
-6.2067 5.3427 1.9528
-6.6226 4.7413 1.9422
-6.9790 4.1074 1.9310
-7.2735 3.4471 1.9193
-7.5049 2.7666 1.9073
-7.6722 2.0722 1.8950
-7.7753 1.3700 1.8826
-7.8146 0.6661 1.8701
-7.7910 -0.0339 1.8578
-3.8675 -0.3636 0.9263
-3.2102 -0.5945 0.7785
-3.2114 -0.8975 0.7951
-3.2127 -1.2162 0.8191
-3.2141 -1.5577 0.8517
-6.4732 -3.8861 1.8003
-6.0812 -4.4344 1.7947
-1.1013 -0.9648 0.3491
-1.0063 -1.0545 0.3476
-0.9044 -1.1356 0.3462
-0.7966 -1.2074 0.3449
-0.6835 -1.2697 0.3438
-0.5659 -1.3222 0.3429
-0.4447 -1.3645 0.3422
-0.3206 -1.3965 0.3417
-0.1945 -1.4180 0.3413
-0.0671 -1.4290 0.3411
0.0608 -1.4292 0.3411
0.1882 -1.4189 0.3413
0.3144 -1.3979 0.3417
0.4387 -1.3664 0.3422
0.5601 -1.3246 0.3429
0.6779 -1.2727 0.3438
0.7912 -1.2108 0.3449
0.8993 -1.1394 0.3461
1.0015 -1.0589 0.3475
5.6242 -4.9712 1.7899
6.0608 -4.4605 1.7944
6.4544 -3.9136 1.7999
6.8100 -3.3375 1.8084
7.1157 -2.7297 1.8173
7.3687 -2.0944 1.8267
7.5662 -1.4358 1.8364
7.7058 -0.7588 1.8463
7.7879 -0.0683 1.8571
7.8146 0.6314 1.8695
7.7785 1.3353 1.8819
7.6786 2.0377 1.8943
7.5144 2.7325 1.9066
7.2862 3.4138 1.9186
6.9948 4.0753 1.9303
6.6415 4.7107 1.9416
6.2285 5.3137 1.9522
5.7585 5.8784 1.9622
1.0293 1.2580 0.3876
0.9166 1.3504 0.3892
0.7953 1.4320 0.3906
0.6663 1.5019 0.3918
0.5309 1.5593 0.3928
0.3904 1.6036 0.3935
0.2460 1.6342 0.3941
0.0992 1.6508 0.3944
-0.0486 1.6533 0.3944
-0.1959 1.6415 0.3942
-0.3412 1.6156 0.3937
-0.4832 1.5759 0.3930
-0.6205 1.5229 0.3921
-0.7518 1.4572 0.3910
-0.8758 1.3795 0.3896
-0.9916 1.2907 0.3881
-5.5850 6.0623 1.9655
-6.0737 5.5121 1.9558
-6.5066 4.9215 1.9453
-6.8807 4.2966 1.9343
-7.1935 3.6433 1.9228
-7.4436 2.9681 1.9108
-7.6297 2.2771 1.8986
-7.7517 1.5767 1.8862
-7.8096 0.8726 1.8738
-7.8044 0.1709 1.8614
-7.7401 -0.5232 1.8498
-3.2099 -0.5077 0.7749
-3.2111 -0.8072 0.7895
-3.2123 -1.1206 0.8113
-3.2137 -1.4546 0.8411
-6.5819 -3.7199 1.8028
-6.2003 -4.2766 1.7960
-5.7789 -4.8006 1.7914
-1.0349 -1.0291 0.3480
-0.9350 -1.1127 0.3466
-0.8288 -1.1873 0.3453
-0.7172 -1.2524 0.3441
-0.6009 -1.3078 0.3432
-0.4806 -1.3532 0.3424
-0.3573 -1.3882 0.3418
-0.2317 -1.4128 0.3414
-0.1045 -1.4269 0.3411
0.0232 -1.4303 0.3411
0.1509 -1.4230 0.3412
0.2775 -1.4051 0.3415
0.4025 -1.3767 0.3420
0.5248 -1.3379 0.3427
0.6437 -1.2889 0.3435
0.7584 -1.2300 0.3446
0.8682 -1.1614 0.3458
0.9722 -1.0834 0.3471
1.0696 -0.9966 0.3486
5.9371 -4.6145 1.7930
6.3421 -4.0769 1.7978
6.7106 -3.5101 1.8058
7.0313 -2.9112 1.8146
7.3001 -2.2835 1.8239
7.5141 -1.6313 1.8335
7.6709 -0.9592 1.8434
7.7684 -0.2721 1.8535
7.8133 0.4253 1.8658
7.7957 1.1285 1.8783
7.7146 1.8319 1.8907
7.5693 2.5296 1.9030
7.3598 3.2156 1.9151
7.0868 3.8835 1.9269
6.7515 4.5272 1.9383
6.3557 5.1404 1.9492
5.9022 5.7169 1.9594
1.0605 1.2290 0.3871
0.9506 1.3244 0.3887
0.8317 1.4092 0.3902
0.7049 1.4826 0.3915
0.5713 1.5438 0.3925
0.4321 1.5920 0.3933
0.2887 1.6267 0.3939
0.1425 1.6474 0.3943
-0.0052 1.6540 0.3944
-0.1527 1.6464 0.3943
-0.2988 1.6246 0.3939
-0.4419 1.5890 0.3933
-0.5808 1.5398 0.3924
-0.7139 1.4778 0.3913
-0.8402 1.4035 0.3901
-0.9585 1.3179 0.3886
-1.0677 1.2218 0.3869
-5.9358 5.6781 1.9587
-6.3855 5.0988 1.9485
-6.7771 4.4833 1.9376
-7.1081 3.8377 1.9262
-7.3767 3.1683 1.9144
-7.5817 2.4813 1.9022
-7.7225 1.7829 1.8899
-7.7992 1.0793 1.8775
-7.8124 0.3763 1.8650
-7.7637 -0.3204 1.8528
-3.2095 -0.4217 0.7719
-3.2107 -0.7180 0.7845
-3.2119 -1.0268 0.8041
-3.2133 -1.3540 0.8314
-3.2147 -1.7071 0.8679
-6.3154 -4.1157 1.7975
-5.9073 -4.6507 1.7927
-1.0629 -1.0029 0.3485
-0.9650 -1.0891 0.3470
-0.8606 -1.1664 0.3456
-0.7505 -1.2343 0.3445
-0.6355 -1.2926 0.3435
-0.5163 -1.3409 0.3426
-0.3938 -1.3790 0.3420
-0.2687 -1.4067 0.3415
-0.1420 -1.4238 0.3412
-0.0143 -1.4304 0.3411
0.1135 -1.4262 0.3412
0.2405 -1.4115 0.3414
0.3660 -1.3862 0.3419
0.4892 -1.3504 0.3425
0.6092 -1.3044 0.3433
0.7252 -1.2483 0.3442
0.8365 -1.1825 0.3454
0.9423 -1.1073 0.3467
1.0417 -1.0230 0.3481
5.8097 -4.7652 1.7917
6.2280 -4.2386 1.7964
6.6070 -3.6799 1.8033
6.9424 -3.0902 1.8120
7.2267 -2.4706 1.8211
7.4571 -1.8251 1.8306
7.6310 -1.1583 1.8404
7.7460 -0.4751 1.8505
7.8065 0.2196 1.8622
7.8074 0.9217 1.8746
7.7450 1.6257 1.8870
7.6186 2.3257 1.8994
7.4280 3.0158 1.9116
7.1735 3.6896 1.9235
6.8563 4.3411 1.9350
6.4781 4.9639 1.9460
6.0412 5.5518 1.9564
1.0910 1.1991 0.3866
0.9839 1.2974 0.3883
0.8675 1.3855 0.3898
0.7429 1.4623 0.3911
0.6111 1.5272 0.3922
0.4735 1.5792 0.3931
0.3312 1.6179 0.3938
0.1856 1.6428 0.3942
0.0382 1.6536 0.3944
-0.1095 1.6501 0.3943
-0.2562 1.6325 0.3940
-0.4003 1.6009 0.3935
-0.5405 1.5556 0.3927
-0.6755 1.4973 0.3917
-0.8039 1.4266 0.3905
-0.9247 1.3442 0.3890
-1.0367 1.2511 0.3874
-5.7932 5.8405 1.9616
-6.2593 5.2729 1.9516
-6.6683 4.6674 1.9409
-7.0173 4.0300 1.9296
-7.3044 3.3670 1.9179
-7.5282 2.6845 1.9058
-7.6879 1.9889 1.8935
-7.7833 1.2861 1.8811
-7.8150 0.5823 1.8687
-7.7840 -0.1168 1.8563
-3.4725 -0.3638 0.8325
-3.2103 -0.6300 0.7801
-3.2116 -0.9345 0.7976
-3.2129 -1.2556 0.8225
-3.2142 -1.6002 0.8562
-6.4280 -3.9527 1.7994
-6.0318 -4.4975 1.7941
-1.0903 -0.9759 0.3489
-0.9945 -1.0647 0.3474
-0.8919 -1.1446 0.3460
-0.7834 -1.2154 0.3448
-0.6697 -1.2765 0.3437
-0.5517 -1.3278 0.3428
-0.4301 -1.3689 0.3421
-0.3057 -1.3996 0.3416
-0.1793 -1.4199 0.3413
-0.0518 -1.4295 0.3411
0.0760 -1.4285 0.3411
0.2033 -1.4169 0.3413
0.3294 -1.3947 0.3417
0.4533 -1.3620 0.3423
0.5743 -1.3189 0.3430
0.6916 -1.2658 0.3439
0.8044 -1.2028 0.3450
0.9119 -1.1303 0.3463
1.0132 -1.0487 0.3477
5.6785 -4.9125 1.7904
6.1098 -4.3971 1.7950
6.4993 -3.8468 1.8009
6.8491 -3.2667 1.8094
7.1487 -2.6554 1.8184
7.3952 -2.0170 1.8278
7.5859 -1.3560 1.8375
7.7184 -0.6771 1.8475
7.7944 0.0147 1.8586
7.8136 0.7151 1.8710
7.7699 1.4191 1.8834
7.6624 2.1210 1.8958
7.4906 2.8146 1.9081
7.2548 3.4938 1.9201
6.9559 4.1525 1.9317
6.5953 4.7843 1.9429
6.1754 5.3831 1.9535
5.6989 5.9429 1.9633
1.0163 1.2696 0.3878
0.9026 1.3607 0.3894
0.7803 1.4410 0.3907
0.6505 1.5094 0.3919
0.5144 1.5653 0.3929
0.3733 1.6080 0.3936
0.2286 1.6369 0.3941
0.0816 1.6519 0.3944
-0.0662 1.6526 0.3944
-0.2133 1.6391 0.3941
-0.3583 1.6116 0.3937
-0.4998 1.5703 0.3930
-0.6365 1.5158 0.3920
-0.7670 1.4486 0.3908
-0.8901 1.3695 0.3895
-1.0047 1.2794 0.3879
-5.6460 5.9991 1.9644
-6.1282 5.4438 1.9546
-6.5543 4.8488 1.9441
-6.9212 4.2201 1.9330
-7.2266 3.5639 1.9214
-7.4691 2.8865 1.9094
-7.6476 2.1941 1.8972
-7.7619 1.4929 1.8848
-7.8123 0.7888 1.8723
-7.7996 0.0877 1.8599
-7.7291 -0.6052 1.8486
-3.2100 -0.5429 0.7763
-3.2112 -0.8437 0.7917
-3.2125 -1.1592 0.8144
-3.2138 -1.4961 0.8453
-6.5383 -3.7877 1.8018
-6.1525 -4.3410 1.7955
-5.7258 -4.8604 1.7909
-1.0233 -1.0395 0.3478
-0.9227 -1.1221 0.3464
-0.8158 -1.1956 0.3451
-0.7036 -1.2596 0.3440
-0.5867 -1.3138 0.3431
-0.4661 -1.3579 0.3423
-0.3424 -1.3917 0.3417
-0.2166 -1.4150 0.3413
-0.0893 -1.4278 0.3411
0.0385 -1.4299 0.3411
0.1660 -1.4214 0.3412
0.2925 -1.4023 0.3416
0.4172 -1.3727 0.3421
0.5391 -1.3326 0.3428
0.6576 -1.2824 0.3437
0.7718 -1.2223 0.3447
0.8809 -1.1526 0.3459
0.9841 -1.0736 0.3473
5.5437 -5.0562 1.7891
5.9878 -4.5524 1.7936
6.3876 -4.0106 1.7985
6.7514 -3.4404 1.8069
7.0661 -2.8379 1.8157
7.3285 -2.2070 1.8250
7.5359 -1.5522 1.8347
7.6857 -0.8780 1.8446
7.7770 -0.1895 1.8550
7.8145 0.5089 1.8673
7.7894 1.2124 1.8797
7.7006 1.9155 1.8922
7.5477 2.6121 1.9045
7.3306 3.2962 1.9166
7.0501 3.9616 1.9283
6.7075 4.6020 1.9396
6.3047 5.2111 1.9504
5.8445 5.7829 1.9605
1.0479 1.2409 0.3873
0.9369 1.3350 0.3889
0.8170 1.4186 0.3904
0.6893 1.4906 0.3916
0.5550 1.5502 0.3926
0.4152 1.5968 0.3934
0.2714 1.6299 0.3940
0.1249 1.6490 0.3943
-0.0228 1.6539 0.3944
-0.1702 1.6446 0.3942
-0.3160 1.6211 0.3938
-0.4587 1.5838 0.3932
-0.5970 1.5331 0.3923
-0.7294 1.4696 0.3912
-0.8548 1.3939 0.3899
-0.9720 1.3070 0.3884
-1.0801 1.2097 0.3867
-5.9923 5.6112 1.9575
-6.4352 5.0273 1.9472
-6.8197 4.4078 1.9363
-7.1434 3.7591 1.9248
-7.4045 3.0872 1.9129
-7.6019 2.3986 1.9008
-7.7350 1.6993 1.8884
-7.8041 0.9954 1.8760
-7.8098 0.2929 1.8636
-7.7548 -0.4028 1.8516
-3.2097 -0.4565 0.7730
-3.2109 -0.7541 0.7865
-3.2121 -1.0647 0.8069
-3.2134 -1.3945 0.8353
-3.2148 -1.7514 0.8730
-6.2692 -4.1813 1.7969
-5.8556 -4.7119 1.7922
-1.0516 -1.0136 0.3483
-0.9529 -1.0987 0.3468
-0.8478 -1.1749 0.3455
-0.7371 -1.2418 0.3443
-0.6215 -1.2989 0.3433
-0.5019 -1.3460 0.3425
-0.3790 -1.3828 0.3419
-0.2537 -1.4093 0.3414
-0.1268 -1.4252 0.3412
0.0009 -1.4304 0.3411
0.1286 -1.4250 0.3412
0.2555 -1.4090 0.3415
0.3808 -1.3824 0.3419
0.5036 -1.3455 0.3426
0.6232 -1.2982 0.3434
0.7388 -1.2410 0.3444
0.8494 -1.1740 0.3455
0.9545 -1.0977 0.3469
1.0531 -1.0124 0.3483
5.8618 -4.7045 1.7922
6.2748 -4.1733 1.7969
0.9240 -1.0750 0.3472
1.0205 -0.9923 0.3487
5.6822 -4.6138 1.7930
6.0867 -4.0985 1.7976
6.4555 -3.5538 1.8052
6.7786 -2.9773 1.8137
7.0518 -2.3719 1.8226
7.2722 -1.7417 1.8319
7.4373 -1.0913 1.8414
7.5450 -0.4253 1.8512
7.5999 0.2515 1.8628
7.5960 0.9349 1.8748
7.5305 1.6196 1.8869
7.4028 2.2999 1.8990
7.2126 2.9700 1.9108
6.9605 3.6237 1.9224
6.6476 4.2552 1.9335
6.2757 4.8582 1.9442
5.8470 5.4269 1.9542
1.0548 1.1710 0.3861
0.9501 1.2658 0.3877
0.8365 1.3507 0.3892
0.7149 1.4246 0.3905
0.5865 1.4868 0.3915
0.4524 1.5366 0.3924
0.3139 1.5733 0.3930
0.1724 1.5967 0.3934
0.0292 1.6064 0.3936
-0.1143 1.6023 0.3935
-0.2567 1.5844 0.3932
-0.3965 1.5530 0.3927
-0.5325 1.5085 0.3919
-0.6634 1.4512 0.3909
-0.7878 1.3820 0.3897
-0.9048 1.3014 0.3883
-1.0132 1.2106 0.3867
-5.6573 5.6472 1.9582
-6.1081 5.0941 1.9484
-6.5035 4.5043 1.9380
-6.8407 3.8837 1.9270
-7.1177 3.2383 1.9156
-7.3331 2.5741 1.9039
-7.4863 1.8972 1.8919
-7.5771 1.2136 1.8798
-7.6059 0.5289 1.8677
-7.5737 -0.1511 1.8557
-3.3178 -0.3642 0.8176
-3.2104 -0.6465 0.8022
-3.2116 -0.9518 0.8206
-3.2129 -1.2740 0.8467
-3.2143 -1.6202 0.8818
-6.2415 -3.8807 1.8004
-5.8521 -4.4087 1.7949
-1.0576 -0.9561 0.3493
-0.9639 -1.0423 0.3478
-0.8637 -1.1198 0.3464
-0.7577 -1.1884 0.3453
-0.6467 -1.2476 0.3442
-0.5314 -1.2971 0.3434
-0.4127 -1.3367 0.3427
-0.2913 -1.3662 0.3422
-0.1680 -1.3854 0.3419
-0.0437 -1.3942 0.3417
0.0810 -1.3927 0.3417
0.2051 -1.3807 0.3419
0.3279 -1.3584 0.3423
0.4486 -1.3259 0.3429
0.5664 -1.2834 0.3436
0.6805 -1.2309 0.3445
0.7901 -1.1689 0.3456
0.8945 -1.0976 0.3469
0.9928 -1.0174 0.3482
5.5552 -4.7579 1.7918
5.9725 -4.2536 1.7962
6.3515 -3.7170 1.8028
6.6888 -3.1497 1.8111
6.9770 -2.5524 1.8199
7.2131 -1.9291 1.8291
7.3947 -1.2841 1.8386
7.5195 -0.6222 1.8483
7.5895 0.0519 1.8592
7.6035 0.7338 1.8713
7.5562 1.4188 1.8834
7.4467 2.1010 1.8954
7.2749 2.7746 1.9074
7.0409 3.4338 1.9190
6.7457 4.0724 1.9303
6.3909 4.6844 1.9411
5.9786 5.2638 1.9513
1.0837 1.1414 0.3856
0.9818 1.2390 0.3873
0.8707 1.3268 0.3888
0.7513 1.4041 0.3901
0.6248 1.4698 0.3912
0.4923 1.5233 0.3922
0.3550 1.5639 0.3929
0.2142 1.5913 0.3933
0.0713 1.6050 0.3936
-0.0722 1.6049 0.3936
-0.2150 1.5911 0.3933
-0.3558 1.5636 0.3928
-0.4931 1.5229 0.3921
-0.6256 1.4693 0.3912
-0.7520 1.4035 0.3901
-0.8713 1.3262 0.3887
-0.9823 1.2383 0.3872
-1.0842 1.1406 0.3855
-5.9814 5.2606 1.9513
-6.3933 4.6810 1.9411
-6.7479 4.0688 1.9303
-7.0427 3.4300 1.9190
-7.2763 2.7707 1.9073
-7.4478 2.0970 1.8954
-7.5569 1.4147 1.8834
-7.6038 0.7298 1.8713
-7.5894 0.0478 1.8592
-7.5191 -0.6262 1.8483
-3.2101 -0.5592 0.7982
-3.2113 -0.8607 0.8144
-3.2125 -1.1772 0.8382
-3.2139 -1.5155 0.8705
-6.3495 -3.7204 1.8028
-5.9702 -4.2568 1.7962
-1.0838 -0.9293 0.3497
-0.9921 -1.0178 0.3482
-0.8938 -1.0980 0.3468
-0.7894 -1.1692 0.3456
-0.6798 -1.2312 0.3445
-0.5657 -1.2836 0.3436
-0.4479 -1.3261 0.3429
-0.3272 -1.3586 0.3423
-0.2044 -1.3808 0.3419
-0.0802 -1.3927 0.3417
0.0444 -1.3942 0.3417
0.1688 -1.3853 0.3419
0.2920 -1.3661 0.3422
0.4134 -1.3365 0.3427
0.5322 -1.2969 0.3434
0.6474 -1.2473 0.3443
0.7584 -1.1881 0.3453
0.8644 -1.1195 0.3465
0.9646 -1.0419 0.3478
1.0583 -0.9557 0.3493
5.8545 -4.4056 1.7949
6.2436 -3.8773 1.8004
6.5947 -3.3196 1.8086
6.8976 -2.7307 1.8173
7.1493 -2.1145 1.8264
7.3472 -1.4755 1.8358
7.4889 -0.8180 1.8455
7.5739 -0.1471 1.8557
7.6057 0.5330 1.8677
7.5765 1.2177 1.8798
7.4854 1.9013 1.8919
7.3318 2.5781 1.9039
7.1160 3.2421 1.9156
6.8387 3.8874 1.9270
6.5011 4.5079 1.9380
6.1054 5.0975 1.9484
5.6543 5.6503 1.9582
1.0127 1.2113 0.3868
0.9042 1.3021 0.3883
0.7872 1.3825 0.3897
0.6626 1.4517 0.3909
0.5317 1.5089 0.3919
0.3957 1.5533 0.3927
0.2558 1.5846 0.3932
0.1134 1.6024 0.3935
-0.0301 1.6064 0.3936
-0.1733 1.5966 0.3934
-0.3148 1.5731 0.3930
-0.4532 1.5362 0.3924
-0.5872 1.4863 0.3915
-0.7156 1.4241 0.3904
-0.8371 1.3500 0.3891
-0.9507 1.2651 0.3877
-1.0553 1.1702 0.3860
-5.8499 5.4238 1.9542
-6.2782 4.8548 1.9442
-6.6499 4.2515 1.9335
-6.9624 3.6199 1.9223
-7.2141 2.9661 1.9108
-7.4039 2.2959 1.8989
-7.5313 1.6155 1.8869
-7.5965 0.9308 1.8748
-7.5999 0.2474 1.8627
-7.5447 -0.4294 1.8512
-3.2097 -0.4727 0.7948
-3.2109 -0.7709 0.8089
-3.2122 -1.0823 0.8304
-3.2135 -1.4135 0.8600
-3.2149 -1.7721 0.8993
-6.0845 -4.1018 1.7976
-5.6797 -4.6168 1.7930
-1.0198 -0.9927 0.3486
-0.9233 -1.0753 0.3472
-0.8206 -1.1492 0.3459
-0.7124 -1.2140 0.3448
-0.5996 -1.2692 0.3439
-0.4828 -1.3146 0.3431
-0.3629 -1.3501 0.3425
-0.2406 -1.3753 0.3420
-0.1168 -1.3903 0.3418
0.0078 -1.3948 0.3417
0.1323 -1.3890 0.3418
0.2560 -1.3728 0.3421
0.3780 -1.3463 0.3425
0.4976 -1.3096 0.3432
0.6140 -1.2629 0.3440
0.7263 -1.2065 0.3450
0.8339 -1.1406 0.3461
0.9358 -1.0656 0.3474
1.0315 -0.9819 0.3489
5.7327 -4.5544 1.7936
6.1319 -4.0347 1.7982
6.4965 -3.4867 1.8062
6.8139 -2.9066 1.8147
7.0809 -2.2980 1.8237
7.2948 -1.6652 1.8330
7.4532 -1.0127 1.8426
7.5539 -0.3452 1.8524
7.6026 0.3326 1.8642
7.5915 1.0165 1.8763
7.5186 1.7010 1.8884
7.3834 2.3804 1.9004
7.1858 3.0488 1.9122
6.9264 3.7002 1.9237
6.6064 4.3286 1.9348
6.2275 4.9279 1.9454
5.7923 5.4921 1.9554
1.0428 1.1828 0.3863
0.9370 1.2765 0.3879
0.8224 1.3601 0.3893
0.6999 1.4326 0.3906
0.5708 1.4934 0.3916
0.4361 1.5416 0.3925
0.2972 1.5768 0.3931
0.1554 1.5986 0.3935
0.0121 1.6066 0.3936
-0.1313 1.6009 0.3935
-0.2735 1.5814 0.3931
-0.4130 1.5484 0.3926
-0.5484 1.5023 0.3918
-0.6786 1.4436 0.3908
-0.8022 1.3730 0.3895
-0.9182 1.2911 0.3881
-1.0256 1.1991 0.3865
-5.7138 5.5834 1.9570
-6.1582 5.0257 1.9472
-6.5468 4.4319 1.9367
-6.8769 3.8080 1.9257
-7.1466 3.1600 1.9142
-7.3547 2.4940 1.9024
-7.5004 1.8160 1.8905
-7.5838 1.1320 1.8784
-7.6053 0.4476 1.8663
-7.5659 -0.2316 1.8543
-3.2094 -0.3869 0.7919
-3.2106 -0.6822 0.8041
-3.2118 -0.9892 0.8233
-3.2131 -1.3138 0.8504
-3.2145 -1.6634 0.8866
-6.1965 -3.9448 1.7995
-5.8031 -4.4694 1.7943
-1.0468 -0.9668 0.3491
-0.9523 -1.0520 0.3476
-0.8514 -1.1285 0.3463
-0.7447 -1.1959 0.3451
-0.6332 -1.2540 0.3441
-0.5174 -1.3023 0.3433
-0.3983 -1.3407 0.3426
-0.2767 -1.3690 0.3421
-0.1532 -1.3870 0.3418
-0.0288 -1.3946 0.3417
0.0958 -1.3918 0.3418
0.2198 -1.3786 0.3420
0.3424 -1.3551 0.3424
0.4628 -1.3214 0.3430
0.5802 -1.2776 0.3437
0.6938 -1.2240 0.3447
0.8028 -1.1609 0.3458
0.9065 -1.0885 0.3470
1.0041 -1.0073 0.3484
5.6071 -4.6999 1.7923
6.0193 -4.1910 1.7968
6.3942 -3.6511 1.8038
6.7258 -3.0800 1.8122
7.0079 -2.4794 1.8210
7.2377 -1.8533 1.8302
7.4126 -1.2060 1.8397
7.5305 -0.5424 1.8495
7.5943 0.1328 1.8607
7.6011 0.8154 1.8727
7.5464 1.5003 1.8848
7.4296 2.1818 1.8969
7.2503 2.8541 1.9088
7.0089 3.5111 1.9204
6.7065 4.1469 1.9316
6.3447 4.7553 1.9424
5.9257 5.3304 1.9525
1.0721 1.1535 0.3858
0.9690 1.2500 0.3874
0.8569 1.3366 0.3889
0.7366 1.4125 0.3902
0.6093 1.4768 0.3914
0.4761 1.5288 0.3923
0.3384 1.5679 0.3929
0.1973 1.5936 0.3934
0.0543 1.6057 0.3936
-0.0893 1.6040 0.3935
-0.2320 1.5885 0.3933
-0.3724 1.5595 0.3928
-0.5091 1.5172 0.3920
-0.6410 1.4621 0.3911
-0.7666 1.3949 0.3899
-0.8850 1.3163 0.3886
-0.9950 1.2271 0.3870
-5.5731 5.7395 1.9598
-6.0334 5.1934 1.9501
-6.4386 4.6096 1.9398
-6.7861 3.9939 1.9290
-7.0738 3.3524 1.9176
-7.3000 2.6911 1.9059
-7.4641 2.0160 1.8940
-7.5657 1.3331 1.8819
-7.6053 0.6482 1.8698
-7.5837 -0.0330 1.8578
-3.8715 -0.3640 0.9526
-3.2102 -0.5945 0.7998
-3.2114 -0.8975 0.8168
-3.2127 -1.2162 0.8415
-3.2141 -1.5577 0.8749
-6.3061 -3.7858 1.8018
-5.9227 -4.3188 1.7957
-1.0732 -0.9402 0.3495
-0.9808 -1.0278 0.3480
-0.8816 -1.1069 0.3467
-0.7766 -1.1771 0.3454
-0.6664 -1.2379 0.3444
-0.5518 -1.2891 0.3435
-0.4336 -1.3305 0.3428
-0.3126 -1.3618 0.3423
-0.1896 -1.3828 0.3419
-0.0654 -1.3934 0.3417
0.0593 -1.3937 0.3417
0.1835 -1.3836 0.3419
0.3066 -1.3631 0.3423
0.4277 -1.3323 0.3428
0.5461 -1.2915 0.3435
0.6609 -1.2408 0.3444
0.7713 -1.1804 0.3454
0.8767 -1.1107 0.3466
0.9761 -1.0320 0.3480
1.0690 -0.9449 0.3495
5.9028 -4.3443 1.7954
6.2878 -3.8126 1.8014
6.6334 -3.2510 1.8096
6.9303 -2.6586 1.8184
7.1758 -2.0395 1.8275
7.3671 -1.3980 1.8369
7.5019 -0.7387 1.8466
7.5808 -0.0665 1.8571
7.6054 0.6145 1.8692
7.5689 1.2993 1.8813
7.4703 1.9824 1.8934
7.3094 2.6580 1.9053
7.0862 3.3201 1.9170
6.8016 3.9627 1.9284
6.4570 4.5798 1.9393
6.0545 5.1653 1.9496
5.5969 5.7134 1.9593
1.0003 1.2226 0.3870
0.8907 1.3122 0.3885
0.7727 1.3914 0.3899
0.6474 1.4592 0.3911
0.5158 1.5148 0.3920
0.3792 1.5578 0.3928
0.2390 1.5875 0.3933
0.0964 1.6036 0.3935
-0.0472 1.6059 0.3936
-0.1902 1.5945 0.3934
-0.3315 1.5694 0.3929
-0.4694 1.5310 0.3923
-0.6028 1.4796 0.3914
-0.7304 1.4158 0.3903
-0.8511 1.3405 0.3890
-0.9636 1.2543 0.3875
-1.0671 1.1583 0.3858
-5.9038 5.3580 1.9531
-6.3255 4.7846 1.9429
-6.6902 4.1777 1.9322
-6.9956 3.5431 1.9210
-7.2400 2.8870 1.9094
-7.4224 2.2153 1.8975
-7.5424 1.5341 1.8855
-7.6001 0.8492 1.8734
-7.5963 0.1663 1.8613
-7.5350 -0.5093 1.8501
-3.2099 -0.5077 0.7961
-3.2111 -0.8072 0.8111
-3.2123 -1.1206 0.8334
-3.2137 -1.4546 0.8641
-6.4118 -3.6238 1.8042
-6.0386 -4.1650 1.7970
-1.0990 -0.9130 0.3500
-1.0086 -1.0030 0.3485
-0.9114 -1.0846 0.3470
-0.8080 -1.1574 0.3458
-0.6992 -1.2210 0.3447
-0.5859 -1.2751 0.3438
-0.4686 -1.3194 0.3430
-0.3484 -1.3536 0.3424
-0.2259 -1.3777 0.3420
-0.1019 -1.3914 0.3418
0.0227 -1.3947 0.3417
0.1471 -1.3876 0.3418
0.2706 -1.3702 0.3421
0.3924 -1.3424 0.3426
0.5117 -1.3045 0.3433
0.6276 -1.2567 0.3441
0.7394 -1.1991 0.3451
0.8463 -1.1321 0.3463
0.9476 -1.0560 0.3476
1.0424 -0.9713 0.3490
5.7825 -4.4944 1.7941
6.1776 -3.9712 1.7990
6.5368 -3.4192 1.8072
6.8484 -2.8355 1.8158
7.1092 -2.2238 1.8248
7.3167 -1.5884 1.8341
7.4683 -0.9338 1.8438
7.5621 -0.2648 1.8536
7.6045 0.4139 1.8656
7.5860 1.0982 1.8777
7.5058 1.7823 1.8898
7.3631 2.4607 1.9018
7.1581 3.1274 1.9136
6.8914 3.7764 1.9251
6.5643 4.4017 1.9361
6.1786 4.9971 1.9466
5.7368 5.5567 1.9565
1.0307 1.1944 0.3865
0.9238 1.2870 0.3881
0.8082 1.3693 0.3895
0.6849 1.4405 0.3907
0.5550 1.4998 0.3918
0.4198 1.5465 0.3926
0.2804 1.5801 0.3931
0.1384 1.6003 0.3935
-0.0050 1.6067 0.3936
-0.1484 1.5993 0.3935
-0.2903 1.5782 0.3931
-0.4293 1.5436 0.3925
-0.5642 1.4960 0.3917
-0.6936 1.4358 0.3906
-0.8164 1.3638 0.3894
-0.9315 1.2807 0.3879
-1.0377 1.1875 0.3863
-5.7696 5.5191 1.9559
-6.2075 4.9567 1.9460
-6.5892 4.3590 1.9354
-6.9122 3.7319 1.9243
-7.1746 3.0815 1.9128
-7.3753 2.4138 1.9010
-7.5136 1.7347 1.8890
-7.5896 1.0503 1.8769
-7.6037 0.3663 1.8648
-7.5576 -0.3119 1.8530
-3.2095 -0.4217 0.7930
-3.2107 -0.7180 0.8060
-3.2119 -1.0268 0.8261
-3.2133 -1.3540 0.8542
-3.2147 -1.7071 0.8917
-6.1510 -4.0085 1.7985
-5.7534 -4.5296 1.7938
-1.0359 -0.9774 0.3489
-0.9406 -1.0615 0.3474
-0.8389 -1.1370 0.3461
-0.7317 -1.2033 0.3450
-0.6196 -1.2602 0.3440
-0.5034 -1.3074 0.3432
-0.3840 -1.3446 0.3426
-0.2621 -1.3717 0.3421
-0.1384 -1.3884 0.3418
-0.0139 -1.3948 0.3417
0.1106 -1.3908 0.3418
0.2345 -1.3764 0.3420
0.3569 -1.3516 0.3425
0.4770 -1.3167 0.3431
0.5939 -1.2717 0.3438
0.7070 -1.2170 0.3448
0.8155 -1.1527 0.3459
0.9185 -1.0793 0.3472
1.0153 -0.9971 0.3486
5.6585 -4.6412 1.7928
6.0655 -4.1280 1.7973
6.4362 -3.5848 1.8047
6.7620 -3.0099 1.8132
7.0381 -2.4061 1.8221
7.2614 -1.7772 1.8313
7.4297 -1.1278 1.8409
7.5406 -0.4625 1.8507
7.5983 0.2138 1.8621
7.5978 0.8970 1.8742
7.5358 1.5818 1.8863
7.4115 2.2625 1.8983
7.2247 2.9332 1.9102
6.9761 3.5881 1.9217
6.6665 4.2209 1.9329
6.2977 4.8257 1.9436
5.8722 5.3965 1.9537
1.0603 1.1655 0.3860
0.9561 1.2608 0.3876
0.8430 1.3462 0.3891
0.7218 1.4208 0.3904
0.5937 1.4837 0.3915
0.4599 1.5341 0.3923
0.3217 1.5717 0.3930
0.1803 1.5958 0.3934
0.0372 1.6062 0.3936
-0.1064 1.6029 0.3935
-0.2488 1.5858 0.3932
-0.3889 1.5551 0.3927
-0.5251 1.5113 0.3919
-0.6563 1.4547 0.3909
-0.7811 1.3861 0.3898
-0.8985 1.3062 0.3884
-1.0075 1.2158 0.3868
-5.6307 5.6767 1.9587
-6.0846 5.1257 1.9490
-6.4831 4.5378 1.9386
-6.8236 3.9187 1.9276
-7.1040 3.2746 1.9162
-7.3228 2.6113 1.9045
-7.4795 1.9350 1.8926
-7.5737 1.2515 1.8805
-7.6059 0.5668 1.8684
-7.5771 -0.1137 1.8564
-3.4757 -0.3642 0.8561
-3.2103 -0.6300 0.8014
-3.2116 -0.9345 0.8194
-3.2129 -1.2556 0.8450
-3.2142 -1.6002 0.8796
-6.2621 -3.8507 1.8009
-5.8746 -4.3803 1.7951
-1.0626 -0.9511 0.3493
-0.9693 -1.0377 0.3479
-0.8694 -1.1157 0.3465
-0.7637 -1.1848 0.3453
-0.6529 -1.2445 0.3443
-0.5379 -1.2946 0.3434
-0.4193 -1.3347 0.3427
-0.2981 -1.3648 0.3422
-0.1749 -1.3846 0.3419
-0.0506 -1.3940 0.3417
0.0741 -1.3930 0.3417
0.1983 -1.3817 0.3419
0.3212 -1.3599 0.3423
0.4420 -1.3280 0.3429
0.5600 -1.2860 0.3436
0.6743 -1.2341 0.3445
0.7842 -1.1726 0.3456
0.8888 -1.1018 0.3468
0.9876 -1.0221 0.3482
5.5309 -4.7847 1.7915
5.9506 -4.2825 1.7960
6.3315 -3.7475 1.8023
6.6714 -3.1819 1.8107
6.9623 -2.5861 1.8194
7.2015 -1.9642 1.8286
7.3861 -1.3203 1.8381
7.5141 -0.6592 1.8478
7.5869 0.0143 1.8586
7.6043 0.6960 1.8706
7.5604 1.3809 1.8827
7.4544 2.0634 1.8948
7.2860 2.7377 1.9067
7.0555 3.3978 1.9184
6.7636 4.0377 1.9297
6.4120 4.6513 1.9405
6.0029 5.2327 1.9508
1.0891 1.1357 0.3855
0.9877 1.2338 0.3872
0.8771 1.3222 0.3887
0.7581 1.4001 0.3900
0.6320 1.4665 0.3912
0.4998 1.5206 0.3921
0.3627 1.5620 0.3928
0.2221 1.5901 0.3933
0.0793 1.6046 0.3936
-0.0643 1.6053 0.3936
-0.2072 1.5922 0.3933
-0.3481 1.5655 0.3929
-0.4856 1.5255 0.3922
-0.6184 1.4726 0.3913
-0.7452 1.4075 0.3901
-0.8649 1.3308 0.3888
-0.9764 1.2434 0.3873
-1.0788 1.1463 0.3856
-5.9569 5.2916 1.9519
-6.3720 4.7140 1.9417
-6.7298 4.1034 1.9309
-7.0280 3.4659 1.9196
-7.2650 2.8076 1.9080
-7.4400 2.1345 1.8961
-7.5525 1.4526 1.8840
-7.6029 0.7676 1.8719
-7.5918 0.0854 1.8599
-7.5243 -0.5892 1.8489
-3.2100 -0.5429 0.7975
-3.2112 -0.8437 0.8133
-3.2125 -1.1592 0.8366
-3.2138 -1.4961 0.8684
-6.3694 -3.6899 1.8032
-5.9921 -4.2278 1.7965
-1.0886 -0.9241 0.3498
-0.9974 -1.0131 0.3483
-0.8994 -1.0937 0.3469
-0.7953 -1.1655 0.3456
-0.6859 -1.2280 0.3446
-0.5721 -1.2809 0.3437
-0.4545 -1.3240 0.3429
-0.3339 -1.3570 0.3423
-0.2112 -1.3798 0.3420
-0.0871 -1.3923 0.3417
0.0375 -1.3944 0.3417
0.1619 -1.3861 0.3419
0.2853 -1.3674 0.3422
0.4068 -1.3384 0.3427
0.5257 -1.2993 0.3434
0.6411 -1.2503 0.3442
0.7524 -1.1916 0.3452
0.8587 -1.1235 0.3464
0.9592 -1.0464 0.3477
1.0533 -0.9607 0.3492
5.8318 -4.4339 1.7946
6.2228 -3.9072 1.8000
6.5765 -3.3513 1.8082
6.8822 -2.7640 1.8168
7.1368 -2.1493 1.8259
7.3377 -1.5113 1.8353
7.4825 -0.8548 1.8449
7.5703 -0.1844 1.8551
7.6055 0.4952 1.8671
7.5797 1.1798 1.8792
7.4920 1.8636 1.8913
7.3419 2.5409 1.9032
7.1296 3.2058 1.9150
6.8556 3.8523 1.9264
6.5213 4.4743 1.9374
6.1288 5.0657 1.9478
5.6806 5.6208 1.9577
1.0185 1.2060 0.3867
0.9105 1.2973 0.3883
0.7939 1.3784 0.3897
0.6697 1.4482 0.3909
0.5391 1.5060 0.3919
0.4033 1.5512 0.3926
0.2636 1.5833 0.3932
0.1213 1.6018 0.3935
-0.0221 1.6065 0.3936
-0.1654 1.5975 0.3934
-0.3070 1.5748 0.3930
-0.4456 1.5386 0.3924
-0.5799 1.4894 0.3916
-0.7086 1.4278 0.3905
-0.8306 1.3544 0.3892
-0.9446 1.2701 0.3878
-1.0498 1.1757 0.3861
-5.8246 5.4541 1.9548
-6.2560 4.8872 1.9447
-6.6308 4.2858 1.9341
-6.9467 3.6556 1.9230
-7.2018 3.0027 1.9114
-7.3951 2.3333 1.8996
-7.5259 1.6534 1.8876
-7.5945 0.9687 1.8755
-7.6013 0.2851 1.8634
-7.5490 -0.3921 1.8518
-3.2097 -0.4565 0.7942
-3.2109 -0.7541 0.8080
-3.2121 -1.0647 0.8290
-3.2134 -1.3945 0.8581
-3.2148 -1.7514 0.8968
-6.1056 -4.0722 1.7978
-5.7032 -4.5893 1.7933
-1.0249 -0.9879 0.3487
-0.9288 -1.0710 0.3473
-0.8264 -1.1454 0.3460
-0.7186 -1.2106 0.3449
-0.6059 -1.2664 0.3439
-0.4893 -1.3124 0.3431
-0.3696 -1.3484 0.3425
-0.2474 -1.3742 0.3421
-0.1236 -1.3897 0.3418
0.0009 -1.3949 0.3417
0.1254 -1.3896 0.3418
0.2492 -1.3739 0.3421
0.3713 -1.3480 0.3425
0.4911 -1.3119 0.3431
0.6076 -1.2657 0.3439
0.7202 -1.2098 0.3449
0.8280 -1.1445 0.3460
0.9304 -1.0700 0.3473
1.0264 -0.9867 0.3488
5.7093 -4.5820 1.7933
6.1110 -4.0644 1.7979
0.9012 -1.0484 0.3477
0.9952 -0.9676 0.3491
5.5376 -4.4964 1.7941
5.9321 -3.9944 1.7987
6.2922 -3.4639 1.8065
6.6064 -2.9016 1.8148
6.8718 -2.3113 1.8235
7.0857 -1.6971 1.8325
7.2456 -1.0632 1.8419
7.3495 -0.4143 1.8514
7.4018 0.2449 1.8626
7.3968 0.9104 1.8744
7.3318 1.5769 1.8862
7.2062 2.2389 1.8979
7.0199 2.8906 1.9094
6.7735 3.5264 1.9206
6.4680 4.1402 1.9315
6.1051 4.7262 1.9418
5.6873 5.2788 1.9516
1.0259 1.1389 0.3855
0.9240 1.2310 0.3871
0.8133 1.3134 0.3885
0.6951 1.3851 0.3898
0.5702 1.4455 0.3908
0.4398 1.4938 0.3916
0.3052 1.5295 0.3923
0.1676 1.5521 0.3927
0.0284 1.5616 0.3928
-0.1111 1.5576 0.3927
-0.2495 1.5402 0.3924
-0.3855 1.5098 0.3919
-0.5177 1.4665 0.3912
-0.6450 1.4110 0.3902
-0.7661 1.3438 0.3890
-0.8799 1.2656 0.3877
-0.9854 1.1773 0.3861
-1.0819 1.0799 0.3845
-5.9418 4.9554 1.9459
-6.3274 4.3823 1.9358
-6.6564 3.7791 1.9252
-6.9271 3.1515 1.9141
-7.1379 2.5056 1.9027
-7.2882 1.8471 1.8910
-7.3779 1.1817 1.8793
-7.4072 0.5151 1.8675
-7.3771 -0.1472 1.8558
-3.3207 -0.3645 0.8402
-3.2104 -0.6465 0.8237
-3.2116 -0.9518 0.8425
-3.2129 -1.2740 0.8693
-3.2143 -1.6202 0.9053
-6.0841 -3.7828 1.8019
-5.7031 -4.2964 1.7959
-1.0313 -0.9324 0.3497
-0.9401 -1.0165 0.3482
-0.8424 -1.0922 0.3469
-0.7391 -1.1592 0.3458
-0.6308 -1.2170 0.3448
-0.5184 -1.2654 0.3439
-0.4026 -1.3041 0.3433
-0.2842 -1.3329 0.3428
-0.1639 -1.3516 0.3424
-0.0426 -1.3603 0.3423
0.0790 -1.3588 0.3423
0.2001 -1.3471 0.3425
0.3199 -1.3253 0.3429
0.4377 -1.2936 0.3435
0.5525 -1.2520 0.3442
0.6638 -1.2007 0.3451
0.7707 -1.1401 0.3461
0.8724 -1.0705 0.3473
0.9682 -0.9922 0.3487
1.0575 -0.9057 0.3502
5.8203 -4.1452 1.7972
6.1911 -3.6231 1.8042
6.5191 -3.0698 1.8123
6.7991 -2.4873 1.8209
7.0284 -1.8797 1.8298
7.2044 -1.2511 1.8391
7.3249 -0.6061 1.8486
7.3920 0.0505 1.8592
7.4045 0.7146 1.8709
7.3571 1.3814 1.8827
7.2494 2.0453 1.8945
7.0809 2.7006 1.9060
6.8520 3.3417 1.9174
6.5637 3.9626 1.9283
6.2175 4.5574 1.9389
5.8156 5.1203 1.9488
1.0541 1.1101 0.3850
0.9548 1.2049 0.3867
0.8467 1.2902 0.3881
0.7305 1.3652 0.3894
0.6075 1.4290 0.3905
0.4786 1.4809 0.3914
0.3451 1.5203 0.3921
0.2082 1.5469 0.3926
0.0693 1.5602 0.3928
-0.0702 1.5601 0.3928
-0.2090 1.5467 0.3925
-0.3459 1.5201 0.3921
-0.4794 1.4805 0.3914
-0.6082 1.4285 0.3905
-0.7312 1.3647 0.3894
-0.8473 1.2896 0.3881
-0.9554 1.2042 0.3866
-1.0545 1.1094 0.3850
-5.8183 5.1172 1.9488
-6.2199 4.5540 1.9388
-6.5658 3.9590 1.9283
-6.8538 3.3380 1.9174
-7.0823 2.6968 1.9060
-7.2504 2.0414 1.8944
-7.3578 1.3774 1.8827
-7.4048 0.7106 1.8709
-7.3920 0.0465 1.8592
-7.3245 -0.6100 1.8486
-3.2101 -0.5592 0.8195
-3.2113 -0.8607 0.8362
-3.2125 -1.1772 0.8605
-3.2139 -1.5155 0.8937
-6.1891 -3.6265 1.8042
-5.8181 -4.1483 1.7972
-1.0568 -0.9061 0.3501
-0.9676 -0.9926 0.3486
-0.8717 -1.0709 0.3473
-0.7700 -1.1404 0.3461
-0.6631 -1.2010 0.3450
-0.5518 -1.2522 0.3442
-0.4369 -1.2937 0.3434
-0.3192 -1.3255 0.3429
-0.1994 -1.3472 0.3425
-0.0783 -1.3588 0.3423
0.0433 -1.3603 0.3423
0.1647 -1.3516 0.3425
0.2849 -1.3328 0.3428
0.4033 -1.3039 0.3433
0.5191 -1.2652 0.3440
0.6315 -1.2168 0.3448
0.7398 -1.1589 0.3458
0.8431 -1.0919 0.3470
0.9407 -1.0161 0.3483
1.0320 -0.9319 0.3497
5.7054 -4.2934 1.7959
6.0861 -3.7795 1.8019
6.4277 -3.2355 1.8099
6.7221 -2.6612 1.8183
6.9665 -2.0605 1.8272
7.1584 -1.4375 1.8363
7.2954 -0.7969 1.8458
7.3772 -0.1432 1.8558
7.4070 0.5191 1.8675
7.3773 1.1857 1.8793
7.2873 1.8510 1.8910
7.1366 2.5095 1.9027
6.9254 3.1553 1.9141
6.6545 3.7827 1.9252
6.3250 4.3858 1.9358
5.9392 4.9587 1.9460
1.0814 1.0807 0.3845
0.9849 1.1780 0.3862
0.8793 1.2662 0.3877
0.7654 1.3443 0.3891
0.6443 1.4115 0.3902
0.5170 1.4669 0.3912
0.3847 1.5101 0.3919
0.2487 1.5404 0.3924
0.1103 1.5577 0.3927
-0.0292 1.5615 0.3928
-0.1684 1.5520 0.3926
-0.3060 1.5292 0.3922
-0.4406 1.4935 0.3916
-0.5709 1.4451 0.3908
-0.6958 1.3846 0.3897
-0.8140 1.3128 0.3885
-0.9245 1.2303 0.3871
-1.0264 1.1382 0.3855
-5.6901 5.2756 1.9516
-6.1076 4.7229 1.9418
-6.4702 4.1367 1.9315
-6.7753 3.5227 1.9206
-7.0214 2.8868 1.9094
-7.2073 2.2350 1.8979
-7.3326 1.5729 1.8862
-7.3972 0.9064 1.8744
-7.4019 0.2409 1.8626
-7.3492 -0.4182 1.8514
-3.2097 -0.4727 0.8160
-3.2109 -0.7709 0.8305
-3.2122 -1.0823 0.8525
-3.2135 -1.4135 0.8830
-3.2149 -1.7721 0.9233
-5.9299 -3.9976 1.7987
-1.0817 -0.8793 0.3506
-0.9945 -0.9680 0.3491
-0.9005 -1.0488 0.3477
-0.8004 -1.1209 0.3464
-0.6950 -1.1842 0.3453
-0.5849 -1.2381 0.3444
-0.4710 -1.2825 0.3436
-0.3540 -1.3172 0.3430
-0.2347 -1.3418 0.3426
-0.1139 -1.3564 0.3424
0.0076 -1.3609 0.3423
0.1291 -1.3552 0.3424
0.2498 -1.3393 0.3427
0.3688 -1.3134 0.3431
0.4855 -1.2776 0.3437
0.5989 -1.2320 0.3445
0.7085 -1.1768 0.3455
0.8133 -1.1125 0.3466
0.9127 -1.0392 0.3479
1.0059 -0.9575 0.3493
5.5868 -4.4385 1.7946
5.9773 -3.9330 1.7996
6.3321 -3.3985 1.8075
6.6407 -2.8327 1.8158
6.9001 -2.2393 1.8245
7.1076 -1.6225 1.8336
7.2609 -0.9865 1.8430
7.3581 -0.3362 1.8526
7.4043 0.3240 1.8640
7.3922 0.9898 1.8758
7.3200 1.6561 1.8876
7.1872 2.3172 1.8993
6.9937 2.9673 1.9108
6.7401 3.6007 1.9220
6.4277 4.2115 1.9327
6.0582 4.7939 1.9430
5.6340 5.3421 1.9527
1.0142 1.1503 0.3857
0.9112 1.2413 0.3873
0.7996 1.3225 0.3887
0.6805 1.3929 0.3899
0.5549 1.4519 0.3909
0.4240 1.4987 0.3917
0.2889 1.5329 0.3923
0.1511 1.5540 0.3927
0.0118 1.5618 0.3928
-0.1277 1.5562 0.3927
-0.2658 1.5373 0.3924
-0.4014 1.5053 0.3918
-0.5332 1.4605 0.3911
-0.6597 1.4036 0.3901
-0.7800 1.3350 0.3889
-0.8929 1.2556 0.3875
-0.9974 1.1662 0.3860
-5.5575 5.4308 1.9543
-5.9906 4.8889 1.9448
-6.3696 4.3119 1.9346
-6.6918 3.7055 1.9239
-6.9554 3.0754 1.9127
-7.1590 2.4277 1.9013
-7.3021 1.7680 1.8896
-7.3845 1.1022 1.8779
-7.4067 0.4359 1.8661
-7.3696 -0.2256 1.8544
-3.2094 -0.3869 0.8130
-3.2106 -0.6822 0.8255
-3.2118 -0.9892 0.8452
-3.2131 -1.3138 0.8731
-3.2145 -1.6634 0.9103
-6.0403 -3.8454 1.8009
-5.6554 -4.3557 1.7953
-1.0208 -0.9428 0.3495
-0.9288 -1.0259 0.3481
-0.8304 -1.1006 0.3468
-0.7264 -1.1665 0.3456
-0.6176 -1.2233 0.3447
-0.5048 -1.2705 0.3438
-0.3886 -1.3080 0.3432
-0.2699 -1.3356 0.3427
-0.1495 -1.3532 0.3424
-0.0281 -1.3607 0.3423
0.0935 -1.3579 0.3423
0.2145 -1.3450 0.3426
0.3341 -1.3221 0.3430
0.4515 -1.2891 0.3435
0.5660 -1.2464 0.3443
0.6768 -1.1940 0.3452
0.7831 -1.1323 0.3463
0.8841 -1.0616 0.3475
0.9792 -0.9823 0.3489
1.0676 -0.8949 0.3504
5.8659 -4.0842 1.7977
6.2326 -3.5589 1.8051
6.5550 -3.0019 1.8133
6.8292 -2.4162 1.8219
7.0522 -1.8058 1.8309
7.2217 -1.1750 1.8402
7.3355 -0.5284 1.8497
7.3966 0.1293 1.8606
7.4020 0.7940 1.8724
7.3475 1.4607 1.8841
7.2325 2.1239 1.8959
7.0568 2.7779 1.9074
6.8208 3.4168 1.9187
6.5255 4.0349 1.9296
6.1725 4.6262 1.9401
5.7641 5.1850 1.9500
1.0428 1.1219 0.3852
0.9424 1.2156 0.3868
0.8332 1.2997 0.3883
0.7162 1.3734 0.3896
0.5924 1.4358 0.3906
0.4629 1.4862 0.3915
0.3289 1.5242 0.3922
0.1918 1.5491 0.3926
0.0527 1.5609 0.3928
-0.0868 1.5592 0.3928
-0.2255 1.5442 0.3925
-0.3620 1.5160 0.3920
-0.4950 1.4750 0.3913
-0.6232 1.4215 0.3904
-0.7454 1.3563 0.3892
-0.8606 1.2800 0.3879
-0.9677 1.1934 0.3864
-1.0657 1.0975 0.3848
-5.8690 5.0519 1.9476
-6.2641 4.4847 1.9376
-6.6032 3.8862 1.9270
-6.8841 3.2625 1.9160
-7.1055 2.6194 1.9047
-7.2664 1.9626 1.8931
-7.3666 1.2980 1.8813
-7.4064 0.6313 1.8695
-7.3865 -0.0322 1.8578
-7.3131 -0.6876 1.8474
-3.2102 -0.5945 0.8211
-3.2114 -0.8975 0.8387
-3.2127 -1.2162 0.8640
-3.2141 -1.5577 0.8983
-6.1470 -3.6902 1.8032
-5.7719 -4.2088 1.7966
-1.0466 -0.9169 0.3499
-0.9565 -1.0024 0.3485
-0.8599 -1.0796 0.3471
-0.7575 -1.1481 0.3460
-0.6500 -1.2076 0.3449
-0.5383 -1.2576 0.3441
-0.4230 -1.2980 0.3434
-0.3050 -1.3286 0.3428
-0.1850 -1.3491 0.3425
-0.0638 -1.3595 0.3423
0.0578 -1.3598 0.3423
0.1791 -1.3499 0.3425
0.2991 -1.3299 0.3428
0.4173 -1.2998 0.3434
0.5327 -1.2599 0.3440
0.6447 -1.2103 0.3449
0.7524 -1.1514 0.3459
0.8550 -1.0833 0.3471
0.9520 -1.0065 0.3484
1.0424 -0.9214 0.3499
5.7525 -4.2336 1.7964
6.1292 -3.7164 1.8028
6.4653 -3.1686 1.8109
6.7539 -2.5909 1.8194
6.9921 -1.9873 1.8282
7.1776 -1.3621 1.8375
7.3079 -0.7196 1.8469
7.3838 -0.0647 1.8572
7.4066 0.5984 1.8689
7.3698 1.2651 1.8807
7.2725 1.9299 1.8924
7.1147 2.5872 1.9040
6.8963 3.2311 1.9154
6.6182 3.8559 1.9265
6.2820 4.4557 1.9371
5.8896 5.0246 1.9471
1.0704 1.0927 0.3847
0.9728 1.1890 0.3864
0.8661 1.2761 0.3879
0.7513 1.3529 0.3892
0.6294 1.4187 0.3904
0.5014 1.4727 0.3913
0.3686 1.5144 0.3920
0.2323 1.5432 0.3925
0.0937 1.5588 0.3928
-0.0459 1.5611 0.3928
-0.1849 1.5500 0.3926
-0.3222 1.5257 0.3922
-0.4564 1.4883 0.3915
-0.5861 1.4385 0.3907
-0.7102 1.3766 0.3896
-0.8276 1.3035 0.3883
-0.9371 1.2198 0.3869
-1.0379 1.1266 0.3853
-5.7427 5.2118 1.9505
-6.1538 4.6547 1.9406
-6.5096 4.0648 1.9302
-6.8078 3.4480 1.9193
-7.0467 2.8099 1.9080
-7.2255 2.1565 1.8965
-7.3435 1.4936 1.8848
-7.4009 0.8269 1.8730
-7.3985 0.1620 1.8612
-7.3398 -0.4961 1.8502
-3.2099 -0.5077 0.8174
-3.2111 -0.8072 0.8327
-3.2123 -1.1206 0.8557
-3.2137 -1.4546 0.8872
-6.2497 -3.5322 1.8055
-5.8847 -4.0589 1.7980
-1.0717 -0.8902 0.3504
-0.9836 -0.9781 0.3489
-0.8889 -1.0578 0.3475
-0.7881 -1.1289 0.3463
-0.6821 -1.1911 0.3452
-0.5715 -1.2439 0.3443
-0.4572 -1.2872 0.3436
-0.3399 -1.3206 0.3430
-0.2204 -1.3441 0.3426
-0.0995 -1.3575 0.3423
0.0221 -1.3608 0.3423
0.1435 -1.3538 0.3424
0.2640 -1.3368 0.3427
0.3828 -1.3097 0.3432
0.4992 -1.2726 0.3438
0.6122 -1.2259 0.3446
0.7212 -1.1696 0.3456
0.8255 -1.1042 0.3467
0.9241 -1.0299 0.3480
1.0166 -0.9472 0.3495
5.6354 -4.3800 1.7951
6.0219 -3.8711 1.8005
6.3714 -3.3327 1.8084
6.6742 -2.7634 1.8168
6.9276 -2.1670 1.8256
7.1288 -1.5476 1.8347
7.2755 -0.9097 1.8441
7.3660 -0.2580 1.8538
7.4060 0.4031 1.8654
7.3868 1.0693 1.8772
7.3074 1.7352 1.8890
7.1673 2.3953 1.9007
6.9666 3.0438 1.9121
6.7060 3.6748 1.9233
6.3866 4.2826 1.9340
6.0105 4.8611 1.9442
5.5800 5.4048 1.9538
1.0024 1.1617 0.3859
0.8983 1.2515 0.3875
0.7858 1.3314 0.3888
0.6659 1.4006 0.3900
0.5396 1.4581 0.3910
0.4081 1.5035 0.3918
0.2726 1.5361 0.3924
0.1345 1.5556 0.3927
-0.0049 1.5618 0.3928
-0.1442 1.5546 0.3927
-0.2822 1.5342 0.3923
-0.4174 1.5006 0.3917
-0.5485 1.4544 0.3909
-0.6744 1.3960 0.3899
-0.7939 1.3261 0.3887
-0.9058 1.2454 0.3873
-1.0093 1.1549 0.3858
-5.6119 5.3682 1.9532
-6.0387 4.8219 1.9436
-6.4110 4.2411 1.9333
-6.7263 3.6316 1.9225
-6.9828 2.9991 1.9114
-7.1793 2.3496 1.8999
-7.3151 1.6889 1.8882
-7.3903 1.0227 1.8764
-7.4053 0.3567 1.8647
-7.3615 -0.3038 1.8531
-3.2095 -0.4217 0.8142
-3.2107 -0.7180 0.8275
-3.2119 -1.0268 0.8481
-3.2133 -1.3540 0.8770
-3.2147 -1.7071 0.9155
-5.9960 -3.9075 1.8000
-1.0961 -0.8630 0.3509
-1.0102 -0.9531 0.3493
