ply
format ascii 1.0
element vertex 2176
property float32 x
property float32 y
property float32 z
end_header
-0.4355 -0.8251 0.3615
-0.3602 -0.8608 0.3615
-0.2819 -0.8898 0.3616
-0.2015 -0.9117 0.3617
-0.1193 -0.9264 0.3619
-0.0362 -0.9338 0.3620
0.0473 -0.9339 0.3623
0.1306 -0.9266 0.3625
0.2130 -0.9119 0.3628
0.2937 -0.8900 0.3631
0.3724 -0.8610 0.3634
0.4481 -0.8251 0.3638
0.7963 -0.4767 0.3661
0.8365 -0.4042 0.3665
0.8702 -0.3283 0.3669
0.8970 -0.2496 0.3673
0.9167 -0.1687 0.3677
0.9291 -0.0863 0.3681
0.9340 -0.0030 0.3684
0.9313 0.0805 0.3688
0.9212 0.1634 0.3691
0.9037 0.2452 0.3694
0.8788 0.3251 0.3697
0.8469 0.4025 0.3699
0.8080 0.4768 0.3701
0.7626 0.5473 0.3703
0.7110 0.6134 0.3704
0.6536 0.6746 0.3705
0.5908 0.7303 0.3706
0.5233 0.7802 0.3706
0.4516 0.8238 0.3706
0.3762 0.8607 0.3706
0.2978 0.8907 0.3705
0.2171 0.9134 0.3704
0.1346 0.9288 0.3702
0.0511 0.9366 0.3701
-0.0327 0.9369 0.3698
-0.1161 0.9296 0.3696
-0.1984 0.9149 0.3693
-0.2791 0.8928 0.3690
-0.3573 0.8635 0.3687
-0.4326 0.8274 0.3683
-0.5042 0.7847 0.3680
-0.5717 0.7358 0.3676
-0.6344 0.6811 0.3672
-0.6919 0.6211 0.3668
-0.7438 0.5562 0.3664
-0.7896 0.4871 0.3660
-0.8290 0.4142 0.3656
-0.8617 0.3382 0.3652
-0.8875 0.2596 0.3648
-0.9061 0.1792 0.3644
-0.9176 0.0975 0.3640
-0.9217 0.0152 0.3637
-0.9186 -0.0671 0.3633
-0.9081 -0.1487 0.3630
-0.8905 -0.2290 0.3627
-0.8659 -0.3073 0.3625
-0.8345 -0.3831 0.3622
-0.7965 -0.4558 0.3620
-0.7523 -0.5249 0.3619
-0.7022 -0.5897 0.3617
-0.6465 -0.6498 0.3616
-0.5858 -0.7048 0.3616
-0.5205 -0.7542 0.3615
-0.4511 -0.7977 0.3615
-0.3782 -0.8348 0.3616
-0.3022 -0.8654 0.3616
-0.2238 -0.8892 0.3617
-0.1436 -0.9060 0.3619
-0.0622 -0.9156 0.3621
0.0198 -0.9180 0.3623
0.1017 -0.9132 0.3625
0.1830 -0.9011 0.3628
0.2629 -0.8819 0.3630
0.3409 -0.8557 0.3634
0.4163 -0.8226 0.3637
0.4885 -0.7829 0.3640
0.5570 -0.7369 0.3644
0.6212 -0.6850 0.3648
0.6806 -0.6275 0.3652
0.7347 -0.5648 0.3656
0.7830 -0.4975 0.3660
0.8253 -0.4261 0.3664
0.8609 -0.3512 0.3668
0.8898 -0.2732 0.3672
0.9116 -0.1929 0.3676
0.9262 -0.1109 0.3680
0.9333 -0.0278 0.3683
0.9329 0.0557 0.3687
0.9250 0.1389 0.3690
0.9097 0.2210 0.3693
0.8870 0.3016 0.3696
0.8571 0.3798 0.3698
0.8202 0.4551 0.3701
0.7767 0.5267 0.3702
0.7269 0.5942 0.3704
0.6712 0.6569 0.3705
0.6100 0.7144 0.3706
0.5439 0.7661 0.3706
0.4733 0.8115 0.3706
0.3990 0.8505 0.3706
0.3214 0.8825 0.3705
0.2413 0.9074 0.3704
0.1592 0.9250 0.3703
0.0760 0.9351 0.3701
-0.0078 0.9376 0.3699
-0.0914 0.9326 0.3697
-0.1741 0.9200 0.3694
-0.2553 0.9001 0.3691
-0.3344 0.8729 0.3688
-0.4106 0.8388 0.3684
-0.4834 0.7981 0.3681
-0.5521 0.7510 0.3677
-0.6163 0.6979 0.3673
-0.6754 0.6395 0.3669
-0.7290 0.5760 0.3665
-0.7766 0.5081 0.3661
-0.8179 0.4362 0.3657
-0.8527 0.3611 0.3653
-0.8805 0.2832 0.3649
-0.9013 0.2033 0.3645
-0.9150 0.1219 0.3641
-0.9213 0.0397 0.3638
-0.9203 -0.0427 0.3634
-0.9120 -0.1245 0.3631
-0.8965 -0.2053 0.3628
-0.8740 -0.2843 0.3626
-0.8445 -0.3609 0.3623
-0.8085 -0.4346 0.3621
-0.7661 -0.5048 0.3619
-0.7177 -0.5709 0.3618
-0.6636 -0.6325 0.3617
-0.6044 -0.6890 0.3616
-0.5404 -0.7401 0.3615
-0.4722 -0.7854 0.3615
-0.4002 -0.8245 0.3615
-0.3251 -0.8570 0.3616
-0.2473 -0.8829 0.3617
-0.1676 -0.9017 0.3618
-0.0865 -0.9135 0.3620
-0.0046 -0.9181 0.3622
0.0774 -0.9154 0.3624
0.1589 -0.9055 0.3627
0.2393 -0.8884 0.3630
0.3179 -0.8642 0.3633
0.3942 -0.8331 0.3636
0.4674 -0.7954 0.3639
0.5370 -0.7512 0.3643
0.6026 -0.7010 0.3647
0.6635 -0.6451 0.3651
0.7192 -0.5840 0.3655
0.7693 -0.5180 0.3659
0.8134 -0.4478 0.3663
0.8510 -0.3738 0.3667
0.8820 -0.2967 0.3671
0.9059 -0.2170 0.3675
0.9226 -0.1354 0.3679
0.9319 -0.0525 0.3682
0.9338 0.0309 0.3686
0.9282 0.1142 0.3689
0.9150 0.1968 0.3692
0.8945 0.2779 0.3695
0.8667 0.3568 0.3698
0.8319 0.4330 0.3700
0.7903 0.5058 0.3702
0.7424 0.5746 0.3704
0.6883 0.6388 0.3705
0.6287 0.6979 0.3706
0.5640 0.7513 0.3706
0.4947 0.7987 0.3706
0.4214 0.8396 0.3706
0.3447 0.8738 0.3706
0.2653 0.9008 0.3705
0.1838 0.9206 0.3703
0.1008 0.9329 0.3702
0.0172 0.9376 0.3700
-0.0666 0.9349 0.3697
-0.1497 0.9245 0.3695
-0.2314 0.9068 0.3692
-0.3112 0.8818 0.3689
-0.3883 0.8497 0.3685
-0.4621 0.8109 0.3682
-0.5321 0.7656 0.3678
-0.5977 0.7143 0.3674
-0.6584 0.6574 0.3670
-0.7136 0.5953 0.3666
-0.7631 0.5287 0.3662
-0.8063 0.4579 0.3658
-0.8431 0.3837 0.3654
-0.8730 0.3066 0.3650
-0.8959 0.2272 0.3646
-0.9117 0.1462 0.3642
-0.9202 0.0642 0.3639
-0.9213 -0.0182 0.3635
-0.9152 -0.1003 0.3632
-0.9019 -0.1814 0.3629
-0.8814 -0.2610 0.3626
-0.8540 -0.3384 0.3624
-0.8199 -0.4130 0.3622
-0.7793 -0.4843 0.3620
-0.7327 -0.5517 0.3618
-0.6802 -0.6147 0.3617
-0.6225 -0.6728 0.3616
-0.5599 -0.7255 0.3615
-0.4929 -0.7726 0.3615
-0.4219 -0.8135 0.3615
-0.3477 -0.8481 0.3616
-0.2707 -0.8759 0.3617
-0.1915 -0.8969 0.3618
-0.1107 -0.9108 0.3619
-0.0290 -0.9175 0.3621
0.0531 -0.9170 0.3623
0.1348 -0.9092 0.3626
0.2156 -0.8942 0.3629
0.2948 -0.8721 0.3632
0.3718 -0.8430 0.3635
0.4460 -0.8073 0.3638
0.5167 -0.7650 0.3642
0.5836 -0.7165 0.3646
0.6459 -0.6623 0.3650
0.7032 -0.6027 0.3654
0.7550 -0.5381 0.3658
0.8009 -0.4691 0.3662
0.8405 -0.3961 0.3666
0.8735 -0.3199 0.3670
0.8995 -0.2409 0.3674
0.9184 -0.1598 0.3678
0.9299 -0.0773 0.3681
0.9340 0.0061 0.3685
0.9306 0.0895 0.3688
0.9197 0.1724 0.3691
0.9014 0.2540 0.3694
0.8757 0.3336 0.3697
0.8430 0.4107 0.3699
0.8034 0.4846 0.3701
0.7573 0.5546 0.3703
0.7050 0.6203 0.3704
0.6470 0.6809 0.3705
0.5837 0.7360 0.3706
0.5158 0.7853 0.3706
0.4436 0.8282 0.3706
0.3678 0.8643 0.3706
0.2892 0.8935 0.3705
0.2082 0.9155 0.3704
0.1256 0.9300 0.3702
0.0420 0.9370 0.3700
-0.0417 0.9365 0.3698
-0.1251 0.9284 0.3696
-0.2073 0.9128 0.3693
-0.2877 0.8899 0.3690
-0.3657 0.8599 0.3686
-0.4405 0.8231 0.3683
-0.5117 0.7797 0.3679
-0.5787 0.7301 0.3675
-0.6409 0.6749 0.3672
-0.6978 0.6143 0.3668
-0.7490 0.5489 0.3663
-0.7941 0.4794 0.3659
-0.8328 0.4061 0.3655
-0.8648 0.3298 0.3651
-0.8898 0.2510 0.3647
-0.9077 0.1704 0.3644
-0.9184 0.0886 0.3640
-0.9217 0.0063 0.3636
-0.9178 -0.0760 0.3633
-0.9066 -0.1575 0.3630
-0.8882 -0.2376 0.3627
-0.8628 -0.3157 0.3625
-0.8307 -0.3912 0.3622
-0.7920 -0.4635 0.3620
-0.7471 -0.5321 0.3619
-0.6964 -0.5965 0.3617
-0.6402 -0.6561 0.3616
-0.5790 -0.7104 0.3616
-0.5132 -0.7592 0.3615
-0.4434 -0.8020 0.3615
-0.3701 -0.8385 0.3616
-0.2938 -0.8684 0.3616
-0.2152 -0.8914 0.3618
-0.1348 -0.9074 0.3619
-0.0533 -0.9162 0.3621
0.0287 -0.9179 0.3623
0.1106 -0.9122 0.3625
0.1917 -0.8994 0.3628
0.2714 -0.8794 0.3631
0.3492 -0.8524 0.3634
0.4243 -0.8186 0.3637
0.4961 -0.7782 0.3641
0.5642 -0.7316 0.3645
0.6279 -0.6790 0.3648
0.6867 -0.6209 0.3652
0.7402 -0.5578 0.3656
0.7879 -0.4900 0.3660
0.8294 -0.4182 0.3664
0.8644 -0.3428 0.3669
0.8925 -0.2646 0.3673
0.9136 -0.1841 0.3676
0.9273 -0.1019 0.3680
0.9336 -0.0187 0.3684
0.9324 0.0647 0.3687
0.9237 0.1478 0.3690
0.9076 0.2299 0.3693
0.8841 0.3102 0.3696
0.8534 0.3881 0.3699
0.8158 0.4630 0.3701
0.7716 0.5343 0.3703
0.7212 0.6013 0.3704
0.6648 0.6634 0.3705
0.6031 0.7203 0.3706
0.5364 0.7713 0.3706
0.4654 0.8161 0.3706
0.3907 0.8543 0.3706
0.3128 0.8856 0.3705
0.2325 0.9097 0.3704
0.1503 0.9265 0.3703
0.0669 0.9357 0.3701
-0.0168 0.9374 0.3699
-0.1004 0.9316 0.3696
-0.1830 0.9182 0.3694
-0.2640 0.8975 0.3691
-0.3428 0.8696 0.3687
-0.4187 0.8347 0.3684
-0.4910 0.7933 0.3680
-0.5593 0.7455 0.3677
-0.6229 0.6919 0.3673
-0.6815 0.6328 0.3669
-0.7344 0.5688 0.3665
-0.7814 0.5004 0.3661
-0.8220 0.4282 0.3657
-0.8560 0.3528 0.3653
-0.8831 0.2746 0.3649
-0.9032 0.1945 0.3645
-0.9160 0.1130 0.3641
-0.9215 0.0307 0.3637
-0.9197 -0.0516 0.3634
-0.9107 -0.1334 0.3631
-0.8944 -0.2139 0.3628
-0.8711 -0.2927 0.3625
-0.8409 -0.3691 0.3623
-0.8042 -0.4424 0.3621
-0.7611 -0.5121 0.3619
-0.7121 -0.5778 0.3618
-0.6574 -0.6389 0.3616
-0.5977 -0.6949 0.3616
-0.5332 -0.7453 0.3615
-0.4645 -0.7899 0.3615
-0.3922 -0.8283 0.3616
-0.3168 -0.8602 0.3616
-0.2388 -0.8853 0.3617
-0.1588 -0.9034 0.3619
-0.0776 -0.9144 0.3620
0.0043 -0.9181 0.3622
0.0863 -0.9147 0.3624
0.1677 -0.9040 0.3627
0.2479 -0.8861 0.3630
0.3263 -0.8611 0.3633
0.4022 -0.8293 0.3636
0.4751 -0.7909 0.3640
0.5444 -0.7461 0.3643
0.6094 -0.6952 0.3647
0.6698 -0.6387 0.3651
0.7249 -0.5770 0.3655
0.7744 -0.5106 0.3659
0.8178 -0.4399 0.3663
0.8547 -0.3656 0.3667
0.8849 -0.2881 0.3671
0.9081 -0.2082 0.3675
0.9240 -0.1265 0.3679
0.9325 -0.0435 0.3683
0.9336 0.0399 0.3686
0.9271 0.1232 0.3690
0.9131 0.2056 0.3693
0.8918 0.2865 0.3695
0.8633 0.3653 0.3698
0.8277 0.4411 0.3700
0.7855 0.5135 0.3702
0.7368 0.5818 0.3704
0.6821 0.6455 0.3705
0.6220 0.7040 0.3706
0.5567 0.7568 0.3706
0.4870 0.8035 0.3706
0.4133 0.8437 0.3706
0.3362 0.8770 0.3705
0.2566 0.9033 0.3704
0.1748 0.9223 0.3703
0.0918 0.9338 0.3701
0.0080 0.9377 0.3699
-0.0756 0.9341 0.3697
-0.1586 0.9230 0.3694
-0.2402 0.9044 0.3692
-0.3197 0.8786 0.3688
-0.3964 0.8458 0.3685
-0.4699 0.8063 0.3681
-0.5394 0.7603 0.3678
-0.6045 0.7084 0.3674
-0.6646 0.6509 0.3670
-0.7193 0.5883 0.3666
-0.7681 0.5212 0.3662
-0.8106 0.4501 0.3658
-0.8466 0.3755 0.3654
-0.8758 0.2981 0.3650
-0.8980 0.2185 0.3646
-0.9130 0.1373 0.3642
-0.9206 0.0552 0.3638
-0.9210 -0.0271 0.3635
-0.9141 -0.1092 0.3632
-0.9000 -0.1902 0.3629
-0.8787 -0.2695 0.3626
-0.8506 -0.3466 0.3624
-0.8158 -0.4209 0.3621
-0.7745 -0.4918 0.3620
-0.7272 -0.5588 0.3618
-0.6742 -0.6212 0.3617
-0.6159 -0.6788 0.3616
-0.5528 -0.7309 0.3615
-0.4853 -0.7773 0.3615
-0.4140 -0.8176 0.3615
-0.3395 -0.8514 0.3616
-0.2622 -0.8785 0.3617
-0.1828 -0.8987 0.3618
-0.1019 -0.9118 0.3620
-0.0201 -0.9178 0.3622
0.0620 -0.9165 0.3624
0.1436 -0.9079 0.3626
0.2243 -0.8921 0.3629
0.3032 -0.8693 0.3632
0.3800 -0.8395 0.3635
0.4538 -0.8030 0.3639
0.5242 -0.7600 0.3642
0.5906 -0.7109 0.3646
0.6524 -0.6561 0.3650
0.7091 -0.5959 0.3654
0.7603 -0.5308 0.3658
0.8055 -0.4613 0.3662
0.8444 -0.3880 0.3666
0.8767 -0.3114 0.3670
0.9019 -0.2322 0.3674
0.9200 -0.1509 0.3678
0.9308 -0.0682 0.3682
0.9340 0.0151 0.3685
0.9298 0.0985 0.3689
0.9181 0.1813 0.3692
0.8989 0.2627 0.3695
0.8725 0.3421 0.3697
0.8390 0.4189 0.3700
0.7987 0.4924 0.3702
0.7519 0.5620 0.3703
0.6990 0.6271 0.3705
0.6404 0.6872 0.3706
0.5766 0.7417 0.3706
0.5081 0.7902 0.3706
0.4355 0.8324 0.3706
0.3594 0.8678 0.3706
0.2805 0.8963 0.3705
0.1993 0.9174 0.3704
0.1166 0.9311 0.3702
0.0330 0.9373 0.3700
-0.0508 0.9360 0.3698
-0.1341 0.9271 0.3695
-0.2161 0.9107 0.3692
-0.2963 0.8870 0.3689
-0.3739 0.8563 0.3686
-0.4485 0.8187 0.3683
-0.5192 0.7746 0.3679
-0.5857 0.7244 0.3675
-0.6473 0.6685 0.3671
-0.7036 0.6074 0.3667
-0.7542 0.5416 0.3663
-0.7987 0.4716 0.3659
-0.8366 0.3980 0.3655
-0.8679 0.3213 0.3651
-0.8921 0.2423 0.3647
-0.9092 0.1616 0.3643
-0.9191 0.0797 0.3640
-0.9217 -0.0027 0.3636
-0.9169 -0.0849 0.3633
-0.9049 -0.1662 0.3630
-0.8858 -0.2461 0.3627
-0.8597 -0.3240 0.3624
-0.8268 -0.3992 0.3622
-0.7875 -0.4711 0.3620
-0.7419 -0.5393 0.3618
-0.6906 -0.6032 0.3617
-0.6338 -0.6622 0.3616
-0.5721 -0.7160 0.3616
-0.5058 -0.7642 0.3615
-0.4356 -0.8063 0.3615
-0.3619 -0.8420 0.3616
-0.2854 -0.8712 0.3617
-0.2065 -0.8935 0.3618
-0.1260 -0.9087 0.3619
-0.0444 -0.9168 0.3621
0.0376 -0.9176 0.3623
0.1194 -0.9112 0.3625
0.2004 -0.8976 0.3628
0.2800 -0.8768 0.3631
0.3574 -0.8490 0.3634
0.4322 -0.8145 0.3638
0.5037 -0.7734 0.3641
0.5713 -0.7261 0.3645
0.6345 -0.6730 0.3649
0.6928 -0.6143 0.3653
0.7457 -0.5506 0.3657
0.7927 -0.4824 0.3661
0.8335 -0.4102 0.3665
0.8678 -0.3345 0.3669
0.8951 -0.2560 0.3673
0.9154 -0.1752 0.3677
0.9283 -0.0929 0.3681
0.9338 -0.0097 0.3684
0.9318 0.0738 0.3688
0.9223 0.1568 0.3691
0.9054 0.2387 0.3694
0.8811 0.3188 0.3696
0.8497 0.3964 0.3699
0.8114 0.4709 0.3701
0.7665 0.5417 0.3703
0.7153 0.6082 0.3704
0.6584 0.6699 0.3705
0.5961 0.7261 0.3706
0.5289 0.7765 0.3706
0.4575 0.8206 0.3706
0.3824 0.8580 0.3706
0.3042 0.8886 0.3705
0.2236 0.9119 0.3704
0.1413 0.9278 0.3702
0.0579 0.9363 0.3701
-0.0259 0.9372 0.3699
-0.1094 0.9305 0.3696
-0.1919 0.9163 0.3693
-0.2727 0.8948 0.3690
-0.3512 0.8661 0.3687
-0.4267 0.8306 0.3684
-0.4986 0.7884 0.3680
-0.5664 0.7400 0.3676
-0.6295 0.6857 0.3672
-0.6875 0.6261 0.3668
-0.7398 0.5616 0.3664
-0.7861 0.4928 0.3660
-0.8260 0.4202 0.3656
-0.8593 0.3444 0.3652
-0.8857 0.2660 0.3648
-0.9049 0.1857 0.3644
-0.9169 0.1041 0.3641
-0.9217 0.0218 0.3637
-0.9191 -0.0605 0.3634
-0.9092 -0.1422 0.3631
-0.8922 -0.2226 0.3628
-0.8681 -0.3011 0.3625
-0.8373 -0.3772 0.3623
-0.7998 -0.4501 0.3621
-0.7561 -0.5195 0.3619
-0.7064 -0.5847 0.3617
-0.6512 -0.6452 0.3616
-0.5909 -0.7006 0.3616
-0.5259 -0.7505 0.3615
-0.4569 -0.7944 0.3615
-0.3842 -0.8321 0.3616
-0.3084 -0.8632 0.3616
-0.2302 -0.8876 0.3617
-0.1501 -0.9049 0.3619
-0.0687 -0.9151 0.3620
0.0132 -0.9181 0.3622
0.0952 -0.9139 0.3625
0.1765 -0.9024 0.3627
0.2565 -0.8837 0.3630
0.3347 -0.8580 0.3633
0.4103 -0.8255 0.3637
0.4828 -0.7863 0.3640
0.5516 -0.7408 0.3644
0.6162 -0.6893 0.3648
0.6760 -0.6323 0.3652
0.7305 -0.5700 0.3656
0.7794 -0.5031 0.3660
0.8221 -0.4320 0.3664
0.8583 -0.3573 0.3668
0.8878 -0.2796 0.3672
0.9101 -0.1994 0.3676
0.9253 -0.1175 0.3679
0.9330 -0.0345 0.3683
0.9332 0.0490 0.3687
0.9259 0.1322 0.3690
0.9112 0.2145 0.3693
0.8891 0.2952 0.3696
0.8597 0.3736 0.3698
0.8235 0.4492 0.3700
0.7805 0.5211 0.3702
0.7311 0.5890 0.3704
0.6759 0.6521 0.3705
0.6151 0.7100 0.3706
0.5494 0.7621 0.3706
0.4791 0.8081 0.3706
0.4051 0.8476 0.3706
0.3277 0.8802 0.3705
0.2478 0.9057 0.3704
0.1659 0.9239 0.3703
0.0827 0.9346 0.3701
-0.0010 0.9377 0.3699
-0.0847 0.9333 0.3697
-0.1675 0.9213 0.3694
-0.2489 0.9020 0.3691
-0.3281 0.8754 0.3688
-0.4046 0.8418 0.3685
-0.4776 0.8016 0.3681
-0.5467 0.7550 0.3677
-0.6113 0.7024 0.3673
-0.6708 0.6443 0.3670
-0.7249 0.5813 0.3665
-0.7730 0.5137 0.3661
-0.8149 0.4421 0.3657
-0.8501 0.3672 0.3653
-0.8786 0.2895 0.3649
-0.8999 0.2097 0.3645
-0.9141 0.1284 0.3642
-0.9210 0.0463 0.3638
-0.9206 -0.0361 0.3635
-0.9129 -0.1180 0.3631
-0.8980 -0.1989 0.3629
-0.8760 -0.2780 0.3626
-0.8471 -0.3549 0.3623
-0.8116 -0.4288 0.3621
-0.7697 -0.4993 0.3619
-0.7218 -0.5658 0.3618
-0.6682 -0.6277 0.3617
-0.6093 -0.6847 0.3616
-0.5457 -0.7362 0.3615
-0.4778 -0.7820 0.3615
-0.4061 -0.8216 0.3615
-0.3312 -0.8547 0.3616
-0.2536 -0.8811 0.3617
-0.1741 -0.9005 0.3618
-0.0930 -0.9128 0.3620
-0.0112 -0.9180 0.3622
0.0709 -0.9159 0.3624
0.1524 -0.9065 0.3627
0.2329 -0.8900 0.3629
0.3117 -0.8664 0.3632
0.3881 -0.8358 0.3636
0.4616 -0.7986 0.3639
0.5316 -0.7550 0.3643
0.5975 -0.7053 0.3646
0.6588 -0.6498 0.3650
0.7149 -0.5890 0.3654
0.7655 -0.5235 0.3658
0.8101 -0.4535 0.3663
0.8482 -0.3798 0.3667
0.8797 -0.3029 0.3671
0.9042 -0.2235 0.3675
0.9215 -0.1420 0.3678
0.9315 -0.0592 0.3682
0.9339 0.0242 0.3686
0.9289 0.1075 0.3689
0.9163 0.1902 0.3692
0.8964 0.2714 0.3695
0.8692 0.3506 0.3698
0.8350 0.4271 0.3700
0.7939 0.5002 0.3702
0.7465 0.5693 0.3703
0.6929 0.6338 0.3705
0.6337 0.6933 0.3706
0.5694 0.7473 0.3706
0.5004 0.7951 0.3706
0.4274 0.8366 0.3706
0.3510 0.8713 0.3706
0.2718 0.8989 0.3705
0.1904 0.9193 0.3703
0.1075 0.9322 0.3702
0.0239 0.9375 0.3700
-0.0599 0.9354 0.3698
-0.1430 0.9256 0.3695
-0.2249 0.9085 0.3692
-0.3048 0.8840 0.3689
-0.3822 0.8525 0.3686
-0.4563 0.8142 0.3682
-0.5267 0.7695 0.3678
-0.5926 0.7186 0.3675
-0.6537 0.6621 0.3671
-0.7094 0.6005 0.3667
-0.7593 0.5342 0.3663
-0.8031 0.4638 0.3659
-0.8404 0.3898 0.3654
-0.8708 0.3129 0.3650
-0.8943 0.2337 0.3647
-0.9107 0.1527 0.3643
-0.9197 0.0708 0.3639
-0.9215 -0.0116 0.3636
-0.9160 -0.0937 0.3632
-0.9032 -0.1750 0.3629
-0.8833 -0.2547 0.3627
-0.8564 -0.3323 0.3624
-0.8228 -0.4072 0.3622
-0.7828 -0.4787 0.3620
-0.7366 -0.5465 0.3618
-0.6846 -0.6098 0.3617
-0.6273 -0.6683 0.3616
-0.5651 -0.7215 0.3615
-0.4984 -0.7690 0.3615
-0.4278 -0.8105 0.3615
-0.3538 -0.8455 0.3616
-0.2769 -0.8739 0.3617
-0.1979 -0.8955 0.3618
-0.1172 -0.9099 0.3619
-0.0355 -0.9172 0.3621
0.0465 -0.9173 0.3623
0.1283 -0.9101 0.3626
0.2092 -0.8957 0.3628
0.2885 -0.8741 0.3631
0.3657 -0.8456 0.3635
0.4401 -0.8104 0.3638
0.7821 -0.4683 0.3661
0.8217 -0.3970 0.3665
0.8548 -0.3224 0.3669
0.8811 -0.2451 0.3673
0.9003 -0.1657 0.3677
0.9125 -0.0847 0.3681
0.9173 -0.0029 0.3684
0.9147 0.0790 0.3687
0.9047 0.1605 0.3691
0.8875 0.2408 0.3693
0.8631 0.3193 0.3696
0.8317 0.3953 0.3698
0.7935 0.4682 0.3700
0.7489 0.5374 0.3702
0.6982 0.6023 0.3704
0.6418 0.6624 0.3705
0.5802 0.7172 0.3705
0.5139 0.7662 0.3706
0.4435 0.8090 0.3705
0.3695 0.8453 0.3705
0.2925 0.8747 0.3704
0.2131 0.8970 0.3703
0.1322 0.9121 0.3702
0.0502 0.9198 0.3700
-0.0321 0.9201 0.3698
-0.1140 0.9129 0.3695
-0.1949 0.8985 0.3692
-0.2741 0.8768 0.3690
-0.3510 0.8481 0.3686
-0.4249 0.8126 0.3683
-0.4952 0.7707 0.3679
-0.5615 0.7227 0.3676
-0.6231 0.6690 0.3672
-0.6796 0.6100 0.3668
-0.7305 0.5464 0.3664
-0.7755 0.4784 0.3660
-0.8142 0.4069 0.3656
-0.8464 0.3322 0.3652
-0.8718 0.2550 0.3648
-0.8901 0.1760 0.3644
-0.9014 0.0958 0.3641
-0.9055 0.0149 0.3637
-0.9024 -0.0659 0.3634
-0.8921 -0.1461 0.3631
-0.8749 -0.2249 0.3628
-0.8507 -0.3019 0.3625
-0.8198 -0.3764 0.3623
-0.7825 -0.4478 0.3621
-0.7391 -0.5156 0.3619
-0.6898 -0.5793 0.3618
-0.6352 -0.6384 0.3617
-0.5756 -0.6924 0.3616
-0.5114 -0.7410 0.3616
-0.4432 -0.7837 0.3616
-0.3715 -0.8202 0.3616
-0.2969 -0.8502 0.3617
-0.2199 -0.8736 0.3618
-0.1411 -0.8901 0.3620
-0.0611 -0.8995 0.3621
0.0194 -0.9019 0.3623
0.0999 -0.8971 0.3626
0.1797 -0.8853 0.3628
0.2582 -0.8664 0.3631
0.3348 -0.8406 0.3634
0.4089 -0.8080 0.3637
0.4798 -0.7691 0.3641
0.5471 -0.7239 0.3644
0.6102 -0.6728 0.3648
0.6685 -0.6163 0.3652
0.7216 -0.5548 0.3656
0.7691 -0.4887 0.3660
0.8106 -0.4186 0.3664
0.8456 -0.3449 0.3668
0.8739 -0.2683 0.3672
0.8953 -0.1895 0.3676
0.9096 -0.1089 0.3679
0.9166 -0.0273 0.3683
0.9162 0.0547 0.3686
0.9085 0.1364 0.3690
0.8934 0.2171 0.3693
0.8711 0.2962 0.3695
0.8417 0.3730 0.3698
0.8055 0.4469 0.3700
0.7628 0.5173 0.3702
0.7139 0.5835 0.3703
0.6591 0.6451 0.3704
0.5990 0.7015 0.3705
0.5341 0.7523 0.3705
0.4648 0.7970 0.3706
0.3918 0.8352 0.3705
0.3156 0.8667 0.3705
0.2369 0.8911 0.3703
0.1564 0.9084 0.3702
0.0746 0.9183 0.3700
-0.0076 0.9208 0.3698
-0.0897 0.9158 0.3696
-0.1710 0.9035 0.3693
-0.2508 0.8840 0.3690
-0.3284 0.8573 0.3687
-0.4032 0.8238 0.3684
-0.4747 0.7838 0.3680
-0.5422 0.7376 0.3677
-0.6053 0.6855 0.3673
-0.6634 0.6281 0.3669
-0.7160 0.5657 0.3665
-0.7628 0.4990 0.3661
-0.8034 0.4285 0.3657
-0.8375 0.3547 0.3653
-0.8649 0.2782 0.3649
-0.8854 0.1997 0.3645
-0.8988 0.1197 0.3642
-0.9050 0.0390 0.3638
-0.9040 -0.0419 0.3635
-0.8959 -0.1223 0.3632
-0.8807 -0.2017 0.3629
-0.8586 -0.2793 0.3626
-0.8297 -0.3546 0.3624
-0.7943 -0.4270 0.3622
-0.7526 -0.4959 0.3620
-0.7050 -0.5609 0.3618
-0.6520 -0.6214 0.3617
-0.5938 -0.6769 0.3617
-0.5309 -0.7271 0.3616
-0.4639 -0.7716 0.3616
-0.3932 -0.8100 0.3616
-0.3194 -0.8420 0.3617
-0.2430 -0.8674 0.3618
-0.1647 -0.8859 0.3619
-0.0850 -0.8975 0.3621
-0.0045 -0.9019 0.3623
0.0761 -0.8993 0.3625
0.1561 -0.8895 0.3627
0.2351 -0.8727 0.3630
0.3123 -0.8489 0.3633
0.3872 -0.8184 0.3636
0.4591 -0.7813 0.3640
0.5276 -0.7379 0.3643
0.5919 -0.6886 0.3647
0.6517 -0.6337 0.3651
0.7064 -0.5736 0.3655
0.7556 -0.5088 0.3659
0.7989 -0.4398 0.3663
0.8359 -0.3671 0.3667
0.8662 -0.2914 0.3671
0.8897 -0.2131 0.3675
0.9061 -0.1330 0.3678
0.9153 -0.0516 0.3682
0.9171 0.0303 0.3685
0.9115 0.1122 0.3689
0.8986 0.1932 0.3692
0.8784 0.2729 0.3695
0.8512 0.3504 0.3697
0.8170 0.4253 0.3699
0.7762 0.4968 0.3701
0.7290 0.5643 0.3703
0.6760 0.6273 0.3704
0.6174 0.6853 0.3705
0.5539 0.7378 0.3705
0.4858 0.7843 0.3706
0.4138 0.8245 0.3705
0.3385 0.8580 0.3705
0.2605 0.8846 0.3704
0.1805 0.9040 0.3703
0.0990 0.9161 0.3701
0.0168 0.9208 0.3699
-0.0654 0.9181 0.3697
-0.1470 0.9079 0.3694
-0.2273 0.8905 0.3691
-0.3056 0.8660 0.3688
-0.3813 0.8345 0.3685
-0.4539 0.7964 0.3681
-0.5226 0.7519 0.3678
-0.5870 0.7016 0.3674
-0.6466 0.6457 0.3670
-0.7009 0.5847 0.3666
-0.7495 0.5193 0.3662
-0.7920 0.4498 0.3658
-0.8281 0.3769 0.3654
-0.8575 0.3012 0.3650
-0.8801 0.2232 0.3647
-0.8956 0.1436 0.3643
-0.9039 0.0630 0.3639
-0.9051 -0.0179 0.3636
-0.8991 -0.0985 0.3633
-0.8860 -0.1782 0.3630
-0.8659 -0.2564 0.3627
-0.8390 -0.3325 0.3624
-0.8055 -0.4058 0.3622
-0.7656 -0.4758 0.3620
-0.7198 -0.5420 0.3619
-0.6683 -0.6039 0.3618
-0.6116 -0.6610 0.3617
-0.5501 -0.7128 0.3616
-0.4842 -0.7590 0.3616
-0.4145 -0.7992 0.3616
-0.3416 -0.8332 0.3617
-0.2659 -0.8605 0.3617
-0.1881 -0.8811 0.3619
-0.1088 -0.8948 0.3620
-0.0285 -0.9014 0.3622
0.0521 -0.9008 0.3624
0.1324 -0.8932 0.3627
0.2118 -0.8784 0.3629
0.2896 -0.8567 0.3632
0.3652 -0.8282 0.3635
0.4381 -0.7930 0.3639
0.5076 -0.7515 0.3642
0.5732 -0.7039 0.3646
0.6344 -0.6506 0.3650
0.6907 -0.5920 0.3654
0.7416 -0.5285 0.3658
0.7867 -0.4607 0.3662
0.8256 -0.3891 0.3666
0.8579 -0.3142 0.3670
0.8835 -0.2366 0.3673
0.9020 -0.1569 0.3677
0.9133 -0.0759 0.3681
0.9173 0.0060 0.3684
0.9140 0.0879 0.3688
0.9032 0.1693 0.3691
0.8852 0.2494 0.3694
0.8600 0.3277 0.3696
0.8279 0.4034 0.3699
0.7890 0.4759 0.3701
0.7437 0.5447 0.3702
0.6923 0.6091 0.3704
0.6354 0.6686 0.3705
0.5732 0.7228 0.3705
0.5065 0.7712 0.3706
0.4356 0.8133 0.3705
0.3612 0.8488 0.3705
0.2840 0.8775 0.3704
0.2044 0.8990 0.3703
0.1233 0.9133 0.3701
0.0413 0.9202 0.3700
-0.0410 0.9197 0.3697
-0.1228 0.9117 0.3695
-0.2036 0.8965 0.3692
-0.2825 0.8740 0.3689
-0.3591 0.8446 0.3686
-0.4327 0.8084 0.3683
-0.5026 0.7658 0.3679
-0.5684 0.7171 0.3675
-0.6295 0.6628 0.3671
-0.6854 0.6034 0.3667
-0.7357 0.5392 0.3663
-0.7800 0.4708 0.3659
-0.8181 0.3989 0.3655
-0.8495 0.3239 0.3652
-0.8741 0.2466 0.3648
-0.8917 0.1674 0.3644
-0.9022 0.0870 0.3640
-0.9055 0.0062 0.3637
-0.9016 -0.0746 0.3634
-0.8906 -0.1547 0.3631
-0.8726 -0.2334 0.3628
-0.8476 -0.3101 0.3625
-0.8161 -0.3843 0.3623
-0.7781 -0.4554 0.3621
-0.7340 -0.5228 0.3619
-0.6842 -0.5860 0.3618
-0.6290 -0.6445 0.3617
-0.5688 -0.6980 0.3616
-0.5042 -0.7459 0.3616
-0.4356 -0.7879 0.3616
-0.3636 -0.8238 0.3616
-0.2887 -0.8531 0.3617
-0.2114 -0.8757 0.3618
-0.1324 -0.8914 0.3620
-0.0524 -0.9001 0.3621
0.0282 -0.9017 0.3623
0.1086 -0.8962 0.3626
0.1883 -0.8835 0.3628
0.2667 -0.8639 0.3631
0.3430 -0.8374 0.3634
0.4168 -0.8041 0.3638
0.4873 -0.7644 0.3641
0.5542 -0.7186 0.3645
0.6168 -0.6670 0.3649
0.6745 -0.6099 0.3652
0.7271 -0.5478 0.3656
0.7739 -0.4813 0.3660
0.8147 -0.4107 0.3664
0.8490 -0.3367 0.3668
0.8766 -0.2599 0.3672
0.8973 -0.1808 0.3676
0.9107 -0.1001 0.3680
0.9169 -0.0184 0.3683
0.9157 0.0636 0.3687
0.9072 0.1452 0.3690
0.8913 0.2258 0.3693
0.8682 0.3046 0.3696
0.8381 0.3812 0.3698
0.8012 0.4547 0.3700
0.7578 0.5247 0.3702
0.7082 0.5904 0.3703
0.6529 0.6515 0.3704
0.5922 0.7073 0.3705
0.5268 0.7574 0.3705
0.4571 0.8014 0.3705
0.3837 0.8389 0.3705
0.3072 0.8697 0.3704
0.2283 0.8934 0.3703
0.1475 0.9098 0.3702
0.0657 0.9189 0.3700
-0.0165 0.9206 0.3698
-0.0986 0.9149 0.3696
-0.1797 0.9018 0.3693
-0.2593 0.8814 0.3690
-0.3367 0.8540 0.3687
-0.4112 0.8198 0.3684
-0.4822 0.7791 0.3680
-0.5493 0.7322 0.3676
-0.6118 0.6795 0.3673
-0.6693 0.6215 0.3669
-0.7214 0.5587 0.3665
-0.7675 0.4916 0.3661
-0.8074 0.4206 0.3657
-0.8408 0.3465 0.3653
-0.8675 0.2698 0.3649
-0.8872 0.1911 0.3645
-0.8998 0.1110 0.3641
-0.9052 0.0302 0.3638
-0.9035 -0.0507 0.3635
-0.8946 -0.1310 0.3631
-0.8786 -0.2102 0.3629
-0.8558 -0.2876 0.3626
-0.8262 -0.3626 0.3624
-0.7900 -0.4346 0.3622
-0.7477 -0.5031 0.3620
-0.6995 -0.5677 0.3618
-0.6459 -0.6277 0.3617
-0.5872 -0.6827 0.3617
-0.5238 -0.7323 0.3616
-0.4564 -0.7761 0.3616
-0.3853 -0.8138 0.3616
-0.3112 -0.8451 0.3617
-0.2346 -0.8697 0.3618
-0.1561 -0.8875 0.3619
-0.0763 -0.8983 0.3621
0.0042 -0.9020 0.3623
0.0848 -0.8986 0.3625
0.1648 -0.8880 0.3628
0.2436 -0.8705 0.3630
0.3206 -0.8459 0.3633
0.3951 -0.8147 0.3637
0.4667 -0.7769 0.3640
0.5348 -0.7329 0.3644
0.5986 -0.6829 0.3647
0.6579 -0.6274 0.3651
0.7120 -0.5668 0.3655
0.7606 -0.5015 0.3659
0.8032 -0.4321 0.3663
0.8395 -0.3591 0.3667
0.8691 -0.2830 0.3671
0.8919 -0.2045 0.3675
0.9075 -0.1242 0.3679
0.9158 -0.0427 0.3682
0.9168 0.0392 0.3686
0.9105 0.1210 0.3689
0.8968 0.2020 0.3692
0.8758 0.2814 0.3695
0.8478 0.3587 0.3697
0.8129 0.4332 0.3699
0.7713 0.5043 0.3701
0.7235 0.5714 0.3703
0.6699 0.6339 0.3704
0.6108 0.6913 0.3705
0.5467 0.7432 0.3705
0.4782 0.7890 0.3706
0.4058 0.8285 0.3705
0.3302 0.8613 0.3705
0.2519 0.8871 0.3704
0.1717 0.9057 0.3702
0.0901 0.9170 0.3701
0.0079 0.9209 0.3699
-0.0743 0.9173 0.3696
-0.1558 0.9064 0.3694
-0.2359 0.8882 0.3691
-0.3139 0.8629 0.3688
-0.3894 0.8307 0.3685
-0.4615 0.7918 0.3681
-0.5298 0.7467 0.3677
-0.5938 0.6958 0.3674
-0.6528 0.6393 0.3670
-0.7065 0.5779 0.3666
-0.7544 0.5119 0.3662
-0.7962 0.4421 0.3658
-0.8316 0.3688 0.3654
-0.8603 0.2928 0.3650
-0.8821 0.2146 0.3646
-0.8968 0.1349 0.3642
-0.9044 0.0542 0.3639
-0.9048 -0.0267 0.3635
-0.8980 -0.1072 0.3632
-0.8841 -0.1868 0.3629
-0.8633 -0.2648 0.3627
-0.8356 -0.3406 0.3624
-0.8014 -0.4135 0.3622
-0.7609 -0.4832 0.3620
-0.7145 -0.5489 0.3619
-0.6624 -0.6103 0.3618
-0.6051 -0.6669 0.3617
-0.5431 -0.7181 0.3616
-0.4768 -0.7637 0.3616
-0.4068 -0.8032 0.3616
-0.3335 -0.8365 0.3617
-0.2576 -0.8631 0.3618
-0.1796 -0.8829 0.3619
-0.1001 -0.8958 0.3620
-0.0197 -0.9016 0.3622
0.0609 -0.9003 0.3624
0.1411 -0.8919 0.3627
0.2203 -0.8764 0.3630
0.2979 -0.8539 0.3632
0.3733 -0.8247 0.3636
0.4458 -0.7888 0.3639
0.5149 -0.7466 0.3643
0.5801 -0.6983 0.3646
0.6408 -0.6445 0.3650
0.6965 -0.5853 0.3654
0.7468 -0.5214 0.3658
0.7912 -0.4531 0.3662
0.8294 -0.3811 0.3666
0.8610 -0.3059 0.3670
0.8858 -0.2280 0.3674
0.9036 -0.1482 0.3678
0.9141 -0.0670 0.3681
0.9173 0.0149 0.3685
0.9131 0.0968 0.3688
0.9016 0.1780 0.3691
0.8828 0.2580 0.3694
0.8568 0.3360 0.3697
0.8239 0.4114 0.3699
0.7844 0.4836 0.3701
0.7384 0.5519 0.3702
0.6864 0.6158 0.3704
0.6289 0.6748 0.3705
0.5662 0.7283 0.3705
0.4990 0.7760 0.3706
0.4277 0.8174 0.3705
0.3530 0.8522 0.3705
0.2754 0.8801 0.3704
0.1957 0.9009 0.3703
0.1145 0.9144 0.3701
0.0324 0.9205 0.3699
-0.0499 0.9192 0.3697
-0.1317 0.9104 0.3695
-0.2122 0.8944 0.3692
-0.2910 0.8711 0.3689
-0.3673 0.8409 0.3686
-0.4404 0.8041 0.3682
-0.5099 0.7608 0.3679
-0.5753 0.7115 0.3675
-0.6358 0.6566 0.3671
-0.6911 0.5966 0.3667
-0.7408 0.5320 0.3663
-0.7845 0.4632 0.3659
-0.8218 0.3909 0.3655
-0.8525 0.3157 0.3651
-0.8763 0.2380 0.3647
-0.8932 0.1587 0.3644
-0.9029 0.0783 0.3640
-0.9054 -0.0026 0.3636
-0.9008 -0.0834 0.3633
-0.8890 -0.1633 0.3630
-0.8702 -0.2418 0.3627
-0.8445 -0.3183 0.3625
-0.8123 -0.3922 0.3623
-0.7736 -0.4629 0.3621
-0.7289 -0.5298 0.3619
-0.6784 -0.5926 0.3618
-0.6227 -0.6506 0.3617
-0.5620 -0.7034 0.3616
-0.4969 -0.7508 0.3616
-0.4279 -0.7921 0.3616
-0.3556 -0.8273 0.3617
-0.2804 -0.8559 0.3617
-0.2029 -0.8778 0.3618
-0.1238 -0.8927 0.3620
-0.0437 -0.9007 0.3622
0.0369 -0.9015 0.3624
0.1173 -0.8952 0.3626
0.1969 -0.8818 0.3629
0.2750 -0.8613 0.3632
0.3511 -0.8341 0.3635
0.4246 -0.8001 0.3638
0.4948 -0.7598 0.3642
0.5612 -0.7133 0.3645
0.6233 -0.6610 0.3649
0.6805 -0.6034 0.3653
0.7325 -0.5408 0.3657
0.7786 -0.4738 0.3661
0.8187 -0.4029 0.3665
0.8523 -0.3285 0.3669
0.8792 -0.2514 0.3673
0.8991 -0.1721 0.3677
0.9117 -0.0913 0.3680
0.9171 -0.0095 0.3684
0.9152 0.0724 0.3687
0.9058 0.1540 0.3690
0.8891 0.2344 0.3693
0.8653 0.3131 0.3696
0.8344 0.3893 0.3698
0.7968 0.4625 0.3700
0.7527 0.5320 0.3702
0.7025 0.5973 0.3703
0.6465 0.6578 0.3704
0.5853 0.7130 0.3705
0.5194 0.7625 0.3705
0.4493 0.8058 0.3705
0.3755 0.8426 0.3705
0.2987 0.8726 0.3704
0.2196 0.8955 0.3703
0.1387 0.9112 0.3702
0.0568 0.9195 0.3700
-0.0255 0.9203 0.3698
-0.1075 0.9138 0.3695
-0.1885 0.8999 0.3693
-0.2678 0.8788 0.3690
-0.3449 0.8506 0.3687
-0.4191 0.8157 0.3683
-0.4897 0.7743 0.3680
-0.5563 0.7267 0.3676
-0.6183 0.6735 0.3672
-0.6752 0.6150 0.3668
-0.7266 0.5516 0.3664
-0.7721 0.4840 0.3660
-0.8114 0.4127 0.3656
-0.8441 0.3383 0.3652
-0.8700 0.2613 0.3648
-0.8889 0.1824 0.3645
-0.9007 0.1023 0.3641
-0.9054 0.0214 0.3637
-0.9029 -0.0594 0.3634
-0.8932 -0.1397 0.3631
-0.8765 -0.2187 0.3628
-0.8529 -0.2958 0.3626
-0.8225 -0.3705 0.3623
-0.7857 -0.4422 0.3621
-0.7428 -0.5104 0.3620
-0.6940 -0.5744 0.3618
-0.6398 -0.6339 0.3617
-0.5805 -0.6883 0.3616
-0.5167 -0.7373 0.3616
-0.4488 -0.7805 0.3616
-0.3774 -0.8175 0.3616
-0.3030 -0.8481 0.3617
-0.2261 -0.8720 0.3618
-0.1475 -0.8890 0.3619
-0.0676 -0.8990 0.3621
0.0130 -0.9020 0.3623
0.0935 -0.8978 0.3625
0.1734 -0.8865 0.3628
0.2520 -0.8681 0.3631
0.3288 -0.8429 0.3634
0.4031 -0.8109 0.3637
0.4743 -0.7724 0.3640
0.5419 -0.7277 0.3644
0.6053 -0.6771 0.3648
0.6640 -0.6211 0.3652
0.7176 -0.5599 0.3656
0.7655 -0.4942 0.3660
0.8075 -0.4243 0.3664
0.8430 -0.3509 0.3668
0.8719 -0.2746 0.3672
0.8939 -0.1959 0.3675
0.9087 -0.1154 0.3679
0.9163 -0.0339 0.3683
0.9165 0.0481 0.3686
0.9094 0.1298 0.3689
0.8949 0.2107 0.3692
0.8731 0.2899 0.3695
0.8443 0.3669 0.3698
0.8087 0.4411 0.3700
0.7665 0.5118 0.3702
0.7180 0.5784 0.3703
0.6637 0.6404 0.3704
0.6040 0.6972 0.3705
0.5395 0.7484 0.3705
0.4705 0.7936 0.3706
0.3978 0.8324 0.3705
0.3218 0.8644 0.3705
0.2433 0.8894 0.3704
0.1629 0.9073 0.3702
0.0812 0.9178 0.3701
-0.0010 0.9208 0.3698
-0.0832 0.9165 0.3696
-0.1645 0.9048 0.3694
-0.2444 0.8858 0.3691
-0.3222 0.8597 0.3688
-0.3974 0.8268 0.3684
-0.4691 0.7873 0.3681
-0.5370 0.7415 0.3677
-0.6004 0.6899 0.3673
-0.6589 0.6329 0.3669
-0.7120 0.5709 0.3665
-0.7593 0.5045 0.3661
-0.8004 0.4343 0.3657
-0.8350 0.3607 0.3653
-0.8630 0.2844 0.3650
-0.8840 0.2060 0.3646
-0.8980 0.1262 0.3642
-0.9048 0.0455 0.3638
-0.9044 -0.0354 0.3635
-0.8968 -0.1159 0.3632
-0.8822 -0.1954 0.3629
-0.8606 -0.2731 0.3626
-0.8322 -0.3486 0.3624
-0.7973 -0.4213 0.3622
-0.7562 -0.4905 0.3620
-0.7091 -0.5558 0.3619
-0.6564 -0.6167 0.3617
-0.5986 -0.6727 0.3617
-0.5361 -0.7233 0.3616
-0.4694 -0.7683 0.3616
-0.3990 -0.8072 0.3616
-0.3254 -0.8397 0.3617
-0.2492 -0.8656 0.3618
-0.1710 -0.8847 0.3619
-0.0914 -0.8968 0.3621
-0.0110 -0.9018 0.3622
0.0696 -0.8998 0.3625
0.1497 -0.8906 0.3627
0.2288 -0.8743 0.3630
0.3062 -0.8511 0.3633
0.3813 -0.8211 0.3636
0.4535 -0.7845 0.3639
0.5222 -0.7416 0.3643
0.5869 -0.6928 0.3647
0.6471 -0.6383 0.3651
0.7022 -0.5786 0.3654
0.7519 -0.5142 0.3658
0.7957 -0.4455 0.3662
0.8331 -0.3731 0.3666
0.8641 -0.2975 0.3670
0.8881 -0.2195 0.3674
0.9051 -0.1395 0.3678
0.9148 -0.0582 0.3682
0.9172 0.0237 0.3685
0.9122 0.1056 0.3688
0.8999 0.1868 0.3691
0.8803 0.2666 0.3694
0.8536 0.3443 0.3697
0.8200 0.4194 0.3699
0.7797 0.4912 0.3701
0.7330 0.5590 0.3703
0.6804 0.6224 0.3704
0.6223 0.6809 0.3705
0.5591 0.7338 0.3705
0.4914 0.7808 0.3706
0.4198 0.8215 0.3705
0.3447 0.8556 0.3705
0.2669 0.8827 0.3704
0.1869 0.9027 0.3703
0.1056 0.9154 0.3701
0.0234 0.9207 0.3699
-0.0588 0.9186 0.3697
-0.1405 0.9090 0.3694
-0.2209 0.8922 0.3692
-0.2994 0.8682 0.3689
-0.3754 0.8373 0.3685
-0.4482 0.7997 0.3682
-0.5173 0.7557 0.3678
-0.5821 0.7058 0.3674
-0.6421 0.6503 0.3671
-0.6968 0.5898 0.3667
-0.7458 0.5247 0.3663
-0.7888 0.4555 0.3659
-0.8254 0.3829 0.3655
-0.8554 0.3073 0.3651
-0.8785 0.2295 0.3647
-0.8946 0.1500 0.3643
-0.9035 0.0695 0.3640
-0.9052 -0.0114 0.3636
-0.8998 -0.0921 0.3633
-0.8873 -0.1719 0.3630
-0.8677 -0.2502 0.3627
-0.8414 -0.3264 0.3625
-0.8084 -0.4000 0.3622
-0.7690 -0.4703 0.3621
-0.7237 -0.5369 0.3619
-0.6726 -0.5991 0.3618
-0.6163 -0.6566 0.3617
-0.5552 -0.7089 0.3616
-0.4896 -0.7555 0.3616
-0.4203 -0.7962 0.3616
-0.3475 -0.8307 0.3617
-0.2721 -0.8586 0.3617
-0.1944 -0.8797 0.3619
-0.1152 -0.8939 0.3620
-0.0349 -0.9011 0.3622
0.0457 -0.9011 0.3624
0.1260 -0.8940 0.3626
0.2055 -0.8799 0.3629
0.2834 -0.8587 0.3632
0.3592 -0.8307 0.3635
0.4324 -0.7961 0.3638
0.7684 -0.4600 0.3661
0.8072 -0.3900 0.3665
0.8397 -0.3168 0.3669
0.8655 -0.2408 0.3673
0.8845 -0.1627 0.3677
0.8964 -0.0832 0.3680
0.9011 -0.0029 0.3684
0.8985 0.0776 0.3687
0.8887 0.1576 0.3690
0.8718 0.2365 0.3693
0.8478 0.3136 0.3695
0.8169 0.3883 0.3698
0.7794 0.4599 0.3700
0.7356 0.5279 0.3701
0.6858 0.5917 0.3703
0.6304 0.6507 0.3704
0.5699 0.7045 0.3704
0.5048 0.7526 0.3705
0.4356 0.7946 0.3705
0.3629 0.8303 0.3704
0.2873 0.8592 0.3703
0.2094 0.8811 0.3702
0.1298 0.8959 0.3701
0.0493 0.9035 0.3699
-0.0315 0.9038 0.3697
-0.1120 0.8968 0.3695
-0.1914 0.8826 0.3692
-0.2692 0.8613 0.3689
-0.3448 0.8331 0.3686
-0.4174 0.7983 0.3683
-0.4865 0.7571 0.3679
-0.5516 0.7100 0.3675
-0.6121 0.6572 0.3672
-0.6676 0.5993 0.3668
-0.7177 0.5368 0.3664
-0.7619 0.4700 0.3660
-0.8000 0.3997 0.3656
-0.8316 0.3264 0.3652
-0.8565 0.2506 0.3648
-0.8746 0.1730 0.3645
-0.8857 0.0941 0.3641
-0.8897 0.0147 0.3638
-0.8867 -0.0647 0.3634
-0.8766 -0.1435 0.3631
-0.8596 -0.2210 0.3629
-0.8359 -0.2967 0.3626
-0.8056 -0.3699 0.3624
-0.7689 -0.4401 0.3622
-0.7263 -0.5067 0.3620
-0.6779 -0.5693 0.3619
-0.6242 -0.6274 0.3618
-0.5656 -0.6804 0.3617
-0.5025 -0.7281 0.3617
-0.4355 -0.7701 0.3617
-0.3651 -0.8060 0.3617
-0.2918 -0.8355 0.3618
-0.2161 -0.8584 0.3619
-0.1386 -0.8746 0.3620
-0.0600 -0.8839 0.3622
0.0191 -0.8862 0.3624
0.0982 -0.8815 0.3626
0.1766 -0.8699 0.3629
0.2538 -0.8513 0.3631
0.3290 -0.8259 0.3634
0.4018 -0.7940 0.3638
0.4715 -0.7556 0.3641
0.5376 -0.7112 0.3645
0.5995 -0.6611 0.3648
0.6568 -0.6056 0.3652
0.7090 -0.5451 0.3656
0.7556 -0.4801 0.3660
0.7963 -0.4112 0.3664
0.8307 -0.3389 0.3668
0.8586 -0.2636 0.3672
0.8796 -0.1861 0.3675
0.8936 -0.1070 0.3679
0.9004 -0.0268 0.3683
0.9000 0.0537 0.3686
0.8924 0.1340 0.3689
0.8776 0.2132 0.3692
0.8557 0.2909 0.3695
0.8268 0.3664 0.3697
0.7912 0.4390 0.3699
0.7493 0.5081 0.3701
0.7012 0.5732 0.3702
0.6474 0.6337 0.3703
0.5884 0.6891 0.3704
0.5246 0.7389 0.3705
0.4566 0.7828 0.3705
0.3848 0.8204 0.3704
0.3100 0.8513 0.3704
0.2327 0.8753 0.3703
0.1536 0.8923 0.3701
0.0733 0.9020 0.3700
-0.0075 0.9045 0.3698
-0.0881 0.8996 0.3695
-0.1680 0.8875 0.3693
-0.2463 0.8683 0.3690
-0.3226 0.8422 0.3687
-0.3961 0.8093 0.3684
-0.4663 0.7700 0.3680
-0.5327 0.7246 0.3676
-0.5946 0.6734 0.3673
-0.6517 0.6170 0.3669
-0.7034 0.5558 0.3665
-0.7494 0.4903 0.3661
-0.7893 0.4210 0.3657
-0.8229 0.3485 0.3653
-0.8498 0.2733 0.3649
-0.8699 0.1962 0.3646
-0.8831 0.1176 0.3642
-0.8892 0.0383 0.3639
-0.8883 -0.0412 0.3635
-0.8803 -0.1202 0.3632
-0.8654 -0.1982 0.3629
-0.8436 -0.2744 0.3627
-0.8153 -0.3484 0.3624
-0.7805 -0.4195 0.3622
-0.7395 -0.4873 0.3621
-0.6928 -0.5511 0.3619
-0.6407 -0.6106 0.3618
-0.5835 -0.6652 0.3617
-0.5217 -0.7145 0.3617
-0.4558 -0.7582 0.3617
-0.3863 -0.7960 0.3617
-0.3138 -0.8274 0.3618
-0.2388 -0.8523 0.3619
-0.1618 -0.8705 0.3620
-0.0835 -0.8819 0.3621
-0.0044 -0.8863 0.3623
0.0747 -0.8837 0.3625
0.1534 -0.8741 0.3628
0.2310 -0.8575 0.3631
0.3069 -0.8341 0.3634
0.3804 -0.8041 0.3637
0.4511 -0.7677 0.3640
0.5183 -0.7250 0.3644
0.5816 -0.6766 0.3647
0.6403 -0.6226 0.3651
0.6941 -0.5635 0.3655
0.7424 -0.4999 0.3659
0.7849 -0.4321 0.3663
0.8212 -0.3607 0.3667
0.8510 -0.2862 0.3671
0.8741 -0.2094 0.3674
0.8902 -0.1306 0.3678
0.8991 -0.0507 0.3682
0.9009 0.0298 0.3685
0.8954 0.1102 0.3688
0.8827 0.1898 0.3691
0.8629 0.2681 0.3694
0.8361 0.3442 0.3696
0.8025 0.4177 0.3699
0.7624 0.4879 0.3700
0.7161 0.5543 0.3702
0.6640 0.6162 0.3703
0.6065 0.6732 0.3704
0.5440 0.7247 0.3705
0.4772 0.7704 0.3705
0.4065 0.8099 0.3705
0.3325 0.8428 0.3704
0.2559 0.8689 0.3703
0.1773 0.8880 0.3702
0.0973 0.8999 0.3700
0.0165 0.9045 0.3698
-0.0642 0.9018 0.3696
-0.1444 0.8919 0.3694
-0.2232 0.8748 0.3691
-0.3002 0.8507 0.3688
-0.3746 0.8197 0.3685
-0.4458 0.7823 0.3681
-0.5134 0.7387 0.3678
-0.5767 0.6892 0.3674
-0.6353 0.6343 0.3670
-0.6886 0.5745 0.3666
-0.7364 0.5102 0.3662
-0.7781 0.4419 0.3658
-0.8136 0.3703 0.3654
-0.8425 0.2959 0.3651
-0.8647 0.2193 0.3647
-0.8799 0.1411 0.3643
-0.8881 0.0619 0.3640
-0.8893 -0.0176 0.3636
-0.8834 -0.0968 0.3633
-0.8706 -0.1751 0.3630
-0.8508 -0.2520 0.3628
-0.8244 -0.3267 0.3625
-0.7915 -0.3987 0.3623
-0.7523 -0.4675 0.3621
-0.7073 -0.5326 0.3620
-0.6567 -0.5934 0.3618
-0.6010 -0.6495 0.3618
-0.5405 -0.7005 0.3617
-0.4758 -0.7459 0.3617
-0.4074 -0.7854 0.3617
-0.3357 -0.8187 0.3617
-0.2613 -0.8456 0.3618
-0.1848 -0.8658 0.3619
-0.1069 -0.8792 0.3621
-0.0280 -0.8857 0.3623
0.0512 -0.8852 0.3625
0.1301 -0.8776 0.3627
0.2081 -0.8632 0.3630
0.2845 -0.8418 0.3633
0.3588 -0.8137 0.3636
0.4304 -0.7792 0.3639
0.4987 -0.7383 0.3643
0.5632 -0.6916 0.3646
0.6234 -0.6392 0.3650
0.6786 -0.5816 0.3654
0.7286 -0.5193 0.3658
0.7729 -0.4526 0.3662
0.8111 -0.3822 0.3666
0.8429 -0.3087 0.3669
0.8679 -0.2324 0.3673
0.8861 -0.1542 0.3677
0.8972 -0.0745 0.3681
0.9011 0.0058 0.3684
0.8978 0.0863 0.3687
0.8873 0.1663 0.3690
0.8695 0.2450 0.3693
0.8448 0.3219 0.3696
0.8132 0.3962 0.3698
0.7750 0.4675 0.3700
0.7305 0.5350 0.3702
0.6800 0.5983 0.3703
0.6241 0.6568 0.3704
0.5631 0.7100 0.3704
0.4975 0.7575 0.3705
0.4279 0.7988 0.3705
0.3548 0.8337 0.3704
0.2789 0.8619 0.3703
0.2008 0.8831 0.3702
0.1211 0.8971 0.3701
0.0406 0.9039 0.3699
-0.0403 0.9034 0.3697
-0.1207 0.8956 0.3694
-0.2000 0.8806 0.3692
-0.2776 0.8585 0.3689
-0.3528 0.8296 0.3686
-0.4250 0.7941 0.3682
-0.4938 0.7523 0.3679
-0.5584 0.7045 0.3675
-0.6184 0.6512 0.3671
-0.6733 0.5927 0.3667
-0.7228 0.5297 0.3663
-0.7664 0.4626 0.3659
-0.8037 0.3919 0.3656
-0.8346 0.3183 0.3652
-0.8588 0.2422 0.3648
-0.8761 0.1645 0.3644
-0.8864 0.0855 0.3641
-0.8897 0.0060 0.3637
-0.8859 -0.0733 0.3634
-0.8751 -0.1520 0.3631
-0.8574 -0.2293 0.3628
-0.8329 -0.3047 0.3626
-0.8019 -0.3776 0.3624
-0.7646 -0.4475 0.3622
-0.7213 -0.5137 0.3620
-0.6723 -0.5758 0.3619
-0.6181 -0.6334 0.3618
-0.5590 -0.6859 0.3617
-0.4955 -0.7330 0.3617
-0.4281 -0.7743 0.3617
-0.3573 -0.8095 0.3617
-0.2837 -0.8383 0.3618
-0.2078 -0.8605 0.3619
-0.1301 -0.8760 0.3620
-0.0515 -0.8845 0.3622
0.0277 -0.8861 0.3624
0.1067 -0.8806 0.3626
0.1851 -0.8682 0.3629
0.2620 -0.8489 0.3632
0.3370 -0.8228 0.3635
0.4095 -0.7901 0.3638
0.4788 -0.7511 0.3641
0.5445 -0.7061 0.3645
0.6060 -0.6553 0.3649
0.6627 -0.5992 0.3653
0.7143 -0.5383 0.3656
0.7603 -0.4728 0.3660
0.8004 -0.4035 0.3664
0.8341 -0.3308 0.3668
0.8612 -0.2553 0.3672
0.8814 -0.1776 0.3676
0.8947 -0.0983 0.3679
0.9007 -0.0181 0.3683
0.8995 0.0624 0.3686
0.8911 0.1426 0.3689
0.8755 0.2218 0.3692
0.8529 0.2992 0.3695
0.8233 0.3744 0.3697
0.7870 0.4467 0.3699
0.7443 0.5154 0.3701
0.6956 0.5800 0.3703
0.6413 0.6399 0.3704
0.5817 0.6947 0.3704
0.5174 0.7440 0.3705
0.4489 0.7872 0.3705
0.3768 0.8240 0.3704
0.3017 0.8542 0.3704
0.2242 0.8775 0.3703
0.1449 0.8937 0.3701
0.0646 0.9026 0.3699
-0.0163 0.9043 0.3697
-0.0968 0.8987 0.3695
-0.1766 0.8858 0.3692
-0.2547 0.8658 0.3690
-0.3307 0.8389 0.3686
-0.4039 0.8053 0.3683
-0.4737 0.7653 0.3680
-0.5396 0.7193 0.3676
-0.6011 0.6676 0.3672
-0.6576 0.6106 0.3668
-0.7087 0.5489 0.3665
-0.7540 0.4829 0.3661
-0.7933 0.4133 0.3657
-0.8261 0.3404 0.3653
-0.8523 0.2650 0.3649
-0.8717 0.1877 0.3645
-0.8841 0.1091 0.3642
-0.8895 0.0297 0.3638
-0.8878 -0.0498 0.3635
-0.8790 -0.1287 0.3632
-0.8634 -0.2065 0.3629
-0.8409 -0.2826 0.3627
-0.8118 -0.3563 0.3624
-0.7763 -0.4271 0.3622
-0.7347 -0.4944 0.3620
-0.6874 -0.5578 0.3619
-0.6347 -0.6168 0.3618
-0.5770 -0.6708 0.3617
-0.5148 -0.7196 0.3617
-0.4485 -0.7626 0.3617
-0.3786 -0.7997 0.3617
-0.3058 -0.8304 0.3618
-0.2305 -0.8546 0.3619
-0.1534 -0.8721 0.3620
-0.0749 -0.8827 0.3622
0.0042 -0.8863 0.3623
0.0833 -0.8830 0.3626
0.1619 -0.8726 0.3628
0.2393 -0.8553 0.3631
0.3150 -0.8312 0.3634
0.3883 -0.8005 0.3637
0.4586 -0.7633 0.3640
0.5254 -0.7201 0.3644
0.5882 -0.6710 0.3648
0.6464 -0.6164 0.3651
0.6996 -0.5569 0.3655
0.7473 -0.4927 0.3659
0.7891 -0.4245 0.3663
0.8248 -0.3527 0.3667
0.8538 -0.2780 0.3671
0.8761 -0.2009 0.3675
0.8915 -0.1220 0.3678
0.8997 -0.0420 0.3682
0.9007 0.0385 0.3685
0.8944 0.1189 0.3689
0.8809 0.1984 0.3691
0.8603 0.2764 0.3694
0.8328 0.3523 0.3697
0.7985 0.4255 0.3699
0.7577 0.4953 0.3701
0.7107 0.5612 0.3702
0.6580 0.6226 0.3703
0.5999 0.6790 0.3704
0.5370 0.7300 0.3705
0.4697 0.7750 0.3705
0.3986 0.8138 0.3704
0.3243 0.8460 0.3704
0.2475 0.8713 0.3703
0.1686 0.8896 0.3702
0.0885 0.9007 0.3700
0.0078 0.9046 0.3698
-0.0730 0.9011 0.3696
-0.1530 0.8904 0.3693
-0.2317 0.8725 0.3690
-0.3084 0.8476 0.3687
-0.3825 0.8160 0.3684
-0.4534 0.7779 0.3681
-0.5205 0.7336 0.3677
-0.5833 0.6835 0.3673
-0.6413 0.6281 0.3670
-0.6941 0.5677 0.3666
-0.7412 0.5029 0.3662
-0.7823 0.4343 0.3658
-0.8170 0.3624 0.3654
-0.8453 0.2877 0.3650
-0.8667 0.2109 0.3646
-0.8811 0.1325 0.3643
-0.8886 0.0533 0.3639
-0.8890 -0.0262 0.3636
-0.8824 -0.1054 0.3633
-0.8687 -0.1836 0.3630
-0.8483 -0.2602 0.3627
-0.8211 -0.3346 0.3625
-0.7875 -0.4064 0.3623
-0.7477 -0.4748 0.3621
-0.7021 -0.5394 0.3619
-0.6509 -0.5997 0.3618
-0.5946 -0.6553 0.3617
-0.5337 -0.7057 0.3617
-0.4685 -0.7504 0.3617
-0.3997 -0.7893 0.3617
-0.3277 -0.8220 0.3617
-0.2531 -0.8481 0.3618
-0.1765 -0.8676 0.3620
-0.0983 -0.8803 0.3621
-0.0194 -0.8860 0.3623
0.0598 -0.8847 0.3625
0.1386 -0.8764 0.3627
0.2165 -0.8612 0.3630
0.2927 -0.8391 0.3633
0.3668 -0.8103 0.3636
0.4380 -0.7750 0.3639
0.5059 -0.7335 0.3643
0.5700 -0.6861 0.3647
0.6296 -0.6332 0.3650
0.6843 -0.5751 0.3654
0.7337 -0.5122 0.3658
0.7773 -0.4452 0.3662
0.8148 -0.3744 0.3666
0.8459 -0.3005 0.3670
0.8702 -0.2240 0.3674
0.8877 -0.1456 0.3677
0.8980 -0.0658 0.3681
0.9011 0.0146 0.3684
0.8970 0.0950 0.3688
0.8857 0.1749 0.3691
0.8672 0.2534 0.3693
0.8417 0.3300 0.3696
0.8093 0.4041 0.3698
0.7704 0.4750 0.3700
0.7253 0.5421 0.3702
0.6742 0.6049 0.3703
0.6177 0.6628 0.3704
0.5562 0.7154 0.3704
0.4901 0.7622 0.3705
0.4201 0.8029 0.3705
0.3467 0.8371 0.3704
0.2705 0.8645 0.3703
0.1922 0.8849 0.3702
0.1124 0.8982 0.3701
0.0318 0.9042 0.3699
-0.0490 0.9029 0.3696
-0.1293 0.8943 0.3694
-0.2085 0.8785 0.3691
-0.2858 0.8557 0.3688
-0.3608 0.8261 0.3685
-0.4327 0.7899 0.3682
-0.5010 0.7474 0.3678
-0.5651 0.6990 0.3675
-0.6246 0.6451 0.3671
-0.6790 0.5861 0.3667
-0.7278 0.5226 0.3663
-0.7707 0.4551 0.3659
-0.8074 0.3841 0.3655
-0.8376 0.3101 0.3651
-0.8610 0.2339 0.3647
-0.8776 0.1559 0.3644
-0.8871 0.0769 0.3640
-0.8896 -0.0026 0.3637
-0.8851 -0.0819 0.3634
-0.8735 -0.1605 0.3631
-0.8551 -0.2376 0.3628
-0.8299 -0.3128 0.3626
-0.7982 -0.3854 0.3623
-0.7602 -0.4548 0.3621
-0.7162 -0.5206 0.3620
-0.6667 -0.5823 0.3619
-0.6119 -0.6393 0.3618
-0.5523 -0.6913 0.3617
-0.4883 -0.7377 0.3617
-0.4205 -0.7784 0.3617
-0.3494 -0.8129 0.3617
-0.2755 -0.8410 0.3618
-0.1994 -0.8625 0.3619
-0.1217 -0.8772 0.3621
-0.0429 -0.8850 0.3622
0.0363 -0.8858 0.3624
0.1153 -0.8796 0.3627
0.1935 -0.8664 0.3629
0.2703 -0.8463 0.3632
0.3450 -0.8195 0.3635
0.4172 -0.7862 0.3638
0.4862 -0.7465 0.3642
0.5514 -0.7008 0.3645
0.6124 -0.6495 0.3649
0.6686 -0.5928 0.3653
0.7196 -0.5314 0.3657
0.7650 -0.4655 0.3661
0.8043 -0.3958 0.3665
0.8373 -0.3228 0.3669
0.8637 -0.2470 0.3673
0.8832 -0.1691 0.3676
0.8957 -0.0896 0.3680
0.9009 -0.0094 0.3683
0.8990 0.0712 0.3687
0.8898 0.1513 0.3690
0.8734 0.2303 0.3693
0.8500 0.3075 0.3695
0.8196 0.3824 0.3698
0.7827 0.4543 0.3700
0.7393 0.5226 0.3701
0.6900 0.5867 0.3703
0.6350 0.6461 0.3704
0.5750 0.7004 0.3704
0.5102 0.7490 0.3705
0.4413 0.7915 0.3705
0.3688 0.8276 0.3704
0.2934 0.8571 0.3704
0.2157 0.8796 0.3702
0.1363 0.8950 0.3701
0.0558 0.9032 0.3699
-0.0250 0.9040 0.3697
-0.1055 0.8976 0.3695
-0.1851 0.8840 0.3692
-0.2631 0.8632 0.3689
-0.3388 0.8356 0.3686
-0.4117 0.8013 0.3683
-0.4811 0.7606 0.3679
-0.5465 0.7139 0.3676
-0.6074 0.6616 0.3672
-0.6634 0.6041 0.3668
-0.7139 0.5419 0.3664
-0.7586 0.4755 0.3660
-0.7972 0.4055 0.3656
-0.8293 0.3324 0.3652
-0.8548 0.2567 0.3649
-0.8734 0.1792 0.3645
-0.8850 0.1005 0.3641
-0.8896 0.0211 0.3638
-0.8871 -0.0584 0.3635
-0.8777 -0.1372 0.3632
-0.8612 -0.2149 0.3629
-0.8381 -0.2907 0.3626
-0.8083 -0.3641 0.3624
-0.7721 -0.4345 0.3622
-0.7299 -0.5015 0.3620
-0.6820 -0.5644 0.3619
-0.6287 -0.6229 0.3618
-0.5704 -0.6764 0.3617
-0.5078 -0.7245 0.3617
-0.4410 -0.7669 0.3617
-0.3709 -0.8033 0.3617
-0.2977 -0.8334 0.3618
-0.2222 -0.8569 0.3619
-0.1449 -0.8736 0.3620
-0.0664 -0.8834 0.3622
0.0128 -0.8863 0.3624
0.0919 -0.8822 0.3626
0.1704 -0.8711 0.3628
0.2476 -0.8530 0.3631
0.3231 -0.8282 0.3634
0.3960 -0.7968 0.3637
0.4660 -0.7589 0.3641
0.5324 -0.7150 0.3644
0.5947 -0.6653 0.3648
0.6524 -0.6102 0.3652
0.7050 -0.5501 0.3656
0.7521 -0.4855 0.3660
0.7933 -0.4169 0.3664
0.8282 -0.3448 0.3668
0.8566 -0.2698 0.3671
0.8781 -0.1924 0.3675
0.8927 -0.1134 0.3679
0.9001 -0.0333 0.3682
0.9003 0.0473 0.3686
0.8933 0.1275 0.3689
0.8790 0.2069 0.3692
0.8577 0.2848 0.3694
0.8294 0.3604 0.3697
0.7943 0.4333 0.3699
0.7529 0.5027 0.3701
0.7053 0.5681 0.3702
0.6519 0.6290 0.3703
0.5933 0.6848 0.3704
0.5299 0.7351 0.3705
0.4622 0.7795 0.3705
0.3907 0.8176 0.3704
0.3161 0.8491 0.3704
0.2390 0.8736 0.3703
0.1600 0.8912 0.3701
0.0798 0.9015 0.3700
-0.0010 0.9045 0.3698
-0.0817 0.9003 0.3696
-0.1616 0.8888 0.3693
-0.2401 0.8701 0.3690
-0.3166 0.8445 0.3687
-0.3903 0.8122 0.3684
-0.4608 0.7734 0.3680
-0.5275 0.7284 0.3677
-0.5898 0.6777 0.3673
-0.6473 0.6217 0.3669
-0.6995 0.5609 0.3665
-0.7459 0.4957 0.3661
-0.7864 0.4267 0.3657
-0.8204 0.3544 0.3654
-0.8479 0.2794 0.3650
-0.8686 0.2024 0.3646
-0.8823 0.1240 0.3642
-0.8890 0.0447 0.3639
-0.8886 -0.0348 0.3636
-0.8812 -0.1139 0.3632
-0.8668 -0.1920 0.3630
-0.8456 -0.2684 0.3627
-0.8178 -0.3426 0.3625
-0.7835 -0.4139 0.3623
-0.7430 -0.4820 0.3621
-0.6968 -0.5462 0.3619
-0.6450 -0.6060 0.3618
-0.5883 -0.6610 0.3617
-0.5268 -0.7108 0.3617
-0.4613 -0.7550 0.3617
-0.3921 -0.7932 0.3617
-0.3197 -0.8251 0.3618
-0.2449 -0.8506 0.3618
-0.1680 -0.8693 0.3620
-0.0898 -0.8812 0.3621
-0.0108 -0.8862 0.3623
0.0684 -0.8841 0.3625
0.1471 -0.8751 0.3628
0.2248 -0.8591 0.3630
0.3009 -0.8363 0.3633
0.3746 -0.8068 0.3636
0.4456 -0.7708 0.3640
0.5131 -0.7287 0.3643
0.5767 -0.6807 0.3647
0.6358 -0.6271 0.3651
0.6899 -0.5685 0.3655
0.7387 -0.5051 0.3659
0.7817 -0.4377 0.3662
0.8185 -0.3665 0.3666
0.8489 -0.2923 0.3670
0.8725 -0.2156 0.3674
0.8891 -0.1370 0.3678
0.8987 -0.0571 0.3681
0.9010 0.0233 0.3685
0.8961 0.1037 0.3688
0.8840 0.1835 0.3691
0.8647 0.2618 0.3694
0.8385 0.3382 0.3696
0.8054 0.4120 0.3698
0.7658 0.4825 0.3700
0.7200 0.5491 0.3702
0.6684 0.6114 0.3703
0.6113 0.6688 0.3704
0.5492 0.7208 0.3705
0.4827 0.7670 0.3705
0.4123 0.8070 0.3705
0.3386 0.8404 0.3704
0.2621 0.8671 0.3703
0.1836 0.8867 0.3702
0.1037 0.8992 0.3700
0.0230 0.9044 0.3698
-0.0578 0.9023 0.3696
-0.1380 0.8929 0.3694
-0.2170 0.8764 0.3691
-0.2941 0.8528 0.3688
-0.3687 0.8225 0.3685
-0.4403 0.7856 0.3681
-0.5081 0.7424 0.3678
-0.5718 0.6934 0.3674
-0.6308 0.6389 0.3670
-0.6845 0.5794 0.3666
-0.7327 0.5155 0.3663
-0.7750 0.4475 0.3659
-0.8110 0.3762 0.3655
-0.8404 0.3020 0.3651
-0.8632 0.2255 0.3647
-0.8790 0.1474 0.3643
-0.8877 0.0683 0.3640
-0.8895 -0.0112 0.3637
-0.8842 -0.0905 0.3633
-0.8718 -0.1689 0.3630
-0.8527 -0.2459 0.3628
-0.8267 -0.3208 0.3625
-0.7943 -0.3931 0.3623
-0.7557 -0.4622 0.3621
-0.7111 -0.5275 0.3620
-0.6610 -0.5887 0.3618
-0.6056 -0.6452 0.3618
-0.5455 -0.6966 0.3617
-0.4811 -0.7424 0.3617
-0.4130 -0.7824 0.3617
-0.3415 -0.8163 0.3617
-0.2674 -0.8437 0.3618
-0.1910 -0.8645 0.3619
-0.1132 -0.8784 0.3621
-0.0343 -0.8854 0.3623
0.0449 -0.8855 0.3625
0.1238 -0.8785 0.3627
0.2019 -0.8646 0.3630
0.2785 -0.8438 0.3632
0.3530 -0.8162 0.3635
0.4248 -0.7822 0.3639
0.7551 -0.4521 0.3661
0.7932 -0.3833 0.3665
0.8251 -0.3113 0.3669
0.8505 -0.2366 0.3673
0.8691 -0.1599 0.3676
0.8808 -0.0818 0.3680
0.8853 -0.0028 0.3683
0.8828 0.0763 0.3686
0.8732 0.1549 0.3689
0.8566 0.2324 0.3692
0.8330 0.3081 0.3695
0.8026 0.3815 0.3697
0.7658 0.4519 0.3699
0.7227 0.5186 0.3701
0.6738 0.5813 0.3702
0.6194 0.6393 0.3703
0.5599 0.6921 0.3704
0.4960 0.7394 0.3704
0.4280 0.7807 0.3704
0.3565 0.8157 0.3703
0.2822 0.8441 0.3703
0.2057 0.8657 0.3702
0.1276 0.8802 0.3700
0.0485 0.8877 0.3698
-0.0310 0.8880 0.3696
-0.1100 0.8811 0.3694
-0.1881 0.8671 0.3691
-0.2645 0.8462 0.3689
-0.3387 0.8186 0.3685
-0.4101 0.7844 0.3682
-0.4780 0.7439 0.3679
-0.5420 0.6976 0.3675
-0.6015 0.6458 0.3671
-0.6560 0.5889 0.3668
-0.7053 0.5274 0.3664
-0.7487 0.4619 0.3660
-0.7861 0.3928 0.3656
-0.8172 0.3207 0.3652
-0.8417 0.2463 0.3648
-0.8595 0.1700 0.3645
-0.8704 0.0925 0.3641
-0.8744 0.0144 0.3638
-0.8714 -0.0636 0.3635
-0.8615 -0.1410 0.3632
-0.8449 -0.2172 0.3629
-0.8215 -0.2916 0.3627
-0.7918 -0.3635 0.3624
-0.7557 -0.4325 0.3623
-0.7138 -0.4980 0.3621
-0.6663 -0.5595 0.3620
-0.6135 -0.6166 0.3619
-0.5559 -0.6688 0.3618
-0.4939 -0.7157 0.3618
-0.4281 -0.7569 0.3618
-0.3588 -0.7922 0.3618
-0.2868 -0.8212 0.3619
-0.2124 -0.8437 0.3620
-0.1363 -0.8596 0.3621
-0.0590 -0.8688 0.3623
0.0188 -0.8710 0.3624
0.0965 -0.8664 0.3627
0.1736 -0.8549 0.3629
0.2494 -0.8366 0.3632
0.3233 -0.8117 0.3635
0.3948 -0.7803 0.3638
0.4634 -0.7426 0.3641
0.5283 -0.6990 0.3645
0.5892 -0.6497 0.3649
0.6455 -0.5951 0.3652
0.6967 -0.5357 0.3656
