ply
format ascii 1.0
element vertex 1955
property float32 x
property float32 y
property float32 z
end_header
-20.7167 1.0193 -1.0230
-20.7128 -0.8338 -1.0224
-20.7089 -2.6995 -1.0300
-33.3658 -10.6295 -1.7271
-25.3297 -10.6437 -1.3551
-22.0135 -11.6624 -1.2287
-30.8532 -20.0638 -1.8151
-25.5803 -20.0991 -1.6045
-23.4173 -22.0516 -1.5864
-23.4105 -26.3690 -1.7391
-23.4024 -31.6532 -1.9415
9.3180 -35.4149 -1.8061
19.0791 -40.9441 -2.2278
20.2949 -35.0014 -1.9955
15.6819 -22.2074 -1.3408
15.7130 -18.4954 -1.1969
15.5100 -15.2566 -1.0730
18.5618 -15.2502 -1.1848
22.3573 -15.2423 -1.3345
27.2961 -15.2320 -1.5417
34.1141 -15.2178 -1.8423
16.2560 -5.5718 -0.8475
16.3229 -4.0086 -0.8290
16.2496 -2.4795 -0.8107
16.2465 -1.0090 -0.8028
16.2435 0.4446 -0.8014
16.2404 1.9049 -0.8065
12.1211 2.5348 -0.6107
12.1355 3.6948 -0.6256
12.0452 4.8801 -0.6410
12.1134 6.2192 -0.6716
12.0565 7.6214 -0.7035
12.0637 9.2302 -0.7492
12.0074 11.0190 -0.8038
11.9319 13.0964 -0.8738
10.2613 13.5119 -0.8368
11.9195 19.0070 -1.1065
17.7587 44.2908 -2.3535
-20.8582 30.3592 -1.8166
-20.7773 25.1040 -1.6072
-20.8388 21.0328 -1.4603
-23.1664 19.5381 -1.4946
-27.8666 19.5283 -1.6782
-20.7395 11.9257 -1.1799
-20.7345 9.5712 -1.1263
-20.7300 7.4047 -1.0857
-20.7258 5.3734 -1.0560
-20.7217 3.4353 -1.0359
-20.7178 1.5546 -1.0247
-20.7139 -0.3003 -1.0217
-20.7101 -2.1594 -1.0270
-25.8790 -10.0991 -1.3701
-22.4758 -11.1765 -1.2380
-33.7804 -20.7505 -1.9553
-27.8437 -20.7413 -1.7124
-23.5626 -21.0711 -1.5590
-23.4126 -25.0428 -1.6908
-23.4067 -30.0116 -1.8771
19.0895 -34.9662 -1.9648
15.7261 -23.5325 -1.3959
15.7151 -19.4930 -1.2349
15.7084 -16.2680 -1.1153
17.6195 -15.2522 -1.1494
21.1692 -15.2448 -1.2866
25.7232 -15.2353 -1.4745
31.8924 -15.2224 -1.7429
16.2570 -6.0439 -0.8554
16.3239 -4.4571 -0.8346
16.2505 -2.9093 -0.8142
16.2474 -1.4296 -0.8044
16.3145 0.0266 -0.8046
16.2413 1.4824 -0.8043
12.1217 2.2110 -0.6077
12.1363 3.3563 -0.6210
12.1169 4.5497 -0.6383
9.2864 4.4697 -0.5083
10.4089 6.2109 -0.5978
12.1080 8.7796 -0.7376
12.1044 10.5473 -0.7918
11.9332 12.4393 -0.8502
10.8026 13.4894 -0.8523
11.9235 17.9689 -1.0636
11.9133 21.9919 -1.2336
19.4213 45.0454 -2.4193
-20.8619 32.1042 -1.8883
-20.7698 26.4522 -1.6587
-20.8411 22.1470 -1.4999
-21.9950 19.5405 -1.4510
-26.3986 19.5313 -1.6196
-20.7410 12.6477 -1.1981
-20.7359 10.2271 -1.1403
-20.7313 8.0125 -1.0962
-20.7270 5.9470 -1.0635
-20.7229 3.9859 -1.0408
-20.7189 2.0920 -1.0270
-20.7150 0.2328 -1.0217
-20.7112 -1.6220 -1.0246
-34.0021 -12.2705 -1.7828
-26.9127 -12.5296 -1.4641
-21.9726 -12.7304 -1.2524
-29.4000 -20.7461 -1.7747
-24.4186 -20.7308 -1.5798
-22.7759 -23.1385 -1.6013
-23.3270 -28.3727 -1.8116
-23.3956 -34.2915 -2.0474
19.0713 -37.1765 -2.0607
15.5059 -24.5475 -1.4320
15.7017 -20.5361 -1.2750
15.7102 -17.1308 -1.1464
16.7314 -15.2540 -1.1167
20.0629 -15.2471 -1.2428
24.2808 -15.2383 -1.4138
29.8969 -15.2266 -1.6547
16.2580 -6.5252 -0.8640
16.3248 -4.9121 -0.8408
16.2514 -3.3432 -0.8183
16.2483 -1.8521 -0.8066
16.3154 -0.3934 -0.8049
16.2422 1.0619 -0.8028
12.3021 1.9182 -0.6141
12.1370 3.0226 -0.6169
12.1176 4.1976 -0.6325
12.1150 5.4518 -0.6552
12.0424 6.7716 -0.6814
12.1090 8.3134 -0.7244
12.0177 9.9395 -0.7692
11.9345 11.8164 -0.8283
11.3642 13.4653 -0.8690
11.9237 17.0028 -1.0242
11.9160 20.7063 -1.1783
16.8074 47.0032 -2.4619
-20.8566 33.9789 -1.9663
-20.8533 28.0138 -1.7224
-20.8435 23.3240 -1.5427
-20.8894 19.5428 -1.4108
-25.0290 19.5342 -1.5659
-30.2373 19.5233 -1.7751
-20.7373 10.8999 -1.1554
-20.7326 8.6325 -1.1076
-20.7282 6.5291 -1.0718
-20.7240 4.5420 -1.0464
-20.7201 2.6323 -1.0301
-20.7162 0.7662 -1.0224
-20.7123 -1.0867 -1.0229
-20.7084 -2.9565 -1.0317
-33.8327 -11.2342 -1.7582
-25.2169 -10.9597 -1.3561
-21.8050 -11.8947 -1.2250
-30.8521 -20.6025 -1.8297
-25.5685 -20.5989 -1.6194
-23.4165 -22.5955 -1.6049
-23.4095 -27.0243 -1.7634
-23.4003 -32.4709 -1.9740
19.0765 -39.6679 -2.1709
20.8682 -35.0003 -2.0097
15.7197 -21.6947 -1.3213
15.7121 -18.0439 -1.1800
15.8921 -15.2558 -1.0865
19.0288 -15.2492 -1.2027
22.9517 -15.2411 -1.3588
28.0925 -15.2303 -1.5760
35.2574 -15.2154 -1.8939
16.2556 -5.3512 -0.8440
16.2523 -3.7818 -0.8230
16.2491 -2.2771 -0.8092
16.2461 -0.8103 -0.8023
16.2431 0.6428 -0.8017
14.3455 1.8602 -0.7134
12.1337 2.6922 -0.6130
12.1183 3.8515 -0.6271
12.1158 5.0814 -0.6480
12.0058 6.3501 -0.6699
12.1099 7.8634 -0.7121
12.1065 9.4992 -0.7590
12.1026 11.3813 -0.8194
10.3080 11.5950 -0.7652
10.0415 13.5624 -0.8323
11.9185 19.5301 -1.1284
17.9275 46.3390 -2.4505
-20.7895 35.9105 -2.0465
-20.8566 29.5777 -1.7850
-20.8461 24.5714 -1.5892
-20.8377 20.5252 -1.4425
-23.7463 19.5369 -1.5166
-28.5999 19.5268 -1.7079
-20.7388 11.5913 -1.1717
-20.7339 9.2660 -1.1201
-20.7294 7.1207 -1.0810
-20.7252 5.1046 -1.0527
-20.7212 3.1762 -1.0339
-20.7173 1.3008 -1.0238
-20.7134 -0.5529 -1.0219
-20.7095 -2.4148 -1.0283
-17.6644 -3.6815 -0.8899
-36.0659 -10.9539 -1.8590
-25.6252 -10.3616 -1.3632
-22.2560 -11.4076 -1.2335
-32.8735 -20.7495 -1.9173
-27.1438 -20.7392 -1.6848
-23.4512 -21.4917 -1.5688
-23.4116 -25.6617 -1.7132
-23.4047 -30.7755 -1.9069
19.6670 -35.0028 -1.9802
15.7110 -22.9006 -1.3697
15.7141 -19.0127 -1.2165
15.4874 -15.6527 -1.0860
18.0586 -15.2513 -1.1658
21.7211 -15.2436 -1.3088
26.4507 -15.2338 -1.5054
32.9140 -15.2203 -1.7885
16.2565 -5.8192 -0.8516
16.3234 -4.2439 -0.8318
16.2500 -2.7052 -0.8125
16.2470 -1.2302 -0.8036
16.2357 0.2244 -0.8008
16.2409 1.6822 -0.8053
10.3280 2.0142 -0.5190
12.1359 3.5160 -0.6232
12.1165 4.7189 -0.6413
9.2290 4.5815 -0.5082
10.3190 6.3291 -0.5970
12.1076 9.0064 -0.7442
12.1038 10.8092 -0.8004
11.9326 12.7461 -0.8611
10.5439 13.5003 -0.8448
11.9207 18.4489 -1.0833
11.9120 22.6442 -1.2619
18.9720 45.5220 -2.4323
-20.8601 31.2609 -1.8535
-20.8489 25.8969 -1.6397
-20.8400 21.6117 -1.4807
-22.5412 19.5394 -1.4713
-27.0810 19.5299 -1.6467
-20.7402 12.3031 -1.1893
-20.7353 9.9144 -1.1335
-20.7307 7.7231 -1.0911
-20.7264 5.6743 -1.0598
-20.7223 3.7244 -1.0384
-20.7184 1.8371 -1.0258
-20.7145 -0.0198 -1.0216
-20.7106 -1.8762 -1.0256
-30.0559 -11.2624 -1.5830
-26.6526 -12.8061 -1.4584
-23.3756 -13.9266 -1.3420
-28.6488 -20.7438 -1.7445
-23.8730 -20.7737 -1.5608
-23.4137 -24.3735 -1.6669
-22.7523 -28.3715 -1.7936
-23.4006 -35.2131 -2.0852
19.0690 -36.0821 -2.0128
15.7250 -24.2351 -1.4248
15.7163 -20.0441 -1.2562
15.7093 -16.7163 -1.1314
17.1457 -15.2532 -1.1318
20.5774 -15.2460 -1.2631
24.9490 -15.2369 -1.4418
30.8164 -15.2247 -1.6952
16.2575 -6.2961 -0.8598
16.3244 -4.6958 -0.8378
16.2509 -3.1372 -0.8163
16.2478 -1.6517 -0.8055
16.3150 -0.1944 -0.8047
16.2418 1.2609 -0.8035
12.0044 2.0220 -0.6004
12.1367 3.1801 -0.6188
12.1173 4.3635 -0.6352
12.1146 5.6302 -0.6589
12.1734 7.0420 -0.6936
12.0127 8.4646 -0.7248
12.1049 10.2627 -0.7827
11.9339 12.1075 -0.8384
11.0955 13.4769 -0.8610
11.9250 17.4532 -1.0425
11.9148 21.3005 -1.2037
19.9676 44.6395 -2.4118
9.2795 26.9839 -1.4073
-20.8639 33.0794 -1.9289
-20.8519 27.3103 -1.6947
-20.8424 22.7583 -1.5220
-17.6834 16.1439 -1.1809
-25.6661 19.5329 -1.5907
-20.7418 13.0369 -1.2083
-20.7366 10.5790 -1.1481
-20.7320 8.3371 -1.1021
-20.7276 6.2522 -1.0678
-20.7235 4.2779 -1.0436
-20.7195 2.3760 -1.0286
-20.7156 0.5135 -1.0220
-20.7118 -1.3401 -1.0236
-20.7078 -3.2145 -1.0335
-34.8283 -12.0382 -1.8174
-25.7592 -11.5706 -1.3927
-21.8723 -12.2796 -1.2371
-30.2658 -20.7487 -1.8098
-25.1025 -20.7329 -1.6057
-23.4028 -23.1398 -1.6232
-23.4084 -27.6983 -1.7886
-23.3981 -33.3167 -2.0079
19.0739 -38.4557 -2.1171
9.3687 -15.2864 -0.8843
15.6823 -21.0970 -1.2965
15.7112 -17.6048 -1.1638
16.2840 -15.2550 -1.1005
23.0191 -15.2409 -1.1912
28.1832 -15.2302 -1.3822
35.3888 -15.2151 -1.6621
16.2555 -5.3267 -0.7381
16.2522 -3.7585 -0.7197
16.2491 -2.2546 -0.7078
16.2460 -0.7883 -0.7018
16.2430 0.6649 -0.7014
14.3455 1.8799 -0.6243
12.1364 2.7100 -0.5365
12.1183 3.8696 -0.5489
12.1157 5.1007 -0.5672
12.0058 6.3710 -0.5864
12.1099 7.8868 -0.6235
12.1065 9.5257 -0.6647
12.1026 11.4122 -0.7177
10.3080 11.6266 -0.6704
10.0918 13.6691 -0.7331
11.9183 19.5897 -0.9894
9.4296 24.4722 -1.1316
-20.8507 35.9039 -1.7914
-20.8564 29.4925 -1.5585
-20.8460 24.5037 -1.3881
-20.7571 20.3904 -1.2554
-23.8119 19.5367 -1.3289
-28.6831 19.5266 -1.4971
-20.7387 11.5544 -1.0243
-20.7338 9.2322 -0.9793
-20.7294 7.0893 -0.9453
-20.7252 5.0747 -0.9206
-20.7211 3.1474 -0.9043
-20.7172 1.2726 -0.8956
-20.7133 -0.5810 -0.8941
-20.7095 -2.4433 -0.8997
-17.6544 -3.7044 -0.7783
-34.1625 -10.4264 -1.5411
-25.3806 -10.3029 -1.1819
-22.1627 -11.3978 -1.0753
-32.7747 -20.7493 -1.6737
-27.0673 -20.7389 -1.4713
-23.4451 -21.5446 -1.3738
-23.4115 -25.7315 -1.5010
-23.4045 -30.8619 -1.6712
19.0819 -42.2890 -2.0018
19.0776 -33.8462 -1.6764
15.7221 -22.8503 -1.1967
15.7140 -18.9602 -1.0625
15.4873 -15.6102 -0.9488
18.1083 -15.2512 -1.0215
21.7838 -15.2435 -1.1472
26.5336 -15.2336 -1.3201
33.0310 -15.2200 -1.5692
16.2565 -5.7943 -0.7446
16.3234 -4.2203 -0.7275
16.2500 -2.6826 -0.7106
16.2469 -1.2080 -0.7029
16.2371 0.2464 -0.7007
16.2408 1.7045 -0.7046
10.3280 2.0287 -0.4541
12.1371 3.5342 -0.5454
12.1165 4.7378 -0.5613
9.2349 4.6000 -0.4452
12.1725 7.4886 -0.6166
12.1075 9.0319 -0.6517
12.1037 10.8387 -0.7010
11.9325 12.7807 -0.7544
10.6309 13.6499 -0.7465
11.9206 18.5037 -0.9497
11.9193 22.7329 -1.1075
18.3926 44.3004 -2.0696
-20.8599 31.1689 -1.6182
-20.8488 25.8249 -1.4320
-20.8398 21.5531 -1.2936
-22.6029 19.5393 -1.2891
-27.1582 19.5298 -1.4433
-20.7402 12.2650 -1.0396
-20.7352 9.8798 -0.9910
-20.7306 7.6911 -0.9540
-20.7263 5.6441 -0.9268
-20.7223 3.6954 -0.9082
-20.7183 1.8088 -0.8973
-20.7145 -0.0478 -0.8938
-20.7106 -1.9045 -0.8974
-30.1192 -11.3327 -1.3885
-25.7796 -12.4297 -1.2348
-34.7241 -20.7515 -1.7454
-28.5669 -20.7435 -1.5232
-23.8178 -20.7825 -1.3639
-23.4136 -24.4397 -1.4603
-22.6890 -28.3714 -1.5674
-23.4146 -35.3380 -1.8290
19.0687 -35.9637 -1.7563
15.7249 -24.1630 -1.2439
15.7161 -19.9881 -1.0971
15.7092 -16.6708 -0.9883
17.1925 -15.2531 -0.9917
20.6357 -15.2459 -1.1070
25.0250 -15.2367 -1.2641
30.9213 -15.2244 -1.4871
16.2575 -6.2707 -0.7518
16.3243 -4.6718 -0.7326
16.2509 -3.1143 -0.7139
16.2478 -1.6294 -0.7046
16.3149 -0.1723 -0.7040
16.2417 1.2831 -0.7030
12.0044 2.0387 -0.5254
12.1378 3.1980 -0.5416
12.1172 4.3821 -0.5560
12.1146 5.6502 -0.5768
12.1734 7.0640 -0.6073
12.0126 8.4890 -0.6347
12.1049 10.2909 -0.6855
11.9339 12.1403 -0.7345
11.1900 13.6292 -0.7609
12.0376 17.6695 -0.9225
11.9147 21.3684 -1.0556
20.0163 44.9117 -2.1215
9.2419 26.9936 -1.2310
-20.8637 32.9800 -1.6838
-20.8517 27.2336 -1.4799
-20.8422 22.6962 -1.3295
-17.7160 16.1297 -1.0337
-25.7384 19.5327 -1.3941
-20.7417 12.9976 -1.0561
-20.7366 10.5435 -1.0037
-20.7319 8.3045 -0.9636
-20.7276 6.2215 -0.9337
-20.7234 4.2486 -0.9127
-20.7195 2.3475 -0.8997
-20.7156 0.4854 -0.8941
-20.7117 -1.3683 -0.8956
-20.7078 -3.2433 -0.9044
-25.0828 -11.3078 -1.1871
-21.7464 -12.2477 -1.0769
-30.1775 -20.7485 -1.5801
-25.0329 -20.7327 -1.4024
-23.3393 -23.1396 -1.4181
-23.4083 -27.7744 -1.5672
-23.3978 -33.4125 -1.7600
19.0737 -38.3244 -1.8470
9.3912 -15.2766 -0.7737
15.7184 -21.0858 -1.1348
15.7111 -17.5567 -1.0165
16.3282 -15.2549 -0.9641
19.5646 -15.2481 -1.0702
23.6381 -15.2396 -1.2135
29.0202 -15.2284 -1.4141
36.6063 -15.2126 -1.7104
16.2548 -5.1079 -0.7352
16.2518 -3.5503 -0.7177
16.2487 -2.0530 -0.7067
16.3158 -0.5924 -0.7044
16.2426 0.8633 -0.7018
13.3865 1.9205 -0.5835
12.1386 2.8663 -0.5381
12.1179 4.0329 -0.5510
12.1154 5.2753 -0.5701
12.1125 6.6181 -0.5955
12.1095 8.0984 -0.6286
12.1060 9.7665 -0.6711
11.9886 11.5840 -0.7193
11.7707 13.6070 -0.7763
11.9246 16.5707 -0.8809
11.9172 20.1365 -1.0096
16.8510 45.3733 -2.0883
-20.8678 34.9455 -1.7561
-20.8548 28.7407 -1.5321
-20.7642 23.8132 -1.3632
-20.7561 19.8981 -1.2406
-24.4112 19.5355 -1.3490
-29.4461 19.5250 -1.5244
-20.7380 11.2250 -1.0174
-20.7332 8.9308 -0.9740
-20.7288 6.8081 -0.9414
-20.7246 4.8076 -0.9179
-20.7206 2.8894 -0.9027
-20.7167 1.0193 -0.8949
-20.7128 -0.8338 -0.8944
-20.7089 -2.6995 -0.9011
-34.0435 -10.8454 -1.5416
-25.1956 -10.5873 -1.1792
-21.9437 -11.6255 -1.0715
-30.8532 -20.0638 -1.5879
-25.5803 -20.0991 -1.4036
-23.4173 -22.0516 -1.3879
-23.4105 -26.3690 -1.5214
-23.4024 -31.6532 -1.6985
9.3176 -35.4135 -1.5800
19.0791 -40.9441 -1.9490
19.4642 -33.5688 -1.6743
15.7209 -22.2625 -1.1759
15.7130 -18.4954 -1.0471
15.5100 -15.2566 -0.9387
18.5618 -15.2502 -1.0365
22.3573 -15.2423 -1.1675
27.2961 -15.2320 -1.3487
34.1141 -15.2178 -1.6117
16.2560 -5.5718 -0.7415
16.3229 -4.0086 -0.7252
16.2496 -2.4795 -0.7092
16.2465 -1.0090 -0.7023
16.2435 0.4446 -0.7011
16.2404 1.9049 -0.7055
12.1211 2.5348 -0.5343
12.1368 3.6951 -0.5474
12.0452 4.8801 -0.5608
12.1134 6.2192 -0.5875
12.0565 7.6214 -0.6154
12.0637 9.2302 -0.6554
12.0074 11.0190 -0.7032
11.9319 13.0964 -0.7644
10.3039 13.5680 -0.7351
11.9195 19.0070 -0.9680
17.8430 44.5009 -2.0686
-20.8582 30.3592 -1.5893
-20.7773 25.1040 -1.4060
-20.7583 20.9516 -1.2725
-23.1664 19.5381 -1.3076
-27.8666 19.5283 -1.4682
-20.7395 11.9257 -1.0322
-20.7345 9.5712 -0.9853
-20.7300 7.4047 -0.9498
-20.7258 5.3734 -0.9238
-20.7217 3.4353 -0.9063
-20.7178 1.5546 -0.8964
-20.7139 -0.3003 -0.8938
-20.7100 -2.1594 -0.8984
-34.5209 -10.0267 -1.5510
-25.7059 -10.0315 -1.1906
-22.4067 -11.1421 -1.0797
-33.7804 -20.7505 -1.7105
-27.8437 -20.7413 -1.4980
-23.5626 -21.0711 -1.3639
-23.4126 -25.0428 -1.4792
-23.4067 -30.0116 -1.6422
19.0895 -34.9662 -1.7189
15.7235 -23.5286 -1.2210
15.7151 -19.4930 -1.0803
15.7084 -16.2680 -0.9757
17.6195 -15.2522 -1.0055
21.1692 -15.2448 -1.1256
25.7232 -15.2353 -1.2899
31.8924 -15.2224 -1.5248
16.2570 -6.0439 -0.7483
16.3239 -4.4571 -0.7301
16.2505 -2.9093 -0.7123
16.2474 -1.4296 -0.7037
16.3145 0.0266 -0.7039
16.2413 1.4824 -0.7037
12.1217 2.2110 -0.5316
12.1375 3.3566 -0.5434
12.1169 4.5497 -0.5584
9.2861 4.4696 -0.4447
10.4089 6.2109 -0.5230
12.1080 8.7796 -0.6453
12.1044 10.5473 -0.6927
11.9332 12.4393 -0.7438
10.9226 13.6392 -0.7539
12.0366 18.1394 -0.9393
11.9135 21.9921 -1.0792
19.3254 44.8230 -2.1060
-20.8619 32.1042 -1.6519
-20.7698 26.4522 -1.4511
-20.8411 22.1470 -1.3121
-21.9950 19.5405 -1.2694
-26.3986 19.5313 -1.4169
-20.7410 12.6477 -1.0482
-20.7359 10.2271 -0.9976
-20.7313 8.0125 -0.9590
-20.7270 5.9470 -0.9304
-20.7229 3.9859 -0.9105
-20.7189 2.0920 -0.8985
-20.7150 0.2328 -0.8938
-20.7112 -1.6220 -0.8964
-24.2829 -11.3053 -1.1557
-21.8279 -12.6465 -1.0885
-29.3999 -20.7461 -1.5525
-24.4186 -20.7308 -1.3821
-22.7759 -23.1385 -1.4009
-23.3270 -28.3727 -1.5848
-22.9848 -33.6894 -1.7597
19.0713 -37.1765 -1.8028
15.5059 -24.5475 -1.2528
15.7173 -20.5566 -1.1165
15.7102 -17.1308 -1.0029
16.7314 -15.2540 -0.9769
20.0629 -15.2471 -1.0873
24.2808 -15.2383 -1.2369
29.8969 -15.2266 -1.4476
16.2580 -6.5252 -0.7559
16.3248 -4.9121 -0.7356
16.2514 -3.3432 -0.7159
16.2483 -1.8521 -0.7056
16.3154 -0.3934 -0.7042
16.2422 1.0619 -0.7023
12.3021 1.9182 -0.5372
12.1382 3.0229 -0.5397
12.1176 4.1976 -0.5533
12.1150 5.4518 -0.5732
12.0424 6.7716 -0.5961
12.1090 8.3134 -0.6337
12.0177 9.9395 -0.6729
11.9345 11.8164 -0.7246
11.4928 13.6177 -0.7688
11.9237 17.0028 -0.8960
11.9160 20.7064 -1.0308
-20.8658 33.9939 -1.7210
-20.8533 28.0138 -1.5068
-20.8435 23.3240 -1.3496
-20.8894 19.5428 -1.2342
-25.0290 19.5342 -1.3699
-30.2373 19.5233 -1.5529
-20.7373 10.8999 -1.0108
-20.7326 8.6325 -0.9690
-20.7282 6.5291 -0.9377
-20.7240 4.5420 -0.9154
-20.7201 2.6323 -0.9012
-20.7162 0.7662 -0.8944
-20.7123 -1.0867 -0.8949
-20.7084 -2.9565 -0.9026
-32.9213 -10.9316 -1.4967
-25.0832 -10.9016 -1.1801
-21.7263 -11.8517 -1.0678
-30.8521 -20.6025 -1.6007
-25.5685 -20.5989 -1.4167
-23.4165 -22.5955 -1.4040
-23.4095 -27.0243 -1.5426
-23.4003 -32.4709 -1.7269
19.0765 -39.6679 -1.8992
20.0185 -33.5752 -1.6866
15.7197 -21.6947 -1.1560
15.7121 -18.0439 -1.0323
15.8921 -15.2558 -0.9505
19.0288 -15.2492 -1.0521
22.9517 -15.2411 -1.1887
28.0925 -15.2303 -1.3788
35.2574 -15.2154 -1.6569
16.2556 -5.3512 -0.7384
16.2523 -3.7818 -0.7200
16.2491 -2.2771 -0.7079
16.2461 -0.8103 -0.7018
16.2431 0.6428 -0.7014
14.3455 1.8602 -0.6241
12.1337 2.6922 -0.5363
12.1183 3.8515 -0.5486
12.1158 5.0814 -0.5669
12.0058 6.3501 -0.5860
12.1099 7.8634 -0.6230
12.1065 9.4992 -0.6640
12.1026 11.3813 -0.7168
10.3080 11.5950 -0.6694
10.1198 13.6681 -0.7338
11.9185 19.5301 -0.9872
17.3939 44.9596 -2.0800
-20.7895 35.9105 -1.7903
-20.8566 29.5777 -1.5615
-20.8461 24.5714 -1.3903
-20.7572 20.4459 -1.2571
-23.7463 19.5369 -1.3268
-28.5999 19.5268 -1.4942
-20.7388 11.5913 -1.0251
-20.7339 9.2660 -0.9799
-20.7294 7.1207 -0.9457
-20.7252 5.1046 -0.9209
-20.7212 3.1762 -0.9045
-20.7173 1.3008 -0.8956
-20.7134 -0.5529 -0.8940
-20.7095 -2.4148 -0.8996
-17.6640 -3.6814 -0.7785
-25.4130 -10.2758 -1.1827
-22.1872 -11.3723 -1.0757
-32.8735 -20.7495 -1.6773
-27.1438 -20.7392 -1.4739
-23.4512 -21.4917 -1.3725
-23.4116 -25.6617 -1.4988
-23.4047 -30.7754 -1.6682
19.0804 -33.9588 -1.6807
15.7223 -22.9170 -1.1991
15.7141 -19.0127 -1.0643
15.4874 -15.6527 -0.9501
18.0586 -15.2513 -1.0199
21.7211 -15.2436 -1.1450
26.4508 -15.2338 -1.3170
32.9140 -15.2203 -1.5646
16.2565 -5.8192 -0.7450
16.3234 -4.2439 -0.7277
16.2500 -2.7052 -0.7108
16.2470 -1.2302 -0.7030
16.2357 0.2244 -0.7006
16.2409 1.6822 -0.7045
10.3280 2.0142 -0.4540
12.1371 3.5163 -0.5452
12.1165 4.7189 -0.5610
9.2288 4.5814 -0.4446
10.3190 6.3291 -0.5223
12.1076 9.0064 -0.6511
12.1038 10.8092 -0.7002
11.9326 12.7461 -0.7533
10.6599 13.6488 -0.7472
11.9207 18.4489 -0.9477
11.9121 22.6445 -1.1040
18.4299 44.2213 -2.0671
-20.8601 31.2609 -1.6215
-20.8489 25.8969 -1.4345
-20.8400 21.6117 -1.2954
-22.5412 19.5394 -1.2871
-27.0810 19.5299 -1.4406
-20.7402 12.3031 -1.0405
-20.7353 9.9144 -0.9917
-20.7307 7.7231 -0.9545
-20.7264 5.6743 -0.9272
-20.7223 3.7244 -0.9084
-20.7184 1.8371 -0.8974
-20.7145 -0.0198 -0.8938
-20.7106 -1.8762 -0.8973
-30.1499 -11.2976 -1.3892
-24.8836 -11.9561 -1.1911
-34.8314 -20.7516 -1.7494
-28.6488 -20.7438 -1.5261
-23.8730 -20.7737 -1.3654
-23.4137 -24.3735 -1.4582
-22.7523 -28.3715 -1.5691
-23.4006 -35.2131 -1.8242
19.0690 -36.0821 -1.7609
15.7250 -24.2351 -1.2465
15.7163 -20.0441 -1.0990
15.7093 -16.7163 -0.9898
17.1457 -15.2532 -0.9902
20.5774 -15.2460 -1.1050
24.9490 -15.2369 -1.2613
30.8164 -15.2247 -1.4830
16.2575 -6.2961 -0.7522
16.3244 -4.6958 -0.7329
16.2509 -3.1372 -0.7141
16.2478 -1.6517 -0.7047
16.3150 -0.1944 -0.7040
16.2418 1.2609 -0.7029
12.0044 2.0220 -0.5252
12.1379 3.1804 -0.5414
12.1173 4.3635 -0.5557
12.1146 5.6302 -0.5764
12.1734 7.0420 -0.6068
12.0127 8.4646 -0.6341
12.1049 10.2627 -0.6847
11.9339 12.1075 -0.7335
11.2200 13.6281 -0.7617
12.0377 17.6182 -0.9207
11.9148 21.3006 -1.0531
20.1013 44.9384 -2.1241
9.2795 26.9839 -1.2312
-20.8639 33.0794 -1.6874
-20.8519 27.3103 -1.4825
-20.8424 22.7583 -1.3315
-17.6829 16.1435 -1.0331
-25.6662 19.5329 -1.3916
-20.7418 13.0369 -1.0570
-20.7366 10.5790 -1.0044
-20.7320 8.3371 -0.9641
-20.7276 6.2522 -0.9341
-20.7235 4.2779 -0.9130
-20.7195 2.3760 -0.8998
-20.7156 0.5135 -0.8941
-20.7118 -1.3401 -0.8955
-20.7078 -3.2145 -0.9042
-24.9426 -11.2038 -1.1798
-21.7402 -12.2054 -1.0757
-30.2658 -20.7487 -1.5833
-25.1025 -20.7329 -1.4047
-23.4028 -23.1398 -1.4200
-23.4084 -27.6983 -1.5647
-23.3981 -33.3167 -1.7566
19.0739 -38.4557 -1.8521
9.3685 -15.2861 -0.7736
15.7186 -21.1457 -1.1368
15.7112 -17.6048 -1.0181
16.2840 -15.2550 -0.9627
23.0191 -15.2409 -1.0208
28.1832 -15.2302 -1.1846
35.3888 -15.2151 -1.4244
16.2555 -5.3267 -0.6325
16.2522 -3.7585 -0.6168
16.2491 -2.2546 -0.6066
16.2460 -0.7883 -0.6014
16.2430 0.6649 -0.6011
14.3455 1.8799 -0.5350
12.1364 2.7100 -0.4598
12.1183 3.8696 -0.4704
12.1157 5.1007 -0.4861
12.0058 6.3710 -0.5026
12.1099 7.8868 -0.5344
12.1065 9.5257 -0.5696
12.1026 11.4122 -0.6151
10.3080 11.6266 -0.5745
10.2019 13.8183 -0.6351
11.9183 19.5897 -0.8479
9.4293 24.4715 -0.9697
-20.8507 35.9039 -1.5352
-20.8564 29.4925 -1.3357
-20.7655 24.4090 -1.1850
-20.7571 20.3904 -1.0759
-23.8119 19.5367 -1.1389
-28.6831 19.5266 -1.2830
-20.7387 11.5544 -0.8778
-20.7338 9.2322 -0.8392
-20.7294 7.0893 -0.8101
-20.7252 5.0747 -0.7890
-20.7211 3.1474 -0.7750
-20.7172 1.2726 -0.7675
-20.7133 -0.5810 -0.7662
-20.7095 -2.4433 -0.7711
-17.6540 -3.7043 -0.6670
-29.8480 -12.1163 -1.1911
-22.0925 -11.3616 -0.9186
-32.7747 -20.7493 -1.4343
-26.0680 -19.9733 -1.2143
-22.7867 -20.9396 -1.1443
-22.6473 -24.8916 -1.2444
-23.4045 -30.8619 -1.4322
19.0819 -42.2890 -1.7155
19.0643 -33.8226 -1.4356
15.7221 -22.8503 -1.0256
15.4937 -18.6944 -0.8978
15.4873 -15.6102 -0.8131
18.1083 -15.2512 -0.8754
21.7838 -15.2435 -0.9831
26.5336 -15.2336 -1.1313
33.0310 -15.2200 -1.3448
16.2565 -5.7943 -0.6382
16.3234 -4.2203 -0.6234
16.2500 -2.6826 -0.6090
16.2469 -1.2080 -0.6024
16.2371 0.2464 -0.6005
16.2408 1.7045 -0.6038
10.3280 2.0287 -0.3892
12.1383 3.5345 -0.4675
12.1165 4.7378 -0.4811
9.2346 4.5999 -0.3815
12.1725 7.4886 -0.5285
12.1075 9.0319 -0.5585
12.1037 10.8387 -0.6008
11.9325 12.7807 -0.6465
10.7491 13.8016 -0.6469
11.9206 18.5037 -0.8139
23.1818 44.2131 -1.8459
18.2946 44.0646 -1.7642
-20.8599 31.1689 -1.3868
-20.7682 25.7252 -1.2225
-20.7594 21.4698 -1.1043
-22.6029 19.5393 -1.1048
-27.1582 19.5298 -1.2369
-20.7402 12.2650 -0.8910
-20.7352 9.8798 -0.8493
-20.7306 7.6911 -0.8176
-20.7263 5.6441 -0.7943
-20.7223 3.6954 -0.7783
-20.7183 1.8088 -0.7690
-20.7145 -0.0478 -0.7660
-20.7106 -1.9045 -0.7690
-35.2213 -13.2524 -1.3915
-24.7408 -11.9289 -1.0156
-34.7241 -20.7515 -1.4958
-27.5103 -19.9763 -1.2571
-23.2393 -20.2776 -1.1404
-22.6499 -23.6426 -1.2107
-22.6890 -28.3714 -1.3433
-23.4146 -35.3380 -1.5675
19.0687 -35.9637 -1.5052
15.7249 -24.1630 -1.0660
15.7161 -19.9881 -0.9402
15.4890 -16.4371 -0.8351
17.1925 -15.2531 -0.8499
20.6357 -15.2459 -0.9487
25.0250 -15.2367 -1.0834
30.9213 -15.2244 -1.2744
16.2575 -6.2707 -0.6443
16.3243 -4.6718 -0.6279
16.2509 -3.1143 -0.6118
16.2478 -1.6294 -0.6038
16.3149 -0.1723 -0.6033
16.2417 1.2831 -0.6024
12.0044 2.0387 -0.4502
12.1391 3.1983 -0.4642
12.1172 4.3821 -0.4765
12.1146 5.6502 -0.4943
12.1734 7.0640 -0.5204
12.0126 8.4890 -0.5439
12.1049 10.2909 -0.5875
11.9339 12.1403 -0.6295
11.3168 13.7836 -0.6594
12.0376 17.6695 -0.7906
12.0376 21.5888 -0.9140
20.0464 44.9794 -1.8209
9.2419 26.9936 -1.0550
-20.8637 32.9800 -1.4430
-20.7712 27.1284 -1.2634
-20.7617 22.6085 -1.1350
-17.7156 16.1293 -0.8859
-25.7384 19.5327 -1.1947
-20.7417 12.9976 -0.9051
-20.7366 10.5435 -0.8602
-20.7319 8.3045 -0.8258
-20.7276 6.2215 -0.8002
-20.7234 4.2486 -0.7822
-20.7195 2.3475 -0.7710
-20.7156 0.4854 -0.7662
-20.7117 -1.3683 -0.7675
-20.7078 -3.2433 -0.7750
-32.9833 -11.4505 -1.2910
-21.6386 -12.1871 -0.9183
-30.1775 -20.7485 -1.3542
-24.1176 -19.9747 -1.1579
-22.6524 -22.4586 -1.1795
-23.4083 -27.7744 -1.3431
-23.3978 -33.4125 -1.5083
19.0737 -38.3244 -1.5829
9.3909 -15.2762 -0.6631
15.7184 -21.0859 -0.9725
15.4908 -17.3106 -0.8590
16.3282 -15.2549 -0.8263
19.5646 -15.2481 -0.9172
23.6381 -15.2396 -1.0400
29.0203 -15.2284 -1.2118
36.6063 -15.2126 -1.4658
16.2548 -5.1079 -0.6300
16.2518 -3.5503 -0.6151
16.2487 -2.0530 -0.6056
16.3158 -0.5924 -0.6037
16.2426 0.8633 -0.6014
13.3865 1.9205 -0.5001
12.1398 2.8666 -0.4612
12.1179 4.0329 -0.4722
12.1154 5.2753 -0.4886
12.1125 6.6181 -0.5104
12.1095 8.0984 -0.5387
12.1060 9.7665 -0.5751
11.9886 11.5840 -0.6164
11.9068 13.7643 -0.6730
11.9246 16.5707 -0.7549
12.0436 20.3501 -0.8744
17.0446 45.8946 -1.8103
-20.8678 34.9456 -1.5050
-20.8548 28.7407 -1.3130
-20.7642 23.8132 -1.1683
-20.7561 19.8981 -1.0632
-24.4112 19.5355 -1.1561
-29.4461 19.5250 -1.3064
-20.7380 11.2250 -0.8719
-20.7332 8.9308 -0.8347
-20.7288 6.8081 -0.8068
-20.7246 4.8076 -0.7867
-20.7206 2.8894 -0.7736
-20.7167 1.0193 -0.7670
-20.7128 -0.8338 -0.7665
-20.7089 -2.6995 -0.7722
-34.4434 -10.9728 -1.3367
-24.9065 -10.4658 -0.9990
-21.8745 -11.5888 -0.9153
-30.8532 -20.0638 -1.3609
-25.4184 -19.9719 -1.1953
-22.7017 -21.3777 -1.1530
-22.6460 -25.5079 -1.2613
-23.4024 -31.6532 -1.4556
9.3173 -35.4121 -1.3540
19.0791 -40.9441 -1.6703
19.4571 -33.5567 -1.4343
15.7209 -22.2625 -1.0078
15.4928 -18.2361 -0.8848
15.5100 -15.2566 -0.8045
18.5618 -15.2502 -0.8883
22.3573 -15.2423 -1.0005
27.2961 -15.2320 -1.1558
34.1141 -15.2178 -1.3812
16.2560 -5.5718 -0.6354
16.3229 -4.0085 -0.6215
16.2496 -2.4795 -0.6078
16.2465 -1.0090 -0.6019
16.2435 0.4446 -0.6009
16.2404 1.9049 -0.6046
12.1211 2.5348 -0.4579
12.1380 3.6955 -0.4692
12.0452 4.8801 -0.4806
12.1134 6.2193 -0.5035
12.0565 7.6214 -0.5274
12.0637 9.2302 -0.5617
12.0074 11.0190 -0.6026
11.9319 13.0964 -0.6551
10.3039 13.5680 -0.6300
11.9195 19.0070 -0.8296
17.8111 44.4214 -1.7697
-20.8582 30.3592 -1.3620
-20.7669 25.0915 -1.2044
-20.7583 20.9516 -1.0906
-23.1664 19.5381 -1.1206
-27.8666 19.5283 -1.2582
-20.7395 11.9257 -0.8846
-20.7345 9.5712 -0.8444
-20.7300 7.4047 -0.8140
-20.7258 5.3734 -0.7917
-20.7217 3.4353 -0.7767
-20.7178 1.5546 -0.7682
-20.7139 -0.3003 -0.7660
-20.7101 -2.1594 -0.7699
-33.9048 -9.8477 -1.3055
-29.9382 -11.6831 -1.1883
-22.3388 -11.1083 -0.9225
-33.7804 -20.7505 -1.4659
-26.8147 -19.9748 -1.2364
-22.9845 -20.5542 -1.1402
-22.6487 -24.2257 -1.2263
-23.4067 -30.0116 -1.4073
-26.9804 -41.8179 -1.8402
19.0666 -34.9242 -1.4713
15.7235 -23.5286 -1.0464
15.7151 -19.4930 -0.9259
15.4882 -16.0399 -0.8245
17.6195 -15.2522 -0.8617
21.1692 -15.2448 -0.9646
25.7232 -15.2353 -1.1055
31.8924 -15.2224 -1.3067
16.2570 -6.0439 -0.6413
16.3239 -4.4571 -0.6257
16.2505 -2.9093 -0.6104
16.2474 -1.4296 -0.6031
16.3145 0.0266 -0.6033
16.2413 1.4824 -0.6030
12.1217 2.2110 -0.4556
12.1387 3.3570 -0.4657
12.1169 4.5497 -0.4786
9.2858 4.4694 -0.3811
10.4089 6.2109 -0.4482
12.1080 8.7796 -0.5530
12.1044 10.5473 -0.5937
11.9332 12.4393 -0.6374
11.0452 13.7923 -0.6534
12.0366 18.1394 -0.8050
12.0346 22.2158 -0.9343
19.5364 45.3124 -1.8246
-20.8619 32.1042 -1.4157
-20.7698 26.4522 -1.2436
-20.7606 22.0614 -1.1202
-21.9950 19.5405 -1.0879
-26.3986 19.5313 -1.2143
-20.7410 12.6477 -0.8983
-20.7359 10.2271 -0.8549
-20.7313 8.0125 -0.8218
-20.7270 5.9470 -0.7973
-20.7229 3.9859 -0.7803
-20.7189 2.0920 -0.7700
-20.7150 0.2328 -0.7660
-20.7112 -1.6220 -0.7682
-21.6925 -12.5681 -0.9270
-28.3114 -19.9779 -1.2813
-23.6334 -20.0642 -1.1463
-22.6512 -23.0118 -1.1940
-23.3270 -28.3727 -1.3582
-22.9848 -33.6894 -1.5080
19.0713 -37.1765 -1.5450
15.5059 -24.5475 -1.0736
15.7173 -20.5566 -0.9568
15.4899 -16.8907 -0.8474
16.7314 -15.2540 -0.8372
20.0629 -15.2471 -0.9318
24.2808 -15.2383 -1.0600
29.8969 -15.2266 -1.2406
16.2580 -6.5252 -0.6478
16.3248 -4.9121 -0.6304
16.2514 -3.3432 -0.6135
16.2483 -1.8521 -0.6047
16.3154 -0.3934 -0.6035
16.2422 1.0619 -0.6019
12.3021 1.9182 -0.4604
12.1394 3.0232 -0.4626
12.1176 4.1976 -0.4742
12.1150 5.4518 -0.4912
12.0424 6.7716 -0.5109
12.1090 8.3134 -0.5431
12.0177 9.9395 -0.5767
11.9345 11.8164 -0.6210
11.6244 13.7736 -0.6664
11.9237 17.0028 -0.7679
12.0408 20.9232 -0.8926
-20.8658 33.9939 -1.4749
-20.8533 28.0138 -1.2913
-20.7630 23.2339 -1.1522
-20.8894 19.5428 -1.0577
-25.0290 19.5342 -1.1740
-30.2373 19.5233 -1.3309
-20.7373 10.8999 -0.8663
-20.7326 8.6325 -0.8304
-20.7282 6.5291 -0.8036
-20.7240 4.5420 -0.7845
-20.7201 2.6323 -0.7723
-20.7162 0.7662 -0.7665
-20.7123 -1.0867 -0.7669
-20.7084 -2.9565 -0.7735
-21.6580 -11.8144 -0.9122
-30.8521 -20.6025 -1.3718
-24.7886 -19.9706 -1.1771
-22.6536 -21.8594 -1.1640
-22.6447 -26.1414 -1.2789
-23.4003 -32.4709 -1.4800
19.0765 -39.6679 -1.6276
20.0068 -33.5555 -1.4446
15.7197 -21.6947 -0.9907
15.4918 -17.7909 -0.8723
15.8921 -15.2558 -0.8146
19.0288 -15.2492 -0.9017
22.9517 -15.2411 -1.0188
28.0925 -15.2303 -1.1816
35.2574 -15.2154 -1.4199
16.2556 -5.3512 -0.6328
16.2523 -3.7818 -0.6170
16.2491 -2.2771 -0.6067
16.2461 -0.8103 -0.6015
16.2431 0.6428 -0.6011
14.3455 1.8602 -0.5349
12.1337 2.6922 -0.4596
12.1191 3.8518 -0.4702
12.1158 5.0814 -0.4858
12.0058 6.3501 -0.5022
12.1099 7.8634 -0.5339
12.1065 9.4992 -0.5690
12.1026 11.3813 -0.6143
10.3080 11.5950 -0.5737
10.2303 13.8174 -0.6357
11.9185 19.5301 -0.8460
17.5411 45.3400 -1.7976
-20.7895 35.9105 -1.5343
-20.8566 29.5777 -1.3382
-20.7656 24.4764 -1.1869
-20.7572 20.4459 -1.0773
-23.7463 19.5369 -1.1370
-28.5999 19.5268 -1.2805
-20.7388 11.5913 -0.8785
-20.7339 9.2660 -0.8397
-20.7294 7.1207 -0.8105
-20.7252 5.1046 -0.7893
-20.7212 3.1762 -0.7751
-20.7173 1.3008 -0.7676
-20.7134 -0.5529 -0.7662
-20.7095 -2.4148 -0.7710
-17.6635 -3.6813 -0.6672
-29.8612 -12.0745 -1.1910
-22.1168 -11.3362 -0.9190
-32.8735 -20.7495 -1.4374
-26.1416 -19.9734 -1.2165
-22.8045 -20.8990 -1.1438
-22.6475 -24.8241 -1.2425
-23.4047 -30.7754 -1.4297
19.0645 -33.9304 -1.4391
15.7223 -22.9170 -1.0276
15.7141 -19.0127 -0.9121
15.4874 -15.6527 -0.8142
18.0586 -15.2513 -0.8740
21.7211 -15.2436 -0.9812
26.4507 -15.2338 -1.1287
32.9140 -15.2203 -1.3409
16.2565 -5.8192 -0.6385
16.3234 -4.2439 -0.6237
16.2500 -2.7052 -0.6091
16.2470 -1.2302 -0.6025
16.2357 0.2244 -0.6004
16.2409 1.6822 -0.6037
10.3280 2.0142 -0.3891
12.1384 3.5167 -0.4673
12.1165 4.7189 -0.4808
9.2286 4.5813 -0.3810
10.3190 6.3291 -0.4476
12.1076 9.0064 -0.5580
12.1038 10.8092 -0.6000
11.9326 12.7461 -0.6456
10.7785 13.8006 -0.6475
11.9207 18.4489 -0.8122
23.2360 44.1709 -1.8455
18.3232 43.9651 -1.7612
-20.8601 31.2609 -1.3896
-20.7684 25.7969 -1.2246
-20.7595 21.5283 -1.1059
-22.5412 19.5394 -1.1031
-27.0810 19.5299 -1.2346
-20.7402 12.3031 -0.8917
-20.7353 9.9144 -0.8499
-20.7307 7.7231 -0.8180
-20.7264 5.6743 -0.7946
-20.7223 3.7244 -0.7785
-20.7184 1.8371 -0.7691
-20.7145 -0.0198 -0.7660
-20.7106 -1.8762 -0.7689
-35.2541 -13.2102 -1.3921
-24.7653 -11.8993 -1.0160
-34.8314 -20.7516 -1.4992
-27.5891 -19.9764 -1.2595
-23.2754 -20.2537 -1.1409
-22.6501 -23.5786 -1.2090
-22.7523 -28.3715 -1.3448
-23.4006 -35.2131 -1.5634
19.0690 -36.0821 -1.5091
15.7250 -24.2351 -1.0682
15.7163 -20.0441 -0.9418
15.4891 -16.4820 -0.8363
17.1457 -15.2532 -0.8486
20.5774 -15.2460 -0.9470
24.9490 -15.2369 -1.0810
30.8164 -15.2247 -1.2710
16.2575 -6.2961 -0.6447
16.3244 -4.6958 -0.6281
16.2509 -3.1372 -0.6120
16.2478 -1.6517 -0.6039
16.3150 -0.1944 -0.6033
16.2418 1.2609 -0.6024
12.0044 2.0220 -0.4501
12.1391 3.1807 -0.4640
12.1173 4.3635 -0.4762
12.1146 5.6302 -0.4940
12.1734 7.0420 -0.5200
12.0127 8.4646 -0.5434
12.1049 10.2627 -0.5868
11.9339 12.1075 -0.6286
11.3472 13.7826 -0.6601
12.0377 17.6182 -0.7890
12.0380 21.5207 -0.9118
9.2795 26.9839 -1.0551
-20.8639 33.0795 -1.4461
-20.7713 27.2049 -1.2656
-20.7619 22.6704 -1.1367
-17.6824 16.1431 -0.8853
-25.6662 19.5329 -1.1926
-20.7418 13.0369 -0.9059
-20.7367 10.5790 -0.8608
-20.7320 8.3371 -0.8263
-20.7276 6.2522 -0.8005
-20.7235 4.2779 -0.7824
-20.7195 2.3760 -0.7712
-20.7156 0.5135 -0.7662
-20.7118 -1.3400 -0.7675
-20.7078 -3.2145 -0.7749
-32.9173 -11.3777 -1.2878
-21.6341 -12.1459 -0.9174
-30.2658 -20.7487 -1.3569
-24.1779 -19.9693 -1.1595
-22.6525 -22.3979 -1.1779
-23.4084 -27.6983 -1.3410
-23.3981 -33.3167 -1.5054
19.0739 -38.4557 -1.5873
9.3682 -15.2857 -0.6629
15.7186 -21.1457 -0.9743
15.4909 -17.3580 -0.8603
16.2840 -15.2550 -0.8251
23.0191 -15.2409 -0.8506
28.1832 -15.2302 -0.9870
35.3888 -15.2151 -1.1868
16.2555 -5.3267 -0.5270
16.2522 -3.7585 -0.5139
16.2491 -2.2546 -0.5054
16.2460 -0.7883 -0.5011
16.2430 0.6649 -0.5009
14.3455 1.8799 -0.4458
10.3329 2.3073 -0.3262
10.3309 3.2989 -0.3341
10.3287 4.3484 -0.3453
10.3263 5.4797 -0.3602
10.3237 6.7235 -0.3796
12.1065 9.5257 -0.4746
12.1026 11.4122 -0.5125
10.3080 11.6266 -0.4787
11.9255 16.1529 -0.6186
11.9183 19.5897 -0.7065
9.4290 24.4707 -0.8080
-20.7893 35.7982 -1.2754
-20.7759 29.3786 -1.1086
-20.7655 24.4090 -0.9874
-20.7571 20.3904 -0.8965
-23.8119 19.5367 -0.9490
-28.6831 19.5266 -1.0691
-20.7387 11.5544 -0.7314
-20.7338 9.2322 -0.6993
-20.7294 7.0893 -0.6750
-20.7252 5.0747 -0.6574
-20.7211 3.1474 -0.6457
-20.7172 1.2726 -0.6395
-20.7133 -0.5810 -0.6384
-20.7095 -2.4433 -0.6425
-17.6536 -3.7042 -0.5557
-32.5116 -13.1976 -1.0811
-22.0350 -11.3321 -0.7634
-31.5601 -19.9804 -1.1508
-26.0680 -19.9733 -1.0118
-22.7867 -20.9396 -0.9535
-22.6473 -24.8916 -1.0368
-22.6412 -29.8554 -1.1544
19.0819 -42.2889 -1.4294
19.0643 -33.8226 -1.1962
15.5017 -22.5299 -0.8426
15.4937 -18.6943 -0.7481
15.4873 -15.6102 -0.6775
18.1083 -15.2512 -0.7294
21.7838 -15.2435 -0.8192
26.5336 -15.2336 -0.9426
33.0310 -15.2200 -1.1205
16.2565 -5.7943 -0.5317
16.3234 -4.2203 -0.5195
16.2500 -2.6826 -0.5074
16.2469 -1.2080 -0.5019
16.2371 0.2464 -0.5003
16.2408 1.7045 -0.5031
10.3280 2.0287 -0.3243
10.3315 3.0084 -0.3315
10.3293 4.0390 -0.3417
9.2343 4.5997 -0.3178
10.3245 6.3518 -0.3735
12.1075 9.0319 -0.4654
12.1037 10.8387 -0.5006
11.9325 12.7807 -0.5387
11.9273 15.3143 -0.5980
11.9206 18.5037 -0.6782
23.1864 44.2219 -1.5384
18.3143 44.1118 -1.4715
-20.7794 31.0485 -1.1511
-20.7682 25.7252 -1.0186
-20.7594 21.4698 -0.9201
-22.6029 19.5393 -0.9205
-27.1582 19.5298 -1.0306
-20.7402 12.2650 -0.7424
-20.7352 9.8798 -0.7077
-20.7306 7.6911 -0.6812
-20.7263 5.6441 -0.6618
-20.7223 3.6954 -0.6485
-20.7183 1.8088 -0.6408
-20.7145 -0.0478 -0.6382
-20.7106 -1.9045 -0.6408
-34.3329 -9.5199 -1.0977
-34.9103 -13.1354 -1.1492
-24.6751 -11.8972 -0.8440
-21.6474 -12.9367 -0.7770
-27.5103 -19.9763 -1.0475
-23.2393 -20.2776 -0.9502
-22.6499 -23.6426 -1.0087
-22.6402 -28.3104 -1.1168
-22.6322 -34.1573 -1.2624
19.0687 -35.9637 -1.2542
15.5044 -23.8242 -0.8758
15.4958 -19.7079 -0.7724
15.4890 -16.4371 -0.6958
17.1925 -15.2531 -0.7081
20.6357 -15.2459 -0.7905
25.0249 -15.2367 -0.9027
30.9213 -15.2244 -1.0619
16.2575 -6.2707 -0.5369
16.3243 -4.6718 -0.5231
16.2509 -3.1143 -0.5098
16.2478 -1.6294 -0.5031
16.3149 -0.1723 -0.5027
16.2417 1.2831 -0.5020
11.4211 1.9397 -0.3569
10.3321 2.7222 -0.3292
10.3300 3.7358 -0.3384
10.3277 4.8168 -0.3511
10.3253 5.9916 -0.3678
12.0126 8.4889 -0.4532
12.1049 10.2909 -0.4895
11.9339 12.1403 -0.5245
11.9289 14.5292 -0.5792
12.0376 17.6695 -0.6587
12.0376 21.5887 -0.7615
20.3036 45.5564 -1.5367
9.2419 26.9936 -0.8791
-20.7831 32.8526 -1.1977
-20.7712 27.1284 -1.0527
-20.7617 22.6085 -0.9457
-17.7151 16.1289 -0.7381
-25.7384 19.5327 -0.9955
-20.7417 12.9976 -0.7541
-20.7366 10.5435 -0.7167
-20.7319 8.3045 -0.6881
-20.7276 6.2215 -0.6668
-20.7234 4.2486 -0.6518
-20.7195 2.3475 -0.6424
-20.7156 0.4854 -0.6384
-20.7117 -1.3683 -0.6395
-20.7078 -3.2433 -0.6458
-21.5335 -12.1279 -0.7614
-29.0591 -19.9795 -1.0865
-24.1177 -19.9747 -0.9648
-22.6524 -22.4586 -0.9828
-22.6432 -26.8666 -1.0825
-22.6360 -32.3247 -1.2158
19.0737 -38.3244 -1.3189
9.3907 -15.2759 -0.5525
15.4981 -20.7902 -0.7989
15.4908 -17.3106 -0.7157
16.3282 -15.2549 -0.6885
19.5646 -15.2481 -0.7642
23.6381 -15.2396 -0.8665
29.0203 -15.2284 -1.0097
34.0592 -14.1541 -1.1364
16.2548 -5.1079 -0.5250
16.2518 -3.5503 -0.5125
16.2487 -2.0530 -0.5046
16.3158 -0.5924 -0.5030
16.2426 0.8633 -0.5011
13.3865 1.9205 -0.4167
10.3327 2.4399 -0.3271
10.3306 3.4381 -0.3354
10.3284 4.4972 -0.3471
10.3260 5.6419 -0.3625
10.3234 6.9039 -0.3826
12.1060 9.7665 -0.4792
11.9886 11.5840 -0.5136
12.0454 13.9245 -0.5672
11.9246 16.5707 -0.6290
12.0436 20.3500 -0.7285
17.0914 46.0206 -1.5125
-20.7872 34.8106 -1.2492
-20.7743 28.6297 -1.0898
-20.7642 23.8132 -0.9734
-20.7561 19.8981 -0.8859
-24.4112 19.5355 -0.9633
-29.4461 19.5250 -1.0885
-20.7380 11.2250 -0.7265
-20.7332 8.9308 -0.6955
-20.7288 6.8081 -0.6722
-20.7246 4.8076 -0.6555
-20.7206 2.8894 -0.6446
-20.7167 1.0193 -0.6390
-20.7128 -0.8338 -0.6387
-20.7089 -2.6995 -0.6434
-34.5615 -11.0104 -1.1176
-21.8056 -11.5523 -0.7603
-30.7289 -19.9830 -1.1293
-25.4184 -19.9719 -0.9960
-22.7017 -21.3777 -0.9607
-22.6460 -25.5079 -1.0509
-22.6396 -30.6214 -1.1733
9.3169 -35.4108 -1.1281
19.0791 -40.9441 -1.3917
19.4571 -33.5567 -1.1951
15.5005 -21.9504 -0.8279
15.4928 -18.2361 -0.7372
15.5100 -15.2566 -0.6703
18.5618 -15.2502 -0.7401
22.3573 -15.2423 -0.8337
27.2961 -15.2320 -0.9631
34.1141 -15.2178 -1.1509
16.2560 -5.5718 -0.5294
16.3229 -4.0086 -0.5178
16.2496 -2.4795 -0.5064
16.2465 -1.0090 -0.5015
16.2435 0.4446 -0.5006
16.2404 1.9049 -0.5038
10.3333 2.1609 -0.3253
10.3312 3.1454 -0.3327
10.3290 4.1847 -0.3434
10.3267 5.3019 -0.3576
10.3241 6.5263 -0.3763
12.0637 9.2302 -0.4680
12.0074 11.0190 -0.5021
11.9319 13.0964 -0.5458
10.3039 13.5680 -0.5249
11.9195 19.0070 -0.6912
18.0042 44.9029 -1.4905
-20.7777 30.2419 -1.1305
-20.7669 25.0915 -1.0035
-20.7583 20.9516 -0.9087
-23.1664 19.5381 -0.9337
-27.8666 19.5283 -1.0484
-20.7395 11.9257 -0.7371
-20.7345 9.5712 -0.7036
-20.7300 7.4047 -0.6782
-20.7258 5.3734 -0.6597
-20.7217 3.4353 -0.6471
-20.7178 1.5546 -0.6401
-20.7139 -0.3003 -0.6383
-20.7101 -2.1594 -0.6415
-35.4455 -10.2952 -1.1372
-22.2946 -11.0864 -0.7671
-32.5301 -19.9824 -1.1762
-26.8147 -19.9748 -1.0302
-22.9845 -20.5542 -0.9500
-22.6487 -24.2257 -1.0218
-22.6429 -29.0323 -1.1344
19.0666 -34.9242 -1.2259
15.5031 -23.1988 -0.8597
15.4948 -19.2197 -0.7606
15.4882 -16.0400 -0.6870
17.6195 -15.2522 -0.7180
21.1692 -15.2448 -0.8037
25.7232 -15.2353 -0.9211
31.8924 -15.2224 -1.0888
16.2570 -6.0439 -0.5344
16.3239 -4.4571 -0.5213
16.2505 -2.9093 -0.5086
16.2474 -1.4296 -0.5025
16.3145 0.0266 -0.5026
16.2413 1.4824 -0.5025
10.6251 1.9380 -0.3328
10.3318 2.8573 -0.3303
10.3297 3.8787 -0.3400
9.2855 4.4693 -0.3175
10.3249 6.1608 -0.3704
12.1080 8.7796 -0.4608
12.1044 10.5473 -0.4946
11.9332 12.4393 -0.5311
11.9281 14.8948 -0.5879
12.0366 18.1394 -0.6707
12.0346 22.2157 -0.7784
19.2264 44.5935 -1.4962
-20.7813 31.9802 -1.1751
-20.7698 26.4522 -1.0362
-20.7606 22.0614 -0.9333
-21.9950 19.5405 -0.9065
-26.3986 19.5313 -1.0117
-20.7410 12.6477 -0.7485
-20.7359 10.2271 -0.7123
-20.7313 8.0125 -0.6848
-20.7270 5.9470 -0.6644
-20.7229 3.9859 -0.6502
-20.7189 2.0920 -0.6416
-20.7150 0.2328 -0.6383
-20.7112 -1.6220 -0.6401
-35.1339 -12.6789 -1.1508
-24.7912 -11.5419 -0.8425
-21.5734 -12.4991 -0.7682
-28.3114 -19.9779 -1.0676
-23.6334 -20.0642 -0.9551
-22.6512 -23.0118 -0.9948
-22.6418 -27.5393 -1.0984
-22.6343 -33.1756 -1.2374
19.0713 -37.1766 -1.2873
15.5059 -24.5475 -0.8946
15.4970 -20.2684 -0.7861
15.4899 -16.8907 -0.7061
16.7314 -15.2540 -0.6976
20.0629 -15.2471 -0.7764
24.2808 -15.2383 -0.8832
29.8969 -15.2266 -1.0337
16.2580 -6.5252 -0.5397
16.3248 -4.9121 -0.5252
16.2514 -3.3432 -0.5112
16.2483 -1.8521 -0.5038
16.3154 -0.3934 -0.5028
16.2422 1.0619 -0.5015
12.3021 1.9182 -0.3836
10.3324 2.5732 -0.3281
10.3303 3.5784 -0.3368
10.3281 4.6477 -0.3489
10.3256 5.8063 -0.3650
10.3230 7.0872 -0.3858
12.0177 9.9395 -0.4805
11.9345 11.8164 -0.5174
12.0379 14.2636 -0.5750
11.9237 17.0028 -0.6398
12.0408 20.9231 -0.7438
-20.7852 33.8626 -1.2242
-20.7728 27.9056 -1.0718
-20.7630 23.2339 -0.9600
-20.8894 19.5428 -0.8813
-25.0290 19.5342 -0.9782
-30.2373 19.5233 -1.1089
-20.7373 10.8999 -0.7218
-20.7326 8.6325 -0.6919
-20.7282 6.5291 -0.6696
-20.7240 4.5420 -0.6537
-20.7201 2.6323 -0.6435
-20.7162 0.7662 -0.6387
-20.7123 -1.0867 -0.6390
-20.7084 -2.9565 -0.6445
-21.5901 -11.7774 -0.7577
-29.9218 -19.9813 -1.1085
-24.7886 -19.9706 -0.9807
-22.6536 -21.8594 -0.9699
-22.6447 -26.1414 -1.0656
-22.6379 -31.4130 -1.1930
19.0765 -39.6679 -1.3561
20.0068 -33.5555 -1.2036
15.4993 -21.3906 -0.8139
15.4918 -17.7909 -0.7268
15.8921 -15.2558 -0.6787
19.0288 -15.2492 -0.7513
22.9517 -15.2411 -0.8488
28.0925 -15.2303 -0.9845
35.2574 -15.2154 -1.1831
16.2556 -5.3512 -0.5273
16.2523 -3.7818 -0.5141
16.2491 -2.2771 -0.5055
16.2461 -0.8103 -0.5012
16.2431 0.6428 -0.5008
14.3455 1.8602 -0.4457
10.3330 2.2926 -0.3261
10.3309 3.2834 -0.3340
10.3287 4.3319 -0.3451
10.3264 5.4618 -0.3599
10.3238 6.7036 -0.3792
12.1065 9.4992 -0.4741
12.1026 11.3813 -0.5119
10.3080 11.5950 -0.4780
11.9256 16.1072 -0.6175
11.9185 19.5301 -0.7049
17.3899 44.9493 -1.4849
-20.7895 35.9105 -1.2784
-20.7760 29.4634 -1.1107
-20.7656 24.4765 -0.9889
-20.7572 20.4459 -0.8977
-23.7463 19.5369 -0.9474
-28.5999 19.5268 -1.0669
-20.7388 11.5913 -0.7320
-20.7339 9.2660 -0.6997
-20.7294 7.1207 -0.6753
-20.7252 5.1046 -0.6576
-20.7212 3.1762 -0.6459
-20.7173 1.3008 -0.6395
-20.7134 -0.5529 -0.6384
-20.7095 -2.4148 -0.6424
-17.6631 -3.6812 -0.5559
-32.4688 -13.1289 -1.0790
-22.0610 -11.3076 -0.7638
-31.6554 -19.9806 -1.1533
-26.1416 -19.9734 -1.0136
-22.8045 -20.8990 -0.9530
-22.6475 -24.8241 -1.0353
-22.6414 -29.7717 -1.1524
19.0645 -33.9304 -1.1991
15.5018 -22.5957 -0.8443
15.4938 -18.7461 -0.7493
15.4874 -15.6527 -0.6784
18.0586 -15.2513 -0.7283
21.7211 -15.2436 -0.8176
26.4508 -15.2338 -0.9404
32.9140 -15.2203 -1.1172
16.2565 -5.8192 -0.5320
16.3234 -4.2439 -0.5196
16.2500 -2.7052 -0.5075
16.2470 -1.2302 -0.5020
16.2357 0.2244 -0.5003
16.2409 1.6822 -0.5031
10.3280 2.0142 -0.3242
10.3315 2.9932 -0.3314
10.3294 4.0229 -0.3415
9.2284 4.5812 -0.3174
10.3190 6.3291 -0.3729
12.1076 9.0064 -0.4649
12.1038 10.8092 -0.5000
11.9326 12.7461 -0.5379
11.9273 15.2717 -0.5970
11.9207 18.4489 -0.6767
23.1979 44.0983 -1.5352
18.3981 44.1448 -1.4735
-20.7795 31.1401 -1.1534
-20.7684 25.7969 -1.0204
-20.7595 21.5283 -0.9214
-22.5412 19.5394 -0.9191
-27.0810 19.5299 -1.0287
-20.7402 12.3031 -0.7430
-20.7353 9.9144 -0.7081
-20.7307 7.7231 -0.6816
-20.7264 5.6743 -0.6621
-20.7223 3.7244 -0.6487
-20.7184 1.8371 -0.6408
-20.7145 -0.0198 -0.6382
-20.7106 -1.8762 -0.6407
-34.4500 -9.5020 -1.1010
-34.9326 -13.0898 -1.1493
-21.6384 -12.8916 -0.7760
-27.5891 -19.9764 -1.0494
-23.2754 -20.2537 -0.9506
-22.6501 -23.5786 -1.0073
-22.6404 -28.2320 -1.1150
-22.6324 -34.0571 -1.2599
19.0690 -36.0822 -1.2574
15.5046 -23.8954 -0.8776
15.4959 -19.7631 -0.7738
15.4891 -16.4819 -0.6969
17.1457 -15.2532 -0.7070
20.5774 -15.2460 -0.7890
24.9490 -15.2369 -0.9007
30.8164 -15.2247 -1.0590
16.2575 -6.2961 -0.5371
16.3244 -4.6958 -0.5233
16.2509 -3.1372 -0.5099
16.2478 -1.6517 -0.5032
16.3150 -0.1944 -0.5027
16.2418 1.2609 -0.5019
11.5168 1.9399 -0.3598
10.3321 2.7072 -0.3291
10.3300 3.7199 -0.3383
10.3278 4.7997 -0.3509
10.3253 5.9729 -0.3675
12.0127 8.4646 -0.4528
12.1049 10.2627 -0.4889
11.9339 12.1075 -0.5238
11.9290 14.4892 -0.5782
12.0377 17.6181 -0.6574
12.0379 21.5206 -0.7597
20.3654 45.5288 -1.5367
9.2795 26.9839 -0.8792
-20.7833 32.9517 -1.2003
-20.7713 27.2049 -1.0546
-20.7619 22.6704 -0.9471
-17.6820 16.1427 -0.7377
-25.6661 19.5329 -0.9937
-20.7418 13.0369 -0.7548
-20.7367 10.5790 -0.7172
-20.7320 8.3371 -0.6885
-20.7276 6.2522 -0.6670
-20.7235 4.2779 -0.6519
-20.7195 2.3760 -0.6425
-20.7156 0.5135 -0.6384
-20.7118 -1.3401 -0.6395
-20.7078 -3.2145 -0.6456
-21.5291 -12.0869 -0.7607
-29.1440 -19.9797 -1.0887
-24.1779 -19.9693 -0.9661
-22.6525 -22.3980 -0.9815
-22.6434 -26.7930 -1.0808
-22.6362 -32.2319 -1.2135
19.0739 -38.4556 -1.3225
9.3680 -15.2853 -0.5523
15.4982 -20.8493 -0.8004
15.4909 -17.3580 -0.7168
16.2840 -15.2550 -0.6875
23.0191 -15.2409 -0.6804
28.1832 -15.2302 -0.7895
33.9286 -14.5874 -0.9102
16.2555 -5.3267 -0.4216
16.2522 -3.7585 -0.4111
16.2491 -2.2546 -0.4043
16.2460 -0.7883 -0.4009
16.2430 0.6649 -0.4006
14.0307 1.8387 -0.3487
10.3579 2.3129 -0.2616
12.1194 3.8700 -0.3135
10.3287 4.3484 -0.2762
10.3263 5.4797 -0.2881
10.3237 6.7235 -0.3036
10.3208 8.1207 -0.3237
10.3175 9.7289 -0.3495
10.3080 11.6266 -0.3829
11.9255 16.1529 -0.4948
11.9183 19.5897 -0.5651
9.4287 24.4699 -0.6463
-20.7893 35.7982 -1.0202
-20.7759 29.3786 -0.8868
-20.7655 24.4090 -0.7898
-20.7571 20.3904 -0.7171
-23.8119 19.5367 -0.7591
-28.6831 19.5266 -0.8551
-20.7387 11.5544 -0.5851
-20.7338 9.2322 -0.5593
-20.7294 7.0893 -0.5399
-20.7252 5.0747 -0.5259
-20.7211 3.1474 -0.5165
-20.7172 1.2726 -0.5115
-20.7133 -0.5810 -0.5107
-20.7095 -2.4433 -0.5139
-17.6531 -3.7041 -0.4445
-21.9918 -11.3099 -0.6095
-31.5601 -19.9804 -0.9206
-26.0680 -19.9733 -0.8093
-22.7867 -20.9395 -0.7627
-22.6473 -24.8916 -0.8294
-22.6412 -29.8554 -0.9234
19.0819 -42.2890 -1.1434
19.0643 -33.8226 -0.9568
15.5017 -22.5299 -0.6740
15.4937 -18.6943 -0.5984
15.4873 -15.6102 -0.5419
18.1083 -15.2512 -0.5835
21.7838 -15.2435 -0.6552
26.5336 -15.2336 -0.7540
33.0310 -15.2200 -0.8963
16.2565 -5.7943 -0.4253
16.3234 -4.2203 -0.4155
16.2500 -2.6826 -0.4059
16.2469 -1.2080 -0.4015
16.2371 0.2464 -0.4002
16.2408 1.7045 -0.4025
10.3280 2.0287 -0.2594
10.3564 3.0157 -0.2658
10.3685 4.0543 -0.2744
9.2339 4.5995 -0.2542
10.3245 6.3518 -0.2987
10.3217 7.6997 -0.3174
10.3185 9.2400 -0.3414
10.3147 11.0479 -0.3725
11.9273 15.3143 -0.4784
11.9206 18.5037 -0.5425
22.9063 43.6876 -1.2157
18.4174 44.3601 -1.1837
-20.7794 31.0485 -0.9207
-20.7682 25.7252 -0.8148
-20.7594 21.4698 -0.7360
-22.6029 19.5393 -0.7363
-27.1582 19.5298 -0.8244
-20.7402 12.2650 -0.5938
-20.7352 9.8798 -0.5661
-20.7306 7.6911 -0.5449
-20.7263 5.6441 -0.5294
-20.7223 3.6954 -0.5188
-20.7183 1.8088 -0.5125
-20.7145 -0.0478 -0.5105
-20.7106 -1.9045 -0.5126
-33.9590 -9.4162 -0.8685
-24.2901 -11.7116 -0.6646
-21.5133 -12.8566 -0.6177
-27.5103 -19.9763 -0.8379
-23.2393 -20.2776 -0.7601
-22.6499 -23.6426 -0.8069
-22.6402 -28.3104 -0.8934
-22.6322 -34.1573 -1.0098
19.0687 -35.9637 -1.0032
15.5044 -23.8242 -0.7005
15.4958 -19.7079 -0.6179
15.4890 -16.4371 -0.5566
17.1925 -15.2531 -0.5664
20.6357 -15.2459 -0.6323
25.0250 -15.2367 -0.7221
30.9213 -15.2244 -0.8494
16.2575 -6.2707 -0.4294
16.3243 -4.6718 -0.4185
16.2509 -3.1143 -0.4078
16.2478 -1.6294 -0.4024
16.3149 -0.1723 -0.4021
16.2417 1.2831 -0.4015
11.4211 1.9397 -0.2855
12.1415 3.1990 -0.3094
12.1172 4.3821 -0.3176
10.3277 4.8168 -0.2808
10.3253 5.9916 -0.2942
10.3225 7.2946 -0.3115
10.3195 8.7731 -0.3338
10.3159 10.4943 -0.3627
11.9289 14.5292 -0.4633
12.0376 17.6695 -0.5269
12.0375 21.5886 -0.6092
19.9970 44.8685 -1.2106
9.2419 26.9936 -0.7032
-20.7831 32.8526 -0.9581
-20.7712 27.1284 -0.8420
-20.7617 22.6085 -0.7565
-17.7147 16.1284 -0.5904
-25.7384 19.5327 -0.7963
-20.7417 12.9976 -0.6032
-20.7366 10.5435 -0.5733
-20.7319 8.3045 -0.5504
-20.7276 6.2215 -0.5333
-20.7234 4.2486 -0.5213
-20.7195 2.3475 -0.5139
-20.7156 0.4854 -0.5107
-20.7117 -1.3683 -0.5115
-20.7078 -3.2433 -0.5166
-34.3460 -11.9236 -0.8960
-21.4295 -12.0693 -0.6061
-29.0591 -19.9795 -0.8691
-24.1176 -19.9747 -0.7718
-22.6524 -22.4586 -0.7861
-22.6432 -26.8666 -0.8659
-22.6360 -32.3247 -0.9725
19.0737 -38.3244 -1.0550
9.3905 -15.2755 -0.4419
15.4981 -20.7903 -0.6391
15.4908 -17.3106 -0.5725
16.3282 -15.2549 -0.5507
19.5646 -15.2481 -0.6113
23.6381 -15.2396 -0.6931
29.0202 -15.2284 -0.8077
34.3650 -14.2812 -0.9171
16.2548 -5.1079 -0.4199
16.2518 -3.5503 -0.4100
16.2487 -2.0530 -0.4036
16.3158 -0.5924 -0.4024
16.2426 0.8633 -0.4009
13.3865 1.9205 -0.3333
12.1422 2.8672 -0.3075
12.1179 4.0329 -0.3148
10.3284 4.4972 -0.2776
10.3260 5.6419 -0.2900
10.3234 6.9039 -0.3061
10.3204 8.3260 -0.3268
10.3170 9.9688 -0.3536
12.0454 13.9245 -0.4537
11.9246 16.5707 -0.5031
12.0436 20.3500 -0.5828
17.3057 46.5977 -1.2250
-20.7872 34.8106 -0.9992
-20.7743 28.6297 -0.8718
-20.7642 23.8132 -0.7787
-20.7561 19.8981 -0.7086
-24.4112 19.5355 -0.7705
-29.4461 19.5250 -0.8707
-20.7380 11.2250 -0.5812
-20.7332 8.9308 -0.5564
-20.7288 6.8081 -0.5377
-20.7246 4.8076 -0.5243
-20.7206 2.8894 -0.5156
-20.7167 1.0193 -0.5112
-20.7128 -0.8338 -0.5109
-20.7089 -2.6995 -0.5147
-32.9678 -13.8532 -0.8813
-21.7610 -11.5287 -0.6069
-30.7290 -19.9830 -0.9034
-25.4184 -19.9719 -0.7967
-22.7017 -21.3777 -0.7685
-22.6460 -25.5079 -0.8406
-22.6396 -30.6214 -0.9385
9.3166 -35.4094 -0.9024
19.0791 -40.9441 -1.1132
19.4571 -33.5567 -0.9560
15.5005 -21.9504 -0.6623
15.4928 -18.2361 -0.5897
15.5100 -15.2566 -0.5362
18.5618 -15.2502 -0.5920
22.3573 -15.2423 -0.6669
27.2961 -15.2320 -0.7704
34.1141 -15.2178 -0.9206
16.2560 -5.5718 -0.4235
16.3229 -4.0086 -0.4142
16.2496 -2.4795 -0.4051
16.2465 -1.0090 -0.4012
16.2435 0.4446 -0.4005
16.2404 1.9049 -0.4030
10.3582 2.1661 -0.2608
12.1404 3.6963 -0.3128
10.3290 4.1847 -0.2747
10.3267 5.3019 -0.2861
10.3241 6.5263 -0.3010
10.3213 7.8970 -0.3203
10.3180 9.4687 -0.3451
10.3142 11.3208 -0.3774
10.3039 13.5680 -0.4199
11.9195 19.0070 -0.5529
18.0919 45.1215 -1.1981
-20.7777 30.2419 -0.9043
-20.7669 25.0915 -0.8027
-20.7583 20.9516 -0.7269
-23.1664 19.5381 -0.7469
-27.8666 19.5283 -0.8386
-20.7395 11.9257 -0.5896
-20.7345 9.5712 -0.5628
-20.7300 7.4047 -0.5425
-20.7258 5.3734 -0.5277
-20.7217 3.4353 -0.5177
-20.7178 1.5546 -0.5120
-20.7139 -0.3003 -0.5105
-20.7101 -2.1594 -0.5132
-22.2507 -11.0645 -0.6124
-32.5301 -19.9824 -0.9409
-26.8147 -19.9748 -0.8240
-22.9845 -20.5542 -0.7599
-22.6487 -24.2257 -0.8173
-22.6429 -29.0323 -0.9074
-22.6303 -35.0755 -1.0287
19.0666 -34.9242 -0.9806
15.5031 -23.1988 -0.6876
