ply
format ascii 1.0
element vertex 2088
property float32 x
property float32 y
property float32 z
end_header
8.7936 -11.5002 1.7022
9.8705 -10.7617 1.7170
10.8947 -9.9309 1.7333
11.8418 -8.9970 1.7486
12.6951 -7.9646 1.7621
13.4992 -6.8722 1.7810
14.2353 -5.7100 1.8034
14.8328 -4.4593 1.8211
14.9732 -3.0761 1.7973
15.1076 -1.7175 1.7878
15.2388 -0.3625 1.7922
15.3692 1.0103 1.8110
15.5006 2.4230 1.8446
15.6353 3.9006 1.8947
15.5858 5.4066 1.9397
15.0965 6.8020 1.9469
14.4507 8.1353 1.9498
13.6857 9.4064 1.9526
12.8074 10.6046 1.9551
11.8228 11.7194 1.9573
10.7398 12.7412 1.9593
9.5672 13.6610 1.9610
8.3149 14.4709 1.9623
6.9931 15.1637 1.9634
5.6130 15.7333 1.9641
4.1864 16.1748 1.9645
2.7229 16.4699 1.9628
1.2407 16.6402 1.9619
-0.2502 16.6799 1.9614
-1.3645 13.0195 1.5392
-2.5788 13.1368 1.5741
-4.6684 16.0373 1.9639
-2.5525 6.5290 0.8242
-3.1141 6.2523 0.8213
-8.9135 14.4888 2.0001
-10.1717 13.6349 2.0001
-10.4990 11.7232 1.8503
-11.5207 10.7544 1.8530
-12.2707 9.5547 1.8285
-12.9629 8.3486 1.8129
-13.5178 7.0848 1.7944
-13.9483 5.7879 1.7756
-14.2545 4.4705 1.7565
-14.4376 3.1451 1.7373
-14.5002 1.8230 1.7183
-14.4454 0.5151 1.6995
-14.2777 -0.7685 1.6812
-14.0018 -2.0188 1.6633
-9.8709 -2.3385 1.1927
-13.1481 -4.3868 1.6297
-12.5822 -5.4905 1.6141
-11.9323 -6.5323 1.5994
-11.2048 -7.5071 1.5858
-10.3985 -8.4041 1.5720
-9.5274 -9.2226 1.5591
-9.2590 -10.7236 1.6658
-8.2977 -11.5540 1.6725
-7.1930 -12.1816 1.6633
-6.0490 -12.7176 1.6558
-4.8720 -13.1606 1.6500
-3.6681 -13.5093 1.6459
-2.4434 -13.7628 1.6435
-0.4897 -5.6618 0.6682
0.0438 -13.9808 1.6438
1.2943 -13.9443 1.6466
2.5412 -13.8102 1.6510
3.7784 -13.5785 1.6572
4.9994 -13.2492 1.6650
6.1978 -12.8227 1.6745
7.3670 -12.2995 1.6857
8.4999 -11.6804 1.6985
9.5896 -10.9668 1.7129
10.6285 -10.1602 1.7288
11.6007 -9.2561 1.7450
12.4743 -8.2449 1.7581
13.2888 -7.1670 1.7752
14.0491 -6.0260 1.7974
14.6996 -4.8024 1.8182
14.9365 -3.4398 1.8022
15.0724 -2.0768 1.7889
15.2042 -0.7229 1.7897
15.3346 0.6431 1.8046
15.4655 2.0429 1.8342
15.5991 3.5006 1.8797
15.6830 5.0267 1.9364
15.2473 6.4392 1.9460
14.6339 7.7871 1.9490
13.9000 9.0758 1.9518
13.0511 10.2944 1.9544
12.0940 11.4323 1.9567
11.0362 12.4796 1.9588
9.8866 13.4273 1.9605
8.6543 14.2672 1.9620
7.3499 14.9916 1.9631
5.9842 15.5944 1.9639
4.5688 16.0703 1.9644
3.1143 16.4081 1.9637
1.6352 16.6070 1.9620
0.1456 16.6823 1.9615
-1.0967 13.5617 1.5998
-2.2511 13.1052 1.5634
-4.2759 16.1039 1.9591
-2.5166 6.9168 0.8654
-2.9228 6.2347 0.8096
-8.5673 14.6962 2.0001
-9.8454 13.8724 2.0001
-10.2128 11.9630 1.8494
-11.2264 10.9896 1.8471
-12.0634 9.8617 1.8320
-12.7950 8.6767 1.8177
-13.3826 7.4239 1.7994
-13.8462 6.1345 1.7806
-14.1853 4.8214 1.7616
-14.4009 3.4969 1.7424
-14.4952 2.1728 1.7233
-14.4712 0.8602 1.7045
-14.3329 -0.4308 1.6860
-14.0852 -1.6908 1.6680
-13.7334 -2.9112 1.6506
-13.2832 -4.0844 1.6340
-12.7409 -5.2034 1.6181
-12.1126 -6.2622 1.6032
-11.4050 -7.2552 1.5893
-10.6198 -8.1741 1.5757
-9.7641 -9.0129 1.5624
-9.2182 -10.1779 1.6146
-8.5834 -11.3724 1.6752
-7.4902 -12.0240 1.6656
-6.3561 -12.5844 1.6577
-5.1871 -13.0522 1.6514
-3.9898 -13.4260 1.6468
-2.7701 -13.7049 1.6440
-0.6239 -5.6486 0.6682
-0.2878 -13.9742 1.6434
0.9626 -13.9634 1.6457
2.2110 -13.8553 1.6497
3.4514 -13.6495 1.6554
4.6774 -13.3461 1.6628
5.8824 -12.9453 1.6718
7.0600 -12.4477 1.6826
8.2032 -11.8539 1.6949
9.3051 -11.1652 1.7089
10.3582 -10.3832 1.7244
11.3503 -9.5057 1.7407
12.2508 -8.5215 1.7546
13.0723 -7.4559 1.7694
13.8562 -6.3366 1.7915
14.5386 -5.1346 1.8129
14.8995 -3.8057 1.8081
15.0369 -2.4367 1.7911
15.1694 -1.0824 1.7881
15.3000 0.2783 1.7992
15.4306 1.6669 1.8248
15.5633 3.1067 1.8660
15.7010 4.6247 1.9245
15.3892 6.0730 1.9452
14.8086 7.4347 1.9483
14.1061 8.7403 1.9511
13.2872 9.9785 1.9538
12.3581 11.1388 1.9561
11.3262 12.2111 1.9583
10.2001 13.1861 1.9601
8.9888 14.0553 1.9616
7.7025 14.8110 1.9628
6.3519 15.4467 1.9637
4.9486 15.9567 1.9643
3.5040 16.3358 1.9644
2.0289 16.5642 1.9621
0.5414 16.6756 1.9617
-0.9497 16.6527 1.9612
-1.9276 13.0739 1.5538
-3.1702 13.1939 1.5955
-2.4770 7.3458 0.9115
-2.7455 6.2374 0.8013
-8.2162 14.8953 2.0001
-9.5135 14.1020 2.0001
-9.9211 12.1958 1.8485
-10.9911 11.2822 1.8519
-11.8477 10.1638 1.8354
-12.6166 8.9999 1.8222
-13.2387 7.7604 1.8043
-13.7353 6.4794 1.7856
-14.1074 5.1714 1.7666
-14.3556 3.8488 1.7475
-14.4818 2.5235 1.7284
-14.4888 1.2068 1.7095
-14.3805 -0.0909 1.6908
-14.1613 -1.3600 1.6727
-13.8366 -2.5917 1.6552
-9.5990 -2.7041 1.1725
-12.8934 -4.9121 1.6223
-12.2873 -5.9874 1.6071
-11.6001 -6.9984 1.5929
-10.8366 -7.9388 1.5795
-9.9969 -8.7979 1.5658
-9.1798 -9.6644 1.5672
-8.8657 -11.1844 1.6781
-7.7846 -11.8599 1.6680
-6.6606 -12.4447 1.6596
-5.5003 -12.9372 1.6529
-4.2911 -13.2778 1.6407
-3.0955 -13.6402 1.6446
-1.8560 -13.7944 1.6365
-0.6192 -13.9607 1.6431
0.6308 -13.9758 1.6449
1.8803 -13.8935 1.6485
3.1235 -13.7136 1.6537
4.3538 -13.4361 1.6606
5.5651 -13.0611 1.6693
6.7506 -12.5891 1.6796
7.9036 -12.0208 1.6915
9.0171 -11.3571 1.7050
10.0839 -10.5997 1.7202
11.0952 -9.7491 1.7366
12.0216 -8.7926 1.7512
12.8610 -7.7454 1.7652
13.6568 -6.6416 1.7855
14.3705 -5.4621 1.8076
14.8620 -4.1741 1.8150
15.0011 -2.7977 1.7942
15.1345 -1.4415 1.7875
15.2654 -0.0846 1.7949
15.3958 1.2944 1.8166
15.5277 2.7183 1.8535
15.6634 4.2125 1.9071
15.5037 5.6970 1.9421
14.9747 7.0785 1.9475
14.3041 8.4000 1.9504
13.5155 9.6571 1.9531
12.6149 10.8391 1.9555
11.6096 11.9357 1.9577
10.5075 12.9374 1.9596
9.3179 13.8354 1.9613
8.0505 14.6219 1.9626
6.7159 15.2900 1.9635
5.3254 15.8339 1.9642
3.8907 16.2487 1.9645
2.4213 16.5119 1.9622
0.9369 16.6593 1.9618
-0.5543 16.6718 1.9613
-1.6079 13.0430 1.5452
-2.8339 13.1614 1.5830
-4.9709 15.9851 1.9682
-2.5987 6.3055 0.8019
-7.8605 15.0860 2.0001
-9.1763 14.3238 2.0001
-9.6249 12.4225 1.8477
-10.7151 11.5341 1.8510
-11.7149 10.5425 1.8530
-12.4243 9.3153 1.8258
-13.0861 8.0941 1.8092
-13.6157 6.8225 1.7906
-14.0208 5.5204 1.7717
-14.3018 4.2004 1.7526
-14.4601 2.8748 1.7334
-14.4984 1.5547 1.7145
-14.4202 0.2510 1.6957
-14.2300 -1.0265 1.6775
-13.9327 -2.2690 1.6598
-9.5772 -2.4542 1.1624
-13.0398 -4.6167 1.6264
-12.4563 -5.7081 1.6110
-11.7900 -6.7367 1.5966
-11.0484 -7.6980 1.5833
-10.2256 -8.5773 1.5693
-9.3429 -9.3800 1.5566
-9.1447 -10.9902 1.6810
-8.0759 -11.6894 1.6705
-6.9626 -12.2984 1.6617
-5.8114 -12.8155 1.6545
-4.6284 -13.2394 1.6490
-3.4198 -13.5688 1.6453
-2.1916 -13.8027 1.6432
-0.3864 -5.6701 0.6682
0.2989 -13.9812 1.6443
1.5492 -13.9248 1.6473
2.7946 -13.7709 1.6521
4.0290 -13.5192 1.6586
5.2459 -13.1701 1.6668
6.4389 -12.7238 1.6767
7.6012 -12.1809 1.6882
8.7259 -11.5425 1.7013
9.8058 -10.8097 1.7160
10.8336 -9.9845 1.7322
11.7870 -9.0579 1.7478
12.6445 -8.0299 1.7612
13.4511 -6.9409 1.7797
14.1929 -5.7835 1.8020
14.8187 -4.5438 1.8224
14.9647 -3.1601 1.7983
15.0995 -1.8006 1.7879
15.2308 -0.4459 1.7916
15.3612 0.9251 1.8094
15.4925 2.3348 1.8421
15.6269 3.8075 1.8911
15.6090 5.3189 1.9389
15.1322 6.7184 1.9467
14.4938 8.0551 1.9496
13.7359 9.3305 1.9524
12.8644 10.5334 1.9549
11.8861 11.6536 1.9572
10.8089 12.6813 1.9592
9.6416 13.6077 1.9609
8.3938 14.4245 1.9622
7.0760 15.1246 1.9633
5.6991 15.7020 1.9640
4.2751 16.1514 1.9644
2.8135 16.4566 1.9630
1.3320 16.6333 1.9620
-0.1587 16.6812 1.9614
-1.2942 13.0385 1.5406
-2.5026 13.1294 1.5715
-4.5768 16.0508 1.9624
-2.5445 6.6154 0.8334
-3.0694 6.2482 0.8185
-8.8339 14.5374 2.0001
-10.0968 13.6905 2.0001
-10.4333 11.7793 1.8501
-11.4615 10.8175 1.8530
-12.2235 9.6261 1.8294
-12.9249 8.4247 1.8140
-13.4873 7.1634 1.7956
-13.9254 5.8681 1.7767
-14.2393 4.5517 1.7577
-14.4299 3.2264 1.7385
-14.4997 1.9038 1.7195
-14.4521 0.5948 1.7007
-14.2911 -0.6907 1.6823
-14.0218 -1.9432 1.6644
-13.6494 -3.1546 1.6472
-13.1799 -4.3173 1.6307
-12.6195 -5.4245 1.6150
-11.9745 -6.4702 1.6003
-11.2515 -7.4493 1.5866
-10.4501 -8.3514 1.5729
-9.5825 -9.1746 1.5598
-9.2493 -10.5944 1.6536
-8.3640 -11.5126 1.6731
-7.2620 -12.1457 1.6639
-6.1202 -12.6874 1.6562
-4.9450 -13.1361 1.6503
-3.7426 -13.4907 1.6461
-2.5190 -13.7500 1.6436
-0.5208 -5.6590 0.6682
-0.0329 -13.9799 1.6437
1.2177 -13.9493 1.6464
2.4649 -13.8212 1.6507
3.7029 -13.5955 1.6568
4.9251 -13.2722 1.6645
6.1251 -12.8516 1.6739
7.2962 -12.3343 1.6850
8.4315 -11.7211 1.6977
9.5241 -11.0132 1.7119
10.5664 -10.2124 1.7278
11.5433 -9.3144 1.7440
12.4231 -8.3094 1.7573
13.2392 -7.2343 1.7739
14.0051 -6.0983 1.7960
14.6630 -4.8796 1.8170
14.9280 -3.5242 1.8034
15.0642 -2.1600 1.7893
15.1962 -0.8061 1.7892
15.3266 0.5586 1.8033
15.4574 1.9556 1.8319
15.5908 3.4091 1.8764
15.7037 4.9385 1.9355
15.2809 6.3548 1.9459
14.6750 7.7060 1.9489
13.9484 8.9986 1.9517
13.1063 10.2219 1.9543
12.1557 11.3649 1.9566
11.1039 12.4182 1.9587
9.9595 13.3722 1.9604
8.7322 14.2189 1.9619
7.4318 14.9506 1.9631
6.0696 15.5611 1.9639
4.6569 16.0449 1.9644
3.2048 16.3926 1.9639
1.7263 16.5979 1.9621
0.2371 16.6816 1.9616
-1.1190 14.8520 1.7512
-2.1759 13.0979 1.5611
-4.1877 16.1277 1.9591
-2.5078 7.0121 0.8756
-2.8794 6.2307 0.8070
-8.4865 14.7430 2.0001
-9.7692 13.9262 2.0001
-10.1459 12.0174 1.8492
-11.1991 11.0838 1.8526
-12.0142 9.9320 1.8328
-12.7549 8.7521 1.8188
-13.3501 7.5019 1.8005
-13.8213 6.2144 1.7818
-14.1681 4.9024 1.7627
-14.3912 3.5783 1.7436
-14.4928 2.2539 1.7245
-14.4760 0.9402 1.7056
-14.3446 -0.3524 1.6871
-14.1035 -1.6145 1.6691
-13.7579 -2.8377 1.6517
-13.3136 -4.0139 1.6350
-12.7767 -5.1364 1.6191
-12.1535 -6.1990 1.6041
-11.4506 -7.1963 1.5901
-10.6703 -8.1202 1.5766
-9.8183 -8.9637 1.5631
-9.2092 -10.0565 1.6033
-8.6490 -11.3295 1.6759
-7.5586 -11.9866 1.6662
-6.4267 -12.5526 1.6581
-5.2598 -13.0262 1.6517
-4.0639 -13.4058 1.6471
-2.8454 -13.6905 1.6441
-0.6549 -5.6451 0.6682
-0.3644 -13.9717 1.6433
0.8859 -13.9669 1.6455
2.1347 -13.8647 1.6494
3.3756 -13.6649 1.6550
4.6027 -13.3675 1.6623
5.8092 -12.9727 1.6712
6.9886 -12.4810 1.6819
8.1342 -11.8931 1.6941
12.1314 -7.5185 1.7673
12.8668 -6.4616 1.7829
13.5520 -5.3497 1.8041
14.1433 -4.1676 1.8258
14.6284 -2.9217 1.8472
14.9547 -1.6171 1.8626
15.1613 -0.2774 1.8777
15.2483 1.0864 1.8929
15.2120 2.4635 1.9082
15.0498 3.8423 1.9233
14.7497 5.2074 1.9369
14.2912 6.5337 1.9458
13.6702 7.7949 1.9486
12.9366 8.9965 1.9512
12.0961 10.1280 1.9535
11.1553 11.1799 1.9557
10.1220 12.1429 1.9575
9.0044 13.0087 1.9591
7.8118 13.7698 1.9603
6.5542 14.4195 1.9613
5.2421 14.9522 1.9620
3.8865 15.3632 1.9623
2.4986 15.6460 1.9619
1.0903 15.7906 1.9600
-0.3241 15.8202 1.9594
-1.4375 13.0265 1.6228
-2.6552 13.1441 1.6605
-4.4996 15.1476 1.9567
-2.5603 6.4445 0.8587
-3.1589 6.2561 0.8678
-8.5390 13.7109 2.0001
-8.9879 11.9111 1.8477
-10.0337 11.0807 1.8510
-10.9951 10.1515 1.8530
-11.6310 8.9545 1.8176
-12.2944 7.8229 1.8044
-12.8281 6.6339 1.7883
-13.2359 5.4074 1.7705
-13.5265 4.1609 1.7524
-13.7008 2.9059 1.7343
-13.7610 1.6534 1.7162
-13.7099 0.4136 1.6984
-13.5516 -0.8040 1.6810
-13.2904 -1.9907 1.6641
-9.6839 -2.3504 1.2339
-12.4801 -4.2402 1.6321
-11.9421 -5.2893 1.6173
-11.3236 -6.2800 1.6034
-10.6373 -7.2118 1.5914
-9.8722 -8.0687 1.5788
-9.1103 -8.9162 1.5785
-8.8731 -10.3914 1.6920
-7.8615 -11.0744 1.6817
-6.8056 -11.6713 1.6730
-5.7117 -12.1803 1.6658
-4.5860 -12.6000 1.6604
-3.4345 -12.9291 1.6565
-2.2631 -13.1666 1.6543
-0.4382 -5.4111 0.6722
0.1152 -13.3634 1.6548
1.3103 -13.3218 1.6576
2.5013 -13.1863 1.6619
3.6821 -12.9570 1.6679
4.8466 -12.6340 1.6756
5.9883 -12.2177 1.6848
7.1008 -11.7088 1.6956
8.1772 -11.1084 1.7080
9.2108 -10.4177 1.7219
10.1930 -9.6374 1.7370
11.1042 -8.7607 1.7514
11.9254 -7.7884 1.7637
12.6767 -6.7474 1.7782
13.3790 -5.6519 1.7984
13.9960 -4.4877 1.8200
14.5126 -3.2584 1.8418
14.8803 -1.9673 1.8586
15.1180 -0.6356 1.8737
15.2371 0.7228 1.8889
15.2338 2.0974 1.9042
15.1052 3.4770 1.9193
14.8450 4.8481 1.9338
14.4364 6.1903 1.9450
13.8461 7.4657 1.9479
13.1419 8.6841 1.9505
12.3292 9.8352 1.9529
11.4144 10.9091 1.9551
10.4048 11.8965 1.9570
9.3087 12.7889 1.9587
8.1350 13.5784 1.9600
6.8936 14.2583 1.9611
5.5949 14.8226 1.9618
4.2498 15.2662 1.9623
2.8697 15.5855 1.9624
1.4647 15.7611 1.9601
0.0513 15.8249 1.9596
-1.1640 13.4737 1.6746
-2.3265 13.1123 1.6490
-4.1396 15.2528 1.9570
-2.5253 6.8238 0.9010
-2.9664 6.2384 0.8554
-8.2113 13.9096 2.0001
-9.4206 13.1207 2.0001
-9.7630 11.3099 1.8501
-10.7512 10.4095 1.8530
-11.4358 9.2445 1.8209
-12.1296 8.1287 1.8081
-12.7002 6.9545 1.7930
-13.1392 5.7352 1.7752
-13.4608 4.4929 1.7572
-13.6658 3.2391 1.7391
-13.7560 1.9849 1.7210
-13.7341 0.7408 1.7031
-13.6038 -0.4836 1.6856
-13.3695 -1.6793 1.6685
-13.0359 -2.8382 1.6520
-12.6085 -3.9528 1.6362
-12.0929 -5.0164 1.6212
-11.4952 -6.0231 1.6070
-10.8286 -6.9723 1.5948
-10.0832 -7.8495 1.5823
-9.2670 -8.6487 1.5696
-9.1333 -10.1960 1.6950
-8.1345 -10.9015 1.6843
-7.0897 -11.5214 1.6751
-6.0053 -12.0539 1.6676
-4.8875 -12.4975 1.6617
-3.7422 -12.8507 1.6574
-2.5755 -13.1126 1.6547
-0.5664 -5.3990 0.6722
-0.2018 -13.3588 1.6544
0.9933 -13.3420 1.6567
2.1860 -13.2314 1.6606
3.3702 -13.0270 1.6662
4.5396 -12.7288 1.6734
5.6880 -12.3372 1.6822
6.8088 -11.8528 1.6926
7.8955 -11.2765 1.7046
8.9411 -10.6097 1.7181
9.9387 -9.8539 1.7330
10.8707 -9.0030 1.7478
11.7149 -8.0538 1.7604
12.4849 -7.0304 1.7742
13.1995 -5.9490 1.7928
13.8417 -4.8032 1.8142
14.3861 -3.5906 1.8360
14.7980 -2.3148 1.8547
15.0663 -0.9920 1.8697
15.2173 0.3603 1.8848
15.2468 1.7317 1.9001
15.1517 3.1111 1.9153
14.9297 4.4867 1.9304
14.5599 5.8383 1.9424
14.0140 7.1324 1.9471
13.3396 8.3669 1.9498
12.5551 9.5369 1.9523
11.6666 10.6322 1.9546
10.6814 11.6434 1.9566
9.6074 12.5618 1.9583
8.4535 13.3794 1.9597
7.2291 14.0889 1.9608
5.9445 14.6844 1.9617
4.6106 15.1605 1.9622
3.2386 15.5131 1.9624
1.8386 15.7252 1.9605
0.4268 15.8205 1.9597
-0.9874 15.7902 1.9591
-2.0021 13.0810 1.6386
-3.2487 13.2014 1.6835
-2.4865 7.2426 0.9482
-2.7792 6.2212 0.8437
-7.8790 14.1005 2.0001
-9.1067 13.3405 2.0001
-9.4871 11.5325 1.8491
-10.4992 10.6596 1.8527
-11.2328 9.5298 1.8241
-11.9567 8.4306 1.8116
-12.5641 7.2726 1.7976
-13.0342 6.0615 1.7800
-13.3869 4.8241 1.7620
-13.6227 3.5723 1.7439
-13.7431 2.3171 1.7258
-13.7507 1.0694 1.7078
-13.6487 -0.1612 1.6902
-13.4415 -1.3653 1.6730
-13.1338 -2.5347 1.6563
-9.5958 -2.7600 1.2364
-12.2380 -4.7395 1.6251
-11.6615 -5.7619 1.6106
-11.0150 -6.7281 1.5983
-10.2875 -7.6236 1.5855
-9.4891 -8.4438 1.5728
-9.1718 -9.7627 1.6587
-8.4042 -10.7226 1.6870
-7.3710 -11.3654 1.6774
-6.2966 -11.9212 1.6694
-5.1870 -12.3885 1.6631
-4.0484 -12.7658 1.6583
-2.8869 -13.0520 1.6553
-1.7082 -13.2462 1.6538
-0.5186 -13.3475 1.6540
0.6762 -13.3555 1.6559
1.8701 -13.2699 1.6594
3.0572 -13.0904 1.6646
4.2311 -12.8171 1.6713
5.3857 -12.4502 1.6797
6.5145 -11.9903 1.6897
7.6108 -11.4383 1.7013
8.6681 -10.7954 1.7143
9.6791 -10.0630 1.7289
10.6299 -9.2373 1.7438
11.4990 -8.3139 1.7571
12.2872 -7.3083 1.7703
13.0138 -6.2408 1.7872
13.6805 -5.1141 1.8085
14.2516 -3.9184 1.8302
14.7077 -2.6596 1.8507
15.0063 -1.3463 1.8657
15.1889 -0.0008 1.8808
15.2510 1.3666 1.8961
15.1892 2.7450 1.9113
15.0010 4.1228 1.9264
14.6705 5.4824 1.9393
14.1739 6.7953 1.9464
13.5295 8.0452 1.9491
12.7736 9.2333 1.9517
11.9121 10.3494 1.9540
10.9519 11.3838 1.9560
9.9006 12.3276 1.9578
8.7669 13.1727 1.9594
7.5602 13.9116 1.9606
6.2906 14.5378 1.9615
4.9687 15.0460 1.9621
3.6057 15.4318 1.9623
2.2122 15.6844 1.9614
0.8020 15.8071 1.9599
-0.6126 15.8104 1.9592
-1.6815 13.0501 1.6293
-2.9112 13.1688 1.6700
-4.7784 15.0734 1.9580
-2.5970 6.2044 0.8329
-7.5422 14.2834 2.0001
-8.7876 13.5528 2.0001
-9.2061 11.7483 1.8482
-10.2381 10.9001 1.8517
-11.0410 9.8269 1.8303
-11.7756 8.7284 1.8150
-12.4155 7.5855 1.8016
-12.9208 6.3859 1.7847
-13.3047 5.1543 1.7668
-13.5715 3.9052 1.7487
-13.7223 2.6499 1.7306
-13.7595 1.3992 1.7126
-13.6862 0.1631 1.6948
-13.5065 -1.0489 1.6775
-13.2249 -2.2283 1.6607
-9.5740 -2.5094 1.2256
-12.3772 -4.4587 1.6290
-11.8223 -5.4963 1.6144
-11.1854 -6.4729 1.6003
-10.4870 -7.3926 1.5888
-9.7072 -8.2337 1.5762
-9.1354 -9.2729 1.6119
-8.6707 -10.5376 1.6898
-7.6495 -11.2032 1.6798
-6.5853 -11.7823 1.6714
-5.4845 -12.2732 1.6646
-4.3530 -12.6746 1.6594
-3.1970 -12.9850 1.6559
-2.0223 -13.2037 1.6540
-0.3394 -5.4185 0.6723
0.3590 -13.3625 1.6552
1.5538 -13.3018 1.6583
2.7432 -13.1472 1.6630
3.9212 -12.8987 1.6694
5.0815 -12.5566 1.6773
6.2178 -12.1214 1.6869
7.3235 -11.5937 1.6980
8.3918 -10.9748 1.7107
9.4158 -10.2660 1.7249
10.3845 -9.4658 1.7399
11.2778 -8.5686 1.7538
12.0839 -7.5811 1.7664
12.8219 -6.5274 1.7816
13.5126 -5.4201 1.8028
14.1099 -4.2420 1.8244
14.6022 -2.9999 1.8459
14.9382 -1.6983 1.8617
15.1520 -0.3604 1.8768
15.2465 1.0022 1.8920
15.2179 2.3788 1.9073
15.0634 3.7579 1.9224
14.7725 5.1245 1.9362
14.3255 6.4546 1.9456
13.7116 7.7191 1.9484
12.9847 8.9247 1.9510
12.1506 10.0608 1.9534
11.2158 11.1178 1.9555
10.1879 12.0865 1.9574
9.0752 12.9585 1.9590
7.8870 13.7262 1.9603
6.6330 14.3830 1.9613
5.3239 14.9230 1.9619
3.9707 15.3416 1.9623
2.5847 15.6334 1.9621
1.1769 15.7846 1.9600
-0.2373 15.8221 1.9594
-1.3645 13.0194 1.6210
-2.5788 13.1367 1.6577
-4.4166 15.1727 1.9568
-2.5525 6.5290 0.8681
-3.1139 6.2520 0.8649
-8.4637 13.7575 2.0001
-9.6584 12.9467 2.0001
-9.9715 11.1343 1.8508
-10.9393 10.2116 1.8530
-11.5865 9.0220 1.8184
-12.2570 7.8940 1.8053
-12.7993 6.7082 1.7894
-13.2143 5.4833 1.7716
-13.5121 4.2377 1.7535
-13.6935 2.9830 1.7354
-13.7605 1.7300 1.7173
-13.7162 0.4891 1.6995
-13.5643 -0.7301 1.6821
-13.3093 -1.9190 1.6651
-9.8468 -2.3328 1.2530
-12.5103 -4.1741 1.6331
-11.9775 -5.2266 1.6182
-11.3638 -6.2210 1.6042
-10.6820 -7.1568 1.5921
-9.9214 -8.0185 1.5796
-9.1111 -8.8196 1.5702
-8.9336 -10.3468 1.6927
-7.9249 -11.0349 1.6823
-6.8715 -11.6372 1.6735
-5.7798 -12.1517 1.6662
-4.6559 -12.5769 1.6606
-3.5057 -12.9116 1.6567
-2.3354 -13.1547 1.6544
-0.4678 -5.4085 0.6722
0.0419 -13.3629 1.6547
1.2370 -13.3270 1.6573
2.4284 -13.1973 1.6616
3.6101 -12.9738 1.6675
4.7757 -12.6565 1.6751
5.9190 -12.2459 1.6842
7.0335 -11.7427 1.6949
8.1123 -11.1478 1.7072
9.1488 -10.4627 1.7210
10.1348 -9.6883 1.7361
11.0515 -8.8179 1.7507
11.8772 -7.8502 1.7629
12.6329 -6.8133 1.7773
13.3381 -5.7210 1.7971
13.9610 -4.5611 1.8187
14.4844 -3.3357 1.8405
14.8620 -2.0478 1.8577
15.1068 -0.7182 1.8727
15.2333 0.6389 1.8879
15.2376 2.0128 1.9032
15.1168 3.3924 1.9184
14.8658 4.7648 1.9330
14.4689 6.1104 1.9449
13.8857 7.3889 1.9477
13.1883 8.6111 1.9504
12.3820 9.7667 1.9528
11.4733 10.8456 1.9550
10.4693 11.8385 1.9569
9.3783 12.7370 1.9586
8.2091 13.5331 1.9600
6.9716 14.2199 1.9610
5.6761 14.7914 1.9618
4.3335 15.2426 1.9622
2.9552 15.5696 1.9624
1.5511 15.7530 1.9601
0.1381 15.8247 1.9596
-1.0980 13.5783 1.6869
-2.2511 13.1051 1.6465
-4.0560 15.2758 1.9571
-2.5166 6.9168 0.9114
-2.9227 6.2344 0.8526
-8.1349 13.9544 2.0001
-9.3485 13.1722 2.0001
-9.6996 11.3619 1.8499
-10.6939 10.4683 1.8530
-11.3896 9.3109 1.8216
-12.0904 8.1988 1.8089
-12.6695 7.0283 1.7940
-13.1156 5.8108 1.7763
-13.4444 4.5696 1.7583
-13.6566 3.3162 1.7402
-13.7537 2.0617 1.7221
-13.7386 0.8167 1.7042
-13.6149 -0.4092 1.6866
-13.3868 -1.6069 1.6695
-13.0591 -2.7683 1.6530
-12.6373 -3.8858 1.6371
-12.1270 -4.9527 1.6221
-11.5341 -5.9631 1.6078
-10.8722 -6.9162 1.5956
-10.1310 -7.7979 1.5831
-9.3187 -8.6018 1.5703
-9.1930 -10.1500 1.6957
-8.1971 -10.8606 1.6849
-7.1550 -11.4859 1.6756
-6.0729 -12.0238 1.6680
-4.9569 -12.4728 1.6620
-3.8132 -12.8316 1.6576
-2.6476 -13.0991 1.6548
-0.5960 -5.3959 0.6722
-0.2751 -13.3568 1.6543
0.9200 -13.3457 1.6565
2.1130 -13.2409 1.6603
3.2979 -13.0422 1.6658
4.4684 -12.7498 1.6729
5.6182 -12.3639 1.6816
6.7410 -11.8852 1.6919
7.8299 -11.3145 1.7038
8.8783 -10.6532 1.7172
9.8791 -9.9028 1.7321
10.8154 -9.0577 1.7469
11.6655 -8.1144 1.7596
12.4397 -7.0951 1.7733
13.1571 -6.0169 1.7915
13.8051 -4.8755 1.8129
14.3557 -3.6668 1.8347
14.7778 -2.3947 1.8538
15.0531 -1.0742 1.8687
15.2115 0.2767 1.8839
15.2486 1.6473 1.8992
15.1612 3.0264 1.9144
14.9470 4.4026 1.9295
14.5862 5.7562 1.9417
14.0517 7.0548 1.9470
13.3842 8.2929 1.9497
12.6063 9.4671 1.9522
11.7240 10.5673 1.9544
10.7445 11.5839 1.9564
9.6757 12.5083 1.9582
8.5264 13.3322 1.9596
7.3060 14.0487 1.9608
6.0248 14.6513 1.9616
4.6937 15.1348 1.9621
3.3237 15.4951 1.9624
1.9251 15.7166 1.9607
0.5136 15.8182 1.9598
-0.9008 15.7956 1.9591
-1.9276 13.0738 1.6364
-3.1702 13.1938 1.6802
-2.4770 7.3458 0.9599
-2.7366 6.2173 0.8411
-7.8015 14.1435 2.0001
-9.0333 13.3903 2.0001
-9.4226 11.5830 1.8489
-10.4393 10.7158 1.8525
-11.1848 9.5951 1.8248
-11.9155 8.4998 1.8124
-12.5315 7.3458 1.7987
-13.0087 6.1367 1.7811
-13.3686 4.9006 1.7631
-13.6116 3.6493 1.7450
-13.7390 2.3940 1.7269
-13.7534 1.1455 1.7089
-13.6581 -0.0863 1.6913
-13.4572 -1.2924 1.6740
-13.1555 -2.4641 1.6573
-9.5907 -2.7017 1.2338
-12.2707 -4.6749 1.6260
-11.6991 -5.7008 1.6115
-11.0575 -6.6710 1.5991
-10.3340 -7.5707 1.5863
-9.5399 -8.3957 1.5736
-9.1632 -9.6470 1.6475
-8.4661 -10.6803 1.6876
-7.4357 -11.3284 1.6779
-6.3636 -11.8896 1.6699
-5.2560 -12.3624 1.6634
-4.1190 -12.7453 1.6586
-2.9587 -13.0371 1.6554
-1.7810 -13.2369 1.6539
-0.2406 -5.4243 0.6723
0.6029 -13.3578 1.6557
1.7970 -13.2779 1.6591
2.9846 -13.1041 1.6642
4.1595 -12.8365 1.6709
5.3155 -12.4754 1.6792
6.4461 -12.0212 1.6890
7.5446 -11.4748 1.7005
8.6045 -10.8374 1.7135
9.6185 -10.1105 1.7280
10.5735 -9.2907 1.7429
11.4483 -8.3733 1.7563
12.2407 -7.3719 1.7694
12.9700 -6.3076 1.7859
13.6423 -5.1853 1.8072
14.2195 -3.9936 1.8289
14.6857 -2.7389 1.8498
14.9913 -1.4279 1.8647
15.1811 -0.0841 1.8799
15.2507 1.2822 1.8951
15.1966 2.6603 1.9104
15.0163 4.0384 1.9255
14.6949 5.3998 1.9386
14.2097 6.7168 1.9462
13.5723 7.9702 1.9490
12.8231 9.1624 1.9515
11.9679 10.2831 1.9539
11.0135 11.3228 1.9559
9.9675 12.2725 1.9577
8.8387 13.1238 1.9593
7.6362 13.8694 1.9605
6.3702 14.5028 1.9614
5.0511 15.0184 1.9620
3.6903 15.4117 1.9623
2.2984 15.6734 1.9615
0.8888 15.8027 1.9599
-0.5258 15.8139 1.9593
-1.6079 13.0430 1.6273
-2.8339 13.1613 1.6671
-4.6919 15.0876 1.9565
-2.5778 6.2549 0.8377
-7.4637 14.3246 2.0001
-8.7131 13.6008 2.0001
-9.1405 11.7973 1.8480
-10.1770 10.9549 1.8515
-11.0406 9.9357 1.8392
-11.7326 8.7967 1.8158
-12.3796 7.6571 1.8025
-12.8935 6.4606 1.7858
-13.2846 5.2305 1.7679
-13.5585 3.9821 1.7498
-13.7163 2.7269 1.7317
-13.7604 1.4756 1.7137
-13.6938 0.2383 1.6959
-13.5205 -0.9754 1.6786
-13.2451 -2.1570 1.6617
-9.5690 -2.4521 1.2232
-12.4085 -4.3932 1.6300
-11.8587 -5.4343 1.6153
-11.2276 -6.4153 1.6012
-10.5325 -7.3385 1.5896
-9.7571 -8.1843 1.5770
-9.1273 -9.1636 1.6015
-8.7318 -10.4940 1.6904
-7.7134 -11.1648 1.6804
-6.6517 -11.7493 1.6719
-5.5530 -12.2457 1.6650
-4.4232 -12.6526 1.6597
-3.2685 -12.9686 1.6561
-2.0948 -13.1929 1.6541
-0.3691 -5.4164 0.6722
0.2857 -13.3632 1.6551
1.4806 -13.3082 1.6581
2.6705 -13.1593 1.6627
3.8494 -12.9166 1.6689
5.0110 -12.5803 1.6768
6.1489 -12.1507 1.6863
7.2567 -11.6287 1.6973
8.3274 -11.0153 1.7099
9.3543 -10.3120 1.7240
10.3272 -9.5177 1.7390
11.2259 -8.6267 1.7531
12.0362 -7.6436 1.7655
12.7773 -6.5932 1.7804
13.4728 -5.4901 1.8015
14.0761 -4.3161 1.8231
14.5758 -3.0779 1.8447
14.9213 -1.7793 1.8607
15.1423 -0.4433 1.8758
15.2442 0.9181 1.8911
15.2232 2.2942 1.9063
15.0765 3.6734 1.9215
14.7949 5.0415 1.9354
14.3594 6.3753 1.9454
13.7525 7.6432 1.9483
13.0325 8.8526 1.9509
12.2048 9.9933 1.9533
11.2760 11.0554 1.9554
10.2535 12.0297 1.9573
9.1458 12.9079 1.9589
7.9618 13.6823 1.9602
6.7117 14.3460 1.9612
5.4056 14.8933 1.9619
4.0549 15.3195 1.9623
2.6705 15.6202 1.9623
1.2636 15.7781 1.9600
-0.1505 15.8235 1.9595
-1.2942 13.0386 1.6225
-2.5026 13.1294 1.6550
-4.3335 15.1973 1.9568
-2.5445 6.6154 0.8777
-3.0692 6.2479 0.8620
-8.3880 13.8037 2.0001
-9.5872 12.9995 2.0001
-9.9092 11.1875 1.8506
-10.8830 10.2715 1.8530
-11.5417 9.0892 1.8191
-12.2192 7.9648 1.8061
-12.7700 6.7825 1.7905
-13.1922 5.5592 1.7727
-13.4972 4.3145 1.7546
-13.6856 3.0600 1.7365
-13.7596 1.8066 1.7184
-13.7221 0.5647 1.7006
-13.5767 -0.6561 1.6831
-13.3278 -1.8470 1.6661
-12.9806 -3.0001 1.6497
-12.5402 -4.1078 1.6340
-12.0126 -5.1636 1.6191
-11.4036 -6.1618 1.6050
-10.7264 -7.1016 1.5929
-9.9703 -7.9680 1.5804
-9.1460 -8.7567 1.5679
-8.9939 -10.3018 1.6934
-7.9881 -10.9952 1.6829
-6.9373 -11.6027 1.6740
-5.8478 -12.1226 1.6666
-4.7256 -12.5534 1.6609
-3.5770 -12.8937 1.6569
-2.4077 -13.1424 1.6545
-0.4975 -5.4058 0.6722
-0.0314 -13.3621 1.6546
1.1638 -13.3319 1.6571
2.3556 -13.2080 1.6613
3.5380 -12.9902 1.6671
4.7048 -12.6787 1.6746
5.8497 -12.2738 1.6836
6.9661 -11.7762 1.6942
8.0473 -11.1869 1.7064
9.0865 -10.5073 1.7201
10.0765 -9.7389 1.7353
10.9983 -8.8746 1.7500
11.8287 -7.9118 1.7621
12.5887 -6.8789 1.7764
13.2968 -5.7899 1.7958
13.9255 -4.6342 1.8173
14.4553 -3.4126 1.8392
14.8432 -2.1283 1.8568
15.0951 -0.8007 1.8718
15.2290 0.5550 1.8870
15.2409 1.9282 1.9023
15.1278 3.3078 1.9175
14.8861 4.6814 1.9323
14.4969 6.0288 1.9441
13.9248 7.3120 1.9475
13.2343 8.5380 1.9502
12.4345 9.6979 1.9526
11.5319 10.7817 1.9549
10.5335 11.7802 1.9568
9.4475 12.6847 1.9585
8.2829 13.4873 1.9599
7.0493 14.1810 1.9610
5.7570 14.7597 1.9618
4.4170 15.2184 1.9622
3.0405 15.5532 1.9624
1.6376 15.7444 1.9601
0.2249 15.8240 1.9596
-1.1886 15.7756 1.9590
-2.1759 13.0978 1.6441
-3.9724 15.2984 1.9572
-2.5078 7.0121 0.9222
-2.8792 6.2304 0.8499
-8.0581 13.9989 2.0001
-9.2761 13.2233 2.0001
-9.6361 11.4136 1.8496
-10.6363 10.5268 1.8530
-11.3429 9.3770 1.8224
-12.0506 8.2688 1.8097
-12.6383 7.1019 1.7951
-13.0917 5.8863 1.7774
-13.4277 4.6462 1.7594
-13.6469 3.3932 1.7413
-13.7510 2.1385 1.7232
-13.7427 0.8926 1.7053
-13.6255 -0.3348 1.6877
-13.4037 -1.5344 1.6706
-13.0820 -2.6983 1.6540
-12.6658 -3.8186 1.6381
-12.1608 -4.8888 1.6230
-11.5728 -5.9028 1.6087
-10.9154 -6.8600 1.5964
-10.1783 -7.7458 1.5838
-9.3702 -8.5546 1.5711
-9.1922 -10.0379 1.6854
-8.2597 -10.8194 1.6855
-7.2202 -11.4500 1.6762
-6.1403 -11.9933 1.6684
-5.0262 -12.4479 1.6623
-3.8840 -12.8123 1.6578
-2.7197 -13.0854 1.6549
-0.6256 -5.3926 0.6722
-0.3483 -13.3544 1.6542
0.8467 -13.3491 1.6563
2.0400 -13.2500 1.6600
3.2255 -13.0571 1.6654
4.3971 -12.7704 1.6724
5.5484 -12.3903 1.6811
6.6730 -11.9172 1.6913
7.7642 -11.3522 1.7030
11.5740 -7.1731 1.7713
12.2657 -6.1597 1.7855
12.8957 -5.0907 1.8035
13.4506 -3.9634 1.8241
13.9076 -2.7778 1.8449
14.2359 -1.5394 1.8627
14.4270 -0.2639 1.8771
14.5040 1.0334 1.8916
14.4638 2.3423 1.9061
14.3040 3.6519 1.9204
14.0187 4.9493 1.9340
13.5957 6.2157 1.9447
13.0040 7.4151 1.9473
12.3053 8.5575 1.9498
11.5052 9.6333 1.9520
10.6099 10.6331 1.9540
9.6266 11.5485 1.9558
8.5633 12.3715 1.9573
7.4289 13.0949 1.9585
6.2328 13.7124 1.9594
4.9849 14.2188 1.9600
3.6959 14.6095 1.9604
2.3765 14.8813 1.9604
0.4792 6.9407 0.9050
-0.3082 15.0456 1.9576
-1.4375 13.0264 1.7048
-2.6552 13.1440 1.7444
-4.2792 14.4059 1.9549
-2.5603 6.4445 0.9021
-3.1588 6.2558 0.9116
-8.1281 13.0511 2.0001
-8.5555 11.3380 1.8477
-9.5499 10.5465 1.8508
-10.4101 9.6113 1.8431
-11.0161 8.4811 1.8085
-11.6490 7.4122 1.7961
-12.1719 6.2945 1.7826
-12.5737 5.1368 1.7669
-12.8563 3.9547 1.7498
-13.0287 2.7634 1.7326
-13.0926 1.5731 1.7154
-13.0506 0.3937 1.6985
-12.9062 -0.7658 1.6819
-12.6635 -1.8968 1.6657
-9.6606 -2.3447 1.2932
-11.9022 -4.0439 1.6352
-11.3936 -5.0464 1.6210
-10.8218 -6.0017 1.6098
-10.1616 -6.8892 1.5970
-9.4365 -7.7126 1.5854
-9.0929 -8.8992 1.6551
-8.4889 -9.9415 1.7006
-7.5231 -10.5976 1.6907
-6.5141 -11.1713 1.6823
-5.4680 -11.6607 1.6754
-4.3910 -12.0642 1.6701
-3.2887 -12.3805 1.6664
-2.1672 -12.6086 1.6643
-0.4194 -5.1790 0.6759
0.1103 -12.7970 1.6648
1.2547 -12.7562 1.6674
2.3948 -12.6250 1.6716
3.5249 -12.4036 1.6774
4.6387 -12.0920 1.6848
5.7301 -11.6908 1.6937
6.7927 -11.2008 1.7041
7.8199 -10.6230 1.7160
8.8052 -9.9590 1.7293
9.7360 -9.2053 1.7430
10.5994 -8.3624 1.7563
11.3796 -7.4319 1.7681
12.0898 -6.4350 1.7816
12.7331 -5.3790 1.7981
13.3126 -4.2686 1.8186
13.7963 -3.0976 1.8394
14.1666 -1.8729 1.8589
14.3872 -0.6049 1.8732
14.4949 0.6876 1.8877
14.4861 1.9945 1.9022
14.3581 3.3050 1.9166
14.1095 4.6079 1.9309
13.7213 5.8837 1.9421
13.1716 7.1020 1.9466
12.5009 8.2605 1.9492
11.7271 9.3548 1.9515
10.8563 10.3757 1.9535
9.8956 11.3143 1.9554
8.8528 12.1625 1.9569
7.7363 12.9130 1.9582
6.5556 13.5592 1.9592
5.3205 14.0955 1.9599
4.0413 14.5173 1.9603
2.7289 14.8209 1.9604
0.6438 6.9278 0.9051
0.0488 15.0500 1.9578
-1.1675 13.5140 1.7645
-2.3265 13.1123 1.7324
-3.9369 14.5058 1.9553
-2.5253 6.8238 0.9465
-2.9662 6.2381 0.8986
-7.8162 13.2403 2.0001
-8.9673 12.4894 2.0001
-9.2926 10.7649 1.8500
-10.2339 9.9086 1.8530
-10.8302 8.7550 1.8116
-11.4916 7.7011 1.7995
-12.0441 6.5952 1.7863
-12.4801 5.4476 1.7714
-12.7921 4.2697 1.7543
-12.9936 3.0798 1.7371
-13.0860 1.8883 1.7199
-13.0718 0.7051 1.7029
-12.9543 -0.4605 1.6862
-12.7373 -1.5999 1.6700
-12.4253 -2.7053 1.6542
-12.0233 -3.7693 1.6391
-11.5366 -4.7856 1.6247
-10.9785 -5.7524 1.6123
-10.3433 -6.6599 1.6003
-9.6349 -7.5006 1.5884
-9.0601 -8.4556 1.6121
-8.7372 -9.7538 1.7035
-7.7838 -10.4315 1.6931
-6.7857 -11.0273 1.6843
-5.7489 -11.5392 1.6771
-4.6795 -11.9656 1.6714
-3.5833 -12.3052 1.6672
-2.4664 -12.5568 1.6647
-0.5421 -5.1675 0.6759
-0.1933 -12.7927 1.6643
0.9512 -12.7758 1.6666
2.0930 -12.6687 1.6704
3.2264 -12.4711 1.6757
4.3451 -12.1834 1.6827
5.4430 -11.8059 1.6912
6.5139 -11.3394 1.7012
7.5512 -10.7848 1.7127
8.5483 -10.1435 1.7256
9.4953 -9.4143 1.7394
10.3804 -8.5970 1.7533
11.1797 -7.6858 1.7648
11.9081 -6.7056 1.7778
12.5642 -5.6626 1.7928
13.1679 -4.5694 1.8132
13.6777 -3.4138 1.8339
14.0862 -2.2034 1.8547
14.3395 -0.9442 1.8694
14.4775 0.3428 1.8839
14.4999 1.6469 1.8984
14.4038 2.9575 1.9128
14.1873 4.2636 1.9271
13.8360 5.5480 1.9392
13.3316 6.7850 1.9459
12.6891 7.9589 1.9485
11.9421 9.0713 1.9509
11.0964 10.1125 1.9530
10.1589 11.0738 1.9549
9.1370 11.9467 1.9565
8.0393 12.7238 1.9579
6.8746 13.3982 1.9590
5.6530 13.9642 1.9598
4.3844 14.4168 1.9602
3.0797 14.7520 1.9604
0.8080 6.9105 0.9051
0.4059 15.0458 1.9580
-0.9390 15.0167 1.9573
-2.0021 13.0809 1.7215
-3.2487 13.2013 1.7685
-2.4865 7.2426 0.9961
-2.7791 6.2209 0.8863
-7.4999 13.4220 2.0001
-8.6685 12.6986 2.0001
-9.0302 10.9771 1.8491
-9.9922 10.1449 1.8524
-10.6370 9.0243 1.8146
-11.3266 7.9863 1.8029
-11.9083 6.8930 1.7899
-12.3786 5.7566 1.7759
-12.7201 4.5839 1.7589
-12.9508 3.3961 1.7417
-13.0720 2.2040 1.7245
-13.0858 1.0177 1.7074
-12.9953 -0.1535 1.6906
-12.8043 -1.3006 1.6742
-12.5170 -2.4157 1.6583
-9.5874 -2.7577 1.2978
-11.6737 -4.5209 1.6285
-11.1211 -5.4949 1.6137
-10.5204 -6.4260 1.6037
-9.8290 -7.2839 1.5914
-9.0738 -8.0742 1.5800
-8.9819 -9.5605 1.7064
-8.0414 -10.2595 1.6957
-7.0545 -10.8773 1.6865
-6.0274 -11.4116 1.6788
-4.9661 -11.8609 1.6727
-3.8765 -12.2236 1.6682
-2.7645 -12.4986 1.6652
-1.6359 -12.6850 1.6638
-0.4966 -12.7820 1.6640
0.6475 -12.7890 1.6658
1.7906 -12.7059 1.6692
2.9268 -12.5323 1.6742
0.8127 -2.4619 0.3373
5.1541 -11.9148 1.6888
6.2327 -11.4718 1.6984
7.2796 -10.9405 1.7095
8.2880 -10.3220 1.7220
9.2506 -9.6176 1.7359
10.1515 -8.8217 1.7495
10.9746 -7.9347 1.7617
11.7208 -6.9714 1.7740
12.3969 -5.9450 1.7885
13.0165 -4.8658 1.8077
13.5520 -3.7261 1.8284
13.9881 -2.5294 1.8492
14.2839 -1.2815 1.8656
14.4520 -0.0008 1.8800
14.5054 1.2998 1.8945
14.4410 2.6097 1.9090
14.2565 3.9181 1.9233
13.9425 5.2103 1.9362
13.4839 6.4645 1.9452
12.8700 7.6531 1.9478
12.1502 8.7827 1.9503
11.3301 9.8437 1.9525
10.4162 10.8270 1.9544
9.4159 11.7241 1.9561
8.3374 12.5273 1.9576
7.1896 13.2296 1.9587
5.9821 13.8249 1.9596
4.7250 14.3080 1.9601
3.4288 14.6747 1.9604
0.9716 6.8889 0.9050
0.3525 6.9477 0.9050
-0.5826 15.0364 1.9575
-1.6815 13.0500 1.7117
-2.9111 13.1687 1.7544
-4.5407 14.3236 1.9547
-2.5968 6.2041 0.8749
-7.1793 13.5961 2.0001
-8.3648 12.9007 2.0001
-8.7630 11.1828 1.8482
-9.7442 10.3743 1.8515
-10.4354 9.2879 1.8173
-11.1539 8.2676 1.8061
-11.7647 7.1878 1.7935
-12.2649 6.0617 1.7797
-12.6404 4.8970 1.7634
-12.9004 3.7121 1.7463
-13.0504 2.5202 1.7290
-13.0925 1.3314 1.7119
-13.0293 0.1553 1.6951
-12.8645 -0.9990 1.6785
-12.6024 -2.1234 1.6625
-9.5657 -2.5073 1.2864
-11.8051 -4.2526 1.6323
-11.2773 -5.2429 1.6178
-10.6927 -6.1878 1.6071
-10.0188 -7.0625 1.5946
-9.2812 -7.8723 1.5832
-9.1193 -9.2566 1.6904
-8.2957 -10.0819 1.6984
-7.3206 -10.7214 1.6888
-6.3035 -11.2781 1.6807
-5.2507 -11.7500 1.6742
-4.1680 -12.1359 1.6692
-3.0614 -12.4343 1.6658
-1.9366 -12.6442 1.6640
-0.3249 -5.1861 0.6760
0.3438 -12.7960 1.6652
1.4878 -12.7368 1.6681
2.6264 -12.5872 1.6727
3.7536 -12.3473 1.6788
4.8633 -12.0174 1.6865
5.9494 -11.5980 1.6957
7.0053 -11.0900 1.7064
8.0246 -10.4945 1.7186
9.0005 -9.8132 1.7322
9.9182 -9.0407 1.7458
10.7644 -8.1785 1.7586
11.5295 -7.2333 1.7706
12.2255 -6.2238 1.7846
12.8587 -5.1578 1.8023
13.4193 -4.0344 1.8229
13.8825 -2.8520 1.8436
14.2205 -1.6167 1.8618
14.4185 -0.3430 1.8762
14.5026 0.9533 1.8907
14.4697 2.2618 1.9052
14.3173 3.5718 1.9196
14.0407 4.8706 1.9333
13.6277 6.1402 1.9444
13.0434 7.3430 1.9472
12.3512 8.4892 1.9496
11.5571 9.5693 1.9519
10.6674 10.5741 1.9539
9.6893 11.4949 1.9557
8.6307 12.3238 1.9572
7.5004 13.0535 1.9584
6.3078 13.6777 1.9594
5.0628 14.1910 1.9600
3.7759 14.5889 1.9604
2.4581 14.8681 1.9604
0.5173 6.9381 0.9051
-0.2257 15.0474 1.9577
-1.3644 13.0194 1.7029
-2.5788 13.1366 1.7415
-4.2003 14.4297 1.9550
-2.5525 6.5290 0.9119
-3.1137 6.2516 0.9085
-8.0564 13.0955 2.0001
-8.5226 11.4243 1.8541
-9.4909 10.5975 1.8506
-10.3915 9.7003 1.8492
-10.9738 8.5448 1.8093
-11.6133 7.4793 1.7969
-12.1431 6.3643 1.7835
-12.5528 5.2088 1.7679
-12.8422 4.0276 1.7508
-13.0213 2.8365 1.7336
-13.0917 1.6459 1.7165
-13.0561 0.4656 1.6995
-12.9179 -0.6953 1.6829
-12.6812 -1.8284 1.6667
-9.8227 -2.3271 1.3132
-11.9307 -3.9807 1.6361
-11.4274 -4.9865 1.6219
-10.8600 -5.9453 1.6106
-10.2040 -6.8366 1.5978
-9.4828 -7.6640 1.5861
-9.0852 -8.7945 1.6449
-8.5466 -9.8986 1.7012
-7.5836 -10.5597 1.6912
-6.5771 -11.1385 1.6827
-5.5332 -11.6332 1.6758
-4.4579 -12.0420 1.6704
-3.3570 -12.3637 1.6666
-2.2365 -12.5972 1.6643
-0.4478 -5.1766 0.6759
0.0401 -12.7965 1.6647
1.1845 -12.7613 1.6672
2.3251 -12.6357 1.6713
3.4560 -12.4197 1.6770
4.5709 -12.1137 1.6843
5.6639 -11.7180 1.6931
6.7284 -11.2334 1.7034
7.7580 -10.6610 1.7152
8.7461 -10.0022 1.7284
9.6807 -9.2541 1.7422
10.5492 -8.4171 1.7556
11.3338 -7.4910 1.7673
12.0483 -6.4980 1.7807
12.6946 -5.4450 1.7969
13.2797 -4.3385 1.8174
13.7695 -3.1711 1.8381
14.1494 -1.9497 1.8580
14.3769 -0.6835 1.8723
14.4916 0.6078 1.8868
14.4900 1.9141 1.9013
14.3695 3.2247 1.9158
14.1282 4.5284 1.9300
13.7486 5.8063 1.9414
13.2093 7.0290 1.9465
12.5450 8.1912 1.9490
11.7774 9.2897 1.9513
10.9124 10.3154 1.9534
9.9569 11.2593 1.9553
8.9190 12.1132 1.9568
7.8068 12.8699 1.9581
6.6297 13.5227 1.9592
5.3977 14.0659 1.9599
4.1209 14.4948 1.9603
2.8102 14.8057 1.9604
0.6818 6.9241 0.9051
0.1314 15.0498 1.9578
-1.2127 14.9958 1.9571
-2.2511 13.1050 1.7297
-3.8574 14.5277 1.9553
-2.5167 6.9168 0.9575
-2.9225 6.2341 0.8957
-7.7434 13.2830 2.0001
-8.8987 12.5384 2.0001
-9.2323 10.8146 1.8497
-10.1792 9.9645 1.8530
-10.7862 8.8177 1.8123
-11.4541 7.7674 1.8003
-12.0134 6.6643 1.7871
-12.4574 5.5192 1.7725
-12.7762 4.3425 1.7554
-12.9844 3.1530 1.7382
-13.0835 1.9612 1.7210
-13.0757 0.7773 1.7040
-12.9644 -0.3897 1.6872
-12.7534 -1.5309 1.6709
-12.4471 -2.6385 1.6552
-12.0504 -3.7053 1.6400
-11.5688 -4.7247 1.6256
-10.9975 -5.6857 1.6105
-10.3847 -6.6061 1.6011
-9.6802 -7.4509 1.5891
-9.0527 -8.3563 1.6026
-8.7941 -9.7096 1.7041
-7.8436 -10.3922 1.6937
-6.8481 -10.9931 1.6848
-5.8135 -11.5102 1.6775
-4.7459 -11.9419 1.6717
-3.6513 -12.2868 1.6674
-2.5354 -12.5439 1.6648
-0.5705 -5.1645 0.6759
-0.2635 -12.7907 1.6643
0.8810 -12.7794 1.6664
2.0231 -12.6778 1.6701
3.1572 -12.4858 1.6754
4.2770 -12.2037 1.6822
5.3764 -11.8317 1.6906
6.4491 -11.3705 1.7005
7.4886 -10.8213 1.7119
8.4884 -10.1853 1.7248
9.4391 -9.4618 1.7386
10.3279 -8.6494 1.7524
11.1327 -7.7438 1.7641
11.8653 -6.7675 1.7769
12.5246 -5.7276 1.7916
13.1334 -4.6383 1.8119
13.6493 -3.4864 1.8326
14.0642 -2.2791 1.8534
14.3273 -1.0224 1.8685
14.4724 0.2632 1.8830
14.5019 1.5666 1.8975
14.4132 2.8771 1.9119
14.2041 4.1838 1.9262
13.8613 5.4701 1.9385
13.3675 6.7112 1.9458
12.7316 7.8886 1.9484
11.9909 9.0049 1.9507
11.1510 10.0509 1.9529
10.2188 11.0172 1.9548
9.2020 11.8959 1.9564
8.1086 12.6790 1.9578
6.9479 13.3599 1.9589
5.7294 13.9327 1.9597
4.4634 14.3923 1.9602
3.1606 14.7349 1.9604
0.8459 6.9059 0.9051
0.4884 15.0436 1.9580
-0.8567 15.0220 1.9573
-1.9276 13.0737 1.7191
-3.1701 13.1937 1.7652
-2.4770 7.3458 1.0085
-2.7365 6.2169 0.8836
-7.4261 13.4629 2.0001
-8.5987 12.7460 2.0001
-8.9688 11.0253 1.8489
-9.9353 10.1985 1.8522
-10.5913 9.0860 1.8153
-11.2873 8.0517 1.8036
-11.8758 6.9615 1.7907
-12.3530 5.8274 1.7768
-12.7024 4.6564 1.7599
-12.9399 3.4692 1.7427
-13.0677 2.2771 1.7255
-13.0880 1.0901 1.7085
-13.0038 -0.0822 1.6917
-12.8188 -1.2310 1.6752
-12.5373 -2.3484 1.6593
-9.5824 -2.6994 1.2951
-11.7046 -4.4592 1.6294
-11.1577 -5.4370 1.6146
-10.5607 -6.3713 1.6044
-9.8733 -7.2331 1.5922
-9.1222 -8.0281 1.5808
-9.0379 -9.5150 1.7072
-8.1005 -10.2190 1.6963
-7.1163 -10.8418 1.6870
-6.0915 -11.3813 1.6793
-5.0321 -11.8358 1.6730
-3.9440 -12.2039 1.6684
-2.8332 -12.4843 1.6653
-1.7055 -12.6761 1.6638
-0.2302 -5.1916 0.6760
0.5773 -12.7913 1.6657
1.7206 -12.7136 1.6689
2.8574 -12.5456 1.6738
3.9816 -12.2872 1.6802
5.0870 -11.9391 1.6882
6.1674 -11.5015 1.6977
7.2164 -10.9756 1.7087
8.2274 -10.3624 1.7212
9.1935 -9.6638 1.7351
10.0980 -8.8728 1.7487
10.9264 -7.9916 1.7610
11.6767 -7.0322 1.7732
12.3578 -6.0099 1.7876
12.9806 -4.9338 1.8065
13.5220 -3.7977 1.8271
13.9643 -2.6044 1.8479
14.2700 -1.3592 1.8647
14.4450 -0.0800 1.8791
14.5055 1.2196 1.8936
14.4484 2.5293 1.9081
14.2714 3.8381 1.9225
13.9659 5.1319 1.9355
13.5180 6.3899 1.9451
12.9108 7.5817 1.9477
12.1973 8.7152 1.9501
11.3832 9.7807 1.9523
10.4748 10.7691 1.9543
9.4796 11.6717 1.9560
8.4057 12.4809 1.9575
7.2619 13.1896 1.9586
6.0578 13.7916 1.9595
4.8033 14.2817 1.9601
3.5092 14.6556 1.9604
2.1865 14.9102 1.9604
0.3906 6.9459 0.9050
-0.5000 15.0397 1.9575
-1.6079 13.0429 1.7095
-2.8339 13.1612 1.7513
-4.4622 14.3488 1.9548
-2.5778 6.2549 0.8801
-7.1046 13.6354 2.0001
-8.2939 12.9464 2.0001
-8.7006 11.2295 1.8480
-9.6861 10.4265 1.8513
-10.4119 9.3698 1.8221
-11.1129 8.3321 1.8068
-11.7303 7.2555 1.7943
-12.2374 6.1319 1.7806
-12.6208 4.9692 1.7645
-12.8876 3.7851 1.7473
-13.0444 2.5933 1.7301
-13.0930 1.4040 1.7130
-13.0362 0.2269 1.6961
-12.8775 -0.9290 1.6795
-12.6212 -2.0554 1.6635
-9.5608 -2.4500 1.2839
-11.8346 -4.1900 1.6332
-11.3126 -5.1840 1.6188
-10.7318 -6.1321 1.6079
-10.0620 -7.0107 1.5953
-9.3282 -7.8245 1.5838
-9.1113 -9.1475 1.6795
-8.3540 -10.0400 1.6991
-7.3816 -10.6846 1.6894
-6.3670 -11.2464 1.6812
-5.3162 -11.7236 1.6745
-4.2352 -12.1147 1.6695
-3.1299 -12.4185 1.6660
-2.0060 -12.6339 1.6641
-0.3533 -5.1841 0.6759
0.2736 -12.7967 1.6650
1.4177 -12.7430 1.6679
2.5567 -12.5990 1.6724
3.6849 -12.3646 1.6784
4.7959 -12.0402 1.6859
5.8835 -11.6263 1.6951
6.9415 -11.1237 1.7057
7.9632 -10.5335 1.7178
8.9420 -9.8574 1.7313
9.8637 -9.0906 1.7450
10.7151 -8.2342 1.7579
11.4848 -7.2934 1.7698
12.1851 -6.2876 1.7837
12.8213 -5.2246 1.8010
13.3877 -4.1051 1.8216
13.8570 -2.9262 1.8424
14.2048 -1.6939 1.8609
14.4096 -0.4219 1.8753
14.5008 0.8733 1.8898
14.4752 2.1814 1.9043
14.3301 3.4916 1.9187
14.0622 4.7918 1.9326
13.6564 6.0631 1.9437
13.0824 7.2708 1.9470
12.3967 8.4207 1.9495
11.6087 9.5051 1.9518
10.7246 10.5148 1.9538
9.7517 11.4410 1.9556
8.6978 12.2757 1.9571
7.5716 13.0117 1.9584
6.3826 13.6425 1.9593
5.1405 14.1628 1.9600
3.8559 14.5679 1.9603
2.5396 14.8544 1.9604
0.5554 6.9353 0.9051
-0.1431 15.0487 1.9577
-1.2942 13.0386 1.7045
-2.5026 13.1293 1.7387
-4.1212 14.4531 1.9551
-2.5445 6.6154 0.9220
-3.0690 6.2475 0.9055
-7.9844 13.1395 2.0001
-9.1259 12.3740 2.0001
-9.4315 10.6483 1.8504
-10.3594 9.7773 1.8530
-10.9311 8.6083 1.8100
-11.5772 7.5462 1.7977
-12.1138 6.4339 1.7843
-12.5314 5.2807 1.7690
-12.8276 4.1005 1.7519
-13.0134 2.9097 1.7347
-13.0905 1.7187 1.7175
-13.0613 0.5376 1.7005
-12.9293 -0.6248 1.6839
-12.6985 -1.7598 1.6677
-9.9898 -2.3088 1.3338
-11.9589 -3.9173 1.6370
-11.4606 -4.9263 1.6228
-10.8980 -5.8886 1.6114
-10.2462 -6.7837 1.5985
-9.5288 -7.6151 1.5868
-9.0776 -8.6912 1.6348
-8.6042 -9.8554 1.7019
-7.6440 -10.5215 1.6918
-6.6400 -11.1054 1.6832
-5.5982 -11.6053 1.6762
-4.5246 -12.0194 1.6707
-3.4252 -12.3465 1.6668
-2.3057 -12.5854 1.6644
-0.4762 -5.1740 0.6759
-0.0301 -12.7958 1.6646
1.1144 -12.7660 1.6670
2.2553 -12.6460 1.6710
3.3870 -12.4356 1.6766
4.5031 -12.1351 1.6838
5.5976 -11.7448 1.6925
6.6640 -11.2656 1.7027
7.6960 -10.6986 1.7144
8.6868 -10.0451 1.7276
9.6252 -9.3027 1.7413
10.4987 -8.4715 1.7549
11.2878 -7.5500 1.7666
12.0065 -6.5607 1.7798
12.6557 -5.5108 1.7956
13.2465 -4.4083 1.8161
13.7424 -3.2443 1.8368
14.1319 -2.0263 1.8572
14.3661 -0.7620 1.8715
14.4879 0.5280 1.8859
14.4935 1.8337 1.9004
14.3803 3.1444 1.9149
14.1465 4.4488 1.9291
13.7754 5.7287 1.9408
13.2465 6.9559 1.9463
12.5888 8.1216 1.9489
11.8274 9.2243 1.9512
10.9682 10.2547 1.9533
10.0181 11.2039 1.9551
8.9849 12.0636 1.9567
7.8770 12.8264 1.9581
6.7037 13.4857 1.9591
5.4747 14.0358 1.9598
4.2003 14.4718 1.9603
2.8913 14.7901 1.9604
0.7198 6.9203 0.9051
0.2139 15.0491 1.9579
-1.1304 15.0026 1.9572
-2.1759 13.0977 1.7272
-3.7778 14.5492 1.9554
-2.5078 7.0122 0.9688
-2.8790 6.2301 0.8928
-7.6704 13.3253 2.0001
-8.8298 12.5871 2.0001
-9.1719 10.8638 1.8495
-10.1233 10.0191 1.8528
-10.7418 8.8801 1.8130
-11.4162 7.8335 1.8011
-11.9822 6.7333 1.7880
-12.4342 5.5907 1.7735
-12.7598 4.4151 1.7564
-12.9748 3.2261 1.7392
-13.0805 2.0342 1.7220
-13.0792 0.8495 1.7050
-12.9741 -0.3188 1.6883
-12.7691 -1.4618 1.6719
-12.4685 -2.5717 1.6561
-12.0773 -3.6412 1.6409
-11.6007 -4.6637 1.6265
-11.0350 -5.6285 1.6115
-10.4258 -6.5522 1.6019
-9.7252 -7.4010 1.5898
-9.0454 -8.2580 1.5933
-8.8508 -9.6651 1.7048
-7.9033 -10.3527 1.6943
-6.9103 -10.9586 1.6853
-5.8780 -11.4809 1.6779
-4.8123 -11.9179 1.6720
-3.7191 -12.2682 1.6676
-2.6044 -12.5306 1.6649
-0.5988 -5.1613 0.6759
-0.3336 -12.7885 1.6642
0.8107 -12.7827 1.6662
1.9533 -12.6866 1.6698
3.0879 -12.5002 1.6750
4.2088 -12.2235 1.6817
5.3096 -11.8571 1.6900
6.3841 -11.4014 1.6998
7.4259 -10.8575 1.7112
11.0658 -6.8581 1.7752
11.7210 -5.8862 1.7884
12.2992 -4.8552 1.8030
12.8217 -3.7781 1.8226
13.2502 -2.6465 1.8424
13.5780 -1.4682 1.8622
13.7594 -0.2518 1.8765
13.8280 0.9852 1.8903
13.7848 2.2323 1.9041
13.6276 3.4792 1.9178
13.3554 4.7151 1.9312
12.9514 5.9211 1.9418
12.3988 7.0699 1.9462
11.7320 8.1587 1.9485
10.9685 9.1839 1.9507
10.1145 10.1367 1.9526
9.1767 11.0088 1.9542
8.1629 11.7929 1.9557
7.0813 12.4821 1.9568
5.9410 13.0705 1.9577
4.7515 13.5529 1.9583
3.5228 13.9252 1.9586
2.2652 14.1843 1.9586
0.4548 6.5869 0.9003
-0.2938 14.3423 1.9561
-1.4374 13.0263 1.7870
-2.8381 14.0494 1.9544
-4.0792 13.7324 1.9534
-2.5603 6.4445 0.9456
-3.1586 6.2554 0.9555
-7.7544 12.4511 2.0001
-8.2498 10.9329 1.8676
-9.1081 10.0586 1.8503
-9.7958 9.0442 1.8180
-10.4621 8.0546 1.8004
-11.0670 7.0419 1.7886
-11.5682 5.9823 1.7758
-11.9630 4.8873 1.7621
-12.2485 3.7677 1.7474
-12.4184 2.6339 1.7310
-12.4851 1.5001 1.7147
-12.4508 0.3756 1.6985
-12.3186 -0.7309 1.6827
-12.0922 -1.8113 1.6672
-9.6374 -2.3391 1.3523
-11.3704 -3.8632 1.6375
-10.8968 -4.8263 1.6251
-10.3543 -5.7425 1.6145
-9.7259 -6.5939 1.6022
-9.0348 -7.3842 1.5911
-9.0120 -8.8200 1.7194
-8.1361 -9.5282 1.7084
-7.2121 -10.1596 1.6989
-1.2588 -2.1588 0.3408
-1.0575 -2.2552 0.3396
-4.2116 -11.5714 1.6791
-3.1547 -11.8758 1.6755
-2.0790 -12.0952 1.6734
-0.4139 -5.1111 0.6992
0.1058 -12.2758 1.6739
1.2035 -12.2358 1.6765
2.2969 -12.1088 1.6805
0.6779 -2.3854 0.3381
4.4476 -11.5938 1.6932
5.4928 -11.2067 1.7018
6.5097 -10.7343 1.7118
7.4921 -10.1776 1.7232
8.4327 -9.5377 1.7359
9.3176 -8.8097 1.7485
10.1377 -7.9982 1.7608
10.8807 -7.1061 1.7720
11.5540 -6.1498 1.7847
12.1533 -5.1341 1.7990
12.6919 -4.0695 1.8174
13.1460 -2.9516 1.8372
13.5012 -1.7849 1.8570
13.7228 -0.5770 1.8728
13.8206 0.6556 1.8866
13.8073 1.9010 1.9005
13.6805 3.1490 1.9142
13.4389 4.3889 1.9277
13.0695 5.6042 1.9390
12.5588 6.7716 1.9455
11.9185 7.8757 1.9479
11.1802 8.9186 1.9501
10.3495 9.8914 1.9521
9.4333 10.7857 1.9538
8.4388 11.5938 1.9553
7.3744 12.3089 1.9565
6.2488 12.9245 1.9575
5.0714 13.4355 1.9582
3.8520 13.8374 1.9585
2.6011 14.1267 1.9586
0.6110 6.5746 0.9003
0.0465 14.3464 1.9562
-1.1800 13.6586 1.8694
-2.5043 14.1145 1.9547
-3.7528 13.8275 1.9537
-2.5253 6.8238 0.9921
-2.9661 6.2377 0.9418
-7.4568 12.6315 2.0001
-8.5550 11.9152 2.0001
-8.8630 10.2673 1.8495
-9.6938 9.3857 1.8399
-10.2847 8.3140 1.8033
-10.9165 7.3157 1.7919
-11.4455 6.2674 1.7793
-11.8687 5.1807 1.7658
-12.1844 4.0669 1.7515
-12.3835 2.9352 1.7353
-12.4774 1.8004 1.7190
-12.4696 0.6726 1.7028
-12.3630 -0.4395 1.6868
-12.1612 -1.5276 1.6713
-11.8684 -2.5840 1.6562
-11.4877 -3.6014 1.6416
-11.0158 -4.5696 1.6262
-10.5097 -5.5068 1.6179
-9.8990 -6.3738 1.6054
-9.2240 -7.1807 1.5939
-9.0449 -8.4414 1.6870
-8.3734 -9.3477 1.7112
-7.4616 -9.9997 1.7013
-1.3110 -2.1304 0.3411
-1.1116 -2.2313 0.3399
-4.4882 -11.4764 1.6803
-3.4372 -11.8033 1.6763
-2.3659 -12.0454 1.6738
-0.5349 -5.0990 0.6991
-0.1854 -12.2718 1.6735
0.9124 -12.2549 1.6757
2.0075 -12.1510 1.6793
0.6208 -2.3996 0.3380
0.8343 -2.3395 0.3387
5.2180 -11.3178 1.6994
6.2430 -10.8679 1.7090
7.2351 -10.3334 1.7201
8.1879 -9.7159 1.7325
9.0881 -9.0105 1.7450
9.9290 -8.2231 1.7579
10.6905 -7.3495 1.7690
11.3815 -6.4090 1.7811
12.0023 -5.4094 1.7951
12.5556 -4.3570 1.8122
13.0349 -3.2534 1.8319
13.4170 -2.0988 1.8517
13.6786 -0.9006 1.8692
13.8054 0.3269 1.8830
13.8218 1.5699 1.8968
13.7253 2.8182 1.9106
13.5142 4.0613 1.9241
13.1798 5.2849 1.9362
12.7115 6.4695 1.9449
12.0982 7.5883 1.9473
11.3854 8.6483 1.9496
10.5786 9.6406 1.9516
9.6843 10.5565 1.9534
8.7099 11.3882 1.9549
7.6632 12.1286 1.9562
6.5529 12.7711 1.9573
5.3883 13.3104 1.9580
4.1791 13.7416 1.9585
2.9355 14.0611 1.9586
0.7668 6.5582 0.9003
0.3870 14.3446 1.9567
-0.8951 14.3149 1.9557
-2.1690 14.1715 1.9549
-3.4242 13.9147 1.9540
-2.4865 7.2426 1.0441
-2.7789 6.2205 0.9290
-7.1550 12.8049 2.0001
-8.2699 12.1148 2.0001
-8.6131 10.4701 1.8487
-9.5097 9.6550 1.8479
-10.1004 8.5691 1.8061
-10.7587 7.5859 1.7950
-11.3153 6.5498 1.7827
-11.7669 5.4721 1.7695
-12.1112 4.3644 1.7554
-12.3412 3.2362 1.7397
-12.4625 2.1012 1.7233
-12.4814 0.9707 1.7070
-12.4007 -0.1464 1.6910
-12.2238 -1.2417 1.6754
-11.9548 -2.3072 1.6602
-9.5791 -2.7553 1.3591
-11.1489 -4.3177 1.6302
-10.6603 -5.2672 1.6213
-10.0676 -6.1494 1.6086
-9.4091 -6.9727 1.5969
-9.0139 -8.0209 1.6453
-8.6073 -9.1618 1.7141
-7.7080 -9.8343 1.7038
-6.7636 -10.4287 1.6949
-1.1653 -2.2062 0.3402
-4.7629 -11.3756 1.6816
-3.7183 -11.7248 1.6772
-2.6518 -11.9895 1.6743
-1.5693 -12.1686 1.6730
-0.4764 -12.2616 1.6732
0.6211 -12.2679 1.6749
1.7175 -12.1871 1.6782
0.5634 -2.4126 0.3378
0.7781 -2.3572 0.3385
4.9413 -11.4228 1.6971
5.9740 -10.9955 1.7063
6.9754 -10.4834 1.7170
7.9393 -9.8878 1.7291
8.8547 -9.2059 1.7417
9.7137 -8.4412 1.7548
10.4952 -7.5881 1.7659
11.2045 -6.6643 1.7776
11.8455 -5.6806 1.7913
12.4131 -4.6403 1.8070
12.9169 -3.5515 1.8267
13.3254 -2.4096 1.8465
13.6269 -1.2225 1.8656
13.7824 -0.0007 1.8793
13.8284 1.2391 1.8931
13.7620 2.4870 1.9069
13.5814 3.7326 1.9206
13.2824 4.9636 1.9335
12.8554 6.1631 1.9439
12.2709 7.2968 1.9467
11.5839 8.3733 1.9490
10.8014 9.3844 1.9511
9.9297 10.3214 1.9529
8.9758 11.1761 1.9546
7.9475 11.9414 1.9559
6.8532 12.6105 1.9570
5.7020 13.1776 1.9578
4.5037 13.6379 1.9584
3.2682 13.9874 1.9586
0.9221 6.5377 0.9003
0.3346 6.5935 0.9002
-0.5553 14.3335 1.9559
-1.8323 14.2206 1.9551
-3.0210 13.6658 1.9084
-4.3284 13.6540 1.9531
-2.5967 6.2038 0.9170
-6.8492 12.9711 2.0001
-7.9802 12.3076 2.0001
-8.3585 10.6667 1.8478
-9.2932 9.8941 1.8509
-9.9073 8.8179 1.8085
-10.5938 7.8524 1.7981
-11.1778 6.8292 1.7861
-11.6574 5.7615 1.7731
-12.0303 4.6606 1.7592
-12.2916 3.5369 1.7440
-12.4404 2.4023 1.7276
-12.4862 1.2697 1.7113
-12.4316 0.1482 1.6952
-12.2799 -0.9536 1.6795
-12.0349 -2.0278 1.6642
-9.5575 -2.5051 1.3472
-11.2763 -4.0621 1.6343
-10.8058 -5.0237 1.6249
-10.2315 -5.9209 1.6119
-9.5899 -6.7602 1.5999
-8.9841 -7.6203 1.6064
-8.8375 -8.9706 1.7171
-7.9513 -9.6633 1.7064
-7.0183 -10.2787 1.6971
-1.2184 -2.1799 0.3405
-5.0357 -11.2689 1.6830
-3.9978 -11.6403 1.6782
-2.9366 -11.9275 1.6750
