ply
format ascii 1.0
element vertex 2176
property float32 x
property float32 y
property float32 z
end_header
-2.4283 2.9581 0.7643
-2.9454 2.9969 0.8392
-3.5802 3.0445 0.9386
-4.3929 3.1052 1.0744
-7.9249 4.6004 1.8300
-7.9993 3.7326 1.7629
-8.2275 2.9774 1.7474
-8.4025 2.2159 1.7355
-8.5075 1.4471 1.7235
-8.5431 0.6772 1.7115
-8.5104 -0.0873 1.6997
-3.5993 -0.3598 0.7224
-3.5299 -0.6752 0.7177
-3.4339 -0.9814 0.7132
-3.3125 -1.2762 0.7090
-3.2380 -1.5926 0.7206
-7.6236 -4.6372 1.7821
-7.1367 -5.2677 1.7715
-6.6018 -5.8515 1.7618
-1.1925 -1.2643 0.3471
-1.0706 -1.3602 0.3457
-0.9416 -1.4452 0.3445
-0.8064 -1.5188 0.3434
-0.6659 -1.5807 0.3425
-0.5211 -1.6304 0.3418
-0.3729 -1.6679 0.3413
-0.2224 -1.6928 0.3410
-0.0704 -1.7052 0.3408
0.0821 -1.7048 0.3409
0.2341 -1.6918 0.3411
0.3846 -1.6661 0.3415
0.5327 -1.6280 0.3421
0.6774 -1.5775 0.3429
0.8177 -1.5149 0.3438
0.9527 -1.4405 0.3449
5.4908 -6.8780 1.7577
6.1148 -6.3940 1.7669
6.6994 -5.8562 1.7771
7.2392 -5.2669 1.7879
7.7251 -4.6265 1.7983
8.1568 -3.9425 1.8093
8.5271 -3.2180 1.8202
8.8259 -2.4568 1.8297
9.0582 -1.6682 1.8395
9.2213 -0.8577 1.8496
9.3126 -0.0315 1.8599
9.3305 0.8043 1.8703
9.2763 1.6435 1.8814
9.1458 2.4793 1.8925
8.9387 3.3044 1.9033
8.6555 4.1116 1.9137
8.2975 4.8933 1.9238
7.8667 5.6424 1.9334
7.3658 6.3514 1.9424
6.7985 7.0133 1.9507
6.1692 7.6215 1.9583
1.0879 1.6210 0.3899
0.9423 1.7177 0.3913
0.7876 1.8004 0.3925
0.6253 1.8681 0.3934
0.4569 1.9200 0.3941
0.2841 1.9555 0.3946
0.1085 1.9742 0.3949
-0.0682 1.9760 0.3949
-0.2441 1.9607 0.3946
-0.4176 1.9287 0.3941
-0.5869 1.8801 0.3934
-0.7505 1.8157 0.3924
-0.9068 1.7362 0.3912
-2.3341 3.6359 0.8629
-2.3780 3.0636 0.7745
-2.7770 2.9843 0.8141
-3.3709 3.0288 0.9051
-4.1208 3.0849 1.0280
-7.9025 4.8804 1.8549
-7.9728 3.9887 1.7804
-8.1567 3.2061 1.7503
-8.3565 2.4495 1.7391
-8.4828 1.6822 1.7271
-8.5395 0.9120 1.7151
-8.5275 0.1452 1.7033
-8.4483 -0.6123 1.6917
-3.5539 -0.5798 0.7191
-3.4660 -0.8890 0.7146
-3.3522 -1.1875 0.7102
-3.2307 -1.4810 0.7098
-7.7620 -4.4359 1.7855
-7.2907 -5.0800 1.7746
-6.7700 -5.6784 1.7647
-6.2042 -6.2279 1.7557
-1.1086 -1.3320 0.3461
-0.9817 -1.4204 0.3448
-0.8483 -1.4976 0.3437
-0.7093 -1.5630 0.3428
-0.5657 -1.6165 0.3420
-0.4185 -1.6578 0.3415
-0.2685 -1.6866 0.3411
-0.1169 -1.7028 0.3409
0.0356 -1.7063 0.3408
0.1878 -1.6971 0.3410
0.3389 -1.6753 0.3414
0.4878 -1.6409 0.3419
0.6336 -1.5942 0.3426
0.7754 -1.5352 0.3435
0.9121 -1.4644 0.3446
5.2932 -7.0148 1.7550
5.9283 -6.5476 1.7640
6.5254 -6.0260 1.7739
7.0798 -5.4524 1.7846
7.5823 -4.8268 1.7951
8.0310 -4.1557 1.8059
8.4227 -3.4440 1.8173
8.7415 -2.6924 1.8267
8.9945 -1.9116 1.8364
9.1790 -1.1072 1.8464
9.2924 -0.2851 1.8567
9.3328 0.5485 1.8671
9.3009 1.3873 1.8781
9.1937 2.2249 1.8891
9.0100 3.0541 1.9000
8.7500 3.8675 1.9106
8.4147 4.6578 1.9208
8.0058 5.4176 1.9305
7.5260 6.1396 1.9397
6.9785 6.8166 1.9483
6.3677 7.4419 1.9561
1.1304 1.5888 0.3894
0.9878 1.6896 0.3909
0.8357 1.7767 0.3921
0.6756 1.8490 0.3931
0.5089 1.9058 0.3939
0.3372 1.9464 0.3945
0.1623 1.9703 0.3948
-0.0142 1.9773 0.3949
-0.1906 1.9672 0.3947
-0.3650 1.9402 0.3943
-0.5358 1.8967 0.3936
-0.7013 1.8370 0.3927
-0.8600 1.7620 0.3916
-2.3186 3.8382 0.8955
-2.3656 3.2255 0.7989
-2.6183 2.9724 0.7911
-3.1759 3.0142 0.8745
-3.8710 3.0662 0.9862
-7.8793 5.1683 1.8819
-7.9522 4.2535 1.8011
-8.0781 3.4325 1.7529
-8.3040 2.6822 1.7428
-8.4517 1.9171 1.7308
-8.5295 1.1471 1.7188
-8.5384 0.3786 1.7069
-8.4795 -0.3823 1.6952
-3.5755 -0.4836 0.7206
-3.4956 -0.7956 0.7160
-3.3896 -1.0976 0.7116
-3.2587 -1.3875 0.7073
-3.2475 -1.7401 0.7358
-7.4400 -4.8880 1.7779
-6.9340 -5.5008 1.7676
-6.3815 -6.0655 1.7583
-1.1460 -1.3029 0.3465
-1.0212 -1.3946 0.3452
-0.8897 -1.4752 0.3440
-0.7523 -1.5443 0.3431
-0.6100 -1.6015 0.3423
-0.4638 -1.6465 0.3416
-0.3146 -1.6791 0.3412
-0.1633 -1.6992 0.3409
-0.0110 -1.7065 0.3408
0.1414 -1.7013 0.3409
0.2929 -1.6833 0.3412
0.4426 -1.6527 0.3417
0.5895 -1.6097 0.3424
0.7326 -1.5545 0.3432
0.8710 -1.4873 0.3442
5.0924 -7.1462 1.7525
5.7382 -6.6961 1.7612
6.3474 -6.1909 1.7708
6.9153 -5.6328 1.7813
7.4345 -5.0230 1.7919
7.8998 -4.3651 1.8025
8.3094 -3.6654 1.8138
8.6511 -2.9253 1.8238
8.9244 -2.1528 1.8334
9.1301 -1.3549 1.8434
9.2655 -0.5376 1.8535
9.3283 0.2931 1.8639
9.3184 1.1310 1.8747
9.2346 1.9698 1.8858
9.0742 2.8022 1.8967
8.8374 3.6212 1.9074
8.5250 4.4194 1.9177
8.1383 5.1893 1.9276
7.6798 5.9236 1.9370
7.1526 6.6151 1.9457
6.5606 7.2569 1.9538
1.1719 1.5554 0.3889
1.0324 1.6602 0.3904
0.8830 1.7516 0.3918
0.7252 1.8286 0.3929
0.5604 1.8902 0.3937
0.3900 1.9358 0.3944
0.2159 1.9648 0.3948
0.0397 1.9769 0.3949
-0.1368 1.9721 0.3948
-0.3120 1.9502 0.3944
-0.4841 1.9117 0.3938
-0.6514 1.8569 0.3930
-0.8123 1.7865 0.3919
-0.9654 1.7013 0.3907
-2.3523 3.3982 0.8254
-2.4682 2.9611 0.7699
-2.9935 3.0005 0.8465
-3.6406 3.0490 0.9484
-7.8551 5.4647 1.9110
-7.9308 4.5246 1.8235
-8.0073 3.6634 1.7586
-8.2449 2.9139 1.7464
-8.4140 2.1515 1.7344
-8.5131 1.3823 1.7224
-8.5429 0.6127 1.7105
-8.5046 -0.1511 1.6987
-3.5945 -0.3866 0.7220
-3.5228 -0.7013 0.7174
-3.4247 -1.0066 0.7129
-3.3012 -1.3004 0.7086
-3.2400 -1.6239 0.7238
-7.5846 -4.6919 1.7811
-7.0936 -5.3186 1.7707
-6.5548 -5.8983 1.7611
-1.1826 -1.2727 0.3470
-1.0601 -1.3678 0.3456
-0.9305 -1.4518 0.3444
-0.7948 -1.5245 0.3433
-0.6539 -1.5853 0.3425
-0.5088 -1.6340 0.3418
-0.3604 -1.6705 0.3413
-0.2097 -1.6944 0.3410
-0.0576 -1.7056 0.3408
0.0949 -1.7042 0.3409
0.2468 -1.6901 0.3411
0.3972 -1.6634 0.3415
0.5450 -1.6242 0.3421
0.6894 -1.5727 0.3429
0.8293 -1.5091 0.3439
0.9638 -1.4337 0.3450
5.5447 -6.8395 1.7584
6.1655 -6.3509 1.7677
6.7466 -5.8087 1.7780
7.2820 -5.2148 1.7888
7.7635 -4.5707 1.7992
8.1905 -3.8832 1.8103
8.5547 -3.1553 1.8210
8.8480 -2.3916 1.8305
9.0746 -1.6009 1.8403
9.2317 -0.7889 1.8504
9.3169 0.0384 1.8607
9.3289 0.8748 1.8713
9.2683 1.7140 1.8824
9.1313 2.5491 1.8934
8.9178 3.3731 1.9041
8.6283 4.1783 1.9146
8.2641 4.9576 1.9247
7.8273 5.7036 1.9342
7.3207 6.4089 1.9431
6.7480 7.0666 1.9514
6.1137 7.6699 1.9589
1.0761 1.6296 0.3900
0.9296 1.7252 0.3914
0.7742 1.8067 0.3925
0.6113 1.8730 0.3935
0.4425 1.9236 0.3942
0.2694 1.9577 0.3947
0.0936 1.9750 0.3949
-0.0830 1.9754 0.3949
-0.2588 1.9587 0.3946
-0.4320 1.9252 0.3941
-0.6009 1.8753 0.3933
-0.7640 1.8096 0.3923
-0.9196 1.7288 0.3911
-2.3382 3.5828 0.8544
-2.3813 3.0207 0.7682
-2.8224 2.9877 0.8208
-3.4270 3.0330 0.9140
-4.1933 3.0903 1.0403
-7.9087 4.8026 1.8479
-7.9783 3.9168 1.7750
-8.1773 3.1435 1.7496
-8.3698 2.3853 1.7381
-8.4903 1.6175 1.7261
-8.5411 0.8474 1.7141
-8.5234 0.0811 1.7023
-8.4454 -0.6758 1.6920
-3.5476 -0.6061 0.7188
-3.4574 -0.9145 0.7142
-3.3415 -1.2120 0.7099
-3.2327 -1.5114 0.7127
-7.7244 -4.4917 1.7845
-7.2488 -5.1321 1.7738
-6.7241 -5.7265 1.7639
-6.1548 -6.2717 1.7549
-1.0983 -1.3399 0.3460
-0.9707 -1.4273 0.3447
-0.8368 -1.5035 0.3436
-0.6974 -1.5680 0.3427
-0.5535 -1.6205 0.3420
-0.4060 -1.6607 0.3414
-0.2559 -1.6884 0.3410
-0.1041 -1.7035 0.3409
0.0484 -1.7060 0.3408
0.2005 -1.6958 0.3410
0.3515 -1.6729 0.3414
0.5002 -1.6375 0.3419
0.6457 -1.5897 0.3427
0.7871 -1.5297 0.3436
0.9234 -1.4580 0.3447
5.3479 -6.9777 1.7557
5.9800 -6.5059 1.7648
6.5737 -5.9798 1.7748
7.1243 -5.4019 1.7856
7.6221 -4.7721 1.7960
8.0662 -4.0975 1.8068
8.4523 -3.3823 1.8182
8.7654 -2.6279 1.8275
9.0127 -1.8448 1.8373
9.1913 -1.0387 1.8473
9.2987 -0.2154 1.8576
9.3328 0.6188 1.8680
9.2948 1.4579 1.8790
9.1813 2.2950 1.8900
8.9911 3.1231 1.9009
8.7247 3.9349 1.9115
8.3831 4.7229 1.9216
7.9682 5.4798 1.9313
7.4825 6.1983 1.9405
6.9296 6.8712 1.9490
6.3136 7.4918 1.9567
1.1188 1.5978 0.3895
0.9753 1.6975 0.3910
0.8225 1.7833 0.3922
0.6618 1.8544 0.3932
0.4946 1.9099 0.3940
0.3226 1.9491 0.3945
0.1475 1.9716 0.3948
-0.0291 1.9771 0.3949
-0.2053 1.9656 0.3947
-0.3795 1.9372 0.3942
-0.5499 1.8923 0.3935
-0.7149 1.8313 0.3926
-0.8729 1.7550 0.3915
-2.3230 3.7811 0.8863
-2.3691 3.1800 0.7919
-2.6611 2.9756 0.7972
-3.2283 3.0181 0.8826
-3.9377 3.0712 0.9973
-7.8858 5.0883 1.8743
-7.9579 4.1800 1.7952
-8.1004 3.3704 1.7522
-8.3190 2.6183 1.7418
-8.4609 1.8525 1.7298
-8.5329 1.0824 1.7178
-8.5360 0.3143 1.7059
-8.4715 -0.4457 1.6942
-3.5698 -0.5101 0.7202
-3.4877 -0.8214 0.7156
-3.3795 -1.1225 0.7112
-3.2466 -1.4112 0.7070
-3.2496 -1.7728 0.7393
-7.3994 -4.9413 1.7770
-6.8893 -5.5501 1.7668
-6.3331 -6.1106 1.7576
-1.1358 -1.3110 0.3464
-1.0104 -1.4018 0.3451
-0.8783 -1.4815 0.3440
-0.7405 -1.5496 0.3430
-0.5979 -1.6057 0.3422
-0.4513 -1.6497 0.3416
-0.3019 -1.6813 0.3411
-0.1506 -1.7003 0.3409
0.0018 -1.7066 0.3408
0.1542 -1.7002 0.3410
0.3056 -1.6812 0.3413
0.4551 -1.6496 0.3418
0.6017 -1.6056 0.3424
0.7444 -1.5493 0.3433
0.8823 -1.4811 0.3443
5.1480 -7.1105 1.7532
5.7908 -6.6558 1.7619
6.3967 -6.1460 1.7716
6.9610 -5.5837 1.7822
7.4757 -4.9694 1.7928
7.9364 -4.3079 1.8035
8.3411 -3.6048 1.8147
8.6766 -2.8615 1.8246
8.9443 -2.0866 1.8343
9.1442 -1.2869 1.8442
9.2736 -0.4683 1.8544
9.3302 0.3633 1.8648
9.3143 1.2015 1.8756
9.2240 2.0400 1.8867
9.0573 2.8716 1.8976
8.8141 3.6892 1.9083
8.4953 4.4852 1.9186
8.1025 5.2524 1.9284
7.6381 5.9834 1.9378
7.1053 6.6710 1.9464
6.5081 7.3083 1.9544
1.1606 1.5647 0.3891
1.0202 1.6684 0.3906
0.8701 1.7587 0.3919
0.7116 1.8343 0.3929
0.5462 1.8946 0.3938
0.3755 1.9388 0.3944
0.2012 1.9665 0.3948
0.0249 1.9772 0.3949
-0.1516 1.9709 0.3948
-0.3266 1.9476 0.3944
-0.4984 1.9077 0.3938
-0.6652 1.8516 0.3929
-0.8255 1.7799 0.3918
-2.3066 3.9948 0.9213
-2.3561 3.3495 0.8179
-2.5087 2.9642 0.7755
-3.0426 3.0042 0.8539
-3.7022 3.0536 0.9584
-7.8619 5.3823 1.9028
-7.9368 4.4493 1.8172
-8.0171 3.5954 1.7548
-8.2618 2.8502 1.7454
-8.4250 2.0871 1.7334
-8.5183 1.3176 1.7214
-8.5423 0.5483 1.7095
-8.4983 -0.2148 1.6978
-3.5895 -0.4133 0.7216
-3.5156 -0.7274 0.7170
-3.4152 -1.0318 0.7125
-3.2897 -1.3245 0.7082
-3.2420 -1.6555 0.7270
-7.5453 -4.7463 1.7802
-7.0501 -5.3692 1.7698
-6.5076 -5.9448 1.7603
-1.1726 -1.2811 0.3468
-1.0494 -1.3753 0.3455
-0.9193 -1.4584 0.3443
-0.7831 -1.5300 0.3433
-0.6419 -1.5899 0.3424
-0.4964 -1.6376 0.3417
-0.3478 -1.6730 0.3413
-0.1969 -1.6958 0.3409
-0.0448 -1.7060 0.3408
0.1077 -1.7035 0.3409
0.2595 -1.6884 0.3411
0.4097 -1.6606 0.3416
0.5573 -1.6203 0.3422
0.7013 -1.5678 0.3430
0.8408 -1.5032 0.3440
0.9748 -1.4269 0.3451
5.5982 -6.8006 1.7592
6.2159 -6.3073 1.7686
6.7934 -5.7608 1.7789
7.3245 -5.1625 1.7896
7.8015 -4.5145 1.8001
8.2238 -3.8237 1.8112
8.5818 -3.0923 1.8218
8.8696 -2.3261 1.8313
9.0905 -1.5334 1.8411
9.2417 -0.7199 1.8513
9.3208 0.1084 1.8616
9.3267 0.9453 1.8722
9.2597 1.7844 1.8833
9.1163 2.6189 1.8943
8.8964 3.4415 1.9050
8.6006 4.2449 1.9155
8.2302 5.0217 1.9255
7.7873 5.7645 1.9350
7.2751 6.4661 1.9439
6.6970 7.1194 1.9521
1.2013 1.5305 0.3886
1.0642 1.6382 0.3901
0.9169 1.7326 0.3915
0.7608 1.8128 0.3926
0.5974 1.8779 0.3936
0.4281 1.9271 0.3942
0.2547 1.9598 0.3947
0.0788 1.9757 0.3949
-0.0978 1.9746 0.3948
-0.2735 1.9565 0.3945
-0.4464 1.9217 0.3940
-0.6149 1.8704 0.3932
-0.7773 1.8034 0.3922
-0.9322 1.7214 0.3910
-2.3422 3.5307 0.8462
-2.3845 2.9785 0.7620
-2.8684 2.9911 0.8277
-3.4842 3.0373 0.9231
-4.2675 3.0959 1.0529
-7.9149 4.7254 1.8410
-7.9858 3.8464 1.7702
-8.1973 3.0807 1.7489
-8.3826 2.3211 1.7371
-8.4972 1.5528 1.7251
-8.5423 0.7828 1.7131
-8.5189 0.0171 1.7013
-3.8020 -0.3330 0.7622
-3.5410 -0.6324 0.7184
-3.4486 -0.9400 0.7139
-3.3306 -1.2365 0.7095
-3.2347 -1.5420 0.7157
-7.6864 -4.5472 1.7836
-7.2065 -5.1838 1.7729
-6.6780 -5.7742 1.7631
-6.1051 -6.3152 1.7542
-1.0878 -1.3477 0.3459
-0.9597 -1.4342 0.3446
-0.8253 -1.5094 0.3436
-0.6855 -1.5729 0.3427
-0.5412 -1.6243 0.3419
-0.3935 -1.6635 0.3414
-0.2432 -1.6902 0.3410
-0.0913 -1.7042 0.3408
0.0612 -1.7056 0.3409
0.2133 -1.6943 0.3410
0.3641 -1.6704 0.3414
0.5125 -1.6339 0.3420
0.6578 -1.5851 0.3427
0.7987 -1.5242 0.3437
0.9346 -1.4514 0.3448
5.4024 -6.9402 1.7565
6.0314 -6.4637 1.7656
6.6216 -5.9332 1.7756
7.1685 -5.3511 1.7865
7.6615 -4.7171 1.7969
8.1009 -4.0389 1.8078
8.4811 -3.3201 1.8189
8.7887 -2.5631 1.8283
9.0304 -1.7779 1.8381
9.2031 -0.9702 1.8482
9.3044 -0.1457 1.8584
9.3323 0.6892 1.8689
9.2882 1.5283 1.8799
9.1682 2.3650 1.8910
8.9716 3.1920 1.9018
8.6989 4.0021 1.9123
8.3511 4.7878 1.9225
7.9301 5.5417 1.9321
7.4386 6.2566 1.9412
6.8802 6.9255 1.9496
6.2591 7.5414 1.9573
1.1072 1.6066 0.3897
0.9628 1.7052 0.3911
0.8093 1.7899 0.3923
0.6480 1.8597 0.3933
0.4803 1.9138 0.3941
0.3080 1.9516 0.3946
0.1327 1.9727 0.3949
-0.0439 1.9768 0.3949
-0.2200 1.9638 0.3947
-0.3940 1.9341 0.3942
-0.5640 1.8878 0.3935
-0.7285 1.8255 0.3925
-0.8858 1.7480 0.3914
-2.3273 3.7251 0.8772
-2.3725 3.1352 0.7852
-2.7045 2.9789 0.8035
-3.2816 3.0221 0.8910
-4.0059 3.0763 1.0087
-7.8922 5.0089 1.8668
-7.9636 4.1070 1.7895
-8.1222 3.3081 1.7515
-8.3337 2.5543 1.7408
-8.4696 1.7879 1.7288
-8.5358 1.0177 1.7168
-8.5332 0.2501 1.7049
-8.4631 -0.5090 1.6932
-3.5639 -0.5366 0.7198
-3.4796 -0.8471 0.7152
-3.3693 -1.1472 0.7108
-3.2343 -1.4349 0.7066
-7.8225 -4.3440 1.7870
-7.3584 -4.9942 1.7761
-6.8443 -5.5990 1.7660
-6.2844 -6.1555 1.7568
-1.1255 -1.3190 0.3463
-0.9995 -1.4089 0.3450
-0.8670 -1.4876 0.3439
-0.7287 -1.5547 0.3429
-0.5857 -1.6099 0.3421
-0.4389 -1.6528 0.3415
-0.2893 -1.6833 0.3411
-0.1378 -1.7013 0.3409
0.0146 -1.7065 0.3408
0.1669 -1.6991 0.3410
0.3182 -1.6790 0.3413
0.4675 -1.6464 0.3418
0.6138 -1.6013 0.3425
0.7562 -1.5440 0.3434
0.8937 -1.4749 0.3444
5.2033 -7.0745 1.7539
5.8432 -6.6151 1.7627
6.4458 -6.1007 1.7725
7.0064 -5.5341 1.7831
7.5164 -4.9155 1.7936
7.9727 -4.2504 1.8044
8.3725 -3.5440 1.8157
8.7016 -2.7975 1.8254
8.9637 -2.0203 1.8351
9.1578 -1.2188 1.8451
9.2811 -0.3988 1.8553
9.3316 0.4336 1.8657
9.3097 1.2721 1.8765
9.2130 2.1102 1.8876
9.0398 2.9410 1.8985
8.7902 3.7570 1.9091
8.4651 4.5509 1.9194
8.0662 5.3153 1.9292
7.5960 6.0429 1.9385
7.0576 6.7265 1.9471
6.4551 7.3593 1.9550
1.1492 1.5739 0.3892
1.0079 1.6766 0.3907
0.8571 1.7656 0.3920
0.6980 1.8400 0.3930
0.5321 1.8990 0.3939
0.3610 1.9418 0.3944
0.1864 1.9680 0.3948
0.0100 1.9773 0.3949
-0.1664 1.9696 0.3948
-0.3412 1.9449 0.3944
-0.5126 1.9036 0.3937
-0.6789 1.8462 0.3928
-0.8386 1.7732 0.3917
-2.3112 3.9343 0.9113
-2.3597 3.3018 0.8105
-2.5498 2.9672 0.7813
-3.0924 3.0079 0.8616
-3.7651 3.0583 0.9688
-7.8685 5.3005 1.8947
-7.9427 4.3746 1.8109
-8.0407 3.5337 1.7541
-8.2782 2.7865 1.7444
-8.4355 2.0226 1.7324
-8.5230 1.2529 1.7204
-8.5412 0.4838 1.7085
-8.4916 -0.2785 1.6968
-3.5843 -0.4400 0.7212
-3.5082 -0.7533 0.7166
-3.4056 -1.0568 0.7121
-3.2781 -1.3485 0.7079
-3.2441 -1.6874 0.7303
-7.5056 -4.8003 1.7793
-7.0063 -5.4194 1.7690
-6.4600 -5.9909 1.7595
-1.1625 -1.2894 0.3467
-1.0387 -1.3827 0.3454
-0.9081 -1.4648 0.3442
-0.7715 -1.5355 0.3432
-0.6298 -1.5943 0.3424
-0.4841 -1.6410 0.3417
-0.3352 -1.6754 0.3412
-0.1842 -1.6971 0.3409
-0.0319 -1.7063 0.3408
0.1205 -1.7027 0.3409
0.2722 -1.6865 0.3412
0.4222 -1.6577 0.3416
0.5695 -1.6164 0.3423
0.7132 -1.5628 0.3431
0.8523 -1.4972 0.3441
5.0012 -7.2035 1.7514
0.9636 -1.3739 0.3459
5.5187 -6.5387 1.7637
6.1122 -6.0517 1.7730
6.6658 -5.5134 1.7831
7.1715 -4.9241 1.7932
7.6259 -4.2888 1.8034
8.0263 -3.6127 1.8143
8.3622 -2.8977 1.8242
8.6312 -2.1507 1.8335
8.8347 -1.3790 1.8431
8.9702 -0.5881 1.8530
9.0355 0.2160 1.8630
9.0290 1.0272 1.8731
8.9519 1.8393 1.8838
8.8012 2.6457 1.8944
8.5766 3.4394 1.9047
8.2788 4.2132 1.9148
7.9093 4.9601 1.9244
7.4702 5.6729 1.9335
6.9645 6.3447 1.9420
6.3961 6.9689 1.9498
1.1441 1.4950 0.3880
1.0099 1.5972 0.3895
0.8662 1.6865 0.3908
0.7141 1.7619 0.3919
0.5553 1.8226 0.3927
0.3910 1.8679 0.3934
0.2229 1.8973 0.3938
0.0527 1.9104 0.3939
-0.1179 1.9071 0.3938
-0.2874 1.8874 0.3935
-0.4541 1.8516 0.3930
-0.6163 1.8000 0.3922
-0.7725 1.7334 0.3912
-0.9213 1.6523 0.3899
-2.3485 3.4477 0.8599
-2.4281 2.9578 0.7888
-2.9451 2.9966 0.8661
-3.5798 3.0441 0.9686
-4.3923 3.1048 1.1087
-7.9148 4.5945 1.8864
-7.9829 3.7250 1.8158
-8.0440 2.9110 1.7633
-8.1372 2.1460 1.7346
-8.2407 1.4017 1.7230
-8.2770 0.6561 1.7115
-8.2539 -0.0847 1.7014
-3.5129 -0.3512 0.7277
-3.4220 -0.6546 0.7182
-3.3296 -0.9516 0.7138
-3.2151 -1.2387 0.7102
-3.2380 -1.5926 0.7438
-7.3975 -4.4997 1.7848
-6.9263 -5.1124 1.7745
-6.4082 -5.6799 1.7651
-1.1573 -1.2269 0.3476
-1.0391 -1.3201 0.3463
-0.9140 -1.4028 0.3451
-0.7828 -1.4744 0.3441
-0.6465 -1.5345 0.3432
-0.5059 -1.5829 0.3425
-0.3621 -1.6194 0.3420
-0.2159 -1.6436 0.3417
-0.0683 -1.6556 0.3416
0.0797 -1.6553 0.3416
0.2273 -1.6426 0.3418
0.3734 -1.6176 0.3422
0.5172 -1.5805 0.3428
0.6576 -1.5314 0.3435
0.7938 -1.4705 0.3444
0.9248 -1.3982 0.3455
5.3302 -6.6768 1.7610
5.9350 -6.2060 1.7700
6.5013 -5.6830 1.7799
7.0227 -5.1093 1.7901
7.4927 -4.4873 1.8002
7.9100 -3.8232 1.8109
8.2675 -3.1201 1.8215
8.5559 -2.3817 1.8306
8.7797 -1.6169 1.8402
8.9362 -0.8312 1.8499
9.0231 -0.0305 1.8599
9.0387 0.7791 1.8700
8.9831 1.5916 1.8805
8.8551 2.4005 1.8912
8.6530 3.1988 1.9016
8.3774 3.9795 1.9117
8.0296 4.7353 1.9215
7.6114 5.4593 1.9308
7.1258 6.1444 1.9395
6.5760 6.7838 1.9475
1.1830 1.4614 0.3876
1.0519 1.5673 0.3891
0.9110 1.6607 0.3904
0.7613 1.7404 0.3916
0.6044 1.8057 0.3925
0.4416 1.8557 0.3932
0.2746 1.8900 0.3937
0.1048 1.9081 0.3939
-0.0659 1.9098 0.3939
-0.2359 1.8951 0.3936
-0.4036 1.8642 0.3932
-0.5673 1.8174 0.3924
-0.7255 1.7553 0.3915
-0.8767 1.6785 0.3903
-2.3341 3.6359 0.8906
-2.3780 3.0635 0.7994
-2.7768 2.9840 0.8402
-3.3706 3.0285 0.9340
-4.1202 3.0845 1.0609
-7.8923 4.8741 1.9120
-7.9629 3.9837 1.8353
-8.0261 3.1547 1.7776
-8.0943 2.3726 1.7387
-8.2163 1.6294 1.7266
-8.2730 0.8836 1.7150
-8.2631 0.1407 1.7035
-8.2732 -0.5996 1.7098
-3.4451 -0.5620 0.7195
-3.3605 -0.8620 0.7151
-3.2508 -1.1516 0.7109
-3.2307 -1.4810 0.7326
-7.5307 -4.3037 1.7879
-7.0753 -4.9300 1.7775
-6.5711 -5.5116 1.7679
-6.0229 -6.0459 1.7591
-1.0760 -1.2928 0.3467
-0.9529 -1.3787 0.3455
-0.8234 -1.4537 0.3444
-0.6886 -1.5174 0.3435
-0.5492 -1.5694 0.3427
-0.4063 -1.6095 0.3422
-0.2607 -1.6375 0.3418
-0.1135 -1.6533 0.3416
0.0345 -1.6567 0.3416
0.1823 -1.6478 0.3417
0.3290 -1.6266 0.3421
0.4736 -1.5931 0.3426
0.6151 -1.5476 0.3433
0.7527 -1.4903 0.3441
0.8854 -1.4214 0.3452
5.1385 -6.8098 1.7585
5.7542 -6.3554 1.7672
6.3327 -5.8481 1.7768
6.8693 -5.2903 1.7872
7.3546 -4.6818 1.7971
7.7884 -4.0302 1.8076
8.1667 -3.3393 1.8187
8.4745 -2.6102 1.8278
8.7183 -1.8529 1.8372
8.8957 -1.0730 1.8469
9.0041 -0.2762 1.8569
9.0416 0.5314 1.8669
9.0075 1.3436 1.8772
8.9020 2.1543 1.8879
8.7226 2.9566 1.8984
8.4693 3.7434 1.9087
8.1434 4.5076 1.9186
7.7464 5.2420 1.9280
7.2810 5.9397 1.9369
6.7504 6.5938 1.9451
6.1587 7.1977 1.9526
1.0930 1.5363 0.3886
0.9550 1.6336 0.3900
0.8079 1.7176 0.3912
0.6530 1.7873 0.3922
0.4919 1.8421 0.3930
0.3259 1.8813 0.3936
0.1568 1.9043 0.3939
-0.0137 1.9110 0.3939
-0.1842 1.9013 0.3937
-0.3528 1.8753 0.3933
-0.5179 1.8333 0.3927
-0.6779 1.7758 0.3918
-0.8314 1.7035 0.3907
-0.9768 1.6171 0.3894
-2.3656 3.2255 0.8245
-2.6181 2.9721 0.8164
-3.1756 3.0139 0.9024
-3.8705 3.0658 1.0178
-7.8061 5.1203 1.9243
-7.9422 4.2481 1.8566
-8.0074 3.4025 1.7934
-8.0726 2.6075 1.7486
-8.1855 1.8567 1.7301
-8.2628 1.1112 1.7185
-8.2731 0.3669 1.7070
-8.2645 -0.3726 1.7053
-3.4658 -0.4687 0.7209
-3.3890 -0.7714 0.7164
-3.2869 -1.0644 0.7121
-3.2237 -1.3726 0.7222
-3.2475 -1.7401 0.7594
-7.2199 -4.7434 1.7807
-6.7300 -5.3389 1.7707
-6.1947 -5.8879 1.7617
-1.1121 -1.2644 0.3471
-0.9912 -1.3536 0.3458
-0.8636 -1.4320 0.3447
-0.7303 -1.4992 0.3437
-0.5922 -1.5548 0.3429
-0.4503 -1.5986 0.3423
-0.3054 -1.6303 0.3419
-0.1586 -1.6498 0.3416
-0.0107 -1.6570 0.3416
0.1373 -1.6518 0.3417
0.2844 -1.6343 0.3419
0.4297 -1.6046 0.3424
0.5723 -1.5628 0.3430
0.7112 -1.5091 0.3439
0.8454 -1.4437 0.3449
0.9741 -1.3670 0.3460
5.5700 -6.4998 1.7644
6.1603 -6.0084 1.7738
6.7103 -5.4659 1.7840
7.2117 -4.8724 1.7940
7.6617 -4.2335 1.8043
8.0574 -3.5542 1.8152
8.3873 -2.8361 1.8250
8.6508 -2.0867 1.8343
8.8487 -1.3132 1.8439
8.9784 -0.5209 1.8538
9.0378 0.2840 1.8638
9.0252 1.0954 1.8740
8.9421 1.9074 1.8847
8.7852 2.7130 1.8952
8.5544 3.5053 1.9056
8.2505 4.2771 1.9156
7.8750 5.0214 1.9252
7.4302 5.7310 1.9342
6.9191 6.3991 1.9427
6.3456 7.0190 1.9504
1.1332 1.5041 0.3882
0.9982 1.6052 0.3896
0.8537 1.6934 0.3909
0.7010 1.7676 0.3920
0.5416 1.8270 0.3928
0.3770 1.8710 0.3934
0.2087 1.8990 0.3938
0.0384 1.9107 0.3939
-0.1322 1.9060 0.3938
-0.3016 1.8850 0.3935
-0.4679 1.8478 0.3929
-0.6297 1.7950 0.3921
-0.7853 1.7271 0.3911
-0.9334 1.6449 0.3898
-2.3523 3.3982 0.8519
-2.4680 2.9608 0.7945
-2.9932 3.0002 0.8736
-3.6401 3.0486 0.9787
-7.6735 5.3383 1.9268
-7.9208 4.5189 1.8797
-7.9883 3.6547 1.8107
-8.0496 2.8448 1.7598
-8.1485 2.0836 1.7337
-8.2463 1.3390 1.7220
-8.2770 0.5937 1.7105
-8.2563 -0.1467 1.7021
-3.4840 -0.3747 0.7223
-3.4152 -0.6799 0.7178
-3.3207 -0.9760 0.7134
-3.2169 -1.2672 0.7127
-3.2400 -1.6239 0.7470
-7.3598 -4.5528 1.7839
-6.8845 -5.1619 1.7737
-6.3627 -5.7254 1.7643
-1.1476 -1.2351 0.3475
-1.0288 -1.3275 0.3462
-0.9032 -1.4092 0.3450
-0.7715 -1.4799 0.3440
-0.6348 -1.5390 0.3432
-0.4940 -1.5865 0.3425
-0.3499 -1.6219 0.3420
-0.2036 -1.6451 0.3417
-0.0559 -1.6561 0.3416
0.0922 -1.6547 0.3416
0.2396 -1.6410 0.3418
0.3856 -1.6150 0.3422
0.5291 -1.5768 0.3428
0.6692 -1.5267 0.3436
0.8050 -1.4649 0.3445
0.9355 -1.3916 0.3456
5.3824 -6.6393 1.7618
5.9841 -6.1640 1.7708
6.5469 -5.6368 1.7808
7.0641 -5.0588 1.7910
7.5298 -4.4331 1.8011
7.9425 -3.7657 1.8119
8.2942 -3.0592 1.8222
8.5772 -2.3184 1.8314
8.7954 -1.5516 1.8410
8.9462 -0.7645 1.8508
9.0272 0.0372 1.8608
9.0367 0.8474 1.8709
8.9752 1.6598 1.8814
8.8410 2.4681 1.8920
8.6327 3.2652 1.9025
8.3510 4.0440 1.9126
7.9971 4.7975 1.9223
7.5732 5.5184 1.9315
7.0820 6.1999 1.9402
6.5271 6.8352 1.9481
1.1724 1.4708 0.3877
1.0405 1.5757 0.3892
0.8987 1.6679 0.3905
0.7484 1.7465 0.3917
0.5909 1.8105 0.3926
0.4277 1.8592 0.3932
0.2604 1.8922 0.3937
0.0905 1.9089 0.3939
-0.0802 1.9092 0.3939
-0.2501 1.8931 0.3936
-0.4175 1.8609 0.3931
-0.5809 1.8128 0.3924
-0.7385 1.7494 0.3914
-0.8890 1.6715 0.3902
-2.3382 3.5828 0.8819
-2.3813 3.0207 0.7928
-2.8221 2.9874 0.8471
-3.4266 3.0326 0.9432
-4.1927 3.0899 1.0736
-7.8986 4.7964 1.9048
-7.9685 3.9120 1.8298
-8.0311 3.0873 1.7735
-8.1052 2.3099 1.7372
-8.2236 1.5668 1.7256
-8.2747 0.8210 1.7140
-8.2593 0.0786 1.7025
-8.2769 -0.6623 1.7115
-3.4390 -0.5876 0.7191
-3.3522 -0.8867 0.7147
-3.2405 -1.1754 0.7105
-3.2327 -1.5114 0.7356
-7.4948 -4.3582 1.7871
-7.0348 -4.9806 1.7767
-6.5267 -5.5584 1.7671
-1.1824 -1.2049 0.3480
-1.0659 -1.3004 0.3466
-0.9422 -1.3854 0.3454
-0.8123 -1.4595 0.3443
-0.6770 -1.5222 0.3434
-0.5374 -1.5732 0.3427
-0.3942 -1.6123 0.3421
-0.2484 -1.6393 0.3418
-0.1011 -1.6540 0.3416
0.0470 -1.6564 0.3416
0.1947 -1.6465 0.3417
0.3412 -1.6242 0.3421
0.4856 -1.5898 0.3426
0.6268 -1.5433 0.3433
0.7640 -1.4850 0.3442
0.8963 -1.4152 0.3453
5.1916 -6.7737 1.7592
5.8043 -6.3147 1.7680
6.3795 -5.8031 1.7776
6.9120 -5.2409 1.7880
7.3931 -4.6287 1.7979
7.8224 -3.9736 1.8085
8.1953 -3.2794 1.8195
8.4975 -2.5475 1.8286
8.7358 -1.7881 1.8380
8.9075 -1.0066 1.8478
9.0100 -0.2087 1.8577
9.0415 0.5995 1.8678
9.0015 1.4118 1.8781
8.8898 2.2222 1.8888
8.7041 3.0234 1.8993
8.4447 3.8086 1.9095
8.1127 4.5705 1.9194
7.7099 5.3022 1.9288
7.2389 5.9964 1.9376
6.7030 6.6465 1.9458
6.1064 7.2459 1.9532
1.0818 1.5449 0.3888
0.9430 1.6411 0.3901
0.7951 1.7240 0.3913
0.6397 1.7925 0.3923
0.4781 1.8460 0.3931
0.3118 1.8838 0.3936
0.1425 1.9055 0.3939
-0.0281 1.9108 0.3939
-0.1984 1.8998 0.3937
-0.3668 1.8724 0.3933
-0.5315 1.8291 0.3926
-0.6911 1.7703 0.3917
-0.8439 1.6967 0.3906
-2.3230 3.7810 0.9147
-2.3690 3.1800 0.8174
-2.6608 2.9753 0.8228
-3.2279 3.0178 0.9108
-3.9372 3.0708 1.0292
-7.8414 5.0596 1.9236
-7.9480 4.1748 1.8505
-8.0126 3.3339 1.7889
-8.0787 2.5426 1.7458
-8.1946 1.7942 1.7291
-8.2662 1.0486 1.7175
-8.2710 0.3046 1.7060
-8.2665 -0.4349 1.7063
-3.4603 -0.4945 0.7205
-3.3814 -0.7964 0.7161
-3.2772 -1.0885 0.7118
-3.2256 -1.4021 0.7250
-3.2496 -1.7728 0.7630
-7.1806 -4.7951 1.7798
-6.6867 -5.3869 1.7699
-6.1478 -5.9318 1.7609
-1.1023 -1.2723 0.3470
-0.9807 -1.3606 0.3457
-0.8526 -1.4381 0.3446
-0.7189 -1.5043 0.3437
-0.5804 -1.5589 0.3429
-0.4382 -1.6017 0.3423
-0.2931 -1.6324 0.3419
-0.1462 -1.6509 0.3416
0.0018 -1.6570 0.3416
0.1497 -1.6508 0.3417
0.2967 -1.6323 0.3420
0.4418 -1.6016 0.3425
0.5841 -1.5587 0.3431
0.7226 -1.5040 0.3439
0.8565 -1.4377 0.3449
0.9847 -1.3601 0.3461
5.6210 -6.4606 1.7652
6.2081 -5.9648 1.7746
6.7546 -5.4181 1.7849
7.2515 -4.8204 1.7948
7.6970 -4.1780 1.8052
8.0880 -3.4954 1.8162
8.4119 -2.7742 1.8258
8.6700 -2.0226 1.8351
8.8623 -1.2472 1.8448
8.9861 -0.4537 1.8546
9.0395 0.3520 1.8647
9.0208 1.1637 1.8748
8.9318 1.9754 1.8856
8.7686 2.7802 1.8961
8.5317 3.5710 1.9064
8.2217 4.3408 1.9164
7.8403 5.0824 1.9259
7.3898 5.7888 1.9350
6.8733 6.4531 1.9433
6.2947 7.0687 1.9510
1.1222 1.5130 0.3883
0.9864 1.6131 0.3897
0.8412 1.7002 0.3910
0.6879 1.7732 0.3920
0.5280 1.8313 0.3929
0.3630 1.8740 0.3935
0.1944 1.9006 0.3938
0.0241 1.9110 0.3939
-0.1466 1.9049 0.3938
-0.3157 1.8825 0.3934
-0.4817 1.8440 0.3928
-0.6430 1.7899 0.3920
-0.7980 1.7207 0.3910
-0.9454 1.6374 0.3897
-2.3560 3.3495 0.8441
-2.5085 2.9639 0.8004
-3.0422 3.0039 0.8813
-3.7018 3.0532 0.9891
-7.7106 5.2787 1.9261
-7.9268 4.4437 1.8731
-7.9936 3.5848 1.8058
-8.0561 2.7793 1.7566
-8.1593 2.0213 1.7327
-8.2515 1.2763 1.7211
-8.2765 0.5312 1.7095
-8.2587 -0.2088 1.7029
-3.4792 -0.4006 0.7219
-3.4083 -0.7051 0.7174
-3.3116 -1.0005 0.7131
-3.2188 -1.2959 0.7152
-3.2420 -1.6555 0.7504
-7.3218 -4.6057 1.7830
-6.8424 -5.2110 1.7728
-6.3169 -5.7706 1.7636
-1.1379 -1.2433 0.3474
-1.0185 -1.3348 0.3461
-0.8923 -1.4156 0.3449
-0.7602 -1.4853 0.3439
-0.6231 -1.5435 0.3431
-0.4820 -1.5899 0.3424
-0.3377 -1.6243 0.3420
-0.1912 -1.6465 0.3417
-0.0435 -1.6564 0.3416
0.1046 -1.6540 0.3416
0.2520 -1.6393 0.3419
0.3978 -1.6122 0.3423
0.5410 -1.5731 0.3429
0.6808 -1.5220 0.3437
0.8162 -1.4591 0.3446
0.9462 -1.3849 0.3457
5.4343 -6.6014 1.7625
6.0329 -6.1217 1.7716
6.5923 -5.5902 1.7816
7.1052 -5.0079 1.7918
7.5666 -4.3786 1.8020
7.9747 -3.7078 1.8128
8.3204 -2.9981 1.8230
8.5981 -2.2549 1.8322
8.8107 -1.4862 1.8418
8.9557 -0.6976 1.8516
9.0308 0.1051 1.8616
9.0342 0.9156 1.8717
8.9668 1.7279 1.8823
8.8263 2.5356 1.8929
8.6118 3.3314 1.9033
8.3240 4.1084 1.9134
7.9642 4.8594 1.9231
7.5345 5.5773 1.9323
7.0378 6.2552 1.9409
6.4777 6.8863 1.9488
1.1617 1.4801 0.3878
1.0289 1.5839 0.3893
0.8864 1.6750 0.3906
0.7355 1.7524 0.3917
0.5774 1.8152 0.3926
0.4138 1.8626 0.3933
0.2462 1.8942 0.3937
0.0762 1.9095 0.3939
-0.0945 1.9085 0.3939
-0.2643 1.8910 0.3936
-0.4314 1.8574 0.3931
-0.5944 1.8080 0.3923
-0.7515 1.7434 0.3913
-0.9013 1.6643 0.3901
-2.3422 3.5307 0.8733
-2.3845 2.9785 0.7865
-2.8681 2.9908 0.8541
-3.4838 3.0369 0.9527
-4.2670 3.0955 1.0866
-7.9048 4.7194 1.8977
-7.9740 3.8407 1.8244
-8.0361 3.0201 1.7696
-8.1177 2.2477 1.7362
-8.2305 1.5040 1.7246
-8.2759 0.7584 1.7130
-8.2550 0.0166 1.7016
-3.8045 -0.3332 0.7872
-3.4327 -0.6130 0.7188
-3.3438 -0.9114 0.7144
-3.2300 -1.1991 0.7102
-3.2347 -1.5420 0.7386
-7.4583 -4.4122 1.7862
-6.9939 -5.0309 1.7758
-6.4820 -5.6048 1.7663
-1.1729 -1.2133 0.3478
-1.0558 -1.3079 0.3465
-0.9315 -1.3921 0.3453
-0.8011 -1.4652 0.3442
-0.6655 -1.5269 0.3433
-0.5254 -1.5770 0.3426
-0.3820 -1.6151 0.3421
-0.2361 -1.6410 0.3417
-0.0886 -1.6547 0.3416
0.0594 -1.6561 0.3416
0.2071 -1.6451 0.3418
0.3535 -1.6218 0.3421
0.4976 -1.5863 0.3427
0.6385 -1.5388 0.3434
0.7754 -1.4795 0.3443
0.9071 -1.4088 0.3454
5.2444 -6.7372 1.7599
5.8541 -6.2738 1.7687
6.4260 -5.7578 1.7785
6.9543 -5.1912 1.7888
7.4312 -4.5753 1.7988
7.8560 -3.9168 1.8094
8.2231 -3.2191 1.8203
8.5200 -2.4848 1.8294
8.7529 -1.7233 1.8388
8.9188 -0.9402 1.8486
9.0154 -0.1412 1.8585
9.0408 0.6677 1.8686
8.9949 1.4801 1.8790
8.8771 2.2899 1.8897
8.6851 3.0901 1.9002
8.4196 3.8736 1.9104
8.0816 4.6333 1.9202
7.6729 5.3620 1.9295
7.1963 6.0528 1.9383
6.6552 6.6989 1.9464
6.0536 7.2938 1.9538
1.0705 1.5535 0.3889
0.9309 1.6486 0.3903
0.7824 1.7303 0.3914
0.6263 1.7976 0.3924
0.4643 1.8498 0.3931
0.2977 1.8863 0.3936
0.1282 1.9066 0.3939
-0.0424 1.9105 0.3939
-0.2127 1.8981 0.3937
-0.3808 1.8694 0.3932
-0.5452 1.8247 0.3926
-0.7042 1.7647 0.3916
-0.8564 1.6899 0.3905
-2.3273 3.7250 0.9054
-2.3725 3.1351 0.8104
-2.7043 2.9786 0.8293
-3.2812 3.0218 0.9195
-4.0054 3.0759 1.0410
-7.8763 4.9989 1.9229
-7.9537 4.1019 1.8446
-8.0178 3.2656 1.7845
-8.0847 2.4780 1.7430
-8.2032 1.7316 1.7282
-8.2692 0.9859 1.7166
-8.2684 0.2423 1.7051
-8.2685 -0.4973 1.7074
-3.4547 -0.5202 0.7201
-3.3736 -0.8213 0.7157
-3.2673 -1.1125 0.7114
-3.2276 -1.4319 0.7278
-7.5886 -4.2141 1.7892
-7.1409 -4.8466 1.7789
-6.6431 -5.4345 1.7691
-6.1006 -5.9754 1.7602
-1.0923 -1.2801 0.3469
-0.9702 -1.3675 0.3456
-0.8416 -1.4441 0.3445
-0.7074 -1.5093 0.3436
-0.5686 -1.5630 0.3428
-0.4261 -1.6047 0.3422
-0.2809 -1.6344 0.3418
-0.1338 -1.6519 0.3416
0.0142 -1.6570 0.3416
0.1621 -1.6498 0.3417
0.3090 -1.6302 0.3420
0.4539 -1.5984 0.3425
0.5959 -1.5546 0.3432
0.7341 -1.4989 0.3440
0.8675 -1.4316 0.3450
5.0513 -6.8679 1.7573
5.6718 -6.4210 1.7659
6.2556 -5.9208 1.7754
6.7985 -5.3699 1.7858
7.2909 -4.7681 1.7957
7.7320 -4.1221 1.8061
8.1182 -3.4364 1.8171
8.4360 -2.7121 1.8265
8.6887 -1.9583 1.8359
8.8754 -1.1812 1.8456
8.9934 -0.3864 1.8555
9.0407 0.4200 1.8655
9.0162 1.2320 1.8757
8.9209 2.0433 1.8865
8.7516 2.8472 1.8970
8.5084 3.6366 1.9073
8.1924 4.4043 1.9172
7.8051 5.1432 1.9267
7.3489 5.8463 1.9357
6.8270 6.5068 1.9440
6.2434 7.1180 1.9516
1.1112 1.5219 0.3884
0.9745 1.6210 0.3899
0.8286 1.7069 0.3911
0.6747 1.7786 0.3921
0.5143 1.8355 0.3929
0.3489 1.8768 0.3935
0.1802 1.9021 0.3938
0.0097 1.9111 0.3939
-0.1608 1.9036 0.3938
-0.3298 1.8798 0.3934
-0.4955 1.8400 0.3928
-0.6563 1.7846 0.3919
-0.8107 1.7143 0.3909
-0.9574 1.6298 0.3896
-2.3597 3.3018 0.8365
-2.5496 2.9670 0.8064
-3.0921 3.0076 0.8891
-3.7647 3.0579 0.9997
-7.7472 5.2188 1.9254
-7.9327 4.3691 1.8667
-7.9989 3.5153 1.8010
-8.0624 2.7139 1.7535
-8.1697 1.9588 1.7317
-8.2562 1.2137 1.7201
-8.2756 0.4688 1.7086
-8.2609 -0.2709 1.7037
-3.4743 -0.4265 0.7215
-3.4011 -0.7303 0.7170
-3.3024 -1.0248 0.7127
-3.2207 -1.3249 0.7178
-3.2441 -1.6874 0.7537
-7.2834 -4.6582 1.7821
-6.8000 -5.2598 1.7720
-6.2707 -5.8154 1.7628
-1.1282 -1.2514 0.3473
-1.0082 -1.3420 0.3460
-0.8815 -1.4219 0.3448
-0.7489 -1.4906 0.3439
-0.6114 -1.5478 0.3430
-0.4700 -1.5932 0.3424
-0.3254 -1.6266 0.3419
-0.1788 -1.6478 0.3417
-0.0310 -1.6567 0.3416
0.1170 -1.6533 0.3416
0.2643 -1.6375 0.3419
0.4099 -1.6094 0.3423
0.5529 -1.5692 0.3430
0.6923 -1.5171 0.3437
0.8273 -1.4533 0.3447
0.9568 -1.3782 0.3458
0.9360 -1.3345 0.3465
5.3612 -6.3521 1.7668
5.9369 -5.8781 1.7758
6.4735 -5.3543 1.7857
6.9624 -4.7805 1.7952
7.4023 -4.1631 1.8052
7.7895 -3.5062 1.8157
8.1143 -2.8118 1.8254
8.3740 -2.0866 1.8344
8.5701 -1.3377 1.8437
8.7001 -0.5704 1.8532
8.7621 0.2095 1.8630
8.7543 0.9959 1.8728
8.6765 1.7827 1.8828
8.5290 2.5639 1.8930
8.3100 3.3325 1.9031
8.0201 4.0816 1.9128
7.6609 4.8043 1.9221
7.2345 5.4940 1.9309
6.7439 6.1437 1.9391
6.1926 6.7473 1.9467
1.1074 1.4471 0.3873
0.9774 1.5459 0.3888
0.8382 1.6321 0.3900
0.6911 1.7050 0.3910
0.5373 1.7636 0.3919
0.3783 1.8073 0.3925
0.2157 1.8356 0.3929
0.0510 1.8483 0.3930
-0.1141 1.8451 0.3929
-0.2781 1.8261 0.3926
-0.4394 1.7915 0.3921
-0.5964 1.7418 0.3913
-0.7476 1.6774 0.3904
-0.8916 1.5992 0.3892
-2.3485 3.4477 0.8867
-2.4279 2.9576 0.8133
-2.9448 2.9963 0.8930
-3.5794 3.0437 0.9987
-4.3917 3.1044 1.1431
-7.8028 4.5295 1.9177
-7.9731 3.7204 1.8702
-8.0344 2.9075 1.8162
-8.0898 2.1334 1.7783
-8.1409 1.3847 1.7552
-8.1885 0.6492 1.7460
-8.2336 -0.0845 1.7502
-3.5150 -0.3514 0.7509
-3.3203 -0.6351 0.7185
-3.2312 -0.9235 0.7143
-3.2151 -1.2387 0.7324
-3.2380 -1.5926 0.7670
-7.1836 -4.3696 1.7872
-6.7275 -4.9656 1.7773
-6.2252 -5.5177 1.7682
-1.1239 -1.1916 0.3482
-1.0093 -1.2823 0.3469
-0.8879 -1.3627 0.3457
-0.7605 -1.4323 0.3447
-0.6281 -1.4909 0.3439
-0.4916 -1.5380 0.3432
-0.3518 -1.5735 0.3427
-0.2098 -1.5971 0.3424
-0.0664 -1.6088 0.3422
0.0775 -1.6085 0.3423
0.2209 -1.5961 0.3425
0.3628 -1.5718 0.3429
0.5025 -1.5356 0.3434
0.6389 -1.4878 0.3442
0.7711 -1.4285 0.3451
0.8983 -1.3582 0.3461
5.1783 -6.4865 1.7642
5.7650 -6.0282 1.7730
6.3141 -5.5194 1.7826
6.8182 -4.9605 1.7922
7.2733 -4.3559 1.8020
7.6771 -3.7107 1.8124
8.0227 -3.0277 1.8227
8.3013 -2.3108 1.8316
8.5171 -1.5685 1.8408
8.6676 -0.8063 1.8503
8.7505 -0.0296 1.8600
8.7641 0.7555 1.8698
8.7073 1.5428 1.8796
8.5817 2.3264 1.8899
8.3844 3.0996 1.9000
8.1160 3.8553 1.9099
7.7778 4.5868 1.9193
7.3717 5.2873 1.9283
6.9003 5.9500 1.9367
6.3671 6.5683 1.9444
1.1451 1.4147 0.3869
1.0182 1.5170 0.3883
0.8816 1.6072 0.3896
0.7367 1.6842 0.3907
0.5848 1.7472 0.3916
0.4273 1.7956 0.3923
0.2656 1.8286 0.3928
0.1014 1.8461 0.3930
-0.0637 1.8478 0.3930
-0.2283 1.8336 0.3927
-0.3905 1.8037 0.3923
-0.5490 1.7586 0.3916
-0.7021 1.6986 0.3907
-0.8485 1.6245 0.3896
-0.9867 1.5371 0.3882
-2.3780 3.0635 0.8243
-2.7765 2.9837 0.8663
-3.3702 3.0281 0.9630
-4.1197 3.0841 1.0939
-7.6863 4.7469 1.9202
-7.9530 3.9788 1.8902
-8.0164 3.1509 1.8308
-8.0734 2.3665 1.7883
-8.1257 1.6114 1.7608
-8.1743 0.8730 1.7474
-8.2201 0.1400 1.7475
-8.2637 -0.5989 1.7611
-3.3425 -0.5453 0.7199
-3.2610 -0.8364 0.7156
-3.2085 -1.1366 0.7235
-3.2307 -1.4810 0.7554
-7.3117 -4.1786 1.7900
-6.8719 -4.7882 1.7803
-6.3832 -5.3540 1.7709
-1.1575 -1.1619 0.3486
-1.0451 -1.2557 0.3472
-0.9256 -1.3392 0.3460
-0.8000 -1.4122 0.3450
-0.6690 -1.4742 0.3441
-0.5336 -1.5248 0.3434
-0.3948 -1.5639 0.3428
-0.2534 -1.5912 0.3425
-0.1103 -1.6065 0.3423
0.0336 -1.6098 0.3423
0.1772 -1.6011 0.3424
0.3197 -1.5805 0.3427
0.4601 -1.5479 0.3432
0.5976 -1.5036 0.3439
0.7312 -1.4478 0.3448
0.8600 -1.3808 0.3458
0.9832 -1.3029 0.3469
5.5897 -6.1736 1.7702
6.1507 -5.6800 1.7796
6.6696 -5.1365 1.7894
7.1397 -4.5450 1.7990
7.5595 -3.9118 1.8092
7.9253 -3.2406 1.8200
8.2228 -2.5326 1.8288
8.4580 -1.7976 1.8380
8.6287 -1.0408 1.8474
8.7324 -0.2679 1.8570
8.7674 0.5152 1.8668
8.7322 1.3025 1.8766
8.6276 2.0879 1.8868
8.4522 2.8650 1.8970
8.2055 3.6268 1.9069
7.8884 4.3665 1.9165
7.5027 5.0771 1.9256
7.0509 5.7520 1.9342
6.5362 6.3846 1.9421
1.1818 1.3812 0.3864
1.0580 1.4870 0.3879
0.9243 1.5810 0.3893
0.7818 1.6621 0.3904
0.6319 1.7295 0.3914
0.4759 1.7824 0.3921
0.3153 1.8202 0.3927
0.1517 1.8424 0.3929
-0.0133 1.8489 0.3930
-0.1782 1.8396 0.3928
-0.3413 1.8145 0.3924
-0.5011 1.7739 0.3918
-0.6560 1.7184 0.3910
-0.8046 1.6486 0.3899
-0.9455 1.5651 0.3887
-2.3655 3.2255 0.8502
-2.6178 2.9718 0.8418
-3.1753 3.0135 0.9305
-3.8700 3.0654 1.0494
-7.5637 4.9613 1.9227
-7.9322 4.2428 1.9121
-7.9978 3.3983 1.8471
-8.0566 2.6023 1.7996
-8.1101 1.8396 1.7677
-8.1598 1.0974 1.7500
-8.2063 0.3639 1.7460
-8.2506 -0.3720 1.7555
-3.3624 -0.4547 0.7212
-3.2885 -0.7485 0.7169
-3.2020 -1.0369 0.7154
-3.2237 -1.3726 0.7448
-3.2475 -1.7401 0.7831
-7.0119 -4.6068 1.7833
-6.5371 -5.1859 1.7736
-6.0181 -5.7201 1.7648
-1.0802 -1.2281 0.3476
-0.9628 -1.3148 0.3464
-0.8389 -1.3911 0.3453
-0.7095 -1.4565 0.3444
-0.5754 -1.5106 0.3436
-0.4375 -1.5532 0.3430
-0.2968 -1.5841 0.3426
-0.1541 -1.6031 0.3423
-0.0104 -1.6101 0.3422
0.1334 -1.6051 0.3423
0.2763 -1.5880 0.3426
0.4175 -1.5591 0.3431
0.5560 -1.5184 0.3437
0.6909 -1.4661 0.3445
0.8213 -1.4024 0.3455
0.9462 -1.3278 0.3466
5.4109 -6.3142 1.7675
5.9835 -5.8360 1.7766
6.5167 -5.3081 1.7865
7.0013 -4.7302 1.7960
7.4369 -4.1093 1.8060
7.8196 -3.4493 1.8166
8.1385 -2.7519 1.8261
8.3929 -2.0245 1.8351
8.5836 -1.2738 1.8445
8.7080 -0.5053 1.8541
8.7641 0.2754 1.8638
8.7505 1.0621 1.8736
8.6669 1.8487 1.8836
8.5134 2.6290 1.8939
8.2883 3.3962 1.9039
7.9926 4.1434 1.9136
7.6276 4.8636 1.9229
7.1957 5.5501 1.9316
6.6998 6.1963 1.9398
6.1437 6.7957 1.9473
1.0969 1.4559 0.3875
0.9661 1.5536 0.3889
0.8262 1.6388 0.3901
0.6784 1.7104 0.3911
0.5241 1.7678 0.3919
0.3648 1.8103 0.3925
0.2019 1.8373 0.3929
0.0372 1.8486 0.3930
-0.1280 1.8441 0.3929
-0.2918 1.8238 0.3926
-0.4528 1.7879 0.3920
-0.6093 1.7369 0.3913
-0.7600 1.6714 0.3903
-0.9033 1.5920 0.3891
-2.3523 3.3981 0.8785
-2.4678 2.9606 0.8192
-2.9929 2.9999 0.9007
-3.6397 3.0482 1.0091
-7.4349 5.1723 1.9251
-7.8337 4.4692 1.9170
-7.9785 3.6502 1.8649
-8.0393 2.8412 1.8124
-8.0942 2.0698 1.7758
-8.1450 1.3226 1.7539
-8.1924 0.5876 1.7458
-8.2373 -0.1464 1.7512
-3.3799 -0.3635 0.7226
-3.3137 -0.6597 0.7182
-3.2226 -0.9472 0.7140
-3.2169 -1.2672 0.7349
-3.2400 -1.6239 0.7703
-7.1474 -4.4214 1.7864
-6.6870 -5.0137 1.7765
-6.1810 -5.5619 1.7674
-1.1146 -1.1996 0.3481
-0.9994 -1.2894 0.3468
-0.8774 -1.3689 0.3456
-0.7496 -1.4377 0.3446
-0.6168 -1.4953 0.3438
-0.4799 -1.5414 0.3432
-0.3400 -1.5759 0.3427
-0.1978 -1.5986 0.3424
-0.0543 -1.6092 0.3422
0.0895 -1.6079 0.3423
0.2328 -1.5945 0.3425
0.3747 -1.5692 0.3429
0.5141 -1.5320 0.3435
0.6502 -1.4833 0.3442
0.7820 -1.4231 0.3451
0.9087 -1.3518 0.3462
5.2289 -6.4500 1.7649
5.8127 -5.9874 1.7737
6.3583 -5.4744 1.7834
6.8583 -4.9114 1.7930
7.3093 -4.3032 1.8029
7.7086 -3.6547 1.8133
8.0485 -2.9686 1.8234
8.3218 -2.2493 1.8323
8.5323 -1.5052 1.8416
8.6772 -0.7415 1.8511
8.7543 0.0361 1.8608
8.7621 0.8216 1.8706
8.6995 1.6088 1.8805
8.5679 2.3918 1.8908
8.3646 3.1638 1.9009
8.0903 3.9178 1.9107
7.7463 4.6470 1.9201
7.3345 5.3445 1.9290
6.8578 6.0037 1.9373
6.3197 6.6180 1.9451
1.1348 1.4237 0.3870
1.0070 1.5251 0.3885
0.8698 1.6142 0.3897
0.7242 1.6900 0.3908
0.5718 1.7519 0.3917
0.4139 1.7989 0.3924
0.2519 1.8307 0.3928
0.0876 1.8469 0.3930
-0.0776 1.8472 0.3930
-0.2420 1.8317 0.3927
-0.4040 1.8005 0.3922
-0.5621 1.7541 0.3915
-0.7147 1.6929 0.3906
-0.8604 1.6176 0.3895
-2.3382 3.5828 0.9094
-2.3812 3.0207 0.8176
-2.8218 2.9871 0.8734
-3.4262 3.0323 0.9725
-4.1922 3.0895 1.1069
-7.7190 4.6874 1.9195
-7.9586 3.9071 1.8845
-8.0215 3.0836 1.8267
-8.0780 2.3021 1.7854
-8.1299 1.5489 1.7591
-8.1782 0.8114 1.7469
-8.2238 0.0783 1.7481
-8.2673 -0.6616 1.7629
-3.3366 -0.5701 0.7195
-3.2530 -0.8605 0.7152
-3.2103 -1.1644 0.7259
-3.2327 -1.5114 0.7585
-7.2770 -4.2315 1.7893
-6.8326 -4.8374 1.7794
-6.3401 -5.3994 1.7701
-1.1483 -1.1701 0.3485
-1.0353 -1.2631 0.3471
-0.9153 -1.3458 0.3459
-0.7891 -1.4179 0.3449
-0.6578 -1.4789 0.3440
-0.5221 -1.5286 0.3433
-0.3830 -1.5666 0.3428
-0.2414 -1.5929 0.3424
-0.0982 -1.6072 0.3423
0.0456 -1.6096 0.3423
0.1892 -1.5999 0.3424
0.3316 -1.5782 0.3428
0.4718 -1.5446 0.3433
0.6090 -1.4994 0.3440
0.7423 -1.4426 0.3448
0.8706 -1.3747 0.3459
5.0438 -6.5809 1.7624
5.6383 -6.1341 1.7710
6.1960 -5.6362 1.7804
6.7109 -5.0885 1.7901
7.1769 -4.4934 1.7998
7.5924 -3.8568 1.8101
7.9529 -3.1824 1.8208
8.2449 -2.4718 1.8296
8.4749 -1.7347 1.8387
8.6400 -0.9764 1.8482
8.7380 -0.2024 1.8578
8.7672 0.5813 1.8676
8.7260 1.3686 1.8775
8.6157 2.1536 1.8877
8.4342 2.9297 1.8978
8.1815 3.6899 1.9077
7.8586 4.4274 1.9172
7.4673 5.1353 1.9263
7.0101 5.8069 1.9349
6.4903 6.4356 1.9428
1.1718 1.3905 0.3865
1.0471 1.4954 0.3880
0.9126 1.5883 0.3894
0.7695 1.6683 0.3905
0.6190 1.7345 0.3915
0.4626 1.7862 0.3922
0.3017 1.8227 0.3927
0.1379 1.8436 0.3930
-0.0272 1.8488 0.3930
-0.1920 1.8381 0.3928
-0.3549 1.8117 0.3924
-0.5143 1.7698 0.3918
-0.6688 1.7131 0.3909
-0.8167 1.6421 0.3898
-0.9569 1.5575 0.3886
-2.3690 3.1799 0.8429
-2.6606 2.9750 0.8483
-3.2276 3.0174 0.9392
-3.9367 3.0704 1.0612
-7.5980 4.9026 1.9220
-7.9380 4.1696 1.9059
-8.0029 3.3298 1.8424
-8.0612 2.5371 1.7963
-8.1145 1.7767 1.7656
-8.1638 1.0356 1.7492
-8.2102 0.3023 1.7463
-8.2542 -0.4343 1.7569
-3.3572 -0.4797 0.7208
-3.2812 -0.7728 0.7165
-3.2038 -1.0641 0.7176
-3.2256 -1.4021 0.7476
-3.2496 -1.7728 0.7868
-6.9738 -4.6571 1.7825
-6.4951 -5.2326 1.7729
-1.1813 -1.1398 0.3489
-1.0706 -1.2358 0.3475
-0.9526 -1.3216 0.3463
-0.8283 -1.3970 0.3452
-0.6984 -1.4615 0.3443
-0.5639 -1.5146 0.3435
-0.4258 -1.5563 0.3430
-0.2848 -1.5861 0.3425
-0.1420 -1.6041 0.3423
0.0017 -1.6101 0.3422
0.1454 -1.6041 0.3424
0.2883 -1.5861 0.3427
0.4293 -1.5561 0.3431
0.5675 -1.5144 0.3438
0.7021 -1.4612 0.3446
0.8320 -1.3966 0.3455
0.9564 -1.3211 0.3467
5.4604 -6.2760 1.7682
6.0299 -5.7935 1.7774
6.5593 -5.2614 1.7873
7.0398 -4.6797 1.7968
7.4711 -4.0553 1.8069
7.8492 -3.3922 1.8175
8.1622 -2.6919 1.8268
8.4114 -1.9623 1.8359
8.5966 -1.2099 1.8453
8.7153 -0.4401 1.8549
8.7657 0.3413 1.8646
8.7461 1.1283 1.8744
8.6568 1.9146 1.8845
8.4972 2.6941 1.8947
8.2662 3.4599 1.9047
7.9646 4.2050 1.9144
7.5939 4.9227 1.9236
7.1565 5.6061 1.9323
6.6554 6.2485 1.9404
6.0944 6.8437 1.9479
1.0863 1.4646 0.3876
0.9547 1.5613 0.3890
0.8140 1.6453 0.3902
0.6656 1.7158 0.3912
0.5109 1.7720 0.3920
0.3512 1.8131 0.3926
0.1881 1.8389 0.3929
0.0233 1.8489 0.3930
-0.1418 1.8430 0.3929
-0.3054 1.8214 0.3926
-0.4661 1.7842 0.3920
-0.6222 1.7320 0.3912
-0.7723 1.6652 0.3902
-0.9150 1.5847 0.3890
-2.3560 3.3495 0.8704
-2.5082 2.9636 0.8253
-3.0419 3.0036 0.9087
-3.7013 3.0528 1.0198
-7.4709 5.1146 1.9245
-7.8642 4.4087 1.9163
-7.9838 3.5804 1.8599
-8.0441 2.7751 1.8087
-8.0987 2.0062 1.7735
-8.1491 1.2605 1.7527
-8.1963 0.5261 1.7458
-8.2410 -0.2083 1.7522
-3.3753 -0.3887 0.7222
-3.3070 -0.6842 0.7178
-3.2138 -0.9709 0.7136
-3.2188 -1.2959 0.7375
-3.2420 -1.6555 0.7738
-7.1106 -4.4728 1.7856
-6.6462 -5.0615 1.7757
-6.1366 -5.6059 1.7667
-1.1052 -1.2075 0.3479
-0.9893 -1.2965 0.3467
-0.8669 -1.3751 0.3455
-0.7386 -1.4430 0.3446
-0.6054 -1.4996 0.3437
-0.4683 -1.5448 0.3431
-0.3281 -1.5783 0.3426
-0.1858 -1.5999 0.3424
-0.0422 -1.6096 0.3422
0.1016 -1.6072 0.3423
0.2448 -1.5928 0.3425
0.3865 -1.5665 0.3430
0.5256 -1.5284 0.3435
0.6614 -1.4786 0.3443
0.7929 -1.4175 0.3452
0.9191 -1.3453 0.3463
5.2793 -6.4132 1.7656
5.8600 -5.9462 1.7745
6.4023 -5.4291 1.7843
6.8981 -4.8620 1.7938
7.3449 -4.2503 1.8038
7.7396 -3.5985 1.8142
8.0738 -2.9092 1.8241
8.3420 -2.1877 1.8331
8.5470 -1.4417 1.8424
8.6863 -0.6766 1.8519
8.7577 0.1019 1.8616
8.7596 0.8878 1.8714
8.6912 1.6748 1.8814
8.5535 2.4572 1.8916
8.3443 3.2279 1.9017
8.0641 3.9801 1.9115
7.7143 4.7069 1.9208
7.2969 5.4015 1.9297
6.8149 6.0571 1.9380
6.2718 6.6674 1.9457
1.1245 1.4327 0.3871
0.9959 1.5330 0.3886
0.8578 1.6211 0.3898
0.7117 1.6958 0.3909
0.5587 1.7564 0.3918
0.4004 1.8022 0.3924
0.2382 1.8327 0.3928
0.0737 1.8475 0.3930
-0.0915 1.8465 0.3930
-0.2557 1.8296 0.3927
-0.4175 1.7972 0.3922
-0.5751 1.7495 0.3914
-0.7272 1.6871 0.3905
-0.8723 1.6107 0.3893
-2.3421 3.5307 0.9006
-2.3845 2.9785 0.8110
-2.8678 2.9905 0.8807
-3.4834 3.0366 0.9823
-4.2664 3.0950 1.1203
-7.7512 4.6277 1.9189
-7.9641 3.8359 1.8790
-8.0264 3.0165 1.8226
-8.0825 2.2380 1.7826
-8.1341 1.4865 1.7576
-8.1822 0.7498 1.7465
-8.2275 0.0166 1.7488
-3.8070 -0.3334 0.8123
-3.3306 -0.5948 0.7191
-3.2449 -0.8844 0.7149
-3.2121 -1.1925 0.7283
-3.2347 -1.5420 0.7617
-7.2418 -4.2841 1.7885
-6.7929 -4.8863 1.7786
-6.2967 -5.4446 1.7694
-1.1391 -1.1783 0.3484
-1.0255 -1.2704 0.3470
-0.9049 -1.3523 0.3459
-0.7783 -1.4234 0.3448
-0.6465 -1.4835 0.3440
-0.5105 -1.5322 0.3433
-0.3712 -1.5693 0.3428
-0.2294 -1.5946 0.3424
-0.0861 -1.6079 0.3423
0.0577 -1.6092 0.3423
0.2012 -1.5985 0.3425
0.3434 -1.5758 0.3428
0.4835 -1.5413 0.3433
0.6204 -1.4950 0.3441
0.7532 -1.4373 0.3449
0.8812 -1.3685 0.3460
5.0950 -6.5453 1.7631
5.6866 -6.0942 1.7717
6.2411 -5.5921 1.7812
6.7519 -5.0402 1.7909
7.2138 -4.4415 1.8007
7.6248 -3.8015 1.8110
7.9798 -3.1238 1.8215
8.2667 -2.4109 1.8303
8.4913 -1.6718 1.8395
8.6509 -0.9119 1.8490
8.7432 -0.1369 1.8586
8.7664 0.6474 1.8684
8.7193 1.4347 1.8783
8.6032 2.2193 1.8885
8.4157 2.9943 1.8987
8.1571 3.7528 1.9085
7.8283 4.4881 1.9180
7.4314 5.1932 1.9271
6.9688 5.8614 1.9356
6.4439 6.4862 1.9434
1.1617 1.3997 0.3866
1.0362 1.5037 0.3881
0.9009 1.5955 0.3895
0.7571 1.6744 0.3906
0.6061 1.7394 0.3915
0.4492 1.7898 0.3922
0.2880 1.8250 0.3927
0.1241 1.8446 0.3930
-0.0411 1.8485 0.3930
-0.2058 1.8364 0.3928
-0.3684 1.8087 0.3924
-0.5275 1.7656 0.3917
-0.6815 1.7077 0.3908
-0.8288 1.6355 0.3897
-0.9683 1.5498 0.3884
-2.3725 3.1351 0.8357
-2.7040 2.9783 0.8550
-3.2808 3.0214 0.9480
-4.0049 3.0755 1.0733
-7.6319 4.8437 1.9213
-7.9438 4.0968 1.8998
-8.0081 3.2616 1.8379
-8.0659 2.4722 1.7932
-8.1187 1.7138 1.7637
-8.1678 0.9738 1.7484
-8.2139 0.2407 1.7467
-8.2578 -0.4967 1.7584
-3.3518 -0.5047 0.7205
-3.2737 -0.7970 0.7162
-3.2056 -1.0915 0.7198
-3.2276 -1.4319 0.7505
-7.3678 -4.0915 1.7913
-6.9354 -4.7071 1.7816
-6.4529 -5.2789 1.7721
-1.1723 -1.1482 0.3488
-1.0609 -1.2434 0.3474
-0.9424 -1.3284 0.3462
-0.8175 -1.4029 0.3451
-0.6873 -1.4664 0.3442
-0.5525 -1.5186 0.3435
-0.4140 -1.5592 0.3429
-0.2729 -1.5881 0.3425
-0.1300 -1.6051 0.3423
0.0138 -1.6101 0.3422
0.1575 -1.6030 0.3424
0.3002 -1.5840 0.3427
0.4410 -1.5531 0.3432
0.5790 -1.5104 0.3438
0.7132 -1.4562 0.3446
0.8427 -1.3907 0.3456
0.9666 -1.3143 0.3468
5.5097 -6.2375 1.7690
6.0759 -5.7507 1.7782
6.6014 -5.2142 1.7881
7.0780 -4.6288 1.7976
7.5050 -4.0011 1.8078
7.8784 -3.3349 1.8185
8.1855 -2.6316 1.8276
8.4295 -1.8999 1.8367
8.6092 -1.1458 1.8461
8.7222 -0.3748 1.8557
8.7667 0.4073 1.8654
8.7412 1.1944 1.8753
8.6461 1.9804 1.8854
8.4805 2.7591 1.8956
8.2435 3.5234 1.9056
7.9360 4.2665 1.9152
7.5597 4.9815 1.9244
7.1168 5.6617 1.9330
6.6105 6.3005 1.9411
6.0447 6.8914 1.9485
1.0756 1.4731 0.3877
0.9432 1.5688 0.3891
0.8018 1.6518 0.3903
0.6529 1.7211 0.3913
0.4976 1.7760 0.3920
0.3376 1.8159 0.3926
0.1743 1.8403 0.3929
0.0094 1.8490 0.3930
-0.1556 1.8418 0.3929
-0.3191 1.8188 0.3925
-0.4794 1.7804 0.3919
-0.6351 1.7269 0.3911
-0.7846 1.6590 0.3901
-0.9266 1.5774 0.3888
-2.3597 3.3018 0.8626
-2.5493 2.9667 0.8314
-3.0918 3.0073 0.9168
-3.7642 3.0576 1.0308
-7.5065 5.0566 1.9238
-7.8942 4.3479 1.9156
-7.9892 3.5110 1.8549
-8.0489 2.7093 1.8052
-8.1030 1.9429 1.7712
-8.1532 1.1985 1.7516
-8.2001 0.4645 1.7458
-8.2446 -0.2704 1.7534
-3.3705 -0.4138 0.7218
-3.3002 -0.7087 0.7175
-3.2049 -0.9945 0.7133
-3.2207 -1.3249 0.7402
-3.2441 -1.6874 0.7773
-7.0734 -4.5239 1.7847
-6.6050 -5.1090 1.7749
-6.0918 -5.6495 1.7660
-1.0957 -1.2154 0.3478
-0.9793 -1.3035 0.3466
-0.8563 -1.3813 0.3454
-0.7276 -1.4482 0.3445
-0.5940 -1.5038 0.3437
-0.4566 -1.5481 0.3431
-0.3162 -1.5806 0.3426
-0.1738 -1.6012 0.3423
-0.0301 -1.6098 0.3422
0.1137 -1.6065 0.3423
0.2568 -1.5911 0.3426
0.3983 -1.5638 0.3430
0.5372 -1.5247 0.3436
0.6726 -1.4739 0.3444
0.8037 -1.4118 0.3453
0.9294 -1.3387 0.3464
0.9098 -1.2973 0.3470
5.2120 -6.1754 1.7697
5.7709 -5.7138 1.7785
6.2910 -5.2033 1.7879
6.7646 -4.6447 1.7971
7.1908 -4.0441 1.8068
7.5658 -3.4054 1.8170
7.8800 -2.7306 1.8264
8.1310 -2.0261 1.8352
8.3202 -1.2986 1.8442
8.4452 -0.5537 1.8535
8.5040 0.2033 1.8629
8.4952 0.9664 1.8725
8.4177 1.7295 1.8820
8.2725 2.4868 1.8918
8.0587 3.2317 1.9015
7.7764 3.9576 1.9109
7.4270 4.6577 1.9199
7.0127 5.3255 1.9285
6.5362 5.9546 1.9364
6.0013 6.5388 1.9437
1.0730 1.4021 0.3867
0.9469 1.4976 0.3880
0.8120 1.5810 0.3892
0.6694 1.6514 0.3902
0.5204 1.7081 0.3910
0.3664 1.7503 0.3916
0.2089 1.7777 0.3920
0.0494 1.7900 0.3922
-0.1105 1.7869 0.3921
-0.2694 1.7685 0.3918
-0.4256 1.7351 0.3913
-0.5776 1.6871 0.3905
-0.7241 1.6248 0.3896
-0.8637 1.5492 0.3884
-2.3485 3.4477 0.9136
-2.4276 2.9573 0.8379
-2.9445 2.9960 0.9200
-3.5790 3.0434 1.0289
-4.3911 3.1040 1.1777
-7.5678 4.3931 1.9164
-7.8960 3.6844 1.9082
-8.0248 2.9040 1.8690
-8.0803 2.1310 1.8301
-8.1315 1.3831 1.8064
-8.1791 0.6484 1.7969
-8.2241 -0.0844 1.8012
-3.5171 -0.3516 0.7741
-3.2242 -0.6167 0.7189
-3.1940 -0.9128 0.7275
-3.2151 -1.2387 0.7546
-3.2379 -1.5926 0.7903
-6.9804 -4.2460 1.7893
-6.5392 -4.8267 1.7800
-6.0519 -5.3641 1.7711
-1.0924 -1.1581 0.3487
-0.9811 -1.2464 0.3474
-0.8631 -1.3247 0.3463
-0.7394 -1.3926 0.3453
-0.6107 -1.4496 0.3445
-0.4780 -1.4955 0.3438
-0.3421 -1.5300 0.3434
-0.2040 -1.5530 0.3430
-0.0646 -1.5644 0.3429
0.0753 -1.5641 0.3429
0.2148 -1.5520 0.3431
0.3528 -1.5283 0.3435
0.4886 -1.4931 0.3441
0.6212 -1.4465 0.3448
0.7497 -1.3888 0.3456
0.8732 -1.3203 0.3467
0.9910 -1.2413 0.3479
5.6041 -5.8600 1.7757
6.1369 -5.3645 1.7851
6.6248 -4.8198 1.7942
7.0659 -4.2317 1.8038
7.4570 -3.6043 1.8139
7.7914 -2.9404 1.8238
8.0608 -2.2438 1.8325
8.2691 -1.5229 1.8414
8.4140 -0.7827 1.8506
8.4932 -0.0287 1.8600
8.5051 0.7331 1.8696
8.4487 1.4969 1.8791
8.3240 2.2565 1.8888
8.1313 3.0060 1.8986
7.8698 3.7383 1.9081
7.5407 4.4470 1.9172
7.1459 5.1254 1.9259
6.6881 5.7670 1.9341
6.1706 6.3655 1.9416
1.1095 1.3707 0.3862
0.9864 1.4697 0.3876
0.8541 1.5569 0.3889
0.7136 1.6314 0.3900
0.5664 1.6923 0.3908
0.4138 1.7390 0.3915
0.2573 1.7710 0.3919
0.0982 1.7879 0.3921
-0.0617 1.7895 0.3921
