ply
format ascii 1.0
element vertex 1958
property float32 x
property float32 y
property float32 z
end_header
23.8054 -3.0302 -8.2906
23.9420 -0.8917 -8.2771
24.0794 1.2571 -8.3302
24.2196 3.4513 -8.4518
5.7385 9.6742 -3.8859
-14.2242 19.6474 -8.3798
-9.4228 0.4744 -3.2595
20.3470 -35.1951 -14.0448
21.1940 -30.0951 -12.7166
21.0154 -24.8016 -11.2308
21.3930 -21.0982 -10.3804
24.7134 -20.3584 -11.0618
30.3863 -20.7745 -12.7166
23.5767 -10.5546 -8.9241
23.4825 -8.0835 -8.5798
23.6261 -5.8354 -8.4075
23.7652 -3.6588 -8.3070
23.9021 -1.5167 -8.2742
24.0390 0.6255 -8.3077
24.1781 2.8026 -8.4089
24.6625 5.1224 -8.7021
19.6585 10.0588 -7.6290
8.4770 9.2781 -4.3418
-13.9054 20.3042 -8.5019
20.6173 -30.9654 -12.8521
20.9351 -26.0586 -11.5481
21.1930 -22.0233 -10.5592
23.3355 -20.2704 -10.6787
29.4526 -21.2870 -12.5546
37.7432 -22.4426 -15.1704
23.4392 -8.7605 -8.6448
23.5847 -6.4839 -8.4502
23.7248 -4.2903 -8.3293
23.8622 -2.1418 -8.2769
23.9988 -0.0031 -8.2910
24.1371 2.1601 -8.3721
24.3386 4.3947 -8.5444
14.9963 8.9116 -6.0266
8.8881 9.2315 -4.4272
20.5113 -32.6239 -13.3133
21.5585 -28.3204 -12.2963
21.1222 -23.1308 -10.8216
22.1845 -20.3121 -10.3915
16.9352 -12.9273 -7.3605
33.1320 -20.8921 -13.5320
23.3952 -9.4482 -8.7167
23.5428 -7.1394 -8.4992
23.6842 -4.9257 -8.3574
23.8222 -2.7677 -8.2853
23.9588 -0.6297 -8.2801
24.0963 1.5227 -8.3413
24.2371 3.7249 -8.4716
-9.3994 0.3701 -3.2498
20.3974 -34.4074 -13.8187
21.4616 -29.7773 -12.6808
21.0478 -24.2955 -11.1052
21.5595 -20.8019 -10.3501
25.3202 -20.3972 -11.2328
31.0929 -20.7618 -12.9165
23.4424 -10.1880 -8.8306
23.5004 -7.8030 -8.5547
23.6433 -5.5658 -8.3915
23.7820 -3.3953 -8.2994
23.9188 -1.2551 -8.2748
24.0559 0.8896 -8.3164
24.1954 3.0734 -8.4261
25.1800 5.5181 -8.9055
8.3403 9.3317 -4.3239
5.8744 9.5689 -3.8791
-13.9606 19.9136 -8.4019
20.7341 -30.4137 -12.7166
20.9693 -25.5237 -11.4121
21.2581 -21.6123 -10.4731
23.9007 -20.3065 -10.8349
29.4823 -20.8210 -12.4694
23.4574 -8.4758 -8.6168
23.6021 -6.2115 -8.4316
23.7418 -4.0255 -8.3193
23.8789 -1.8800 -8.2751
24.0156 0.2598 -8.2973
24.1542 2.4285 -8.3868
24.4031 4.6828 -8.5845
8.7020 9.2385 -4.3846
-10.6934 -19.5547 -7.6998
20.5566 -31.9152 -13.1152
21.5957 -27.7339 -12.1436
21.1523 -22.6604 -10.7093
22.6175 -20.2580 -10.4899
28.6501 -21.3773 -12.3496
34.0450 -20.9505 -13.8103
23.4137 -9.1589 -8.6857
23.5604 -6.8640 -8.4779
23.7013 -4.6592 -8.3449
23.8389 -2.5055 -8.2811
23.9755 -0.3676 -8.2840
24.1134 1.7890 -8.3535
24.2599 4.0008 -8.4944
-14.4916 13.3253 -6.8013
-9.4910 0.2697 -3.2803
20.4461 -33.6444 -13.6014
21.0467 -28.5378 -12.2504
21.0794 -23.8004 -10.9838
21.7822 -20.5611 -10.3483
25.9463 -20.4372 -11.4106
31.9236 -20.8149 -13.1661
23.4206 -9.8751 -8.7811
23.5182 -7.5240 -8.5307
23.6605 -5.2972 -8.3765
23.7989 -3.1323 -8.2928
23.9356 -0.9933 -8.2763
24.0728 1.1542 -8.3261
24.2128 3.3454 -8.4444
5.7367 9.5781 -3.8571
-14.1471 19.7169 -8.3837
-9.4895 0.5182 -3.2833
21.0658 -30.1849 -12.7166
21.0027 -25.0012 -11.2806
21.3361 -21.2219 -10.3965
24.4827 -20.3437 -10.9972
30.2976 -20.9035 -12.7166
23.6807 -10.7223 -8.9807
23.4755 -8.1928 -8.5899
23.6194 -5.9404 -8.4141
23.7587 -3.7612 -8.3103
23.8956 -1.6184 -8.2743
24.0325 0.5232 -8.3046
24.1714 2.6978 -8.4025
24.5630 4.9929 -8.6595
19.6602 9.9544 -7.6131
8.5363 9.2637 -4.3520
-13.9070 20.4929 -8.5561
20.6006 -31.2272 -12.9243
20.9216 -26.2696 -11.6021
21.1817 -22.1997 -10.6005
23.1206 -20.2566 -10.6196
29.3790 -21.4246 -12.5620
36.4574 -21.8883 -14.6908
23.4321 -8.8715 -8.6560
23.5779 -6.5899 -8.4578
23.7183 -4.3933 -8.3335
23.8557 -2.2435 -8.2779
23.9923 -0.1052 -8.2889
24.1304 2.0561 -8.3667
24.3165 4.2840 -8.5301
8.9739 9.2416 -4.4503
20.4934 -32.9050 -13.3924
21.5439 -28.5520 -12.3570
22.1038 -20.6876 -10.2509
26.1948 -20.4531 -11.2529
32.2551 -20.8361 -13.0020
23.4122 -9.7545 -8.5878
23.5251 -7.4162 -8.3519
23.6672 -5.1931 -8.2042
23.8054 -3.0302 -8.1254
23.9420 -0.8917 -8.1123
24.0794 1.2571 -8.1643
24.2196 3.4513 -8.2835
5.7385 9.6742 -3.8086
-9.4226 0.4744 -3.1945
20.3470 -35.1951 -13.7651
21.4204 -30.4166 -12.5965
21.0154 -24.8016 -11.0071
21.5554 -21.2584 -10.2509
24.7134 -20.3584 -10.8415
31.0037 -21.1966 -12.7166
23.5767 -10.5546 -8.7464
23.4825 -8.0835 -8.4090
23.6261 -5.8354 -8.2401
23.7652 -3.6588 -8.1416
23.9021 -1.5168 -8.1094
24.0390 0.6255 -8.1423
24.1781 2.8026 -8.2414
24.6625 5.1224 -8.5288
19.6543 10.0567 -7.4754
-14.0803 20.5595 -8.4374
20.8145 -31.2615 -12.7166
20.9351 -26.0586 -11.3181
21.1930 -22.0233 -10.3489
23.3356 -20.2704 -10.4660
29.4526 -21.2870 -12.3045
35.3770 -21.0356 -13.9361
23.4392 -8.7605 -8.4726
23.5847 -6.4839 -8.2820
23.7248 -4.2903 -8.1634
23.8622 -2.1418 -8.1121
23.9988 -0.0032 -8.1259
24.1371 2.1601 -8.2054
24.3386 4.3947 -8.3742
15.1104 8.9794 -5.9515
8.9007 9.2446 -4.3452
20.5113 -32.6239 -13.0482
21.5585 -28.3204 -12.0514
21.1222 -23.1308 -10.6061
22.3289 -20.4444 -10.2509
16.9330 -12.9256 -7.2129
33.1320 -20.8921 -13.2625
23.3952 -9.4482 -8.5431
23.5428 -7.1394 -8.3300
23.6842 -4.9257 -8.1910
23.8222 -2.7677 -8.1203
23.9588 -0.6297 -8.1151
24.0963 1.5227 -8.1752
24.2371 3.7249 -8.3029
9.3528 9.2191 -4.4467
-9.3991 0.3701 -3.1850
20.3974 -34.4074 -13.5435
21.4616 -29.7773 -12.4283
21.0478 -24.2955 -10.8841
21.7868 -21.0212 -10.2509
25.3202 -20.3972 -11.0091
31.2339 -20.8559 -12.7166
23.4424 -10.1880 -8.6547
23.5004 -7.8030 -8.3843
23.6433 -5.5658 -8.2244
23.7820 -3.3953 -8.1341
23.9188 -1.2551 -8.1100
24.0559 0.8896 -8.1508
24.1954 3.0734 -8.2583
25.1800 5.5181 -8.7281
5.8744 9.5689 -3.8018
-14.2873 20.3796 -8.4272
21.1555 -31.0318 -12.7166
20.9693 -25.5237 -11.1848
21.2581 -21.6123 -10.2645
23.9007 -20.3065 -10.6192
29.4823 -20.8210 -12.2210
23.4574 -8.4758 -8.4451
23.6021 -6.2116 -8.2637
23.7418 -4.0255 -8.1536
23.8789 -1.8800 -8.1103
24.0156 0.2598 -8.1321
24.1542 2.4285 -8.2197
24.4031 4.6828 -8.4135
8.7526 9.2922 -4.3223
-10.6918 -19.5517 -7.5453
20.5566 -31.9152 -12.8540
20.8863 -26.8228 -11.5108
21.1523 -22.6604 -10.4960
22.6175 -20.2580 -10.2809
28.6501 -21.3773 -12.1036
34.0449 -20.9505 -13.5353
23.4137 -9.1589 -8.5128
23.5604 -6.8640 -8.3091
23.7013 -4.6592 -8.1787
23.8389 -2.5055 -8.1162
23.9755 -0.3676 -8.1190
24.1134 1.7890 -8.1871
24.2599 4.0008 -8.3252
9.1403 9.2091 -4.3933
-14.4899 13.3238 -6.6651
-9.4903 0.2696 -3.2147
20.4461 -33.6444 -13.3305
21.0467 -28.5378 -12.0064
21.0794 -23.8004 -10.7650
22.0156 -20.7814 -10.2509
25.9463 -20.4372 -11.1834
31.9236 -20.8149 -12.9039
23.4206 -9.8751 -8.6062
23.5182 -7.5241 -8.3608
23.6605 -5.2972 -8.2097
23.7989 -3.1322 -8.1277
23.9356 -0.9934 -8.1115
24.0728 1.1542 -8.1603
24.2128 3.3454 -8.2762
5.7367 9.5781 -3.7803
-9.4889 0.5181 -3.2177
20.3527 -35.5529 -13.8710
21.4041 -30.6697 -12.6635
21.0027 -25.0012 -11.0559
21.4648 -21.3499 -10.2509
24.4827 -20.3437 -10.7781
30.9133 -21.3283 -12.7166
23.6807 -10.7223 -8.8018
23.4755 -8.1928 -8.4189
23.6194 -5.9404 -8.2465
23.7587 -3.7612 -8.1448
23.8956 -1.6184 -8.1095
24.0325 0.5232 -8.1392
24.1714 2.6978 -8.2352
24.5630 4.9929 -8.4870
19.6579 9.9533 -7.4607
-13.9992 20.6288 -8.4413
20.6814 -31.3497 -12.7166
20.9216 -26.2697 -11.3710
21.1817 -22.1997 -10.3894
23.1206 -20.2566 -10.4081
29.3790 -21.4246 -12.3118
34.9967 -21.0113 -13.8214
23.4321 -8.8715 -8.4836
23.5779 -6.5899 -8.2893
23.7183 -4.3933 -8.1675
23.8557 -2.2435 -8.1131
23.9923 -0.1052 -8.1238
24.1304 2.0561 -8.2001
24.3165 4.2840 -8.3603
15.1590 8.9214 -5.9557
8.9626 9.2300 -4.3562
20.4934 -32.9050 -13.1256
21.5439 -28.5519 -12.1109
22.4613 -21.0222 -10.2059
26.1947 -20.4531 -11.0251
32.2551 -20.8361 -12.7388
23.4122 -9.7545 -8.4140
23.5251 -7.4162 -8.1829
23.6672 -5.1930 -8.0382
23.8054 -3.0302 -7.9610
23.9421 -0.8917 -7.9481
24.0794 1.2572 -7.9991
24.2196 3.4513 -8.1159
9.5257 9.1861 -4.3901
5.7385 9.6742 -3.7315
-9.4223 0.4743 -3.1297
20.3470 -35.1951 -13.4865
21.4204 -30.4166 -12.3416
21.0154 -24.8016 -10.7843
22.0006 -21.6975 -10.2509
24.7134 -20.3584 -10.6221
31.5305 -21.5568 -12.6710
23.5767 -10.5546 -8.5694
23.4825 -8.0835 -8.2388
23.6261 -5.8354 -8.0733
23.7652 -3.6588 -7.9768
23.9021 -1.5168 -7.9453
24.0390 0.6255 -7.9775
24.1781 2.8026 -8.0746
24.6625 5.1224 -8.3562
19.6501 10.0545 -7.3226
-11.4216 13.8422 -5.9535
21.2444 -31.9072 -12.7166
20.9351 -26.0586 -11.0890
21.4258 -22.2652 -10.2509
23.3355 -20.2704 -10.2542
29.4526 -21.2870 -12.0555
35.3770 -21.0356 -13.6541
23.4392 -8.7605 -8.3012
23.5847 -6.4839 -8.1144
23.7249 -4.2903 -7.9982
23.8622 -2.1418 -7.9479
23.9988 -0.0031 -7.9615
24.1371 2.1601 -8.0393
24.3386 4.3947 -8.2047
20.5113 -32.6239 -12.7841
20.8500 -27.3897 -11.4195
21.1222 -23.1308 -10.3915
22.7901 -20.8667 -10.2509
16.9307 -12.9238 -7.0660
33.1321 -20.8921 -12.9941
23.3952 -9.4482 -8.3702
23.5428 -7.1394 -8.1614
23.6842 -4.9257 -8.0252
23.8222 -2.7677 -7.9560
23.9588 -0.6297 -7.9509
24.0963 1.5227 -8.0097
24.2371 3.7250 -8.1349
9.3414 9.2079 -4.3514
-9.3988 0.3700 -3.1204
20.3974 -34.4074 -13.2694
21.4616 -29.7773 -12.1768
21.0478 -24.2955 -10.6638
22.1209 -21.3435 -10.1974
25.3202 -20.3972 -10.7863
31.8790 -21.2867 -12.7166
23.4424 -10.1880 -8.4795
23.5004 -7.8030 -8.2146
23.6433 -5.5658 -8.0579
23.7820 -3.3953 -7.9695
23.9188 -1.2551 -7.9458
24.0559 0.8896 -7.9858
24.1954 3.0735 -8.0912
25.1800 5.5181 -8.5515
5.8744 9.5689 -3.7249
21.3613 -31.3337 -12.5805
20.9693 -25.5237 -10.9585
21.6683 -22.0294 -10.2509
23.9007 -20.3065 -10.4043
29.4823 -20.8210 -11.9737
36.3864 -21.1001 -13.9537
23.4574 -8.4758 -8.2742
23.6021 -6.2115 -8.0965
23.7418 -4.0255 -7.9886
23.8789 -1.8800 -7.9462
24.0156 0.2598 -7.9675
24.1542 2.4285 -8.0534
24.4031 4.6828 -8.2433
-10.6902 -19.5488 -7.3915
20.7570 -32.2264 -12.7166
20.8863 -26.8228 -11.2778
21.1523 -22.6604 -10.2836
23.0172 -20.6159 -10.2509
27.5254 -20.5381 -11.3932
34.0449 -20.9505 -13.2614
23.4137 -9.1589 -8.3405
23.5604 -6.8640 -8.1409
23.7013 -4.6592 -8.0132
23.8389 -2.5055 -7.9520
23.9755 -0.3676 -7.9547
24.1134 1.7891 -8.0214
24.2599 4.0008 -8.1568
15.4829 8.8852 -5.9220
9.1786 9.2477 -4.3224
-14.4883 13.3222 -6.5295
-9.4896 0.2696 -3.1494
20.4461 -33.6444 -13.0607
21.0467 -28.5378 -11.7634
21.0794 -23.8004 -10.5472
22.3422 -21.0897 -10.1924
25.9463 -20.4372 -10.9570
32.1101 -20.9365 -12.7166
23.4206 -9.8751 -8.4320
23.5182 -7.5241 -8.1916
23.6605 -5.2971 -8.0435
23.7989 -3.1322 -7.9632
23.9356 -0.9933 -7.9473
24.0728 1.1542 -7.9952
24.2128 3.3454 -8.1087
9.6074 9.1864 -4.4097
5.7367 9.5781 -3.7038
-9.4882 0.5181 -3.1524
20.3527 -35.5529 -13.5903
21.4041 -30.6697 -12.4072
21.0027 -25.0012 -10.8322
21.9081 -21.7908 -10.2509
24.4827 -20.3437 -10.5600
31.2158 -21.5370 -12.5812
23.6807 -10.7223 -8.6237
23.4755 -8.1928 -8.2485
23.6194 -5.9404 -8.0796
23.7587 -3.7612 -7.9799
23.8956 -1.6183 -7.9454
24.0325 0.5232 -7.9745
24.1714 2.6978 -8.0685
24.5630 4.9929 -8.3153
19.6557 9.9522 -7.3088
-11.3521 13.8778 -5.9480
21.1086 -31.9972 -12.7166
20.9216 -26.2696 -11.1409
21.3310 -22.3561 -10.2509
23.2416 -20.3627 -10.2509
28.2247 -20.5828 -11.5887
34.9967 -21.0113 -13.5417
23.4321 -8.8715 -8.3119
23.5779 -6.5899 -8.1216
23.7183 -4.3933 -8.0022
23.8557 -2.2435 -7.9489
23.9923 -0.1052 -7.9594
24.1304 2.0561 -8.0341
24.3165 4.2840 -8.1911
20.4934 -32.9050 -12.8600
20.8357 -27.6135 -11.4758
22.4613 -21.0222 -9.9959
16.8187 -13.1322 -6.9332
32.8751 -21.2366 -12.7166
23.4122 -9.7545 -8.2409
23.5251 -7.4162 -8.0146
23.6672 -5.1931 -7.8729
23.8417 -3.0349 -7.8091
24.0174 -0.8945 -7.8091
24.0794 1.2572 -7.8345
24.2196 3.4513 -7.9489
9.5657 9.2247 -4.3179
5.7385 9.6742 -3.6547
-9.4220 0.4743 -3.0653
20.3470 -35.1951 -13.2091
21.4204 -30.4166 -12.0877
21.0154 -24.8017 -10.5625
22.0111 -21.7079 -10.0448
24.7134 -20.3584 -10.4036
31.5305 -21.5568 -12.4103
23.5767 -10.5546 -8.3931
23.4825 -8.0835 -8.0693
23.6261 -5.8354 -7.9073
23.7652 -3.6588 -7.8128
23.9858 -1.5221 -7.8091
24.0390 0.6255 -7.8134
24.1781 2.8026 -7.9085
24.6625 5.1224 -8.1843
19.6459 10.0524 -7.1705
10.0138 9.1638 -4.4104
-11.4121 13.8308 -5.8262
21.3173 -32.0167 -12.4978
20.9351 -26.0586 -10.8609
21.8758 -22.7329 -10.2509
23.8178 -20.6893 -10.2509
28.5028 -20.6006 -11.4268
35.3770 -21.0356 -13.3732
23.4392 -8.7605 -8.1304
23.5847 -6.4839 -7.9474
23.7248 -4.2903 -7.8337
23.9378 -2.1486 -7.8091
24.0340 -0.0032 -7.8091
24.1371 2.1601 -7.8739
24.3386 4.3947 -8.0360
20.8316 -33.1332 -12.7166
20.8500 -27.3896 -11.1846
21.2740 -23.2970 -10.2509
22.9434 -21.0070 -10.1076
16.9176 -12.9139 -6.9153
33.1320 -20.8921 -12.7268
23.3952 -9.4482 -8.1981
23.5428 -7.1394 -7.9935
23.6842 -4.9257 -7.8601
23.8222 -2.7677 -7.7924
24.0257 -0.6315 -7.8091
24.0963 1.5227 -7.8450
24.2371 3.7250 -7.9676
-9.3986 0.3700 -3.0561
20.3974 -34.4074 -12.9965
20.7558 -28.7980 -11.5341
21.0478 -24.2955 -10.4444
22.1209 -21.3435 -9.9877
25.3203 -20.3972 -10.5644
32.3618 -21.6091 -12.6437
23.4424 -10.1879 -8.3051
23.5004 -7.8030 -8.0456
23.6433 -5.5658 -7.8922
23.7928 -3.3969 -7.8091
24.0010 -1.2594 -7.8091
24.0559 0.8896 -7.8216
24.1954 3.0735 -7.9247
25.1800 5.5181 -8.3756
9.8088 9.1756 -4.3641
5.8744 9.5689 -3.6483
21.3613 -31.3337 -12.3217
20.9693 -25.5237 -10.7330
21.9398 -22.3054 -10.1658
24.0429 -20.4273 -10.2509
29.4823 -20.8210 -11.7274
36.3864 -21.1001 -13.6667
23.4574 -8.4757 -8.1040
23.6021 -6.2116 -7.9299
23.7418 -4.0255 -7.8243
23.9599 -1.8864 -7.8091
24.0326 0.2600 -7.8091
24.1542 2.4285 -7.8877
24.4031 4.6828 -8.0737
-10.6886 -19.5458 -7.2384
21.1930 -32.9032 -12.7166
20.8863 -26.8228 -11.0458
21.5278 -23.0627 -10.2509
23.4937 -21.0428 -10.2479
27.5254 -20.5381 -11.1588
34.0449 -20.9505 -12.9886
23.4137 -9.1589 -8.1689
23.5604 -6.8640 -7.9735
23.7013 -4.6592 -7.8484
23.9024 -2.5121 -7.8091
24.0312 -0.3685 -7.8091
24.1134 1.7890 -7.8564
24.2599 4.0008 -7.9890
15.6271 8.9680 -5.8543
9.2813 9.3512 -4.2809
-14.4697 13.3051 -6.3869
-9.4889 0.2696 -3.0844
20.4461 -33.6444 -12.7921
20.7982 -28.2008 -11.3854
21.0794 -23.8004 -10.3302
22.3422 -21.0897 -9.9828
25.9463 -20.4372 -10.7317
32.7845 -21.3762 -12.7166
23.4206 -9.8751 -8.2586
23.5182 -7.5241 -8.0231
23.6605 -5.2972 -7.8781
23.8285 -3.1362 -7.8091
24.0134 -0.9966 -7.8091
24.0728 1.1542 -7.8307
24.2128 3.3454 -7.9420
9.6305 9.2085 -4.3294
5.7367 9.5781 -3.6276
-9.4876 0.5181 -3.0873
20.3527 -35.5529 -13.3108
21.4041 -30.6697 -12.1520
21.0027 -25.0012 -10.6094
21.9830 -21.8653 -10.0743
24.4827 -20.3437 -10.3428
31.2158 -21.5370 -12.3224
23.6807 -10.7223 -8.4463
23.4755 -8.1929 -8.0788
23.6194 -5.9404 -7.9134
23.7587 -3.7612 -7.8158
23.9791 -1.6240 -7.8091
24.0325 0.5232 -7.8105
24.1714 2.6978 -7.9025
24.5630 4.9929 -8.1442
19.6534 9.9510 -7.1577
10.1046 9.1682 -4.4332
-11.3442 13.8681 -5.8215
21.2999 -32.2873 -12.5679
20.9216 -26.2696 -10.9117
21.7790 -22.8257 -10.2509
23.7297 -20.7903 -10.2509
28.2247 -20.5828 -11.3503
34.9967 -21.0113 -13.2631
23.4321 -8.8714 -8.1409
23.5779 -6.5900 -7.9545
23.7183 -4.3933 -7.8376
23.9285 -2.2503 -7.8091
24.0338 -0.1054 -7.8091
24.1304 2.0561 -7.8689
24.3165 4.2840 -8.0226
9.2301 9.5054 -4.3050
-14.6611 13.1878 -6.4073
20.6905 -33.2215 -12.7166
20.8357 -27.6135 -11.2398
22.4613 -21.0222 -9.7868
16.8187 -13.1322 -6.7882
33.5694 -21.6851 -12.7136
23.4122 -9.7545 -8.0685
23.5251 -7.4162 -7.8469
23.9771 -5.2611 -7.8091
24.3510 -3.0997 -7.8091
24.5305 -0.9136 -7.8091
24.5141 1.2798 -7.8091
24.3020 3.4631 -7.8091
5.7385 9.6742 -3.5783
-9.4218 0.4743 -3.0011
20.3470 -35.1951 -12.9328
20.7163 -29.4168 -11.4458
21.0154 -24.8016 -10.3415
22.0111 -21.7079 -9.8347
24.8708 -20.4882 -10.2509
31.5305 -21.5568 -12.1507
23.5767 -10.5546 -8.2175
23.4825 -8.0835 -7.9005
23.8314 -5.8861 -7.8091
24.2617 -3.7353 -7.8091
24.4983 -1.5546 -7.8091
24.5392 0.6385 -7.8091
24.3843 2.8265 -7.8091
24.6625 5.1224 -8.0131
19.6418 10.0503 -7.0190
10.0340 9.1823 -4.3269
-11.4121 13.8308 -5.7043
21.3173 -32.0167 -12.2364
20.9351 -26.0586 -10.6337
21.9105 -22.7689 -10.0523
24.2837 -21.0940 -10.2328
28.5028 -20.6006 -11.1878
35.3769 -21.0356 -13.0935
23.4392 -8.7605 -7.9603
23.6694 -6.5071 -7.8091
24.1557 -4.3683 -7.8091
24.4492 -2.1945 -7.8091
24.5475 -0.0032 -7.8091
24.4498 2.1881 -7.8091
24.3386 4.3947 -7.8679
10.5461 9.1560 -4.4430
9.2467 9.6039 -4.2411
-11.3225 14.4771 -5.8468
-10.9245 -19.4680 -7.1017
21.2070 -33.7303 -12.6750
20.8500 -27.3896 -10.9506
21.7286 -23.7948 -10.2509
22.9434 -21.0070 -9.8961
16.9017 -12.9017 -6.7643
33.8129 -21.3215 -12.7166
23.3952 -9.4483 -8.0266
23.5428 -7.1394 -7.8263
24.0333 -4.9983 -7.8091
23.8222 -2.7677 -7.6293
24.5391 -0.6450 -7.8091
24.4987 1.5481 -7.8091
24.2627 3.7289 -7.8091
15.9036 8.8967 -5.7971
-11.2476 15.1833 -6.0111
-9.3983 0.3700 -2.9921
20.3974 -34.4074 -12.7246
20.7558 -28.7980 -11.2928
21.0991 -24.3547 -10.2509
22.1209 -21.3435 -9.7788
25.3202 -20.3972 -10.3434
32.3618 -21.6091 -12.3792
23.4424 -10.1880 -8.1314
23.5004 -7.8030 -7.8773
23.8944 -5.6249 -7.8091
24.3011 -3.4694 -7.8091
24.5138 -1.2863 -7.8091
24.5308 0.9071 -7.8091
24.3519 3.0933 -7.8091
25.1800 5.5181 -8.2004
9.8783 9.2405 -4.3031
5.8744 9.5689 -3.5719
21.3613 -31.3337 -12.0640
20.9693 -25.5237 -10.5085
21.9398 -22.3054 -9.9532
24.5566 -20.8638 -10.2509
29.2367 -20.6475 -11.3864
36.3864 -21.1001 -13.3808
23.4574 -8.4758 -7.9345
23.7392 -6.2476 -7.8091
24.2021 -4.1036 -7.8091
24.4718 -1.9267 -7.8091
24.5461 0.2655 -7.8091
24.4244 2.4556 -7.8091
24.4031 4.6828 -7.9048
10.2987 9.1408 -4.3806
-11.3497 14.1890 -5.7802
-10.6692 -19.5104 -7.0741
21.2541 -32.9981 -12.4865
20.8863 -26.8228 -10.8148
21.8687 -23.4279 -10.1954
23.4937 -21.0428 -10.0335
27.5254 -20.5381 -10.9254
34.0449 -20.9505 -12.7169
23.4137 -9.1589 -7.9980
23.5677 -6.8661 -7.8091
24.0866 -4.7349 -7.8091
24.4131 -2.5658 -7.8091
24.5446 -0.3763 -7.8091
24.4803 1.8163 -7.8091
24.2599 4.0008 -7.8219
9.2813 9.3512 -4.1913
-11.2751 14.8770 -5.9384
-14.4697 13.3051 -6.2533
-9.4882 0.2696 -3.0196
20.7598 -34.1606 -12.7166
20.7982 -28.2008 -11.1473
21.3645 -24.1222 -10.2509
22.3422 -21.0897 -9.7739
25.9464 -20.4372 -10.5072
33.2250 -21.6634 -12.6179
23.4206 -9.8751 -8.0858
23.5182 -7.5241 -7.8552
23.9545 -5.3630 -7.8091
24.3377 -3.2032 -7.8091
24.5264 -1.0179 -7.8091
24.5194 1.1757 -7.8091
24.3165 3.3597 -7.8091
5.7367 9.5781 -3.5517
-9.4870 0.5180 -3.0225
20.3527 -35.5529 -13.0323
20.7006 -29.6617 -11.5068
21.0027 -25.0013 -10.3875
21.9830 -21.8653 -9.8636
24.7835 -20.5937 -10.2509
29.9901 -20.6913 -11.5909
23.6807 -10.7223 -8.2696
23.4755 -8.1929 -7.9098
23.8061 -5.9874 -7.8091
24.2456 -3.8383 -7.8091
24.4914 -1.6587 -7.8091
24.5417 0.5342 -7.8091
24.3961 2.7228 -7.8091
24.5630 4.9929 -7.9739
19.6512 9.9499 -7.0072
10.1014 9.1653 -4.3391
-11.3442 13.8681 -5.6998
21.2999 -32.2873 -12.3050
20.9216 -26.2696 -10.6835
21.8989 -22.9514 -10.0917
24.0597 -21.0795 -10.1760
28.2247 -20.5828 -11.1129
34.9967 -21.0113 -12.9857
23.4321 -8.8715 -7.9706
23.6415 -6.6077 -7.8091
24.1370 -4.4709 -7.8091
24.4397 -2.2984 -7.8091
24.5473 -0.1076 -7.8091
24.4589 2.0841 -7.8091
24.3165 4.2840 -7.8548
9.2301 9.5054 -4.2150
-11.3085 14.5865 -5.8715
-14.6611 13.1878 -6.2733
21.1325 -33.9313 -12.7166
20.8357 -27.6135 -11.0046
22.4613 -21.0222 -9.5785
16.8433 -13.1514 -6.6535
33.5694 -21.6851 -12.4430
23.4122 -9.7545 -7.8968
23.9208 -7.5409 -7.8091
24.4242 -5.3592 -7.7854
24.5679 -3.1273 -7.7110
24.7082 -0.9202 -7.6983
24.8487 1.2973 -7.7473
24.8305 3.5384 -7.8091
16.2315 8.8482 -5.7558
5.7504 9.6942 -3.5094
-11.2243 15.5037 -5.9594
-9.4215 0.4743 -2.9371
20.4420 -35.3594 -12.7166
20.7163 -29.4167 -11.2023
21.2842 -25.1188 -10.2509
22.0111 -21.7079 -9.6254
25.4116 -20.9336 -10.2509
30.2929 -20.7107 -11.4254
23.5767 -10.5546 -8.0427
23.7155 -8.1637 -7.8091
24.3496 -6.0141 -7.8091
24.5261 -3.7760 -7.7262
24.6673 -1.5653 -7.6957
24.8074 0.6455 -7.7265
24.9145 2.8880 -7.8091
24.6625 5.1224 -7.8426
19.6377 10.0482 -6.8682
-11.0975 16.2041 -6.1149
-11.4216 13.8422 -5.5875
20.6173 -30.9654 -11.5827
20.9351 -26.0586 -10.4074
21.9105 -22.7689 -9.8384
24.2837 -21.0940 -10.0150
28.5029 -20.6006 -10.9497
35.3770 -21.0356 -12.8148
23.4940 -8.7809 -7.8091
24.1840 -6.6486 -7.8091
24.4842 -4.4276 -7.7468
24.6264 -2.2104 -7.6983
24.7663 -0.0033 -7.7110
24.9078 2.2291 -7.7861
24.6822 4.4568 -7.8091
10.5252 9.1378 -4.3398
-10.9773 16.9636 -6.2910
-10.9245 -19.4680 -6.9506
21.2070 -33.7303 -12.4052
20.8500 -27.3896 -10.7176
21.8379 -23.9144 -10.0832
22.9434 -21.0070 -9.6855
16.9326 -12.9253 -6.6324
34.4805 -21.7424 -12.6917
23.3952 -9.4483 -7.8558
24.0019 -7.2786 -7.8091
24.4419 -5.0833 -7.7729
23.8222 -2.7677 -7.4670
24.7253 -0.6499 -7.7009
24.8661 1.5713 -7.7576
24.7902 3.8100 -7.8091
-10.8719 17.8046 -6.4953
-11.2791 15.2257 -5.8996
-9.3980 0.3700 -2.9284
20.8278 -35.1335 -12.7166
20.7558 -28.7980 -11.0525
21.5579 -24.8843 -10.2509
22.1209 -21.3435 -9.5707
25.6393 -20.6542 -10.2509
32.3618 -21.6091 -12.1157
23.4424 -10.1880 -7.9583
23.8035 -7.9036 -7.8091
24.3994 -5.7438 -7.8045
24.5437 -3.5041 -7.7192
24.6844 -1.2952 -7.6961
24.8247 0.9180 -7.7345
24.8814 3.1606 -7.8091
25.1800 5.5181 -8.0259
5.8906 9.5952 -3.5055
-11.1482 15.9019 -6.0466
20.6596 -30.3043 -11.4194
20.9693 -25.5237 -10.2849
21.9398 -22.3054 -9.7414
24.8725 -21.1322 -10.1618
29.2367 -20.6475 -11.1441
36.3864 -21.1001 -13.0960
23.5887 -8.5232 -7.8091
24.2554 -6.3835 -7.8091
24.5018 -4.1544 -7.7376
24.6435 -1.9402 -7.6966
24.7835 0.2681 -7.7169
24.9254 2.5060 -7.7997
24.6319 4.7267 -7.8091
10.3440 9.1810 -4.3062
-11.0260 16.6366 -6.2142
-10.6692 -19.5104 -6.9236
21.2541 -32.9981 -12.2208
20.8863 -26.8228 -10.5846
21.8687 -23.4279 -9.9784
23.4937 -21.0428 -9.8200
27.5254 -20.5381 -10.6929
34.7846 -21.4056 -12.7166
23.4137 -9.1589 -7.8278
24.0802 -7.0154 -7.8091
24.4597 -4.8083 -7.7613
24.6026 -2.5857 -7.7023
24.7425 -0.3794 -7.7045
24.8835 1.8462 -7.7688
24.7471 4.0811 -7.8091
10.8297 9.1173 -4.4077
9.2813 9.3512 -4.1021
-10.9115 17.4373 -6.4045
-14.4697 13.3051 -6.1203
-9.4875 0.2696 -2.9552
21.1390 -34.7846 -12.6733
20.7982 -28.2008 -10.9100
21.7939 -24.6071 -10.2344
22.3422 -21.0897 -9.5659
25.9463 -20.4372 -10.2836
33.2250 -21.6634 -12.3494
23.4206 -9.8751 -7.9138
23.8886 -7.6425 -7.8091
24.4172 -5.4666 -7.7906
24.5611 -3.2326 -7.7131
24.7015 -1.0251 -7.6975
24.8420 1.1911 -7.7435
24.8453 3.4327 -7.8091
16.3724 8.8349 -5.7924
5.7852 9.6591 -3.5055
-11.2023 15.6128 -5.9829
-9.4864 0.5180 -2.9580
20.3527 -35.5529 -12.7550
20.7006 -29.6617 -11.2619
21.1772 -25.2090 -10.2509
21.9830 -21.8653 -9.6537
25.3224 -21.0414 -10.2509
29.9901 -20.6913 -11.3443
23.6807 -10.7223 -8.0936
23.6806 -8.2644 -7.8091
24.3238 -6.1176 -7.8091
24.5193 -3.8817 -7.7292
24.6606 -1.6702 -7.6957
24.8007 0.5399 -7.7236
24.9265 2.7820 -7.8091
24.5787 4.9961 -7.8091
19.6490 9.9488 -6.8573
-11.0773 16.3232 -6.1420
-11.3521 13.8778 -5.5825
21.2999 -32.2873 -12.0432
20.9216 -26.2696 -10.4561
21.8989 -22.9514 -9.8769
24.0597 -21.0795 -9.9595
28.2247 -20.5828 -10.8764
35.0168 -21.0234 -12.7166
23.4565 -8.8807 -7.8091
24.1556 -6.7514 -7.8091
24.4773 -4.5339 -7.7507
24.6197 -2.3153 -7.6992
24.7596 -0.1086 -7.7090
24.9010 2.1218 -7.7811
24.7009 4.3517 -7.8091
10.6050 9.1283 -4.3566
9.2301 9.5054 -4.1252
-10.9581 17.0927 -6.3216
-14.6611 13.1878 -6.1398
21.1882 -34.0207 -12.4788
20.8357 -27.6135 -10.7704
21.8837 -20.4816 -9.1301
26.5248 -20.7108 -10.2509
33.5694 -21.6851 -12.1735
23.6648 -9.8598 -7.8091
24.2764 -7.6530 -7.7535
24.4242 -5.3592 -7.6168
24.5679 -3.1273 -7.5440
24.7082 -0.9202 -7.5315
24.8487 1.2973 -7.5794
24.9923 3.5614 -7.6898
11.2946 9.0937 -4.4170
-10.8236 18.1697 -6.4422
-9.4212 0.4743 -2.8734
20.8946 -36.1423 -12.7166
20.7163 -29.4168 -10.9596
21.7283 -25.6429 -10.2381
21.3930 -21.0982 -9.1524
25.7194 -21.1872 -10.1503
30.2929 -20.7107 -11.1779
23.5767 -10.5546 -7.8684
24.2320 -8.3415 -7.8064
24.3815 -6.0220 -7.6500
24.5261 -3.7760 -7.5589
24.6673 -1.5653 -7.5290
24.8074 0.6455 -7.5591
24.9498 2.8921 -7.6508
25.1009 5.2135 -7.8091
19.6336 10.0461 -6.7180
-11.4216 13.8422 -5.4665
20.6173 -30.9654 -11.3318
21.0768 -26.2349 -10.2509
21.9105 -22.7689 -9.6253
24.2837 -21.0940 -9.7981
28.5029 -20.6006 -10.7125
35.8832 -21.3366 -12.7166
24.0142 -8.9754 -7.8091
24.3384 -6.6911 -7.6887
24.4842 -4.4277 -7.5790
24.6264 -2.2104 -7.5316
24.7663 -0.0033 -7.5440
24.9078 2.2291 -7.6174
25.1916 4.5488 -7.7977
-10.9260 -19.4707 -6.8009
21.2070 -33.7303 -12.1365
20.8500 -27.3897 -10.4854
21.8379 -23.9144 -9.8648
22.1845 -20.3121 -9.1622
16.9321 -12.9249 -6.4886
34.4805 -21.7424 -12.4168
23.7713 -9.6001 -7.8091
24.2948 -7.3674 -7.7332
24.4419 -5.0833 -7.6045
23.8222 -2.7677 -7.3052
24.7253 -0.6499 -7.5341
24.8661 1.5713 -7.5895
25.0102 3.8438 -7.7077
11.0520 9.0996 -4.3608
-9.3978 0.3700 -2.8649
21.1175 -35.6222 -12.6142
20.7558 -28.7980 -10.8131
21.7615 -25.1193 -10.1236
21.5595 -20.8019 -9.1257
26.2070 -21.1115 -10.2509
31.0929 -20.7618 -11.3885
23.5122 -10.2183 -7.8091
24.2507 -8.0521 -7.7835
24.3994 -5.7438 -7.6354
24.5437 -3.5041 -7.5520
24.6844 -1.2952 -7.5294
24.8247 0.9180 -7.5670
24.9676 3.1715 -7.6664
25.1800 5.5181 -7.8520
20.6596 -30.3044 -11.1720
21.3627 -26.0026 -10.2509
21.9398 -22.3054 -9.5303
24.8725 -21.1322 -9.9417
29.2367 -20.6475 -10.9027
36.3864 -21.1001 -12.8123
24.1110 -8.7119 -7.8091
24.3565 -6.4101 -7.6718
24.5018 -4.1544 -7.5700
24.6435 -1.9402 -7.5298
24.7835 0.2681 -7.5497
24.9254 2.5060 -7.6307
25.1773 4.8314 -7.8091
-10.6896 -19.5478 -6.7866
20.5566 -31.9152 -11.5637
20.8863 -26.8228 -10.3553
21.8687 -23.4279 -9.7622
23.4937 -21.0428 -9.6072
27.5254 -20.5381 -10.4613
35.4289 -21.8021 -12.6716
23.8750 -9.3393 -7.8091
24.3131 -7.0833 -7.7139
24.4597 -4.8083 -7.5932
24.6026 -2.5857 -7.5354
24.7425 -0.3794 -7.5376
24.8835 1.8462 -7.6006
25.0596 4.1326 -7.7365
10.8474 9.1322 -4.3192
9.2813 9.3512 -4.0133
-14.4895 13.3234 -5.9959
-9.4868 0.2695 -2.8909
21.1390 -34.7846 -12.3988
20.7982 -28.2008 -10.6737
21.7939 -24.6071 -10.0127
21.7822 -20.5611 -9.1241
26.4365 -20.8233 -10.2509
31.9236 -20.8149 -11.6086
23.6227 -9.9603 -7.8091
24.2692 -7.7643 -7.7617
24.4172 -5.4666 -7.6218
24.5611 -3.2326 -7.5460
24.7015 -1.0251 -7.5308
24.8420 1.1911 -7.5758
24.9853 3.4521 -7.6830
16.4398 8.8713 -5.6903
-10.7937 18.2958 -6.4706
-9.4857 0.5180 -2.8937
20.7408 -36.2308 -12.7166
20.7006 -29.6617 -11.0180
21.6461 -25.7671 -10.2509
21.3361 -21.2219 -9.1666
25.4790 -21.1716 -10.0908
29.9901 -20.6913 -11.0985
23.6807 -10.7223 -7.9183
24.2049 -8.4474 -7.8091
24.3745 -6.1303 -7.6559
24.5193 -3.8817 -7.5618
24.6606 -1.6702 -7.5290
24.8007 0.5399 -7.5563
24.9430 2.7839 -7.6450
25.1229 5.1067 -7.8091
19.6468 9.9477 -6.7080
-11.3521 13.8778 -5.4614
20.6006 -31.2272 -11.3955
20.9651 -26.3242 -10.2509
21.8989 -22.9513 -9.6630
24.0597 -21.0795 -9.7437
28.2247 -20.5828 -10.6408
35.7922 -21.4889 -12.7166
23.9758 -9.0773 -7.8091
24.3313 -6.8005 -7.6956
24.4773 -4.5339 -7.5828
24.6197 -2.3154 -7.5325
24.7596 -0.1086 -7.5421
24.9010 2.1218 -7.6125
25.1182 4.4253 -7.7691
10.6799 9.1928 -4.2924
9.2301 9.5054 -4.0359
21.1882 -34.0207 -12.2085
20.8357 -27.6135 -10.5371
21.8837 -20.4816 -8.9287
27.1230 -21.1779 -10.2509
32.2551 -20.8361 -11.4388
24.1985 -10.0821 -7.8091
24.2764 -7.6530 -7.5825
24.4242 -5.3592 -7.4488
24.5679 -3.1273 -7.3776
24.7082 -0.9202 -7.3654
24.8487 1.2973 -7.4123
24.9923 3.5614 -7.5201
11.2997 9.0978 -4.3215
-9.4210 0.4743 -2.8100
21.3659 -36.9575 -12.7166
20.7163 -29.4167 -10.7178
21.7283 -25.6429 -10.0123
21.3930 -21.0982 -8.9506
25.7194 -21.1872 -9.9264
30.2929 -20.7107 -10.9313
23.9267 -10.7113 -7.8091
24.2320 -8.3415 -7.6342
24.3815 -6.0220 -7.4812
24.5261 -3.7760 -7.3922
24.6673 -1.5653 -7.3629
24.8074 0.6455 -7.3924
24.9498 2.8921 -7.4821
25.6671 5.3310 -7.8091
17.1909 8.7962 -5.7524
-11.4216 13.8422 -5.3459
20.6173 -30.9654 -11.0818
21.5521 -26.8266 -10.2509
21.1930 -22.0233 -9.1047
24.1737 -20.9984 -9.5385
28.5029 -20.6006 -10.4762
36.6925 -21.8178 -12.7166
24.1871 -9.0400 -7.6919
24.3384 -6.6911 -7.5191
24.4842 -4.4277 -7.4119
24.6264 -2.2104 -7.3654
24.7663 -0.0033 -7.3776
24.9078 2.2291 -7.4494
25.1916 4.5488 -7.6257
9.2496 9.6069 -3.9726
20.5113 -32.6239 -11.4795
20.8501 -27.3896 -10.2541
21.2905 -23.3150 -9.4054
22.1845 -20.3121 -8.9601
16.9316 -12.9245 -6.3453
34.4805 -21.7424 -12.1429
24.1727 -9.7622 -7.7658
24.2948 -7.3674 -7.5626
24.4419 -5.0833 -7.4368
23.8222 -2.7677 -7.1441
24.7253 -0.6499 -7.3679
24.8661 1.5713 -7.4221
25.0102 3.8438 -7.5377
11.1177 9.1537 -4.2900
-9.3975 0.3700 -2.8016
21.1175 -35.6222 -12.3360
20.7558 -28.7980 -10.5746
21.7615 -25.1193 -9.9002
21.5595 -20.8019 -8.9244
26.3518 -21.2282 -10.0802
31.0929 -20.7618 -11.1373
24.0425 -10.4487 -7.8091
24.2507 -8.0521 -7.6118
24.3994 -5.7438 -7.4670
24.5437 -3.5041 -7.3854
24.6844 -1.2952 -7.3633
24.8247 0.9180 -7.4001
24.9676 3.1715 -7.4973
16.7787 8.8184 -5.6465
11.6204 9.0684 -4.3909
-10.7738 18.7276 -6.4361
20.6596 -30.3043 -10.9256
21.6809 -26.3899 -10.1741
21.2581 -21.6123 -9.0305
24.8725 -21.1322 -9.7224
29.2367 -20.6475 -10.6622
36.9292 -21.4148 -12.7166
24.2060 -8.7462 -7.6670
24.3565 -6.4101 -7.5026
24.5018 -4.1544 -7.4030
24.6435 -1.9402 -7.3638
24.7835 0.2681 -7.3832
24.9254 2.5060 -7.4624
25.7452 4.9403 -7.8091
-10.6892 -19.5471 -6.6366
20.5566 -31.9152 -11.3086
21.1419 -27.1511 -10.2509
21.7934 -23.3471 -9.5140
22.6175 -20.2580 -9.0449
27.5803 -20.5790 -10.2509
35.4289 -21.8021 -12.3921
24.1606 -9.4511 -7.7282
24.3131 -7.0833 -7.5437
24.4597 -4.8083 -7.4257
24.6026 -2.5857 -7.3692
24.7425 -0.3794 -7.3714
24.8835 1.8462 -7.4329
25.0596 4.1326 -7.5658
9.2813 9.3512 -3.9248
-14.4891 13.3230 -5.8635
-9.4861 0.2695 -2.8270
20.5654 -33.8406 -11.7963
20.7982 -28.2008 -10.4383
21.7939 -24.6071 -9.7918
21.7822 -20.5611 -8.9229
27.0042 -21.2705 -10.2400
31.9236 -20.8149 -11.3526
24.1554 -10.1849 -7.8091
24.2692 -7.7643 -7.5905
24.4172 -5.4666 -7.4537
24.5611 -3.2326 -7.3796
24.7015 -1.0251 -7.3646
24.8420 1.1911 -7.4087
24.9853 3.4521 -7.5136
11.3827 9.0852 -4.3384
-9.4851 0.5179 -2.8297
21.2086 -37.0480 -12.7166
20.7006 -29.6617 -10.7749
21.7152 -25.8494 -10.0568
21.3361 -21.2219 -8.9644
25.4790 -21.1716 -9.8683
29.9901 -20.6913 -10.8537
23.8809 -10.8130 -7.8091
24.2248 -8.4544 -7.6431
24.3745 -6.1303 -7.4870
24.5193 -3.8817 -7.3950
24.6606 -1.6702 -7.3630
24.8007 0.5399 -7.3896
24.9430 2.7839 -7.4764
25.6895 5.2219 -7.8091
17.2346 8.7263 -5.7546
-11.3521 13.8778 -5.3411
20.6006 -31.2272 -11.1441
21.4380 -26.9180 -10.2509
21.1817 -22.1997 -9.1404
23.1205 -20.2566 -9.1568
28.2247 -20.5828 -10.4061
36.4574 -21.8883 -12.6673
24.1797 -9.1545 -7.7018
24.3313 -6.8005 -7.5258
24.4773 -4.5339 -7.4156
24.6197 -2.3154 -7.3663
24.7596 -0.1086 -7.3757
24.9010 2.1218 -7.4446
25.1182 4.4253 -7.5977
9.2301 9.5054 -3.9469
20.4934 -32.9050 -11.5477
20.8357 -27.6135 -10.3047
21.8837 -20.4816 -8.7281
27.2632 -21.2873 -10.0723
32.2551 -20.8361 -11.1818
24.2088 -10.0864 -7.6369
24.2764 -7.6530 -7.4121
24.4242 -5.3592 -7.2814
24.5679 -3.1273 -7.2118
24.7082 -0.9202 -7.1999
24.8487 1.2973 -7.2457
24.9923 3.5614 -7.3511
-9.4207 0.4743 -2.7467
20.7163 -29.4168 -10.4770
21.7283 -25.6429 -9.7873
21.3930 -21.0982 -8.7494
25.7194 -21.1872 -9.7033
30.2929 -20.7107 -10.6857
24.4767 -10.9576 -7.8091
24.2320 -8.3415 -7.4626
24.3815 -6.0220 -7.3131
24.5261 -3.7760 -7.2260
24.6673 -1.5653 -7.1974
24.8074 0.6455 -7.2262
24.9498 2.8921 -7.3139
26.2572 5.4536 -7.8091
17.1427 8.7716 -5.6074
11.8665 9.0531 -4.3462
-10.7840 19.2295 -6.4200
-11.4216 13.8422 -5.2258
20.6173 -30.9654 -10.8328
21.6458 -26.9433 -10.0641
21.1930 -22.0233 -8.9001
23.3355 -20.2704 -9.0009
28.5309 -20.6209 -10.2509
37.5360 -22.3194 -12.7166
24.1871 -9.0400 -7.5190
24.3384 -6.6911 -7.3502
24.4842 -4.4277 -7.2453
24.6264 -2.2104 -7.1999
24.7663 -0.0033 -7.2118
24.9078 2.2291 -7.2820
25.1916 4.5488 -7.4543
20.5113 -32.6239 -11.2215
21.3226 -28.0104 -10.2509
21.1222 -23.1308 -9.1213
22.1845 -20.3121 -8.7588
16.9310 -12.9241 -6.2025
33.1320 -20.8921 -11.4058
24.1727 -9.7622 -7.5913
24.2948 -7.3674 -7.3927
24.4419 -5.0833 -7.2697
23.8222 -2.7677 -6.9836
24.7253 -0.6499 -7.2024
24.8661 1.5714 -7.2553
25.0102 3.8438 -7.3683
-9.3972 0.3700 -2.7385
21.1175 -35.6222 -12.0587
20.7558 -28.7980 -10.3369
21.7615 -25.1193 -9.6778
21.5595 -20.8019 -8.7239
26.3517 -21.2282 -9.8536
31.0929 -20.7618 -10.8870
24.5952 -10.6890 -7.8091
24.2507 -8.0521 -7.4408
24.3994 -5.7438 -7.2992
24.5437 -3.5041 -7.2195
24.6844 -1.2952 -7.1979
24.8247 0.9180 -7.2338
24.9676 3.1715 -7.3288
11.6498 9.0913 -4.3031
20.6596 -30.3043 -10.6800
21.6809 -26.3899 -9.9455
21.2581 -21.6123 -8.8276
23.9007 -20.3065 -9.1326
29.2367 -20.6475 -10.4226
24.2060 -8.7463 -7.4947
24.3565 -6.4101 -7.3340
24.5018 -4.1544 -7.2366
24.6435 -1.9402 -7.1983
24.7835 0.2681 -7.2172
24.9254 2.5060 -7.2947
26.3370 5.0539 -7.8091
12.2719 9.0707 -4.4437
-10.5090 19.4253 -6.4313
-10.6889 -19.5464 -6.4873
20.5566 -31.9152 -11.0545
21.5957 -27.7339 -10.2356
21.1523 -22.6604 -9.0266
22.6175 -20.2580 -8.8417
28.2143 -21.0521 -10.2509
34.8649 -21.4551 -11.9208
24.1606 -9.4511 -7.5546
24.3131 -7.0833 -7.3742
24.4597 -4.8083 -7.2588
24.6026 -2.5857 -7.2036
24.7425 -0.3794 -7.2057
24.8835 1.8462 -7.2659
25.0596 4.1326 -7.3958
9.2813 9.3512 -3.8366
-14.4887 13.3227 -5.7316
-9.4855 0.2695 -2.7632
20.4461 -33.6444 -11.4643
20.8944 -28.3312 -10.2509
21.7939 -24.6071 -9.5718
21.7822 -20.5611 -8.7224
27.0042 -21.2705 -10.0099
31.9236 -20.8149 -11.0975
24.2729 -10.2345 -7.6707
24.2692 -7.7643 -7.4199
24.4172 -5.4666 -7.2862
24.5611 -3.2326 -7.2138
24.7015 -1.0251 -7.1991
24.8420 1.1911 -7.2422
24.9853 3.4521 -7.3447
11.4796 9.1625 -4.2770
-9.4845 0.5179 -2.7660
20.7006 -29.6617 -10.5328
21.7152 -25.8494 -9.8308
21.3361 -21.2219 -8.7630
25.4790 -21.1716 -9.6465
29.9901 -20.6913 -10.6098
24.4299 -11.0615 -7.8091
24.2248 -8.4543 -7.4714
24.3745 -6.1303 -7.3188
24.5193 -3.8817 -7.2288
24.6606 -1.6702 -7.1975
24.8007 0.5399 -7.2236
24.9430 2.7839 -7.3084
26.2801 5.3420 -7.8091
17.2231 8.7205 -5.6215
11.9578 9.0427 -4.3656
-10.7030 19.2766 -6.4204
-11.3521 13.8778 -5.2209
20.6006 -31.2272 -10.8937
21.6320 -27.1616 -10.1112
21.1817 -22.1997 -8.9350
23.1205 -20.2566 -8.9511
28.4430 -20.7420 -10.2509
36.4574 -21.8883 -12.3826
24.1797 -9.1545 -7.5287
24.3313 -6.8005 -7.3567
24.4773 -4.5339 -7.2489
24.6197 -2.3154 -7.2008
24.7596 -0.1086 -7.2099
24.9010 2.1218 -7.2773
25.1182 4.4253 -7.4269
9.2301 9.5054 -3.8582
20.4934 -32.9050 -11.2882
21.2034 -28.1007 -10.2509
21.8837 -20.4816 -8.5281
27.2632 -21.2873 -9.8415
32.2551 -20.8361 -10.9256
24.2088 -10.0864 -7.4619
24.2764 -7.6530 -7.2423
24.4242 -5.3592 -7.1146
24.5679 -3.1273 -7.0466
24.7082 -0.9202 -7.0349
24.8487 1.2973 -7.0797
24.9923 3.5614 -7.1827
-9.4205 0.4742 -2.6837
20.3470 -35.1951 -11.5669
20.7687 -29.4911 -10.2629
21.7283 -25.6429 -9.5631
21.3930 -21.0982 -8.5490
24.7133 -20.3584 -9.1102
30.2929 -20.7107 -10.4409
25.0506 -11.2144 -7.8091
24.2320 -8.3415 -7.2917
24.3815 -6.0220 -7.1456
24.5261 -3.7760 -7.0605
24.6673 -1.5653 -7.0326
24.8074 0.6455 -7.0607
24.9498 2.8921 -7.1464
17.1909 8.7962 -5.4943
11.9480 9.1154 -4.2759
-11.4216 13.8422 -5.1061
20.6173 -30.9653 -10.5846
21.6458 -26.9433 -9.8335
21.1930 -22.0233 -8.6963
23.3355 -20.2704 -8.7947
29.1998 -21.1043 -10.2509
24.1871 -9.0400 -7.3468
24.3384 -6.6911 -7.1818
24.4842 -4.4277 -7.0793
24.6264 -2.2104 -7.0350
24.7663 -0.0032 -7.0466
24.9078 2.2291 -7.1152
25.1916 4.5488 -7.2835
12.4836 9.0176 -4.3816
20.5113 -32.6239 -10.9645
21.5585 -28.3204 -10.1269
21.1222 -23.1308 -8.9124
22.1845 -20.3121 -8.5581
16.9305 -12.9237 -6.0602
33.1320 -20.8921 -11.1445
24.1727 -9.7622 -7.4174
24.2948 -7.3674 -7.2233
24.4419 -5.0833 -7.1031
23.8222 -2.7677 -6.8236
24.7253 -0.6499 -7.0374
24.8661 1.5713 -7.0891
25.0102 3.8438 -7.1996
-9.3970 0.3700 -2.6757
20.3974 -34.4074 -11.3807
21.0902 -29.2620 -10.2629
21.0478 -24.2955 -9.1460
21.5595 -20.8019 -8.5240
26.3517 -21.2282 -9.6279
31.0929 -20.7618 -10.6376
25.1719 -10.9396 -7.8091
24.2507 -8.0521 -7.2703
24.3994 -5.7438 -7.1320
24.5437 -3.5041 -7.0541
24.6844 -1.2952 -7.0330
24.8247 0.9180 -7.0681
24.9676 3.1715 -7.1610
20.6596 -30.3043 -10.4354
21.6809 -26.3899 -9.7176
21.2581 -21.6123 -8.6254
23.9007 -20.3065 -8.9234
29.4291 -20.7834 -10.2509
24.2060 -8.7462 -7.3230
24.3565 -6.4101 -7.1660
24.5018 -4.1544 -7.0708
24.6435 -1.9402 -7.0334
24.7835 0.2681 -7.0519
24.4192 2.4551 -6.9829
26.9545 5.1724 -7.8091
12.2256 9.0366 -4.3256
-10.6885 -19.5458 -6.3385
20.5566 -31.9152 -10.8013
21.5957 -27.7340 -10.0011
21.1523 -22.6604 -8.8199
22.6175 -20.2580 -8.6391
28.6501 -21.3773 -10.1708
34.0449 -20.9505 -11.3738
24.1606 -9.4511 -7.3815
24.3131 -7.0833 -7.2053
24.4597 -4.8083 -7.0926
24.6026 -2.5857 -7.0386
24.7425 -0.3794 -7.0407
24.8835 1.8462 -7.0994
25.0596 4.1326 -7.2264
9.2813 9.3512 -3.7487
-14.4884 13.3223 -5.6001
-9.4848 0.2695 -2.6997
20.4461 -33.6444 -11.2017
21.0467 -28.5378 -10.0891
21.0794 -23.8004 -9.0459
21.7822 -20.5611 -8.5226
27.0042 -21.2705 -9.7806
31.9236 -20.8149 -10.8433
24.2729 -10.2345 -7.4950
24.2692 -7.7643 -7.2500
24.4172 -5.4666 -7.1193
24.5611 -3.2326 -7.0485
24.7015 -1.0251 -7.0342
24.8420 1.1911 -7.0763
24.9853 3.4521 -7.1765
-9.4839 0.5179 -2.7024
20.7006 -29.6617 -10.2915
21.7152 -25.8494 -9.6056
21.3361 -21.2219 -8.5622
24.4827 -20.3437 -9.0569
29.9901 -20.6913 -10.3668
25.0027 -11.3209 -7.8091
24.2248 -8.4544 -7.3002
24.3745 -6.1303 -7.1511
24.5193 -3.8817 -7.0632
24.6606 -1.6702 -7.0326
24.8007 0.5399 -7.0581
24.9430 2.7839 -7.1410
26.8963 5.4672 -7.8091
17.2338 8.7259 -5.4961
12.0121 9.0837 -4.2849
-11.3521 13.8778 -5.1014
20.6006 -31.2272 -10.6441
21.6320 -27.1616 -9.8796
21.1817 -22.1997 -8.7303
23.1205 -20.2566 -8.7460
29.1098 -21.2283 -10.2509
34.9967 -21.0113 -11.6142
24.1797 -9.1545 -7.3563
24.3313 -6.8005 -7.1882
24.4773 -4.5339 -7.0829
24.6197 -2.3154 -7.0358
24.7596 -0.1086 -7.0448
24.9010 2.1218 -7.1106
25.1182 4.4253 -7.2568
12.6010 9.0211 -4.4093
9.2301 9.5054 -3.7698
20.4934 -32.9050 -11.0296
21.5439 -28.5520 -10.1769
21.8837 -20.4816 -8.3289
27.2631 -21.2873 -9.6116
32.2551 -20.8361 -10.6704
24.2088 -10.0864 -7.2876
24.2764 -7.6530 -7.0731
24.4242 -5.3592 -6.9484
23.8054 -3.0302 -6.6684
23.9420 -0.8917 -6.6576
24.0794 1.2571 -6.7002
24.9923 3.5614 -7.0149
-9.4202 0.4742 -2.6210
8.4953 -32.4546 -9.3222
20.3470 -35.1951 -11.2967
21.2655 -30.1966 -10.2629
21.0154 -24.8016 -9.0332
21.3930 -21.0982 -8.3493
24.7133 -20.3584 -8.8974
30.4887 -20.8445 -10.2629
24.2320 -8.3415 -7.1213
24.3815 -6.0220 -6.9786
23.7652 -3.6588 -6.6816
23.9021 -1.5167 -6.6552
24.0390 0.6255 -6.6822
24.9498 2.8921 -6.9794
17.1909 8.7962 -5.3660
12.2235 9.3256 -4.2723
-11.4216 13.8422 -4.9868
20.6173 -30.9654 -10.3374
21.6458 -26.9433 -9.6038
21.1930 -22.0233 -8.4931
23.3355 -20.2704 -8.5892
29.4526 -21.2870 -10.0980
35.3769 -21.0356 -11.4370
24.1871 -9.0400 -7.1751
24.3384 -6.6911 -7.0140
23.7248 -4.2903 -6.6995
23.8622 -2.1418 -6.6574
23.9988 -0.0031 -6.6687
24.9078 2.2291 -6.9490
25.1916 4.5488 -7.1134
12.5187 9.0429 -4.2913
9.2557 9.6133 -3.7082
20.5113 -32.6239 -10.7083
21.5585 -28.3204 -9.8903
21.1222 -23.1308 -8.7042
22.1845 -20.3121 -8.3582
16.9300 -12.9233 -5.9184
33.1320 -20.8921 -10.8842
24.1727 -9.7622 -7.2441
24.2948 -7.3674 -7.0546
23.6842 -4.9257 -6.7221
23.8222 -2.7677 -6.6642
23.9588 -0.6297 -6.6599
24.0963 1.5227 -6.7092
25.0102 3.8438 -7.0314
-9.3967 0.3700 -2.6132
8.8362 -32.3088 -9.3076
20.3974 -34.4074 -11.1148
21.4616 -29.7773 -10.1996
21.0478 -24.2955 -8.9323
21.5595 -20.8019 -8.3249
25.3202 -20.3972 -9.0349
31.0929 -20.7618 -10.3891
25.7740 -11.2012 -7.8091
24.1423 -8.0161 -7.0687
24.3994 -5.7438 -6.9654
23.7820 -3.3953 -6.6755
23.9188 -1.2551 -6.6556
24.0559 0.8896 -6.6892
24.9676 3.1715 -6.9937
20.8041 -30.5163 -10.2629
21.6809 -26.3899 -9.4906
21.2581 -21.6123 -8.4238
23.9007 -20.3065 -8.7149
29.4823 -20.8210 -10.0295
24.2060 -8.7462 -7.1519
24.3565 -6.4101 -6.9986
23.7418 -4.0255 -6.6915
23.8789 -1.8800 -6.6559
24.0156 0.2598 -6.6738
24.3213 2.4453 -6.7924
27.5992 5.2961 -7.8091
12.3517 9.1298 -4.2681
-10.6881 -19.5451 -6.1902
20.5566 -31.9152 -10.5489
21.5957 -27.7339 -9.7675
21.1523 -22.6604 -8.6138
22.6175 -20.2580 -8.4373
28.6501 -21.3773 -9.9332
34.0449 -20.9505 -11.1081
24.1606 -9.4511 -7.2091
24.3131 -7.0833 -7.0369
23.7013 -4.6592 -6.7121
23.8389 -2.5055 -6.6608
23.9755 -0.3676 -6.6630
24.1134 1.7890 -6.7190
25.0596 4.1326 -7.0575
12.8609 8.9959 -4.3612
9.2813 9.3512 -3.6611
-14.4880 13.3220 -5.4692
-9.4841 0.2695 -2.6365
9.2374 -32.3785 -9.3563
20.4461 -33.6444 -10.9400
21.0467 -28.5378 -9.8534
21.0794 -23.8004 -8.8346
21.7822 -20.5611 -8.3234
27.0042 -21.2705 -9.5521
31.9236 -20.8149 -10.5899
24.2729 -10.2345 -7.3199
24.2692 -7.7643 -7.0806
24.4172 -5.4666 -6.9530
23.7989 -3.1323 -6.6702
23.9356 -0.9933 -6.6569
24.0728 1.1542 -6.6970
24.9853 3.4521 -7.0088
-9.4833 0.5178 -2.6391
8.3633 -32.5139 -9.3290
20.3527 -35.5529 -11.3836
21.1369 -30.2868 -10.2629
21.0027 -25.0012 -9.0733
21.3361 -21.2219 -8.3622
24.4827 -20.3437 -8.8454
30.3998 -20.9740 -10.2629
24.2248 -8.4544 -7.1297
24.3745 -6.1303 -6.9840
23.7587 -3.7612 -6.6842
23.8956 -1.6184 -6.6553
24.0325 0.5232 -6.6797
24.9430 2.7839 -6.9741
17.2346 8.7263 -5.3680
12.2242 9.2441 -4.2587
-11.3521 13.8778 -4.9822
20.6006 -31.2272 -10.3955
21.6320 -27.1616 -9.6488
21.1817 -22.1997 -8.5263
23.1205 -20.2566 -8.5417
29.3790 -21.4246 -10.1040
34.9967 -21.0113 -11.3429
24.1797 -9.1545 -7.1844
24.3313 -6.8005 -7.0202
23.7183 -4.3933 -6.7029
23.8557 -2.2435 -6.6582
23.9923 -0.1052 -6.6670
24.9010 2.1218 -6.9445
25.1182 4.4253 -7.0873
12.6009 9.0211 -4.3063
9.2301 9.5054 -3.6817
20.4934 -32.9050 -10.7719
21.5439 -28.5520 -9.9391
21.8837 -20.4816 -8.1303
26.1947 -20.4531 -9.0148
32.2551 -20.8361 -10.4160
24.2088 -10.0864 -7.1139
23.5251 -7.4162 -6.6908
23.6672 -5.1931 -6.5725
23.8054 -3.0302 -6.5094
23.9420 -0.8917 -6.4989
24.0794 1.2571 -6.5405
24.2196 3.4513 -6.6360
-9.4200 0.4742 -2.5584
20.3470 -35.1951 -11.0274
21.4204 -30.4166 -10.0912
21.0154 -24.8016 -8.8179
21.3930 -21.0982 -8.1502
24.7134 -20.3584 -8.6852
31.2333 -21.3536 -10.2629
24.2320 -8.3415 -6.9516
23.6261 -5.8354 -6.6012
23.7652 -3.6588 -6.5223
23.9021 -1.5167 -6.4966
24.0390 0.6255 -6.5229
24.1781 2.8026 -6.6023
17.1909 8.7962 -5.2381
12.2235 9.3256 -4.1704
-11.4216 13.8422 -4.8679
10.7911 -32.6444 -9.3262
20.9686 -31.4930 -10.2629
20.9351 -26.0586 -9.0670
21.1930 -22.0233 -8.2906
23.3355 -20.2704 -8.3845
29.4525 -21.2870 -9.8573
35.3769 -21.0356 -11.1644
24.1871 -9.0400 -7.0041
23.5847 -6.4839 -6.6348
23.7248 -4.2903 -6.5398
23.8622 -2.1418 -6.4987
23.9988 -0.0032 -6.5098
24.1371 2.1601 -6.5734
24.3386 4.3947 -6.7087
20.5113 -32.6239 -10.4530
21.5585 -28.3204 -9.6545
21.1222 -23.1308 -8.4967
22.1845 -20.3121 -8.1590
16.9295 -12.9229 -5.7772
33.1320 -20.8921 -10.6247
24.1727 -9.7622 -7.0714
23.5428 -7.1394 -6.6732
23.6842 -4.9257 -6.5619
23.8222 -2.7677 -6.5053
23.9588 -0.6297 -6.5011
24.0963 1.5227 -6.5492
24.2371 3.7249 -6.6516
13.1367 8.9762 -4.3158
-9.3965 0.3700 -2.5508
20.3974 -34.4074 -10.8498
21.4616 -29.7773 -9.9564
21.0478 -24.2955 -8.7193
21.5595 -20.8019 -8.1264
25.3202 -20.3972 -8.8195
31.4652 -21.0104 -10.2629
23.5004 -7.8030 -6.7168
23.6433 -5.5658 -6.5886
23.7820 -3.3953 -6.5164
23.9188 -1.2551 -6.4970
24.0559 0.8896 -6.5297
24.1954 3.0734 -6.6158
21.3121 -31.2616 -10.2629
20.9693 -25.5238 -8.9603
21.2581 -21.6123 -8.2230
23.9007 -20.3065 -8.5071
29.4823 -20.8210 -9.7904
36.3864 -21.1001 -11.4094
24.2060 -8.7463 -6.9814
23.6021 -6.2116 -6.6201
23.7418 -4.0255 -6.5319
23.8789 -1.8800 -6.4973
24.0156 0.2598 -6.5147
24.1542 2.4285 -6.5849
28.2733 5.4255 -7.8091
12.3831 9.1529 -4.1769
-10.6878 -19.5444 -6.0424
20.5566 -31.9152 -10.2975
21.5957 -27.7340 -9.5346
21.1523 -22.6604 -8.4085
22.6175 -20.2580 -8.2362
28.6501 -21.3773 -9.6964
34.0449 -20.9505 -10.8433
24.1606 -9.4511 -7.0372
23.5604 -6.8640 -6.6565
23.7013 -4.6592 -6.5521
23.8389 -2.5055 -6.5020
23.9755 -0.3676 -6.5042
24.1134 1.7890 -6.5588
24.2599 4.0008 -6.6694
12.9017 9.0244 -4.2708
9.2813 9.3512 -3.5738
-14.4876 13.3216 -5.3386
-9.4834 0.2694 -2.5734
20.4461 -33.6444 -10.6792
21.0467 -28.5378 -9.6185
21.0794 -23.8004 -8.6240
21.7822 -20.5611 -8.1250
25.9463 -20.4372 -8.9591
31.9236 -20.8149 -10.3375
24.2729 -10.2345 -7.1454
23.5182 -7.5241 -6.6979
23.6605 -5.2972 -6.5769
23.7989 -3.1322 -6.5112
23.9356 -0.9933 -6.4982
24.0728 1.1542 -6.5373
24.2128 3.3454 -6.6302
-9.4827 0.5178 -2.5760
20.3527 -35.5529 -11.1122
21.4041 -30.6697 -10.1449
21.0027 -25.0012 -8.8571
21.3361 -21.2219 -8.1629
24.4827 -20.3437 -8.6345
31.1422 -21.4862 -10.2629
24.2248 -8.4543 -6.9597
23.6194 -5.9404 -6.6064
23.7587 -3.7612 -6.5249
23.8956 -1.6184 -6.4966
24.0325 0.5232 -6.5204
24.1714 2.6978 -6.5973
17.2346 8.7263 -5.2400
12.2242 9.2441 -4.1572
-11.3521 13.8778 -4.8633
10.6382 -32.6468 -9.3138
20.8345 -31.5819 -10.2629
20.9216 -26.2696 -9.1095
21.1817 -22.1997 -8.3231
23.1205 -20.2566 -8.3381
29.3790 -21.4246 -9.8631
34.9967 -21.0113 -11.0724
24.1797 -9.1545 -7.0131
23.5779 -6.5899 -6.6407
23.7183 -4.3933 -6.5431
23.8557 -2.2435 -6.4995
23.9923 -0.1052 -6.5080
24.1304 2.0561 -6.5692
24.3165 4.2840 -6.6975
9.2301 9.5054 -3.5939
20.4934 -32.9050 -10.5151
21.5439 -28.5520 -9.7022
21.8837 -20.4816 -7.9324
26.1948 -20.4531 -8.7954
32.5737 -21.0419 -10.2629
23.4122 -9.7545 -6.7123
23.5251 -7.4162 -6.5280
23.6672 -5.1931 -6.4125
23.8054 -3.0302 -6.3509
23.9420 -0.8917 -6.3407
24.0794 1.2571 -6.3813
24.2196 3.4513 -6.4745
13.4302 8.9627 -4.2731
-9.4197 0.4742 -2.4961
11.7720 -32.7156 -9.2017
20.3470 -35.1951 -10.7589
21.4204 -30.4166 -9.8456
21.0154 -24.8016 -8.6033
21.3930 -21.0982 -7.9519
24.7134 -20.3584 -8.4739
31.5305 -21.5568 -10.1084
23.4825 -8.0835 -6.5726
23.6261 -5.8354 -6.4406
23.7652 -3.6588 -6.3636
23.9021 -1.5167 -6.3384
24.0390 0.6255 -6.3641
24.1781 2.8026 -6.4416
24.6625 5.1224 -6.6662
17.1909 8.7962 -5.1106
12.2235 9.3256 -4.0689
-15.7468 45.6257 -12.7738
-11.4216 13.8422 -4.7494
21.3173 -32.0167 -10.1796
20.9351 -26.0586 -8.8463
21.1930 -22.0233 -8.0888
23.3355 -20.2704 -8.1804
29.4526 -21.2870 -9.6174
35.3769 -21.0356 -10.8926
23.4392 -8.7605 -6.6223
23.5847 -6.4839 -6.4733
23.7248 -4.2903 -6.3806
23.8622 -2.1418 -6.3405
23.9988 -0.0031 -6.3513
24.1371 2.1601 -6.4134
24.3386 4.3947 -6.5454
20.6406 -32.8295 -10.2629
20.8500 -27.3896 -9.1100
21.1222 -23.1308 -8.2899
22.1844 -20.3121 -7.9604
16.9290 -12.9225 -5.6364
33.1320 -20.8921 -10.3661
23.3952 -9.4482 -6.6774
23.5428 -7.1394 -6.5108
23.6842 -4.9257 -6.4022
23.8222 -2.7677 -6.3470
23.9588 -0.6297 -6.3429
24.0963 1.5227 -6.3898
24.2371 3.7249 -6.4897
13.1944 9.0156 -4.2292
-9.3962 0.3699 -2.4886
20.3974 -34.4074 -10.5858
21.4616 -29.7773 -9.7141
21.0478 -24.2955 -8.5071
21.5595 -20.8019 -7.9286
25.3202 -20.3972 -8.6049
32.2501 -21.5345 -10.2629
23.5004 -7.8030 -6.5533
23.6433 -5.5658 -6.4283
23.7820 -3.3953 -6.3578
23.9188 -1.2551 -6.3388
24.0559 0.8896 -6.3708
24.1954 3.0734 -6.4548
21.3613 -31.3337 -10.0362
20.9693 -25.5237 -8.7422
21.2581 -21.6123 -8.0229
23.9007 -20.3065 -8.3001
29.4823 -20.8210 -9.5521
36.3864 -21.1001 -11.1317
23.4574 -8.4758 -6.6008
23.6021 -6.2116 -6.4590
23.7418 -4.0255 -6.3730
23.8789 -1.8800 -6.3391
24.0156 0.2598 -6.3561
24.1542 2.4285 -6.4247
24.4031 4.6828 -6.5761
12.3831 9.1529 -4.0752
-10.6874 -19.5438 -5.8951
20.9987 -32.6015 -10.2629
20.8863 -26.8228 -8.9970
21.1523 -22.6604 -8.2038
22.6175 -20.2580 -8.0357
27.5254 -20.5381 -9.0890
34.0449 -20.9505 -10.5793
23.4137 -9.1589 -6.6537
23.5604 -6.8640 -6.4945
23.7013 -4.6592 -6.3926
23.8389 -2.5055 -6.3437
23.9755 -0.3676 -6.3459
24.1134 1.7890 -6.3992
24.2599 4.0008 -6.5071
9.3311 9.4013 -3.5055
-14.4872 13.3213 -5.2086
-9.4827 0.2694 -2.5106
20.4461 -33.6444 -10.4193
21.0467 -28.5378 -9.3844
21.0794 -23.8004 -8.4141
21.7822 -20.5611 -7.9273
25.9463 -20.4372 -8.7411
32.4839 -21.1802 -10.2629
24.2729 -10.2345 -6.9715
23.5182 -7.5241 -6.5349
23.6605 -5.2972 -6.4168
23.7989 -3.1323 -6.3527
23.9356 -0.9933 -6.3400
24.0728 1.1542 -6.3782
24.2128 3.3454 -6.4688
-9.4821 0.5178 -2.5132
20.3527 -35.5529 -10.8418
21.4041 -30.6697 -9.8980
21.0027 -25.0012 -8.6415
21.3361 -21.2219 -7.9642
24.4827 -20.3437 -8.4243
31.2158 -21.5370 -10.0368
23.4755 -8.1929 -6.5803
23.6194 -5.9404 -6.4456
23.7587 -3.7612 -6.3661
23.8956 -1.6184 -6.3385
24.0325 0.5232 -6.3617
24.1714 2.6978 -6.4367
24.5630 4.9929 -6.6336
17.2346 8.7263 -5.1125
12.2242 9.2441 -4.0560
-15.5252 45.6115 -12.7512
-11.3521 13.8778 -4.7450
21.2999 -32.2873 -10.2367
20.9216 -26.2696 -8.8877
21.1817 -22.1997 -8.1205
23.1205 -20.2566 -8.1351
29.3790 -21.4246 -9.6230
34.9967 -21.0113 -10.8029
23.4321 -8.8715 -6.6309
23.5779 -6.5900 -6.4790
