ply
format ascii 1.0
element vertex 2054
property float32 x
property float32 y
property float32 z
end_header
-5.8806 -16.0012 1.2625
-4.3572 -16.1922 1.2418
-3.5903 -20.4802 1.5398
-1.7482 -20.7098 1.5391
0.1064 -20.8060 1.5408
1.9672 -20.7682 1.5449
3.8278 -20.5953 1.5513
5.6819 -20.2863 1.5601
7.5226 -19.8400 1.5713
9.3427 -19.2551 1.5849
11.1344 -18.5303 1.6009
12.8897 -17.6641 1.6194
13.6692 -15.5940 1.5357
14.9552 -14.2641 1.5305
16.4087 -13.0649 1.5533
12.6771 -16.1243 1.6460
13.7611 -14.6066 1.6105
14.4781 -12.8494 1.5535
15.7714 -11.6580 1.5739
16.9846 -10.3484 1.5961
18.1066 -8.9234 1.6199
19.1256 -7.3866 1.6453
20.0299 -5.7432 1.6722
20.7229 -3.9836 1.6935
21.2614 -2.1459 1.7149
21.6393 -0.2437 1.7367
21.9575 1.7176 1.7675
19.2695 3.2559 1.5683
21.8393 5.7330 1.8120
23.0204 8.2999 1.9638
22.1882 10.3204 1.9638
21.1791 12.2586 1.9638
20.0011 14.0991 1.9638
18.5975 15.7709 1.9569
17.0439 17.2936 1.9486
15.4266 18.7369 1.9477
13.7102 20.0627 1.9501
11.8679 21.2094 1.9504
9.9214 22.1676 1.9490
7.9079 22.9745 1.9499
5.8291 23.5974 1.9506
3.7018 24.0295 1.9512
1.5434 24.2642 1.9512
-0.6271 24.2994 1.9507
-1.9071 16.4914 1.3323
-4.9684 23.9612 1.9638
-2.8316 9.3597 0.7848
-9.1472 22.6970 1.9638
-11.1355 21.7904 1.9638
-13.0350 20.7102 1.9638
-14.8305 19.4648 1.9638
-16.5078 18.0642 1.9638
-18.0534 16.5196 1.9638
-19.4549 14.8432 1.9638
-20.7016 13.0485 1.9638
-14.5664 7.4558 1.3132
-20.9690 8.4669 1.8148
-21.2940 6.4574 1.7857
-21.4336 4.4589 1.7569
-21.3957 2.4884 1.7286
-21.1888 0.5607 1.7010
-20.8226 -1.3108 1.6744
-20.3072 -3.1147 1.6487
-19.6530 -4.8411 1.6243
-18.9021 -6.4923 1.6039
-17.9840 -8.0349 1.5807
-9.9608 -5.5651 0.9157
-15.8094 -10.7885 1.5360
-14.5981 -12.0030 1.5167
-13.3161 -13.1067 1.4994
-11.9715 -14.0983 1.4843
-10.5732 -14.9784 1.4714
-9.9202 -17.1132 1.5874
-8.3039 -17.8224 1.5779
-5.7861 -16.0152 1.3666
-4.2655 -16.2059 1.3448
-3.2572 -19.2006 1.5629
-1.5309 -19.4084 1.5624
0.2068 -19.4893 1.5641
1.9495 -19.4428 1.5681
3.6908 -19.2678 1.5744
5.4241 -18.9637 1.5829
7.1424 -18.5294 1.5937
8.8386 -17.9641 1.6067
10.5049 -17.2669 1.6220
12.1333 -16.4369 1.6395
13.6661 -15.4186 1.6534
14.0216 -13.2273 1.5469
15.3400 -12.0767 1.5668
16.5815 -10.8070 1.5884
17.7359 -9.4209 1.6117
18.7912 -7.9216 1.6365
19.7359 -6.3138 1.6629
20.5049 -4.5918 1.6863
21.0957 -2.7789 1.7076
21.5294 -0.8972 1.7293
21.7961 1.0400 1.7512
22.1632 3.0556 1.7954
22.0239 5.0715 1.8137
23.2620 7.5967 1.9638
22.4915 9.6415 1.9638
21.5418 11.6095 1.9638
20.4202 13.4849 1.9638
19.1169 15.2377 1.9619
17.5876 16.7927 1.9515
15.9813 18.2511 1.9468
14.3079 19.6293 1.9493
12.5130 20.8495 1.9514
10.5881 21.8515 1.9486
8.6011 22.7208 1.9497
6.5424 23.4060 1.9504
4.4298 23.9045 1.9510
2.2799 24.2067 1.9512
0.1114 24.3098 1.9509
-1.3980 16.4575 1.3255
-2.9117 16.5582 1.3492
-2.5471 9.4456 0.7851
-8.4535 22.9643 1.9638
-10.4684 22.1187 1.9638
-12.3997 21.0966 1.9638
-14.2323 19.9064 1.9638
-15.9513 18.5574 1.9638
-17.5432 17.0604 1.9638
-18.9951 15.4275 1.9638
-20.2956 13.6714 1.9638
-19.7772 10.8937 1.8120
-20.7245 9.1098 1.8168
-21.2046 7.1406 1.7956
-21.4065 5.1364 1.7667
-21.4280 3.1546 1.7382
-21.2775 1.2108 1.7103
-20.9644 -0.6812 1.6833
-20.4986 -2.5093 1.6573
-19.8904 -4.2631 1.6325
-19.1504 -5.9336 1.6089
-18.3168 -7.5246 1.5892
-10.1459 -5.2706 0.9175
-16.2038 -10.3504 1.5430
-15.0185 -11.6022 1.5230
-13.7596 -12.7438 1.5051
-12.4354 -13.7737 1.4892
-11.0546 -14.6917 1.4755
-9.9208 -15.9750 1.5091
-8.8583 -17.5951 1.5809
-7.2166 -18.2222 1.5729
-4.7774 -16.1417 1.3509
-3.8407 -19.1011 1.5636
-2.1197 -19.3519 1.5623
-0.3852 -19.4761 1.5633
1.3565 -19.4730 1.5665
3.0991 -19.3418 1.5720
4.8358 -19.0817 1.5797
6.5600 -18.6918 1.5897
8.2646 -18.1711 1.6020
9.9419 -17.5189 1.6165
11.5842 -16.7342 1.6333
13.1828 -15.8164 1.6524
13.8458 -13.8802 1.5733
14.8996 -12.4816 1.5598
16.1683 -11.2521 1.5808
17.3537 -9.9053 1.6036
18.4440 -8.4441 1.6279
19.4277 -6.8726 1.6538
20.2699 -5.1906 1.6792
20.9119 -3.4039 1.7003
21.4001 -1.5442 1.7219
21.7247 0.3757 1.7437
16.9597 1.8151 1.3688
22.1887 4.4042 1.8154
23.4820 6.8865 1.9638
22.7741 8.9538 1.9638
21.8845 10.9497 1.9638
20.8205 12.8583 1.9638
19.5904 14.6644 1.9638
18.1129 16.2715 1.9540
16.5203 17.7485 1.9459
14.8915 19.1776 1.9485
13.1363 20.4528 1.9508
11.2495 21.5243 1.9490
9.2860 22.4456 1.9494
7.2494 23.1930 1.9501
5.1536 23.7568 1.9509
3.0143 24.1262 1.9512
0.8500 24.2972 1.9511
-0.9218 16.9426 1.3617
-2.3906 16.5236 1.3398
-2.2599 9.5226 0.7854
-7.7519 23.2106 1.9638
-9.7915 22.4265 1.9638
-11.7531 21.4636 1.9638
-13.6209 20.3296 1.9638
-15.3802 19.0335 1.9638
-17.0168 17.5855 1.9638
-18.5177 15.9974 1.9638
-11.4333 8.2174 1.1299
-21.0657 12.4522 1.9638
-20.4217 9.7275 1.8153
-21.0934 7.8244 1.8055
-21.3584 5.8165 1.7765
-21.4404 3.8253 1.7478
-21.3475 1.8669 1.7197
-21.0886 -0.0442 1.6924
-20.6735 -1.8953 1.6660
-20.1126 -3.6754 1.6408
-19.4163 -5.3751 1.6168
-18.6377 -7.0025 1.5978
-17.6609 -8.5034 1.5730
-16.5886 -9.8998 1.5503
-15.4304 -11.1887 1.5296
-14.1956 -12.3679 1.5109
-12.8927 -13.4359 1.4944
-11.5301 -14.3919 1.4799
-10.1158 -15.2359 1.4677
-9.4081 -17.3534 1.5841
-7.7790 -18.0229 1.5753
-5.2945 -16.0769 1.3584
-4.4220 -18.9871 1.5645
-2.7070 -19.2808 1.5625
-0.9764 -19.4481 1.5627
0.7636 -19.4884 1.5652
2.5066 -19.4008 1.5699
4.2461 -19.1847 1.5769
5.9753 -18.8391 1.5861
7.6874 -18.3630 1.5976
9.3749 -17.7556 1.6113
11.0300 -17.0160 1.6274
12.6444 -16.1436 1.6456
13.7555 -14.6544 1.6130
14.4508 -12.8726 1.5531
15.7457 -11.6837 1.5735
16.9605 -10.3764 1.5956
18.0845 -8.9538 1.6194
19.1058 -7.4192 1.6448
20.0126 -5.7779 1.6716
20.7102 -4.0205 1.6930
21.2519 -2.1843 1.7145
21.6332 -0.2833 1.7362
21.9515 1.6766 1.7668
19.2006 3.2081 1.5622
21.8510 5.6932 1.8121
23.0356 8.2577 1.9638
22.2071 10.2798 1.9638
21.2015 12.2198 1.9638
20.0269 14.0624 1.9638
18.6263 15.7366 1.9569
17.0778 17.2646 1.9488
15.4604 18.7081 1.9477
13.7467 20.0370 1.9500
11.9072 21.1885 1.9505
9.9619 22.1491 1.9490
7.9499 22.9598 1.9499
5.8723 23.5865 1.9506
3.7458 24.0226 1.9511
1.5879 24.2614 1.9512
-0.5826 24.3006 1.9507
-1.8762 16.4893 1.3318
-4.9245 23.9702 1.9638
-2.8145 9.3652 0.7848
-9.1057 22.7136 1.9638
-11.0956 21.8108 1.9638
-12.9970 20.7340 1.9638
-14.7948 19.4919 1.9638
-16.4746 18.0944 1.9638
-18.0231 16.5526 1.9638
-19.4278 14.8789 1.9638
-20.6777 13.0864 1.9638
-14.5623 7.4875 1.3141
-20.9604 8.5081 1.8154
-21.2892 6.4986 1.7863
-21.4326 4.4997 1.7575
-21.3982 2.5285 1.7292
-21.1947 0.5998 1.7016
-20.8316 -1.2731 1.6749
-20.3192 -3.0785 1.6493
-19.6677 -4.8065 1.6248
-18.9172 -6.4587 1.6042
-18.0044 -8.0044 1.5812
-9.9584 -5.5398 0.9145
-15.8335 -10.7624 1.5364
-14.6237 -11.9792 1.5171
-13.3430 -13.0852 1.4998
-11.9997 -14.0791 1.4846
-10.6024 -14.9615 1.4716
-9.9529 -17.0974 1.5876
-8.3375 -17.8091 1.5781
-5.8178 -16.0113 1.3671
-4.2962 -16.2020 1.3452
-3.2925 -19.1950 1.5629
-1.5665 -19.4054 1.5624
0.1711 -19.4889 1.5641
1.9138 -19.4450 1.5680
3.6552 -19.2727 1.5742
5.3886 -18.9712 1.5827
7.1074 -18.5397 1.5934
8.8041 -17.9770 1.6064
10.4711 -17.2825 1.6216
12.1003 -16.4553 1.6392
13.6602 -15.4690 1.6562
13.9938 -13.2496 1.5465
15.3137 -12.1015 1.5663
16.5568 -10.8342 1.5879
17.7131 -9.4505 1.6112
18.7707 -7.9535 1.6360
19.7177 -6.3479 1.6623
20.4912 -4.6281 1.6859
21.0852 -2.8169 1.7071
21.5221 -0.9364 1.7288
21.7923 0.9997 1.7507
22.1552 3.0131 1.7943
22.0344 5.0314 1.8138
23.2758 7.5541 1.9638
22.5092 9.6003 1.9638
21.5630 11.5700 1.9638
20.4449 13.4475 1.9638
19.1504 15.2070 1.9625
17.6196 16.7617 1.9516
16.0143 18.2213 1.9468
14.3435 19.6026 1.9493
12.5510 20.8261 1.9514
10.6280 21.8317 1.9486
8.6427 22.7048 1.9496
6.5852 23.3938 1.9503
4.4736 23.8962 1.9510
2.3243 24.2025 1.9512
0.1560 24.3097 1.9509
-1.3674 16.4555 1.3251
-2.8801 16.5561 1.3486
-2.5298 9.4505 0.7851
-8.4114 22.9798 1.9638
-10.4278 22.1378 1.9638
-12.3611 21.1193 1.9638
-14.1958 19.9324 1.9638
-15.9173 18.5866 1.9638
-17.5119 17.0926 1.9638
-18.9668 15.4622 1.9638
-20.2705 13.7086 1.9638
-19.7561 10.9293 1.8119
-20.7077 9.1478 1.8168
-21.1985 7.1818 1.7962
-21.4042 5.1774 1.7673
-21.4293 3.1950 1.7387
-21.2823 1.2502 1.7109
-20.9724 -0.6430 1.6839
-20.5096 -2.4725 1.6578
-19.9043 -4.2279 1.6330
-19.1669 -5.9002 1.6094
-18.3365 -7.4934 1.5897
-10.1835 -5.2665 0.9201
-16.2273 -10.3236 1.5435
-15.0436 -11.5776 1.5234
-13.7861 -12.7215 1.5054
-12.4632 -13.7536 1.4895
-11.0834 -14.6740 1.4758
-9.9142 -15.8993 1.5037
-8.8916 -17.5810 1.5811
-7.2506 -18.2106 1.5730
-4.8085 -16.1378 1.3513
-3.8759 -19.0947 1.5636
-2.1552 -19.3480 1.5623
-0.4209 -19.4748 1.5632
1.3208 -19.4743 1.5664
3.0634 -19.3458 1.5719
4.8003 -19.0884 1.5796
6.5248 -18.7011 1.5895
8.2298 -18.1831 1.6017
9.9079 -17.5336 1.6162
11.5509 -16.7516 1.6329
13.1505 -15.8366 1.6520
13.8404 -13.9259 1.5756
14.8728 -12.5055 1.5594
16.1431 -11.2785 1.5804
17.3303 -9.9341 1.6031
18.4227 -8.4752 1.6274
19.4087 -6.9059 1.6532
20.2551 -5.2264 1.6787
20.9002 -3.4414 1.6999
21.3918 -1.5830 1.7214
21.7197 0.3357 1.7432
22.0426 2.3182 1.7787
22.1980 4.3638 1.8155
23.4946 6.8434 1.9638
22.7904 8.9120 1.9638
21.9046 10.9096 1.9638
20.8440 12.8201 1.9638
19.6173 14.6284 1.9638
18.1427 16.2382 1.9540
16.5523 17.7176 1.9458
14.9262 19.1498 1.9485
13.1735 20.4283 1.9507
11.2895 21.5047 1.9491
9.3271 22.4283 1.9493
7.2918 23.1796 1.9501
5.1971 23.7471 1.9508
3.0585 24.1206 1.9512
0.8946 24.2957 1.9511
-0.8926 16.9788 1.3645
-2.3594 16.5215 1.3393
-2.2425 9.5270 0.7855
-7.7093 23.2247 1.9638
-9.7504 22.4444 1.9638
-11.7137 21.4851 1.9638
-13.5836 20.3545 1.9638
-15.3453 19.0616 1.9638
-16.9845 17.6167 1.9638
-18.4883 16.0313 1.9638
-11.4570 8.2663 1.1338
-21.0429 12.4907 1.9638
-20.4027 9.7643 1.8152
-21.0860 7.8657 1.8061
-21.3548 5.8576 1.7771
-21.4405 3.8658 1.7484
-21.3511 1.9067 1.7203
-21.0955 -0.0056 1.6929
-20.6836 -1.8581 1.6666
-20.1256 -3.6396 1.6413
-19.4319 -5.3412 1.6173
-18.6567 -6.9706 1.5983
-17.6820 -8.4736 1.5735
-16.6115 -9.8722 1.5507
-15.4550 -11.1633 1.5300
-14.2217 -12.3448 1.5113
-12.9201 -13.4151 1.4947
-11.5586 -14.3734 1.4802
-10.1453 -15.2197 1.4679
-9.4411 -17.3384 1.5843
-7.8128 -18.0104 1.5755
-5.3259 -16.0729 1.3588
-4.4569 -18.9797 1.5646
-2.7424 -19.2760 1.5625
-1.0120 -19.4459 1.5627
0.7279 -19.4888 1.5651
2.4708 -19.4039 1.5698
4.2104 -19.1904 1.5767
5.9400 -18.8475 1.5859
7.6525 -18.3741 1.5973
9.3405 -17.7694 1.6110
10.9964 -17.0325 1.6270
12.6118 -16.1628 1.6452
13.7499 -14.7023 1.6155
14.4234 -12.8957 1.5527
15.7199 -11.7092 1.5730
16.9365 -10.4044 1.5952
18.0625 -8.9841 1.6189
19.0859 -7.4518 1.6443
19.9952 -5.8126 1.6711
20.6975 -4.0574 1.6926
21.2424 -2.2227 1.7140
21.6271 -0.3229 1.7358
21.9455 1.6357 1.7660
19.1371 3.1615 1.5566
21.8626 5.6534 1.8122
23.0507 8.2155 1.9638
22.2259 10.2390 1.9638
21.2239 12.1809 1.9638
20.0527 14.0257 1.9638
18.6550 15.7026 1.9568
17.1132 17.2370 1.9493
15.4943 18.6792 1.9476
13.7831 20.0114 1.9500
11.9464 21.1674 1.9506
10.0023 22.1306 1.9490
7.9919 22.9450 1.9499
5.9155 23.5755 1.9506
3.7898 24.0157 1.9511
1.6323 24.2585 1.9512
-0.5380 24.3018 1.9507
-1.8454 16.4873 1.3314
-4.8805 23.9792 1.9638
-2.7975 9.3706 0.7848
-9.0640 22.7303 1.9638
-11.0556 21.8311 1.9638
-12.9590 20.7578 1.9638
-14.7590 19.5190 1.9638
-16.4414 18.1246 1.9638
-17.9927 16.5856 1.9638
-19.4006 14.9145 1.9638
-20.6537 13.1243 1.9638
-14.5589 7.5194 1.3150
-20.9517 8.5493 1.8160
-21.2843 6.5397 1.7869
-21.4315 4.5405 1.7581
-21.4006 2.5685 1.7298
-21.2005 0.6388 1.7021
-20.8406 -1.2353 1.6754
-20.3311 -3.0421 1.6498
-19.6824 -4.7719 1.6253
-18.9322 -6.4251 1.6045
-18.0248 -7.9739 1.5817
-9.9560 -5.5146 0.9134
-15.8575 -10.7363 1.5368
-14.6493 -11.9553 1.5174
-13.3700 -13.0636 1.5001
-12.0278 -14.0599 1.4849
-10.6315 -14.9446 1.4718
-9.9856 -17.0815 1.5879
-8.3711 -17.7958 1.5782
-5.8496 -16.0073 1.3677
-4.3270 -16.1982 1.3455
-3.3277 -19.1894 1.5630
-1.6021 -19.4023 1.5624
0.1354 -19.4885 1.5640
1.8780 -19.4472 1.5679
3.6195 -19.2776 1.5741
5.3532 -18.9787 1.5825
7.0723 -18.5498 1.5932
8.7695 -17.9899 1.6061
10.4372 -17.2981 1.6213
12.0674 -16.4736 1.6388
13.6511 -15.5159 1.6585
13.9658 -13.2717 1.5461
15.2873 -12.1263 1.5659
16.5322 -10.8613 1.5874
17.6903 -9.4800 1.6107
18.7500 -7.9853 1.6355
19.6994 -6.3819 1.6618
20.4774 -4.6645 1.6854
21.0745 -2.8548 1.7067
21.5148 -0.9756 1.7284
21.7885 0.9596 1.7503
22.1473 2.9707 1.7933
22.0448 4.9913 1.8139
23.2897 7.5114 1.9638
22.5267 9.5591 1.9638
21.5842 11.5305 1.9638
20.4695 13.4099 1.9638
19.1876 15.1792 1.9634
17.6536 16.7326 1.9520
16.0472 18.1914 1.9467
14.3791 19.5757 1.9492
12.5888 20.8027 1.9513
10.6679 21.8119 1.9486
8.6842 22.6887 1.9496
6.6280 23.3814 1.9503
4.5173 23.8879 1.9510
2.3686 24.1982 1.9512
0.2006 24.3095 1.9509
-1.3369 16.4535 1.3248
-2.8485 16.5540 1.3480
-2.5126 9.4553 0.7851
-8.3692 22.9952 1.9638
-10.3873 22.1569 1.9638
-12.3224 21.1419 1.9638
-14.1592 19.9584 1.9638
-15.8832 18.6158 1.9638
-17.4806 17.1246 1.9638
-18.9386 15.4970 1.9638
-20.2454 13.7458 1.9638
-19.7350 10.9649 1.8118
-20.6909 9.1857 1.8168
-21.1923 7.2231 1.7968
-21.4018 5.2184 1.7678
-21.4305 3.2353 1.7393
-21.2870 1.2896 1.7114
-20.9804 -0.6048 1.6844
-20.5206 -2.4357 1.6584
-19.9180 -4.1927 1.6335
-19.1833 -5.8668 1.6099
-18.3561 -7.4622 1.5902
-10.2214 -5.2623 0.9226
-16.2507 -10.2967 1.5439
-15.0687 -11.5530 1.5238
-13.8126 -12.6991 1.5058
-12.4910 -13.7336 1.4898
-11.1122 -14.6563 1.4760
-9.9076 -15.8241 1.4983
-8.9249 -17.5667 1.5813
-7.2846 -18.1989 1.5731
-4.8395 -16.1339 1.3518
-3.9110 -19.0881 1.5637
-2.1907 -19.3441 1.5623
-0.4566 -19.4735 1.5632
1.2850 -19.4756 1.5663
3.0276 -19.3497 1.5717
4.7647 -19.0949 1.5794
6.4896 -18.7104 1.5893
8.1951 -18.1951 1.6015
9.8737 -17.5483 1.6159
11.5175 -16.7690 1.6326
13.1182 -15.8567 1.6515
13.8351 -13.9716 1.5779
14.8459 -12.5295 1.5590
16.1179 -11.3048 1.5799
17.3069 -9.9628 1.6026
18.4013 -8.5062 1.6269
19.3896 -6.9392 1.6527
20.2404 -5.2621 1.6783
20.8885 -3.4788 1.6994
21.3833 -1.6219 1.7210
21.7147 0.2958 1.7428
22.0371 2.2768 1.7779
22.2073 4.3233 1.8156
23.5071 6.8003 1.9638
22.8067 8.8703 1.9638
21.9245 10.8694 1.9638
20.8675 12.7819 1.9638
19.6441 14.5924 1.9638
18.1723 16.2049 1.9540
16.5842 17.6867 1.9458
14.9609 19.1219 1.9484
13.2106 20.4037 1.9507
11.3295 21.4852 1.9492
9.3681 22.4109 1.9493
7.3343 23.1661 1.9501
5.2406 23.7374 1.9508
3.1027 24.1149 1.9512
0.9391 24.2941 1.9511
-0.8641 17.0322 1.3686
-2.3282 16.5194 1.3388
-2.2251 9.5313 0.7855
-7.6667 23.2388 1.9638
-9.7092 22.4623 1.9638
-11.6743 21.5066 1.9638
-13.5463 20.3794 1.9638
-15.3103 19.0897 1.9638
-16.9522 17.6479 1.9638
-18.4589 16.0652 1.9638
-19.8184 14.3545 1.9638
-21.0199 12.5293 1.9638
-20.3836 9.8011 1.8151
-21.0786 7.9069 1.8067
-21.3512 5.8987 1.7777
-21.4406 3.9065 1.7490
-21.3546 1.9464 1.7208
-21.1024 0.0331 1.6935
-20.6935 -1.8207 1.6671
-20.1384 -3.6039 1.6418
-19.4474 -5.3071 1.6178
-18.6756 -6.9387 1.5988
-17.7029 -8.4438 1.5740
-16.6344 -9.8446 1.5512
-15.4795 -11.1379 1.5304
-14.2477 -12.3217 1.5117
-12.9474 -13.3943 1.4950
-11.5871 -14.3549 1.4805
-10.1748 -15.2035 1.4681
-9.4741 -17.3233 1.5845
-7.8467 -17.9979 1.5757
-5.3573 -16.0690 1.3593
-4.4919 -18.9723 1.5646
-2.7778 -19.2712 1.5625
-1.0477 -19.4437 1.5626
0.6921 -19.4892 1.5650
2.4351 -19.4069 1.5696
4.1748 -19.1961 1.5765
5.9047 -18.8558 1.5857
7.6176 -18.3851 1.5971
9.3062 -17.7831 1.6107
10.9628 -17.0490 1.6266
12.5791 -16.1820 1.6448
13.7443 -14.7504 1.6180
14.3961 -12.9188 1.5523
15.6940 -11.7348 1.5726
16.9124 -10.4324 1.5947
18.0403 -9.0144 1.6184
19.0661 -7.4843 1.6437
19.9777 -5.8474 1.6705
20.6847 -4.0943 1.6922
21.2328 -2.2610 1.7136
21.6209 -0.3625 1.7353
21.9395 1.5949 1.7653
19.1125 3.1214 1.5541
21.8741 5.6137 1.8123
23.0657 8.1732 1.9638
22.2446 10.1983 1.9638
21.2462 12.1420 1.9638
20.0783 13.9889 1.9638
18.6881 15.6720 1.9573
17.1450 17.2059 1.9493
15.5281 18.6503 1.9476
13.8194 19.9856 1.9500
11.9856 21.1462 1.9506
10.0428 22.1119 1.9490
8.0339 22.9302 1.9499
5.9586 23.5644 1.9506
3.8337 24.0086 1.9511
1.6768 24.2555 1.9512
-0.4935 24.3030 1.9508
-1.8145 16.4852 1.3310
-4.8366 23.9881 1.9638
-2.7804 9.3759 0.7848
-9.0223 22.7469 1.9638
-11.0156 21.8513 1.9638
-12.9209 20.7815 1.9638
-14.7232 19.5460 1.9638
-16.4082 18.1547 1.9638
-17.9623 16.6186 1.9638
-19.3731 14.9500 1.9638
-20.6296 13.1622 1.9638
-14.5555 7.5516 1.3160
-20.9428 8.5905 1.8166
-21.2794 6.5809 1.7875
-21.4302 4.5813 1.7587
-21.4030 2.6086 1.7303
-21.2062 0.6779 1.7027
-20.8496 -1.1974 1.6760
-20.3430 -3.0058 1.6503
-19.6970 -4.7373 1.6258
-18.9471 -6.3915 1.6047
-18.0451 -7.9434 1.5822
-9.9536 -5.4895 0.9122
-15.8814 -10.7102 1.5372
-14.6748 -11.9314 1.5178
-13.3969 -13.0420 1.5004
-12.0560 -14.0405 1.4852
-10.6607 -14.9275 1.4721
-10.0152 -17.0602 1.5876
-8.4046 -17.7824 1.5784
-5.8814 -16.0033 1.3683
-4.3577 -16.1943 1.3458
-3.3630 -19.1837 1.5630
-1.6376 -19.3992 1.5623
0.0996 -19.4880 1.5640
1.8422 -19.4493 1.5678
3.5838 -19.2823 1.5739
5.3177 -18.9862 1.5823
7.0372 -18.5599 1.5929
8.7350 -18.0027 1.6058
10.4034 -17.3136 1.6210
12.0343 -16.4919 1.6384
13.6192 -15.5369 1.6581
13.9375 -13.2935 1.5457
15.2609 -12.1510 1.5655
11.8839 -15.1155 1.6623
13.3394 -14.1590 1.6818
13.9936 -12.4194 1.6176
14.7344 -10.8914 1.5841
15.8526 -9.6587 1.6049
16.8825 -8.3201 1.6272
17.8138 -6.8800 1.6509
18.6091 -5.3358 1.6737
19.2319 -3.6970 1.6931
19.7137 -1.9897 1.7130
20.0456 -0.2258 1.7331
20.3090 1.5886 1.7612
19.2328 3.2498 1.6863
20.2845 5.3248 1.8131
21.3687 7.7044 1.9638
20.5962 9.5800 1.9638
19.6595 11.3791 1.9638
18.4807 13.0273 1.9548
17.1640 14.5554 1.9456
15.7610 15.9919 1.9412
14.2906 17.3572 1.9438
12.6995 18.5836 1.9459
11.0009 19.6600 1.9477
9.1905 20.5346 1.9450
7.3251 21.2814 1.9458
5.3989 21.8558 1.9463
3.4285 22.2556 1.9468
1.4295 22.4729 1.9468
-0.5809 22.5059 1.9464
-1.9070 16.4913 1.4352
-4.6119 22.2421 1.9638
-2.6246 8.6753 0.7836
-8.4910 21.0685 1.9638
-10.3366 20.2270 1.9638
-12.0997 19.2243 1.9638
-13.7665 18.0683 1.9638
-15.3234 16.7682 1.9638
-16.7581 15.3343 1.9638
-18.0593 13.7783 1.9638
-19.2163 12.1123 1.9638
-14.5530 7.4490 1.4134
-19.3758 7.8236 1.8065
-19.7001 5.9740 1.7797
-19.8533 4.1302 1.7532
-19.8417 2.3077 1.7270
-19.6726 0.5206 1.7014
-19.3544 -1.2184 1.6766
-18.8957 -2.8982 1.6527
-18.3058 -4.5092 1.6299
-17.5941 -6.0431 1.6083
-16.7754 -7.4949 1.5885
-9.9511 -5.5596 0.9855
-14.8064 -10.1041 1.5497
-13.6829 -11.2505 1.5315
-12.4901 -12.2937 1.5151
-11.2365 -13.2327 1.5008
-9.9294 -14.0664 1.4886
-9.3203 -16.0784 1.6067
-7.8046 -16.7508 1.5977
-6.1029 -16.8923 1.5528
-4.4933 -17.0713 1.5262
-3.0631 -18.0564 1.5834
-1.4341 -18.1812 1.5767
0.1945 -18.3271 1.5845
1.8330 -18.2805 1.5883
3.4694 -18.1117 1.5943
5.0970 -17.8200 1.6024
6.7089 -17.4048 1.6126
8.2980 -16.8654 1.6250
9.8567 -16.2014 1.6395
11.3770 -15.4124 1.6562
12.8504 -14.4984 1.6749
13.9118 -13.1237 1.6534
14.3356 -11.2860 1.5774
15.4817 -10.0902 1.5976
16.5426 -8.7871 1.6194
17.5088 -7.3810 1.6427
18.3668 -5.8758 1.6672
19.0354 -4.2627 1.6864
19.5662 -2.5774 1.7062
19.9500 -0.8314 1.7263
20.1784 0.9628 1.7465
19.3399 2.6663 1.6878
20.4560 4.7105 1.8148
21.5929 7.0517 1.9638
20.8778 8.9498 1.9638
19.9962 10.7765 1.9638
18.9302 12.5009 1.9612
17.6238 14.0475 1.9484
16.2315 15.4979 1.9402
14.8050 16.9077 1.9429
13.2535 18.1827 1.9452
11.5899 19.3114 1.9472
9.8117 20.2492 1.9453
7.9673 21.0466 1.9456
6.0597 21.6793 1.9461
4.1028 22.1399 1.9467
2.1116 22.4196 1.9469
0.1032 22.5154 1.9466
-1.3980 16.4574 1.4279
-2.9117 16.5581 1.4535
-2.3608 8.7546 0.7839
-7.8470 21.3168 1.9638
-9.7173 20.5318 1.9638
-11.5101 19.5830 1.9638
-13.2112 18.4782 1.9638
-14.8069 17.2260 1.9638
-16.2845 15.8364 1.9638
-17.6323 14.3206 1.9638
-18.8395 12.6906 1.9638
-18.3743 10.1209 1.8136
-19.2256 8.4510 1.8156
-19.6092 6.6034 1.7888
-19.8200 4.7558 1.7622
-19.8637 2.9243 1.7358
-19.7473 1.1237 1.7100
-19.4788 -0.6329 1.6849
-19.0669 -2.3341 1.6607
-18.5206 -3.9695 1.6375
-17.8493 -5.5304 1.6155
-17.0625 -7.0093 1.5947
-10.1311 -5.2629 0.9870
-15.1713 -9.6909 1.5564
-14.0733 -10.8720 1.5375
-12.9032 -11.9505 1.5205
-11.6691 -12.9249 1.5054
-10.3796 -13.7948 1.4925
-9.8263 -15.8229 1.6103
-8.3247 -16.5353 1.6005
-6.7839 -17.1298 1.5929
-5.2107 -17.6057 1.5874
-3.6118 -17.9624 1.5840
-1.9868 -18.1377 1.5775
-0.3623 -18.3151 1.5837
1.2755 -18.3100 1.5868
2.9134 -18.1828 1.5920
4.5447 -17.9331 1.5994
6.1628 -17.5599 1.6089
7.7605 -17.0628 1.6206
9.3304 -16.4413 1.6344
10.8647 -15.6948 1.6503
12.3550 -14.8233 1.6683
13.7926 -13.8269 1.6884
14.0672 -11.7842 1.5865
15.1008 -10.5092 1.5906
16.1919 -9.2422 1.6118
17.1915 -7.8706 1.6346
18.0888 -6.3989 1.6588
18.8229 -4.8201 1.6798
19.4017 -3.1581 1.6994
19.8365 -1.4314 1.7194
20.1187 0.3479 1.7396
16.9597 1.8151 1.4746
20.6088 4.0906 1.8165
20.1067 5.8966 1.8115
21.1401 8.3113 1.9638
20.3143 10.1641 1.9638
19.3267 11.9357 1.9638
18.0671 13.5240 1.9511
16.7195 15.0197 1.9431
15.3049 16.4427 1.9420
13.7945 17.7649 1.9445
12.1675 18.9446 1.9466
10.4299 19.9561 1.9467
8.6019 20.7919 1.9453
6.7151 21.4837 1.9460
4.7732 22.0033 1.9465
2.7918 22.3450 1.9468
0.7873 22.5036 1.9467
-0.9177 16.8655 1.4603
-2.3906 16.5234 1.4434
-2.2285 9.3906 0.8344
-2.8700 8.5934 0.7833
-9.0890 20.8175 1.9638
-10.9099 19.9237 1.9638
-12.6437 18.8710 1.9638
-14.2767 17.6679 1.9638
-15.7959 16.3238 1.9638
-17.1892 14.8497 1.9638
-11.4333 8.2174 1.2173
-18.0429 10.6654 1.8120
-18.9706 9.0363 1.8167
-19.4984 7.2328 1.7980
-19.7674 5.3832 1.7712
-19.8671 3.5446 1.7447
-19.8044 1.7319 1.7187
-19.5867 -0.0411 1.6934
-19.2226 -1.7623 1.6688
-18.7209 -3.4211 1.6453
-18.0911 -5.0083 1.6229
-17.3425 -6.5159 1.6017
-16.5134 -7.9509 1.5845
-15.5270 -9.2662 1.5632
-14.4553 -10.4816 1.5437
-13.3088 -11.5952 1.5260
-12.0956 -12.6052 1.5103
-10.8242 -13.5108 1.4967
-9.7937 -14.7507 1.5308
-8.8403 -16.3061 1.6036
-7.3120 -16.9409 1.5952
-5.7261 -17.3873 1.5826
-4.1582 -17.8545 1.5849
-2.5458 -18.1320 1.5830
-0.9147 -18.2182 1.5770
0.7181 -18.3254 1.5855
2.3566 -18.2398 1.5900
3.9909 -18.0318 1.5967
5.6143 -17.7008 1.6054
7.2197 -17.2459 1.6164
8.8000 -16.6667 1.6294
10.3473 -15.9628 1.6446
11.8535 -15.1338 1.6619
13.3101 -14.1799 1.6814
13.9888 -12.4610 1.6196
14.7106 -10.9156 1.5837
15.8306 -9.6851 1.6044
16.8623 -8.3486 1.6267
17.7958 -6.9105 1.6504
18.5949 -5.3686 1.6733
19.2205 -3.7313 1.6927
19.7053 -2.0253 1.7126
20.0403 -0.2625 1.7327
20.3041 1.5508 1.7605
19.1642 3.2020 1.6798
20.2954 5.2879 1.8132
21.3828 7.6652 1.9638
20.6138 9.5422 1.9638
19.6804 11.3430 1.9638
18.5104 12.9975 1.9554
17.1938 14.5265 1.9460
15.7898 15.9625 1.9411
14.3220 17.3305 1.9437
12.7333 18.5599 1.9459
11.0368 19.6397 1.9477
9.2281 20.5176 1.9450
7.3640 21.2678 1.9458
5.4389 21.8457 1.9463
3.4692 22.2493 1.9468
1.4707 22.4703 1.9468
-0.5396 22.5071 1.9464
-1.8762 16.4892 1.4348
-4.5712 22.2505 1.9638
-2.6087 8.6803 0.7836
-8.4524 21.0840 1.9638
-10.2995 20.2459 1.9638
-12.0645 19.2464 1.9638
-13.7333 18.0934 1.9638
-15.2926 16.7962 1.9638
-16.7300 15.3650 1.9638
-18.0339 13.8114 1.9638
-19.1941 12.1475 1.9638
-14.5497 7.4810 1.4144
-19.3674 7.8615 1.8071
-19.6951 6.0120 1.7803
-19.8518 4.1678 1.7537
-19.8435 2.3447 1.7275
-19.6776 0.5568 1.7019
-19.3623 -1.1833 1.6771
-18.9064 -2.8644 1.6532
-18.3191 -4.4770 1.6304
-17.6099 -6.0124 1.6087
-16.7882 -7.4637 1.5884
-9.9487 -5.5344 0.9842
-14.8287 -10.0795 1.5501
-13.7067 -11.2280 1.5318
-12.5152 -12.2734 1.5155
-11.2628 -13.2145 1.5011
-9.9567 -14.0503 1.4888
-9.3510 -16.0634 1.6069
-7.8361 -16.7382 1.5978
-6.1379 -16.8922 1.5538
-4.5288 -17.0793 1.5276
-3.0962 -18.0511 1.5834
-1.4675 -18.1784 1.5767
0.1609 -18.3267 1.5845
1.7993 -18.2826 1.5882
3.4359 -18.1163 1.5942
5.0637 -17.8272 1.6022
6.6760 -17.4146 1.6124
8.2657 -16.8777 1.6247
9.8251 -16.2162 1.6392
11.3462 -15.4298 1.6558
12.8207 -14.5184 1.6745
13.9068 -13.1671 1.6557
14.3113 -11.3093 1.5770
15.4590 -10.1158 1.5972
16.5217 -8.8149 1.6190
17.4900 -7.4108 1.6422
18.3517 -5.9081 1.6668
19.0230 -4.2966 1.6860
19.5568 -2.6127 1.7058
19.9437 -0.8677 1.7258
20.1753 0.9256 1.7461
19.3643 2.6335 1.6895
20.4657 4.6732 1.8149
21.6058 7.0121 1.9638
20.8941 8.9115 1.9638
20.0159 10.7399 1.9638
18.9607 12.4712 1.9620
17.6522 14.0173 1.9487
16.2594 15.4677 1.9401
14.8355 16.8801 1.9429
13.2865 18.1580 1.9452
11.6251 19.2898 1.9471
9.8493 20.2322 1.9454
8.0059 21.0318 1.9456
6.0994 21.6681 1.9461
4.1434 22.1323 1.9467
2.1527 22.4157 1.9469
0.1444 22.5153 1.9466
-1.3674 16.4554 1.4275
-2.8801 16.5560 1.4528
-2.3448 8.7591 0.7839
-7.8079 21.3311 1.9638
-9.6796 20.5495 1.9638
-11.4742 19.6041 1.9638
-13.1773 18.5024 1.9638
-14.7753 17.2531 1.9638
-16.2555 15.8663 1.9638
-17.6060 14.3529 1.9638
-18.8162 12.7251 1.9638
-18.3548 10.1541 1.8135
-19.2160 8.4888 1.8162
-19.6031 6.6413 1.7894
-19.8174 4.7935 1.7627
-19.8644 2.9616 1.7363
-19.7512 1.1602 1.7105
-19.4858 -0.5974 1.6854
-19.0767 -2.2998 1.6612
-18.5331 -3.9366 1.6380
-17.8643 -5.4992 1.6160
-17.0797 -6.9798 1.5952
-10.1686 -5.2588 0.9897
-15.1931 -9.6657 1.5568
-14.0966 -10.8488 1.5378
-12.9278 -11.9295 1.5208
-11.6950 -12.9059 1.5057
-10.4066 -13.7780 1.4928
-9.8566 -15.8070 1.6105
-8.3559 -16.5218 1.6007
-6.8159 -17.1188 1.5930
-5.2433 -17.5972 1.5874
-3.6448 -17.9562 1.5841
-2.0223 -18.1547 1.5793
-0.3958 -18.3140 1.5837
1.2419 -18.3113 1.5867
2.8798 -18.1867 1.5919
4.5113 -17.9394 1.5992
6.1298 -17.5688 1.6087
7.7279 -17.0743 1.6203
9.2985 -16.4553 1.6340
10.8336 -15.7114 1.6499
12.3250 -14.8424 1.6679
13.7637 -13.8486 1.6880
14.0626 -11.8243 1.5884
15.0776 -10.5340 1.5901
16.1704 -9.2692 1.6114
17.1720 -7.8998 1.6341
18.0715 -6.4301 1.6583
18.8096 -4.8534 1.6794
19.3912 -3.1929 1.6990
19.8291 -1.4674 1.7190
20.1145 0.3109 1.7392
20.3745 2.1428 1.7712
20.6174 4.0530 1.8166
20.1186 5.8601 1.8116
21.1553 8.2726 1.9638
20.3329 10.1268 1.9638
19.3485 11.9002 1.9638
18.0952 13.4934 1.9515
16.7484 14.9904 1.9432
15.3345 16.4141 1.9420
13.8267 17.7391 1.9445
12.2020 18.9219 1.9465
10.4669 19.9378 1.9468
8.6399 20.7759 1.9453
6.7544 21.4713 1.9460
4.8135 21.9943 1.9465
2.8327 22.3399 1.9468
0.8285 22.5021 1.9467
-0.8880 16.8918 1.4624
-2.3594 16.5214 1.4428
-2.2232 9.4449 0.8389
-2.8543 8.5989 0.7833
-9.0509 20.8341 1.9638
-10.8733 19.9437 1.9638
-12.6091 18.8942 1.9638
-14.2443 17.6940 1.9638
-15.7659 16.3528 1.9638
-17.1617 14.8811 1.9638
-11.4570 8.2663 1.2214
-18.0224 10.6979 1.8119
-18.9530 9.0705 1.8166
-19.4911 7.2707 1.7985
-19.7636 5.4211 1.7718
-19.8668 3.5820 1.7453
-19.8072 1.7688 1.7192
-19.5927 -0.0052 1.6939
-19.2314 -1.7276 1.6693
-18.7325 -3.3877 1.6458
-18.1052 -4.9765 1.6233
-17.3590 -6.4858 1.6021
-16.5305 -7.9218 1.5848
-15.5481 -9.2403 1.5637
-14.4781 -10.4577 1.5441
-13.3330 -11.5734 1.5264
-12.1211 -12.5855 1.5106
-10.8508 -13.4933 1.4970
-9.7879 -14.6836 1.5256
-8.8712 -16.2918 1.6038
-7.3437 -16.9290 1.5954
-5.7583 -17.3779 1.5827
-4.1911 -17.8475 1.5850
-2.5790 -18.1276 1.5830
-0.9480 -18.2162 1.5770
0.6844 -18.3259 1.5855
2.3230 -18.2428 1.5899
3.9574 -18.0373 1.5965
5.5811 -17.7088 1.6052
7.1870 -17.2565 1.6161
8.7678 -16.6799 1.6291
10.3158 -15.9785 1.6443
11.8231 -15.1520 1.6616
13.2808 -14.2007 1.6809
13.9840 -12.5028 1.6217
14.6868 -10.9397 1.5833
15.8084 -9.7114 1.6040
16.8421 -8.3771 1.6262
17.7777 -6.9410 1.6499
18.5807 -5.4014 1.6729
19.2090 -3.7656 1.6923
19.6968 -2.0610 1.7122
20.0351 -0.2992 1.7323
20.2992 1.5130 1.7598
19.1286 3.1601 1.6762
20.3062 5.2510 1.8133
21.3968 7.6261 1.9638
20.6312 9.5044 1.9638
19.7011 11.3070 1.9638
18.5400 12.9676 1.9560
17.2209 14.4955 1.9460
15.8186 15.9331 1.9411
14.3534 17.3038 1.9437
12.7670 18.5362 1.9459
11.0726 19.6191 1.9476
9.2655 20.5004 1.9450
7.4030 21.2541 1.9458
5.4789 21.8355 1.9463
3.5100 22.2428 1.9468
1.5118 22.4676 1.9468
-0.4983 22.5082 1.9464
-1.8454 16.4872 1.4343
-4.5304 22.2588 1.9638
-2.5929 8.6853 0.7836
-8.4137 21.0995 1.9638
-10.2624 20.2648 1.9638
-12.0292 19.2685 1.9638
-13.7001 18.1186 1.9638
-15.2618 16.8243 1.9638
-16.7018 15.3956 1.9638
-18.0086 13.8444 1.9638
-19.1718 12.1827 1.9638
-14.5463 7.5129 1.4154
-19.3588 7.8993 1.8076
-19.6902 6.0499 1.7808
-19.8503 4.2055 1.7542
-19.8453 2.3818 1.7280
-19.6826 0.5931 1.7024
-19.3702 -1.1481 1.6776
-18.9171 -2.8305 1.6537
-18.3324 -4.4446 1.6308
-17.6256 -5.9817 1.6092
-16.8061 -7.4348 1.5888
-9.9463 -5.5092 0.9830
-14.8509 -10.0548 1.5505
-13.7304 -11.2055 1.5322
-12.5404 -12.2530 1.5158
-11.2890 -13.1962 1.5014
-9.9840 -14.0343 1.4890
-9.3816 -16.0483 1.6071
-7.8676 -16.7255 1.5980
-6.1760 -16.9004 1.5556
-4.5667 -17.0957 1.5298
-3.1294 -18.0458 1.5834
-1.5008 -18.1756 1.5767
0.1273 -18.3263 1.5844
1.7657 -18.2848 1.5881
3.4023 -18.1210 1.5940
5.0305 -17.8344 1.6020
6.6432 -17.4243 1.6122
8.2334 -16.8900 1.6245
9.7934 -16.2311 1.6389
11.3155 -15.4472 1.6554
12.7910 -14.5383 1.6741
13.9017 -13.2108 1.6580
14.2869 -11.3327 1.5766
15.4363 -10.1413 1.5968
16.5008 -8.8426 1.6185
17.4711 -7.4407 1.6417
18.3357 -5.9401 1.6663
19.0106 -4.3304 1.6856
19.5473 -2.6479 1.7054
19.9373 -0.9041 1.7254
20.1722 0.8884 1.7457
20.4420 2.7420 1.7831
20.4754 4.6360 1.8150
21.6187 6.9724 1.9638
20.9104 8.8732 1.9638
20.0355 10.7032 1.9638
18.9913 12.4415 1.9628
17.6795 13.9862 1.9489
16.2872 15.4374 1.9401
14.8660 16.8524 1.9428
13.3195 18.1332 1.9452
11.6602 19.2682 1.9471
9.8869 20.2151 1.9455
8.0443 21.0169 1.9455
6.1391 21.6567 1.9461
4.1839 22.1246 1.9467
2.1938 22.4118 1.9469
0.1857 22.5151 1.9466
-1.3369 16.4534 1.4272
-2.8485 16.5539 1.4522
-2.3288 8.7636 0.7839
-7.7688 21.3452 1.9638
-9.6420 20.5672 1.9638
-11.4383 19.6251 1.9638
-13.1433 18.5265 1.9638
-14.7436 17.2802 1.9638
-16.2264 15.8960 1.9638
-17.5797 14.3851 1.9638
-18.7928 12.7595 1.9638
-18.3352 10.1872 1.8134
-19.2062 8.5266 1.8167
-19.5969 6.6793 1.7899
-19.8147 4.8314 1.7633
-19.8651 2.9990 1.7369
-19.7552 1.1968 1.7110
-19.4927 -0.5619 1.6859
-19.0865 -2.2655 1.6617
-18.5455 -3.9038 1.6385
-17.8792 -5.4679 1.6164
-17.0969 -6.9504 1.5956
-10.2064 -5.2546 0.9925
-15.2147 -9.6403 1.5572
-14.1198 -10.8255 1.5382
-12.9525 -11.9083 1.5211
-11.7209 -12.8869 1.5060
-10.4336 -13.7612 1.4930
-9.8828 -15.7845 1.6101
-8.3872 -16.5083 1.6008
-6.8478 -17.1077 1.5931
-5.2758 -17.5885 1.5875
-3.6778 -17.9501 1.5841
-2.0587 -18.1778 1.5816
-0.4293 -18.3128 1.5837
1.2083 -18.3126 1.5866
2.8462 -18.1905 1.5918
4.4780 -17.9458 1.5991
6.0967 -17.5777 1.6085
7.6954 -17.0857 1.6200
9.2666 -16.4692 1.6337
10.8025 -15.7279 1.6496
12.2949 -14.8615 1.6675
13.7348 -13.8703 1.6876
14.0579 -11.8645 1.5904
15.0543 -10.5588 1.5897
16.1489 -9.2962 1.6109
17.1524 -7.9289 1.6337
18.0542 -6.4613 1.6578
18.7963 -4.8867 1.6790
19.3807 -3.2277 1.6986
19.8216 -1.5034 1.7186
20.1102 0.2740 1.7388
20.3702 2.1046 1.7705
20.6259 4.0155 1.8167
20.1304 5.8235 1.8117
21.1704 8.2338 1.9638
20.3515 10.0896 1.9638
19.3703 11.8648 1.9638
18.1233 13.4628 1.9518
16.7761 14.9599 1.9433
15.3642 16.3855 1.9419
13.8589 17.7133 1.9444
12.2365 18.8991 1.9465
10.5038 19.9193 1.9469
8.6779 20.7599 1.9453
6.7938 21.4587 1.9460
4.8538 21.9853 1.9465
2.8736 22.3346 1.9468
0.8697 22.5007 1.9467
-0.8587 16.9253 1.4651
-2.3282 16.5193 1.4423
-2.2177 9.4999 0.8434
-2.8387 8.6043 0.7833
-9.0126 20.8507 1.9638
-10.8368 19.9635 1.9638
-12.5744 18.9172 1.9638
-14.2118 17.7201 1.9638
-15.7359 16.3817 1.9638
-17.1346 14.9126 1.9638
-18.3965 13.3246 1.9638
-18.0019 10.7304 1.8119
-18.9354 9.1047 1.8165
-19.4837 7.3086 1.7991
-19.7597 5.4590 1.7723
-19.8663 3.6196 1.7458
-19.8100 1.8056 1.7198
-19.5986 0.0307 1.6944
-19.2403 -1.6928 1.6698
-18.7441 -3.3543 1.6463
-18.1193 -4.9447 1.6238
-17.3754 -6.4557 1.6025
-16.5476 -7.8928 1.5850
-15.5693 -9.2142 1.5641
-14.5008 -10.4337 1.5445
-13.3572 -11.5516 1.5267
-12.1466 -12.5658 1.5109
-10.8774 -13.4757 1.4972
-9.7822 -14.6168 1.5206
-8.9021 -16.2775 1.6040
-7.3755 -16.9171 1.5955
-5.7906 -17.3685 1.5828
-4.2239 -17.8405 1.5850
-2.6123 -18.1230 1.5830
-0.9814 -18.2141 1.5770
0.6508 -18.3263 1.5854
2.2894 -18.2457 1.5898
3.9240 -18.0428 1.5963
5.5480 -17.7168 1.6050
7.1543 -17.2670 1.6159
8.7357 -16.6929 1.6288
10.2845 -15.9941 1.6440
11.7927 -15.1702 1.6612
13.2514 -14.2214 1.6805
13.9791 -12.5446 1.6238
14.6629 -10.9638 1.5828
15.7863 -9.7377 1.6036
16.8219 -8.4055 1.6258
17.7595 -6.9715 1.6494
18.5664 -5.4343 1.6725
19.1976 -3.7999 1.6919
19.6883 -2.0965 1.7118
20.0296 -0.3358 1.7319
20.2942 1.4753 1.7591
19.0523 3.1116 1.6690
20.3169 5.2141 1.8134
21.4108 7.5868 1.9638
20.6486 9.4666 1.9638
19.7218 11.2708 1.9638
18.5695 12.9377 1.9566
17.2475 14.4639 1.9460
15.8473 15.9036 1.9410
14.3847 17.2770 1.9436
12.8007 18.5123 1.9458
11.1084 19.5985 1.9476
9.3030 20.4831 1.9449
7.4419 21.2404 1.9458
5.5189 21.8253 1.9463
3.5507 22.2363 1.9468
1.5530 22.4649 1.9468
-0.4571 22.5092 1.9464
-1.8145 16.4851 1.4338
-4.4896 22.2671 1.9638
-2.5770 8.6903 0.7836
-8.3750 21.1149 1.9638
-10.2253 20.2836 1.9638
-11.9939 19.2905 1.9638
-13.6669 18.1437 1.9638
-15.2309 16.8522 1.9638
-16.5887 15.3477 1.9538
-17.9832 13.8774 1.9638
-19.1494 12.2178 1.9638
-14.5429 7.5451 1.4164
-19.3502 7.9372 1.8082
-19.6851 6.0879 1.7814
-19.8487 4.2432 1.7548
-19.8470 2.4190 1.7286
-19.6874 0.6293 1.7029
-19.3781 -1.1130 1.6781
-18.9278 -2.7967 1.6542
-18.3457 -4.4122 1.6313
-17.6413 -5.9510 1.6096
-16.8240 -7.4059 1.5892
-9.9439 -5.4841 0.9818
-14.8731 -10.0302 1.5509
-13.7542 -11.1828 1.5325
-12.5654 -12.2325 1.5161
-11.3152 -13.1779 1.5016
-10.0112 -14.0182 1.4893
-9.4123 -16.0331 1.6073
-7.8991 -16.7128 1.5981
-6.2191 -16.9220 1.5587
-4.6087 -17.1269 1.5334
-3.1626 -18.0404 1.5835
-1.5341 -18.1727 1.5767
0.0937 -18.3259 1.5844
1.7321 -18.2869 1.5880
3.3688 -18.1256 1.5939
4.9971 -17.8415 1.6018
6.6103 -17.4339 1.6119
8.2010 -16.9022 1.6242
9.7618 -16.2459 1.6386
11.2847 -15.4646 1.6551
12.7613 -14.5582 1.6737
13.8966 -13.2545 1.6603
14.2625 -11.3560 1.5762
11.1835 -14.2246 1.6767
12.5445 -13.3153 1.6952
13.8319 -12.2758 1.7137
14.1957 -10.4933 1.6358
14.8615 -9.0549 1.6126
15.8131 -7.7931 1.6336
16.6694 -6.4380 1.6558
17.3722 -4.9812 1.6746
17.9398 -3.4486 1.6928
18.3748 -1.8546 1.7113
18.6692 -0.2103 1.7301
18.8860 1.4773 1.7554
19.0456 3.2181 1.7899
18.8484 4.9478 1.8057
19.9368 7.1882 1.9638
19.2161 8.9381 1.9638
18.2281 10.5505 1.9516
17.1348 12.0786 1.9426
15.9278 13.5071 1.9352
14.6803 14.8953 1.9379
13.3095 16.1655 1.9403
11.8267 17.3064 1.9424
10.2443 18.3079 1.9440
8.5618 19.1298 1.9421
6.8218 19.8193 1.9423
5.0275 20.3525 1.9426
3.1925 20.7241 1.9430
1.3311 20.9264 1.9430
-0.5409 20.9574 1.9426
-1.9070 16.4911 1.5383
-4.3029 20.7516 1.9638
-2.5799 8.5276 0.8256
-7.9220 19.6567 1.9638
-9.6439 18.8716 1.9638
-11.2889 17.9361 1.9638
-12.8440 16.8575 1.9638
-14.2966 15.6445 1.9638
-15.6352 14.3068 1.9638
-16.8491 12.8550 1.9638
-16.5442 10.4280 1.8122
-14.5405 7.4426 1.5136
-18.0063 7.2706 1.7994
-18.3268 5.5576 1.7746
-18.4886 3.8463 1.7499
-18.4968 2.1512 1.7255
-18.3576 0.4858 1.7017
-18.0782 -1.1381 1.6785
-17.6664 -2.7097 1.6562
-17.1302 -4.2197 1.6348
-16.4783 -5.6598 1.6145
-15.7192 -7.0230 1.5954
-9.9413 -5.5542 1.0552
-13.9222 -9.5007 1.5618
-12.8749 -10.5861 1.5445
-11.7599 -11.5750 1.5290
-10.5859 -12.4665 1.5155
-9.6855 -13.7209 1.5563
-8.7883 -15.1606 1.6238
-7.3615 -15.7997 1.6152
-5.8986 -16.3265 1.6086
-4.4061 -16.7402 1.6040
-2.8907 -17.0399 1.6015
-1.3587 -17.2249 1.6011
0.1835 -17.2945 1.6027
1.7295 -17.2483 1.6063
3.2728 -17.0854 1.6120
4.8068 -16.8054 1.6197
6.3246 -16.4079 1.6295
7.8193 -15.8924 1.6412
9.2833 -15.2588 1.6551
10.7088 -14.5071 1.6709
12.0876 -13.6377 1.6887
13.3985 -12.6394 1.7068
14.1234 -11.1190 1.6656
14.5179 -9.4620 1.6058
15.4996 -8.2330 1.6263
16.3894 -6.9091 1.6481
17.1505 -5.4867 1.6686
17.7612 -3.9774 1.6866
18.2422 -2.4030 1.7050
18.5853 -0.7745 1.7237
18.7830 0.8962 1.7425
18.9927 2.6185 1.7766
18.9715 4.3686 1.8040
20.1460 6.5791 1.9638
19.4788 8.3501 1.9638
18.6062 10.0275 1.9586
17.5161 11.5671 1.9451
16.3400 13.0242 1.9363
15.1190 14.4357 1.9370
13.7889 15.7474 1.9396
12.3429 16.9335 1.9417
10.7929 17.9834 1.9435
9.1454 18.8739 1.9434
7.4200 19.6007 1.9421
5.6433 20.1896 1.9426
3.8205 20.6164 1.9429
1.9663 20.8768 1.9431
0.0961 20.9662 1.9428
-1.3980 16.4573 1.5305
-2.9117 16.5580 1.5579
-2.3101 8.5669 0.8222
-7.3211 19.8883 1.9638
-9.0661 19.1559 1.9638
-10.7388 18.2708 1.9638
-12.3259 17.2399 1.9638
-13.8146 16.0717 1.9638
-15.1930 14.7752 1.9638
-16.4508 13.3610 1.9638
-17.5771 11.8402 1.9638
-17.1561 9.4499 1.8150
-17.8604 7.8509 1.8078
-18.2358 6.1409 1.7830
-18.4511 4.4273 1.7583
-18.5109 2.7252 1.7338
-18.4211 1.0482 1.7097
-18.1885 -0.5910 1.6863
-17.8208 -2.1815 1.6637
-17.3260 -3.7135 1.6420
-16.7125 -5.1782 1.6213
-15.9889 -6.5683 1.6017
-10.1164 -5.2553 1.0564
-14.2558 -9.1061 1.5675
-13.2391 -10.2276 1.5502
-12.1463 -11.2495 1.5341
-10.9915 -12.1743 1.5199
-9.7875 -13.0079 1.5085
-9.2642 -14.9178 1.6272
-7.8513 -15.5949 1.6179
-6.3998 -16.1600 1.6106
-4.8959 -16.5418 1.5986
-3.4084 -16.9507 1.6022
-1.8740 -17.1081 1.5948
-0.3419 -17.2838 1.6019
1.2035 -17.2771 1.6048
2.7485 -17.1539 1.6098
4.2864 -16.9139 1.6168
5.8105 -16.5563 1.6259
7.3139 -16.0810 1.6370
8.7892 -15.4876 1.6501
10.2287 -14.7761 1.6653
11.6244 -13.9467 1.6824
12.9654 -12.9976 1.7012
14.0481 -11.7682 1.6981
14.2636 -9.9265 1.6103
15.1755 -8.6620 1.6192
16.0977 -7.3698 1.6406
16.9147 -5.9836 1.6626
17.5676 -4.4986 1.6804
18.0936 -2.9452 1.6987
18.4845 -1.3338 1.7173
18.7325 0.3239 1.7361
16.9597 1.8151 1.5805
19.0570 3.7826 1.8003
18.7115 5.4874 1.8069
19.7235 7.7544 1.9638
18.9531 9.4830 1.9638
17.8854 11.0456 1.9479
16.7564 12.5430 1.9395
15.5431 13.9629 1.9361
14.2550 15.3147 1.9387
12.8471 16.5448 1.9410
11.3311 17.6422 1.9429
9.7195 18.5969 1.9444
8.0110 19.3637 1.9418
6.2537 20.0076 1.9424
4.4448 20.4893 1.9428
2.5996 20.8073 1.9431
0.7331 20.9550 1.9430
-0.9161 16.8370 1.5625
-2.3906 16.5233 1.5471
-2.2286 9.3907 0.8943
-2.8572 8.5550 0.8358
-8.4800 19.4225 1.9638
-10.1788 18.5886 1.9638
-11.7964 17.6065 1.9638
-13.3200 16.4839 1.9638
-14.6623 15.1524 1.9538
-16.0372 13.8546 1.9638
-11.4333 8.2174 1.3047
-16.8476 9.9588 1.8135
-17.6955 8.4289 1.8163
-18.1263 6.7238 1.7915
-18.3956 5.0097 1.7667
-18.5076 3.3020 1.7421
-18.4680 1.6151 1.7178
-18.2832 -0.0383 1.6942
-17.9606 -1.6466 1.6713
-17.5081 -3.1995 1.6492
-16.9340 -4.6879 1.6282
-16.2469 -6.1042 1.6083
-15.4554 -7.4415 1.5895
-14.5681 -8.6940 1.5721
-13.5953 -9.8580 1.5561
-12.5254 -10.9128 1.5394
-11.3908 -11.8707 1.5245
-10.1991 -12.7305 1.5115
-9.7349 -14.6621 1.6308
-8.3366 -15.3770 1.6208
-6.8974 -15.9803 1.6128
-5.4244 -16.4711 1.6069
-3.9239 -16.8484 1.6030
-2.3931 -17.0450 1.5949
-0.8665 -17.2597 1.6014
0.6776 -17.2924 1.6036
2.2234 -17.2089 1.6079
3.7645 -17.0087 1.6142
5.2941 -16.6912 1.6226
6.8053 -16.2559 1.6330
8.2910 -15.7027 1.6454
9.7435 -15.0314 1.6599
11.1550 -14.2420 1.6763
12.5171 -13.3351 1.6948
13.8062 -12.2984 1.7133
14.1915 -10.5304 1.6375
14.8411 -9.0797 1.6122
15.7945 -7.8200 1.6331
16.6529 -6.4667 1.6554
17.3593 -5.0119 1.6743
17.9294 -3.4807 1.6924
18.3672 -1.8878 1.7109
18.6646 -0.2444 1.7297
18.8772 1.4418 1.7543
19.0129 3.1768 1.7862
18.8564 4.9130 1.8056
19.9500 7.1516 1.9638
19.2324 8.9028 1.9638
18.2483 10.5176 1.9517
17.1584 12.0482 1.9428
15.9520 13.4774 1.9351
14.7071 14.8680 1.9379
13.3387 16.1407 1.9403
11.8581 17.2844 1.9423
10.2777 18.2888 1.9440
8.5973 19.1151 1.9422
6.8581 19.8066 1.9423
5.0648 20.3432 1.9426
3.2305 20.7181 1.9430
1.3695 20.9240 1.9430
-0.5025 20.9585 1.9427
-1.8762 16.4891 1.5378
-4.2648 20.7594 1.9638
-2.5623 8.5258 0.8249
-7.8860 19.6710 1.9638
-9.6093 18.8892 1.9638
-11.2560 17.9567 1.9638
-12.8130 16.8810 1.9638
-14.2678 15.6707 1.9638
-15.6089 14.3354 1.9638
-16.8255 12.8859 1.9638
-16.5243 10.4578 1.8121
-14.5371 7.4745 1.5147
-17.9980 7.3056 1.7999
-18.3218 5.5928 1.7751
-18.4868 3.8812 1.7504
-18.4981 2.1858 1.7260
-18.3619 0.5196 1.7022
-18.0853 -1.1052 1.6790
-17.6761 -2.6780 1.6566
-17.1424 -4.1894 1.6352
-16.4928 -5.6310 1.6149
-15.7358 -6.9959 1.5958
-9.9389 -5.5290 1.0539
-13.9429 -9.4774 1.5622
-12.8970 -10.5647 1.5449
-11.7834 -11.5557 1.5293
-10.6105 -12.4492 1.5157
-9.6803 -13.6603 1.5514
-8.8172 -15.1463 1.6240
-7.3912 -15.7878 1.6153
-5.9289 -16.3169 1.6087
-4.4370 -16.7328 1.6041
-2.9219 -17.0349 1.6016
-1.3902 -17.2222 1.6011
0.1518 -17.2943 1.6026
1.6978 -17.2504 1.6062
3.2412 -17.0899 1.6118
4.7754 -16.8124 1.6195
6.2937 -16.4172 1.6292
7.7889 -15.9042 1.6410
9.2536 -15.2730 1.6547
10.6800 -14.5238 1.6705
12.0599 -13.6568 1.6883
13.3714 -12.6603 1.7063
14.1190 -11.1574 1.6675
14.4968 -9.4862 1.6054
15.4803 -8.2592 1.6259
16.3721 -6.9372 1.6477
17.1367 -5.5169 1.6682
17.7499 -4.0090 1.6862
18.2337 -2.4359 1.7046
18.5797 -0.8084 1.7233
18.7804 0.8616 1.7421
18.9893 2.5825 1.7758
18.9782 4.3335 1.8038
20.1580 6.5422 1.9638
19.4941 8.3144 1.9638
18.6301 9.9963 1.9591
17.5371 11.5349 1.9451
16.3677 12.9973 1.9367
15.1450 14.4076 1.9370
13.8174 15.7217 1.9395
12.3736 16.9105 1.9417
10.8257 17.9633 1.9435
9.1803 18.8578 1.9435
7.4559 19.5869 1.9420
5.6803 20.1791 1.9425
3.8583 20.6093 1.9429
2.0046 20.8731 1.9431
0.1345 20.9660 1.9428
-1.3674 16.4553 1.5301
-2.8801 16.5559 1.5572
-2.3056 8.6128 0.8262
-7.2847 19.9017 1.9638
-9.0310 19.1725 1.9638
-10.7053 18.2904 1.9638
-12.2942 17.2625 1.9638
-13.7852 16.0969 1.9638
-15.1660 14.8030 1.9638
-16.4262 13.3911 1.9638
-17.5553 11.8724 1.9638
-17.1379 9.4809 1.8149
-17.8510 7.8858 1.8084
-18.2297 6.1761 1.7835
-18.4482 4.4624 1.7588
-18.5112 2.7599 1.7343
-18.4244 1.0823 1.7102
-18.1947 -0.5578 1.6868
-17.8297 -2.1495 1.6641
-17.3374 -3.6826 1.6424
-16.7262 -5.1489 1.6217
-16.0049 -6.5406 1.6021
-10.1538 -5.2511 1.0593
-14.2746 -9.0813 1.5677
-13.2608 -10.2056 1.5506
-12.1694 -11.2296 1.5344
-11.0158 -12.1564 1.5202
-9.8071 -12.9843 1.5078
-9.2928 -14.9027 1.6274
-7.8807 -15.5821 1.6181
-6.4300 -16.1495 1.6107
-4.9264 -16.5337 1.5986
-3.4395 -16.9450 1.6022
-1.9053 -17.1047 1.5948
-0.3736 -17.2828 1.6019
1.1718 -17.2784 1.6048
2.7169 -17.1576 1.6097
4.2550 -16.9200 1.6167
5.7795 -16.5649 1.6257
7.2833 -16.0919 1.6368
8.7593 -15.5010 1.6498
10.1996 -14.7919 1.6649
11.5962 -13.9648 1.6820
12.9387 -13.0186 1.7008
14.0435 -11.8082 1.7002
14.2580 -9.9614 1.6117
15.1556 -8.6875 1.6187
16.0797 -7.3973 1.6401
16.9001 -6.0133 1.6622
17.5554 -4.5298 1.6800
18.0842 -2.9777 1.6983
18.4779 -1.3674 1.7169
18.7289 0.2895 1.7357
18.9408 1.9920 1.7648
19.0612 3.7471 1.8001
18.7209 5.4529 1.8068
19.7377 7.7183 1.9638
18.9704 9.4483 1.9638
17.9084 11.0145 1.9482
16.7802 12.5129 1.9396
15.5682 13.9340 1.9360
14.2826 15.2882 1.9387
12.8771 16.5209 1.9410
11.3632 17.6210 1.9429
9.7535 18.5790 1.9444
8.0464 19.3488 1.9418
6.2903 19.9960 1.9424
4.4823 20.4809 1.9428
2.6378 20.8025 1.9431
0.7715 20.9537 1.9430
-0.8864 16.8615 1.5646
-2.3594 16.5212 1.5465
-2.2232 9.4450 0.8991
-2.8392 8.5532 0.8351
-8.4443 19.4380 1.9638
-10.1447 18.6072 1.9638
-11.7641 17.6280 1.9638
-13.2898 16.5083 1.9638
-14.6345 15.1793 1.9538
-16.0118 13.8840 1.9638
-11.4570 8.2663 1.3091
-16.8285 9.9892 1.8134
-17.6849 8.4637 1.8168
-18.1191 6.7589 1.7920
-18.3916 5.0448 1.7672
-18.5069 3.3368 1.7426
-18.4703 1.6494 1.7183
-18.2884 -0.0048 1.6947
-17.9685 -1.6142 1.6717
-17.5186 -3.1682 1.6497
-16.9470 -4.6581 1.6286
-16.2621 -6.0759 1.6087
-15.4727 -7.4149 1.5899
-14.5872 -8.6692 1.5724
-13.6165 -9.8353 1.5565
-12.5481 -10.8921 1.5397
-11.4146 -11.8520 1.5248
-10.2240 -12.7139 1.5118
-9.7631 -14.6463 1.6311
-8.3657 -15.3635 1.6210
-6.9273 -15.9692 1.6130
-5.4549 -16.4622 1.6070
-3.9549 -16.8418 1.6031
-2.4244 -17.0408 1.5950
-0.8981 -17.2578 1.6013
0.6459 -17.2929 1.6035
2.1917 -17.2118 1.6078
3.7329 -17.0140 1.6141
5.2629 -16.6988 1.6224
6.7745 -16.2661 1.6328
8.2608 -15.7153 1.6452
9.7141 -15.0463 1.6596
11.1266 -14.2594 1.6760
12.4897 -13.3549 1.6944
13.7805 -12.3209 1.7129
14.1872 -10.5675 1.6393
14.8206 -9.1046 1.6118
15.7759 -7.8467 1.6327
16.6362 -6.4954 1.6549
17.3463 -5.0426 1.6739
17.9191 -3.5127 1.6920
18.3596 -1.9211 1.7106
18.6600 -0.2786 1.7293
18.8684 1.4064 1.7533
18.9934 3.1377 1.7838
18.8645 4.8782 1.8055
19.9630 7.1151 1.9638
19.2487 8.8675 1.9638
18.2722 10.4869 1.9522
17.1804 12.0166 1.9428
15.9762 13.4478 1.9351
14.7339 14.8406 1.9378
13.3680 16.1158 1.9402
11.8896 17.2623 1.9423
10.3110 18.2697 1.9439
8.6327 19.1001 1.9423
6.8944 19.7939 1.9422
5.1021 20.3338 1.9426
3.2684 20.7121 1.9430
1.4078 20.9215 1.9430
-0.4640 20.9595 1.9427
-1.8454 16.4871 1.5373
-4.2268 20.7672 1.9638
-2.5448 8.5241 0.8243
-7.8499 19.6855 1.9638
-9.5747 18.9068 1.9638
-11.2231 17.9773 1.9638
-12.7821 16.9045 1.9638
-14.2391 15.6968 1.9638
-15.5826 14.3640 1.9638
-16.8019 12.9167 1.9638
-16.5043 10.4876 1.8120
-14.5337 7.5064 1.5158
-17.9897 7.3407 1.8004
-18.3168 5.6280 1.7756
-18.4850 3.9163 1.7509
-18.4994 2.2203 1.7265
-18.3661 0.5534 1.7026
-18.0924 -1.0724 1.6795
-17.6858 -2.6463 1.6571
-17.1545 -4.1590 1.6357
-16.5072 -5.6022 1.6153
-15.7524 -6.9687 1.5961
-9.9366 -5.5038 1.0526
-13.9636 -9.4541 1.5626
-12.9192 -10.5434 1.5452
-11.8069 -11.5363 1.5296
-10.6351 -12.4319 1.5160
-9.6752 -13.6002 1.5466
-8.8460 -15.1320 1.6242
-7.4208 -15.7757 1.6155
-5.9592 -16.3071 1.6088
-4.4678 -16.7254 1.6042
-2.9532 -17.0298 1.6016
-1.4218 -17.2196 1.6011
0.1201 -17.2940 1.6026
1.6660 -17.2525 1.6061
3.2096 -17.0944 1.6117
4.7441 -16.8192 1.6193
6.2628 -16.4265 1.6290
7.7585 -15.9159 1.6407
9.2239 -15.2872 1.6544
10.6512 -14.5403 1.6702
12.0321 -13.6757 1.6879
13.3443 -12.6811 1.7058
14.1145 -11.1960 1.6694
14.4757 -9.5103 1.6050
15.4611 -8.2854 1.6254
16.3548 -6.9652 1.6472
17.1228 -5.5472 1.6678
17.7386 -4.0406 1.6858
18.2251 -2.4688 1.7042
18.5740 -0.8423 1.7229
18.7778 0.8270 1.7417
18.9868 2.5468 1.7751
18.9848 4.2984 1.8037
20.1700 6.5052 1.9638
19.5092 8.2786 1.9638
18.6540 9.9652 1.9597
17.5585 11.5029 1.9451
16.3953 12.9703 1.9372
15.1709 14.3794 1.9369
13.8459 15.6960 1.9395
12.4044 16.8874 1.9416
10.8584 17.9432 1.9434
9.2151 18.8416 1.9436
7.4917 19.5731 1.9420
5.7173 20.1686 1.9425
3.8960 20.6021 1.9429
2.0428 20.8694 1.9431
0.1730 20.9659 1.9428
-1.3369 16.4532 1.5296
-2.8484 16.5538 1.5565
-2.3010 8.6591 0.8302
-7.2482 19.9150 1.9638
-8.9959 19.1890 1.9638
-10.6718 18.3100 1.9638
-12.2626 17.2850 1.9638
-13.7556 16.1222 1.9638
-15.1390 14.8308 1.9638
-16.4017 13.4212 1.9638
-17.5335 11.9045 1.9638
-17.1197 9.5118 1.8148
-17.8415 7.9207 1.8089
-18.2236 6.2112 1.7841
-18.4453 4.4975 1.7593
-18.5114 2.7946 1.7348
-18.4276 1.1164 1.7107
-18.2008 -0.5246 1.6873
-17.8385 -2.1173 1.6646
-17.3487 -3.6519 1.6428
-16.7399 -5.1195 1.6221
-16.0207 -6.5128 1.6025
-10.1914 -5.2469 1.0622
-14.2933 -9.0565 1.5680
-13.2825 -10.1835 1.5509
-12.1924 -11.2095 1.5347
-11.0400 -12.1383 1.5204
-9.8324 -12.9683 1.5080
-9.3213 -14.8876 1.6276
-7.9101 -15.5693 1.6182
-6.4600 -16.1390 1.6109
-4.9570 -16.5255 1.5987
-3.4707 -16.9391 1.6022
-1.9367 -17.1012 1.5948
-0.4052 -17.2816 1.6018
1.1401 -17.2796 1.6047
2.6852 -17.1613 1.6096
4.2235 -16.9260 1.6165
5.7484 -16.5733 1.6255
7.2527 -16.1028 1.6365
8.7293 -15.5143 1.6495
10.1704 -14.8076 1.6646
11.5681 -13.9830 1.6816
12.9121 -13.0395 1.7004
14.0388 -11.8483 1.7023
14.2529 -9.9967 1.6132
15.1357 -8.7130 1.6183
16.0617 -7.4247 1.6397
16.8854 -6.0430 1.6618
17.5432 -4.5609 1.6797
18.0747 -3.0102 1.6979
18.4713 -1.4010 1.7165
18.7252 0.2551 1.7353
18.9377 1.9566 1.7642
19.0651 3.7116 1.7998
18.7302 5.4184 1.8068
19.7518 7.6821 1.9638
18.9877 9.4135 1.9638
17.9313 10.9834 1.9485
16.8060 12.4842 1.9400
15.5932 13.9050 1.9360
14.3102 15.2616 1.9386
12.9071 16.4968 1.9409
11.3953 17.5999 1.9429
9.7874 18.5608 1.9444
8.0818 19.3339 1.9418
6.3270 19.9843 1.9424
4.5198 20.4726 1.9427
2.6759 20.7976 1.9431
0.8099 20.9523 1.9430
-0.8570 16.8921 1.5673
-2.3282 16.5192 1.5459
-2.2178 9.4999 0.9040
-2.8212 8.5515 0.8344
-8.4087 19.4535 1.9638
-10.1106 18.6258 1.9638
-11.7318 17.6496 1.9638
-13.2595 16.5327 1.9638
-14.6814 15.2839 1.9638
-15.9864 13.9133 1.9638
-17.1638 12.4317 1.9638
-16.8094 10.0196 1.8133
-17.6694 8.4960 1.8168
-18.1118 6.7940 1.7925
-18.3876 5.0800 1.7677
-18.5061 3.3718 1.7431
-18.4725 1.6837 1.7188
-18.2936 0.0287 1.6952
-17.9764 -1.5816 1.6722
-17.5291 -3.1369 1.6501
-16.9599 -4.6283 1.6290
-16.2772 -6.0476 1.6090
-15.4898 -7.3883 1.5903
-14.6064 -8.6443 1.5727
-13.6376 -9.8127 1.5568
-12.5707 -10.8714 1.5400
-11.4385 -11.8333 1.5251
-10.2490 -12.6972 1.5120
-9.7591 -14.5823 1.6259
-8.3948 -15.3499 1.6212
-6.9573 -15.9577 1.6131
-5.4854 -16.4532 1.6071
-3.9859 -16.8352 1.6031
-2.4557 -17.0365 1.5950
