7.79600191116333 -22.435121536254883 -6.129434585571289
9.39061164855957 -21.13895034790039 -5.969395160675049
10.81341552734375 -19.716135025024414 -5.803168773651123
-2.441406195430318e-06 -25.002391815185547 -6.28835391998291
6.696365833282471 -26.134782791137695 -6.785500526428223
7.846514701843262 -22.58045768737793 -6.012325763702393
9.39061164855957 -21.13895034790039 -5.817655563354492
10.813417434692383 -19.71613311767578 -5.6556549072265625
2.441406195430318e-06 -25.00239372253418 -6.124850273132324
6.2012619972229 -24.20249366760254 -6.12042236328125
7.846514701843262 -22.58045768737793 -5.8560004234313965
9.390607833862305 -21.138944625854492 -5.666391372680664
10.813413619995117 -19.716136932373047 -5.508602142333984
-3.662109293145477e-06 -25.002391815185547 -5.96183443069458
6.226925373077393 -24.30265235900879 -5.982181072235107
7.846510887145996 -22.580455780029297 -5.700135231018066
9.390609741210938 -21.138952255249023 -5.5155816078186035
10.81341552734375 -19.716135025024414 -5.361990451812744
-2.441406195430318e-06 -25.04110336303711 -5.808279991149902
4.391838073730469 -26.01878547668457 -6.120422840118408
6.226929187774658 -24.302650451660156 -5.819091796875
7.846514701843262 -22.58045768737793 -5.544734477996826
9.390607833862305 -21.138954162597656 -5.365210056304932
10.813417434692383 -19.71613311767578 -5.2158074378967285
-4.882812390860636e-06 -25.040435791015625 -5.645808696746826
4.409022331237793 -26.12056541442871 -5.972652912139893
6.226927280426025 -24.302650451660156 -5.656468868255615
7.811816692352295 -22.48063850402832 -5.365956783294678
9.390613555908203 -21.138946533203125 -5.21527099609375
10.813419342041016 -19.71613121032715 -5.07004451751709
1.220703097715159e-06 -25.03977394104004 -5.483795642852783
4.409020900726318 -26.12057113647461 -5.80141544342041
6.226929187774658 -24.302650451660156 -5.494296073913574
7.846518516540527 -22.580463409423828 -5.23525857925415
9.39061164855957 -21.13895034790039 -5.065746307373047
10.813417434692383 -19.71613311767578 -4.924684524536133
0.0 -25.03911018371582 -5.32222843170166
4.409019470214844 -26.12057113647461 -5.6306376457214355
6.226925373077393 -24.30265235900879 -5.332558631896973
7.846510887145996 -22.580455780029297 -5.081145286560059
9.390607833862305 -21.138954162597656 -4.916626453399658
10.813417434692383 -19.71613311767578 -4.779715538024902
-4.882812390860636e-06 -25.0384464263916 -5.1610918045043945
4.365921497344971 -25.865219116210938 -5.406930446624756
6.226927280426025 -24.302650451660156 -5.171247959136963
7.846514701843262 -22.58045768737793 -4.9274396896362305
9.390609741210938 -21.138952255249023 -4.767897129058838
10.813419342041016 -19.71613121032715 -4.635127544403076
-3.662109293145477e-06 -25.03778839111328 -5.000372886657715
4.409019470214844 -26.12057113647461 -5.29041051864624
6.226931095123291 -24.302648544311523 -5.010343551635742
7.846510887145996 -22.580455780029297 -4.774120807647705
9.390609741210938 -21.138952255249023 -4.619542598724365
10.81341552734375 -19.716135025024414 -4.490904331207275
-2.441406195430318e-06 -25.037134170532227 -4.840054988861084
4.409020900726318 -26.12057113647461 -5.1209282875061035
6.226925373077393 -24.30265235900879 -4.849833965301514
7.846514701843262 -22.58045768737793 -4.621179580688477
9.390613555908203 -21.138946533203125 -4.471551895141602
10.813417434692383 -19.71613311767578 -4.347036838531494
-2.441406195430318e-06 -25.036476135253906 -4.680130958557129
4.409023284912109 -26.120574951171875 -4.9518537521362305
6.226927280426025 -24.302650451660156 -4.689708709716797
7.846514701843262 -22.58045768737793 -4.468602180480957
9.390609741210938 -21.138952255249023 -4.323917865753174
10.813419342041016 -19.71613121032715 -4.203511714935303
-3.662109293145477e-06 -25.03582000732422 -4.5205793380737305
4.409024715423584 -26.120573043823242 -4.783163547515869
6.190807342529297 -24.161684036254883 -4.5036749839782715
7.846510887145996 -22.580455780029297 -4.316378116607666
9.390609741210938 -21.138952255249023 -4.1766204833984375
10.813417434692383 -19.71613311767578 -4.0603156089782715
-2.441406195430318e-06 -25.03516960144043 -4.361392498016357
4.409019470214844 -26.12057113647461 -4.6148505210876465
6.226929187774658 -24.302650451660156 -4.370546340942383
7.846510887145996 -22.580455780029297 -4.164489269256592
9.390609741210938 -21.138952255249023 -4.0296502113342285
10.404093742370605 -18.96981430053711 -3.769150972366333
0.0 -25.034521102905273 -4.202556610107422
4.409020900726318 -26.12057113647461 -4.446899890899658
6.226927280426025 -24.302650451660156 -4.211487293243408
7.846510887145996 -22.580455780029297 -4.012927532196045
9.070082664489746 -20.417423248291016 -3.7504589557647705
10.444324493408203 -19.043169021606445 -3.646022319793701
-3.662109293145477e-06 -25.03386688232422 -4.0440545082092285
4.409024715423584 -26.12056541442871 -4.279292583465576
6.226927280426025 -24.302650451660156 -4.0527520179748535
7.604243755340576 -21.88326644897461 -3.7424468994140625
9.070083618164062 -20.417421340942383 -3.609100341796875
10.444323539733887 -19.043169021606445 -3.5086004734039307
0.0 -25.033222198486328 -3.8858768939971924
4.409024715423584 -26.12056541442871 -4.112020969390869
6.014387607574463 -23.473134994506836 -3.76141095161438
7.604243755340576 -21.88326644897461 -3.5961577892303467
9.070083618164062 -20.417421340942383 -3.4680254459381104
10.444324493408203 -19.043169021606445 -3.371453285217285
-1.220703097715159e-06 -25.03257179260254 -3.7280101776123047
4.242128849029541 -25.131826400756836 -3.7957353591918945
6.01438570022583 -23.47313690185547 -3.6086955070495605
7.604247093200684 -21.883264541625977 -3.4501519203186035
9.070083618164062 -20.417421340942383 -3.327221632003784
10.444324493408203 -19.043169021606445 -3.234570264816284
-3.662109293145477e-06 -25.03192901611328 -3.570438861846924
4.24212646484375 -25.13182830810547 -3.635392427444458
6.014389514923096 -23.47313117980957 -3.4562559127807617
7.604247093200684 -21.883264541625977 -3.304410219192505
9.070083618164062 -20.417421340942383 -3.1866722106933594
10.444324493408203 -19.043169021606445 -3.0979344844818115
-1.220703097715159e-06 -25.03128433227539 -3.413156032562256
2.271331787109375 -27.10262680053711 -3.708550214767456
4.24212646484375 -25.131820678710938 -3.475358724594116
6.014387607574463 -23.473134994506836 -3.304088592529297
7.604243755340576 -21.88326644897461 -3.1589274406433105
9.035140037536621 -20.33877944946289 -3.0346391201019287
10.444323539733887 -19.043169021606445 -2.961542844772339
-4.882812390860636e-06 -25.030635833740234 -3.2561395168304443
2.2713305950164795 -27.102628707885742 -3.538041830062866
4.242125034332275 -25.13182258605957 -3.3155462741851807
6.01438570022583 -23.47313690185547 -3.152170419692993
7.59336519241333 -21.851938247680664 -3.0093700885772705
9.070083618164062 -20.417421340942383 -2.9063048362731934
10.444324493408203 -19.043169021606445 -2.8253746032714844
1.220703097715159e-06 -25.02999496459961 -3.0993876457214355
2.271331787109375 -27.10262680053711 -3.367800235748291
4.24212646484375 -25.131820678710938 -3.156024694442749
6.01438570022583 -23.47313690185547 -3.0005035400390625
7.604245662689209 -21.88326644897461 -2.868677854537964
9.070082664489746 -20.417423248291016 -2.766465425491333
10.444324493408203 -19.043169021606445 -2.689429759979248
-4.882812390860636e-06 -25.02935218811035 -2.942880153656006
2.271331787109375 -27.10262680053711 -3.1978259086608887
4.24212646484375 -25.131820678710938 -2.99672794342041
6.014382839202881 -23.4731388092041 -2.84906005859375
7.604245662689209 -21.88326644897461 -2.7238898277282715
9.070080757141113 -20.417415618896484 -2.6268365383148193
10.444323539733887 -19.043169021606445 -2.5536887645721436
-6.103515261202119e-06 -25.028711318969727 -2.7866101264953613
2.2713329792022705 -27.10262680053711 -3.0280914306640625
4.242122650146484 -25.131826400756836 -2.837675094604492
6.01438570022583 -23.47313690185547 -2.697841167449951
7.604247093200684 -21.883270263671875 -2.5793139934539795
9.070083618164062 -20.417421340942383 -2.487412214279175
10.444324493408203 -19.043169021606445 -2.4181442260742188
-2.441406195430318e-06 -25.028072357177734 -2.6305601596832275
2.2713353633880615 -27.102622985839844 -2.8585917949676514
4.24212646484375 -25.131820678710938 -2.6788182258605957
6.014383792877197 -23.4731388092041 -2.5468266010284424
7.604243755340576 -21.88326644897461 -2.4349348545074463
9.070085525512695 -20.41741943359375 -2.3481764793395996
10.444324493408203 -19.043169021606445 -2.282789468765259
3.662109293145477e-06 -25.027435302734375 -2.4747188091278076
2.271329402923584 -27.102630615234375 -2.689309597015381
4.242122650146484 -25.131826400756836 -2.520179271697998
6.01438570022583 -23.47313690185547 -2.3960070610046387
7.604243755340576 -21.88326644897461 -2.290740966796875
9.070085525512695 -20.41741943359375 -2.2091214656829834
10.44180965423584 -19.038578033447266 -2.147087574005127
-2.441406195430318e-06 -25.026796340942383 -2.3190784454345703
2.271329402923584 -27.102630615234375 -2.520240068435669
4.242122650146484 -25.131826400756836 -2.361748218536377
6.01438570022583 -23.47313690185547 -2.2453742027282715
7.604245662689209 -21.88326644897461 -2.1467268466949463
9.070083618164062 -20.417421340942383 -2.0702381134033203
10.444326400756836 -19.04316520690918 -2.0125892162323
2.441406195430318e-06 -25.026161193847656 -2.1636178493499756
2.271329402923584 -27.102630615234375 -2.3513550758361816
4.24212646484375 -25.131820678710938 -2.203488349914551
6.01438570022583 -23.47313690185547 -2.094907522201538
7.604245662689209 -21.88326644897461 -2.00287127494812
9.070085525512695 -20.41741943359375 -1.9315077066421509
10.444326400756836 -19.04316520690918 -1.8777222633361816
-2.441406195430318e-06 -25.025522232055664 -2.008336305618286
2.271329402923584 -27.102630615234375 -2.182652473449707
4.242129802703857 -25.131826400756836 -2.045400381088257
6.01438570022583 -23.47313690185547 -1.9446067810058594
7.604245662689209 -21.88326644897461 -1.8591736555099487
9.070083618164062 -20.417421340942383 -1.792929768562317
10.444323539733887 -19.043169021606445 -1.743004322052002
-1.220703097715159e-06 -25.024887084960938 -1.8532160520553589
2.271331787109375 -27.10262680053711 -2.0141148567199707
4.242122650146484 -25.131826400756836 -1.8874479532241821
6.01438570022583 -23.47313690185547 -1.7944550514221191
7.604247093200684 -21.883264541625977 -1.7156177759170532
9.070085525512695 -20.41741943359375 -1.654489278793335
10.444326400756836 -19.04316520690918 -1.608418345451355
0.0 -25.02425193786621 -1.6982429027557373
2.2713353633880615 -27.102622985839844 -1.8457322120666504
4.242122650146484 -25.131826400756836 -1.729665994644165
6.01438570022583 -23.47313690185547 -1.644437313079834
7.604247093200684 -21.883264541625977 -1.5721912384033203
9.070083618164062 -20.417421340942383 -1.516173243522644
10.444324493408203 -19.043169021606445 -1.4739537239074707
-1.220703097715159e-06 -25.023616790771484 -1.5434041023254395
2.271329402923584 -27.102630615234375 -1.6774909496307373
4.242122650146484 -25.131826400756836 -1.5720106363296509
6.014387607574463 -23.473134994506836 -1.4945417642593384
7.574958324432373 -21.798974990844727 -1.4233771562576294
9.035146713256836 -20.33877182006836 -1.3726615905761719
10.404093742370605 -18.96981430053711 -1.3344383239746094
-2.441406195430318e-06 -25.02298355102539 -1.3886924982070923
2.2713279724121094 -27.102630615234375 -1.509380578994751
4.242125034332275 -25.13182258605957 -1.4144638776779175
5.991212844848633 -23.38272476196289 -1.3395832777023315
7.574954509735107 -21.79897689819336 -1.280730128288269
9.035146713256836 -20.33877182006836 -1.23509681224823
10.404093742370605 -18.96981430053711 -1.2007042169570923
-2.441406195430318e-06 -25.022348403930664 -1.2340983152389526
2.2713377475738525 -27.102628707885742 -1.3413838148117065
4.242122650146484 -25.131826400756836 -1.2570313215255737
5.991218090057373 -23.382719039916992 -1.1904865503311157
7.57495641708374 -21.798974990844727 -1.1381837129592896
9.035146713256836 -20.33877182006836 -1.0976295471191406
10.404097557067871 -18.969816207885742 -1.067064642906189
-3.662109293145477e-06 -25.021713256835938 -1.0796058177947998
2.271331787109375 -27.10262680053711 -1.1734825372695923
4.242125034332275 -25.13182258605957 -1.0996897220611572
5.991218090057373 -23.382719039916992 -1.0414801836013794
7.57495641708374 -21.798974990844727 -0.9957243204116821
9.035144805908203 -20.338773727416992 -0.9602454900741577
10.404091835021973 -18.969816207885742 -0.9335066080093384
3.662109293145477e-06 -25.02108383178711 -0.9251978993415833
2.271331787109375 -27.10262680053711 -1.005677342414856
4.242122650146484 -25.131826400756836 -0.9424290060997009
5.991218090057373 -23.382719039916992 -0.8925455808639526
7.574952602386475 -21.79897117614746 -0.8533347845077515
9.035146713256836 -20.33877182006836 -0.8229292035102844
10.404093742370605 -18.96981430053711 -0.800013542175293
-2.441406195430318e-06 -25.020448684692383 -0.770872950553894
2.271331787109375 -27.10262680053711 -0.8379451036453247
4.242122650146484 -25.131826400756836 -0.7852393984794617
5.991218090057373 -23.382719039916992 -0.74368816614151
7.574954509735107 -21.79897689819336 -0.7110142111778259
9.035146713256836 -20.33877182006836 -0.6856806874275208
10.404095649719238 -18.969812393188477 -0.6665870547294617
-3.662109293145477e-06 -25.019813537597656 -0.6166120767593384
2.271329402923584 -27.102630615234375 -0.6702845692634583
4.24212646484375 -25.131820678710938 -0.62813401222229
5.991219520568848 -23.38271713256836 -0.5948817133903503
7.57495641708374 -21.798974990844727 -0.5687461495399475
9.035144805908203 -20.338773727416992 -0.5484815835952759
10.404096603393555 -18.969818115234375 -0.5332081317901611
-1.220703097715159e-06 -25.019184112548828 -0.4624055325984955
2.271331787109375 -27.10262680053711 -0.5026683211326599
4.242125034332275 -25.13182258605957 -0.471058189868927
5.991219520568848 -23.38271713256836 -0.44612106680870056
7.574952602386475 -21.79897117614746 -0.4265211522579193
9.035144805908203 -20.338773727416992 -0.41132429242134094
10.404096603393555 -18.969818115234375 -0.3998701274394989
-3.662109293145477e-06 -25.0185489654541 -0.30824539065361023
2.271329402923584 -27.102630615234375 -0.3350929319858551
4.24212646484375 -25.131820678710938 -0.31402114033699036
5.991218090057373 -23.382719039916992 -0.29739731550216675
7.574954509735107 -21.798969268798828 -0.2843315005302429
9.035144805908203 -20.338773727416992 -0.27420058846473694
10.404096603393555 -18.969818115234375 -0.26656508445739746
-1.220703097715159e-06 -25.017919540405273 -0.1541130095720291
2.271331787109375 -27.10262680053711 -0.1675402820110321
4.24212646484375 -25.131820678710938 -0.15700438618659973
5.991218090057373 -23.382719039916992 -0.14869293570518494
7.574954509735107 -21.798969268798828 -0.1421603411436081
9.035146713256836 -20.33877182006836 -0.13709503412246704
10.404095649719238 -18.969812393188477 -0.1332772821187973
-2.441406195430318e-06 -25.01728630065918 -3.204345603080583e-06
2.271329402923584 -27.102630615234375 -2.593994167909841e-06
4.24212646484375 -25.131820678710938 -3.0517576306010596e-06
5.991219520568848 -23.38271713256836 -2.899169885495212e-06
7.574952602386475 -21.79897117614746 -2.7465819130156888e-06
9.035144805908203 -20.338773727416992 -2.593994167909841e-06
10.404093742370605 -18.96981430053711 -2.593994167909841e-06
-2.441406195430318e-06 -25.01665687561035 0.15410201251506805
2.271331787109375 -27.10262680053711 0.1675369292497635
4.378616809844971 -25.94044303894043 0.1620529145002365
6.183988571166992 -24.135061264038086 0.1534741222858429
7.8186798095703125 -22.50035858154297 0.1467314064502716
9.325850486755371 -20.993173599243164 0.1415034383535385
10.738849639892578 -19.580169677734375 0.13756301999092102
-3.662109293145477e-06 -25.01602554321289 0.308208167552948
2.271329402923584 -27.102630615234375 0.33508652448654175
4.378616809844971 -25.94044303894043 0.32411834597587585
6.183988571166992 -24.135061264038086 0.3069598376750946
7.8186798095703125 -22.50035858154297 0.2934739589691162
9.325850486755371 -20.993173599243164 0.28301742672920227
10.738848686218262 -19.580171585083008 0.275136262178421
-1.220703097715159e-06 -25.015392303466797 0.4623326063156128
2.271331787109375 -27.10262680053711 0.5026646256446838
4.37861442565918 -25.94044303894043 0.4862113893032074
6.183988571166992 -24.135061264038086 0.4604717791080475
7.8186798095703125 -22.50035858154297 0.4402416944503784
9.325850486755371 -20.993173599243164 0.4245584011077881
10.738848686218262 -19.580171585083008 0.4127332866191864
-2.441406195430318e-06 -25.014760971069336 0.616484522819519
2.271329402923584 -27.102630615234375 0.6702810525894165
4.378616809844971 -25.94044303894043 0.648341178894043
6.183988571166992 -24.135061264038086 0.6140188574790955
7.81867790222168 -22.5003604888916 0.5870426893234253
9.325848579406738 -20.993175506591797 0.5661261081695557
10.738844871520996 -19.580167770385742 0.5503614544868469
-6.103515261202119e-06 -25.01412582397461 0.7706754803657532
2.2713305950164795 -27.102628707885742 0.8379485607147217
4.37861442565918 -25.94044303894043 0.8105204701423645
6.183988571166992 -24.135061264038086 0.7676125764846802
7.81867790222168 -22.5003604888916 0.7338885068893433
9.325851440429688 -20.993173599243164 0.707739531993866
10.738849639892578 -19.580169677734375 0.6880319118499756
2.441406195430318e-06 -25.013498306274414 0.9249143600463867
2.271331787109375 -27.10262680053711 1.0056763887405396
4.378616809844971 -25.94044303894043 0.9727581739425659
6.183988571166992 -24.135061264038086 0.9212614297866821
7.8186798095703125 -22.50035858154297 0.8807870149612427
9.325851440429688 -20.993173599243164 0.849403977394104
10.738848686218262 -19.580171585083008 0.8257513046264648
-3.662109293145477e-06 -25.012861251831055 1.079215168952942
2.271331787109375 -27.10262680053711 1.1734802722930908
4.378616809844971 -25.94044303894043 1.1350696086883545
6.183986663818359 -24.13506317138672 1.0749804973602295
7.8186798095703125 -22.50035858154297 1.0277526378631592
9.325850486755371 -20.993173599243164 0.9911332726478577
10.738845825195312 -19.58017349243164 0.9635340571403503
-2.441406195430318e-06 -25.012231826782227 1.2335965633392334
2.271334171295166 -27.10262680053711 1.34138023853302
4.37861442565918 -25.94044303894043 1.2974739074707031
6.183986663818359 -24.13506317138672 1.2287869453430176
7.8186798095703125 -22.50035858154297 1.1748018264770508
9.325851440429688 -20.993173599243164 1.1329429149627686
10.738849639892578 -19.580169677734375 1.101394534111023
-2.441406195430318e-06 -25.0115966796875 1.3880579471588135
2.271329402923584 -27.102630615234375 1.5093759298324585
4.378616809844971 -25.94044303894043 1.4599701166152954
6.183988571166992 -24.135061264038086 1.382680892944336
7.8186798095703125 -22.50035858154297 1.3219348192214966
9.325850486755371 -20.993173599243164 1.2748336791992188
10.738844871520996 -19.580167770385742 1.2393338680267334
0.0 -24.914884567260742 1.5366936922073364
2.271329402923584 -27.102630615234375 1.6774893999099731
4.378616809844971 -25.94044303894043 1.622581124305725
6.183990478515625 -24.13505744934082 1.5366836786270142
7.81867790222168 -22.5003604888916 1.469171404838562
9.325851440429688 -20.993173599243164 1.4168239831924438
10.738848686218262 -19.580171585083008 1.3773705959320068
0.0 -24.886621475219727 1.688894510269165
2.2713353633880615 -27.102622985839844 1.845726728439331
4.378616809844971 -25.94044303894043 1.7853118181228638
6.183986663818359 -24.13506317138672 1.6907998323440552
7.818681240081787 -22.500356674194336 1.616516351699829
9.32585334777832 -20.99317741394043 1.5589191913604736
10.738848686218262 -19.580171585083008 1.5155091285705566
3.662109293145477e-06 -24.858402252197266 1.8408827781677246
2.2713305950164795 -27.102628707885742 2.014113187789917
4.378616809844971 -25.94044303894043 1.9481860399246216
6.183988571166992 -24.135061264038086 1.8450515270233154
7.818681240081787 -22.500356674194336 1.763991355895996
9.325855255126953 -20.993175506591797 1.7011394500732422
10.738849639892578 -19.580169677734375 1.6537688970565796
-4.882812390860636e-06 -24.830209732055664 1.9926536083221436
2.271331787109375 -27.10262680053711 2.182642698287964
4.378616809844971 -25.94044303894043 2.111198902130127
6.183988571166992 -24.135061264038086 1.9994348287582397
7.8186798095703125 -22.50035858154297 1.9115920066833496
9.325850486755371 -20.993173599243164 1.8434810638427734
10.738845825195312 -19.58017349243164 1.792146921157837
-2.5634764824644662e-05 -24.789419174194336 2.1431503295898438
2.146937131881714 -25.618270874023438 2.2225701808929443
4.258637428283691 -25.22960090637207 2.2120580673217773
6.183988571166992 -24.135061264038086 2.153979539871216
7.8186798095703125 -22.50035858154297 2.05934739112854
9.325851440429688 -20.993173599243164 1.9859716892242432
10.738848686218262 -19.580171585083008 1.9306700229644775
3.662109293145477e-06 -24.01323127746582 2.225152015686035
1.9981738328933716 -23.843124389648438 2.217134952545166
3.9584906101226807 -23.45145034790039 2.203835964202881
5.868233680725098 -22.902706146240234 2.1908035278320312
7.686578750610352 -22.12019157409668 2.169964551925659
9.325850486755371 -20.993173599243164 2.1286120414733887
10.738848686218262 -19.580171585083008 2.069338083267212
2.441406195430318e-06 -22.448034286499023 2.2196621894836426
1.865725040435791 -22.262706756591797 2.2090535163879395
3.6975958347320557 -21.905832290649414 2.1966893672943115
5.475455284118652 -21.369760513305664 2.1813015937805176
7.176660060882568 -20.652774810791016 2.1619293689727783
8.788930892944336 -19.784513473510742 2.140636920928955
10.279203414916992 -18.742090225219727 2.1136488914489746
9.765624781721272e-06 -21.460052490234375 2.2555367946624756
1.7495923042297363 -20.876867294311523 2.201934576034546
3.4686851501464844 -20.54964256286621 2.1904027462005615
5.131570339202881 -20.027624130249023 2.1729819774627686
6.729683876037598 -19.36646270751953 2.1548855304718018
8.236197471618652 -18.540264129638672 2.13228178024292
9.640399932861328 -17.577362060546875 2.107069969177246
-3.662109293145477e-06 -21.25377655029297 2.3663172721862793
1.6605627536773682 -19.8145694732666 2.2138140201568604
3.262507200241089 -19.328237533569336 2.1823763847351074
4.828310012817383 -18.84406280517578 2.165802478790283
6.333323001861572 -18.225828170776367 2.1482183933258057
7.748262882232666 -17.441892623901367 2.124906063079834
9.075641632080078 -16.547637939453125 2.1012535095214844
2.441406195430318e-06 -20.059534072875977 2.358541250228882
1.658117651939392 -19.785444259643555 2.3344693183898926
3.1025891304016113 -18.380817413330078 2.191732883453369
4.558762073516846 -17.79205322265625 2.1595144271850586
5.977213382720947 -17.201034545898438 2.1410739421844482
7.315918922424316 -16.46866798400879 2.118802070617676
8.573615074157715 -15.632295608520508 2.0962884426116943
2.441406195430318e-06 -18.98601722717285 2.3509738445281982
1.5804760456085205 -18.858959197998047 2.3434267044067383
3.0983097553253174 -18.355438232421875 2.3050432205200195
4.382441520690918 -17.10394287109375 2.1863396167755127
5.658598899841309 -16.28412628173828 2.134681463241577
6.929783821105957 -15.599454879760742 2.1136481761932373
8.125655174255371 -14.815526962280273 2.092362880706787
4.882812390860636e-06 -18.020116806030273 2.344165086746216
1.5003143548965454 -17.902442932128906 2.3370213508605957
2.972576141357422 -17.610553741455078 2.323293924331665
4.376702308654785 -17.08153533935547 2.2938504219055176
5.5403571128845215 -15.943852424621582 2.1957268714904785
6.616066932678223 -14.89323902130127 2.1199676990509033
7.721581935882568 -14.078771591186523 2.0888214111328125
-1.220703097715159e-06 -17.14640998840332 2.3380064964294434
1.4277551174163818 -17.036623001098633 2.331178903579712
2.8289592266082764 -16.75971794128418 2.317606210708618
4.192816257476807 -16.363842010498047 2.303377866744995
5.4977593421936035 -15.821273803710938 2.2838544845581055
6.606423854827881 -14.871538162231445 2.218898057937622
7.612914085388184 -13.880634307861328 2.158677101135254
-1.220703097715159e-06 -16.352262496948242 2.3324081897735596
1.3614813089370728 -16.245819091796875 2.325348377227783
2.698376417160034 -15.986090660095215 2.312434673309326
3.9983270168304443 -15.604763984680176 2.297689914703369
5.243994235992432 -15.090995788574219 2.2787630558013916
6.430805683135986 -14.47620964050293 2.259387731552124
7.550994873046875 -13.767739295959473 2.2397265434265137
-2.441406195430318e-06 -15.62718391418457 2.3272972106933594
1.300983190536499 -15.523958206176758 2.320026159286499
2.5791149139404297 -15.279542922973633 2.307711601257324
3.8202147483825684 -14.909628868103027 2.2921600341796875
5.012234210968018 -14.424046516418457 2.274113416671753
6.148909568786621 -13.841628074645996 2.2556252479553223
7.2175445556640625 -13.15976333618164 2.235240936279297
0.0 -14.96251392364502 2.3226118087768555
1.24553644657135 -14.862333297729492 2.315148115158081
2.469755172729492 -14.6316499710083 2.3033804893493652
3.6570005416870117 -14.272637367248535 2.287092924118042
4.799715042114258 -13.812454223632812 2.2698493003845215
5.890219211578369 -13.259291648864746 2.2521722316741943
6.908406734466553 -12.596108436584473 2.230048179626465
3.662109293145477e-06 -14.350961685180664 2.31830096244812
1.1945323944091797 -14.253698348999023 2.3106606006622314
2.368053436279297 -14.029144287109375 2.2983710765838623
3.5068910121917725 -13.686790466308594 2.2824323177337646
4.604118347167969 -13.249582290649414 2.265925168991089
5.645849704742432 -12.709220886230469 2.2465555667877197
6.624152183532715 -12.077824592590332 2.2252731323242188
0.0 -13.78543758392334 2.3141653537750244
1.1474517583847046 -13.69189453125 2.3065185546875
2.2738823890686035 -13.471222877502441 2.2934072017669678
3.3683581352233887 -13.146114349365234 2.2781310081481934
4.421096324920654 -12.722882270812988 2.26106858253479
5.4202561378479 -12.20137882232666 2.2412588596343994
6.3618669509887695 -11.599601745605469 2.220867156982422
6.103515488575795e-07 -13.261384010314941 2.310274124145508
1.1038525104522705 -13.171645164489746 2.302682638168335
2.18673038482666 -12.954938888549805 2.288813829421997
3.239335298538208 -12.642545700073242 2.2736117839813232
4.249433517456055 -12.228877067565918 2.2553582191467285
5.21157169342041 -11.731620788574219 2.236359119415283
6.119823932647705 -11.158284187316895 2.2170615196228027
-4.272460955689894e-06 -12.773838996887207 2.3065009117126465
1.0628411769866943 -12.68231201171875 2.298001527786255
2.105548143386841 -12.47397232055664 2.28421688079834
3.117056131362915 -12.165339469909668 2.267587184906006
4.090281009674072 -11.77086353302002 2.250063896179199
5.018871307373047 -11.297840118408203 2.2322185039520264
5.898616790771484 -10.754959106445312 2.2148616313934326
1.220703097715159e-06 -12.322210311889648 2.303419589996338
1.0243743658065796 -12.223222732543945 2.292924404144287
2.028254985809326 -12.016080856323242 2.277968645095825
3.0034804344177246 -11.722067832946777 2.262017250061035
3.9437880516052246 -11.349296569824219 2.245988368988037
4.825287818908691 -10.862072944641113 2.221806526184082
5.692399978637695 -10.37896728515625 2.21281099319458
0.0 -11.90250015258789 2.300931930541992
0.9881976246833801 -11.791693687438965 2.2875027656555176
1.9572405815124512 -11.595373153686523 2.273267984390259
2.8996124267578125 -11.316694259643555 2.2583580017089844
3.794651746749878 -10.92013168334961 2.2348477840423584
4.660844326019287 -10.491897583007812 2.2193655967712402
5.499690055847168 -10.027591705322266 2.2108943462371826
3.662109293145477e-06 -11.496481895446777 2.295994997024536
0.9546825885772705 -11.391719818115234 2.2830491065979004
1.891251802444458 -11.204421043395996 2.2693212032318115
2.802473783493042 -10.9375581741333 2.2549355030059814
3.6684603691101074 -10.55698299407959 2.232032060623169
4.506884574890137 -10.145322799682617 2.2170801162719727
5.319179058074951 -9.698468208312988 2.209099531173706
-1.220703097715159e-06 -11.116328239440918 2.291372537612915
0.9232925176620483 -11.017096519470215 2.2788777351379395
1.8294200897216797 -10.838102340698242 2.265622854232788
2.7114028930664062 -10.58215045928955 2.25172758102417
3.5627293586730957 -10.252703666687012 2.2373132705688477
4.3624267578125 -9.82014274597168 2.214935779571533
5.149742126464844 -9.389530181884766 2.207414388656616
6.103515488575795e-07 -10.759657859802246 2.2870357036590576
0.8938226103782654 -10.665474891662598 2.2749624252319336
1.7713650465011597 -10.494135856628418 2.262150287628174
2.6258699893951416 -10.248309135437012 2.248713970184326
3.451023817062378 -9.93125057220459 2.2347700595855713
4.240971088409424 -9.546724319458008 2.2204365730285645
4.9789910316467285 -9.078206062316895 2.2007980346679688
2.441406195430318e-06 -10.424304962158203 2.2829577922821045
0.8661047220230103 -10.334757804870605 2.27128005027771
1.7167317867279053 -10.170507431030273 2.258882999420166
2.5453577041625977 -9.93408489227295 2.245877265930176
3.345855712890625 -9.628582954406738 2.2323756217956543
4.112524509429932 -9.257583618164062 2.2184910774230957
4.840190887451172 -8.825135231018066 2.204336404800415
9.155273232863692e-07 -10.108394622802734 2.279116630554199
0.8399856090545654 -10.02310848236084 2.2678098678588867
1.665241003036499 -9.86544132232666 2.255803108215332
2.469434976577759 -9.637775421142578 2.2432026863098145
3.2466399669647217 -9.343060493469238 2.230116844177246
3.9913084506988525 -8.984719276428223 2.2166554927825928
4.69841194152832 -8.566632270812988 2.2029263973236084
9.155273232863692e-07 -9.810284614562988 2.275491714477539
0.8153353929519653 -9.728933334350586 2.2645339965820312
1.6166119575500488 -9.577380180358887 2.252894878387451
2.3977248668670654 -9.357892990112305 2.240676164627075
3.152879238128662 -9.073262214660645 2.227982521057129
3.876735210418701 -8.72680377960205 2.2149200439453125
4.56434965133667 -8.322184562683105 2.2015931606292725
3.0517576306010596e-06 -9.52845573425293 2.272064685821533
0.7920193076133728 -9.45075511932373 2.261436700820923
1.5648928880691528 -9.270947456359863 2.2419323921203613
2.3298592567443848 -9.093052864074707 2.238285541534424
3.0642147064208984 -8.817916870117188 2.225961685180664
3.76824688911438 -8.482588768005371 2.2132768630981445
4.4373698234558105 -8.09066104888916 2.2003304958343506
2.593994167909841e-06 -1.4819375276565552 0.3630297780036926
0.7699398398399353 -9.187277793884277 2.258502960205078
1.5215102434158325 -9.013968467712402 2.239389657974243
2.2655556201934814 -8.842079162597656 2.236020088195801
2.9800286293029785 -8.575824737548828 2.2240474224090576
3.6653666496276855 -8.251002311706543 2.211718797683716
4.316912651062012 -7.871036052703857 2.1991326808929443
9.155273232863692e-07 -1.4437114000320435 0.363107293844223
0.7489981055259705 -8.937386512756348 2.255720376968384
1.4803564548492432 -8.770132064819336 2.2369771003723145
2.204531192779541 -8.60389518737793 2.233869791030884
2.900172472000122 -8.346013069152832 2.222229480743408
3.5676732063293457 -8.03109073638916 2.2102391719818115
4.202490329742432 -7.662413597106934 2.1979947090148926
-2.593994167909841e-06 -1.407296061515808 0.3631809949874878
0.1176091730594635 -1.40336012840271 0.36343351006507874
1.4464184045791626 -8.569123268127441 2.242715835571289
2.139056921005249 -8.348368644714355 2.224058151245117
2.824251413345337 -8.127537727355957 2.220500946044922
3.4747722148895264 -7.821966171264648 2.208832025527954
4.093656539916992 -7.463965892791748 2.1969125270843506
9.155273232863692e-07 -1.372572660446167 0.3632514774799347
0.11470210552215576 -1.3687021732330322 0.3634977638721466
1.4090572595596313 -8.347713470458984 2.240480422973633
2.0913238525390625 -8.162086486816406 2.229881763458252
2.742734432220459 -7.89294958114624 2.211397409439087
3.3863136768341064 -7.622838497161865 2.2074923515319824
3.9899816513061523 -7.27494478225708 2.1958813667297363
2.670288040462765e-06 -1.3394114971160889 0.36331862211227417
0.11193481087684631 -1.3356170654296875 0.36355894804000854
1.373451828956604 -8.136792182922363 2.2383511066436768
2.0317015647888184 -7.929385185241699 2.220351457595825
2.6741228103637695 -7.695505142211914 2.209866762161255
3.2912652492523193 -7.408880233764648 2.1990561485290527
3.8911306858062744 -7.094696044921875 2.1948983669281006
-2.5177000679832418e-06 -1.3077071905136108 0.363383024930954
0.10927794873714447 -1.303981900215149 0.3636176884174347
0.21794898808002472 -1.2911983728408813 0.363869309425354
1.9817276000976562 -7.734343528747559 2.218626022338867
2.617372989654541 -7.532188415527344 2.2157912254333496
3.2110683917999268 -7.22834587097168 2.1978657245635986
3.7967448234558105 -6.922605037689209 2.1939597129821777
-7.629394076502649e-07 -1.2773772478103638 0.36344435811042786
0.10674373060464859 -1.2737157344818115 0.36367368698120117
0.21288742125034332 -1.2612085342407227 0.3639196753501892
1.940614938735962 -7.573896408081055 2.2245724201202393
2.554572343826294 -7.3514723777771 2.2143614292144775
3.144559860229492 -7.078627586364746 2.2038304805755615
3.7065281867980957 -6.758111000061035 2.1930625438690186
9.91821252682712e-07 -1.2483179569244385 0.36350324749946594
0.10431480407714844 -1.2447254657745361 0.36372724175453186
0.20803989470005035 -1.2324823141098022 0.36396774649620056
0.310452938079834 -1.211648941040039 0.36422285437583923
2.4945132732391357 -7.178635120391846 2.21299409866333
3.0709731578826904 -6.912978172302246 2.202716112136841
3.620206594467163 -6.600722312927246 2.192203998565674
-2.441406195430318e-06 -1.2204513549804688 0.3635597229003906
0.10198253393173218 -1.2169228792190552 0.36377882957458496
0.20338398218154907 -1.2049317359924316 0.3640139698982239
0.3035096526145935 -1.18454909324646 0.3642634451389313
2.4370176792144775 -7.013171195983887 2.2116851806640625
3.0005125999450684 -6.754361629486084 2.201648712158203
3.537520408630371 -6.449966907501221 2.1913816928863525
-6.866454782539222e-07 -1.1937122344970703 0.363614022731781
0.09974517673254013 -1.1902406215667725 0.36382827162742615
0.19892314076423645 -1.1784980297088623 0.36405837535858154
0.2968495190143585 -1.1585469245910645 0.36430221796035767
0.39284059405326843 -1.1305044889450073 0.36455854773521423
2.932957649230957 -6.602298259735107 2.2006256580352783
3.4582507610321045 -6.305428504943848 2.1905934810638428
1.0299681889591739e-06 -1.168022632598877 0.363665908575058
0.09759937226772308 -1.164613127708435 0.3638758659362793
0.19463668763637543 -1.1531054973602295 0.36410078406333923
0.29044997692108154 -1.133568525314331 0.36433959007263184
0.3843643069267273 -1.1061112880706787 0.36459043622016907
2.868149995803833 -6.456397533416748 2.199643850326538
3.382169008255005 -6.166705131530762 2.1898369789123535
-2.403259259153856e-06 -1.143318772315979 0.3637159764766693
0.09553299099206924 -1.1399697065353394 0.3639213442802429
0.19051764905452728 -1.1286916732788086 0.36414167284965515
0.28429219126701355 -1.10955011844635 0.36437544226646423
0.37621429562568665 -1.0826624631881714 0.36462095379829407
0.465645432472229 -1.048197865486145 0.3648768663406372
3.309086799621582 -6.033463001251221 2.189110279083252
-2.365112322877394e-06 -1.1195505857467651 0.3637641966342926
0.09354422986507416 -1.116256833076477 0.36396530270576477
0.18655231595039368 -1.1052013635635376 0.3641810417175293
0.27837082743644714 -1.0864412784576416 0.3644099235534668
0.36837679147720337 -1.0601027011871338 0.3646503984928131
0.4559330642223358 -1.026339054107666 0.3649007976055145
0.5404319763183594 -0.9853715300559998 0.36515945196151733
-6.484985419774603e-07 -1.096664547920227 0.36381056904792786
0.09163150936365128 -1.0934208631515503 0.36400771141052246
0.1827370822429657 -1.082582950592041 0.3642190396785736
0.2726688086986542 -1.0641906261444092 0.36444321274757385
0.3608258068561554 -1.0383750200271606 0.3646788001060486
0.44658324122428894 -1.0052917003631592 0.3649241626262665
0.5293420553207397 -0.9651526212692261 0.3651774525642395
2.822876012942288e-06 -1.0746054649353027 0.36385542154312134
0.0897877886891365 -1.071413516998291 0.3640486001968384
0.1790565401315689 -1.060782790184021 0.36425551772117615
0.267179012298584 -1.0427495241165161 0.3644752502441406
0.3535493016242981 -1.0174363851547241 0.3647060990333557
0.43757349252700806 -0.9850088953971863 0.3649464249610901
0.5186542868614197 -0.94566410779953 0.365194708108902
1.1062621751989354e-06 -1.0533249378204346 0.36389845609664917
0.08801311254501343 -1.050193428993225 0.36408767104148865
0.17550376057624817 -1.0397526025772095 0.3642907738685608
0.26188093423843384 -1.0220698118209839 0.3645060658454895
0.34653350710868835 -0.9972451329231262 0.3647325038909912
0.42888143658638 -0.9654443264007568 0.36496809124946594
0.5083463191986084 -0.926872968673706 0.3652113378047943
1.1444091114753974e-06 -1.0327885150909424 0.36394011974334717
0.08629371225833893 -1.029705286026001 0.36412566900253296
0.17208217084407806 -1.0194611549377441 0.36432477831840515
0.2567640542984009 -1.0021064281463623 0.36453595757484436
0.3397645950317383 -0.9777600169181824 0.36475783586502075
0.420494943857193 -0.9465686082839966 0.36498886346817017
0.4984026551246643 -0.908739447593689 0.36522749066352844
2.86102294921875e-06 -1.012954592704773 0.363980233669281
0.0846347063779831 -1.0099163055419922 0.36416229605674744
0.16877108812332153 -0.9998604655265808 0.364357590675354
0.25182682275772095 -0.9828336834907532 0.3645646572113037
0.3332269489765167 -0.9589412212371826 0.3647823929786682
0.41240012645721436 -0.9283402562141418 0.36500898003578186
0.4887956976890564 -0.891222357749939 0.3652430772781372
2.86102294921875e-06 -0.9937853813171387 0.3640190064907074
0.08303611725568771 -0.9907989501953125 0.36419785022735596
0.16557563841342926 -0.9809173345565796 0.36438947916030884
0.24705176055431366 -0.9641996026039124 0.364592581987381
0.326903373003006 -0.9407508373260498 0.36480605602264404
0.40456947684288025 -0.9107178449630737 0.36502838134765625
0.4795166254043579 -0.8743025064468384 0.36525800824165344
-5.722045557376987e-07 -0.9752410650253296 0.36405670642852783
0.0814824253320694 -0.9722994565963745 0.36423200368881226
0.1624854952096939 -0.9626010060310364 0.36441999673843384
0.2424338459968567 -0.9461817741394043 0.36461958289146423
0.32079219818115234 -0.9231629967689514 0.36482909321784973
0.3970063626766205 -0.8936840891838074 0.3650471270084381
0.4705396890640259 -0.8579369187355042 0.36527252197265625
1.182556161438697e-06 -0.9572992324829102 0.364093154668808
0.07998569309711456 -0.9544059634208679 0.3642652928829193
0.15948687493801117 -0.9448697566986084 0.3644499182701111
0.23796607553958893 -0.9287458658218384 0.3646455407142639
0.3148743212223053 -0.9061412811279297 0.3648512065410614
0.3896816074848175 -0.8771992921829224 0.36506545543670654
0.4618510603904724 -0.8420977592468262 0.36528655886650085
1.1444091114753974e-06 -0.9399254322052002 0.3641282618045807
0.0785321444272995 -0.937076985836029 0.3642973303794861
0.15659525990486145 -0.9277082681655884 0.36447858810424805
0.23364336788654327 -0.9118691682815552 0.36467087268829346
0.30914807319641113 -0.8896599411964417 0.3648727238178253
0.38258638978004456 -0.861230731010437 0.3650830090045929
0.45344382524490356 -0.8267645239830017 0.36530011892318726
-5.340576194612368e-07 -0.9230919480323792 0.3641624450683594
0.07712177187204361 -0.9202849864959717 0.36432844400405884
0.15378306806087494 -0.9110750555992126 0.3645063638687134
0.229450061917305 -0.8955121636390686 0.364695280790329
0.3036048114299774 -0.8736999034881592 0.3648936450481415
0.37571728229522705 -0.8457678556442261 0.36510008573532104
0.4452989399433136 -0.8119145035743713 0.36531326174736023
-2.2888182229507947e-06 -0.9067694544792175 0.36419540643692017
0.075759656727314 -0.9040108323097229 0.364358514547348
0.15106411278247833 -0.8949561715126038 0.36453354358673096
0.22538802027702332 -0.8796592354774475 0.3647189140319824
0.29822731018066406 -0.8582233786582947 0.36491379141807556
0.36906227469444275 -0.8307816386222839 0.36511656641960144
0.43740442395210266 -0.7975186109542847 0.36532607674598694
-2.250671286674333e-06 -0.8909424543380737 0.36422744393348694
0.07443729043006897 -0.8882217407226562 0.3643876612186432
0.1484280377626419 -0.8793208003044128 0.36455976963043213
0.2214536964893341 -0.8642861843109131 0.3647419512271881
0.29300686717033386 -0.8432111740112305 0.3649333119392395
0.36259886622428894 -0.8162389397621155 0.36513274908065796
0.4297429621219635 -0.7835525274276733 0.36533844470977783
-4.95910626341356e-07 -0.8755831718444824 0.36425870656967163
0.07315463572740555 -0.8729040622711182 0.3644160330295563
0.1458609700202942 -0.8641412258148193 0.36458510160446167
0.2176247239112854 -0.8493603467941284 0.3647642433643341
0.2879469692707062 -0.8286460638046265 0.3649522364139557
0.35633406043052673 -0.8021330833435059 0.3651481568813324
0.42231285572052 -0.7700042724609375 0.36535048484802246
-4.95910626341356e-07 -0.8606677055358887 0.36428892612457275
0.07190479338169098 -0.8580229878425598 0.3644438087940216
0.14337334036827087 -0.849406898021698 0.36460983753204346
0.21391311287879944 -0.8348694443702698 0.36478590965270996
0.2830321192741394 -0.8145022392272949 0.3649708330631256
0.3502504229545593 -0.7884397506713867 0.3651634156703949
0.41509848833084106 -0.7568479180335999 0.3653620779514313
1.220703097715159e-06 -0.8461785912513733 0.3643183708190918
0.07069294154644012 -0.8435735702514648 0.3644706606864929
0.1409599334001541 -0.8350955843925476 0.36463361978530884
0.2103085070848465 -0.8207963109016418 0.36480697989463806
0.2782605290412903 -0.8007674813270569 0.3649887144565582
0.34433600306510925 -0.7751297354698181 0.36517804861068726
0.4080878496170044 -0.7440678477287292 0.3653733730316162
-4.95910626341356e-07 -0.832093358039856 0.36434677243232727
0.06951904296875 -0.8295280933380127 0.3644966185092926
0.13861209154129028 -0.82118821144104 0.36465713381767273
0.206804096698761 -0.8071203231811523 0.3648272752761841
0.2736184298992157 -0.7874142527580261 0.36500608921051025
0.3385924696922302 -0.762201189994812 0.3651924133300781
0.4012722671031952 -0.7316451072692871 0.3653845191001892
2.9754637580481358e-06 -0.8184036016464233 0.3643745481967926
0.06837272644042969 -0.8158693313598633 0.3645217716693878
0.13632820546627045 -0.8076589703559875 0.3646797239780426
0.2033945620059967 -0.7938189506530762 0.36484724283218384
0.26910582184791565 -0.7744287848472595 0.36502304673194885
0.3330060839653015 -0.7496265769004822 0.36520615220069885
0.3946569859981537 -0.7195745706558228 0.36539533734321594
1.2588500339916209e-06 -0.8050779700279236 0.3644016981124878
0.06725753843784332 -0.8025799989700317 0.36454635858535767
0.13411159813404083 -0.7945042252540588 0.36470168828964233
0.2000800222158432 -0.7808783650398254 0.3648664653301239
0.2647191882133484 -0.7618006467819214 0.36503949761390686
0.32757335901260376 -0.7373954653739929 0.3652195632457733
0.3882143199443817 -0.7078285813331604 0.36540570855140686
1.2588500339916209e-06 -0.7921097278594971 0.36442795395851135
0.06617855280637741 -0.7896549701690674 0.3645704686641693
0.13194850087165833 -0.781696617603302 0.3647233545780182
0.19685697555541992 -0.7682881951332092 0.3648853898048401
0.26044997572898865 -0.7495108842849731 0.36505553126335144
0.3222907483577728 -0.7254975438117981 0.3652328550815582
0.3819425404071808 -0.6963950991630554 0.3654157817363739
1.2588500339916209e-06 -0.7794868350028992 0.36445343494415283
0.06511859595775604 -0.777056097984314 0.36459365487098694
0.1298389434814453 -0.76922208070755 0.3647440969944
0.1937098503112793 -0.756022572517395 0.3649037182331085
0.2562877833843231 -0.7375421524047852 0.36507123708724976
0.3171428143978119 -0.71390700340271 0.3652454912662506
0.37583649158477783 -0.6852654218673706 0.36542555689811707
-4.577636616431846e-07 -0.7671831846237183 0.36447829008102417
0.0640949234366417 -0.7647939920425415 0.3646165430545807
0.12778805196285248 -0.7570756077766418 0.364764541387558
0.1906525194644928 -0.7440815567970276 0.3649214208126068
0.25223955512046814 -0.7258877158164978 0.36508649587631226
0.3121244013309479 -0.7026150226593018 0.36525800824165344
0.3698875606060028 -0.6744205355644226 0.36543533205986023
-2.174377414121409e-06 -0.755197286605835 0.3645026981830597
0.0630936399102211 -0.7528408765792847 0.3646385073661804
0.1257958710193634 -0.7452433109283447 0.3647843897342682
0.18766771256923676 -0.7324407696723938 0.36493879556655884
0.24829484522342682 -0.7145301699638367 0.365101158618927
0.3072406053543091 -0.6916164755821228 0.3652702271938324
0.3640974462032318 -0.6638588309288025 0.36544448137283325
-4.577636616431846e-07 -0.7435117363929749 0.36452651023864746
0.06211307272315025 -0.741184651851654 0.3646601736545563
0.12384511530399323 -0.7337009906768799 0.36480361223220825
0.18476228415966034 -0.7210935950279236 0.3649559020996094
0.24444343149662018 -0.7034522294998169 0.3651156425476074
0.30247244238853455 -0.6808891296386719 0.36528196930885315
0.3584471344947815 -0.6535577178001404 0.3654536306858063
1.2969970839549205e-06 -0.7321162223815918 0.3645493984222412
0.06116016209125519 -0.7298184037208557 0.3646812438964844
0.1219426691532135 -0.7224418520927429 0.36482253670692444
0.18192420899868011 -0.7100242972373962 0.36497238278388977
0.24068863689899445 -0.6926506161689758 0.36512985825538635
0.29783034324645996 -0.6704360842704773 0.36529341340065
0.3529384136199951 -0.6435157060623169 0.3654624819755554
3.0517576306010596e-06 -0.7209968566894531 0.3645719885826111
0.060233116149902344 -0.7187301516532898 0.3647018373012543
0.12009208649396896 -0.7114623785018921 0.3648409843444824
0.17915688455104828 -0.6992295384407043 0.3649885356426239
0.2370271235704422 -0.6821147799491882 0.36514341831207275
0.29329872131347656 -0.6602317690849304 0.36530470848083496
0.3475695252418518 -0.6337204575538635 0.36547133326530457
1.3351440202313825e-06 -0.7101433873176575 0.3645939528942108
0.05932853743433952 -0.7079095244407654 0.3647218346595764
0.11828286945819855 -0.7007452845573425 0.36485883593559265
0.1764620691537857 -0.6886937618255615 0.3650042712688446
0.2334570288658142 -0.6718327403068542 0.3651568591594696
0.2888706624507904 -0.650269091129303 0.36531585454940796
0.34231799840927124 -0.6241530776023865 0.36547988653182983
-2.136230477844947e-06 -0.6995402574539185 0.36461547017097473
0.05843774601817131 -0.6973374485969543 0.36474135518074036
0.11651338636875153 -0.6902785301208496 0.36487653851509094
0.1738242506980896 -0.6784048080444336 0.36501967906951904
0.22996638715267181 -0.661788821220398 0.3651699721813202
0.28454968333244324 -0.6405446529388428 0.36532652378082275
0.33720290660858154 -0.614822268486023 0.36548811197280884
1.2969970839549205e-06 -0.6891925930976868 0.36463654041290283
0.057572878897190094 -0.6870156526565552 0.3647605776786804
0.11478879302740097 -0.6800569295883179 0.3648936450481415
0.17125029861927032 -0.6683558225631714 0.36503463983535767
0.22655688226222992 -0.6519815921783447 0.3651827871799469
0.28033050894737244 -0.6310498118400574 0.3653370440006256
0.33219826221466064 -0.6056985855102539 0.3654962182044983
3.0517576306010596e-06 -0.679081380367279 0.3646569848060608
0.056730400770902634 -0.6769338846206665 0.36477920413017273
0.11310388147830963 -0.6700717210769653 0.36491042375564575
0.16873504221439362 -0.6585381031036377 0.36504927277565
0.22322678565979004 -0.6423986554145813 0.36519530415534973
0.2762114703655243 -0.6217724680900574 0.36534711718559265
0.3273110091686249 -0.5967890024185181 0.3655039966106415
1.3351440202313825e-06 -0.6691946983337402 0.36467695236206055
0.05590175464749336 -0.667073130607605 0.3647975027561188
