ply
format ascii 1.0
element vertex 1917
property float32 x
property float32 y
property float32 z
end_header
24.6104 -2.3377 -1.9839
24.7776 -0.1309 -1.9885
24.4422 2.0614 -1.9685
27.3051 4.7873 -2.2247
33.3741 8.9850 -2.7737
25.2907 31.1561 -3.2204
20.1562 29.9457 -2.8969
-14.7778 47.4726 -3.9901
-47.0844 -12.0808 -3.9010
-36.1463 -12.8099 -3.0776
-25.0207 -11.4752 -2.2091
-20.6510 -11.8083 -1.9091
-20.2762 -14.1367 -1.9836
-20.5109 -17.2156 -2.1490
-28.5279 -28.6592 -3.2452
-24.1113 -28.9960 -3.0264
-20.2237 -29.2923 -2.8566
-10.9727 -19.3957 -1.7884
20.1549 -32.2744 -3.0536
21.2468 -28.0855 -2.8262
21.5738 -23.7668 -2.5759
23.2444 -21.4084 -2.5360
28.3959 -21.8062 -2.8732
33.7948 -21.4456 -3.2121
24.0396 -9.7866 -2.0830
24.2214 -7.4181 -2.0329
24.3960 -5.1430 -2.0008
24.5663 -2.9211 -1.9854
24.7333 -0.7157 -1.9857
24.9017 1.5083 -2.0021
25.1112 3.7931 -2.0381
-6.7063 35.1133 -2.8688
-17.8042 46.2379 -3.9762
-14.3448 13.5286 -1.5824
-9.4019 0.3833 -0.7551
-38.5067 -12.6300 -3.2522
-26.4194 -11.3685 -2.3082
-21.6872 -11.7293 -1.9787
-20.2199 -13.3984 -1.9466
-20.4451 -16.3523 -2.1010
-29.8079 -28.5617 -3.3130
-25.2206 -28.9114 -3.0789
-21.2091 -29.2172 -2.8974
-18.1912 -30.4522 -2.8467
-18.6265 -38.6526 -3.4433
20.0356 -33.8387 -3.1559
20.7925 -28.8795 -2.8558
21.4931 -24.8331 -2.6357
22.1448 -21.3851 -2.4705
26.9044 -21.6911 -2.7734
31.8724 -21.2990 -3.0764
24.0831 -10.4747 -2.1076
24.1742 -8.0335 -2.0443
24.3504 -5.7378 -2.0077
24.5217 -3.5056 -1.9879
24.6891 -1.2992 -1.9841
24.8569 0.9164 -1.9962
25.0281 3.1773 -2.0247
-16.5250 46.1404 -3.9331
-41.2531 -12.4585 -3.4583
-27.9504 -11.2518 -2.4180
-22.8025 -11.6443 -2.0547
-20.1656 -12.6867 -1.9120
-20.3821 -15.5262 -2.0562
-20.6361 -18.8580 -2.2434
-26.3701 -28.8238 -3.1351
-22.2236 -29.1399 -2.9410
-18.5329 -29.4212 -2.7905
-18.7420 -36.6504 -3.3035
19.9080 -35.5124 -3.2672
20.4477 -29.8651 -2.9047
21.4085 -25.9507 -2.6998
21.7444 -22.0155 -2.4833
25.5123 -21.5836 -2.6818
30.1048 -21.1642 -2.9532
23.5004 -8.4316 -2.0037
24.3044 -6.3371 -2.0157
24.4767 -4.0918 -1.9915
24.6450 -1.8820 -1.9836
24.8123 0.3277 -1.9914
24.9823 2.5729 -2.0155
17.2835 8.5698 -1.5482
-15.6528 47.1913 -3.9901
-23.8577 35.7452 -3.4488
-11.2106 13.9212 -1.4344
-44.5690 -12.3180 -3.7108
-34.4693 -12.9378 -2.9547
-24.0076 -11.5524 -2.1381
-20.1133 -11.9996 -1.8796
-20.3217 -14.7342 -2.0144
-20.5645 -17.9190 -2.1890
-27.5627 -28.7328 -3.1953
-23.2697 -29.0601 -2.9877
-19.4720 -29.3497 -2.8266
-18.5717 -34.2922 -3.1297
20.2429 -31.1197 -2.9793
21.3196 -27.1247 -2.7687
21.6345 -22.9658 -2.5320
24.2086 -21.4829 -2.5974
29.0626 -21.4759 -2.9000
25.9143 -15.7804 -2.4349
24.0779 -9.2871 -2.0710
24.2580 -6.9414 -2.0249
24.4315 -4.6805 -1.9963
24.6008 -2.4649 -1.9841
24.7679 -0.2586 -1.9878
24.9369 1.9737 -2.0075
25.3660 4.3126 -2.0649
-47.8739 -12.0206 -3.9612
-36.6391 -12.7723 -3.1139
-25.3154 -11.4527 -2.2298
-20.8707 -11.7916 -1.9237
-20.2637 -13.9733 -1.9754
-20.4963 -17.0240 -2.1382
-28.8027 -28.6383 -3.2596
-24.3502 -28.9778 -3.0375
-20.4362 -29.2761 -2.8653
-11.0939 -19.3761 -1.7918
20.1295 -32.6069 -3.0752
21.2260 -28.3609 -2.8429
21.5566 -23.9952 -2.5886
22.9836 -21.3883 -2.5196
21.0875 -30.1284 -2.7234
21.4459 -25.4566 -2.4650
21.8585 -21.6791 -2.2799
26.1081 -21.6296 -2.5107
32.1122 -22.0841 -2.8861
24.1473 -8.3837 -1.8929
23.5707 -5.8869 -1.7991
23.7362 -3.7168 -1.7792
23.8993 -1.5773 -1.7737
24.0627 0.5660 -1.7824
24.2290 2.7482 -1.8058
-16.1051 46.9293 -3.6743
-43.0801 -12.3861 -3.3195
-28.8798 -11.1810 -2.2934
-23.4701 -11.5934 -1.9386
-20.1359 -12.2964 -1.7472
-20.3478 -15.0756 -1.8754
-20.5953 -18.3228 -2.0414
-27.0368 -28.7729 -2.9239
-22.8093 -29.0952 -2.7378
-19.0594 -29.3811 -2.5935
-18.5458 -35.1043 -2.9401
-12.4823 -39.3474 -3.0570
20.9795 -31.5358 -2.8050
21.3589 -26.6052 -2.5266
21.6675 -22.5306 -2.3149
24.7670 -21.5260 -2.4301
29.2279 -21.1355 -2.6711
26.7989 -15.9425 -2.3092
24.0991 -9.0109 -1.9053
23.5262 -6.4703 -1.8069
23.6928 -4.2861 -1.7830
23.8562 -2.1420 -1.7738
24.0193 -0.0030 -1.7787
24.1846 2.1654 -1.7981
27.3164 4.9346 -2.0556
25.1139 31.2665 -2.9699
19.9819 30.0198 -2.6706
-46.0339 -12.0647 -3.5242
-35.6646 -12.8466 -2.8072
-24.7314 -11.4972 -2.0197
-20.4346 -11.8248 -1.7484
-20.2888 -14.3015 -1.8382
-20.5257 -17.4092 -1.9931
-28.2557 -28.6800 -2.9815
-23.8744 -29.0140 -2.7825
-20.0123 -29.3085 -2.6281
-10.9073 -19.5143 -1.6555
20.8647 -33.0309 -2.8932
21.2674 -27.8136 -2.5929
21.5910 -23.5405 -2.3655
23.5088 -21.4289 -2.3557
28.7357 -21.8325 -2.6725
34.2370 -21.4793 -2.9931
24.0503 -9.6467 -1.9190
23.4813 -7.0592 -1.8158
23.6491 -4.8583 -1.7879
23.8131 -2.7070 -1.7748
23.9761 -0.5700 -1.7760
24.1405 1.5872 -1.7916
25.1373 3.9297 -1.8841
19.8623 34.5696 -2.9525
-18.0871 46.2595 -3.6783
-14.3336 13.3792 -1.4520
-9.4259 0.3356 -0.6985
-37.9692 -12.6709 -2.9642
-26.1036 -11.3926 -2.1092
-21.4548 -11.7470 -1.8114
-20.2320 -13.5570 -1.8035
-20.4592 -16.5372 -1.9482
-20.7284 -20.0676 -2.1366
-24.9756 -28.9301 -2.8303
-20.9918 -29.2338 -2.6652
-18.2278 -30.8742 -2.6551
20.1572 -33.6471 -2.9047
21.0327 -28.8978 -2.6468
21.5110 -24.5963 -2.4198
22.3542 -21.3656 -2.2900
16.6509 -13.2833 -1.5774
32.7235 -21.6244 -2.9047
24.0516 -10.3139 -1.9380
24.1845 -7.8987 -1.8841
23.6052 -5.4339 -1.7938
23.7700 -3.2731 -1.7769
23.9330 -1.1356 -1.7743
24.0968 1.0128 -1.7861
24.2641 3.2075 -1.8125
-16.8017 46.1615 -3.6379
-9.4769 0.5620 -0.7030
-40.8215 -12.5583 -3.1628
-27.6041 -11.2782 -2.2083
-22.5520 -11.6634 -1.8802
-20.1773 -12.8397 -1.7711
-20.3956 -15.7033 -1.9062
-20.6522 -19.0690 -2.0816
-26.1158 -28.8431 -2.8815
-21.9997 -29.1569 -2.7049
-18.3312 -29.4366 -2.5681
-18.7954 -37.2273 -3.0883
15.0987 -33.2131 -2.7018
19.9366 -35.1375 -2.9918
21.0645 -30.4283 -2.7406
21.4273 -25.7023 -2.4781
21.7807 -21.8259 -2.2835
25.8081 -21.6064 -2.4926
31.7175 -22.0544 -2.8609
23.6937 -8.3634 -1.8607
23.5610 -6.0137 -1.8007
23.7267 -3.8407 -1.7799
23.8899 -1.7005 -1.7736
24.0532 0.4417 -1.7816
24.2193 2.6206 -1.8040
-11.3105 13.8979 -1.3270
-43.7505 -12.3350 -3.3662
-29.2533 -11.1525 -2.3184
-23.7365 -11.5731 -1.9556
-20.1245 -12.1474 -1.7408
-20.3347 -14.9042 -1.8671
-20.5799 -18.1199 -2.0306
-27.2987 -28.7530 -2.9361
-23.0387 -29.0777 -2.7473
-19.2651 -29.3654 -2.6009
-18.5986 -34.7690 -2.9200
20.9551 -31.8540 -2.8236
21.3394 -26.8635 -2.5407
21.6511 -22.7471 -2.3256
24.4859 -21.5043 -2.4133
29.2113 -21.3538 -2.6796
26.4257 -15.9056 -2.2841
24.0886 -9.1488 -1.9082
23.5165 -6.5983 -1.8088
23.6833 -4.4107 -1.7840
23.8468 -2.2652 -1.7739
24.0099 -0.1268 -1.7781
24.1750 2.0389 -1.7966
27.3051 4.7873 -2.0529
33.3733 8.9847 -2.5595
25.2896 31.1548 -2.9716
20.1562 29.9457 -2.6732
-47.0844 -12.0808 -3.5998
-36.1463 -12.8099 -2.8399
-25.0207 -11.4752 -2.0385
-20.6510 -11.8083 -1.7617
-20.2762 -14.1367 -1.8305
-20.5109 -17.2156 -1.9831
-28.5279 -28.6592 -2.9946
-24.1113 -28.9960 -2.7927
-20.2237 -29.2923 -2.6360
-10.9724 -19.3952 -1.6502
20.7758 -33.2687 -2.9047
21.2468 -28.0855 -2.6080
21.5050 -23.6909 -2.3694
23.2444 -21.4084 -2.3402
28.3959 -21.8062 -2.6514
33.7948 -21.4456 -2.9641
24.0396 -9.7866 -1.9221
23.4715 -7.1884 -1.8179
23.6396 -4.9835 -1.7891
23.8037 -2.8304 -1.7752
23.9667 -0.6935 -1.7756
24.1310 1.4616 -1.7903
25.1112 3.7931 -1.8807
-6.7063 35.1133 -2.6473
-17.8042 46.2379 -3.6692
-14.3441 13.5279 -1.4601
-9.4017 0.3833 -0.6968
-38.5067 -12.6300 -3.0011
-26.4194 -11.3685 -2.1299
-21.6872 -11.7293 -1.8259
-20.2199 -13.3984 -1.7963
-20.4451 -16.3523 -1.9388
-20.7114 -19.8455 -2.1242
-25.2206 -28.9114 -2.8412
-21.2091 -29.2172 -2.6737
-18.1912 -30.4522 -2.6269
-18.6265 -38.6526 -3.1774
21.0153 -44.0478 -3.6142
20.0356 -33.8387 -2.9122
20.7925 -28.8795 -2.6353
21.4931 -24.8331 -2.4322
22.1448 -21.3851 -2.2798
26.9044 -21.6911 -2.5593
32.6115 -21.7929 -2.9047
24.0831 -10.4747 -1.9449
24.1742 -8.0335 -1.8865
23.5956 -5.5600 -1.7952
23.7606 -3.3968 -1.7775
23.9236 -1.2589 -1.7741
24.0872 0.8880 -1.7850
24.2543 3.0790 -1.8106
-16.5250 46.1404 -3.6294
-41.4298 -12.5119 -3.2049
-27.9504 -11.2518 -2.2313
-22.8025 -11.6443 -1.8961
-20.1656 -12.6867 -1.7643
-20.3821 -15.5262 -1.8974
-20.6361 -18.8580 -2.0702
-26.3701 -28.8238 -2.8931
-22.2236 -29.1399 -2.7139
-18.5329 -29.4212 -2.5750
-18.7531 -36.6721 -3.0502
19.9080 -35.5125 -3.0149
21.0412 -30.7320 -2.7582
21.4085 -25.9507 -2.4913
21.7444 -22.0155 -2.2915
25.5123 -21.5836 -2.4747
31.3295 -22.0252 -2.8361
23.5004 -8.4316 -1.8489
23.5514 -6.1407 -1.8024
23.7173 -3.9649 -1.7807
23.8805 -1.8236 -1.7736
24.0437 0.3175 -1.7807
24.2096 2.4933 -1.8023
17.2835 8.5698 -1.4286
-23.8571 35.7443 -3.1825
-11.2106 13.9212 -1.3236
-44.4404 -12.2824 -3.4144
-34.4693 -12.9378 -2.7265
-24.0076 -11.5524 -1.9730
-20.1133 -11.9996 -1.7344
-20.3217 -14.7342 -1.8589
-20.5645 -17.9190 -2.0199
-27.5627 -28.7328 -2.9485
-23.2697 -29.0601 -2.7570
-19.4720 -29.3497 -2.6083
-18.5717 -34.2922 -2.8880
20.9303 -32.1764 -2.8426
21.3196 -27.1247 -2.5549
21.6345 -22.9658 -2.3365
23.9191 -21.2261 -2.3682
29.1945 -21.5734 -2.6882
25.9337 -15.7922 -2.2486
24.0779 -9.2871 -1.9111
23.5067 -6.7265 -1.8107
23.6738 -4.5354 -1.7850
23.8374 -2.3884 -1.7741
24.0004 -0.2506 -1.7774
24.1654 1.9126 -1.7952
25.3660 4.3126 -1.9054
-47.8739 -12.0206 -3.6553
-36.6391 -12.7723 -2.8734
-25.3154 -11.4527 -2.0576
-20.8707 -11.7916 -1.7752
-20.2637 -13.9733 -1.8228
-20.4963 -17.0240 -1.9731
-28.8028 -28.6383 -3.0079
-24.3501 -28.9778 -2.8030
-20.4362 -29.2761 -2.6440
-11.0935 -19.3755 -1.6534
20.6040 -33.3754 -2.9047
21.2260 -28.3609 -2.6233
21.2900 -23.6985 -2.3592
22.9836 -21.3883 -2.3250
21.0875 -30.1284 -2.4957
21.4459 -25.4565 -2.2589
21.8585 -21.6791 -2.0893
26.1081 -21.6296 -2.3008
32.1122 -22.0841 -2.6449
23.3070 -10.5088 -1.7350
23.4001 -8.1243 -1.6810
23.5707 -5.8869 -1.6487
23.7362 -3.7168 -1.6305
23.8993 -1.5773 -1.6254
24.0627 0.5660 -1.6334
24.2290 2.7482 -1.6548
-16.1051 46.9293 -3.3671
-43.0800 -12.3861 -3.0420
-28.8798 -11.1810 -2.1017
-23.4701 -11.5934 -1.7765
-20.1359 -12.2964 -1.6012
-20.3478 -15.0756 -1.7186
-20.5953 -18.3228 -1.8707
-27.0368 -28.7729 -2.6794
-22.8093 -29.0952 -2.5089
-19.0594 -29.3811 -2.3767
-18.5458 -35.1043 -2.6943
-12.4820 -39.3464 -2.8013
20.9795 -31.5357 -2.5705
21.3589 -26.6052 -2.3154
21.6675 -22.5305 -2.1213
23.9633 -20.8274 -2.1546
29.2279 -21.1355 -2.4478
26.9080 -16.0074 -2.1248
23.9099 -11.4684 -1.7996
23.3538 -8.7322 -1.6920
23.5262 -6.4704 -1.6559
23.6928 -4.2861 -1.6340
23.8562 -2.1420 -1.6255
24.0193 -0.0030 -1.6300
24.1846 2.1654 -1.6478
24.5183 4.4291 -1.6908
25.1132 31.2657 -2.7215
19.9819 30.0198 -2.4473
-46.3181 -12.1392 -3.2495
-35.6646 -12.8466 -2.5726
-24.7313 -11.4972 -1.8509
-20.4346 -11.8248 -1.6022
-20.2888 -14.3015 -1.6846
-20.5257 -17.4092 -1.8265
-28.2556 -28.6800 -2.7322
-23.8744 -29.0140 -2.5499
-20.0124 -29.3085 -2.4084
-10.9069 -19.5137 -1.5171
20.8647 -33.0308 -2.6514
21.2674 -27.8136 -2.3761
21.5910 -23.5405 -2.1677
23.5088 -21.4289 -2.1587
28.7357 -21.8325 -2.4491
35.6221 -22.3483 -2.8538
23.3068 -9.3485 -1.7042
23.4813 -7.0592 -1.6640
23.6491 -4.8583 -1.6384
23.8131 -2.7070 -1.6265
23.9761 -0.5700 -1.6276
24.1405 1.5872 -1.6418
24.3393 3.8049 -1.6718
19.8618 34.5688 -2.7056
-18.0871 46.2595 -3.3708
-14.3333 13.3788 -1.3306
-9.4256 0.3356 -0.6401
-37.9692 -12.6709 -2.7164
-26.1037 -11.3926 -1.9329
-21.4548 -11.7470 -1.6600
-20.2320 -13.5570 -1.6528
-20.4592 -16.5372 -1.7853
-20.7284 -20.0676 -1.9579
-24.9756 -28.9301 -2.5937
-20.9918 -29.2338 -2.4424
-18.2278 -30.8742 -2.4331
21.3396 -44.1405 -3.3273
20.7424 -34.6241 -2.7391
21.0327 -28.8978 -2.4256
21.5110 -24.5963 -2.2175
22.3542 -21.3656 -2.0985
16.6505 -13.2830 -1.4455
33.5871 -22.1951 -2.7321
23.2767 -9.9816 -1.7188
23.4360 -7.6543 -1.6731
23.6052 -5.4339 -1.6438
23.7700 -3.2731 -1.6283
23.9330 -1.1356 -1.6260
24.0968 1.0128 -1.6367
24.2641 3.2075 -1.6610
-16.8017 46.1615 -3.3337
-9.4763 0.5620 -0.6442
-40.8215 -12.5583 -2.8984
-27.6041 -11.2782 -2.0236
-22.5520 -11.6634 -1.7230
-20.1773 -12.8397 -1.6230
-20.3956 -15.7033 -1.7469
-20.6522 -19.0690 -1.9076
-26.1158 -28.8431 -2.6406
-21.9997 -29.1569 -2.4788
-18.3312 -29.4366 -2.3534
-18.7954 -37.2273 -2.8301
15.0982 -33.2121 -2.4759
21.1218 -37.2264 -2.9047
21.0645 -30.4283 -2.5115
21.4273 -25.7023 -2.2709
21.7807 -21.8259 -2.0925
25.8081 -21.6064 -2.2842
31.7175 -22.0544 -2.6217
23.3508 -10.6738 -1.7424
23.3901 -8.2562 -1.6833
23.5610 -6.0137 -1.6502
23.7267 -3.8407 -1.6311
23.8899 -1.7005 -1.6254
24.0532 0.4417 -1.6326
24.2193 2.6206 -1.6532
24.9866 4.9924 -1.7292
-11.3105 13.8979 -1.2160
-43.7505 -12.3350 -3.0848
-29.2533 -11.1525 -2.1246
-23.7365 -11.5731 -1.7921
-20.1245 -12.1474 -1.5952
-20.3347 -14.9042 -1.7110
-20.5799 -18.1199 -1.8608
-27.2987 -28.7530 -2.6907
-23.0387 -29.0777 -2.5176
-19.2651 -29.3654 -2.3834
-18.5986 -34.7689 -2.6759
20.9551 -31.8540 -2.5876
21.3394 -26.8635 -2.3283
21.6511 -22.7471 -2.1312
23.9348 -21.0203 -2.1618
29.2113 -21.3538 -2.4556
26.4257 -15.9056 -2.0931
23.3436 -8.8658 -1.6946
23.5165 -6.5983 -1.6575
23.6833 -4.4107 -1.6349
23.8468 -2.2652 -1.6256
24.0099 -0.1268 -1.6294
24.1750 2.0389 -1.6464
24.4421 4.2853 -1.6840
33.3726 8.9845 -2.3454
25.2885 31.1534 -2.7230
20.1562 29.9457 -2.4497
-47.0844 -12.0808 -3.2988
-36.1463 -12.8099 -2.6025
-25.0207 -11.4752 -1.8681
-20.6510 -11.8083 -1.6144
-20.2762 -14.1367 -1.6774
-20.5109 -17.2156 -1.8173
-28.5279 -28.6593 -2.7442
-24.1113 -28.9960 -2.5592
-20.2237 -29.2923 -2.4156
-10.9722 -19.3948 -1.5122
20.8387 -33.3695 -2.6699
21.2468 -28.0855 -2.3899
21.5050 -23.6909 -2.1714
23.2444 -21.4084 -2.1446
28.3959 -21.8062 -2.4297
35.1629 -22.3137 -2.8262
23.2965 -9.4841 -1.7070
23.4715 -7.1884 -1.6659
23.6396 -4.9835 -1.6395
23.8037 -2.8304 -1.6268
23.9667 -0.6935 -1.6271
24.1310 1.4616 -1.6406
24.3111 3.6722 -1.6686
-6.7063 35.1133 -2.4260
-17.8042 46.2379 -3.3625
-14.3433 13.5273 -1.3380
-9.4015 0.3833 -0.6385
-38.5067 -12.6300 -2.7502
-26.4194 -11.3685 -1.9519
-21.6872 -11.7293 -1.6732
-20.2199 -13.3984 -1.6461
-20.4451 -16.3523 -1.7767
-20.7114 -19.8455 -1.9466
-25.2206 -28.9114 -2.6037
-21.2091 -29.2172 -2.4501
-18.1912 -30.4522 -2.4073
-18.6265 -38.6526 -2.9118
21.1498 -44.3298 -3.3333
20.7147 -34.9856 -2.7592
20.7925 -28.8795 -2.4150
21.4931 -24.8331 -2.2288
22.1448 -21.3851 -2.0892
26.9044 -21.6911 -2.3453
33.1659 -22.1634 -2.7071
23.2851 -10.1276 -1.7232
23.4260 -7.7849 -1.6753
23.5956 -5.5600 -1.6451
23.7606 -3.3968 -1.6289
23.9236 -1.2589 -1.6258
24.0872 0.8880 -1.6358
24.2543 3.0790 -1.6592
-16.5250 46.1404 -3.3260
-41.4298 -12.5119 -2.9370
-27.9504 -11.2518 -2.0447
-22.8025 -11.6443 -1.7376
-20.1656 -12.6867 -1.6168
-20.3821 -15.5262 -1.7388
-20.6361 -18.8580 -1.8971
-26.3701 -28.8238 -2.6512
-22.2236 -29.1399 -2.4870
-18.5329 -29.4212 -2.3598
-18.7531 -36.6721 -2.7952
20.9296 -37.3348 -2.9047
21.0412 -30.7320 -2.5276
21.4085 -25.9507 -2.2831
21.7444 -22.0155 -2.0999
25.5123 -21.5836 -2.2678
31.3295 -22.0252 -2.5990
23.4114 -10.8478 -1.7511
23.3800 -8.3884 -1.6857
23.5514 -6.1407 -1.6517
23.7173 -3.9649 -1.6319
23.8805 -1.8236 -1.6253
24.0437 0.3175 -1.6318
24.2096 2.4933 -1.6516
24.7951 4.8213 -1.7142
17.2835 8.5698 -1.3092
-23.8565 35.7434 -2.9163
-11.2106 13.9212 -1.2130
-44.4403 -12.2824 -3.1290
-34.4693 -12.9378 -2.4986
-24.0076 -11.5524 -1.8081
-20.1133 -11.9996 -1.5894
-20.3217 -14.7342 -1.7035
-20.5645 -17.9190 -1.8511
-27.5627 -28.7328 -2.7020
-23.2697 -29.0601 -2.5265
-19.4720 -29.3496 -2.3903
-18.5717 -34.2922 -2.6466
20.9303 -32.1764 -2.6049
21.3196 -27.1247 -2.3413
21.6345 -22.9658 -2.1412
23.9191 -21.2261 -2.1702
29.1945 -21.5734 -2.4635
36.5567 -22.2610 -2.9047
33.2797 -16.3869 -2.5174
23.3334 -8.9999 -1.6972
23.5067 -6.7265 -1.6593
23.6738 -4.5354 -1.6358
23.8374 -2.3884 -1.6258
24.0004 -0.2506 -1.6288
24.1653 1.9126 -1.6451
24.4128 4.1506 -1.6805
-47.8739 -12.0206 -3.3497
-36.6391 -12.7723 -2.6332
-25.3154 -11.4527 -1.8856
-20.8707 -11.7916 -1.6268
-20.2637 -13.9733 -1.6704
-20.4963 -17.0240 -1.8082
-28.8028 -28.6383 -2.7564
-24.3502 -28.9778 -2.5687
-20.4362 -29.2761 -2.4230
-11.0931 -19.3748 -1.5151
20.8124 -33.7130 -2.6887
21.2260 -28.3609 -2.4040
21.2669 -23.6728 -2.1596
22.9836 -21.3883 -2.1307
21.0875 -30.1284 -2.2682
21.4459 -25.4565 -2.0530
21.8585 -21.6791 -1.8988
26.1081 -21.6296 -2.0911
32.1122 -22.0841 -2.4038
23.3070 -10.5088 -1.5769
23.4001 -8.1243 -1.5278
23.5707 -5.8869 -1.4984
23.7362 -3.7168 -1.4818
23.8993 -1.5773 -1.4773
24.0627 0.5660 -1.4845
24.2290 2.7482 -1.5040
-16.1051 46.9293 -3.0602
-43.0800 -12.3861 -2.7647
-28.8798 -11.1810 -1.9101
-23.4701 -11.5934 -1.6146
-20.1359 -12.2964 -1.4552
-20.3478 -15.0756 -1.5619
-20.5953 -18.3228 -1.7002
-27.0368 -28.7729 -2.4352
-22.8093 -29.0952 -2.2802
-19.0594 -29.3811 -2.1601
-18.5458 -35.1043 -2.4487
-12.4817 -39.3455 -2.5459
20.9795 -31.5357 -2.3362
21.3589 -26.6052 -2.1043
21.6675 -22.5306 -1.9280
23.9633 -20.8274 -1.9582
29.2279 -21.1355 -2.2247
23.9099 -11.4684 -1.6356
23.3538 -8.7322 -1.5378
23.5262 -6.4704 -1.5049
23.6928 -4.2861 -1.4850
23.8562 -2.1420 -1.4773
24.0193 -0.0030 -1.4815
24.1846 2.1654 -1.4976
24.5183 4.4291 -1.5367
25.1125 31.2648 -2.4734
19.9819 30.0198 -2.2242
-46.3181 -12.1392 -2.9533
-35.6646 -12.8466 -2.3381
-24.7314 -11.4972 -1.6822
-20.4346 -11.8248 -1.4562
-20.2888 -14.3015 -1.5310
-20.5257 -17.4092 -1.6600
-28.2557 -28.6800 -2.4832
-23.8744 -29.0140 -2.3175
-20.0123 -29.3085 -2.1889
-10.9066 -19.5130 -1.3788
20.8647 -33.0309 -2.4097
21.2674 -27.8136 -2.1595
21.5910 -23.5405 -1.9702
23.5088 -21.4289 -1.9620
28.7357 -21.8325 -2.2259
35.6221 -22.3483 -2.5937
23.3068 -9.3485 -1.5488
23.4813 -7.0592 -1.5123
23.6491 -4.8583 -1.4891
23.8132 -2.7070 -1.4782
23.9761 -0.5700 -1.4792
24.1405 1.5872 -1.4921
24.3393 3.8049 -1.5194
19.8613 34.5680 -2.4589
-18.0871 46.2595 -3.0635
-14.3330 13.3785 -1.2093
-9.4254 0.3356 -0.5817
-37.9692 -12.6709 -2.4688
-26.1037 -11.3926 -1.7567
-21.4548 -11.7470 -1.5087
-20.2320 -13.5570 -1.5021
-20.4592 -16.5372 -1.6226
-20.7284 -20.0676 -1.7795
-24.9756 -28.9301 -2.3573
-20.9918 -29.2338 -2.2198
-18.2278 -30.8742 -2.2114
21.4187 -44.3042 -3.0352
20.7424 -34.6241 -2.4894
21.0327 -28.8978 -2.2045
21.5110 -24.5963 -2.0154
22.3542 -21.3656 -1.9072
16.6501 -13.2827 -1.3137
33.5871 -22.1951 -2.4830
23.2767 -9.9816 -1.5621
23.4360 -7.6543 -1.5206
23.6052 -5.4339 -1.4940
23.7700 -3.2731 -1.4799
23.9330 -1.1356 -1.4778
24.0968 1.0128 -1.4875
24.2641 3.2075 -1.5096
-16.8017 46.1615 -3.0299
-9.4757 0.5620 -0.5855
-40.8215 -12.5583 -2.6342
-27.6041 -11.2782 -1.8392
-22.5520 -11.6634 -1.5660
-20.1773 -12.8397 -1.4751
-20.3956 -15.7033 -1.5876
-20.6522 -19.0690 -1.7337
-26.1158 -28.8431 -2.3999
-21.9997 -29.1569 -2.2528
-18.3312 -29.4366 -2.1389
-18.7954 -37.2273 -2.5721
15.0978 -33.2111 -2.2501
21.0645 -30.4283 -2.2826
21.4273 -25.7023 -2.0639
21.7807 -21.8259 -1.9018
25.8081 -21.6064 -2.0760
31.7175 -22.0544 -2.3827
23.3508 -10.6738 -1.5836
23.3901 -8.2562 -1.5299
23.5610 -6.0137 -1.4998
23.7267 -3.8407 -1.4825
23.8899 -1.7005 -1.4772
24.0532 0.4417 -1.4838
24.2193 2.6206 -1.5025
24.9866 4.9924 -1.5716
-11.3105 13.8979 -1.1052
-43.7505 -12.3350 -2.8036
-29.2533 -11.1525 -1.9310
-23.7365 -11.5731 -1.6288
-20.1245 -12.1474 -1.4498
-20.3347 -14.9042 -1.5550
-20.5799 -18.1199 -1.6912
-27.2987 -28.7530 -2.4454
-23.0387 -29.0777 -2.2882
-19.2651 -29.3654 -2.1662
-18.5986 -34.7690 -2.4320
20.9551 -31.8539 -2.3517
21.3394 -26.8635 -2.1160
21.6511 -22.7471 -1.9369
23.9348 -21.0203 -1.9647
29.2113 -21.3538 -2.2318
26.4257 -15.9056 -1.9023
34.0039 -16.5262 -2.3319
23.3436 -8.8658 -1.5401
23.5165 -6.5983 -1.5065
23.6833 -4.4107 -1.4858
23.8468 -2.2652 -1.4774
24.0099 -0.1268 -1.4809
24.1750 2.0389 -1.4964
24.4421 4.2853 -1.5305
33.3718 8.9843 -2.1316
25.2874 31.1521 -2.4747
20.1562 29.9457 -2.2264
-47.0845 -12.0808 -2.9981
-36.1463 -12.8099 -2.3653
-25.0207 -11.4752 -1.6978
-20.6510 -11.8083 -1.4672
-20.2762 -14.1367 -1.5245
-20.5109 -17.2156 -1.6516
-28.5279 -28.6592 -2.4941
-24.1113 -28.9960 -2.3259
-20.2237 -29.2923 -2.1955
-10.9719 -19.3943 -1.3744
20.8387 -33.3695 -2.4265
21.2468 -28.0855 -2.1721
21.5050 -23.6909 -1.9734
23.2444 -21.4084 -1.9491
28.3959 -21.8062 -2.2082
35.1629 -22.3137 -2.5686
23.2965 -9.4841 -1.5514
23.4715 -7.1884 -1.5140
23.6396 -4.9835 -1.4901
23.8037 -2.8304 -1.4785
23.9667 -0.6935 -1.4788
24.1310 1.4616 -1.4911
24.3111 3.6722 -1.5165
-6.7063 35.1133 -2.2049
-17.8042 46.2379 -3.0560
-14.3426 13.5266 -1.2160
-9.4012 0.3833 -0.5803
-38.5068 -12.6300 -2.4995
-26.4194 -11.3685 -1.7740
-21.6872 -11.7293 -1.5207
-20.2199 -13.3984 -1.4961
-20.4451 -16.3523 -1.6147
-20.7114 -19.8455 -1.7692
-25.2206 -28.9114 -2.3663
-21.2091 -29.2172 -2.2268
-18.1912 -30.4522 -2.1878
-18.6265 -38.6526 -2.6464
21.2287 -44.4951 -3.0407
20.7147 -34.9857 -2.5077
20.7925 -28.8795 -2.1949
21.4931 -24.8331 -2.0257
22.1448 -21.3851 -1.8988
26.9044 -21.6911 -2.1316
33.1659 -22.1634 -2.4603
23.2851 -10.1276 -1.5661
23.4260 -7.7849 -1.5226
23.5956 -5.5600 -1.4952
23.7606 -3.3967 -1.4804
23.9236 -1.2589 -1.4776
24.0872 0.8880 -1.4867
24.2543 3.0790 -1.5080
-16.5250 46.1404 -3.0229
-41.4298 -12.5119 -2.6693
-27.9504 -11.2518 -1.8584
-22.8025 -11.6443 -1.5792
-20.1656 -12.6867 -1.4694
-20.3821 -15.5262 -1.5803
-20.6361 -18.8580 -1.7242
-26.3701 -28.8238 -2.4095
-22.2236 -29.1399 -2.2603
-18.5329 -29.4212 -2.1447
-18.7531 -36.6721 -2.5404
21.0412 -30.7320 -2.2972
21.4085 -25.9507 -2.0750
21.7444 -22.0155 -1.9085
25.5123 -21.5836 -2.0611
31.3295 -22.0252 -2.3621
23.4114 -10.8477 -1.5914
23.3800 -8.3884 -1.5320
23.5514 -6.1407 -1.5012
23.7173 -3.9649 -1.4831
23.8805 -1.8236 -1.4772
24.0437 0.3175 -1.4831
24.2096 2.4933 -1.5011
24.7951 4.8213 -1.5580
17.2835 8.5698 -1.1899
-23.8560 35.7426 -2.6504
-11.2106 13.9212 -1.1024
-44.4404 -12.2824 -2.8437
-34.4693 -12.9378 -2.2708
-24.0076 -11.5524 -1.6433
-20.1133 -11.9996 -1.4445
-20.3217 -14.7342 -1.5482
-20.5645 -17.9190 -1.6823
-27.5627 -28.7328 -2.4557
-23.2697 -29.0601 -2.2962
-19.4720 -29.3497 -2.1724
-18.5717 -34.2922 -2.4053
20.9303 -32.1764 -2.3675
21.3196 -27.1247 -2.1279
21.6345 -22.9658 -1.9460
23.9191 -21.2261 -1.9724
29.1945 -21.5734 -2.2389
33.2287 -16.3618 -2.2845
23.3334 -8.9999 -1.5425
23.5067 -6.7265 -1.5080
23.6738 -4.5354 -1.4867
23.8374 -2.3884 -1.4776
24.0004 -0.2506 -1.4804
24.1654 1.9126 -1.4951
24.4128 4.1506 -1.5273
-47.8739 -12.0206 -3.0444
-36.6391 -12.7723 -2.3932
-25.3154 -11.4527 -1.7137
-20.8707 -11.7916 -1.4785
-20.2637 -13.9733 -1.5182
-20.4963 -17.0240 -1.6434
-28.8028 -28.6383 -2.5052
-24.3501 -28.9778 -2.3345
-20.4362 -29.2761 -2.2021
-11.0927 -19.3741 -1.3770
21.9068 -43.8134 -3.0213
20.8124 -33.7130 -2.4437
21.2260 -28.3609 -2.1849
21.2669 -23.6728 -1.9628
22.9836 -21.3883 -1.9364
21.0875 -30.1284 -2.0409
20.7426 -24.6217 -1.7867
21.3054 -21.1306 -1.6653
25.0901 -20.7862 -1.8082
32.1122 -22.0841 -2.1629
23.3070 -10.5088 -1.4189
23.4001 -8.1243 -1.3747
23.5707 -5.8869 -1.3483
23.7362 -3.7168 -1.3333
23.8993 -1.5773 -1.3292
24.0627 0.5660 -1.3358
24.2290 2.7482 -1.3533
-15.8158 46.0864 -2.7041
-43.0801 -12.3861 -2.4877
-28.8798 -11.1810 -1.7187
-23.4701 -11.5934 -1.4528
-20.1359 -12.2964 -1.3094
-20.3478 -15.0756 -1.4054
-20.5953 -18.3228 -1.5298
-27.0368 -28.7729 -2.1912
-22.8093 -29.0952 -2.0517
-19.0594 -29.3811 -1.9436
-18.5458 -35.1043 -2.2033
-12.4814 -39.3446 -2.2907
20.9795 -31.5357 -2.1020
21.3589 -26.6052 -1.8934
21.0075 -21.8443 -1.6819
23.8030 -20.6881 -1.7502
29.2279 -21.1355 -2.0017
23.9099 -11.4684 -1.4717
23.3538 -8.7322 -1.3837
23.5262 -6.4704 -1.3541
23.6928 -4.2861 -1.3362
23.8562 -2.1420 -1.3293
24.0193 -0.0030 -1.3330
24.1846 2.1654 -1.3475
24.5183 4.4291 -1.3827
25.1118 31.2639 -2.2254
19.9819 30.0198 -2.0013
-14.6793 46.3135 -2.6963
-46.3182 -12.1392 -2.6573
-35.6646 -12.8466 -2.1038
-24.7314 -11.4972 -1.5136
-20.4346 -11.8248 -1.3102
-20.2888 -14.3015 -1.3776
-20.5257 -17.4092 -1.4937
-28.2557 -28.6800 -2.2343
-23.8744 -29.0140 -2.0852
-20.0123 -29.3085 -1.9695
-10.9062 -19.5124 -1.2406
20.8647 -33.0309 -2.1682
21.2674 -27.8136 -1.9431
20.8838 -22.7694 -1.7146
22.5951 -20.5960 -1.6967
28.7357 -21.8325 -2.0028
35.6221 -22.3483 -2.3338
23.3068 -9.3485 -1.3936
23.4813 -7.0592 -1.3608
23.6491 -4.8583 -1.3399
23.8131 -2.7070 -1.3301
23.9761 -0.5700 -1.3310
24.1405 1.5872 -1.3426
24.3393 3.8049 -1.3672
19.8609 34.5672 -2.2125
-18.0871 46.2595 -2.7565
-14.3326 13.3782 -1.0881
-9.4251 0.3356 -0.5234
-37.9692 -12.6709 -2.2214
-26.1036 -11.3926 -1.5806
-21.4548 -11.7470 -1.3575
-20.2320 -13.5570 -1.3516
-20.4592 -16.5372 -1.4600
-20.7284 -20.0676 -1.6011
-24.9756 -28.9301 -2.1211
-20.9918 -29.2338 -1.9973
-18.2278 -30.8741 -1.9898
21.5171 -44.5077 -2.7435
20.4849 -34.1942 -2.2121
21.0327 -28.8978 -1.9835
20.8060 -23.7901 -1.7540
21.7297 -20.7688 -1.6682
16.6497 -13.2824 -1.1820
33.5871 -22.1951 -2.2342
23.2767 -9.9816 -1.4055
23.4360 -7.6543 -1.3682
23.6052 -5.4339 -1.3443
23.7700 -3.2731 -1.3316
23.9330 -1.1356 -1.3297
24.0968 1.0128 -1.3385
24.2641 3.2075 -1.3583
-16.8017 46.1615 -2.7262
-9.4752 0.5619 -0.5268
-40.8215 -12.5583 -2.3702
-27.6041 -11.2782 -1.6549
-22.5520 -11.6634 -1.4090
-20.1773 -12.8397 -1.3273
-20.3956 -15.7033 -1.4285
-20.6522 -19.0690 -1.5600
-26.1158 -28.8431 -2.1594
-21.9997 -29.1569 -2.0271
-18.3312 -29.4366 -1.9245
-18.7954 -37.2273 -2.3144
15.0973 -33.2101 -2.0246
21.0645 -30.4283 -2.0538
20.7244 -24.8592 -1.7961
21.2187 -21.2627 -1.6671
24.8022 -20.7643 -1.7951
31.7175 -22.0544 -2.1439
23.3508 -10.6738 -1.4249
23.3901 -8.2562 -1.3766
23.5610 -6.0137 -1.3495
23.7267 -3.8407 -1.3339
23.8899 -1.7005 -1.3292
24.0532 0.4417 -1.3351
24.2193 2.6206 -1.3519
24.9866 4.9924 -1.4141
-15.5436 46.0656 -2.6981
-11.3105 13.8979 -0.9944
-43.7505 -12.3350 -2.5227
-29.2533 -11.1525 -1.7374
-23.7365 -11.5731 -1.4655
-20.1245 -12.1474 -1.3045
-20.3347 -14.9042 -1.3992
-20.5799 -18.1199 -1.5217
-27.2987 -28.7530 -2.2003
-23.0387 -29.0777 -2.0588
-19.2650 -29.3654 -1.9491
-18.5986 -34.7690 -2.1883
19.5415 -45.8327 -2.7651
20.9551 -31.8539 -2.1160
21.3394 -26.8635 -1.9040
20.9681 -22.0296 -1.6878
23.5331 -20.6675 -1.7382
29.2113 -21.3538 -2.0081
26.4257 -15.9056 -1.7117
23.3436 -8.8658 -1.3858
23.5165 -6.5983 -1.3555
23.6833 -4.4107 -1.3369
23.8468 -2.2652 -1.3294
24.0099 -0.1268 -1.3325
24.1750 2.0389 -1.3464
24.4421 4.2853 -1.3771
33.3710 8.9841 -1.9179
25.2863 31.1507 -2.2266
20.1562 29.9457 -2.0033
-14.6277 46.9906 -2.7312
-47.0844 -12.0808 -2.6977
-36.1463 -12.8099 -2.1282
-25.0207 -11.4752 -1.5276
-20.6510 -11.8083 -1.3202
-20.2762 -14.1367 -1.3718
-20.5109 -17.2156 -1.4861
-28.5279 -28.6592 -2.2442
-24.1113 -28.9960 -2.0928
-20.2237 -29.2923 -1.9754
-10.9716 -19.3939 -1.2366
20.8387 -33.3695 -2.1833
21.2468 -28.0855 -1.9544
20.8671 -22.9882 -1.7230
22.3774 -20.6099 -1.6883
28.3959 -21.8062 -1.9869
34.5934 -21.9523 -2.2737
23.2965 -9.4841 -1.3959
23.4715 -7.1884 -1.3623
23.6396 -4.9835 -1.3408
23.8037 -2.8304 -1.3303
23.9667 -0.6935 -1.3306
24.1310 1.4616 -1.3416
24.3111 3.6722 -1.3645
-6.7063 35.1133 -1.9839
-17.8042 46.2379 -2.7497
-14.3419 13.5259 -1.0941
-9.4010 0.3833 -0.5222
-38.5067 -12.6300 -2.2490
-26.4194 -11.3685 -1.5962
-21.6872 -11.7293 -1.3683
-20.2199 -13.3984 -1.3461
-20.4451 -16.3523 -1.4529
-20.7114 -19.8455 -1.5919
-25.2206 -28.9114 -2.1292
-21.2091 -29.2172 -2.0036
-18.1912 -30.4522 -1.9686
-18.6265 -38.6526 -2.3812
21.3049 -44.6549 -2.7458
20.2348 -34.1751 -2.2041
20.7925 -28.8795 -1.9749
20.7885 -24.0190 -1.7629
21.5912 -20.8506 -1.6658
26.9044 -21.6911 -1.9179
33.1659 -22.1634 -2.2138
23.2851 -10.1276 -1.4092
23.4260 -7.7849 -1.3700
23.5956 -5.5600 -1.3453
23.7606 -3.3968 -1.3320
23.9235 -1.2589 -1.3295
24.0872 0.8880 -1.3377
24.2543 3.0790 -1.3568
-16.5250 46.1404 -2.7199
-41.4298 -12.5119 -2.4018
-27.9504 -11.2518 -1.6721
-22.8025 -11.6443 -1.4209
-20.1656 -12.6867 -1.3222
-20.3821 -15.5262 -1.4219
-20.6361 -18.8580 -1.5514
-26.3701 -28.8238 -2.1681
-22.2236 -29.1399 -2.0338
-18.5329 -29.4212 -1.9297
-18.7531 -36.6721 -2.2859
21.0412 -30.7320 -2.0670
20.7061 -25.0994 -1.8058
21.1426 -21.4062 -1.6697
24.5183 -20.7426 -1.7823
31.3295 -22.0252 -2.1254
23.4114 -10.8478 -1.4320
23.3800 -8.3884 -1.3785
23.5514 -6.1407 -1.3507
23.7173 -3.9649 -1.3345
23.8805 -1.8236 -1.3291
24.0437 0.3175 -1.3345
24.2096 2.4933 -1.3507
24.7951 4.8213 -1.4018
17.2835 8.5698 -1.0706
-15.2726 46.0449 -2.6922
-23.8554 35.7417 -2.3848
-11.2106 13.9212 -0.9919
-44.4404 -12.2824 -2.5588
-34.4693 -12.9378 -2.0432
-24.0076 -11.5524 -1.4786
-20.1133 -11.9996 -1.2998
-20.3217 -14.7342 -1.3930
-20.5645 -17.9190 -1.5137
-27.5627 -28.7328 -2.2096
-23.2697 -29.0601 -2.0661
-19.4720 -29.3497 -1.9547
-18.5717 -34.2922 -2.1643
19.2371 -45.7713 -2.7554
20.9303 -32.1764 -2.1302
21.3196 -27.1247 -1.9147
20.9284 -22.2162 -1.6938
23.2668 -20.6472 -1.7263
29.1945 -21.5734 -2.0146
23.3334 -8.9999 -1.3879
23.5067 -6.7265 -1.3569
23.6738 -4.5354 -1.3377
23.8374 -2.3884 -1.3295
24.0004 -0.2506 -1.3320
24.1654 1.9126 -1.3453
24.4128 4.1506 -1.3743
-47.8739 -12.0206 -2.7393
-36.6391 -12.7723 -2.1534
-25.3154 -11.4527 -1.5420
-20.8707 -11.7916 -1.3303
-20.2637 -13.9733 -1.3660
-20.4963 -17.0240 -1.4787
-28.8028 -28.6383 -2.2541
-24.3502 -28.9778 -2.1006
-20.4362 -29.2761 -1.9814
-11.0923 -19.3734 -1.2389
20.8124 -33.7130 -2.1988
21.2260 -28.3609 -1.9659
20.8503 -23.2090 -1.7315
22.1714 -20.6324 -1.6808
20.3940 -29.1376 -1.7541
20.7426 -24.6217 -1.5878
21.3054 -21.1306 -1.4799
25.0901 -20.7862 -1.6069
32.1122 -22.0841 -1.9221
23.3070 -10.5088 -1.2609
23.4001 -8.1243 -1.2217
23.5707 -5.8869 -1.1982
23.7362 -3.7168 -1.1849
23.8993 -1.5773 -1.1813
24.0627 0.5660 -1.1871
24.2290 2.7482 -1.2026
-15.8158 46.0864 -2.4031
-43.0801 -12.3861 -2.2108
-28.8798 -11.1810 -1.5274
-23.4701 -11.5934 -1.2911
-20.1359 -12.2964 -1.1636
-20.3478 -15.0756 -1.2490
-20.5953 -18.3228 -1.3596
-27.0368 -28.7729 -1.9473
-22.8093 -29.0952 -1.8234
-19.0594 -29.3811 -1.7273
-18.5458 -35.1043 -1.9581
-12.4811 -39.3436 -2.0357
19.7180 -45.5934 -2.4499
20.2902 -30.4996 -1.8067
20.6579 -25.7320 -1.6275
21.0075 -21.8443 -1.4947
23.8030 -20.6881 -1.5554
29.1756 -21.0977 -1.7757
23.9099 -11.4684 -1.3079
23.3538 -8.7322 -1.2297
23.5262 -6.4704 -1.2034
23.6928 -4.2861 -1.1875
23.8562 -2.1420 -1.1813
24.0193 -0.0030 -1.1846
24.1846 2.1654 -1.1976
24.5183 4.4291 -1.2288
25.1111 31.2630 -1.9777
19.9819 30.0198 -1.7786
-14.6793 46.3135 -2.3962
-46.3182 -12.1392 -2.3616
-35.5112 -12.7914 -1.8616
-24.7330 -11.4980 -1.3452
-20.4346 -11.8248 -1.1644
-20.3029 -14.3115 -1.2251
-20.5257 -17.4092 -1.3274
-28.2557 -28.6800 -1.9857
-23.8744 -29.0140 -1.8531
-20.0124 -29.3085 -1.7503
-10.9059 -19.5118 -1.1024
20.8647 -33.0309 -1.9269
20.5689 -26.9000 -1.6701
20.8838 -22.7694 -1.5238
22.5951 -20.5960 -1.5079
27.6116 -20.9785 -1.7103
34.6116 -21.7143 -2.0152
23.3068 -9.3485 -1.2385
23.4813 -7.0592 -1.2093
23.6491 -4.8583 -1.1907
23.8131 -2.7070 -1.1820
23.9761 -0.5700 -1.1828
24.1405 1.5872 -1.1932
24.3393 3.8049 -1.2150
19.8604 34.5664 -1.9662
-18.0871 46.2595 -2.4497
-14.3323 13.3778 -0.9669
-9.4249 0.3356 -0.4651
-37.9692 -12.6709 -1.9742
-26.1036 -11.3926 -1.4047
-21.4548 -11.7470 -1.2064
-20.2320 -13.5570 -1.2011
-20.4592 -16.5372 -1.2975
-20.7284 -20.0676 -1.4229
-24.9756 -28.9301 -1.8850
-20.9918 -29.2338 -1.7750
-18.2227 -30.8654 -1.7678
21.5994 -44.6779 -2.4475
20.4849 -34.1942 -1.9659
20.4750 -28.1314 -1.7160
20.8060 -23.7901 -1.5587
21.7297 -20.7688 -1.4825
16.6493 -13.2821 -1.0504
33.5871 -22.1951 -1.9855
23.2767 -9.9816 -1.2491
23.4360 -7.6542 -1.2159
23.6052 -5.4339 -1.1947
23.7700 -3.2731 -1.1834
23.9329 -1.1356 -1.1817
24.0968 1.0128 -1.1895
24.2641 3.2075 -1.2071
-16.8017 46.1615 -2.4228
-9.4746 0.5619 -0.4681
-40.8214 -12.5583 -2.1064
-27.6041 -11.2782 -1.4707
-22.5583 -11.6666 -1.2526
-20.1773 -12.8397 -1.1795
-20.3956 -15.7033 -1.2695
-20.6522 -19.0690 -1.3864
-26.1158 -28.8431 -1.9190
-21.9997 -29.1569 -1.8014
-18.3312 -29.4366 -1.7103
-18.7389 -37.1153 -2.0506
15.0969 -33.2091 -1.7992
20.3719 -29.4278 -1.7652
20.7244 -24.8592 -1.5962
21.2187 -21.2627 -1.4815
24.8022 -20.7643 -1.5953
31.7175 -22.0544 -1.9053
23.3508 -10.6738 -1.2663
23.3901 -8.2562 -1.2234
23.5610 -6.0137 -1.1993
23.7267 -3.8407 -1.1854
23.8899 -1.7005 -1.1812
24.0532 0.4417 -1.1865
24.2193 2.6206 -1.2015
24.9866 4.9924 -1.2567
-15.5436 46.0656 -2.3978
-11.3105 13.8979 -0.8837
-43.7505 -12.3350 -2.2419
-29.2533 -11.1525 -1.5441
-23.7365 -11.5731 -1.3024
-20.1245 -12.1474 -1.1593
-20.3347 -14.9042 -1.2434
-20.5799 -18.1199 -1.3524
-27.2987 -28.7530 -1.9554
-23.0387 -29.0777 -1.8297
-19.2651 -29.3654 -1.7322
-18.5152 -34.6131 -1.9360
19.3892 -45.4755 -2.4382
20.2667 -30.8076 -1.8187
20.6389 -25.9817 -1.6365
20.9681 -22.0296 -1.5000
23.5331 -20.6675 -1.5447
28.8243 -21.0709 -1.7610
26.4257 -15.9056 -1.5212
23.3436 -8.8658 -1.2315
23.5165 -6.5983 -1.2046
23.6833 -4.4107 -1.1881
23.8468 -2.2652 -1.1814
24.0099 -0.1268 -1.1842
24.1750 2.0389 -1.1965
24.4421 4.2853 -1.2239
33.3702 8.9839 -1.7044
25.2852 31.1494 -1.9787
20.1562 29.9457 -1.7803
-14.6277 46.9906 -2.4272
-47.0844 -12.0808 -2.3974
-35.9909 -12.7549 -1.8832
-25.0216 -11.4756 -1.3577
-20.6510 -11.8083 -1.1733
-20.2909 -14.1470 -1.2200
-20.5109 -17.2156 -1.3207
-28.5279 -28.6592 -1.9944
-24.1113 -28.9960 -1.8599
-20.2237 -29.2923 -1.7556
-10.9714 -19.3934 -1.0989
20.8387 -33.3695 -1.9403
20.5488 -27.1628 -1.6798
20.8671 -22.9882 -1.5312
22.3774 -20.6099 -1.5004
27.2856 -20.9536 -1.6967
34.5934 -21.9523 -2.0207
23.2965 -9.4841 -1.2405
23.4715 -7.1884 -1.2107
23.6396 -4.9835 -1.1915
23.8037 -2.8304 -1.1823
23.9667 -0.6935 -1.1825
24.1310 1.4616 -1.1923
24.3111 3.6722 -1.2126
-6.7063 35.1133 -1.7631
-17.8042 46.2379 -2.4437
-14.3412 13.5253 -0.9722
-9.4007 0.3833 -0.4640
-38.5067 -12.6300 -1.9987
-26.4194 -11.3685 -1.4185
-21.7335 -11.7543 -1.2186
-20.2199 -13.3984 -1.1963
-20.4451 -16.3523 -1.2912
-20.7114 -19.8455 -1.4147
-25.2206 -28.9114 -1.8922
-21.2091 -29.2172 -1.7806
-18.1912 -30.4522 -1.7495
-18.6265 -38.6526 -2.1161
21.3819 -44.8162 -2.4490
20.2348 -34.1751 -1.9588
20.4538 -28.4091 -1.7265
20.7885 -24.0190 -1.5667
21.5912 -20.8506 -1.4804
25.8544 -20.8445 -1.6379
33.1659 -22.1634 -1.9674
23.2851 -10.1276 -1.2523
23.4260 -7.7849 -1.2175
23.5956 -5.5600 -1.1956
23.7606 -3.3967 -1.1838
23.9236 -1.2589 -1.1815
24.0872 0.8880 -1.1888
24.2543 3.0790 -1.2058
-16.5250 46.1404 -2.4172
-41.4298 -12.5119 -2.1345
-27.9504 -11.2518 -1.4860
-22.8083 -11.6472 -1.2631
-20.1656 -12.6867 -1.1750
-20.3821 -15.5262 -1.2637
-20.6361 -18.8580 -1.3787
-26.3701 -28.8238 -1.9268
-22.2236 -29.1399 -1.8074
-18.5329 -29.4212 -1.7149
-18.6878 -36.5445 -2.0244
19.9086 -44.3999 -2.3999
20.3495 -29.7217 -1.7765
20.7061 -25.0994 -1.6048
21.1426 -21.4062 -1.4839
24.5183 -20.7426 -1.5839
30.1048 -21.1642 -1.8150
23.4114 -10.8478 -1.2726
23.3800 -8.3884 -1.2251
23.5514 -6.1407 -1.2004
23.7173 -3.9649 -1.1860
23.8805 -1.8236 -1.1812
24.0437 0.3175 -1.1859
24.2096 2.4933 -1.2003
24.7951 4.8213 -1.2458
17.2835 8.5698 -0.9514
-15.2725 46.0449 -2.3926
-23.8548 35.7408 -2.1193
-11.2106 13.9212 -0.8815
-44.4403 -12.2824 -2.2740
-34.3212 -12.8822 -1.8080
-24.0076 -11.5524 -1.3140
-20.1133 -11.9996 -1.1551
-20.3217 -14.7342 -1.2380
-20.5647 -17.9191 -1.3453
-27.5627 -28.7328 -1.9637
-23.2697 -29.0601 -1.8361
-19.4720 -29.3497 -1.7371
-18.4697 -34.1039 -1.9128
20.9303 -32.1764 -1.8931
20.6196 -26.2342 -1.6457
20.9284 -22.2162 -1.5053
23.2668 -20.6472 -1.5342
28.4789 -21.0446 -1.7465
23.3334 -8.9999 -1.2334
23.5067 -6.7265 -1.2059
23.6738 -4.5354 -1.1888
23.8374 -2.3884 -1.1815
24.0004 -0.2506 -1.1838
24.1653 1.9126 -1.1956
24.4128 4.1506 -1.2213
-14.5747 47.6857 -2.4592
-47.8738 -12.0206 -2.4344
-36.6391 -12.7723 -1.9137
-25.3155 -11.4527 -1.3704
-20.8707 -11.7916 -1.1823
-20.2790 -13.9839 -1.2149
-20.4963 -17.0240 -1.3141
-28.8028 -28.6383 -2.0032
-24.3502 -28.9778 -1.8668
-20.4362 -29.2761 -1.7609
-11.0919 -19.3727 -1.1010
20.8124 -33.7130 -1.9540
20.5285 -27.4290 -1.6897
20.8503 -23.2090 -1.5387
22.1714 -20.6324 -1.4937
20.3940 -29.1376 -1.5345
20.7426 -24.6217 -1.3891
21.3054 -21.1306 -1.2947
25.0901 -20.7862 -1.4058
30.8581 -21.2217 -1.6159
23.3070 -10.5088 -1.1031
23.4001 -8.1243 -1.0688
23.5707 -5.8869 -1.0482
23.7362 -3.7168 -1.0366
23.8993 -1.5773 -1.0334
24.0627 0.5660 -1.0385
24.2290 2.7482 -1.0521
-15.8158 46.0864 -2.1023
-43.0801 -12.3861 -1.9341
-28.8798 -11.1810 -1.3362
-23.4701 -11.5934 -1.1295
-20.1359 -12.2964 -1.0180
-20.3478 -15.0756 -1.0927
-20.7291 -18.4419 -1.1971
-27.0368 -28.7729 -1.7035
-22.8093 -29.0952 -1.5951
-19.0594 -29.3811 -1.5111
-18.5458 -35.1043 -1.7130
-12.4808 -39.3427 -1.7809
19.5188 -45.1327 -2.1216
20.2902 -30.4996 -1.5806
20.6579 -25.7320 -1.4238
21.0075 -21.8443 -1.3076
23.8030 -20.6881 -1.3607
29.1757 -21.0977 -1.5535
23.9099 -11.4684 -1.1442
23.3538 -8.7322 -1.0758
23.5262 -6.4704 -1.0528
23.6928 -4.2861 -1.0389
23.8562 -2.1420 -1.0335
24.0193 -0.0030 -1.0364
24.1846 2.1654 -1.0477
24.5183 4.4291 -1.0750
25.1104 31.2622 -1.7301
19.9819 30.0198 -1.5559
-14.6793 46.3135 -2.0962
-46.3181 -12.1392 -2.0660
-35.7686 -12.8841 -1.6404
-24.8345 -11.5452 -1.1817
-20.4346 -11.8248 -1.0187
-20.4206 -14.3944 -1.0780
-20.5257 -17.4092 -1.1613
-28.2557 -28.6800 -1.7371
-23.8744 -29.0140 -1.6212
-20.0123 -29.3085 -1.5312
-10.9055 -19.5112 -0.9644
20.1799 -31.9467 -1.6304
20.5689 -26.9000 -1.4611
20.8838 -22.7694 -1.3331
22.5951 -20.5960 -1.3191
27.6116 -20.9785 -1.4962
34.2370 -21.4793 -1.7439
23.3068 -9.3485 -1.0835
23.4813 -7.0592 -1.0579
23.6491 -4.8583 -1.0417
23.8131 -2.7070 -1.0341
23.9761 -0.5700 -1.0348
24.1405 1.5872 -1.0438
24.3393 3.8049 -1.0629
19.8599 34.5656 -1.7200
-18.0871 46.2595 -2.1431
-14.3319 13.3775 -0.8459
-9.4246 0.3356 -0.4069
-38.0800 -12.7079 -1.7321
-26.1037 -11.3926 -1.2289
-21.4548 -11.7470 -1.0554
-20.2320 -13.5570 -1.0508
-20.4592 -16.5372 -1.1351
-20.7284 -20.0676 -1.2448
-24.9756 -28.9301 -1.6490
-20.9918 -29.2338 -1.5528
-18.2227 -30.8654 -1.5465
21.4480 -44.3648 -2.1262
20.0623 -33.4888 -1.6844
20.4750 -28.1314 -1.5012
20.8060 -23.7901 -1.3636
21.7297 -20.7688 -1.2969
16.6490 -13.2817 -0.9189
32.2778 -21.3299 -1.6693
23.2767 -9.9816 -1.0928
23.4360 -7.6543 -1.0638
23.6052 -5.4339 -1.0451
23.7700 -3.2731 -1.0353
23.9330 -1.1356 -1.0338
24.0968 1.0128 -1.0406
24.2641 3.2075 -1.0560
-16.8017 46.1615 -2.1195
-9.4741 0.5619 -0.4095
-40.6473 -12.5047 -1.8349
-27.6091 -11.2803 -1.2868
-22.6461 -11.7120 -1.1000
-20.1773 -12.8397 -1.0319
-20.3956 -15.7033 -1.1106
-20.6522 -19.0690 -1.2128
-26.1158 -28.8431 -1.6788
-21.9997 -29.1569 -1.5760
-18.3312 -29.4366 -1.4962
-18.6921 -37.0226 -1.7895
15.0964 -33.2081 -1.5739
19.9366 -35.1375 -1.7431
20.3719 -29.4278 -1.5443
20.7244 -24.8592 -1.3964
21.2187 -21.2627 -1.2961
24.8022 -20.7643 -1.3957
30.4782 -21.1927 -1.6017
23.3508 -10.6738 -1.1078
23.3901 -8.2562 -1.0702
23.5610 -6.0137 -1.0492
23.7267 -3.8407 -1.0371
23.8899 -1.7005 -1.0334
24.0532 0.4417 -1.0380
24.2193 2.6206 -1.0511
24.9866 4.9924 -1.0994
-15.5436 46.0656 -2.0977
-11.3105 13.8979 -0.7731
-43.7505 -12.3350 -1.9613
-29.2533 -11.1525 -1.3508
-23.7365 -11.5731 -1.1394
-20.1245 -12.1474 -1.0142
-20.3347 -14.9042 -1.0878
-20.7136 -18.2376 -1.1908
-27.2987 -28.7530 -1.7107
-23.0387 -29.0777 -1.6007
-19.2651 -29.3654 -1.5153
-18.5072 -34.5982 -1.6930
19.0007 -44.5642 -2.0903
20.2667 -30.8076 -1.5911
20.6389 -25.9817 -1.4317
20.9681 -22.0296 -1.3122
23.5331 -20.6675 -1.3514
28.8243 -21.0709 -1.5405
26.4257 -15.9056 -1.3308
23.3436 -8.8658 -1.0774
23.5165 -6.5983 -1.0538
23.6833 -4.4107 -1.0394
23.8468 -2.2652 -1.0335
24.0099 -0.1268 -1.0360
24.1750 2.0389 -1.0468
24.4421 4.2853 -1.0707
33.3694 8.9837 -1.4910
25.2841 31.1480 -1.7310
20.1562 29.9457 -1.5575
-14.6277 46.9906 -2.1234
-47.0844 -12.0808 -2.0973
-36.1439 -12.8091 -1.6545
-25.1250 -11.5230 -1.1926
-20.6510 -11.8083 -1.0264
-20.4079 -14.2285 -1.0734
-20.5109 -17.2156 -1.1554
-28.5279 -28.6592 -1.7447
-24.1113 -28.9960 -1.6271
-20.2237 -29.2923 -1.5358
-10.9711 -19.3929 -0.9614
20.1549 -32.2745 -1.6418
20.5488 -27.1628 -1.4696
20.8671 -22.9882 -1.3396
22.3774 -20.6099 -1.3126
27.2856 -20.9536 -1.4844
33.7948 -21.4456 -1.7270
23.2965 -9.4841 -1.0853
23.4715 -7.1884 -1.0591
23.6396 -4.9835 -1.0424
23.8037 -2.8304 -1.0343
23.9667 -0.6935 -1.0345
24.1310 1.4616 -1.0431
24.3111 3.6722 -1.0608
-6.7063 35.1133 -1.5424
-17.8042 46.2379 -2.1378
-14.3405 13.5246 -0.8505
-9.4005 0.3833 -0.4059
-38.4993 -12.6275 -1.7482
-26.4194 -11.3685 -1.2410
-21.7777 -11.7782 -1.0683
-20.2199 -13.3984 -1.0466
-20.4451 -16.3523 -1.1296
-20.7114 -19.8455 -1.2376
-25.2206 -28.9114 -1.6554
-21.2091 -29.2172 -1.5578
-18.1912 -30.4522 -1.5305
-18.6265 -38.6526 -1.8513
20.0356 -33.8387 -1.6968
20.4538 -28.4091 -1.5104
20.7885 -24.0190 -1.3706
21.5912 -20.8506 -1.2951
25.8543 -20.8445 -1.4329
31.8724 -21.2990 -1.6540
23.2851 -10.1276 -1.0956
23.4260 -7.7849 -1.0651
23.5956 -5.5600 -1.0460
23.7606 -3.3967 -1.0356
23.9236 -1.2589 -1.0336
24.0872 0.8880 -1.0400
24.2543 3.0790 -1.0549
-16.5250 46.1404 -2.1146
-41.2531 -12.4585 -1.8593
-27.9544 -11.2534 -1.3002
-22.8894 -11.6887 -1.1089
-20.1656 -12.6867 -1.0279
-20.3821 -15.5262 -1.1055
-20.6658 -18.8851 -1.2079
-26.3701 -28.8238 -1.6856
-22.2236 -29.1399 -1.5812
-18.5329 -29.4212 -1.5003
-18.6500 -36.4704 -1.7674
20.1707 -44.9844 -2.1271
19.9080 -35.5125 -1.7566
20.3495 -29.7217 -1.5542
20.7061 -25.0994 -1.4039
21.1426 -21.4062 -1.2982
24.5183 -20.7426 -1.3857
30.1048 -21.1642 -1.5878
23.4114 -10.8478 -1.1133
23.3800 -8.3884 -1.0717
23.5514 -6.1407 -1.0501
23.7173 -3.9649 -1.0375
23.8805 -1.8236 -1.0334
24.0437 0.3175 -1.0375
24.2096 2.4933 -1.0501
24.7951 4.8213 -1.0899
17.2835 8.5698 -0.8324
-15.2726 46.0449 -2.0931
-23.8542 35.7399 -1.8540
-11.2106 13.9212 -0.7712
-44.4404 -12.2824 -1.9893
-34.3212 -12.8822 -1.5817
-24.0076 -11.5524 -1.1495
-20.1133 -11.9996 -1.0105
-20.3217 -14.7342 -1.0830
-20.6981 -18.0354 -1.1845
-27.5627 -28.7328 -1.7179
-23.2697 -29.0601 -1.6063
-19.4720 -29.3497 -1.5197
-18.4695 -34.1036 -1.6734
18.8631 -44.8816 -2.1006
20.2429 -31.1197 -1.6018
20.6196 -26.2342 -1.4397
20.9284 -22.2162 -1.3169
23.2668 -20.6472 -1.3422
28.4789 -21.0446 -1.5279
35.4212 -21.5695 -1.7894
23.3334 -8.9999 -1.0791
23.5067 -6.7265 -1.0549
23.6738 -4.5354 -1.0400
23.8374 -2.3884 -1.0337
24.0004 -0.2506 -1.0356
24.1653 1.9126 -1.0459
24.4128 4.1506 -1.0684
-14.5747 47.6856 -2.1514
-47.8739 -12.0206 -2.1297
-36.6391 -12.7723 -1.6742
-25.4209 -11.5005 -1.2039
-20.8707 -11.7916 -1.0343
-20.3954 -14.0641 -1.0689
-20.4963 -17.0240 -1.1496
-28.8028 -28.6383 -1.7525
-24.3501 -28.9778 -1.6331
-20.4362 -29.2761 -1.5405
-11.0915 -19.3721 -0.9631
20.1295 -32.6069 -1.6534
20.5285 -27.4290 -1.4782
20.8503 -23.2090 -1.3461
22.1714 -20.6324 -1.3068
20.3940 -29.1376 -1.3151
20.7426 -24.6217 -1.1904
21.3054 -21.1306 -1.1096
25.0901 -20.7862 -1.2048
30.8581 -21.2217 -1.3848
23.3070 -10.5088 -0.9454
23.4001 -8.1243 -0.9159
23.5707 -5.8869 -0.8983
23.7362 -3.7168 -0.8884
23.8993 -1.5773 -0.8856
24.0627 0.5660 -0.8900
24.2290 2.7482 -0.9017
-15.8158 46.0864 -1.8017
-43.1730 -12.4128 -1.6611
-28.8798 -11.1810 -1.1451
-23.4701 -11.5934 -0.9680
-20.1359 -12.2964 -0.8724
-20.3478 -15.0756 -0.9364
-20.7291 -18.4419 -1.0259
-27.0368 -28.7729 -1.4599
-22.8093 -29.0952 -1.3670
-19.0594 -29.3811 -1.2950
-18.5458 -35.1043 -1.4681
-12.4805 -39.3418 -1.5262
20.2902 -30.4996 -1.3545
20.6579 -25.7320 -1.2202
21.0075 -21.8443 -1.1206
23.8030 -20.6881 -1.1661
29.1757 -21.0977 -1.3313
36.5176 -21.7241 -1.5712
23.9099 -11.4684 -0.9806
23.3538 -8.7322 -0.9219
23.5262 -6.4704 -0.9022
23.6928 -4.2861 -0.8903
23.8562 -2.1420 -0.8857
24.0193 -0.0030 -0.8882
24.1846 2.1654 -0.8978
24.5183 4.4291 -0.9213
25.1097 31.2613 -1.4827
19.9819 30.0198 -1.3334
-14.6793 46.3135 -1.7965
-46.3182 -12.1392 -1.7705
-35.7686 -12.8841 -1.4058
-24.8345 -11.5452 -1.0127
-20.4346 -11.8248 -0.8730
-20.4206 -14.3944 -0.9238
-20.5257 -17.4092 -0.9952
-28.2557 -28.6800 -1.4887
-23.8744 -29.0140 -1.3894
-20.0124 -29.3085 -1.3123
-10.9052 -19.5105 -0.8265
18.3344 -45.3052 -1.8072
20.1799 -31.9467 -1.3972
20.5689 -26.9000 -1.2521
20.8838 -22.7694 -1.1424
22.5951 -20.5960 -1.1305
27.6116 -20.9785 -1.2822
34.2370 -21.4793 -1.4945
23.3068 -9.3485 -0.9286
23.4813 -7.0592 -0.9067
23.6491 -4.8583 -0.8927
23.8131 -2.7070 -0.8862
23.9761 -0.5700 -0.8868
24.1405 1.5872 -0.8946
24.3393 3.8049 -0.9109
19.8595 34.5648 -1.4740
-18.0871 46.2595 -1.8366
-14.3316 13.3772 -0.7249
-9.4244 0.3356 -0.3487
-38.0800 -12.7079 -1.4844
-26.1037 -11.3926 -1.0532
-21.4548 -11.7470 -0.9045
-20.2320 -13.5570 -0.9005
-20.4592 -16.5372 -0.9727
-20.7284 -20.0676 -1.0668
-24.9756 -28.9301 -1.4132
-20.9918 -29.2338 -1.3308
-17.9696 -30.4368 -1.3070
20.0623 -33.4888 -1.4435
20.4750 -28.1314 -1.2866
20.8060 -23.7901 -1.1686
21.7297 -20.7688 -1.1115
16.6485 -13.2814 -0.7875
32.2778 -21.3299 -1.4306
23.2767 -9.9816 -0.9365
23.4360 -7.6543 -0.9116
23.6052 -5.4339 -0.8957
23.7700 -3.2731 -0.8872
23.9329 -1.1356 -0.8860
24.0968 1.0128 -0.8918
24.2641 3.2075 -0.9050
-16.8017 46.1615 -1.8164
-9.4735 0.5618 -0.3509
-40.9397 -12.5947 -1.5838
-27.7192 -11.3252 -1.1072
-22.6460 -11.7120 -0.9427
-20.1773 -12.8397 -0.8843
-20.3956 -15.7033 -0.9518
-20.6522 -19.0690 -1.0394
-26.1158 -28.8431 -1.4388
-21.9997 -29.1569 -1.3506
-18.3312 -29.4366 -1.2823
-18.6921 -37.0226 -1.5336
15.0960 -33.2071 -1.3488
19.9366 -35.1375 -1.4938
20.3719 -29.4278 -1.3234
20.7244 -24.8592 -1.1968
21.2187 -21.2627 -1.1107
24.8022 -20.7643 -1.1961
30.4782 -21.1927 -1.3727
23.3508 -10.6738 -0.9494
23.3901 -8.2562 -0.9172
23.5610 -6.0137 -0.8991
23.7267 -3.8407 -0.8888
23.8899 -1.7005 -0.8856
24.0532 0.4417 -0.8896
24.2193 2.6206 -0.9008
24.9866 4.9924 -0.9422
-15.5436 46.0656 -1.7977
-11.3105 13.8979 -0.6626
-43.7505 -12.3350 -1.6808
-29.2533 -11.1525 -1.1576
-23.7365 -11.5731 -0.9765
-20.1245 -12.1474 -0.8692
-20.3347 -14.9042 -0.9322
-20.7136 -18.2376 -1.0205
-27.2987 -28.7530 -1.4661
-23.0387 -29.0777 -1.3718
-19.2651 -29.3654 -1.2987
-18.5072 -34.5983 -1.4509
20.2667 -30.8076 -1.3636
20.6389 -25.9817 -1.2269
20.9681 -22.0296 -1.1246
23.5331 -20.6675 -1.1581
28.8243 -21.0709 -1.3202
26.4257 -15.9056 -1.1405
23.3436 -8.8658 -0.9233
23.5165 -6.5983 -0.9031
23.6833 -4.4107 -0.8908
23.8468 -2.2652 -0.8857
24.0099 -0.1268 -0.8878
24.1750 2.0389 -0.8971
24.4421 4.2853 -0.9176
33.3686 8.9835 -1.2778
25.2830 31.1467 -1.4834
20.1562 29.9457 -1.3348
-14.6277 46.9906 -1.8198
-47.0844 -12.0808 -1.7974
-36.1439 -12.8091 -1.4179
-25.1250 -11.5230 -1.0221
-20.6510 -11.8083 -0.8796
-20.4079 -14.2285 -0.9199
-20.5109 -17.2156 -0.9902
-28.5279 -28.6592 -1.4953
-24.1113 -28.9960 -1.3944
-20.2237 -29.2923 -1.3162
-10.9709 -19.3925 -0.8239
22.2077 -43.8484 -1.8175
20.1549 -32.2744 -1.4070
20.5488 -27.1628 -1.2594
20.8671 -22.9882 -1.1480
22.3774 -20.6099 -1.1249
27.2856 -20.9536 -1.2721
33.7948 -21.4456 -1.4800
23.2965 -9.4841 -0.9301
23.4715 -7.1884 -0.9077
23.6396 -4.9835 -0.8933
23.8037 -2.8304 -0.8864
23.9667 -0.6935 -0.8866
24.1310 1.4616 -0.8939
24.3111 3.6722 -0.9091
-6.7063 35.1133 -1.3218
-17.8042 46.2379 -1.8321
-14.3398 13.5239 -0.7288
-9.4002 0.3833 -0.3479
-38.4993 -12.6275 -1.4982
-26.4194 -11.3685 -1.0635
-21.7776 -11.7782 -0.9155
-20.2199 -13.3984 -0.8969
-20.4451 -16.3523 -0.9681
-20.7114 -19.8455 -1.0607
-25.2206 -28.9114 -1.4187
-21.2091 -29.2172 -1.3350
-17.9385 -30.0293 -1.2934
-18.6265 -38.6526 -1.5865
20.0356 -33.8387 -1.4541
20.4538 -28.4091 -1.2944
20.7885 -24.0190 -1.1746
21.5912 -20.8506 -1.1099
25.8544 -20.8445 -1.2280
31.8723 -21.2990 -1.4175
23.2851 -10.1276 -0.9389
23.4260 -7.7849 -0.9128
23.5956 -5.5600 -0.8964
23.7606 -3.3968 -0.8875
23.9236 -1.2589 -0.8858
24.0872 0.8880 -0.8913
24.2543 3.0790 -0.9040
-16.5250 46.1404 -1.8122
-41.2531 -12.4585 -1.5935
-28.0669 -11.2987 -1.1188
-22.8894 -11.6887 -0.9503
-20.1656 -12.6867 -0.8810
-20.3821 -15.5262 -0.9474
-20.6658 -18.8851 -1.0352
-26.3701 -28.8238 -1.4446
-22.2236 -29.1399 -1.3551
-18.5329 -29.4212 -1.2858
-18.6500 -36.4704 -1.5147
19.9080 -35.5124 -1.5054
20.3495 -29.7217 -1.3319
20.7061 -25.0994 -1.2032
21.1426 -21.4062 -1.1125
24.5183 -20.7426 -1.1875
30.1048 -21.1642 -1.3607
23.4114 -10.8478 -0.9541
23.3800 -8.3884 -0.9185
23.5514 -6.1407 -0.9000
23.7173 -3.9649 -0.8892
23.8805 -1.8236 -0.8856
24.0437 0.3175 -0.8891
24.2096 2.4933 -0.8999
24.7951 4.8213 -0.9340
17.2835 8.5698 -0.7133
-15.2726 46.0449 -1.7938
-23.8536 35.7391 -1.5888
-11.2106 13.9212 -0.6609
-44.5691 -12.3180 -1.7098
-34.3211 -12.8822 -1.3555
