ply
format ascii 1.0
element vertex 1953
property float32 x
property float32 y
property float32 z
end_header
-28.2737 -2.6370 -4.2290
-35.0963 -9.7816 -5.4260
-27.8741 -10.5306 -4.4375
-23.4326 -11.3373 -3.8767
-23.4004 -14.0278 -4.0631
-23.3937 -17.0364 -4.3099
-23.3873 -20.4644 -4.6281
-22.6131 -23.6708 -4.8753
-29.1316 -36.5341 -6.9588
-24.7470 -37.4659 -6.6870
19.0378 -29.1503 -5.1851
19.5350 -24.7616 -4.6971
23.4005 -24.7510 -5.0727
15.7383 -13.9162 -3.1287
15.7319 -11.5822 -2.9094
15.7503 -9.5533 -2.7434
15.7446 -7.7187 -2.6114
15.7167 -6.0311 -2.5071
17.6282 -5.0119 -2.7294
26.2781 -4.9883 -3.9834
43.0675 -4.2424 -6.4449
42.9894 -0.3776 -6.4025
34.2775 2.7696 -5.1215
34.2690 5.8835 -5.1782
16.2648 4.3169 -2.5061
16.2540 5.9119 -2.5758
16.2494 7.6151 -2.6725
16.2437 9.4663 -2.7999
16.2387 11.5211 -2.9652
14.2493 12.1604 -2.7898
12.1183 12.3749 -2.5794
12.1117 14.8096 -2.8492
12.0868 17.8154 -3.2062
12.0926 21.7869 -3.7109
11.9116 26.8681 -4.3770
11.3873 33.4753 -5.2659
-21.3323 33.5638 -5.9227
-21.5827 28.0644 -5.2725
-21.5200 23.3338 -4.7273
-21.3478 19.3524 -4.2912
-21.5505 16.2810 -4.0224
-21.5427 13.4341 -3.7810
-20.7174 10.4766 -3.4574
-20.7917 8.2752 -3.3327
-24.5055 7.2962 -3.8078
-34.1291 6.9173 -5.1861
-47.5450 -11.9915 -7.3024
-29.8560 -10.4426 -4.7105
-23.6463 -10.7268 -3.8670
-22.8222 -12.9245 -3.9060
-23.3956 -16.1672 -4.2352
-23.3905 -19.4665 -4.5320
-22.6162 -22.5303 -4.7542
-30.6456 -36.5397 -7.1022
-25.4501 -36.5313 -6.6306
-23.9590 -41.9346 -7.1926
19.0891 -25.4681 -4.7400
22.2694 -24.7541 -4.9588
15.5199 -14.4230 -3.1553
15.7336 -12.1952 -2.9646
15.7401 -10.0882 -2.7843
15.7226 -8.1966 -2.6406
15.7420 -6.4921 -2.5360
16.1154 -5.0160 -2.5136
23.1765 -4.9967 -3.5309
43.1085 -5.3266 -6.4688
43.0003 -1.4425 -6.4075
34.2798 1.9173 -5.1131
34.2713 5.0142 -5.1582
16.2747 3.8911 -2.4920
16.2553 5.4607 -2.5538
16.2507 7.1307 -2.6429
16.2458 8.9365 -2.7613
16.2403 10.9283 -2.9152
14.9875 12.1624 -2.8745
12.5078 12.1556 -2.5975
12.1137 14.0857 -2.7668
12.1059 16.9263 -3.0991
12.0959 20.5757 -3.5545
11.9162 25.1776 -4.1484
11.8967 32.3256 -5.1298
9.3513 34.6998 -5.3521
-23.2391 38.6442 -6.7156
-21.5112 29.4520 -5.4315
-21.5732 24.5854 -4.8711
-21.5621 20.5414 -4.4351
-21.5063 17.0998 -4.0919
-21.5447 14.1878 -3.8418
-20.7192 11.1298 -3.5026
-20.7934 8.8780 -3.3671
-20.9046 6.7916 -3.2734
-30.1009 6.8806 -4.5984
-28.8094 -1.2539 -4.2945
-47.6868 -10.7793 -7.2810
-30.3297 -9.7729 -4.7456
-24.8026 -10.5192 -4.0122
-23.4038 -12.4992 -3.9514
-23.3975 -15.3271 -4.1656
-22.9504 -18.1579 -4.3583
-22.9189 -21.7286 -4.7034
-22.7521 -25.8033 -5.1233
-26.8127 -36.5255 -6.7479
-24.7275 -40.8956 -7.1172
19.0928 -26.8319 -4.9044
21.1872 -24.7570 -4.8528
24.5989 -24.0221 -5.1205
15.7353 -12.8322 -3.0239
15.7293 -10.6395 -2.8281
9.2974 -5.1436 -1.5824
15.8061 -6.9811 -2.5733
15.4949 -5.2469 -2.4363
20.7062 -5.0035 -3.1725
33.3992 -4.9688 -5.0288
43.0193 -2.5101 -6.4176
37.9040 1.1801 -5.6476
34.2737 4.1511 -5.1416
16.6057 3.5382 -2.5285
16.2565 5.0170 -2.5337
16.2520 6.6567 -2.6155
16.2472 8.4204 -2.7253
16.3120 10.3994 -2.8810
15.7724 12.1646 -2.9664
13.1454 12.1574 -2.6666
12.1155 13.4021 -2.6906
12.1082 16.0736 -2.9970
9.2716 14.9139 -2.6153
11.9218 23.6569 -3.9452
11.9029 30.0281 -4.8105
-23.1592 40.7626 -6.9820
-21.3534 30.8088 -5.5825
-21.5766 25.8529 -5.0149
-21.5650 21.5870 -4.5442
-21.3437 17.8504 -4.1438
-21.5469 14.9667 -3.9071
-21.5395 12.2667 -3.6915
-20.7951 9.4939 -3.4044
-20.7891 7.3277 -3.2827
-27.4158 6.9850 -4.2134
-42.3300 6.8341 -6.3857
-33.1274 -9.7763 -5.1439
-26.6340 -10.5260 -4.2650
-23.4054 -11.7650 -3.9013
-23.3993 -14.5137 -4.1007
-17.8397 -13.4102 -3.3237
-23.3852 -21.0968 -4.6905
-22.6111 -24.3985 -4.9540
-28.2341 -36.5307 -6.8759
-24.7323 -38.7064 -6.8407
19.0968 -28.2945 -5.0838
20.1499 -24.7599 -4.7542
23.9969 -24.6235 -5.1205
15.7371 -13.4958 -3.0875
15.7309 -11.2179 -2.8774
15.7463 -9.2274 -2.7180
15.7987 -7.4504 -2.6013
15.7160 -5.7591 -2.4927
18.6904 -5.0090 -2.8817
28.6038 -4.9819 -4.3240
43.0466 -3.5826 -6.4329
42.9869 0.2738 -6.4020
34.2760 3.2930 -5.1281
34.2675 6.4194 -5.1921
16.2580 4.5800 -2.5155
16.2533 6.1921 -2.5902
16.2486 7.9172 -2.6918
16.3135 9.8412 -2.8373
16.2377 11.8944 -2.9976
13.8182 12.1592 -2.7412
12.1173 12.7549 -2.6201
12.1104 15.2746 -2.9030
12.1018 18.4327 -3.2839
11.9241 22.2722 -3.7624
11.9107 28.0038 -4.5320
-23.2521 43.3925 -7.3316
-21.3274 32.4588 -5.7841
-21.3685 26.9315 -5.1199
-21.3636 22.4711 -4.6176
-21.3462 18.7694 -4.2332
-21.5276 15.7571 -3.9731
-21.5414 12.9842 -3.7458
-20.7968 10.1240 -3.4447
-20.7907 7.9120 -3.3129
-24.5044 6.8933 -3.7910
-36.8145 6.8824 -5.5776
-28.3764 -2.3721 -4.2407
-36.4585 -9.7853 -5.6218
-28.7125 -10.5337 -4.5547
-23.4631 -11.0754 -3.8640
-23.4010 -13.7247 -4.0402
-23.3944 -16.6958 -4.2803
-23.3885 -20.0724 -4.5900
-22.6143 -23.2219 -4.8273
-29.7112 -36.5362 -7.0132
-24.8710 -36.8791 -6.6245
18.9967 -29.7062 -5.2513
19.1532 -24.7626 -4.6622
22.9557 -24.7522 -5.0275
15.7390 -14.1882 -3.1558
15.7325 -11.8171 -2.9303
15.7465 -9.7588 -2.7589
15.7218 -7.8955 -2.6201
15.7172 -6.2049 -2.5165
17.0119 -5.0136 -2.6412
24.9859 -4.9918 -3.7946
43.0824 -4.6617 -6.4536
42.9927 -0.7902 -6.4038
34.2784 2.4388 -5.1179
34.2699 5.5457 -5.1701
16.2688 4.1513 -2.5005
16.2545 5.7360 -2.5670
16.2499 7.4261 -2.6608
16.2449 9.2594 -2.7847
16.2394 11.2888 -2.9454
14.5303 12.1612 -2.8218
12.1333 12.1546 -2.5577
12.1125 14.5238 -2.8165
12.1044 17.4781 -3.1662
12.0628 21.2501 -3.6390
11.9134 26.1910 -4.2851
5.9706 37.3109 -5.6273
-23.2355 37.3448 -6.5502
-21.5842 28.6308 -5.3398
-21.5711 23.8443 -4.7885
-21.4091 19.7855 -4.3414
-21.5514 16.6090 -4.0521
-21.5435 13.7234 -3.8040
-20.7181 10.7278 -3.4746
-20.7924 8.5074 -3.3457
-22.0257 6.7886 -3.4325
-32.7866 6.9734 -4.9920
-29.1054 -1.7091 -4.3420
-47.5563 -11.5101 -7.2869
-29.9548 -10.1556 -4.7105
-23.8806 -10.5579 -3.8885
-23.3442 -12.9259 -3.9739
-23.3964 -15.8383 -4.2076
-23.3917 -19.0906 -4.4965
-22.6173 -22.1032 -4.7097
-31.2496 -36.5419 -7.1606
-25.9681 -36.5223 -6.6739
-24.2640 -41.5382 -7.1642
19.0905 -25.9858 -4.8021
21.8443 -24.7553 -4.9168
15.5207 -14.7038 -3.1840
15.7342 -12.4392 -2.9871
15.7359 -10.2999 -2.8009
9.4326 -5.0331 -1.5922
15.8060 -6.6967 -2.5565
15.5913 -5.0175 -2.4392
22.1554 -4.9995 -3.3825
43.1267 -5.7496 -6.4795
43.0067 -1.8561 -6.4108
34.9743 1.6196 -5.2142
34.2722 4.6790 -5.1514
16.2783 3.7272 -2.4870
16.2557 5.2879 -2.5458
16.2512 6.9458 -2.6320
16.2463 8.7347 -2.7470
16.2409 10.7036 -2.8967
15.2859 12.1632 -2.9092
12.7510 12.1563 -2.6237
12.1144 13.8162 -2.7365
12.1068 16.5889 -3.0585
12.0971 20.1330 -3.4980
11.9189 24.5707 -4.0670
11.8992 31.3997 -5.0008
-23.1933 39.4198 -6.8114
-21.5069 30.0474 -5.5030
-21.5745 25.0680 -4.9255
-21.3516 20.7352 -4.4325
-21.5537 17.4777 -4.1326
-21.4384 14.4146 -3.8473
-20.7199 11.3877 -3.5211
-20.7940 9.1152 -3.3812
-20.7078 6.9480 -3.2529
-28.7854 6.8711 -4.4073
-29.2384 -0.9916 -4.3569
-47.9278 -10.3516 -7.3023
-31.3525 -9.7714 -4.8907
-25.4862 -10.5217 -4.1063
-23.4044 -12.2123 -3.9315
-23.3982 -15.0087 -4.1399
-23.3912 -18.1444 -4.4087
-23.1263 -21.5078 -4.7034
-22.6353 -25.1796 -5.0424
-27.3574 -36.5275 -6.7965
-24.7294 -40.0262 -7.0069
19.0944 -27.3866 -4.9721
20.7799 -24.7582 -4.8137
24.3674 -24.2569 -5.1205
15.7360 -13.0862 -3.0480
15.7299 -10.8614 -2.8468
9.3201 -5.2735 -1.5948
19.9226 -24.7605 -4.5330
23.8531 -24.7498 -4.9028
15.7375 -13.6487 -2.9713
15.7313 -11.3506 -2.7669
15.8040 -9.3796 -2.6213
15.8084 -7.5627 -2.4996
15.7163 -5.8585 -2.3924
18.2872 -5.0101 -2.7045
27.7058 -4.9844 -4.0153
42.4930 -3.7745 -6.0849
42.4304 0.0345 -6.0521
34.2766 3.1008 -4.9090
34.2680 6.2225 -4.9678
18.0931 4.9886 -2.6770
16.2536 6.0889 -2.4757
16.2489 7.8059 -2.5712
16.2418 9.6752 -2.6965
16.2381 11.7565 -2.8594
13.9746 12.1596 -2.6422
12.1177 12.6141 -2.4949
12.1109 15.1020 -2.7612
12.1024 18.2122 -3.1190
11.9249 21.9792 -3.5667
11.9117 27.5796 -4.2851
-23.0415 43.5799 -7.0314
-21.3372 32.8703 -5.5896
-21.4635 27.3621 -4.9603
-21.5687 22.9409 -4.4913
-21.5583 19.1696 -4.1148
-21.3381 15.8013 -3.7872
-20.7234 12.6487 -3.4630
-20.7972 10.2675 -3.3082
-20.7911 8.0447 -3.1798
-23.6122 6.7842 -3.5042
-35.5590 6.8526 -5.1653
-28.3959 -2.2149 -4.0626
-37.2942 -9.7876 -5.4996
-29.2191 -10.5356 -4.4303
-22.8224 -10.6182 -3.5904
-23.4014 -13.5506 -3.8571
-23.3949 -16.5006 -4.0834
-23.3893 -19.8484 -4.3755
-23.1366 -23.4954 -4.7034
-30.0512 -36.5375 -6.7478
-25.0285 -36.6712 -6.3328
9.4251 -45.1567 -6.5797
19.1021 -30.2401 -5.1018
19.0877 -24.9635 -4.4823
22.7018 -24.7529 -4.7907
15.6090 -14.2292 -3.0127
15.7353 -11.9566 -2.8188
15.8054 -9.9174 -2.6615
15.7221 -8.0055 -2.5165
15.7175 -6.3062 -2.4156
16.6727 -5.0145 -2.4834
24.2914 -4.9937 -3.5373
42.5283 -4.8411 -6.1052
42.4377 -1.0161 -6.0549
34.2789 2.2474 -4.8999
34.2704 5.3505 -4.9474
20.1412 5.0204 -2.9607
16.2548 5.6347 -2.4539
16.2502 7.3173 -2.5420
16.2452 9.1403 -2.6587
16.2397 11.1557 -2.8102
14.6960 12.1616 -2.7209
12.2693 12.1550 -2.4634
12.1129 14.3613 -2.6798
12.1049 17.2729 -3.0085
12.0947 21.0330 -3.4607
11.9145 25.8115 -4.0549
-21.3336 34.7168 -5.8121
-21.3733 28.6814 -5.1020
-21.3602 23.8766 -4.5696
-21.5438 20.1331 -4.2059
-21.5519 16.8011 -3.8978
-20.7253 13.3649 -3.5175
-20.7990 10.9167 -3.3505
-20.7927 8.6428 -3.2118
-21.6021 6.7897 -3.2298
-31.4436 6.8707 -4.5908
-47.5934 -11.2394 -6.9752
-30.8413 -10.2654 -4.6363
-23.1897 -10.0988 -3.6077
-23.4031 -12.7889 -3.8040
-23.3968 -15.6495 -4.0149
-22.6236 -18.2551 -4.1464
-23.3804 -22.5961 -4.6378
-31.6041 -36.5432 -6.8913
-26.2757 -36.5235 -6.4176
-24.7255 -41.7927 -6.9262
9.4298 -25.0656 -3.8199
18.9847 -31.7692 -5.2789
19.0914 -26.2921 -4.6346
21.6013 -24.7559 -4.6863
25.8298 -24.7444 -5.1020
15.7346 -12.5823 -2.8736
15.7594 -10.4409 -2.6964
9.3599 -5.0614 -1.5177
15.8063 -6.8007 -2.4544
15.4944 -5.0815 -2.3259
21.6020 -5.0010 -3.1627
35.7070 -4.9625 -5.1420
42.4527 -2.0686 -6.0624
39.3092 1.6015 -5.6115
34.2728 4.4851 -4.9302
16.2603 3.6281 -2.3763
16.2560 5.1882 -2.4339
16.2515 6.8393 -2.5149
16.2466 8.6188 -2.6232
16.2405 10.5743 -2.7642
15.4622 12.1637 -2.8061
12.8942 12.1567 -2.5277
12.1148 13.6627 -2.6046
12.1073 16.3974 -2.9073
12.0978 19.8830 -3.3197
12.0334 24.4595 -3.8881
11.9006 30.8841 -4.7209
7.1348 37.3028 -5.4171
-23.2428 40.0111 -6.6000
-21.5894 30.5197 -5.3322
-21.5753 25.3527 -4.7484
-21.5154 21.1280 -4.3011
-21.5543 17.6777 -3.9761
-21.3346 14.5177 -3.6808
-20.8008 11.5831 -3.3959
-20.7944 9.2535 -3.2464
-20.7885 7.1039 -3.1335
-28.7586 7.0340 -4.2229
-29.4474 -0.8348 -4.2019
-48.1544 -10.1206 -7.0186
-31.9830 -9.7731 -4.7701
-25.5573 -10.3852 -3.9348
-23.4048 -12.0475 -3.7547
-23.3986 -14.8260 -3.9510
-17.6535 -13.5372 -3.1731
-23.3839 -21.5061 -4.5315
-22.6098 -24.8716 -4.7943
-27.6767 -36.5287 -6.5369
-24.7305 -39.5346 -6.6514
19.0953 -27.7150 -4.8006
20.5470 -24.7588 -4.5892
24.5855 -24.7478 -4.9757
15.7364 -13.2353 -2.9329
15.7303 -10.9913 -2.7372
15.7249 -9.0132 -2.5852
15.8076 -7.2700 -2.4818
15.7155 -5.5885 -2.3791
19.4266 -5.0070 -2.8615
30.2941 -4.9773 -4.3789
42.4753 -3.1250 -6.0749
42.4297 0.6776 -6.0527
34.2751 3.6251 -4.9161
17.9537 3.5419 -2.6102
17.0691 4.9858 -2.5364
16.2528 6.3711 -2.4900
16.2480 8.1108 -2.5903
16.2392 10.0101 -2.7210
16.2370 12.1350 -2.8913
13.5529 12.1585 -2.5970
12.1166 13.0017 -2.5350
12.1096 15.5784 -2.8144
9.4547 14.7066 -2.4938
11.9227 22.7924 -3.6689
11.9064 28.7569 -4.4394
-23.0852 42.1055 -6.8492
-17.6998 26.3827 -4.5315
-21.5788 26.6669 -4.8930
-21.3552 22.0350 -4.3768
-21.3851 18.4429 -4.0279
-21.5482 15.4568 -3.7825
-20.8027 12.2683 -3.4448
-20.7961 9.8779 -3.2839
-17.6699 6.5309 -2.6870
-25.3906 6.8804 -3.7522
-38.8699 6.8814 -5.6304
-28.2749 -2.6371 -4.0505
-35.0963 -9.7816 -5.1968
-27.8741 -10.5306 -4.2501
-22.7139 -10.9895 -3.5991
-23.4004 -14.0278 -3.8915
-23.3937 -17.0364 -4.1278
-23.3873 -20.4644 -4.4326
-22.7778 -23.8433 -4.7034
-29.1316 -36.5341 -6.6649
-24.7470 -37.4659 -6.4045
19.0994 -29.2447 -4.9821
19.5350 -24.7616 -4.4987
23.4005 -24.7510 -4.8584
15.7383 -13.9162 -2.9965
15.7319 -11.5822 -2.7865
15.8045 -9.5862 -2.6365
15.7446 -7.7187 -2.5011
15.7167 -6.0311 -2.4012
17.6282 -5.0119 -2.6141
26.2781 -4.9883 -3.8151
42.5058 -4.1871 -6.0922
42.4323 -0.3728 -6.0526
34.2775 2.7696 -4.9051
34.2690 5.8835 -4.9595
18.8025 4.9905 -2.7748
16.2540 5.9119 -2.4670
16.2494 7.6151 -2.5596
16.2437 9.4663 -2.6817
16.2387 11.5211 -2.8400
14.2493 12.1604 -2.6720
12.1183 12.3749 -2.4705
12.1117 14.8096 -2.7288
12.1034 17.8399 -3.0750
12.0926 21.7868 -3.5542
11.9116 26.8681 -4.1921
-21.3318 33.5629 -5.6724
-21.5827 28.0644 -5.0498
-21.5200 23.3338 -4.5276
-21.3478 19.3524 -4.1099
-21.5505 16.2810 -3.8525
-20.7241 12.9237 -3.4837
-20.7979 10.5173 -3.3242
-20.7917 8.2752 -3.1919
-22.7937 6.7865 -3.3922
-34.1291 6.9173 -4.9670
-47.5450 -11.9915 -6.9940
-30.1315 -10.5390 -4.5531
-22.9302 -10.4019 -3.5914
-22.8222 -12.9245 -3.7410
-23.3956 -16.1672 -4.0563
-23.3905 -19.4665 -4.3406
-23.3610 -23.2723 -4.7034
-30.6456 -36.5397 -6.8022
-25.4501 -36.5313 -6.3505
19.0536 -30.8142 -5.1676
19.0891 -25.4681 -4.5398
22.2694 -24.7541 -4.7493
15.5199 -14.4230 -3.0220
15.7336 -12.1952 -2.8394
15.7723 -10.1089 -2.6721
15.7226 -8.1966 -2.5291
15.7420 -6.4921 -2.4288
16.1154 -5.0160 -2.4074
23.1765 -4.9967 -3.3817
42.5442 -5.2569 -6.1144
42.4426 -1.4238 -6.0572
34.2798 1.9173 -4.8972
34.2713 5.0142 -4.9403
21.1719 5.0620 -3.1050
16.2553 5.4607 -2.4459
16.2507 7.1307 -2.5313
16.2458 8.9365 -2.6447
16.2403 10.9283 -2.7921
14.9875 12.1624 -2.7531
12.5078 12.1556 -2.4878
12.1137 14.0857 -2.6499
12.1059 16.9263 -2.9682
12.0959 20.5757 -3.4044
11.9162 25.1776 -3.9731
11.8967 32.3256 -4.9131
9.3510 34.6988 -5.1258
-23.2391 38.6442 -6.4319
-21.5112 29.4520 -5.2021
-21.5732 24.5854 -4.6654
-21.3505 20.3398 -4.2060
-21.5063 17.0998 -3.9190
-21.5447 14.1878 -3.6795
-20.7192 11.1298 -3.3547
-20.7934 8.8780 -3.2249
-20.9046 6.7916 -3.1351
-30.1009 6.8806 -4.4042
-47.6868 -10.7793 -6.9734
-30.8422 -9.9380 -4.6219
-24.8026 -10.5192 -3.8428
-23.4038 -12.4992 -3.7845
-23.3975 -15.3271 -3.9896
-22.9504 -18.1579 -4.1742
-23.3818 -22.1674 -4.5956
-22.7521 -25.8033 -4.9069
-26.8127 -36.5255 -6.4629
-24.7275 -40.8956 -6.8166
19.0928 -26.8319 -4.6972
21.1872 -24.7570 -4.6478
25.3399 -24.7457 -5.0519
15.7353 -12.8322 -2.8961
15.7293 -10.6395 -2.7086
9.2972 -5.1434 -1.5155
15.8068 -6.9814 -2.4647
15.4949 -5.2469 -2.3334
20.7062 -5.0035 -3.0384
33.3991 -4.9688 -4.8163
42.4605 -2.4775 -6.0667
39.3222 1.2242 -5.6115
34.2737 4.1511 -4.9244
24.0424 5.1228 -3.5063
16.2565 5.0170 -2.4267
16.2520 6.6567 -2.5050
16.2472 8.4204 -2.6102
16.2365 10.3513 -2.7465
15.7724 12.1646 -2.8411
13.1454 12.1574 -2.5539
12.1155 13.4021 -2.5769
12.1082 16.0736 -2.8704
9.2703 14.9117 -2.5044
11.9218 23.6569 -3.7786
11.9029 30.0281 -4.6073
7.5107 37.3233 -5.4303
-23.1592 40.7626 -6.6870
-21.4755 30.9849 -5.3773
-21.5766 25.8529 -4.8031
-21.5650 21.5870 -4.3522
-21.3437 17.8504 -3.9687
-21.5469 14.9667 -3.7420
-20.8015 11.8464 -3.4144
-20.7951 9.4939 -3.2606
-20.7891 7.3276 -3.1441
-26.9880 6.8760 -3.9724
-42.6178 6.8806 -6.1575
-33.1274 -9.7763 -4.9266
-25.5581 -10.1008 -3.9199
-22.6590 -11.3899 -3.6173
-23.3993 -14.5137 -3.9275
-17.8380 -13.4089 -3.1830
-23.3852 -21.0968 -4.4923
-22.6111 -24.3985 -4.7447
-28.2341 -36.5307 -6.5855
-24.7323 -38.7064 -6.5517
19.0968 -28.2945 -4.8690
20.1499 -24.7599 -4.5533
24.1193 -24.7490 -4.9292
15.7371 -13.4958 -2.9570
15.7309 -11.2179 -2.7559
15.7463 -9.2274 -2.6032
15.8081 -7.4548 -2.4929
15.7160 -5.7591 -2.3874
18.6904 -5.0090 -2.7600
28.6038 -4.9819 -4.1413
42.4862 -3.5360 -6.0810
42.4298 0.2703 -6.0521
34.2760 3.2930 -4.9115
34.2675 6.4194 -4.9728
17.7045 4.9875 -2.6236
16.2533 6.1921 -2.4808
16.2486 7.9172 -2.5781
16.2408 9.7973 -2.7054
16.2377 11.8944 -2.8710
13.8182 12.1592 -2.6254
12.1173 12.7549 -2.5094
12.1104 15.2746 -2.7804
12.1018 18.4327 -3.1452
11.9241 22.2722 -3.6034
12.0230 28.2678 -4.3815
-23.1727 43.2445 -6.9979
-21.4922 32.7096 -5.5825
-21.5803 27.1984 -4.9523
-21.3636 22.4711 -4.4225
-21.5578 18.9555 -4.0945
-21.5276 15.7571 -3.8052
-20.7230 12.4908 -3.4512
-20.7968 10.1240 -3.2992
-20.7907 7.9120 -3.1730
-24.5044 6.8933 -3.6309
-36.8145 6.8824 -5.3420
-28.5254 -2.3846 -4.0829
-36.4585 -9.7853 -5.3843
-28.7125 -10.5337 -4.3623
-22.7661 -10.7464 -3.5908
-23.4010 -13.7247 -3.8695
-23.3944 -16.6958 -4.0995
-23.3885 -20.0724 -4.3961
-23.0056 -23.6237 -4.7034
-29.7111 -36.5362 -6.7170
-24.8710 -36.8791 -6.3447
19.1011 -29.8694 -5.0571
19.1532 -24.7626 -4.4653
22.9557 -24.7522 -4.8152
15.7390 -14.1882 -3.0225
15.7325 -11.8171 -2.8065
15.8051 -9.7952 -2.6522
15.7218 -7.8955 -2.5094
15.7172 -6.2049 -2.4102
17.0119 -5.0136 -2.5297
24.9859 -4.9918 -3.6343
42.5197 -4.6008 -6.1002
42.4354 -0.7800 -6.0538
34.2784 2.4388 -4.9017
34.2699 5.5457 -4.9517
19.5657 4.9926 -2.8802
16.2545 5.7360 -2.4586
16.2499 7.4261 -2.5484
16.2449 9.2594 -2.6671
16.2394 11.2888 -2.8210
14.5303 12.1612 -2.7026
12.1333 12.1546 -2.4496
12.1125 14.5238 -2.6975
12.1044 17.4781 -3.0325
12.0628 21.2501 -3.4853
11.9134 26.1910 -4.1041
-21.3324 34.2861 -5.7597
-21.3898 28.3729 -5.0682
-21.5711 23.8443 -4.5863
-21.4092 19.7855 -4.1581
-21.5514 16.6090 -3.8809
-20.7249 13.2020 -3.5049
-20.7986 10.7695 -3.3407
-20.7924 8.5074 -3.2044
-22.0257 6.7886 -3.2875
-32.6976 6.9545 -4.7681
-30.1639 -1.7712 -4.3099
-47.5563 -11.5101 -6.9791
-30.8407 -10.4560 -4.6449
-23.0858 -10.2065 -3.6003
-23.3442 -12.9259 -3.8061
-23.3964 -15.8383 -4.0299
-23.3917 -19.0906 -4.3066
-23.3795 -22.8481 -4.6628
-31.2496 -36.5419 -6.8581
-25.9681 -36.5223 -6.3919
-24.7243 -42.3261 -6.9917
19.0104 -31.4141 -5.2373
19.0905 -25.9858 -4.5992
21.8443 -24.7553 -4.7091
15.5207 -14.7038 -3.0495
15.7342 -12.4392 -2.8609
15.7683 -10.3211 -2.6881
9.4305 -5.0320 -1.5246
15.8060 -6.6967 -2.4485
15.5913 -5.0175 -2.3362
22.1554 -4.9995 -3.2396
42.5612 -5.6742 -6.1244
42.4486 -1.8320 -6.0603
34.9743 1.6196 -4.9939
34.2722 4.6790 -4.9338
22.1189 5.0646 -3.2366
16.2557 5.2879 -2.4382
16.2512 6.9458 -2.5208
16.2463 8.7347 -2.6310
16.2409 10.7036 -2.7744
15.2859 12.1632 -2.7863
12.7510 12.1563 -2.5128
12.1144 13.8162 -2.6209
12.1068 16.5889 -2.9293
12.0971 20.1330 -3.3502
11.9189 24.5707 -3.8952
11.8992 31.3997 -4.7895
-23.1933 39.4198 -6.5237
-21.5069 30.0474 -5.2705
-21.5745 25.0680 -4.7175
-21.3516 20.7352 -4.2453
-21.5537 17.4777 -3.9581
-21.4384 14.4146 -3.6848
-20.8004 11.4319 -3.3854
-20.7940 9.1152 -3.2384
-20.7078 6.9480 -3.1155
-28.7854 6.8711 -4.2212
-47.9278 -10.3516 -6.9938
-31.5762 -9.8411 -4.7176
-25.4862 -10.5217 -3.9328
-23.4044 -12.2123 -3.7654
-23.3982 -15.0087 -3.9650
-23.3912 -18.1444 -4.2225
-23.3831 -21.7467 -4.5547
-22.6353 -25.1796 -4.8294
-27.3574 -36.5275 -6.5094
-24.7294 -40.0262 -6.7109
19.0944 -27.3866 -4.7620
20.7799 -24.7582 -4.6104
24.8597 -24.7470 -5.0033
15.7360 -13.0862 -2.9192
15.7299 -10.8613 -2.7265
9.3197 -5.2733 -1.5274
19.9226 -24.7605 -4.3334
23.8531 -24.7498 -4.6870
15.7375 -13.6487 -2.8405
15.7313 -11.3506 -2.6451
15.8040 -9.3796 -2.5059
15.8084 -7.5627 -2.3895
15.7163 -5.8585 -2.2871
18.2873 -5.0101 -2.5855
27.7058 -4.9844 -3.8385
41.9475 -3.7261 -5.7423
41.8886 0.0340 -5.7117
34.2766 3.1008 -4.6929
34.2680 6.2225 -4.7490
18.0931 4.9886 -2.5592
16.2536 6.0889 -2.3667
16.2489 7.8059 -2.4580
16.2438 9.6764 -2.5781
16.2381 11.7565 -2.7335
13.9746 12.1596 -2.5259
12.1177 12.6141 -2.3851
12.1109 15.1020 -2.6396
12.1024 18.2122 -2.9816
11.9249 21.9792 -3.4097
11.9117 27.5796 -4.0964
-23.0415 43.5798 -6.7218
-21.5969 33.2704 -5.4086
-21.4635 27.3621 -4.7419
-21.3570 22.7158 -4.2514
-21.5583 19.1696 -3.9336
-20.7308 15.3516 -3.5174
-20.8038 12.6978 -3.3234
-20.7972 10.2675 -3.1626
-20.7911 8.0447 -3.0398
-23.6122 6.7842 -3.3499
-35.5590 6.8526 -4.9379
-28.3967 -2.2150 -3.8838
-37.2942 -9.7876 -5.2575
-29.2191 -10.5356 -4.2353
-22.8224 -10.6182 -3.4323
-22.6377 -13.1084 -3.5669
-23.3949 -16.5006 -3.9037
-23.3893 -19.8484 -4.1828
-23.3767 -23.7392 -4.5430
-30.0512 -36.5375 -6.4507
-24.5981 -36.0406 -5.9498
9.4234 -45.1485 -6.2889
19.1021 -30.2401 -4.8772
19.0919 -24.9690 -4.2859
22.7018 -24.7529 -4.5798
15.6090 -14.2292 -2.8800
15.7482 -11.9664 -2.6970
15.8149 -9.9234 -2.5458
15.7221 -8.0054 -2.4057
15.7175 -6.3062 -2.3092
16.6727 -5.0145 -2.3740
24.2914 -4.9937 -3.3815
41.9805 -4.7787 -5.7612
41.8955 -1.0031 -5.7143
34.2789 2.2474 -4.6841
34.2704 5.3505 -4.7296
20.1412 5.0204 -2.8304
16.2548 5.6347 -2.3458
16.2502 7.3173 -2.4301
16.2452 9.1403 -2.5417
16.2397 11.1557 -2.6865
14.6960 12.1616 -2.6011
12.2693 12.1550 -2.3550
12.1129 14.3613 -2.5618
12.1049 17.2729 -2.8760
11.9991 20.8668 -3.2822
11.9145 25.8115 -3.8764
-21.4348 34.8816 -5.5825
-21.3909 28.7050 -4.8814
-21.3602 23.8766 -4.3684
-21.5610 20.1492 -4.0239
-21.5519 16.8011 -3.7262
-20.8058 13.4167 -3.3757
-20.7990 10.9167 -3.2030
-20.7927 8.6428 -3.0704
-21.6021 6.7897 -3.0876
-31.4436 6.8707 -4.3887
-30.8413 -10.2654 -4.4322
-23.1897 -10.0988 -3.4489
-22.6397 -12.3717 -3.5179
-23.3968 -15.6495 -3.8382
-22.6236 -18.2551 -3.9639
-23.3804 -22.5961 -4.4336
-31.6041 -36.5432 -6.5879
-25.7268 -35.7604 -6.0069
-24.7255 -41.7927 -6.6213
9.4296 -25.0650 -3.6516
19.1069 -31.9737 -5.0789
19.0914 -26.2921 -4.4305
21.6013 -24.7559 -4.4800
25.8298 -24.7444 -4.8774
15.7565 -12.5998 -2.7509
15.7594 -10.4409 -2.5777
9.3596 -5.0613 -1.4509
15.8063 -6.8007 -2.3463
15.4944 -5.0815 -2.2235
21.6020 -5.0010 -3.0235
35.7071 -4.9625 -4.9157
41.9096 -2.0422 -5.7214
40.0972 1.6336 -5.4720
34.2728 4.4851 -4.7131
16.2603 3.6281 -2.2717
16.2560 5.1882 -2.3267
16.2515 6.8393 -2.4042
16.2466 8.6188 -2.5077
16.2413 10.5749 -2.6427
15.4622 12.1637 -2.6826
12.8942 12.1567 -2.4164
12.1148 13.6627 -2.4899
12.1073 16.3974 -2.7793
12.0978 19.8829 -3.1736
12.0334 24.4595 -3.7170
11.9007 30.8843 -4.5131
-21.4494 36.9238 -5.8226
-21.4652 30.3440 -5.0682
-21.5753 25.3527 -4.5393
-21.5154 21.1280 -4.1117
-21.5543 17.6777 -3.8011
-20.8078 14.1592 -3.4319
-20.8008 11.5831 -3.2464
-20.7944 9.2535 -3.1035
-20.7885 7.1039 -2.9956
-28.1004 6.8730 -3.9446
-45.3032 6.8687 -6.2479
-29.3825 -0.8330 -4.0081
-33.0873 -10.1106 -4.7176
-24.0486 -9.7721 -3.5395
-22.6417 -11.6546 -3.4723
-23.3986 -14.8260 -3.7771
-17.6527 -13.5366 -3.0333
-23.3839 -21.5061 -4.3320
-23.2023 -25.5234 -4.7034
-27.6767 -36.5287 -6.2491
-24.3515 -38.9287 -6.2611
19.0953 -27.7150 -4.5892
20.5470 -24.7588 -4.3871
24.5855 -24.7478 -4.7566
15.7428 -13.2406 -2.8049
15.7303 -10.9913 -2.6166
15.7249 -9.0132 -2.4714
15.8076 -7.2700 -2.3725
15.7155 -5.5885 -2.2744
19.4266 -5.0070 -2.7355
30.2941 -4.9773 -4.1862
41.9309 -3.0849 -5.7330
41.8878 0.6689 -5.7124
34.3903 3.6373 -4.7155
18.0008 3.5512 -2.5018
17.0691 4.9858 -2.4247
16.2528 6.3711 -2.3803
16.2480 8.1108 -2.4762
16.2428 10.0124 -2.6018
16.2370 12.1350 -2.7640
13.5529 12.1585 -2.4827
12.1166 13.0017 -2.4234
12.1096 15.5784 -2.6905
9.4543 14.7059 -2.3839
11.9227 22.7924 -3.5074
11.9064 28.7570 -4.2440
8.1025 37.3299 -5.2087
-23.0852 42.1055 -6.5476
-17.6993 26.3819 -4.3319
-21.5788 26.6669 -4.6775
-21.3552 22.0350 -4.1841
-21.3851 18.4429 -3.8506
-20.7295 14.8695 -3.4786
-20.8027 12.2683 -3.2931
-20.7961 9.8779 -3.1393
-17.6693 6.5307 -2.5686
-25.3906 6.8804 -3.5870
-39.5002 6.9930 -5.4698
-28.2761 -2.6372 -3.8723
-35.0963 -9.7816 -4.9680
-27.8741 -10.5306 -4.0630
-22.7139 -10.9895 -3.4406
-22.6364 -13.5699 -3.5987
-23.3937 -17.0364 -3.9461
-23.3873 -20.4644 -4.2375
-23.3743 -24.4677 -4.6140
-29.1316 -36.5341 -6.3714
-24.1666 -36.5872 -5.9789
19.0994 -29.2446 -4.7628
19.5350 -24.7616 -4.3006
23.4005 -24.7510 -4.6445
15.7383 -13.9162 -2.8646
15.7319 -11.5822 -2.6638
15.8140 -9.5919 -2.5220
15.7446 -7.7187 -2.3910
15.7167 -6.0311 -2.2954
17.6282 -5.0119 -2.4990
26.2780 -4.9883 -3.6471
41.9594 -4.1333 -5.7491
41.8904 -0.3680 -5.7122
34.2775 2.7696 -4.6892
34.2690 5.8835 -4.7411
18.8025 4.9905 -2.6526
16.2540 5.9119 -2.3584
16.2494 7.6151 -2.4469
16.2443 9.4667 -2.5637
16.2387 11.5211 -2.7149
14.2493 12.1604 -2.5543
12.1183 12.3749 -2.3617
12.1117 14.8096 -2.6087
12.1034 17.8399 -2.9396
12.0926 21.7868 -3.3977
11.9116 26.8681 -4.0075
-21.4002 33.6705 -5.4400
-21.5827 28.0644 -4.8275
-21.5200 23.3338 -4.3282
-21.3478 19.3524 -3.9289
-21.5505 16.2810 -3.6828
-20.8046 12.9739 -3.3432
-20.7979 10.5173 -3.1779
-20.7917 8.2752 -3.0514
-22.7937 6.7865 -3.2429
-34.1291 6.9173 -4.7483
-30.1315 -10.5390 -4.3527
-22.9302 -10.4019 -3.4333
-22.6385 -12.8204 -3.5475
-23.3956 -16.1672 -3.8777
-23.3905 -19.4665 -4.1495
-23.3781 -23.2894 -4.4996
-30.6456 -36.5397 -6.5027
-24.9755 -35.8499 -5.9576
19.1039 -30.8956 -4.9531
19.0891 -25.4681 -4.3399
22.2694 -24.7541 -4.5402
15.5199 -14.4230 -2.8890
15.7644 -12.2191 -2.7197
15.8154 -10.1365 -2.5614
15.7226 -8.1966 -2.4177
15.7420 -6.4921 -2.3219
16.1154 -5.0160 -2.3014
23.1765 -4.9967 -3.2329
41.9954 -5.1891 -5.7699
41.9001 -1.4056 -5.7165
34.2798 1.9173 -4.6815
34.2713 5.0142 -4.7228
21.1719 5.0620 -2.9683
16.2553 5.4607 -2.3382
16.2507 7.1307 -2.4198
16.2458 8.9364 -2.5282
16.2403 10.9283 -2.6691
14.9875 12.1624 -2.6319
12.5078 12.1556 -2.3782
12.1137 14.0858 -2.5332
12.1059 16.9263 -2.8375
12.0004 20.4131 -3.2288
11.9162 25.1776 -3.7982
11.8967 32.3256 -4.6968
9.3508 34.6978 -4.9000
-21.6042 35.9255 -5.7162
-21.5112 29.4520 -4.9731
-21.5732 24.5854 -4.4600
-21.5621 20.5414 -4.0607
-21.5063 17.0998 -3.7465
-20.8066 13.7017 -3.3970
-20.7192 11.1298 -3.2070
-20.7934 8.8780 -3.0829
-20.9046 6.7916 -2.9971
-30.1009 6.8806 -4.2103
-30.8422 -9.9380 -4.4184
-23.4260 -9.9354 -3.4697
-22.6405 -12.0915 -3.4998
-23.3975 -15.3271 -3.8140
-22.9504 -18.1579 -3.9904
-23.3818 -22.1674 -4.3933
-22.8128 -25.8722 -4.7034
-26.2522 -35.7619 -6.0492
-24.7275 -40.8956 -6.5164
19.0928 -26.8319 -4.4904
21.1872 -24.7570 -4.4432
25.3399 -24.7457 -4.8295
15.7513 -12.8453 -2.7714
15.7293 -10.6395 -2.5894
9.2970 -5.1433 -1.4488
15.8068 -6.9814 -2.3562
15.4949 -5.2469 -2.2307
20.7062 -5.0035 -2.9047
33.3991 -4.9688 -4.6043
41.9170 -2.4458 -5.7253
41.0442 1.2778 -5.5993
34.3571 4.1612 -4.7190
24.0424 5.1228 -3.3519
16.2565 5.0170 -2.3198
16.2520 6.6567 -2.3947
16.2472 8.4204 -2.4952
16.2419 10.3547 -2.6265
15.7724 12.1646 -2.7160
13.1454 12.1574 -2.4415
12.1155 13.4021 -2.4635
12.1082 16.0736 -2.7440
9.2689 14.9095 -2.3938
11.9218 23.6569 -3.6122
11.9029 30.0281 -4.4044
-23.1592 40.7626 -6.3926
-21.3792 30.8461 -5.1175
-21.5766 25.8529 -4.5916
-21.5650 21.5870 -4.1606
-21.3437 17.8504 -3.7940
-20.7875 14.4392 -3.4512
-20.8015 11.8464 -3.2641
-20.7951 9.4939 -3.1171
-20.7891 7.3277 -3.0056
-26.9880 6.8760 -3.7975
-42.6178 6.8806 -5.8864
-33.1828 -9.7926 -4.7176
-24.6894 -9.7575 -3.6199
-22.6590 -11.3899 -3.4581
-23.3993 -14.5137 -3.7545
-17.8363 -13.4076 -3.0426
-23.3852 -21.0968 -4.2945
-23.4088 -25.2593 -4.6959
-28.2341 -36.5307 -6.2955
-23.9713 -37.5155 -6.0706
19.0968 -28.2945 -4.6546
20.1499 -24.7599 -4.3529
24.1193 -24.7490 -4.7122
15.7371 -13.4958 -2.8269
15.7309 -11.2179 -2.6345
15.7463 -9.2274 -2.4886
15.8081 -7.4548 -2.3832
15.7160 -5.7591 -2.2823
18.6904 -5.0090 -2.6385
28.6038 -4.9819 -3.9590
41.9411 -3.4906 -5.7387
41.8880 0.2668 -5.7118
34.2770 3.2931 -4.6954
18.9213 3.5446 -2.6249
17.7045 4.9875 -2.5081
16.2533 6.1921 -2.3716
16.2486 7.9172 -2.4646
16.2434 9.7989 -2.5867
16.2377 11.8944 -2.7446
13.8182 12.1592 -2.5098
12.1173 12.7549 -2.3989
12.1104 15.2746 -2.6580
12.1018 18.4327 -3.0067
11.9241 22.2722 -3.4448
12.0230 28.2678 -4.1886
8.4730 37.3062 -5.2165
-23.2521 43.3925 -6.7127
-21.5075 32.7329 -5.3406
-21.5803 27.1984 -4.7342
-21.3563 22.4634 -4.2263
-21.5578 18.9555 -3.9142
-20.7303 15.1735 -3.5030
-20.7230 12.4908 -3.2993
-20.7968 10.1240 -3.1539
-20.7907 7.9120 -3.0333
-24.1119 6.7829 -3.4154
-36.8145 6.8824 -5.1068
-28.4982 -2.3823 -3.8994
-36.4585 -9.7853 -5.1473
-28.7125 -10.5337 -4.1703
-22.7661 -10.7464 -3.4327
-22.6372 -13.2767 -3.5784
-23.3944 -16.6958 -3.9190
-23.3885 -20.0724 -4.2026
-23.3758 -24.0039 -4.5687
-29.7112 -36.5362 -6.4212
-24.4176 -36.2069 -5.9548
19.1011 -29.8695 -4.8344
19.1532 -24.7626 -4.2687
22.9557 -24.7522 -4.6032
15.7390 -14.1882 -2.8894
15.7325 -11.8171 -2.6830
15.8145 -9.8010 -2.5369
15.7218 -7.8955 -2.3989
15.7172 -6.2049 -2.3041
17.0119 -5.0136 -2.4183
24.9860 -4.9918 -3.4743
41.9725 -4.5416 -5.7566
41.8934 -0.7700 -5.7134
34.2784 2.4388 -4.6859
34.2699 5.5457 -4.7337
19.5657 4.9926 -2.7534
16.2545 5.7360 -2.3503
16.2499 7.4261 -2.4362
16.2449 9.2594 -2.5496
16.2394 11.2888 -2.6968
14.5303 12.1612 -2.5837
12.1333 12.1546 -2.3418
12.1125 14.5238 -2.5787
12.1044 17.4781 -2.8990
11.9984 21.1366 -3.3141
11.9134 26.1910 -3.9234
-21.3889 34.3769 -5.5207
-21.5842 28.6308 -4.8891
-21.5711 23.8444 -4.3843
-21.4092 19.7855 -3.9750
-21.5514 16.6090 -3.7101
-20.8054 13.2532 -3.3636
-20.7986 10.7694 -3.1936
-20.7924 8.5074 -3.0633
-22.0257 6.7886 -3.1427
-32.7866 6.9734 -4.5706
-30.2071 -1.7738 -4.1260
-30.8407 -10.4560 -4.4404
-23.0858 -10.2065 -3.4418
-22.6392 -12.5355 -3.5286
-23.3964 -15.8383 -3.8525
-23.3917 -19.0906 -4.1170
-23.3795 -22.8480 -4.4575
-31.2496 -36.5419 -6.5562
-25.4304 -35.7661 -5.9840
-24.7243 -42.3261 -6.6839
19.1058 -31.5717 -5.0319
19.0905 -25.9858 -4.3967
21.8443 -24.7553 -4.5018
15.5207 -14.7038 -2.9153
15.7594 -12.4591 -2.7393
15.8066 -10.3462 -2.5760
9.4302 -5.0319 -1.4575
15.8060 -6.6967 -2.3407
15.5913 -5.0175 -2.2333
22.1554 -4.9995 -3.0970
42.0113 -5.6009 -5.7792
41.9058 -1.8085 -5.7194
34.9742 1.6196 -4.7740
34.2722 4.6790 -4.7166
22.1189 5.0646 -3.0941
16.2557 5.2879 -2.3309
16.2512 6.9458 -2.4099
16.2463 8.7347 -2.5152
16.2409 10.7036 -2.6522
15.2859 12.1632 -2.6637
12.7510 12.1563 -2.4022
12.1144 13.8162 -2.5056
12.1068 16.5889 -2.8003
12.0971 20.1330 -3.2027
11.9189 24.5707 -3.7237
11.8992 31.3997 -4.5786
-21.3943 36.3622 -5.7527
-21.5069 30.0474 -5.0385
-21.5745 25.0680 -4.5098
-21.3516 20.7352 -4.0583
-21.5537 17.4777 -3.7838
-20.8074 13.9903 -3.4189
-20.8004 11.4319 -3.2364
-20.7940 9.1152 -3.0958
-20.7078 6.9480 -2.9783
-28.7854 6.8711 -4.0353
-46.7474 6.8220 -6.4418
-33.0305 -10.2944 -4.7176
-23.7871 -9.8203 -3.5090
-22.6412 -11.8141 -3.4823
-23.3982 -15.0087 -3.7904
-23.3912 -18.1444 -4.0366
-23.3831 -21.7467 -4.3542
-23.0601 -25.6521 -4.7034
-26.8876 -35.9002 -6.1159
-24.0903 -38.9918 -6.2496
19.0944 -27.3866 -4.5524
20.7799 -24.7582 -4.4074
24.8597 -24.7470 -4.7830
15.7459 -13.0945 -2.7925
15.7299 -10.8613 -2.6065
9.3193 -5.2731 -1.4601
20.0173 -24.8782 -4.1538
23.8531 -24.7498 -4.4715
15.7375 -13.6487 -2.7099
15.7313 -11.3506 -2.5235
15.8040 -9.3796 -2.3907
15.8084 -7.5627 -2.2797
15.7163 -5.8585 -2.1819
18.2872 -5.0101 -2.4666
27.7058 -4.9844 -3.6620
41.4167 -3.6789 -5.4089
41.3613 0.0336 -5.3805
34.2766 3.1008 -4.4771
19.5296 3.5462 -2.5821
18.0931 4.9886 -2.4415
16.2536 6.0889 -2.2579
16.2489 7.8059 -2.3450
16.2438 9.6764 -2.4596
16.2381 11.7565 -2.6079
13.9746 12.1596 -2.4097
12.1177 12.6141 -2.2754
12.1109 15.1020 -2.5182
12.1024 18.2122 -2.8445
11.9249 21.9792 -3.2529
11.9117 27.5796 -3.9080
-23.0415 43.5799 -6.4127
-21.3850 32.9439 -5.1093
-21.4635 27.3621 -4.5239
-21.5687 22.9409 -4.0961
-21.5583 19.1696 -3.7528
-20.8113 15.4112 -3.3687
-20.8038 12.6978 -3.1706
-20.7972 10.2675 -3.0172
-20.7911 8.0447 -2.9000
-23.6122 6.7842 -3.1959
-35.5590 6.8526 -4.7108
-28.3976 -2.2150 -3.7054
-37.2942 -9.7876 -5.0157
-29.2191 -10.5356 -4.0405
-22.8224 -10.6182 -3.2745
-22.6377 -13.1084 -3.4029
-22.6299 -15.9611 -3.6024
-23.3893 -19.8484 -3.9905
-23.3767 -23.7392 -4.3341
-29.4204 -35.7705 -6.0250
-24.5981 -36.0406 -5.6763
9.4119 -45.0936 -5.9925
19.1021 -30.2401 -4.6529
19.0949 -24.9729 -4.0894
22.7018 -24.7529 -4.3692
15.6090 -14.2292 -2.7476
15.7482 -11.9664 -2.5730
15.8149 -9.9234 -2.4288
15.7221 -8.0054 -2.2951
15.7175 -6.3062 -2.2031
16.6727 -5.0145 -2.2649
24.2914 -4.9937 -3.2261
41.4476 -4.7181 -5.4266
41.3679 -0.9905 -5.3829
34.2789 2.2474 -4.4688
34.2704 5.3505 -4.5121
20.1412 5.0204 -2.7003
16.2548 5.6347 -2.2380
16.2502 7.3173 -2.3183
16.2452 9.1403 -2.4248
16.2397 11.1557 -2.5630
14.6960 12.1616 -2.4815
12.2693 12.1550 -2.2467
12.1129 14.3613 -2.4440
12.1049 17.2729 -2.7438
12.0947 21.0330 -3.1562
11.9145 25.8115 -3.6982
-21.5155 35.0129 -5.3459
-21.3909 28.7050 -4.6569
-21.3602 23.8766 -4.1675
-21.5610 20.1493 -3.8389
-20.8135 16.2255 -3.4331
-20.8058 13.4167 -3.2205
-20.7990 10.9167 -3.0557
-20.7927 8.6428 -2.9292
-21.6021 6.7897 -2.9457
-31.4436 6.8707 -4.1869
-30.5993 -1.6261 -3.9862
-30.8413 -10.2654 -4.2284
-23.1897 -10.0988 -3.2903
-22.6397 -12.3717 -3.3562
-22.6321 -15.1381 -3.5420
-22.6236 -18.2551 -3.7816
-23.3804 -22.5961 -4.2298
-31.6041 -36.5432 -6.2850
-25.7268 -35.7604 -5.7307
-24.7255 -41.7927 -6.3169
9.4294 -25.0644 -3.4836
19.1069 -31.9737 -4.8454
19.0914 -26.2921 -4.2268
21.6013 -24.7559 -4.2740
25.8299 -24.7444 -4.6531
15.8129 -12.6448 -2.6338
15.7594 -10.4409 -2.4592
9.3593 -5.0611 -1.3841
15.8063 -6.8007 -2.2384
15.4944 -5.0815 -2.1212
21.6020 -5.0010 -2.8844
35.7071 -4.9625 -4.6896
41.3812 -2.0164 -5.3895
40.0973 1.6336 -5.2204
34.2728 4.4851 -4.4964
16.2603 3.6281 -2.1672
16.2560 5.1882 -2.2198
16.2515 6.8393 -2.2937
16.2466 8.6188 -2.3924
16.2413 10.5749 -2.5211
15.4622 12.1637 -2.5592
12.8942 12.1567 -2.3053
12.1148 13.6627 -2.3754
12.1073 16.3974 -2.6515
12.0978 19.8829 -3.0277
12.0334 24.4595 -3.5461
12.0249 31.2067 -4.3505
-21.6076 37.1962 -5.5959
-21.5894 30.5197 -4.8631
-21.5753 25.3527 -4.3306
-21.5154 21.1280 -3.9227
-20.7353 17.0060 -3.4885
-20.8078 14.1592 -3.2741
-20.8008 11.5831 -3.0971
-20.7944 9.2535 -2.9608
-20.7885 7.1039 -2.8578
-28.1004 6.8730 -3.7632
-45.3032 6.8687 -5.9607
-29.3640 -0.8325 -3.8214
-34.5081 -10.5447 -4.6939
-24.0486 -9.7721 -3.3768
-22.6417 -11.6547 -3.3127
-22.6343 -14.3417 -3.4857
-17.6518 -13.5359 -2.8937
-23.3839 -21.5061 -4.1328
-33.2238 -36.5474 -6.4252
-27.0975 -35.7642 -5.8370
-23.9689 -38.3171 -5.8794
19.0953 -27.7150 -4.3782
20.6447 -24.8765 -4.2053
24.5855 -24.7478 -4.5379
15.7519 -13.2483 -2.6775
15.7303 -10.9913 -2.4963
15.7249 -9.0132 -2.3578
15.8076 -7.2700 -2.2634
15.7155 -5.5885 -2.1698
19.4265 -5.0070 -2.6097
30.2941 -4.9773 -3.9937
41.4011 -3.0460 -5.4003
41.3605 0.6605 -5.3811
34.3903 3.6373 -4.4987
25.5707 5.0446 -3.3905
17.0691 4.9858 -2.3132
16.2528 6.3711 -2.2709
16.2480 8.1108 -2.3624
16.2428 10.0124 -2.4821
16.2370 12.1350 -2.6369
13.5529 12.1585 -2.3685
12.1166 13.0017 -2.3119
12.1096 15.5784 -2.5668
9.4539 14.7053 -2.2742
11.9227 22.7924 -3.3461
11.9064 28.7569 -4.0488
-21.4052 39.0414 -5.7920
-17.6988 26.3812 -4.1326
-21.5788 26.6669 -4.4625
-21.3552 22.0350 -3.9917
-21.3851 18.4429 -3.6735
-20.8099 14.9272 -3.3315
-20.8027 12.2683 -3.1417
-20.7961 9.8779 -2.9950
-17.6688 6.5305 -2.4504
-25.0215 6.7804 -3.3723
-39.5002 6.9930 -5.2183
-28.2774 -2.6373 -3.6945
-35.0963 -9.7816 -4.7395
-25.8360 -9.7606 -3.5928
-22.7139 -10.9895 -3.2824
-22.6364 -13.5699 -3.4333
-23.3937 -17.0364 -3.7647
-23.3873 -20.4644 -4.0426
-23.3743 -24.4677 -4.4019
-28.5208 -35.7681 -5.9511
-24.1666 -36.5873 -5.7040
19.0994 -29.2447 -4.5438
19.6279 -24.8793 -4.1224
23.4005 -24.7510 -4.4309
15.7383 -13.9162 -2.7329
15.7319 -11.5822 -2.5413
15.8140 -9.5919 -2.4060
15.7446 -7.7187 -2.2810
15.7167 -6.0311 -2.1899
17.6282 -5.0119 -2.3841
26.2780 -4.9883 -3.4795
41.4278 -4.0809 -5.4153
41.3631 -0.3634 -5.3810
34.2775 2.7696 -4.4736
34.2690 5.8835 -4.5231
18.8025 4.9905 -2.5306
16.2540 5.9119 -2.2499
16.2494 7.6151 -2.3344
16.2443 9.4667 -2.4458
16.2387 11.5211 -2.5901
14.2493 12.1604 -2.4369
12.1183 12.3749 -2.2531
12.1117 14.8096 -2.4888
12.1034 17.8399 -2.8044
12.0926 21.7868 -3.2415
11.9116 26.8681 -3.8232
9.0798 37.3479 -5.0000
-21.4002 33.6705 -5.1899
-21.5827 28.0644 -4.6055
-21.5200 23.3338 -4.1292
-21.3478 19.3524 -3.7483
-20.8121 15.7232 -3.3931
-20.8046 12.9739 -3.1895
-20.7979 10.5173 -3.0318
-20.7917 8.2752 -2.9111
-22.7936 6.7865 -3.0938
-34.1291 6.9173 -4.5300
-31.4310 0.6651 -4.0896
-30.1315 -10.5390 -4.1525
-22.9302 -10.4019 -3.2755
-22.6385 -12.8204 -3.3844
-22.6308 -15.6387 -3.5785
-23.3905 -19.4665 -3.9587
-23.3781 -23.2894 -4.2927
-30.0018 -35.7721 -6.0734
-24.9755 -35.8499 -5.6837
19.1039 -30.8956 -4.7254
19.2139 -25.6347 -4.1675
22.2694 -24.7541 -4.3315
15.5199 -14.4230 -2.7561
15.8118 -12.2558 -2.6024
15.8154 -10.1365 -2.4437
15.7226 -8.1966 -2.3066
15.7420 -6.4921 -2.2151
16.1154 -5.0160 -2.1956
23.1765 -4.9967 -3.0842
41.4614 -5.1231 -5.4346
41.3723 -1.3879 -5.3850
34.2798 1.9173 -4.4663
34.2713 5.0142 -4.5057
21.1719 5.0620 -2.8318
16.2553 5.4607 -2.2307
16.2507 7.1307 -2.3086
16.2458 8.9364 -2.4120
16.2403 10.9283 -2.5464
14.9875 12.1624 -2.5109
12.5078 12.1556 -2.2689
12.1137 14.0858 -2.4168
12.1059 16.9263 -2.7071
12.0959 20.5757 -3.1049
11.9162 25.1776 -3.6236
11.9396 32.4423 -4.4970
9.3505 34.6967 -4.6746
-21.6042 35.9256 -5.4534
-21.5112 29.4520 -4.7444
-21.3615 24.3442 -4.2132
-21.5621 20.5414 -3.8740
-20.7339 16.4857 -3.4459
-20.8066 13.7017 -3.2408
-20.7192 11.1298 -3.0595
-20.7934 8.8780 -2.9412
-20.9046 6.7916 -2.8593
-30.0442 6.8677 -4.0091
-30.8422 -9.9380 -4.2153
-23.4260 -9.9354 -3.3101
-22.6405 -12.0915 -3.3389
-22.6330 -14.8263 -3.5197
-22.9504 -18.1579 -3.8070
-23.3818 -22.1674 -4.1913
-32.1739 -36.4886 -6.3284
-26.2522 -35.7619 -5.7710
-23.9653 -39.6350 -6.0252
19.0928 -26.8319 -4.2839
21.1872 -24.7570 -4.2389
25.3399 -24.7457 -4.6074
15.8136 -12.8960 -2.6544
15.7293 -10.6395 -2.4703
9.2968 -5.1432 -1.3821
15.8068 -6.9814 -2.2479
15.4949 -5.2469 -2.1281
20.7062 -5.0035 -2.7711
33.3992 -4.9688 -4.3926
41.3881 -2.4150 -5.3932
41.3622 1.2877 -5.3833
34.3571 4.1612 -4.5021
24.0424 5.1228 -3.1978
16.2565 5.0170 -2.2132
16.2520 6.6567 -2.2846
16.2472 8.4204 -2.3805
16.2419 10.3547 -2.5057
15.7724 12.1646 -2.5911
13.1454 12.1574 -2.3292
12.1155 13.4021 -2.3502
12.1082 16.0736 -2.6178
9.2676 14.9074 -2.2834
11.9218 23.6569 -3.4461
11.9029 30.0281 -4.2019
-21.4185 37.6986 -5.6403
-21.4754 30.9849 -4.9042
-21.5766 25.8529 -4.3805
-21.5650 21.5870 -3.9693
-20.7362 17.3423 -3.5165
-20.8086 14.4539 -3.2959
-20.8015 11.8464 -3.1140
-20.7951 9.4939 -2.9737
-20.7891 7.3277 -2.8675
-26.9880 6.8760 -3.6229
-42.6178 6.8806 -5.6158
-34.7820 -10.2645 -4.7176
-24.6894 -9.7575 -3.4535
-22.6590 -11.3899 -3.2991
-22.6351 -14.0397 -3.4649
-17.8346 -13.4063 -2.9024
-23.3852 -21.0968 -4.0971
-23.4088 -25.2593 -4.4800
-27.6428 -35.7657 -5.8803
-23.9713 -37.5155 -5.7914
19.0968 -28.2945 -4.4406
20.2457 -24.8776 -4.1725
24.1193 -24.7490 -4.4955
15.7371 -13.4958 -2.6969
15.7309 -11.2179 -2.5134
15.7463 -9.2274 -2.3742
15.8081 -7.4548 -2.2736
15.7160 -5.7591 -2.1774
18.6904 -5.0090 -2.5172
28.6038 -4.9819 -3.7770
41.4107 -3.4465 -5.4056
41.3607 0.2635 -5.3806
34.2770 3.2931 -4.4795
18.9504 3.5500 -2.5081
17.7045 4.9875 -2.3928
16.2533 6.1921 -2.2626
16.2486 7.9172 -2.3513
16.2434 9.7989 -2.4678
16.2377 11.8944 -2.6184
13.8182 12.1592 -2.3944
12.1173 12.7549 -2.2886
12.1104 15.2746 -2.5358
12.1018 18.4327 -2.8684
11.9241 22.2722 -3.2864
12.0230 28.2678 -3.9960
-21.4041 39.9440 -5.8951
-21.3941 32.5603 -5.0682
-21.5803 27.1984 -4.5166
-21.3636 22.4711 -4.0334
-21.5578 18.9555 -3.7343
-20.7303 15.1735 -3.3419
-20.7230 12.4908 -3.1476
-20.7968 10.1240 -3.0089
-20.7907 7.9120 -2.8938
-24.1119 6.7829 -3.2584
-36.8145 6.8824 -4.8720
-28.5272 -2.3847 -3.7239
-36.4585 -9.7853 -4.9106
-28.7125 -10.5337 -3.9785
-22.7661 -10.7464 -3.2749
-22.6372 -13.2767 -3.4139
-22.6294 -16.1498 -3.6165
-23.3885 -20.0724 -4.0094
-23.3758 -24.0039 -4.3586
-29.0878 -35.7696 -5.9975
-24.4176 -36.2069 -5.6810
9.6775 -45.1109 -6.0018
19.1011 -29.8694 -4.6122
19.1532 -24.7626 -4.0724
22.9558 -24.7522 -4.3915
15.7390 -14.1882 -2.7565
15.7325 -11.8171 -2.5596
15.8145 -9.8010 -2.4203
15.7218 -7.8955 -2.2886
15.7172 -6.2049 -2.1982
17.0119 -5.0136 -2.3071
24.9859 -4.9918 -3.3146
41.4400 -4.4839 -5.4222
41.3658 -0.7603 -5.3820
34.2784 2.4388 -4.4704
34.2699 5.5457 -4.5160
19.5657 4.9926 -2.6268
16.2545 5.7360 -2.2423
16.2499 7.4261 -2.3242
16.2449 9.2594 -2.4324
16.2394 11.2888 -2.5728
14.5303 12.1612 -2.4649
12.1333 12.1546 -2.2341
12.1125 14.5238 -2.4602
12.1044 17.4781 -2.7657
12.0939 21.3049 -3.1869
11.9134 26.1910 -3.7430
-21.3889 34.3769 -5.2669
-21.5842 28.6308 -4.6643
-21.5711 23.8444 -4.1828
-21.4091 19.7855 -3.7922
-20.8130 16.0399 -3.4182
-20.8054 13.2532 -3.2090
-20.7986 10.7695 -3.0468
-20.7924 8.5074 -2.9224
-22.0257 6.7886 -2.9982
-32.7866 6.9734 -4.3605
-30.2503 -1.7763 -3.9419
-30.8407 -10.4560 -4.2363
-23.0858 -10.2065 -3.2836
-22.6392 -12.5355 -3.3664
-22.6316 -15.3206 -3.5552
-23.3917 -19.0906 -3.9277
-23.3795 -22.8481 -4.2525
-31.2496 -36.5419 -6.2548
-25.4304 -35.7661 -5.7089
-24.7243 -42.3261 -6.3766
19.1058 -31.5717 -4.8005
19.1044 -26.0047 -4.1976
21.8443 -24.7553 -4.2948
15.5207 -14.7038 -2.7812
15.8125 -12.5011 -2.6222
15.8066 -10.3462 -2.4575
9.4299 -5.0317 -1.3904
15.8060 -6.6967 -2.2331
15.5913 -5.0175 -2.1306
22.1554 -4.9995 -2.9546
41.4763 -5.5295 -5.4432
41.3776 -1.7857 -5.3877
34.9743 1.6196 -4.5545
34.2722 4.6790 -4.4997
22.1189 5.0646 -2.9518
16.2557 5.2879 -2.2237
16.2512 6.9458 -2.2990
16.2463 8.7347 -2.3995
16.2409 10.7036 -2.5303
15.2859 12.1632 -2.5412
12.7510 12.1563 -2.2917
12.1144 13.8162 -2.3904
12.1068 16.5889 -2.6716
12.0971 20.1330 -3.0554
11.9189 24.5707 -3.5525
12.0222 31.7243 -4.4133
-21.3943 36.3622 -5.4882
-21.5069 30.0474 -4.8068
-21.5745 25.0680 -4.3024
-21.3516 20.7352 -3.8718
-20.7348 16.8137 -3.4727
-20.8074 13.9903 -3.2617
-20.8004 11.4319 -3.0876
-20.7940 9.1152 -2.9535
-20.7078 6.9480 -2.8414
-28.7855 6.8711 -3.8498
-46.7474 6.8220 -6.1456
-33.8300 -10.5435 -4.6096
-23.7871 -9.8203 -3.3477
-22.6412 -11.8141 -3.3222
-22.6338 -14.5184 -3.4980
-23.3912 -18.1444 -3.8510
-23.3831 -21.7467 -4.1540
-32.1758 -35.7924 -6.2609
-26.7851 -35.7633 -5.8125
-23.9676 -38.7932 -5.9319
19.0944 -27.3866 -4.3430
20.7917 -24.7722 -4.2072
24.8597 -24.7470 -4.5631
15.7811 -13.1237 -2.6700
15.7299 -10.8613 -2.4867
9.3190 -5.2729 -1.3929
20.0173 -24.8782 -3.9540
23.8531 -24.7498 -4.2563
15.7375 -13.6487 -2.5795
15.7313 -11.3506 -2.4021
15.8040 -9.3796 -2.2757
15.8084 -7.5627 -2.1700
15.7163 -5.8585 -2.0769
18.2872 -5.0101 -2.3479
27.7058 -4.9844 -3.4858
41.1436 -3.6547 -5.1147
41.6849 0.0339 -5.1617
34.2766 3.1008 -4.2617
19.5296 3.5462 -2.4578
18.0931 4.9886 -2.3240
16.2536 6.0889 -2.1492
16.2489 7.8059 -2.2322
16.2438 9.6764 -2.3412
16.2381 11.7565 -2.4824
13.9746 12.1596 -2.2938
12.1177 12.6141 -2.1659
12.1109 15.1020 -2.3971
12.1024 18.2122 -2.7077
11.9249 21.9792 -3.0964
11.9117 27.5796 -3.7200
-21.4056 40.4857 -5.6708
-21.5969 33.2704 -4.9116
-21.4635 27.3621 -4.3062
-21.5687 22.9409 -3.8990
-20.8197 18.5128 -3.4498
-20.8113 15.4112 -3.2066
-20.8038 12.6978 -3.0180
-20.7972 10.2675 -2.8720
-20.7107 8.0136 -2.7498
-23.6122 6.7842 -3.0421
-35.5590 6.8526 -4.4842
-31.4933 0.3642 -3.9000
-37.2942 -9.7876 -4.7744
-27.0793 -9.7640 -3.5645
-22.8224 -10.6182 -3.1169
-22.6377 -13.1084 -3.2392
-22.6299 -15.9611 -3.4291
-23.3893 -19.8484 -3.7985
-23.1172 -23.4758 -4.0798
-29.4204 -35.7705 -5.7351
-24.5981 -36.0406 -5.4032
9.4236 -45.1497 -5.7112
19.1021 -30.2401 -4.4291
19.0949 -24.9729 -3.8927
22.7613 -24.8178 -4.1699
15.6090 -14.2292 -2.6154
15.7482 -11.9664 -2.4492
15.8149 -9.9234 -2.3119
15.7221 -8.0054 -2.1847
15.7175 -6.3062 -2.0971
16.6727 -5.0145 -2.1559
24.2914 -4.9937 -3.0708
41.1386 -4.6829 -5.1270
41.6878 -0.9981 -5.1635
34.2789 2.2474 -4.2538
34.2704 5.3505 -4.2950
20.1412 5.0204 -2.5703
16.2548 5.6347 -2.1303
16.2502 7.3173 -2.2068
16.2452 9.1403 -2.3081
16.2397 11.1557 -2.4397
14.6960 12.1616 -2.3621
12.2693 12.1550 -2.1386
10.2264 12.1246 -1.9641
12.1049 17.2729 -2.6118
12.0947 21.0330 -3.0043
11.9145 25.8115 -3.5202
-21.4287 34.8716 -5.0682
-21.3909 28.7050 -4.4328
-21.3602 23.8766 -3.9670
-20.7418 19.3837 -3.5153
-20.8135 16.2255 -3.2679
-20.8058 13.4167 -3.0655
-20.7990 10.9167 -2.9087
-20.7927 8.6428 -2.7883
-21.6021 6.7897 -2.8039
-31.4127 6.8639 -3.9815
-28.8238 -1.5318 -3.5742
-30.8413 -10.2654 -4.0250
-23.1897 -10.0988 -3.1320
-22.6397 -12.3717 -3.1947
-22.6321 -15.1381 -3.3716
-22.6236 -18.2551 -3.5997
-23.3804 -22.5961 -4.0262
-30.9395 -35.7747 -5.8567
-25.7268 -35.7604 -5.4550
-23.9629 -40.5038 -5.8275
9.4291 -25.0638 -3.3159
19.1069 -31.9737 -4.6123
19.0914 -26.2921 -4.0234
21.7040 -24.8736 -4.0877
25.8298 -24.7444 -4.4292
15.8223 -12.6524 -2.5086
15.7594 -10.4409 -2.3409
9.3590 -5.0610 -1.3175
15.8063 -6.8007 -2.1307
15.4944 -5.0815 -2.0192
21.6020 -5.0010 -2.7457
35.7071 -4.9625 -4.4640
41.6906 -2.0315 -5.1685
40.0973 1.6336 -4.9692
34.2728 4.4851 -4.2801
16.2603 3.6281 -2.0630
16.2560 5.1882 -2.1130
16.2515 6.8393 -2.1833
16.2466 8.6188 -2.2773
16.2413 10.5749 -2.3998
15.4622 12.1637 -2.4361
12.8942 12.1567 -2.1944
10.7523 12.1260 -2.0068
12.1073 16.3974 -2.5239
12.0978 19.8829 -2.8820
12.0334 24.4595 -3.3754
12.0247 31.2062 -4.1411
-21.6076 37.1962 -5.3266
-21.5894 30.5197 -4.6291
-21.5753 25.3527 -4.1222
-21.5154 21.1280 -3.7339
-20.8158 17.0721 -3.3336
-20.8078 14.1592 -3.1165
-20.8008 11.5831 -2.9481
-20.7944 9.2535 -2.8183
-20.7081 7.0765 -2.7098
-27.6920 6.7731 -3.5301
-45.0263 6.8267 -5.6392
-29.3900 -0.8332 -3.6407
-34.5081 -10.5447 -4.4681
-24.0486 -9.7721 -3.2143
-22.6417 -11.6546 -3.1533
-22.6343 -14.3417 -3.3180
-17.6510 -13.5353 -2.7543
-23.3839 -21.5061 -3.9340
-32.5253 -35.7790 -5.9874
-27.0975 -35.7642 -5.5562
-23.9689 -38.3171 -5.5965
19.0953 -27.7150 -4.1676
20.6447 -24.8765 -4.0030
24.5855 -24.7478 -4.3196
15.7519 -13.2483 -2.5487
15.7303 -10.9913 -2.3762
15.7249 -9.0132 -2.2443
15.8076 -7.2700 -2.1545
15.7155 -5.5885 -2.0654
19.4265 -5.0070 -2.4841
30.2941 -4.9773 -3.8015
41.6934 -3.0675 -5.1767
41.6832 0.6657 -5.1622
34.3903 3.6373 -4.2822
25.5707 5.0446 -3.2274
17.0691 4.9858 -2.2019
16.2528 6.3711 -2.1616
16.2480 8.1108 -2.2487
16.2428 10.0124 -2.3627
16.2370 12.1350 -2.5100
13.5529 12.1585 -2.2546
12.1166 13.0017 -2.2007
12.1096 15.5783 -2.4433
9.4535 14.7047 -2.1647
11.9227 22.7924 -3.1851
11.9064 28.7569 -3.8540
-21.4052 39.0414 -5.5133
-17.6983 26.3804 -3.9336
-21.3671 26.4052 -4.2061
-21.3552 22.0350 -3.7997
-20.8182 17.9540 -3.4041
-20.8099 14.9272 -3.1712
-20.8027 12.2683 -2.9905
-20.7961 9.8779 -2.8508
-17.6682 6.5303 -2.3324
-25.0215 6.7804 -3.2101
-39.5002 6.9930 -4.9672
-36.6993 -10.2284 -4.7176
-25.8360 -9.7606 -3.4199
-22.7139 -10.9895 -3.1245
-22.6364 -13.5699 -3.2681
-22.6285 -16.4792 -3.4663
-23.3873 -20.4644 -3.8481
-23.3743 -24.4677 -4.1901
-28.5208 -35.7681 -5.6647
-24.1666 -36.5872 -5.4296
19.0994 -29.2447 -4.3252
19.6279 -24.8793 -3.9240
23.4594 -24.8134 -4.2284
15.7383 -13.9162 -2.6014
15.7319 -11.5822 -2.4190
15.8140 -9.5919 -2.2902
15.7446 -7.7187 -2.1713
15.7167 -6.0311 -2.0845
17.6282 -5.0119 -2.2694
26.2780 -4.9883 -3.3120
41.1419 -4.0528 -5.1191
41.6860 -0.3662 -5.1621
34.2775 2.7696 -4.2583
20.6734 3.5494 -2.5974
18.8025 4.9905 -2.4089
16.2540 5.9119 -2.1417
16.2494 7.6151 -2.2221
16.2443 9.4667 -2.3281
16.2387 11.5211 -2.4655
14.2493 12.1604 -2.3196
12.1183 12.3749 -2.1447
10.0619 12.3033 -1.9681
12.1034 17.8399 -2.6695
12.0926 21.7868 -3.0855
11.9116 26.8681 -3.6393
-21.5519 41.7264 -5.8153
-21.4002 33.6705 -4.9402
-21.5827 28.0644 -4.3839
-21.5200 23.3338 -3.9306
-20.7402 18.8015 -3.4664
-20.8121 15.7232 -3.2299
-20.8046 12.9739 -3.0360
-20.7979 10.5173 -2.8859
-20.7917 8.2752 -2.7710
-22.7937 6.7865 -2.9449
-34.1291 6.9173 -4.3120
-31.2973 0.6623 -3.8763
-28.9153 -1.9765 -3.5888
-30.1315 -10.5390 -3.9527
-22.9302 -10.4019 -3.1179
-22.6385 -12.8204 -3.2216
-22.6308 -15.6387 -3.4063
-23.3905 -19.4665 -3.7682
-23.3781 -23.2894 -4.0862
-30.0018 -35.7721 -5.7812
-24.9755 -35.8499 -5.4103
-23.9590 -41.9346 -5.9804
19.1039 -30.8956 -4.4980
19.2139 -25.6347 -3.9669
22.2694 -24.7541 -4.1231
15.5199 -14.4230 -2.6235
15.8212 -12.2631 -2.4787
15.8154 -10.1366 -2.3261
15.7226 -8.1966 -2.1956
15.7420 -6.4921 -2.1086
16.1154 -5.0160 -2.0900
23.1765 -4.9967 -2.9358
41.1361 -5.0829 -5.1325
41.6889 -1.3985 -5.1651
34.2798 1.9173 -4.2514
34.2713 5.0142 -4.2889
21.1719 5.0620 -2.6955
16.2553 5.4607 -2.1234
16.2507 7.1307 -2.1975
16.2458 8.9365 -2.2959
16.2403 10.9283 -2.4239
14.9875 12.1624 -2.3901
12.5078 12.1556 -2.1597
10.4276 12.1252 -1.9803
12.1059 16.9263 -2.5768
12.0959 20.5757 -2.9555
11.9162 25.1776 -3.4492
12.0172 32.6531 -4.3084
9.3502 34.6957 -4.4495
-21.6042 35.9256 -5.1910
-21.5112 29.4520 -4.5161
-21.5732 24.5854 -4.0502
-21.5621 20.5413 -3.6876
-20.7339 16.4857 -3.2801
-20.8066 13.7017 -3.0849
-20.7192 11.1298 -2.9123
