ply
format ascii 1.0
element vertex 2176
property float32 x
property float32 y
property float32 z
end_header
0.8693 -0.5231 0.3645
0.9129 -0.4437 0.3647
0.9493 -0.3606 0.3649
0.9781 -0.2746 0.3651
0.9993 -0.1863 0.3652
1.0124 -0.0964 0.3654
1.0175 -0.0057 0.3656
1.0146 0.0852 0.3658
1.0035 0.1755 0.3660
0.9843 0.2645 0.3662
0.9573 0.3515 0.3665
0.9227 0.4358 0.3667
0.8806 0.5167 0.3668
0.8314 0.5935 0.3670
0.7755 0.6656 0.3672
0.7133 0.7325 0.3674
0.6453 0.7936 0.3676
0.5722 0.8484 0.3677
0.4944 0.8964 0.3678
0.4125 0.9373 0.3680
0.3273 0.9706 0.3681
0.2395 0.9962 0.3682
0.1496 1.0138 0.3682
0.0586 1.0233 0.3683
-0.0330 1.0245 0.3683
-0.1243 1.0175 0.3683
-0.2146 1.0024 0.3683
-0.3032 0.9792 0.3683
-0.3893 0.9481 0.3683
-0.4723 0.9094 0.3682
-0.5515 0.8635 0.3682
-0.6262 0.8106 0.3681
-0.6959 0.7513 0.3680
-0.7599 0.6860 0.3678
-0.8178 0.6152 0.3677
-0.8691 0.5395 0.3676
-0.9133 0.4596 0.3674
-0.9503 0.3761 0.3672
-0.9796 0.2897 0.3671
-1.0010 0.2010 0.3669
-1.0144 0.1108 0.3667
-1.0197 0.0198 0.3665
-1.0168 -0.0712 0.3663
-1.0058 -0.1616 0.3661
-0.9868 -0.2506 0.3659
-0.9600 -0.3375 0.3657
-0.9256 -0.4216 0.3655
-0.8838 -0.5022 0.3653
-0.8350 -0.5788 0.3651
-0.7796 -0.6507 0.3649
-0.7181 -0.7173 0.3647
-0.6509 -0.7782 0.3646
-0.5786 -0.8329 0.3644
-0.5018 -0.8809 0.3643
-0.4211 -0.9218 0.3642
-0.3370 -0.9554 0.3640
-0.2503 -0.9815 0.3640
-0.1617 -0.9997 0.3639
-0.0718 -1.0100 0.3638
0.0186 -1.0122 0.3638
0.1088 -1.0065 0.3638
0.1982 -0.9927 0.3638
0.2860 -0.9711 0.3638
0.3716 -0.9418 0.3638
0.4542 -0.9050 0.3639
0.5333 -0.8610 0.3639
0.6081 -0.8102 0.3640
0.6782 -0.7529 0.3641
0.7429 -0.6896 0.3642
0.8018 -0.6208 0.3644
0.8543 -0.5469 0.3645
0.9001 -0.4687 0.3647
0.9388 -0.3867 0.3648
0.9700 -0.3015 0.3650
0.9936 -0.2138 0.3652
1.0092 -0.1244 0.3654
1.0168 -0.0338 0.3656
1.0163 0.0571 0.3658
1.0078 0.1476 0.3660
0.9911 0.2371 0.3662
0.9665 0.3248 0.3664
0.9342 0.4100 0.3666
0.8944 0.4920 0.3668
0.8473 0.5701 0.3670
0.7935 0.6438 0.3672
0.7332 0.7124 0.3673
0.6670 0.7753 0.3675
0.5954 0.8321 0.3677
0.5189 0.8823 0.3678
0.4383 0.9254 0.3679
0.3541 0.9611 0.3680
0.2669 0.9891 0.3681
0.1776 1.0092 0.3682
0.0869 1.0212 0.3683
-0.0046 1.0250 0.3683
-0.0961 1.0206 0.3683
-0.1868 1.0079 0.3683
-0.2760 0.9872 0.3683
-0.3629 0.9586 0.3683
-0.4470 0.9222 0.3683
-0.5274 0.8785 0.3682
-0.6036 0.8277 0.3681
-0.6748 0.7704 0.3680
-0.7407 0.7068 0.3679
-0.8005 0.6377 0.3678
-0.8539 0.5635 0.3676
-0.9004 0.4848 0.3675
-0.9396 0.4023 0.3673
-0.9713 0.3167 0.3671
-0.9952 0.2287 0.3669
-1.0111 0.1388 0.3667
-1.0189 0.0480 0.3665
-1.0186 -0.0431 0.3663
-1.0101 -0.1337 0.3661
-0.9936 -0.2232 0.3659
-0.9692 -0.3108 0.3657
-0.9370 -0.3959 0.3655
-0.8975 -0.4776 0.3653
-0.8508 -0.5555 0.3651
-0.7975 -0.6289 0.3649
-0.7378 -0.6973 0.3648
-0.6723 -0.7600 0.3646
-0.6016 -0.8166 0.3645
-0.5261 -0.8667 0.3643
-0.4465 -0.9099 0.3642
-0.3634 -0.9458 0.3641
-0.2774 -0.9742 0.3640
-0.1894 -0.9949 0.3639
-0.0998 -1.0076 0.3638
-0.0095 -1.0124 0.3638
0.0809 -1.0091 0.3638
0.1706 -0.9979 0.3638
0.2590 -0.9787 0.3638
0.3454 -0.9517 0.3638
0.4290 -0.9172 0.3638
0.5092 -0.8754 0.3639
0.5854 -0.8267 0.3640
0.6570 -0.7713 0.3641
0.7235 -0.7098 0.3642
0.7842 -0.6426 0.3643
0.8387 -0.5703 0.3645
0.8867 -0.4934 0.3646
0.9276 -0.4125 0.3648
0.9611 -0.3282 0.3649
0.9871 -0.2412 0.3651
1.0052 -0.1523 0.3653
1.0153 -0.0620 0.3655
1.0174 0.0289 0.3657
1.0113 0.1197 0.3659
0.9971 0.2095 0.3661
0.9750 0.2979 0.3663
0.9450 0.3839 0.3665
0.9075 0.4670 0.3667
0.8627 0.5464 0.3669
0.8109 0.6215 0.3671
0.7525 0.6917 0.3673
0.6881 0.7565 0.3675
0.6181 0.8152 0.3676
0.5431 0.8675 0.3678
0.4637 0.9128 0.3679
0.3805 0.9508 0.3680
0.2942 0.9813 0.3681
0.2055 1.0038 0.3682
0.1151 1.0184 0.3682
0.0238 1.0247 0.3683
-0.0678 1.0228 0.3683
-0.1588 1.0127 0.3683
-0.2485 0.9945 0.3683
-0.3363 0.9683 0.3683
-0.4213 0.9343 0.3683
-0.5029 0.8928 0.3682
-0.5805 0.8442 0.3681
-0.6533 0.7888 0.3680
-0.7209 0.7271 0.3679
-0.7826 0.6597 0.3678
-0.8381 0.5870 0.3677
-0.8867 0.5096 0.3675
-0.9283 0.4283 0.3673
-0.9623 0.3436 0.3672
-0.9886 0.2562 0.3670
-1.0070 0.1668 0.3668
-1.0174 0.0762 0.3666
-1.0196 -0.0148 0.3664
-1.0136 -0.1057 0.3662
-0.9996 -0.1956 0.3660
-0.9776 -0.2839 0.3658
-0.9478 -0.3698 0.3656
-0.9105 -0.4527 0.3654
-0.8660 -0.5318 0.3652
-0.8147 -0.6067 0.3650
-0.7569 -0.6767 0.3648
-0.6932 -0.7412 0.3647
-0.6240 -0.7998 0.3645
-0.5499 -0.8519 0.3644
-0.4716 -0.8973 0.3642
-0.3895 -0.9355 0.3641
-0.3043 -0.9662 0.3640
-0.2168 -0.9893 0.3639
-0.1277 -1.0045 0.3639
-0.0375 -1.0118 0.3638
0.0529 -1.0110 0.3638
0.1430 -1.0022 0.3638
0.2318 -0.9854 0.3638
0.3189 -0.9609 0.3638
0.4034 -0.9287 0.3638
0.4847 -0.8891 0.3639
0.5623 -0.8425 0.3640
0.6354 -0.7891 0.3640
0.7035 -0.7295 0.3642
0.7660 -0.6640 0.3643
0.8225 -0.5932 0.3644
0.8725 -0.5177 0.3646
0.9157 -0.4379 0.3647
0.9516 -0.3546 0.3649
0.9799 -0.2684 0.3651
1.0004 -0.1800 0.3653
1.0131 -0.0900 0.3655
1.0176 0.0007 0.3657
1.0140 0.0916 0.3659
1.0024 0.1818 0.3661
0.9827 0.2707 0.3663
0.9552 0.3575 0.3665
0.9199 0.4416 0.3667
0.8773 0.5222 0.3669
0.8276 0.5987 0.3670
0.7713 0.6705 0.3672
0.7087 0.7370 0.3674
0.6404 0.7977 0.3676
0.5669 0.8520 0.3677
0.4887 0.8995 0.3678
0.4066 0.9398 0.3680
0.3212 0.9727 0.3681
0.2332 0.9977 0.3682
0.1433 1.0147 0.3682
0.0521 1.0236 0.3683
-0.0394 1.0243 0.3683
-0.1307 1.0167 0.3683
-0.2209 1.0010 0.3683
-0.3093 0.9772 0.3683
-0.3953 0.9456 0.3683
-0.4780 0.9064 0.3682
-0.5569 0.8600 0.3682
-0.6313 0.8067 0.3681
-0.7005 0.7469 0.3680
-0.7642 0.6812 0.3678
-0.8216 0.6100 0.3677
-0.8724 0.5341 0.3676
-0.9162 0.4539 0.3674
-0.9526 0.3701 0.3672
-0.9813 0.2835 0.3670
-1.0022 0.1947 0.3668
-1.0150 0.1044 0.3667
-1.0198 0.0134 0.3665
-1.0163 -0.0776 0.3662
-1.0048 -0.1679 0.3660
-0.9852 -0.2568 0.3658
-0.9578 -0.3435 0.3656
-0.9229 -0.4274 0.3654
-0.8806 -0.5078 0.3652
-0.8313 -0.5840 0.3651
-0.7755 -0.6555 0.3649
-0.7136 -0.7218 0.3647
-0.6460 -0.7823 0.3645
-0.5734 -0.8365 0.3644
-0.4963 -0.8840 0.3643
-0.4153 -0.9244 0.3641
-0.3310 -0.9575 0.3640
-0.2442 -0.9830 0.3639
-0.1554 -1.0007 0.3639
-0.0655 -1.0104 0.3638
0.0249 -1.0121 0.3638
0.1151 -1.0058 0.3638
0.2044 -0.9915 0.3638
0.2921 -0.9693 0.3638
0.3775 -0.9395 0.3638
0.4599 -0.9022 0.3639
0.5387 -0.8577 0.3639
0.6132 -0.8064 0.3640
0.6829 -0.7486 0.3641
0.7473 -0.6849 0.3642
0.8057 -0.6157 0.3644
0.8578 -0.5416 0.3645
0.9031 -0.4631 0.3647
0.9412 -0.3808 0.3648
0.9719 -0.2954 0.3650
0.9949 -0.2076 0.3652
1.0100 -0.1180 0.3654
1.0171 -0.0275 0.3656
1.0160 0.0635 0.3658
1.0069 0.1540 0.3660
0.9897 0.2434 0.3662
0.9645 0.3309 0.3664
0.9317 0.4159 0.3666
0.8913 0.4976 0.3668
0.8438 0.5755 0.3670
0.7894 0.6488 0.3672
0.7287 0.7170 0.3673
0.6621 0.7795 0.3675
0.5902 0.8359 0.3677
0.5134 0.8855 0.3678
0.4325 0.9281 0.3679
0.3480 0.9633 0.3680
0.2607 0.9908 0.3681
0.1713 1.0103 0.3682
0.0805 1.0217 0.3683
-0.0110 1.0250 0.3683
-0.1025 1.0199 0.3683
-0.1931 1.0067 0.3683
-0.2822 0.9854 0.3683
-0.3690 0.9563 0.3683
-0.4528 0.9194 0.3682
-0.5329 0.8752 0.3682
-0.6087 0.8239 0.3681
-0.6797 0.7661 0.3680
-0.7451 0.7022 0.3679
-0.8045 0.6326 0.3677
-0.8574 0.5581 0.3676
-0.9034 0.4791 0.3674
-0.9421 0.3964 0.3673
-0.9733 0.3106 0.3671
-0.9966 0.2224 0.3669
-1.0119 0.1325 0.3667
-1.0192 0.0416 0.3665
-1.0183 -0.0495 0.3663
-1.0092 -0.1401 0.3661
-0.9921 -0.2294 0.3659
-0.9672 -0.3169 0.3657
-0.9345 -0.4017 0.3655
-0.8944 -0.4833 0.3653
-0.8473 -0.5609 0.3651
-0.7935 -0.6339 0.3649
-0.7334 -0.7019 0.3648
-0.6675 -0.7642 0.3646
-0.5964 -0.8204 0.3644
-0.5206 -0.8700 0.3643
-0.4407 -0.9127 0.3642
-0.3574 -0.9481 0.3641
-0.2713 -0.9759 0.3640
-0.1831 -0.9960 0.3639
-0.0935 -1.0082 0.3638
-0.0031 -1.0124 0.3638
0.0872 -1.0086 0.3638
0.1769 -0.9968 0.3638
0.2652 -0.9770 0.3638
0.3513 -0.9495 0.3638
0.4347 -0.9145 0.3638
0.5147 -0.8722 0.3639
0.5906 -0.8230 0.3640
0.6619 -0.7672 0.3641
0.7279 -0.7053 0.3642
0.7882 -0.6377 0.3643
0.8423 -0.5650 0.3645
0.8898 -0.4878 0.3646
0.9302 -0.4067 0.3648
0.9632 -0.3222 0.3650
0.9886 -0.2350 0.3651
1.0062 -0.1460 0.3653
1.0157 -0.0556 0.3655
1.0172 0.0353 0.3657
1.0106 0.1260 0.3659
0.9958 0.2158 0.3661
0.9732 0.3040 0.3663
0.9427 0.3898 0.3665
0.9046 0.4727 0.3667
0.8592 0.5518 0.3669
0.8070 0.6266 0.3671
0.7482 0.6965 0.3673
0.6834 0.7608 0.3675
0.6130 0.8191 0.3676
0.5377 0.8709 0.3678
0.4580 0.9157 0.3679
0.3745 0.9532 0.3680
0.2880 0.9831 0.3681
0.1992 1.0051 0.3682
0.1087 1.0191 0.3683
0.0173 1.0248 0.3683
-0.0742 1.0224 0.3683
-0.1651 1.0117 0.3683
-0.2548 0.9929 0.3683
-0.3423 0.9661 0.3683
-0.4271 0.9316 0.3683
-0.5085 0.8896 0.3682
-0.5857 0.8405 0.3681
-0.6582 0.7847 0.3680
-0.7254 0.7226 0.3679
-0.7867 0.6547 0.3678
-0.8417 0.5817 0.3676
-0.8899 0.5040 0.3675
-0.9309 0.4224 0.3673
-0.9644 0.3375 0.3672
-0.9902 0.2500 0.3670
-1.0080 0.1605 0.3668
-1.0178 0.0699 0.3666
-1.0194 -0.0212 0.3664
-1.0129 -0.1121 0.3662
-0.9983 -0.2019 0.3660
-0.9757 -0.2900 0.3658
-0.9454 -0.3757 0.3656
-0.9076 -0.4584 0.3654
-0.8627 -0.5373 0.3652
-0.8108 -0.6118 0.3650
-0.7526 -0.6814 0.3648
-0.6885 -0.7455 0.3646
-0.6190 -0.8036 0.3645
-0.5446 -0.8553 0.3643
-0.4659 -0.9002 0.3642
-0.3836 -0.9379 0.3641
-0.2983 -0.9681 0.3640
-0.2106 -0.9906 0.3639
-0.1214 -1.0053 0.3639
-0.0311 -1.0120 0.3638
0.0593 -1.0106 0.3638
0.1492 -1.0013 0.3638
0.2380 -0.9840 0.3638
0.3249 -0.9589 0.3638
0.4092 -0.9262 0.3638
0.4903 -0.8861 0.3639
0.5676 -0.8390 0.3640
0.6403 -0.7852 0.3641
0.7080 -0.7251 0.3642
0.7702 -0.6592 0.3643
0.8263 -0.5881 0.3644
0.8758 -0.5122 0.3646
0.9184 -0.4322 0.3647
0.9538 -0.3487 0.3649
0.9816 -0.2623 0.3651
1.0016 -0.1737 0.3653
1.0136 -0.0837 0.3655
1.0176 0.0071 0.3657
1.0135 0.0980 0.3659
1.0013 0.1881 0.3661
0.9810 0.2769 0.3663
0.9529 0.3635 0.3665
0.9172 0.4474 0.3667
0.8741 0.5277 0.3669
0.8239 0.6039 0.3671
0.7671 0.6754 0.3672
0.7041 0.7415 0.3674
0.6354 0.8017 0.3676
0.5615 0.8555 0.3677
0.4831 0.9026 0.3679
0.4007 0.9424 0.3680
0.3151 0.9747 0.3681
0.2269 0.9992 0.3682
0.1369 1.0156 0.3682
0.0457 1.0239 0.3683
-0.0458 1.0240 0.3683
-0.1371 1.0159 0.3683
-0.2272 0.9996 0.3683
-0.3155 0.9753 0.3683
-0.4012 0.9431 0.3683
-0.4837 0.9034 0.3682
-0.5623 0.8565 0.3681
-0.6363 0.8027 0.3681
-0.7052 0.7425 0.3679
-0.7684 0.6764 0.3678
-0.8254 0.6049 0.3677
-0.8757 0.5286 0.3675
-0.9190 0.4481 0.3674
-0.9549 0.3641 0.3672
-0.9831 0.2773 0.3670
-1.0034 0.1884 0.3668
-1.0156 0.0980 0.3666
-1.0198 0.0070 0.3664
-1.0158 -0.0840 0.3662
-1.0036 -0.1742 0.3660
-0.9836 -0.2629 0.3658
-0.9556 -0.3495 0.3656
-0.9201 -0.4331 0.3654
-0.8773 -0.5132 0.3652
-0.8276 -0.5892 0.3650
-0.7713 -0.6604 0.3649
-0.7090 -0.7262 0.3647
-0.6411 -0.7863 0.3645
-0.5681 -0.8400 0.3644
-0.4907 -0.8870 0.3643
-0.4094 -0.9270 0.3641
-0.3250 -0.9596 0.3640
-0.2380 -0.9845 0.3639
-0.1492 -1.0016 0.3639
-0.0592 -1.0108 0.3638
0.0313 -1.0119 0.3638
0.1215 -1.0050 0.3638
0.2107 -0.9902 0.3638
0.2982 -0.9675 0.3638
0.3834 -0.9371 0.3638
0.4656 -0.8993 0.3639
0.5441 -0.8543 0.3639
0.6136 -0.7819 0.3641
0.6811 -0.7243 0.3642
0.7432 -0.6608 0.3643
0.7995 -0.5921 0.3644
0.8495 -0.5185 0.3646
0.8928 -0.4408 0.3647
0.9290 -0.3596 0.3649
0.9578 -0.2754 0.3651
0.9791 -0.1889 0.3652
0.9925 -0.1008 0.3654
0.9981 -0.0118 0.3656
0.9957 0.0773 0.3658
0.9854 0.1660 0.3660
0.9672 0.2534 0.3662
0.9412 0.3389 0.3664
0.9077 0.4218 0.3666
0.8669 0.5014 0.3668
0.8191 0.5770 0.3670
0.7647 0.6481 0.3672
0.7041 0.7141 0.3674
0.6379 0.7744 0.3675
0.5664 0.8286 0.3677
0.4904 0.8762 0.3678
0.4104 0.9167 0.3679
0.3270 0.9500 0.3680
0.2410 0.9756 0.3681
0.1530 0.9934 0.3682
0.0637 1.0033 0.3682
-0.0261 1.0051 0.3683
-0.1157 0.9988 0.3683
-0.2043 0.9845 0.3683
-0.2914 0.9623 0.3683
-0.3760 0.9323 0.3682
-0.4577 0.8949 0.3682
-0.5356 0.8504 0.3681
-0.6092 0.7990 0.3680
-0.6779 0.7412 0.3679
-0.7411 0.6775 0.3678
-0.7984 0.6085 0.3677
-0.8491 0.5346 0.3675
-0.8931 0.4565 0.3674
-0.9298 0.3748 0.3672
-0.9591 0.2902 0.3670
-0.9807 0.2033 0.3669
-0.9944 0.1149 0.3667
-1.0002 0.0257 0.3665
-0.9979 -0.0636 0.3663
-0.9877 -0.1524 0.3661
-0.9696 -0.2398 0.3659
-0.9439 -0.3252 0.3657
-0.9106 -0.4079 0.3655
-0.8701 -0.4873 0.3653
-0.8227 -0.5627 0.3651
-0.7688 -0.6336 0.3649
-0.7089 -0.6993 0.3648
-0.6434 -0.7595 0.3646
-0.5728 -0.8135 0.3645
-0.4977 -0.8611 0.3643
-0.4188 -0.9018 0.3642
-0.3365 -0.9353 0.3641
-0.2516 -0.9613 0.3640
-0.1648 -0.9798 0.3639
-0.0767 -0.9904 0.3639
0.0120 -0.9932 0.3638
0.1006 -0.9881 0.3638
0.1884 -0.9752 0.3638
0.2746 -0.9545 0.3638
0.3588 -0.9263 0.3638
0.4400 -0.8907 0.3639
0.5179 -0.8480 0.3640
0.5916 -0.7986 0.3640
0.6607 -0.7428 0.3641
0.7246 -0.6811 0.3643
0.7827 -0.6139 0.3644
0.8347 -0.5418 0.3645
0.8801 -0.4653 0.3647
0.9185 -0.3851 0.3648
0.9497 -0.3017 0.3650
0.9733 -0.2159 0.3652
0.9892 -0.1282 0.3654
0.9972 -0.0395 0.3656
0.9973 0.0497 0.3658
0.9894 0.1386 0.3660
0.9737 0.2265 0.3662
0.9501 0.3127 0.3664
0.9189 0.3964 0.3666
0.8803 0.4771 0.3668
0.8346 0.5540 0.3669
0.7822 0.6266 0.3671
0.7235 0.6942 0.3673
0.6590 0.7564 0.3675
0.5891 0.8125 0.3676
0.5144 0.8622 0.3678
0.4356 0.9049 0.3679
0.3532 0.9405 0.3680
0.2679 0.9685 0.3681
0.1804 0.9888 0.3682
0.0915 1.0011 0.3682
0.0018 1.0054 0.3683
-0.0879 1.0016 0.3683
-0.1770 0.9898 0.3683
-0.2646 0.9700 0.3683
-0.3501 0.9424 0.3683
-0.4327 0.9073 0.3682
-0.5119 0.8649 0.3681
-0.5869 0.8156 0.3681
-0.6572 0.7598 0.3680
-0.7222 0.6979 0.3679
-0.7813 0.6304 0.3677
-0.8341 0.5580 0.3676
-0.8802 0.4811 0.3674
-0.9192 0.4004 0.3673
-0.9509 0.3167 0.3671
-0.9748 0.2304 0.3669
-0.9910 0.1424 0.3667
-0.9992 0.0534 0.3665
-0.9995 -0.0360 0.3663
-0.9917 -0.1250 0.3661
-0.9761 -0.2129 0.3659
-0.9527 -0.2989 0.3657
-0.9217 -0.3826 0.3655
-0.8834 -0.4631 0.3653
-0.8381 -0.5398 0.3652
-0.7862 -0.6121 0.3650
-0.7281 -0.6795 0.3648
-0.6643 -0.7415 0.3646
-0.5952 -0.7975 0.3645
-0.5215 -0.8471 0.3644
-0.4436 -0.8899 0.3642
-0.3623 -0.9257 0.3641
-0.2782 -0.9541 0.3640
-0.1919 -0.9749 0.3639
-0.1041 -0.9879 0.3639
-0.0155 -0.9932 0.3638
0.0732 -0.9905 0.3638
0.1613 -0.9800 0.3638
0.2481 -0.9617 0.3638
0.3330 -0.9358 0.3638
0.4152 -0.9025 0.3639
0.4942 -0.8620 0.3639
0.5692 -0.8146 0.3640
0.6398 -0.7607 0.3641
0.7054 -0.7008 0.3642
0.7654 -0.6353 0.3643
0.8193 -0.5646 0.3645
0.8668 -0.4895 0.3646
0.9074 -0.4103 0.3648
0.9408 -0.3279 0.3650
0.9668 -0.2427 0.3651
0.9851 -0.1555 0.3653
0.9956 -0.0670 0.3655
0.9981 0.0221 0.3657
0.9927 0.1112 0.3659
0.9794 0.1994 0.3661
0.9582 0.2862 0.3663
0.9294 0.3707 0.3665
0.8930 0.4524 0.3667
0.8495 0.5306 0.3669
0.7992 0.6046 0.3671
0.7424 0.6738 0.3672
0.6796 0.7377 0.3674
0.6113 0.7958 0.3676
0.5380 0.8475 0.3677
0.4604 0.8924 0.3678
0.3791 0.9303 0.3680
0.2946 0.9606 0.3681
0.2077 0.9833 0.3681
0.1192 0.9981 0.3682
0.0296 1.0049 0.3683
-0.0602 1.0036 0.3683
-0.1495 0.9943 0.3683
-0.2376 0.9770 0.3683
-0.3239 0.9518 0.3683
-0.4075 0.9190 0.3682
-0.4878 0.8788 0.3682
-0.5642 0.8316 0.3681
-0.6360 0.7777 0.3680
-0.7026 0.7177 0.3679
-0.7636 0.6519 0.3678
-0.8184 0.5809 0.3676
-0.8667 0.5054 0.3675
-0.9079 0.4258 0.3673
-0.9419 0.3429 0.3672
-0.9682 0.2574 0.3670
-0.9868 0.1698 0.3668
-0.9975 0.0811 0.3666
-1.0002 -0.0083 0.3664
-0.9950 -0.0975 0.3662
-0.9818 -0.1858 0.3660
-0.9607 -0.2725 0.3658
-0.9321 -0.3570 0.3656
-0.8960 -0.4385 0.3654
-0.8529 -0.5164 0.3652
-0.8030 -0.5902 0.3650
-0.7468 -0.6592 0.3649
-0.6846 -0.7229 0.3647
-0.6171 -0.7808 0.3645
-0.5448 -0.8324 0.3644
-0.4681 -0.8774 0.3643
-0.3879 -0.9154 0.3642
-0.3045 -0.9461 0.3641
-0.2188 -0.9693 0.3640
-0.1314 -0.9847 0.3639
-0.0430 -0.9924 0.3639
0.0457 -0.9922 0.3638
0.1341 -0.9841 0.3638
0.2214 -0.9682 0.3638
0.3069 -0.9446 0.3638
0.3900 -0.9136 0.3639
0.4701 -0.8753 0.3639
0.5464 -0.8300 0.3640
0.6185 -0.7781 0.3641
0.6856 -0.7200 0.3642
0.7474 -0.6561 0.3643
0.8033 -0.5870 0.3644
0.8528 -0.5132 0.3646
0.8956 -0.4352 0.3647
0.9313 -0.3537 0.3649
0.9596 -0.2694 0.3651
0.9803 -0.1827 0.3653
0.9932 -0.0946 0.3654
0.9982 -0.0056 0.3656
0.9953 0.0836 0.3658
0.9844 0.1722 0.3660
0.9656 0.2595 0.3662
0.9391 0.3448 0.3664
0.9051 0.4275 0.3666
0.8638 0.5068 0.3668
0.8155 0.5822 0.3670
0.7606 0.6529 0.3672
0.6997 0.7185 0.3674
0.6330 0.7785 0.3675
0.5612 0.8322 0.3677
0.4849 0.8793 0.3678
0.4046 0.9193 0.3679
0.3211 0.9520 0.3680
0.2349 0.9771 0.3681
0.1468 0.9944 0.3682
0.0574 1.0037 0.3682
-0.0324 1.0049 0.3683
-0.1219 0.9980 0.3683
-0.2105 0.9832 0.3683
-0.2974 0.9604 0.3683
-0.3819 0.9300 0.3682
-0.4633 0.8920 0.3682
-0.5409 0.8470 0.3681
-0.6142 0.7951 0.3680
-0.6826 0.7369 0.3679
-0.7454 0.6729 0.3678
-0.8021 0.6034 0.3677
-0.8525 0.5292 0.3675
-0.8959 0.4509 0.3674
-0.9321 0.3689 0.3672
-0.9609 0.2841 0.3670
-0.9819 0.1971 0.3668
-0.9951 0.1087 0.3667
-1.0003 0.0194 0.3665
-0.9975 -0.0699 0.3663
-0.9867 -0.1585 0.3661
-0.9681 -0.2458 0.3659
-0.9418 -0.3311 0.3657
-0.9080 -0.4136 0.3655
-0.8670 -0.4927 0.3653
-0.8191 -0.5678 0.3651
-0.7648 -0.6384 0.3649
-0.7045 -0.7037 0.3647
-0.6386 -0.7635 0.3646
-0.5677 -0.8171 0.3644
-0.4923 -0.8642 0.3643
-0.4131 -0.9044 0.3642
-0.3306 -0.9374 0.3641
-0.2456 -0.9629 0.3640
-0.1587 -0.9808 0.3639
-0.0705 -0.9909 0.3639
0.0182 -0.9931 0.3638
0.1068 -0.9874 0.3638
0.1945 -0.9740 0.3638
0.2806 -0.9528 0.3638
0.3646 -0.9240 0.3638
0.4456 -0.8879 0.3639
0.5232 -0.8447 0.3640
0.5966 -0.7949 0.3640
0.6654 -0.7386 0.3641
0.7289 -0.6765 0.3643
0.7866 -0.6090 0.3644
0.8381 -0.5366 0.3645
0.8830 -0.4598 0.3647
0.9210 -0.3793 0.3648
0.9516 -0.2958 0.3650
0.9747 -0.2098 0.3652
0.9900 -0.1220 0.3654
0.9975 -0.0332 0.3656
0.9970 0.0560 0.3658
0.9886 0.1448 0.3660
0.9723 0.2326 0.3662
0.9481 0.3186 0.3664
0.9164 0.4022 0.3666
0.8773 0.4826 0.3668
0.8312 0.5593 0.3670
0.7783 0.6315 0.3671
0.7192 0.6988 0.3673
0.6542 0.7605 0.3675
0.5840 0.8162 0.3676
0.5090 0.8654 0.3678
0.4299 0.9077 0.3679
0.3473 0.9427 0.3680
0.2618 0.9702 0.3681
0.1742 0.9899 0.3682
0.0852 1.0017 0.3682
-0.0045 1.0054 0.3683
-0.0942 1.0010 0.3683
-0.1832 0.9886 0.3683
-0.2707 0.9683 0.3683
-0.3560 0.9402 0.3683
-0.4384 0.9046 0.3682
-0.5173 0.8617 0.3681
-0.5920 0.8119 0.3681
-0.6619 0.7556 0.3680
-0.7265 0.6933 0.3678
-0.7852 0.6255 0.3677
-0.8376 0.5527 0.3676
-0.8832 0.4755 0.3674
-0.9217 0.3947 0.3673
-0.9528 0.3107 0.3671
-0.9762 0.2243 0.3669
-0.9918 0.1362 0.3667
-0.9995 0.0471 0.3665
-0.9992 -0.0422 0.3663
-0.9909 -0.1312 0.3661
-0.9747 -0.2190 0.3659
-0.9507 -0.3049 0.3657
-0.9192 -0.3883 0.3655
-0.8804 -0.4686 0.3653
-0.8347 -0.5450 0.3651
-0.7823 -0.6170 0.3650
-0.7238 -0.6840 0.3648
-0.6596 -0.7456 0.3646
-0.5902 -0.8011 0.3645
-0.5161 -0.8503 0.3643
-0.4380 -0.8927 0.3642
-0.3565 -0.9279 0.3641
-0.2722 -0.9558 0.3640
-0.1858 -0.9761 0.3639
-0.0979 -0.9886 0.3639
-0.0093 -0.9932 0.3638
0.0794 -0.9900 0.3638
0.1674 -0.9790 0.3638
0.2541 -0.9602 0.3638
0.3388 -0.9337 0.3638
0.4209 -0.8999 0.3639
0.4996 -0.8588 0.3639
0.5743 -0.8110 0.3640
0.6446 -0.7567 0.3641
0.7098 -0.6964 0.3642
0.7693 -0.6305 0.3643
0.8229 -0.5595 0.3645
0.8699 -0.4840 0.3646
0.9100 -0.4046 0.3648
0.9429 -0.3220 0.3650
0.9684 -0.2367 0.3651
0.9861 -0.1494 0.3653
0.9960 -0.0608 0.3655
0.9980 0.0284 0.3657
0.9920 0.1174 0.3659
0.9782 0.2056 0.3661
0.9564 0.2922 0.3663
0.9270 0.3766 0.3665
0.8902 0.4581 0.3667
0.8462 0.5360 0.3669
0.7954 0.6096 0.3671
0.7382 0.6785 0.3673
0.6750 0.7420 0.3674
0.6063 0.7996 0.3676
0.5327 0.8509 0.3677
0.4548 0.8953 0.3678
0.3732 0.9326 0.3680
0.2886 0.9625 0.3681
0.2016 0.9846 0.3681
0.1129 0.9989 0.3682
0.0233 1.0051 0.3683
-0.0665 1.0032 0.3683
-0.1557 0.9933 0.3683
-0.2438 0.9754 0.3683
-0.3298 0.9497 0.3683
-0.4132 0.9164 0.3682
-0.4933 0.8757 0.3682
-0.5694 0.8280 0.3681
-0.6408 0.7737 0.3680
-0.7071 0.7132 0.3679
-0.7677 0.6471 0.3678
-0.8221 0.5758 0.3676
-0.8698 0.4999 0.3675
-0.9105 0.4201 0.3673
-0.9440 0.3370 0.3671
-0.9698 0.2513 0.3670
-0.9878 0.1636 0.3668
-0.9980 0.0748 0.3666
-1.0001 -0.0146 0.3664
-0.9943 -0.1037 0.3662
-0.9805 -0.1919 0.3660
-0.9590 -0.2785 0.3658
-0.9298 -0.3628 0.3656
-0.8932 -0.4441 0.3654
-0.8496 -0.5218 0.3652
-0.7992 -0.5952 0.3650
-0.7426 -0.6638 0.3648
-0.6801 -0.7271 0.3647
-0.6122 -0.7846 0.3645
-0.5395 -0.8358 0.3644
-0.4626 -0.8803 0.3643
-0.3821 -0.9178 0.3641
-0.2986 -0.9479 0.3640
-0.2127 -0.9706 0.3640
-0.1253 -0.9855 0.3639
-0.0368 -0.9926 0.3638
0.0519 -0.9919 0.3638
0.1403 -0.9832 0.3638
0.2274 -0.9668 0.3638
0.3128 -0.9427 0.3638
0.3958 -0.9111 0.3639
0.4756 -0.8723 0.3639
0.5516 -0.8266 0.3640
0.6233 -0.7742 0.3641
0.6902 -0.7157 0.3642
0.7515 -0.6515 0.3643
0.8069 -0.5820 0.3644
0.8560 -0.5079 0.3646
0.8983 -0.4296 0.3647
0.9335 -0.3479 0.3649
0.9613 -0.2633 0.3651
0.9814 -0.1766 0.3653
0.9938 -0.0883 0.3655
0.9983 0.0007 0.3657
0.9948 0.0898 0.3659
0.9833 0.1784 0.3661
0.9640 0.2655 0.3663
0.9370 0.3507 0.3665
0.9024 0.4332 0.3667
0.8606 0.5122 0.3668
0.8118 0.5873 0.3670
0.7566 0.6577 0.3672
0.6952 0.7229 0.3674
0.6281 0.7824 0.3675
0.5560 0.8357 0.3677
0.4794 0.8823 0.3678
0.3989 0.9219 0.3679
0.3151 0.9541 0.3680
0.2287 0.9786 0.3681
0.1405 0.9953 0.3682
0.0511 1.0040 0.3682
-0.0387 1.0047 0.3683
-0.1282 0.9973 0.3683
-0.2167 0.9818 0.3683
-0.3034 0.9585 0.3683
-0.3877 0.9275 0.3682
-0.4689 0.8891 0.3682
-0.5462 0.8435 0.3681
-0.6192 0.7912 0.3680
-0.6871 0.7326 0.3679
-0.7495 0.6681 0.3678
-0.8059 0.5984 0.3677
-0.8557 0.5239 0.3675
-0.8987 0.4452 0.3674
-0.9344 0.3631 0.3672
-0.9626 0.2781 0.3670
-0.9831 0.1910 0.3668
-0.9957 0.1024 0.3666
-1.0003 0.0131 0.3664
-0.9970 -0.0761 0.3662
-0.9856 -0.1647 0.3660
-0.9665 -0.2519 0.3658
-0.9396 -0.3370 0.3656
-0.9053 -0.4192 0.3655
-0.8638 -0.4981 0.3653
-0.8155 -0.5729 0.3651
-0.7608 -0.6431 0.3649
-0.7000 -0.7081 0.3647
-0.6338 -0.7674 0.3646
-0.5625 -0.8206 0.3644
-0.4869 -0.8672 0.3643
-0.4074 -0.9069 0.3642
-0.3247 -0.9394 0.3641
-0.2396 -0.9644 0.3640
-0.1525 -0.9817 0.3639
-0.0643 -0.9913 0.3639
0.0244 -0.9930 0.3638
0.1130 -0.9868 0.3638
0.2006 -0.9727 0.3638
0.2866 -0.9510 0.3638
0.3704 -0.9217 0.3639
0.4512 -0.8851 0.3639
0.5285 -0.8414 0.3640
0.6016 -0.7911 0.3641
0.6700 -0.7345 0.3642
0.7331 -0.6719 0.3643
0.7904 -0.6041 0.3644
0.8415 -0.5313 0.3645
0.8859 -0.4543 0.3647
0.9234 -0.3736 0.3649
0.9535 -0.2898 0.3650
0.9760 -0.2037 0.3652
0.9908 -0.1158 0.3654
0.9977 -0.0269 0.3656
0.9967 0.0623 0.3658
0.9877 0.1510 0.3660
0.9708 0.2387 0.3662
0.9461 0.3246 0.3664
0.9139 0.4079 0.3666
0.8743 0.4881 0.3668
0.8277 0.5645 0.3670
0.7744 0.6364 0.3672
0.7148 0.7033 0.3673
0.6495 0.7646 0.3675
0.5789 0.8199 0.3676
0.5036 0.8686 0.3678
0.4242 0.9104 0.3679
0.3414 0.9449 0.3680
0.2557 0.9718 0.3681
0.1680 0.9910 0.3682
0.0789 1.0022 0.3682
-0.0108 1.0053 0.3683
-0.1005 1.0004 0.3683
-0.1894 0.9875 0.3683
-0.2768 0.9666 0.3683
-0.3619 0.9380 0.3683
-0.4441 0.9018 0.3682
-0.5227 0.8584 0.3681
-0.5971 0.8081 0.3681
-0.6667 0.7514 0.3680
-0.7308 0.6887 0.3678
-0.7891 0.6205 0.3677
-0.8410 0.5474 0.3676
-0.8861 0.4700 0.3674
-0.9241 0.3888 0.3672
-0.9547 0.3047 0.3671
-0.9776 0.2182 0.3669
-0.9926 0.1300 0.3667
-0.9997 0.0408 0.3665
-0.9989 -0.0485 0.3663
-0.9900 -0.1374 0.3661
-0.9732 -0.2251 0.3659
-0.9488 -0.3109 0.3657
-0.9167 -0.3941 0.3655
-0.8775 -0.4741 0.3653
-0.8312 -0.5502 0.3651
-0.7784 -0.6219 0.3650
-0.7195 -0.6886 0.3648
-0.6549 -0.7497 0.3646
-0.5851 -0.8048 0.3645
-0.5108 -0.8535 0.3643
-0.4324 -0.8954 0.3642
-0.3507 -0.9301 0.3641
-0.2662 -0.9575 0.3640
-0.1796 -0.9772 0.3639
-0.0917 -0.9892 0.3639
-0.0031 -0.9933 0.3638
0.0856 -0.9895 0.3638
0.1736 -0.9779 0.3638
0.2602 -0.9585 0.3638
0.3447 -0.9316 0.3638
0.4265 -0.8972 0.3639
0.5050 -0.8557 0.3639
0.5794 -0.8074 0.3640
0.6494 -0.7527 0.3641
0.7141 -0.6919 0.3642
0.7733 -0.6256 0.3644
0.8264 -0.5543 0.3645
0.8729 -0.4786 0.3646
0.9125 -0.3989 0.3648
0.9449 -0.3161 0.3650
0.9699 -0.2306 0.3652
0.9871 -0.1432 0.3653
0.9964 -0.0545 0.3655
0.9979 0.0346 0.3657
0.9913 0.1236 0.3659
0.9769 0.2117 0.3661
0.9546 0.2982 0.3663
0.9247 0.3824 0.3665
0.8873 0.4637 0.3667
0.8429 0.5413 0.3669
0.7916 0.6146 0.3671
0.7339 0.6832 0.3673
0.6703 0.7463 0.3674
0.6013 0.8034 0.3676
0.5274 0.8542 0.3677
0.4492 0.8982 0.3679
0.3674 0.9350 0.3680
0.2825 0.9643 0.3681
0.1954 0.9859 0.3681
0.1066 0.9996 0.3682
0.0170 1.0052 0.3683
-0.0728 1.0028 0.3683
-0.1620 0.9923 0.3683
-0.2499 0.9739 0.3683
-0.3358 0.9476 0.3683
-0.4190 0.9138 0.3682
-0.4988 0.8726 0.3682
-0.5745 0.8244 0.3681
-0.6456 0.7697 0.3680
-0.7116 0.7088 0.3679
-0.7717 0.6422 0.3678
-0.8256 0.5706 0.3676
-0.8729 0.4944 0.3675
-0.9131 0.4144 0.3673
-0.9460 0.3311 0.3671
-0.9713 0.2452 0.3669
-0.9888 0.1574 0.3668
-0.9984 0.0685 0.3666
-1.0000 -0.0208 0.3664
-0.9936 -0.1099 0.3662
-0.9793 -0.1981 0.3660
-0.9572 -0.2845 0.3658
-0.9275 -0.3686 0.3656
-0.8904 -0.4497 0.3654
-0.8463 -0.5271 0.3652
-0.7955 -0.6002 0.3650
-0.7384 -0.6685 0.3648
-0.6755 -0.7314 0.3647
-0.6072 -0.7884 0.3645
-0.5343 -0.8391 0.3644
-0.4571 -0.8832 0.3643
-0.3763 -0.9201 0.3641
-0.2926 -0.9498 0.3640
-0.2066 -0.9719 0.3640
-0.1191 -0.9863 0.3639
-0.0306 -0.9928 0.3638
0.0582 -0.9915 0.3638
0.1464 -0.9823 0.3638
0.2335 -0.9654 0.3638
0.3187 -0.9407 0.3638
0.4015 -0.9086 0.3639
0.4810 -0.8693 0.3639
0.5568 -0.8231 0.3640
0.6282 -0.7703 0.3641
0.6946 -0.7114 0.3642
0.7556 -0.6467 0.3643
0.8106 -0.5769 0.3644
0.8592 -0.5025 0.3646
0.9010 -0.4240 0.3648
0.9357 -0.3421 0.3649
0.9630 -0.2573 0.3651
0.9826 -0.1704 0.3653
0.9944 -0.0821 0.3655
0.9983 0.0070 0.3657
0.9942 0.0961 0.3659
0.9822 0.1845 0.3661
0.9623 0.2716 0.3663
0.9348 0.3566 0.3665
0.8997 0.4388 0.3667
0.8574 0.5176 0.3669
0.8082 0.5924 0.3670
0.7524 0.6625 0.3672
0.6906 0.7273 0.3674
0.6232 0.7864 0.3675
0.5508 0.8392 0.3677
0.4739 0.8853 0.3678
0.3931 0.9244 0.3679
0.3091 0.9560 0.3680
0.2226 0.9800 0.3681
0.1343 0.9962 0.3682
0.0448 1.0043 0.3682
-0.0450 1.0044 0.3683
-0.1344 0.9964 0.3683
-0.2228 0.9805 0.3683
-0.3094 0.9566 0.3683
-0.3935 0.9251 0.3682
-0.4744 0.8861 0.3682
-0.5515 0.8401 0.3681
-0.6241 0.7873 0.3680
-0.6917 0.7283 0.3679
-0.7537 0.6634 0.3678
-0.8096 0.5933 0.3677
-0.8590 0.5185 0.3675
-0.9014 0.4395 0.3674
-0.9366 0.3572 0.3672
-0.9643 0.2720 0.3670
-0.9842 0.1848 0.3668
-0.9963 0.0962 0.3666
-1.0003 0.0069 0.3664
-0.9964 -0.0824 0.3662
-0.9846 -0.1709 0.3660
-0.9648 -0.2579 0.3658
-0.9375 -0.3428 0.3656
-0.9027 -0.4249 0.3654
-0.8607 -0.5035 0.3652
-0.8119 -0.5780 0.3651
-0.7567 -0.6479 0.3649
-0.6956 -0.7125 0.3647
-0.6289 -0.7714 0.3646
-0.5573 -0.8241 0.3644
-0.4814 -0.8702 0.3643
-0.4017 -0.9094 0.3642
-0.3188 -0.9414 0.3641
-0.2335 -0.9659 0.3640
-0.1463 -0.9827 0.3639
-0.0580 -0.9916 0.3639
0.0307 -0.9928 0.3638
0.1192 -0.9860 0.3638
0.2067 -0.9715 0.3638
0.2926 -0.9492 0.3638
0.3761 -0.9194 0.3639
0.4568 -0.8823 0.3639
0.5338 -0.8381 0.3640
0.6021 -0.7674 0.3641
0.6684 -0.7107 0.3642
0.7294 -0.6485 0.3643
0.7846 -0.5810 0.3645
0.8337 -0.5088 0.3646
0.8761 -0.4326 0.3647
0.9116 -0.3528 0.3649
0.9399 -0.2702 0.3651
0.9608 -0.1853 0.3653
0.9740 -0.0989 0.3654
0.9794 -0.0116 0.3656
0.9771 0.0759 0.3658
0.9669 0.1629 0.3660
0.9490 0.2487 0.3662
0.9235 0.3325 0.3664
0.8906 0.4138 0.3666
0.8506 0.4919 0.3668
0.8037 0.5662 0.3670
0.7503 0.6359 0.3672
0.6909 0.7007 0.3673
0.6259 0.7599 0.3675
0.5558 0.8130 0.3676
0.4812 0.8597 0.3678
0.4027 0.8995 0.3679
0.3209 0.9321 0.3680
0.2365 0.9572 0.3681
0.1501 0.9747 0.3681
0.0625 0.9843 0.3682
-0.0256 0.9861 0.3682
-0.1135 0.9799 0.3683
-0.2005 0.9659 0.3683
-0.2859 0.9441 0.3682
-0.3689 0.9147 0.3682
-0.4491 0.8781 0.3682
-0.5255 0.8343 0.3681
-0.5977 0.7839 0.3680
-0.6651 0.7272 0.3679
-0.7272 0.6648 0.3678
-0.7833 0.5970 0.3677
-0.8331 0.5245 0.3675
-0.8763 0.4479 0.3674
-0.9123 0.3677 0.3672
-0.9411 0.2847 0.3670
-0.9622 0.1995 0.3668
-0.9757 0.1128 0.3667
-0.9814 0.0252 0.3665
-0.9792 -0.0624 0.3663
-0.9692 -0.1495 0.3661
-0.9515 -0.2353 0.3659
-0.9262 -0.3191 0.3657
-0.8935 -0.4002 0.3655
-0.8538 -0.4781 0.3653
-0.8073 -0.5522 0.3651
-0.7545 -0.6217 0.3649
-0.6957 -0.6862 0.3648
-0.6314 -0.7453 0.3646
-0.5621 -0.7983 0.3645
-0.4884 -0.8450 0.3643
-0.4110 -0.8849 0.3642
-0.3302 -0.9178 0.3641
-0.2470 -0.9434 0.3640
-0.1617 -0.9615 0.3640
-0.0753 -0.9719 0.3639
0.0118 -0.9747 0.3639
0.0987 -0.9697 0.3638
0.1848 -0.9570 0.3638
0.2695 -0.9367 0.3639
0.3521 -0.9090 0.3639
0.4318 -0.8741 0.3639
0.5082 -0.8322 0.3640
0.5806 -0.7837 0.3641
0.6484 -0.7289 0.3642
0.7111 -0.6684 0.3643
0.7681 -0.6024 0.3644
0.8191 -0.5317 0.3645
0.8637 -0.4566 0.3647
0.9014 -0.3779 0.3649
0.9319 -0.2961 0.3650
0.9551 -0.2118 0.3652
0.9707 -0.1258 0.3654
0.9786 -0.0387 0.3656
0.9786 0.0488 0.3658
0.9709 0.1360 0.3660
0.9554 0.2222 0.3662
0.9322 0.3068 0.3664
0.9016 0.3890 0.3666
0.8637 0.4681 0.3667
0.8189 0.5436 0.3669
0.7675 0.6148 0.3671
0.7099 0.6812 0.3673
0.6466 0.7421 0.3674
0.5780 0.7972 0.3676
0.5047 0.8459 0.3677
0.4274 0.8879 0.3678
0.3465 0.9227 0.3679
0.2629 0.9502 0.3680
0.1770 0.9701 0.3681
0.0898 0.9822 0.3682
0.0018 0.9864 0.3682
-0.0863 0.9827 0.3682
-0.1736 0.9711 0.3683
-0.2596 0.9517 0.3682
-0.3435 0.9246 0.3682
-0.4246 0.8902 0.3682
-0.5022 0.8486 0.3681
-0.5759 0.8002 0.3680
-0.6448 0.7454 0.3679
-0.7085 0.6847 0.3678
-0.7666 0.6185 0.3677
-0.8184 0.5475 0.3676
-0.8636 0.4720 0.3674
-0.9019 0.3929 0.3672
-0.9330 0.3107 0.3671
-0.9565 0.2261 0.3669
-0.9724 0.1398 0.3667
-0.9805 0.0524 0.3665
-0.9807 -0.0353 0.3663
-0.9731 -0.1226 0.3661
-0.9578 -0.2089 0.3659
-0.9348 -0.2933 0.3657
-0.9044 -0.3754 0.3655
-0.8669 -0.4544 0.3654
-0.8224 -0.5297 0.3652
-0.7715 -0.6007 0.3650
-0.7145 -0.6668 0.3648
-0.6518 -0.7276 0.3647
-0.5841 -0.7826 0.3645
-0.5117 -0.8312 0.3644
-0.4353 -0.8733 0.3643
-0.3556 -0.9084 0.3642
-0.2730 -0.9363 0.3641
-0.1883 -0.9567 0.3640
-0.1022 -0.9695 0.3639
-0.0152 -0.9747 0.3639
0.0718 -0.9721 0.3639
0.1583 -0.9617 0.3638
0.2435 -0.9438 0.3639
0.3267 -0.9184 0.3639
0.4074 -0.8856 0.3639
0.4849 -0.8459 0.3640
0.5586 -0.7994 0.3641
0.6279 -0.7465 0.3641
0.6922 -0.6877 0.3642
0.7511 -0.6234 0.3644
0.8040 -0.5541 0.3645
0.8506 -0.4803 0.3646
0.8904 -0.4027 0.3648
0.9232 -0.3217 0.3650
0.9487 -0.2382 0.3651
0.9667 -0.1526 0.3653
0.9769 -0.0658 0.3655
0.9794 0.0217 0.3657
0.9741 0.1091 0.3659
0.9610 0.1957 0.3661
0.9402 0.2808 0.3663
0.9119 0.3638 0.3665
0.8762 0.4439 0.3667
0.8335 0.5206 0.3669
0.7841 0.5932 0.3671
0.7284 0.6612 0.3672
0.6668 0.7239 0.3674
0.5998 0.7808 0.3675
0.5279 0.8315 0.3677
0.4517 0.8756 0.3678
0.3719 0.9127 0.3679
0.2890 0.9425 0.3680
0.2038 0.9648 0.3681
0.1169 0.9793 0.3682
0.0291 0.9859 0.3682
-0.0590 0.9847 0.3682
-0.1467 0.9755 0.3683
-0.2332 0.9585 0.3682
-0.3178 0.9338 0.3682
-0.3998 0.9017 0.3682
-0.4786 0.8622 0.3681
-0.5535 0.8159 0.3681
-0.6240 0.7631 0.3680
-0.6894 0.7041 0.3679
-0.7492 0.6396 0.3677
-0.8030 0.5700 0.3676
-0.8504 0.4958 0.3675
-0.8908 0.4178 0.3673
-0.9241 0.3365 0.3671
-0.9500 0.2525 0.3670
-0.9683 0.1667 0.3668
-0.9788 0.0795 0.3666
-0.9815 -0.0081 0.3664
-0.9763 -0.0956 0.3662
-0.9633 -0.1823 0.3660
-0.9427 -0.2674 0.3658
-0.9146 -0.3503 0.3656
-0.8792 -0.4303 0.3654
-0.8369 -0.5068 0.3652
-0.7880 -0.5792 0.3651
-0.7328 -0.6469 0.3649
-0.6718 -0.7094 0.3647
-0.6056 -0.7662 0.3646
-0.5346 -0.8168 0.3644
-0.4594 -0.8610 0.3643
-0.3806 -0.8983 0.3642
-0.2989 -0.9284 0.3641
-0.2148 -0.9512 0.3640
-0.1290 -0.9664 0.3639
-0.0422 -0.9739 0.3639
0.0449 -0.9737 0.3639
0.1316 -0.9658 0.3638
0.2172 -0.9502 0.3638
0.3012 -0.9270 0.3639
0.3828 -0.8965 0.3639
0.4613 -0.8589 0.3640
0.5362 -0.8145 0.3640
0.6069 -0.7636 0.3641
0.6728 -0.7066 0.3642
0.7334 -0.6439 0.3643
0.7883 -0.5761 0.3645
0.8368 -0.5036 0.3646
0.8788 -0.4271 0.3648
0.9138 -0.3471 0.3649
0.9416 -0.2643 0.3651
0.9619 -0.1793 0.3653
0.9746 -0.0928 0.3655
0.9795 -0.0055 0.3657
0.9766 0.0820 0.3658
0.9659 0.1690 0.3660
0.9475 0.2546 0.3662
0.9215 0.3383 0.3664
0.8881 0.4194 0.3666
0.8475 0.4973 0.3668
0.8001 0.5712 0.3670
0.7463 0.6406 0.3672
0.6865 0.7050 0.3673
0.6211 0.7638 0.3675
0.5507 0.8165 0.3676
0.4758 0.8627 0.3678
0.3970 0.9020 0.3679
0.3150 0.9341 0.3680
0.2305 0.9587 0.3681
0.1440 0.9756 0.3681
0.0564 0.9847 0.3682
-0.0318 0.9859 0.3682
-0.1196 0.9792 0.3683
-0.2065 0.9646 0.3683
-0.2918 0.9423 0.3682
-0.3747 0.9124 0.3682
-0.4545 0.8752 0.3681
-0.5307 0.8310 0.3681
-0.6026 0.7801 0.3680
-0.6697 0.7230 0.3679
-0.7313 0.6602 0.3678
-0.7870 0.5921 0.3676
-0.8364 0.5193 0.3675
-0.8790 0.4424 0.3674
-0.9146 0.3620 0.3672
-0.9428 0.2788 0.3670
-0.9634 0.1934 0.3668
-0.9764 0.1066 0.3666
-0.9815 0.0191 0.3665
-0.9787 -0.0686 0.3663
-0.9682 -0.1556 0.3661
-0.9499 -0.2412 0.3659
-0.9241 -0.3249 0.3657
-0.8910 -0.4058 0.3655
-0.8508 -0.4835 0.3653
-0.8038 -0.5572 0.3651
-0.7505 -0.6264 0.3649
-0.6913 -0.6906 0.3648
-0.6267 -0.7492 0.3646
-0.5571 -0.8018 0.3645
-0.4831 -0.8480 0.3643
-0.4054 -0.8875 0.3642
-0.3245 -0.9199 0.3641
-0.2410 -0.9449 0.3640
-0.1557 -0.9625 0.3640
-0.0692 -0.9724 0.3639
0.0179 -0.9746 0.3639
0.1048 -0.9690 0.3638
0.1908 -0.9558 0.3638
0.2754 -0.9350 0.3639
0.3578 -0.9068 0.3639
0.4373 -0.8713 0.3639
0.5134 -0.8290 0.3640
0.5855 -0.7800 0.3641
0.6529 -0.7249 0.3642
0.7152 -0.6639 0.3643
0.7719 -0.5976 0.3644
0.8225 -0.5265 0.3646
0.8665 -0.4512 0.3647
0.9038 -0.3722 0.3649
0.9338 -0.2903 0.3650
0.9565 -0.2058 0.3652
0.9715 -0.1197 0.3654
0.9788 -0.0326 0.3656
0.9783 0.0549 0.3658
0.9701 0.1421 0.3660
0.9540 0.2282 0.3662
0.9303 0.3126 0.3664
0.8992 0.3946 0.3666
0.8608 0.4735 0.3668
0.8155 0.5488 0.3669
0.7637 0.6196 0.3671
0.7057 0.6856 0.3673
0.6419 0.7462 0.3674
0.5730 0.8008 0.3676
0.4994 0.8491 0.3677
0.4218 0.8906 0.3679
0.3407 0.9249 0.3680
0.2569 0.9519 0.3680
0.1710 0.9712 0.3681
0.0836 0.9827 0.3682
-0.0044 0.9864 0.3682
-0.0925 0.9821 0.3682
-0.1797 0.9700 0.3683
-0.2656 0.9500 0.3682
-0.3493 0.9225 0.3682
-0.4302 0.8875 0.3682
-0.5076 0.8454 0.3681
-0.5809 0.7966 0.3680
-0.6495 0.7414 0.3679
-0.7128 0.6802 0.3678
-0.7704 0.6137 0.3677
-0.8218 0.5423 0.3676
-0.8666 0.4666 0.3674
-0.9044 0.3872 0.3672
-0.9349 0.3048 0.3671
-0.9579 0.2201 0.3669
-0.9732 0.1336 0.3667
-0.9807 0.0462 0.3665
-0.9804 -0.0414 0.3663
-0.9723 -0.1287 0.3661
-0.9564 -0.2149 0.3659
-0.9329 -0.2992 0.3657
-0.9020 -0.3811 0.3655
-0.8640 -0.4598 0.3653
-0.8191 -0.5348 0.3652
-0.7677 -0.6055 0.3650
-0.7103 -0.6713 0.3648
-0.6472 -0.7317 0.3647
-0.5791 -0.7862 0.3645
-0.5065 -0.8344 0.3644
-0.4298 -0.8760 0.3643
-0.3498 -0.9106 0.3642
-0.2671 -0.9380 0.3641
-0.1823 -0.9578 0.3640
-0.0961 -0.9701 0.3639
-0.0091 -0.9747 0.3639
0.0779 -0.9716 0.3639
0.1643 -0.9607 0.3638
0.2494 -0.9422 0.3639
0.3325 -0.9163 0.3639
0.4130 -0.8831 0.3639
0.4903 -0.8428 0.3640
0.5636 -0.7959 0.3641
0.6326 -0.7426 0.3641
0.6965 -0.6834 0.3643
0.7550 -0.6187 0.3644
0.8075 -0.5491 0.3645
0.8536 -0.4750 0.3647
0.8930 -0.3971 0.3648
0.9253 -0.3159 0.3650
0.9502 -0.2322 0.3652
0.9677 -0.1466 0.3653
0.9774 -0.0596 0.3655
0.9793 0.0278 0.3657
0.9734 0.1152 0.3659
0.9598 0.2017 0.3661
0.9385 0.2867 0.3663
0.9096 0.3695 0.3665
0.8735 0.4495 0.3667
0.8303 0.5259 0.3669
0.7804 0.5982 0.3671
0.7243 0.6657 0.3672
0.6623 0.7280 0.3674
0.5949 0.7846 0.3675
0.5227 0.8348 0.3677
0.4463 0.8785 0.3678
0.3662 0.9151 0.3679
0.2831 0.9443 0.3680
0.1978 0.9660 0.3681
0.1108 0.9800 0.3682
0.0229 0.9861 0.3682
-0.0652 0.9843 0.3682
-0.1528 0.9746 0.3683
-0.2392 0.9570 0.3682
-0.3236 0.9318 0.3682
-0.4054 0.8991 0.3682
-0.4840 0.8592 0.3681
-0.5586 0.8124 0.3680
-0.6287 0.7591 0.3680
-0.6938 0.6998 0.3679
-0.7532 0.6349 0.3677
-0.8066 0.5649 0.3676
-0.8534 0.4905 0.3674
-0.8934 0.4122 0.3673
-0.9262 0.3307 0.3671
-0.9516 0.2466 0.3669
-0.9693 0.1606 0.3668
-0.9792 0.0734 0.3666
-0.9814 -0.0143 0.3664
-0.9756 -0.1018 0.3662
-0.9621 -0.1883 0.3660
-0.9410 -0.2733 0.3658
-0.9124 -0.3560 0.3656
-0.8765 -0.4358 0.3654
-0.8337 -0.5120 0.3652
-0.7843 -0.5841 0.3650
-0.7287 -0.6514 0.3649
-0.6674 -0.7135 0.3647
-0.6008 -0.7699 0.3646
-0.5294 -0.8202 0.3644
-0.4540 -0.8638 0.3643
-0.3750 -0.9006 0.3642
-0.2930 -0.9303 0.3641
-0.2088 -0.9525 0.3640
-0.1229 -0.9671 0.3639
-0.0361 -0.9741 0.3639
0.0510 -0.9734 0.3639
0.1376 -0.9649 0.3638
0.2232 -0.9488 0.3638
0.3070 -0.9251 0.3639
0.3884 -0.8941 0.3639
0.4667 -0.8560 0.3640
0.5413 -0.8111 0.3640
0.6117 -0.7598 0.3641
0.6773 -0.7023 0.3642
0.7375 -0.6393 0.3643
0.7919 -0.5711 0.3645
0.8400 -0.4984 0.3646
0.8815 -0.4216 0.3648
0.9160 -0.3414 0.3649
0.9433 -0.2584 0.3651
0.9631 -0.1733 0.3653
0.9752 -0.0867 0.3655
0.9796 0.0007 0.3657
0.9761 0.0882 0.3659
0.9649 0.1750 0.3661
0.9459 0.2606 0.3663
0.9194 0.3441 0.3664
0.8854 0.4250 0.3666
0.8444 0.5026 0.3668
0.7966 0.5763 0.3670
0.7423 0.6453 0.3672
0.6821 0.7093 0.3673
0.6163 0.7677 0.3675
0.5455 0.8200 0.3676
0.4704 0.8657 0.3678
0.3913 0.9045 0.3679
0.3091 0.9361 0.3680
0.2244 0.9601 0.3681
0.1379 0.9765 0.3681
0.0502 0.9851 0.3682
-0.0379 0.9857 0.3682
-0.1258 0.9784 0.3683
-0.2126 0.9633 0.3683
-0.2977 0.9404 0.3682
-0.3804 0.9100 0.3682
-0.4600 0.8723 0.3681
-0.5359 0.8276 0.3681
-0.6075 0.7763 0.3680
-0.6742 0.7188 0.3679
-0.7354 0.6556 0.3678
-0.7907 0.5871 0.3676
-0.8396 0.5140 0.3675
-0.8818 0.4368 0.3673
-0.9168 0.3562 0.3672
-0.9445 0.2729 0.3670
-0.9646 0.1874 0.3668
-0.9770 0.1005 0.3666
-0.9815 0.0129 0.3664
-0.9782 -0.0747 0.3662
-0.9672 -0.1616 0.3660
-0.9484 -0.2472 0.3658
-0.9220 -0.3306 0.3657
-0.8884 -0.4114 0.3655
-0.8477 -0.4888 0.3653
-0.8003 -0.5622 0.3651
-0.7466 -0.6311 0.3649
-0.6869 -0.6949 0.3648
-0.6219 -0.7531 0.3646
-0.5520 -0.8053 0.3645
-0.4778 -0.8510 0.3643
-0.3998 -0.8900 0.3642
-0.3187 -0.9219 0.3641
-0.2351 -0.9464 0.3640
-0.1497 -0.9634 0.3640
-0.0631 -0.9728 0.3639
0.0240 -0.9744 0.3639
0.1109 -0.9684 0.3638
0.1968 -0.9546 0.3638
0.2813 -0.9333 0.3639
0.3635 -0.9045 0.3639
0.4428 -0.8686 0.3639
0.5186 -0.8258 0.3640
0.5904 -0.7763 0.3641
0.6575 -0.7208 0.3642
0.7194 -0.6594 0.3643
0.7757 -0.5928 0.3644
0.8258 -0.5214 0.3646
0.8694 -0.4458 0.3647
0.9061 -0.3666 0.3649
0.9356 -0.2844 0.3651
0.9578 -0.1999 0.3652
0.9723 -0.1136 0.3654
0.9790 -0.0264 0.3656
0.9780 0.0611 0.3658
0.9692 0.1482 0.3660
0.9526 0.2342 0.3662
0.9284 0.3185 0.3664
0.8967 0.4003 0.3666
0.8579 0.4790 0.3668
0.8121 0.5539 0.3670
0.7598 0.6244 0.3671
0.7014 0.6901 0.3673
0.6373 0.7502 0.3675
0.5680 0.8044 0.3676
0.4941 0.8522 0.3677
0.4162 0.8932 0.3679
0.3349 0.9271 0.3680
0.2509 0.9535 0.3681
0.1649 0.9723 0.3681
0.0774 0.9833 0.3682
-0.0106 0.9864 0.3682
-0.0986 0.9815 0.3682
-0.1858 0.9688 0.3683
-0.2715 0.9483 0.3682
-0.3551 0.9202 0.3682
-0.4357 0.8848 0.3682
-0.5128 0.8422 0.3681
-0.5858 0.7929 0.3680
-0.6541 0.7373 0.3679
-0.7171 0.6757 0.3678
-0.7742 0.6088 0.3677
-0.8252 0.5371 0.3675
-0.8695 0.4611 0.3674
-0.9067 0.3815 0.3672
-0.9367 0.2989 0.3671
-0.9592 0.2140 0.3669
-0.9740 0.1275 0.3667
-0.9810 0.0401 0.3665
-0.9801 -0.0476 0.3663
-0.9714 -0.1348 0.3661
-0.9550 -0.2208 0.3659
-0.9310 -0.3050 0.3657
-0.8996 -0.3867 0.3655
-0.8610 -0.4652 0.3653
-0.8157 -0.5399 0.3651
-0.7639 -0.6103 0.3650
-0.7060 -0.6757 0.3648
-0.6426 -0.7357 0.3646
-0.5742 -0.7898 0.3645
-0.5012 -0.8376 0.3644
-0.4243 -0.8787 0.3642
-0.3441 -0.9128 0.3641
-0.2612 -0.9396 0.3641
-0.1763 -0.9590 0.3640
-0.0900 -0.9707 0.3639
-0.0030 -0.9748 0.3639
0.0840 -0.9711 0.3639
0.1703 -0.9597 0.3638
0.2553 -0.9407 0.3639
0.3383 -0.9142 0.3639
0.4185 -0.8805 0.3639
0.4955 -0.8397 0.3640
0.5686 -0.7923 0.3641
0.6372 -0.7386 0.3642
0.7008 -0.6790 0.3643
0.7589 -0.6140 0.3644
0.8109 -0.5440 0.3645
0.8566 -0.4696 0.3647
0.8955 -0.3915 0.3648
0.9273 -0.3101 0.3650
0.9517 -0.2263 0.3652
0.9686 -0.1405 0.3654
0.9778 -0.0535 0.3655
0.9792 0.0340 0.3657
0.9727 0.1213 0.3659
0.9586 0.2077 0.3661
0.9367 0.2926 0.3663
0.9073 0.3752 0.3665
0.8707 0.4549 0.3667
0.8270 0.5311 0.3669
0.7767 0.6031 0.3671
0.7201 0.6703 0.3672
0.6577 0.7322 0.3674
0.5900 0.7883 0.3676
0.5174 0.8381 0.3677
0.4407 0.8813 0.3678
0.3604 0.9174 0.3679
0.2772 0.9461 0.3680
0.1917 0.9673 0.3681
0.1046 0.9807 0.3682
0.0167 0.9862 0.3682
-0.0714 0.9839 0.3682
-0.1589 0.9736 0.3683
-0.2452 0.9555 0.3682
-0.3294 0.9298 0.3682
-0.4111 0.8965 0.3682
-0.4894 0.8561 0.3681
-0.5637 0.8089 0.3680
-0.6335 0.7552 0.3680
-0.6981 0.6954 0.3678
-0.7572 0.6301 0.3677
-0.8101 0.5598 0.3676
-0.8565 0.4851 0.3674
-0.8959 0.4066 0.3673
-0.9282 0.3248 0.3671
-0.9530 0.2406 0.3669
-0.9702 0.1545 0.3667
-0.9796 0.0672 0.3666
-0.9812 -0.0204 0.3664
-0.9749 -0.1079 0.3662
-0.9609 -0.1943 0.3660
-0.9392 -0.2792 0.3658
-0.9101 -0.3617 0.3656
-0.8737 -0.4412 0.3654
-0.8304 -0.5172 0.3652
-0.7806 -0.5890 0.3650
-0.7246 -0.6560 0.3649
-0.6628 -0.7177 0.3647
-0.5959 -0.7737 0.3645
-0.5243 -0.8235 0.3644
-0.4485 -0.8667 0.3643
-0.3693 -0.9030 0.3642
-0.2872 -0.9321 0.3641
-0.2028 -0.9538 0.3640
-0.1168 -0.9679 0.3639
-0.0300 -0.9743 0.3639
0.0571 -0.9730 0.3639
0.1437 -0.9640 0.3638
0.2292 -0.9474 0.3638
0.3128 -0.9232 0.3639
0.3940 -0.8917 0.3639
0.4721 -0.8531 0.3640
0.5464 -0.8077 0.3640
0.6165 -0.7559 0.3641
0.6817 -0.6981 0.3642
0.7415 -0.6347 0.3643
0.7955 -0.5662 0.3645
0.8431 -0.4931 0.3646
0.8842 -0.4161 0.3648
0.9182 -0.3357 0.3649
0.9449 -0.2525 0.3651
0.9642 -0.1672 0.3653
0.9758 -0.0806 0.3655
0.9796 0.0068 0.3657
0.9756 0.0943 0.3659
0.9638 0.1811 0.3661
0.9443 0.2665 0.3663
0.9172 0.3499 0.3665
0.8828 0.4306 0.3667
0.8413 0.5079 0.3668
0.7930 0.5813 0.3670
0.7383 0.6500 0.3672
0.6776 0.7136 0.3674
0.6115 0.7716 0.3675
0.5404 0.8234 0.3677
0.4649 0.8686 0.3678
0.3857 0.9069 0.3679
0.3033 0.9380 0.3680
0.2184 0.9615 0.3681
0.1317 0.9774 0.3682
0.0440 0.9854 0.3682
-0.0441 0.9855 0.3682
-0.1319 0.9776 0.3683
-0.2186 0.9619 0.3683
-0.3036 0.9386 0.3682
-0.3861 0.9076 0.3682
-0.4655 0.8694 0.3681
-0.5411 0.8242 0.3681
-0.6124 0.7725 0.3680
-0.6787 0.7145 0.3679
-0.7395 0.6509 0.3678
-0.7943 0.5821 0.3676
-0.8428 0.5087 0.3675
-0.8845 0.4313 0.3673
-0.9190 0.3505 0.3672
-0.9462 0.2669 0.3670
-0.9657 0.1813 0.3668
-0.9776 0.0944 0.3666
-0.9816 0.0067 0.3664
-0.9777 -0.0808 0.3662
-0.9661 -0.1677 0.3660
-0.9468 -0.2531 0.3658
-0.9199 -0.3364 0.3656
-0.8857 -0.4169 0.3654
-0.8446 -0.4941 0.3653
-0.7967 -0.5672 0.3651
-0.7426 -0.6357 0.3649
-0.6826 -0.6992 0.3647
-0.6172 -0.7570 0.3646
-0.5469 -0.8087 0.3645
-0.4724 -0.8540 0.3643
-0.3942 -0.8925 0.3642
-0.3129 -0.9238 0.3641
-0.2291 -0.9478 0.3640
-0.1436 -0.9643 0.3640
-0.0570 -0.9732 0.3639
0.0301 -0.9743 0.3639
0.1169 -0.9676 0.3638
0.2028 -0.9533 0.3638
0.2871 -0.9315 0.3639
0.3691 -0.9022 0.3639
0.4482 -0.8658 0.3639
0.5238 -0.8225 0.3640
0.5910 -0.7532 0.3641
0.6561 -0.6977 0.3642
0.7159 -0.6365 0.3644
0.7702 -0.5703 0.3645
0.8183 -0.4995 0.3646
0.8600 -0.4246 0.3648
0.8948 -0.3463 0.3649
0.9226 -0.2652 0.3651
0.9430 -0.1819 0.3653
0.9560 -0.0971 0.3655
0.9613 -0.0114 0.3656
0.9590 0.0745 0.3658
0.9490 0.1599 0.3660
0.9315 0.2441 0.3662
0.9064 0.3264 0.3664
0.8741 0.4062 0.3666
0.8348 0.4828 0.3668
0.7888 0.5557 0.3670
0.7364 0.6241 0.3671
0.6781 0.6877 0.3673
0.6142 0.7458 0.3675
0.5454 0.7979 0.3676
0.4722 0.8437 0.3677
0.3952 0.8827 0.3678
0.3149 0.9147 0.3679
0.2321 0.9394 0.3680
0.1473 0.9566 0.3681
0.0614 0.9660 0.3682
-0.0251 0.9677 0.3682
-0.1114 0.9617 0.3682
-0.1967 0.9479 0.3682
-0.2805 0.9266 0.3682
-0.3621 0.8977 0.3682
-0.4407 0.8617 0.3681
-0.5157 0.8188 0.3680
-0.5866 0.7693 0.3680
-0.6528 0.7137 0.3679
-0.7136 0.6524 0.3678
-0.7688 0.5859 0.3676
-0.8177 0.5148 0.3675
-0.8600 0.4396 0.3673
-0.8954 0.3609 0.3672
-0.9236 0.2794 0.3670
-0.9444 0.1958 0.3668
-0.9576 0.1107 0.3666
-0.9632 0.0248 0.3665
-0.9611 -0.0613 0.3663
-0.9513 -0.1467 0.3661
-0.9339 -0.2309 0.3659
-0.9091 -0.3132 0.3657
-0.8770 -0.3928 0.3655
-0.8380 -0.4693 0.3653
-0.7924 -0.5420 0.3651
-0.7406 -0.6102 0.3650
-0.6828 -0.6736 0.3648
-0.6197 -0.7315 0.3646
-0.5518 -0.7836 0.3645
-0.4795 -0.8295 0.3644
-0.4034 -0.8686 0.3643
-0.3242 -0.9009 0.3642
-0.2424 -0.9261 0.3641
-0.1588 -0.9438 0.3640
-0.0739 -0.9541 0.3639
0.0116 -0.9568 0.3639
0.0969 -0.9518 0.3639
0.1814 -0.9394 0.3639
0.2646 -0.9195 0.3639
0.3456 -0.8923 0.3639
0.4239 -0.8580 0.3640
0.4989 -0.8169 0.3640
0.5699 -0.7692 0.3641
0.6364 -0.7155 0.3642
0.6980 -0.6560 0.3643
0.7540 -0.5913 0.3644
0.8040 -0.5219 0.3646
0.8477 -0.4482 0.3647
0.8848 -0.3709 0.3649
0.9147 -0.2906 0.3650
0.9375 -0.2079 0.3652
0.9528 -0.1235 0.3654
0.9605 -0.0380 0.3656
0.9605 0.0479 0.3658
0.9529 0.1335 0.3660
0.9377 0.2181 0.3662
0.9150 0.3011 0.3664
0.8849 0.3818 0.3665
0.8477 0.4594 0.3667
0.8038 0.5335 0.3669
0.7533 0.6034 0.3671
0.6967 0.6685 0.3673
0.6346 0.7284 0.3674
0.5673 0.7824 0.3676
0.4954 0.8302 0.3677
0.4194 0.8714 0.3678
0.3401 0.9056 0.3679
0.2580 0.9326 0.3680
0.1737 0.9521 0.3681
0.0881 0.9639 0.3681
0.0017 0.9680 0.3682
-0.0847 0.9644 0.3682
-0.1704 0.9530 0.3682
-0.2548 0.9340 0.3682
-0.3371 0.9074 0.3682
-0.4167 0.8736 0.3681
-0.4929 0.8328 0.3681
-0.5651 0.7853 0.3680
-0.6328 0.7316 0.3679
-0.6954 0.6720 0.3678
-0.7523 0.6070 0.3677
-0.8032 0.5373 0.3675
-0.8476 0.4633 0.3674
-0.8852 0.3856 0.3672
-0.9157 0.3049 0.3671
-0.9388 0.2219 0.3669
-0.9544 0.1372 0.3667
-0.9623 0.0514 0.3665
-0.9625 -0.0347 0.3663
-0.9551 -0.1203 0.3661
-0.9401 -0.2050 0.3659
-0.9175 -0.2879 0.3657
-0.8877 -0.3685 0.3656
-0.8509 -0.4460 0.3654
-0.8073 -0.5199 0.3652
-0.7573 -0.5896 0.3650
-0.7013 -0.6545 0.3649
-0.6398 -0.7142 0.3647
-0.5733 -0.7681 0.3646
-0.5023 -0.8159 0.3644
-0.4273 -0.8572 0.3643
-0.3490 -0.8917 0.3642
-0.2680 -0.9190 0.3641
-0.1849 -0.9391 0.3640
-0.1003 -0.9517 0.3640
-0.0150 -0.9567 0.3639
0.0705 -0.9542 0.3639
0.1554 -0.9441 0.3639
0.2390 -0.9264 0.3639
0.3207 -0.9015 0.3639
0.4000 -0.8694 0.3640
0.4760 -0.8303 0.3640
0.5483 -0.7847 0.3641
0.6163 -0.7328 0.3642
0.6795 -0.6751 0.3643
0.7372 -0.6119 0.3644
0.7892 -0.5439 0.3645
0.8349 -0.4715 0.3647
0.8740 -0.3952 0.3648
0.9062 -0.3158 0.3650
0.9312 -0.2338 0.3652
0.9488 -0.1498 0.3653
0.9589 -0.0646 0.3655
0.9613 0.0213 0.3657
0.9561 0.1070 0.3659
0.9432 0.1920 0.3661
0.9228 0.2756 0.3663
0.8950 0.3570 0.3665
0.8600 0.4357 0.3667
0.8181 0.5110 0.3669
0.7696 0.5822 0.3670
0.7149 0.6489 0.3672
0.6544 0.7104 0.3674
0.5886 0.7663 0.3675
0.5181 0.8161 0.3676
0.4433 0.8593 0.3678
0.3650 0.8958 0.3679
0.2837 0.9250 0.3680
0.2000 0.9468 0.3681
0.1148 0.9611 0.3681
0.0285 0.9676 0.3682
-0.0579 0.9664 0.3682
-0.1440 0.9574 0.3682
-0.2288 0.9407 0.3682
-0.3118 0.9165 0.3682
-0.3923 0.8849 0.3681
-0.4697 0.8462 0.3681
-0.5432 0.8008 0.3680
-0.6124 0.7489 0.3679
-0.6766 0.6911 0.3678
-0.7353 0.6277 0.3677
-0.7881 0.5594 0.3676
-0.8346 0.4866 0.3674
-0.8743 0.4100 0.3673
-0.9070 0.3302 0.3671
-0.9324 0.2478 0.3669
-0.9503 0.1636 0.3668
-0.9607 0.0781 0.3666
-0.9633 -0.0080 0.3664
-0.9582 -0.0939 0.3662
-0.9455 -0.1789 0.3660
-0.9253 -0.2624 0.3658
-0.8977 -0.3438 0.3656
-0.8630 -0.4223 0.3654
-0.8215 -0.4974 0.3652
-0.7734 -0.5685 0.3651
-0.7193 -0.6349 0.3649
-0.6595 -0.6963 0.3647
-0.5944 -0.7521 0.3646
-0.5248 -0.8018 0.3645
-0.4509 -0.8452 0.3643
-0.3736 -0.8818 0.3642
-0.2934 -0.9113 0.3641
-0.2108 -0.9337 0.3640
-0.1266 -0.9486 0.3640
-0.0414 -0.9560 0.3639
0.0440 -0.9558 0.3639
0.1292 -0.9480 0.3639
0.2132 -0.9327 0.3639
0.2956 -0.9100 0.3639
0.3757 -0.8801 0.3639
0.4528 -0.8431 0.3640
0.5264 -0.7995 0.3641
0.5958 -0.7495 0.3641
0.6605 -0.6936 0.3642
0.7199 -0.6320 0.3644
0.7737 -0.5655 0.3645
0.8214 -0.4943 0.3646
0.8626 -0.4192 0.3648
0.8970 -0.3407 0.3649
0.9243 -0.2594 0.3651
0.9442 -0.1760 0.3653
0.9566 -0.0911 0.3655
0.9614 -0.0054 0.3657
0.9585 0.0805 0.3659
0.9480 0.1658 0.3660
0.9299 0.2499 0.3662
0.9044 0.3321 0.3664
0.8716 0.4117 0.3666
0.8318 0.4881 0.3668
0.7853 0.5606 0.3670
0.7325 0.6288 0.3672
0.6737 0.6919 0.3673
0.6096 0.7496 0.3675
0.5404 0.8013 0.3676
0.4669 0.8467 0.3677
0.3896 0.8852 0.3679
0.3092 0.9167 0.3680
0.2262 0.9409 0.3680
0.1413 0.9575 0.3681
0.0553 0.9664 0.3682
-0.0312 0.9676 0.3682
-0.1174 0.9610 0.3682
-0.2027 0.9467 0.3682
-0.2864 0.9248 0.3682
-0.3677 0.8954 0.3682
-0.4461 0.8589 0.3681
-0.5209 0.8155 0.3680
-0.5914 0.7656 0.3680
-0.6572 0.7096 0.3679
-0.7177 0.6479 0.3677
-0.7724 0.5811 0.3676
-0.8209 0.5096 0.3675
-0.8627 0.4342 0.3673
-0.8976 0.3553 0.3672
-0.9253 0.2736 0.3670
-0.9456 0.1899 0.3668
-0.9583 0.1047 0.3666
-0.9633 0.0187 0.3664
-0.9606 -0.0673 0.3663
-0.9503 -0.1527 0.3661
-0.9324 -0.2368 0.3659
-0.9070 -0.3189 0.3657
-0.8745 -0.3983 0.3655
-0.8351 -0.4745 0.3653
-0.7890 -0.5469 0.3651
-0.7367 -0.6149 0.3650
-0.6786 -0.6778 0.3648
-0.6151 -0.7354 0.3646
-0.5468 -0.7871 0.3645
-0.4742 -0.8324 0.3644
-0.3979 -0.8712 0.3643
-0.3185 -0.9029 0.3642
-0.2366 -0.9275 0.3641
-0.1528 -0.9448 0.3640
-0.0679 -0.9545 0.3639
0.0176 -0.9567 0.3639
0.1029 -0.9512 0.3639
0.1873 -0.9382 0.3639
0.2703 -0.9178 0.3639
0.3512 -0.8901 0.3639
0.4293 -0.8553 0.3640
0.5040 -0.8137 0.3640
0.5747 -0.7657 0.3641
