ply
format ascii 1.0
element vertex 2176
property float32 x
property float32 y
property float32 z
end_header
0.7272 0.2354 0.3689
0.7037 0.2996 0.3691
0.6745 0.3614 0.3693
0.6398 0.4204 0.3695
0.5999 0.4760 0.3696
0.5552 0.5278 0.3697
0.5059 0.5754 0.3698
0.4526 0.6183 0.3698
0.3955 0.6563 0.3698
0.3353 0.6889 0.3698
0.2724 0.7160 0.3698
0.2074 0.7373 0.3697
0.1407 0.7527 0.3696
0.0729 0.7619 0.3694
0.0045 0.7650 0.3693
-0.0638 0.7620 0.3691
-0.1315 0.7528 0.3689
-0.1981 0.7376 0.3686
-0.2629 0.7164 0.3683
-0.3256 0.6896 0.3681
-0.3856 0.6572 0.3678
-0.4424 0.6196 0.3675
-0.4955 0.5772 0.3671
-0.5446 0.5301 0.3668
-0.5892 0.4789 0.3665
-0.6290 0.4240 0.3661
-0.6638 0.3658 0.3658
-0.6932 0.3048 0.3655
-0.7170 0.2415 0.3651
-0.7350 0.1763 0.3648
-0.7472 0.1099 0.3645
-0.7534 0.0427 0.3642
-0.7536 -0.0247 0.3639
-0.7478 -0.0919 0.3637
-0.7361 -0.1582 0.3634
-0.7186 -0.2231 0.3632
-0.6954 -0.2862 0.3630
-0.6668 -0.3470 0.3628
-0.6328 -0.4050 0.3626
-0.5939 -0.4597 0.3625
-0.5504 -0.5108 0.3624
-0.5024 -0.5578 0.3623
-0.4506 -0.6004 0.3623
-0.3951 -0.6382 0.3623
-0.3366 -0.6709 0.3623
-0.2754 -0.6984 0.3623
-0.2119 -0.7204 0.3624
-0.1468 -0.7366 0.3625
-0.0805 -0.7470 0.3627
-0.0135 -0.7516 0.3628
0.0537 -0.7502 0.3630
0.1206 -0.7428 0.3632
0.1865 -0.7295 0.3634
0.2511 -0.7104 0.3637
0.3138 -0.6857 0.3640
0.3741 -0.6554 0.3642
0.4315 -0.6199 0.3645
0.4855 -0.5794 0.3649
0.5358 -0.5342 0.3652
0.5819 -0.4847 0.3655
0.6234 -0.4312 0.3659
0.6600 -0.3741 0.3662
0.6914 -0.3140 0.3665
0.7174 -0.2512 0.3669
0.7376 -0.1863 0.3672
0.7519 -0.1198 0.3675
0.7603 -0.0522 0.3678
0.7625 0.0159 0.3681
0.7586 0.0840 0.3684
0.7486 0.1515 0.3686
0.7326 0.2179 0.3689
0.7106 0.2826 0.3691
0.6829 0.3451 0.3693
0.6496 0.4049 0.3694
0.6111 0.4614 0.3696
0.5676 0.5143 0.3697
0.5195 0.5630 0.3698
0.4672 0.6073 0.3698
0.4112 0.6466 0.3698
0.3518 0.6807 0.3698
0.2895 0.7093 0.3698
0.2250 0.7322 0.3697
0.1587 0.7491 0.3696
0.0911 0.7600 0.3695
0.0229 0.7648 0.3693
-0.0455 0.7634 0.3691
-0.1134 0.7559 0.3689
-0.1804 0.7423 0.3687
-0.2458 0.7227 0.3684
-0.3091 0.6973 0.3681
-0.3698 0.6664 0.3679
-0.4275 0.6302 0.3676
-0.4816 0.5890 0.3672
-0.5318 0.5432 0.3669
-0.5777 0.4931 0.3666
-0.6189 0.4391 0.3662
-0.6550 0.3817 0.3659
-0.6858 0.3214 0.3656
-0.7111 0.2586 0.3652
-0.7307 0.1939 0.3649
-0.7445 0.1278 0.3646
-0.7523 0.0608 0.3643
-0.7541 -0.0067 0.3640
-0.7500 -0.0739 0.3637
-0.7398 -0.1405 0.3635
-0.7239 -0.2059 0.3632
-0.7022 -0.2695 0.3630
-0.6750 -0.3310 0.3628
-0.6424 -0.3898 0.3627
-0.6048 -0.4454 0.3625
-0.5625 -0.4975 0.3624
-0.5157 -0.5456 0.3624
-0.4648 -0.5894 0.3623
-0.4103 -0.6285 0.3623
-0.3526 -0.6627 0.3623
-0.2920 -0.6916 0.3623
-0.2291 -0.7150 0.3624
-0.1644 -0.7328 0.3625
-0.0984 -0.7448 0.3626
-0.0315 -0.7509 0.3628
0.0357 -0.7511 0.3629
0.1027 -0.7453 0.3631
0.1690 -0.7336 0.3634
0.2340 -0.7161 0.3636
0.2972 -0.6929 0.3639
0.3582 -0.6641 0.3642
0.4164 -0.6299 0.3645
0.4714 -0.5908 0.3648
0.5227 -0.5468 0.3651
0.5699 -0.4984 0.3654
0.6127 -0.4459 0.3658
0.6507 -0.3898 0.3661
0.6835 -0.3304 0.3664
0.7110 -0.2683 0.3668
0.7327 -0.2039 0.3671
0.7487 -0.1378 0.3674
0.7586 -0.0704 0.3677
0.7625 -0.0024 0.3680
0.7603 0.0657 0.3683
0.7519 0.1335 0.3686
0.7375 0.2002 0.3688
0.7170 0.2654 0.3690
0.6909 0.3286 0.3692
0.6591 0.3891 0.3694
0.6219 0.4466 0.3696
0.5797 0.5005 0.3697
0.5328 0.5504 0.3698
0.4816 0.5959 0.3698
0.4265 0.6366 0.3698
0.3680 0.6721 0.3698
0.3065 0.7022 0.3698
0.2425 0.7266 0.3697
0.1766 0.7452 0.3696
0.1093 0.7577 0.3695
0.0412 0.7641 0.3694
-0.0272 0.7644 0.3692
-0.0953 0.7585 0.3690
-0.1625 0.7465 0.3687
-0.2284 0.7285 0.3685
-0.2923 0.7047 0.3682
-0.3538 0.6752 0.3679
-0.4124 0.6404 0.3676
-0.4675 0.6005 0.3673
-0.5188 0.5559 0.3670
-0.5659 0.5069 0.3667
-0.6083 0.4539 0.3663
-0.6458 0.3974 0.3660
-0.6781 0.3378 0.3657
-0.7049 0.2757 0.3653
-0.7260 0.2115 0.3650
-0.7414 0.1456 0.3647
-0.7508 0.0788 0.3644
-0.7542 0.0114 0.3641
-0.7517 -0.0559 0.3638
-0.7431 -0.1227 0.3635
-0.7287 -0.1885 0.3633
-0.7086 -0.2527 0.3631
-0.6828 -0.3147 0.3629
-0.6517 -0.3743 0.3627
-0.6154 -0.4308 0.3626
-0.5743 -0.4839 0.3625
-0.5286 -0.5331 0.3624
-0.4788 -0.5781 0.3623
-0.4253 -0.6185 0.3623
-0.3684 -0.6540 0.3623
-0.3085 -0.6843 0.3623
-0.2462 -0.7093 0.3624
-0.1819 -0.7286 0.3625
-0.1162 -0.7422 0.3626
-0.0494 -0.7499 0.3627
0.0177 -0.7517 0.3629
0.0848 -0.7475 0.3631
0.1513 -0.7374 0.3633
0.2167 -0.7214 0.3636
0.2805 -0.6997 0.3638
0.3421 -0.6723 0.3641
0.4011 -0.6396 0.3644
0.4570 -0.6017 0.3647
0.5093 -0.5590 0.3650
0.5577 -0.5118 0.3653
0.6017 -0.4603 0.3657
0.6410 -0.4051 0.3660
0.6753 -0.3466 0.3663
0.7041 -0.2852 0.3667
0.7275 -0.2214 0.3670
0.7450 -0.1557 0.3673
0.7565 -0.0886 0.3676
0.7620 -0.0207 0.3679
0.7614 0.0475 0.3682
0.7547 0.1154 0.3685
0.7419 0.1824 0.3688
0.7231 0.2481 0.3690
0.6984 0.3119 0.3692
0.6681 0.3732 0.3694
0.6324 0.4315 0.3695
0.5915 0.4864 0.3696
0.5459 0.5374 0.3697
0.4958 0.5841 0.3698
0.4417 0.6261 0.3698
0.3840 0.6631 0.3698
0.3232 0.6947 0.3698
0.2599 0.7206 0.3697
0.1944 0.7408 0.3697
0.1275 0.7550 0.3695
0.0595 0.7630 0.3694
-0.0089 0.7649 0.3692
-0.0771 0.7607 0.3690
-0.1446 0.7503 0.3688
-0.2109 0.7339 0.3686
-0.2754 0.7116 0.3683
-0.3376 0.6837 0.3680
-0.3970 0.6503 0.3677
-0.4531 0.6117 0.3674
-0.5054 0.5683 0.3671
-0.5537 0.5204 0.3668
-0.5974 0.4685 0.3664
-0.6362 0.4129 0.3661
-0.6699 0.3541 0.3657
-0.6983 0.2926 0.3654
-0.7210 0.2289 0.3651
-0.7378 0.1634 0.3648
-0.7489 0.0968 0.3645
-0.7539 0.0295 0.3642
-0.7529 -0.0379 0.3639
-0.7460 -0.1049 0.3636
-0.7332 -0.1710 0.3634
-0.7145 -0.2356 0.3631
-0.6902 -0.2983 0.3629
-0.6605 -0.3586 0.3628
-0.6256 -0.4160 0.3626
-0.5858 -0.4700 0.3625
-0.5413 -0.5203 0.3624
-0.4926 -0.5665 0.3623
-0.4400 -0.6081 0.3623
-0.3839 -0.6450 0.3623
-0.3248 -0.6767 0.3623
-0.2631 -0.7031 0.3624
-0.1993 -0.7240 0.3624
-0.1339 -0.7391 0.3625
-0.0674 -0.7484 0.3627
-0.0003 -0.7518 0.3628
0.0669 -0.7492 0.3630
0.1336 -0.7406 0.3632
0.1993 -0.7262 0.3635
0.2635 -0.7060 0.3637
0.3258 -0.6802 0.3640
0.3855 -0.6489 0.3643
0.4423 -0.6124 0.3646
0.4957 -0.5709 0.3649
0.5451 -0.5249 0.3652
0.5904 -0.4745 0.3656
0.6310 -0.4203 0.3659
0.6666 -0.3626 0.3663
0.6969 -0.3019 0.3666
0.7218 -0.2387 0.3669
0.7409 -0.1734 0.3672
0.7540 -0.1067 0.3676
0.7612 -0.0389 0.3679
0.7622 0.0292 0.3682
0.7571 0.0972 0.3684
0.7459 0.1646 0.3687
0.7287 0.2307 0.3689
0.7056 0.2950 0.3691
0.6768 0.3570 0.3693
0.6425 0.4162 0.3695
0.6030 0.4721 0.3696
0.5586 0.5242 0.3697
0.5096 0.5721 0.3698
0.4566 0.6154 0.3698
0.3998 0.6537 0.3698
0.3398 0.6867 0.3698
0.2771 0.7142 0.3698
0.2121 0.7360 0.3697
0.1455 0.7518 0.3696
0.0778 0.7615 0.3694
0.0095 0.7650 0.3693
-0.0588 0.7624 0.3691
-0.1266 0.7537 0.3689
-0.1933 0.7389 0.3686
-0.2583 0.7182 0.3684
-0.3212 0.6917 0.3681
-0.3814 0.6597 0.3678
-0.4384 0.6225 0.3675
-0.4918 0.5804 0.3672
-0.5412 0.5337 0.3668
-0.5861 0.4828 0.3665
-0.6263 0.4281 0.3662
-0.6614 0.3701 0.3658
-0.6912 0.3093 0.3655
-0.7154 0.2461 0.3652
-0.7339 0.1811 0.3648
-0.7465 0.1147 0.3645
-0.7531 0.0476 0.3642
-0.7538 -0.0198 0.3639
-0.7484 -0.0870 0.3637
-0.7372 -0.1534 0.3634
-0.7201 -0.2185 0.3632
-0.6973 -0.2817 0.3630
-0.6690 -0.3427 0.3628
-0.6355 -0.4009 0.3626
-0.5969 -0.4559 0.3625
-0.5537 -0.5072 0.3624
-0.5061 -0.5545 0.3623
-0.4545 -0.5974 0.3623
-0.3993 -0.6356 0.3623
-0.3409 -0.6687 0.3623
-0.2799 -0.6966 0.3623
-0.2166 -0.7189 0.3624
-0.1516 -0.7356 0.3625
-0.0853 -0.7465 0.3626
-0.0183 -0.7515 0.3628
0.0489 -0.7505 0.3630
0.1158 -0.7435 0.3632
0.1818 -0.7307 0.3634
0.2465 -0.7120 0.3637
0.3093 -0.6877 0.3639
0.3698 -0.6578 0.3642
0.4274 -0.6227 0.3645
0.4817 -0.5825 0.3648
0.5323 -0.5376 0.3652
0.5787 -0.4884 0.3655
0.6206 -0.4352 0.3658
0.6575 -0.3784 0.3662
0.6893 -0.3184 0.3665
0.7157 -0.2559 0.3668
0.7363 -0.1911 0.3672
0.7511 -0.1247 0.3675
0.7599 -0.0572 0.3678
0.7625 0.0109 0.3681
0.7591 0.0790 0.3684
0.7495 0.1466 0.3686
0.7339 0.2131 0.3689
0.7124 0.2779 0.3691
0.6851 0.3406 0.3693
0.6522 0.4006 0.3694
0.6141 0.4574 0.3696
0.5709 0.5106 0.3697
0.5232 0.5597 0.3698
0.4712 0.6042 0.3698
0.4153 0.6439 0.3698
0.3562 0.6784 0.3698
0.2941 0.7074 0.3698
0.2297 0.7307 0.3697
0.1635 0.7481 0.3696
0.0960 0.7595 0.3695
0.0278 0.7647 0.3693
-0.0405 0.7637 0.3691
-0.1085 0.7566 0.3689
-0.1755 0.7434 0.3687
-0.2411 0.7243 0.3684
-0.3046 0.6994 0.3682
-0.3655 0.6688 0.3679
-0.4234 0.6330 0.3676
-0.4778 0.5922 0.3673
-0.5283 0.5466 0.3669
-0.5745 0.4968 0.3666
-0.6160 0.4431 0.3663
-0.6525 0.3860 0.3659
-0.6838 0.3259 0.3656
-0.7095 0.2633 0.3653
-0.7295 0.1987 0.3649
-0.7437 0.1326 0.3646
-0.7519 0.0656 0.3643
-0.7542 -0.0018 0.3640
-0.7505 -0.0691 0.3637
-0.7408 -0.1357 0.3635
-0.7252 -0.2012 0.3633
-0.7040 -0.2650 0.3630
-0.6771 -0.3266 0.3629
-0.6450 -0.3856 0.3627
-0.6077 -0.4415 0.3626
-0.5657 -0.4938 0.3624
-0.5192 -0.5423 0.3624
-0.4687 -0.5864 0.3623
-0.4144 -0.6258 0.3623
-0.3569 -0.6604 0.3623
-0.2965 -0.6897 0.3623
-0.2338 -0.7135 0.3624
-0.1692 -0.7317 0.3625
-0.1032 -0.7442 0.3626
-0.0363 -0.7507 0.3628
0.0309 -0.7513 0.3629
0.0979 -0.7460 0.3631
0.1642 -0.7347 0.3634
0.2293 -0.7176 0.3636
0.2927 -0.6947 0.3639
0.3538 -0.6663 0.3641
0.4123 -0.6326 0.3644
0.4675 -0.5938 0.3648
0.5191 -0.5501 0.3651
0.5667 -0.5020 0.3654
0.6098 -0.4498 0.3657
0.6481 -0.3939 0.3661
0.6813 -0.3348 0.3664
0.7092 -0.2729 0.3667
0.7313 -0.2086 0.3671
0.7477 -0.1426 0.3674
0.7581 -0.0753 0.3677
0.7624 -0.0073 0.3680
0.7606 0.0608 0.3683
0.7527 0.1286 0.3686
0.7387 0.1954 0.3688
0.7187 0.2608 0.3690
0.6929 0.3241 0.3692
0.6615 0.3848 0.3694
0.6248 0.4425 0.3695
0.5830 0.4967 0.3697
0.5364 0.5469 0.3697
0.4855 0.5927 0.3698
0.4307 0.6338 0.3698
0.3723 0.6697 0.3698
0.3110 0.7002 0.3698
0.2472 0.7250 0.3697
0.1814 0.7440 0.3696
0.1142 0.7570 0.3695
0.0462 0.7639 0.3694
-0.0222 0.7646 0.3692
-0.0904 0.7591 0.3690
-0.1577 0.7476 0.3688
-0.2237 0.7300 0.3685
-0.2878 0.7066 0.3682
-0.3494 0.6775 0.3680
-0.4082 0.6431 0.3677
-0.4636 0.6036 0.3673
-0.5152 0.5593 0.3670
-0.5626 0.5106 0.3667
-0.6054 0.4579 0.3664
-0.6433 0.4016 0.3660
-0.6759 0.3422 0.3657
-0.7031 0.2803 0.3653
-0.7247 0.2162 0.3650
-0.7405 0.1505 0.3647
-0.7503 0.0837 0.3644
-0.7542 0.0163 0.3641
-0.7521 -0.0511 0.3638
-0.7439 -0.1179 0.3636
-0.7300 -0.1838 0.3633
-0.7102 -0.2481 0.3631
-0.6849 -0.3103 0.3629
-0.6541 -0.3701 0.3627
-0.6182 -0.4268 0.3626
-0.5774 -0.4802 0.3625
-0.5321 -0.5297 0.3624
-0.4826 -0.5750 0.3623
-0.4293 -0.6157 0.3623
-0.3726 -0.6516 0.3623
-0.3129 -0.6823 0.3623
-0.2508 -0.7077 0.3624
-0.1866 -0.7274 0.3625
-0.1210 -0.7414 0.3626
-0.0543 -0.7495 0.3627
0.0128 -0.7517 0.3629
0.0800 -0.7480 0.3631
0.1465 -0.7383 0.3633
0.2120 -0.7227 0.3635
0.2759 -0.7014 0.3638
0.3377 -0.6745 0.3641
0.3969 -0.6422 0.3644
0.4530 -0.6047 0.3647
0.5056 -0.5623 0.3650
0.5543 -0.5153 0.3653
0.5987 -0.4642 0.3656
0.6383 -0.4093 0.3660
0.6729 -0.3509 0.3663
0.7022 -0.2897 0.3667
0.7260 -0.2261 0.3670
0.7439 -0.1605 0.3673
0.7559 -0.0935 0.3676
0.7619 -0.0256 0.3679
0.7617 0.0426 0.3682
0.7554 0.1105 0.3685
0.7430 0.1776 0.3687
0.7247 0.2434 0.3690
0.7004 0.3073 0.3692
0.6705 0.3688 0.3694
0.6352 0.4274 0.3695
0.5947 0.4826 0.3696
0.5493 0.5339 0.3697
0.4995 0.5809 0.3698
0.4457 0.6233 0.3698
0.3883 0.6606 0.3698
0.3277 0.6926 0.3698
0.2645 0.7190 0.3698
0.1992 0.7395 0.3697
0.1324 0.7541 0.3696
0.0645 0.7626 0.3694
-0.0039 0.7650 0.3692
-0.0722 0.7612 0.3690
-0.1398 0.7513 0.3688
-0.2062 0.7353 0.3686
-0.2708 0.7134 0.3683
-0.3332 0.6859 0.3680
-0.3928 0.6529 0.3677
-0.4491 0.6147 0.3674
-0.5018 0.5716 0.3671
-0.5503 0.5240 0.3668
-0.5944 0.4724 0.3664
-0.6336 0.4170 0.3661
-0.6677 0.3584 0.3658
-0.6964 0.2971 0.3654
-0.7195 0.2335 0.3651
-0.7368 0.1682 0.3648
-0.7483 0.1017 0.3645
-0.7537 0.0344 0.3642
-0.7532 -0.0330 0.3639
-0.7467 -0.1001 0.3636
-0.7343 -0.1662 0.3634
-0.7161 -0.2310 0.3632
-0.6922 -0.2939 0.3630
-0.6629 -0.3543 0.3628
-0.6283 -0.4119 0.3626
-0.5888 -0.4662 0.3625
-0.5447 -0.5168 0.3624
-0.4963 -0.5633 0.3623
-0.4439 -0.6053 0.3623
-0.3881 -0.6425 0.3623
-0.3292 -0.6746 0.3623
-0.2677 -0.7014 0.3624
-0.2040 -0.7227 0.3624
-0.1387 -0.7382 0.3625
-0.0723 -0.7479 0.3627
-0.0052 -0.7517 0.3628
0.0620 -0.7496 0.3630
0.1288 -0.7415 0.3632
0.1946 -0.7275 0.3635
0.2590 -0.7077 0.3637
0.3214 -0.6822 0.3640
0.3813 -0.6513 0.3643
0.4383 -0.6152 0.3646
0.4919 -0.5741 0.3649
0.5417 -0.5283 0.3652
0.5873 -0.4783 0.3656
0.6282 -0.4243 0.3659
0.6642 -0.3669 0.3662
0.6949 -0.3064 0.3666
0.7202 -0.2433 0.3669
0.7397 -0.1782 0.3672
0.7533 -0.1115 0.3675
0.7609 -0.0439 0.3678
0.7623 0.0243 0.3681
0.7577 0.0923 0.3684
0.7469 0.1597 0.3687
0.7302 0.2259 0.3689
0.7075 0.2904 0.3691
0.6791 0.3526 0.3693
0.6452 0.4120 0.3695
0.6060 0.4681 0.3696
0.5619 0.5205 0.3697
0.5133 0.5687 0.3698
0.4605 0.6124 0.3698
0.4040 0.6511 0.3698
0.3442 0.6845 0.3698
0.2817 0.7124 0.3698
0.2169 0.7346 0.3697
0.1504 0.7508 0.3696
0.0827 0.7610 0.3695
0.0144 0.7650 0.3693
-0.0539 0.7628 0.3691
-0.1217 0.7545 0.3689
-0.1885 0.7402 0.3686
-0.2537 0.7199 0.3684
-0.3167 0.6938 0.3681
-0.3771 0.6622 0.3678
-0.4344 0.6254 0.3675
-0.4880 0.5836 0.3672
-0.5377 0.5372 0.3669
-0.5830 0.4866 0.3665
-0.6236 0.4322 0.3662
-0.6591 0.3744 0.3659
-0.6892 0.3138 0.3655
-0.7139 0.2508 0.3652
-0.7328 0.1859 0.3649
-0.7458 0.1196 0.3646
-0.7529 0.0525 0.3643
-0.7539 -0.0150 0.3640
-0.7490 -0.0822 0.3637
-0.7382 -0.1486 0.3634
-0.7215 -0.2138 0.3632
-0.6991 -0.2772 0.3630
-0.6712 -0.3384 0.3628
-0.6381 -0.3968 0.3627
-0.5999 -0.4520 0.3625
-0.5569 -0.5036 0.3624
-0.5096 -0.5512 0.3623
-0.4583 -0.5945 0.3623
-0.4034 -0.6330 0.3623
-0.3453 -0.6665 0.3623
-0.2844 -0.6948 0.3623
-0.2213 -0.7175 0.3624
-0.1563 -0.7346 0.3625
-0.0902 -0.7459 0.3626
-0.0232 -0.7513 0.3628
0.0440 -0.7507 0.3630
0.1109 -0.7442 0.3632
0.1771 -0.7318 0.3634
0.2419 -0.7136 0.3636
0.3048 -0.6896 0.3639
0.3655 -0.6602 0.3642
0.4233 -0.6254 0.3645
0.4779 -0.5856 0.3648
0.5287 -0.5411 0.3651
0.5755 -0.4921 0.3655
0.6177 -0.4392 0.3658
0.6550 -0.3826 0.3661
0.6872 -0.3229 0.3665
0.7139 -0.2605 0.3668
0.7350 -0.1958 0.3671
0.7502 -0.1295 0.3675
0.7594 -0.0621 0.3678
0.7625 0.0060 0.3681
0.7595 0.0741 0.3683
0.7504 0.1417 0.3686
0.7352 0.2083 0.3688
0.7141 0.2733 0.3691
0.6872 0.3362 0.3693
0.6548 0.3964 0.3694
0.6170 0.4534 0.3696
0.5742 0.5069 0.3697
0.5268 0.5563 0.3698
0.4751 0.6012 0.3698
0.4195 0.6412 0.3698
0.3606 0.6761 0.3698
0.2987 0.7055 0.3698
0.2345 0.7292 0.3697
0.1684 0.7471 0.3696
0.1010 0.7588 0.3695
0.0328 0.7645 0.3693
-0.0356 0.7640 0.3692
-0.1036 0.7573 0.3689
-0.1707 0.7446 0.3687
-0.2364 0.7259 0.3685
-0.3000 0.7014 0.3682
-0.3612 0.6712 0.3679
-0.4193 0.6358 0.3676
-0.4740 0.5953 0.3673
-0.5248 0.5501 0.3670
-0.5713 0.5006 0.3666
-0.6132 0.4471 0.3663
-0.6501 0.3902 0.3659
-0.6817 0.3303 0.3656
-0.7078 0.2679 0.3653
-0.7283 0.2034 0.3650
-0.7429 0.1375 0.3646
-0.7515 0.0705 0.3643
-0.7542 0.0031 0.3640
-0.7509 -0.0642 0.3638
-0.7417 -0.1309 0.3635
-0.7265 -0.1965 0.3633
-0.7057 -0.2604 0.3631
-0.6793 -0.3222 0.3629
-0.6475 -0.3814 0.3627
-0.6106 -0.4375 0.3626
-0.5689 -0.4902 0.3624
-0.5227 -0.5389 0.3624
-0.4725 -0.5833 0.3623
-0.4184 -0.6231 0.3623
-0.3611 -0.6580 0.3623
-0.3010 -0.6877 0.3623
-0.2384 -0.7120 0.3624
-0.1739 -0.7306 0.3625
-0.1080 -0.7434 0.3626
-0.0412 -0.7504 0.3627
0.0260 -0.7515 0.3629
0.0930 -0.7465 0.3631
0.1594 -0.7357 0.3633
0.2247 -0.7190 0.3636
0.2882 -0.6966 0.3638
0.3495 -0.6686 0.3641
0.4081 -0.6352 0.3644
0.4636 -0.5967 0.3647
0.4394 -0.6001 0.3647
0.4916 -0.5590 0.3650
0.5401 -0.5133 0.3653
0.5843 -0.4634 0.3656
0.6239 -0.4098 0.3659
0.6586 -0.3527 0.3663
0.6881 -0.2928 0.3666
0.7121 -0.2304 0.3669
0.7305 -0.1660 0.3673
0.7430 -0.1002 0.3676
0.7496 -0.0335 0.3679
0.7501 0.0336 0.3681
0.7447 0.1006 0.3684
0.7332 0.1668 0.3687
0.7158 0.2317 0.3689
0.6927 0.2949 0.3691
0.6639 0.3557 0.3693
0.6298 0.4138 0.3694
0.5905 0.4685 0.3696
0.5465 0.5195 0.3697
0.4980 0.5663 0.3697
0.4455 0.6086 0.3698
0.3893 0.6460 0.3698
0.3301 0.6781 0.3698
0.2682 0.7048 0.3697
0.2041 0.7258 0.3696
0.1385 0.7409 0.3695
0.0717 0.7500 0.3694
0.0045 0.7531 0.3692
-0.0628 0.7501 0.3690
-0.1294 0.7410 0.3688
-0.1950 0.7260 0.3686
-0.2588 0.7052 0.3683
-0.3205 0.6788 0.3680
-0.3796 0.6469 0.3677
-0.4355 0.6100 0.3674
-0.4878 0.5682 0.3671
-0.5361 0.5219 0.3668
-0.5800 0.4715 0.3665
-0.6193 0.4174 0.3661
-0.6535 0.3601 0.3658
-0.6824 0.3001 0.3655
-0.7058 0.2377 0.3652
-0.7236 0.1736 0.3648
-0.7356 0.1082 0.3645
-0.7417 0.0420 0.3642
-0.7420 -0.0243 0.3640
-0.7363 -0.0904 0.3637
-0.7248 -0.1557 0.3634
-0.7075 -0.2197 0.3632
-0.6847 -0.2818 0.3630
-0.6565 -0.3417 0.3628
-0.6231 -0.3988 0.3627
-0.5848 -0.4527 0.3626
-0.5419 -0.5029 0.3625
-0.4947 -0.5492 0.3624
-0.4436 -0.5911 0.3624
-0.3891 -0.6284 0.3623
-0.3314 -0.6606 0.3624
-0.2711 -0.6877 0.3624
-0.2087 -0.7093 0.3625
-0.1446 -0.7253 0.3626
-0.0792 -0.7355 0.3627
-0.0132 -0.7400 0.3629
0.0529 -0.7386 0.3630
0.1187 -0.7313 0.3632
0.1837 -0.7183 0.3635
0.2472 -0.6995 0.3637
0.3089 -0.6751 0.3640
0.3683 -0.6453 0.3643
0.4248 -0.6103 0.3646
0.4780 -0.5704 0.3649
0.5275 -0.5259 0.3652
0.5728 -0.4772 0.3655
0.6137 -0.4245 0.3659
0.6498 -0.3683 0.3662
0.6807 -0.3091 0.3665
0.7062 -0.2473 0.3668
0.7261 -0.1834 0.3672
0.7402 -0.1179 0.3675
0.7484 -0.0514 0.3678
0.7506 0.0156 0.3681
0.7467 0.0827 0.3683
0.7369 0.1491 0.3686
0.7211 0.2144 0.3688
0.6994 0.2781 0.3690
0.6722 0.3397 0.3692
0.6394 0.3985 0.3694
0.6015 0.4542 0.3695
0.5587 0.5062 0.3696
0.5114 0.5542 0.3697
0.4599 0.5977 0.3698
0.4047 0.6364 0.3698
0.3463 0.6700 0.3698
0.2850 0.6982 0.3697
0.2215 0.7207 0.3696
0.1562 0.7374 0.3695
0.0897 0.7481 0.3694
0.0225 0.7528 0.3693
-0.0448 0.7515 0.3691
-0.1116 0.7440 0.3689
-0.1775 0.7306 0.3686
-0.2419 0.7114 0.3684
-0.3042 0.6864 0.3681
-0.3640 0.6560 0.3678
-0.4208 0.6204 0.3675
-0.4741 0.5798 0.3672
-0.5236 0.5347 0.3669
-0.5687 0.4854 0.3666
-0.6092 0.4323 0.3662
-0.6448 0.3758 0.3659
-0.6752 0.3164 0.3656
-0.7001 0.2546 0.3652
-0.7194 0.1909 0.3649
-0.7330 0.1258 0.3646
-0.7407 0.0598 0.3643
-0.7425 -0.0066 0.3640
-0.7384 -0.0728 0.3638
-0.7284 -0.1383 0.3635
-0.7127 -0.2027 0.3633
-0.6914 -0.2654 0.3631
-0.6646 -0.3259 0.3629
-0.6325 -0.3838 0.3627
-0.5955 -0.4385 0.3626
-0.5538 -0.4898 0.3625
-0.5078 -0.5372 0.3624
-0.4577 -0.5803 0.3624
-0.4040 -0.6189 0.3623
-0.3471 -0.6525 0.3624
-0.2875 -0.6809 0.3624
-0.2256 -0.7040 0.3625
-0.1619 -0.7215 0.3625
-0.0968 -0.7334 0.3627
-0.0310 -0.7394 0.3628
0.0352 -0.7395 0.3630
0.1011 -0.7339 0.3632
0.1664 -0.7223 0.3634
0.2304 -0.7051 0.3637
0.2926 -0.6822 0.3639
0.3526 -0.6538 0.3642
0.4099 -0.6202 0.3645
0.4641 -0.5816 0.3648
0.5146 -0.5383 0.3651
0.5611 -0.4906 0.3654
0.6032 -0.4390 0.3658
0.6406 -0.3837 0.3661
0.6729 -0.3253 0.3664
0.6999 -0.2641 0.3668
0.7213 -0.2007 0.3671
0.7370 -0.1356 0.3674
0.7468 -0.0693 0.3677
0.7506 -0.0024 0.3680
0.7484 0.0647 0.3683
0.7401 0.1314 0.3685
0.7259 0.1971 0.3688
0.7058 0.2613 0.3690
0.6800 0.3234 0.3692
0.6487 0.3830 0.3694
0.6122 0.4396 0.3695
0.5706 0.4927 0.3696
0.5245 0.5418 0.3697
0.4741 0.5865 0.3697
0.4199 0.6266 0.3698
0.3622 0.6615 0.3698
0.3017 0.6912 0.3697
0.2387 0.7152 0.3697
0.1738 0.7335 0.3696
0.1076 0.7458 0.3695
0.0406 0.7522 0.3693
-0.0268 0.7524 0.3691
-0.0938 0.7466 0.3689
-0.1600 0.7348 0.3687
-0.2248 0.7171 0.3685
-0.2877 0.6937 0.3682
-0.3483 0.6647 0.3679
-0.4059 0.6304 0.3676
-0.4602 0.5912 0.3673
-0.5107 0.5472 0.3670
-0.5570 0.4990 0.3667
-0.5988 0.4469 0.3663
-0.6358 0.3912 0.3660
-0.6675 0.3326 0.3657
-0.6940 0.2714 0.3653
-0.7148 0.2082 0.3650
-0.7299 0.1434 0.3647
-0.7392 0.0776 0.3644
-0.7426 0.0112 0.3641
-0.7400 -0.0551 0.3638
-0.7317 -0.1208 0.3636
-0.7175 -0.1856 0.3633
-0.6976 -0.2488 0.3631
-0.6723 -0.3099 0.3629
-0.6416 -0.3685 0.3628
-0.6059 -0.4242 0.3626
-0.5654 -0.4765 0.3625
-0.5205 -0.5249 0.3624
-0.4715 -0.5692 0.3624
-0.4187 -0.6090 0.3623
-0.3627 -0.6440 0.3623
-0.3038 -0.6738 0.3624
-0.2424 -0.6984 0.3624
-0.1791 -0.7174 0.3625
-0.1144 -0.7308 0.3626
-0.0487 -0.7383 0.3628
0.0175 -0.7401 0.3629
0.0835 -0.7360 0.3631
0.1490 -0.7260 0.3634
0.2133 -0.7102 0.3636
0.2761 -0.6888 0.3638
0.3368 -0.6619 0.3641
0.3949 -0.6297 0.3644
0.4499 -0.5924 0.3647
0.5014 -0.5504 0.3650
0.5491 -0.5038 0.3653
0.5924 -0.4532 0.3657
0.6310 -0.3988 0.3660
0.6648 -0.3412 0.3663
0.6932 -0.2807 0.3667
0.7161 -0.2179 0.3670
0.7334 -0.1532 0.3673
0.7447 -0.0872 0.3676
0.7501 -0.0204 0.3679
0.7495 0.0467 0.3682
0.7429 0.1136 0.3685
0.7303 0.1796 0.3687
0.7118 0.2442 0.3689
0.6875 0.3070 0.3691
0.6577 0.3673 0.3693
0.6225 0.4247 0.3695
0.5822 0.4788 0.3696
0.5373 0.5290 0.3697
0.4880 0.5750 0.3697
0.4347 0.6163 0.3698
0.3780 0.6527 0.3698
0.3181 0.6838 0.3697
0.2558 0.7093 0.3697
0.1914 0.7292 0.3696
0.1255 0.7431 0.3695
0.0586 0.7511 0.3693
-0.0087 0.7529 0.3692
-0.0759 0.7488 0.3690
-0.1424 0.7386 0.3688
-0.2076 0.7224 0.3685
-0.2711 0.7005 0.3683
-0.3323 0.6730 0.3680
-0.3908 0.6401 0.3677
-0.4460 0.6022 0.3674
-0.4976 0.5594 0.3671
-0.5450 0.5123 0.3667
-0.5881 0.4612 0.3664
-0.6264 0.4065 0.3661
-0.6596 0.3486 0.3657
-0.6874 0.2880 0.3654
-0.7098 0.2253 0.3651
-0.7264 0.1609 0.3648
-0.7373 0.0953 0.3645
-0.7422 0.0290 0.3642
-0.7413 -0.0373 0.3639
-0.7345 -0.1033 0.3636
-0.7218 -0.1684 0.3634
-0.7035 -0.2320 0.3632
-0.6796 -0.2937 0.3630
-0.6504 -0.3531 0.3628
-0.6160 -0.4096 0.3627
-0.5767 -0.4628 0.3625
-0.5330 -0.5123 0.3625
-0.4850 -0.5578 0.3624
-0.4332 -0.5988 0.3623
-0.3780 -0.6351 0.3623
-0.3198 -0.6663 0.3624
-0.2591 -0.6923 0.3624
-0.1963 -0.7128 0.3625
-0.1319 -0.7277 0.3626
-0.0664 -0.7369 0.3627
-0.0003 -0.7402 0.3629
0.0658 -0.7376 0.3631
0.1315 -0.7292 0.3633
0.1962 -0.7150 0.3635
0.2595 -0.6951 0.3638
0.3208 -0.6697 0.3640
0.3796 -0.6389 0.3643
0.4355 -0.6029 0.3646
0.4880 -0.5621 0.3649
0.5367 -0.5167 0.3653
0.5812 -0.4671 0.3656
0.6212 -0.4138 0.3659
0.6562 -0.3570 0.3663
0.6861 -0.2972 0.3666
0.7105 -0.2350 0.3669
0.7293 -0.1707 0.3672
0.7423 -0.1050 0.3675
0.7493 -0.0383 0.3678
0.7503 0.0288 0.3681
0.7453 0.0957 0.3684
0.7343 0.1620 0.3686
0.7173 0.2271 0.3689
0.6946 0.2904 0.3691
0.6662 0.3514 0.3693
0.6324 0.4097 0.3694
0.5935 0.4647 0.3696
0.5498 0.5159 0.3697
0.5016 0.5631 0.3697
0.4494 0.6057 0.3698
0.3935 0.6434 0.3698
0.3345 0.6760 0.3698
0.2727 0.7030 0.3697
0.2088 0.7244 0.3696
0.1433 0.7400 0.3695
0.0766 0.7495 0.3694
0.0093 0.7530 0.3692
-0.0579 0.7505 0.3690
-0.1246 0.7419 0.3688
-0.1903 0.7273 0.3686
-0.2543 0.7069 0.3683
-0.3162 0.6809 0.3681
-0.3754 0.6494 0.3678
-0.4315 0.6128 0.3675
-0.4841 0.5713 0.3672
-0.5327 0.5254 0.3668
-0.5770 0.4753 0.3665
-0.6166 0.4215 0.3662
-0.6512 0.3644 0.3658
-0.6805 0.3045 0.3655
-0.7043 0.2423 0.3652
-0.7225 0.1783 0.3649
-0.7349 0.1130 0.3646
-0.7415 0.0468 0.3643
-0.7421 -0.0195 0.3640
-0.7369 -0.0857 0.3637
-0.7258 -0.1510 0.3635
-0.7090 -0.2151 0.3632
-0.6866 -0.2774 0.3630
-0.6587 -0.3374 0.3629
-0.6257 -0.3947 0.3627
-0.5877 -0.4489 0.3626
-0.5451 -0.4994 0.3625
-0.4983 -0.5460 0.3624
-0.4475 -0.5882 0.3624
-0.3931 -0.6258 0.3623
-0.3357 -0.6585 0.3624
-0.2756 -0.6859 0.3624
-0.2133 -0.7079 0.3625
-0.1493 -0.7243 0.3626
-0.0840 -0.7350 0.3627
-0.0180 -0.7399 0.3629
0.0481 -0.7389 0.3630
0.1140 -0.7321 0.3632
0.1790 -0.7194 0.3635
0.2427 -0.7010 0.3637
0.3045 -0.6770 0.3640
0.3641 -0.6476 0.3643
0.4208 -0.6130 0.3645
0.4743 -0.5735 0.3649
0.5240 -0.5293 0.3652
0.5697 -0.4808 0.3655
0.6109 -0.4284 0.3658
0.6473 -0.3725 0.3662
0.6786 -0.3135 0.3665
0.7045 -0.2519 0.3668
0.7248 -0.1881 0.3671
0.7394 -0.1227 0.3675
0.7480 -0.0563 0.3678
0.7506 0.0108 0.3681
0.7472 0.0778 0.3683
0.7378 0.1443 0.3686
0.7224 0.2098 0.3688
0.7012 0.2736 0.3690
0.6743 0.3353 0.3692
0.6420 0.3943 0.3694
0.6044 0.4503 0.3695
0.5620 0.5026 0.3696
0.5150 0.5509 0.3697
0.4638 0.5947 0.3698
0.4088 0.6338 0.3698
0.3506 0.6678 0.3698
0.2895 0.6963 0.3697
0.2261 0.7193 0.3697
0.1610 0.7364 0.3696
0.0945 0.7476 0.3694
0.0274 0.7527 0.3693
-0.0399 0.7518 0.3691
-0.1068 0.7448 0.3689
-0.1728 0.7318 0.3687
-0.2373 0.7130 0.3684
-0.2998 0.6884 0.3681
-0.3598 0.6584 0.3678
-0.4168 0.6231 0.3675
-0.4704 0.5829 0.3672
-0.5201 0.5381 0.3669
-0.5656 0.4891 0.3666
-0.6064 0.4362 0.3663
-0.6424 0.3800 0.3659
-0.6731 0.3208 0.3656
-0.6985 0.2592 0.3653
-0.7182 0.1956 0.3649
-0.7322 0.1306 0.3646
-0.7403 0.0646 0.3643
-0.7425 -0.0017 0.3641
-0.7389 -0.0680 0.3638
-0.7293 -0.1336 0.3635
-0.7140 -0.1981 0.3633
-0.6931 -0.2609 0.3631
-0.6667 -0.3216 0.3629
-0.6350 -0.3797 0.3627
-0.5984 -0.4347 0.3626
-0.5570 -0.4862 0.3625
-0.5112 -0.5339 0.3624
-0.4614 -0.5774 0.3624
-0.4080 -0.6162 0.3623
-0.3514 -0.6502 0.3623
-0.2919 -0.6791 0.3624
-0.2302 -0.7025 0.3624
-0.1666 -0.7205 0.3625
-0.1016 -0.7327 0.3627
-0.0358 -0.7391 0.3628
0.0304 -0.7397 0.3630
0.0964 -0.7345 0.3632
0.1617 -0.7234 0.3634
0.2258 -0.7065 0.3636
0.2882 -0.6840 0.3639
0.3484 -0.6560 0.3642
0.4059 -0.6228 0.3645
0.4603 -0.5846 0.3648
0.5111 -0.5416 0.3651
0.5579 -0.4942 0.3654
0.6003 -0.4428 0.3657
0.6380 -0.3878 0.3661
0.6707 -0.3296 0.3664
0.6981 -0.2686 0.3667
0.7200 -0.2054 0.3671
0.7361 -0.1404 0.3674
0.7463 -0.0742 0.3677
0.7505 -0.0072 0.3680
0.7487 0.0599 0.3683
0.7409 0.1266 0.3685
0.7271 0.1923 0.3688
0.7075 0.2567 0.3690
0.6821 0.3190 0.3692
0.6512 0.3788 0.3693
0.6150 0.4356 0.3695
0.5738 0.4889 0.3696
0.5280 0.5384 0.3697
0.4779 0.5834 0.3697
0.4239 0.6238 0.3698
0.3665 0.6592 0.3698
0.3061 0.6892 0.3697
0.2433 0.7137 0.3697
0.1786 0.7324 0.3696
0.1124 0.7452 0.3695
0.0454 0.7519 0.3693
-0.0219 0.7526 0.3691
-0.0890 0.7472 0.3689
-0.1552 0.7359 0.3687
-0.2202 0.7186 0.3685
-0.2833 0.6955 0.3682
-0.3440 0.6670 0.3679
-0.4018 0.6331 0.3676
-0.4564 0.5942 0.3673
-0.5072 0.5506 0.3670
-0.5538 0.5026 0.3667
-0.5960 0.4508 0.3663
-0.6333 0.3954 0.3660
-0.6654 0.3369 0.3657
-0.6922 0.2759 0.3654
-0.7135 0.2128 0.3650
-0.7290 0.1481 0.3647
-0.7387 0.0824 0.3644
-0.7425 0.0161 0.3641
-0.7404 -0.0503 0.3639
-0.7325 -0.1161 0.3636
-0.7187 -0.1809 0.3634
-0.6993 -0.2442 0.3631
-0.6743 -0.3056 0.3629
-0.6440 -0.3644 0.3628
-0.6087 -0.4203 0.3626
-0.5685 -0.4728 0.3625
-0.5239 -0.5215 0.3624
-0.4752 -0.5661 0.3624
-0.4227 -0.6063 0.3623
-0.3669 -0.6416 0.3623
-0.3081 -0.6718 0.3624
-0.2469 -0.6968 0.3624
-0.1838 -0.7162 0.3625
-0.1191 -0.7300 0.3626
-0.0535 -0.7380 0.3628
0.0127 -0.7401 0.3629
0.0787 -0.7365 0.3631
0.1443 -0.7269 0.3633
0.2087 -0.7116 0.3636
0.2716 -0.6906 0.3638
0.3325 -0.6641 0.3641
0.3907 -0.6322 0.3644
0.4460 -0.5953 0.3647
0.4978 -0.5536 0.3650
0.5457 -0.5073 0.3653
0.5894 -0.4570 0.3657
0.6284 -0.4029 0.3660
0.6625 -0.3455 0.3663
0.6913 -0.2852 0.3666
0.7147 -0.2225 0.3670
0.7323 -0.1580 0.3673
0.7441 -0.0920 0.3676
0.7500 -0.0252 0.3679
0.7498 0.0419 0.3682
0.7436 0.1088 0.3684
0.7314 0.1748 0.3687
0.7133 0.2396 0.3689
0.6894 0.3025 0.3691
0.6600 0.3630 0.3693
0.6252 0.4207 0.3694
0.5853 0.4750 0.3696
0.5407 0.5255 0.3697
0.4917 0.5718 0.3697
0.4387 0.6135 0.3698
0.3822 0.6502 0.3698
0.3226 0.6817 0.3698
0.2604 0.7077 0.3697
0.1961 0.7279 0.3696
0.1303 0.7423 0.3695
0.0634 0.7507 0.3694
-0.0038 0.7530 0.3692
-0.0710 0.7493 0.3690
-0.1376 0.7395 0.3688
-0.2029 0.7238 0.3685
-0.2666 0.7023 0.3683
-0.3280 0.6752 0.3680
-0.3866 0.6427 0.3677
-0.4421 0.6051 0.3674
-0.4940 0.5627 0.3671
-0.5417 0.5159 0.3668
-0.5851 0.4650 0.3664
-0.6238 0.4105 0.3661
-0.6573 0.3529 0.3658
-0.6856 0.2925 0.3654
-0.7083 0.2299 0.3651
-0.7254 0.1656 0.3648
-0.7367 0.1001 0.3645
-0.7421 0.0339 0.3642
-0.7416 -0.0325 0.3639
-0.7352 -0.0985 0.3637
-0.7230 -0.1637 0.3634
-0.7050 -0.2274 0.3632
-0.6815 -0.2893 0.3630
-0.6527 -0.3489 0.3628
-0.6186 -0.4056 0.3627
-0.5797 -0.4591 0.3626
-0.5363 -0.5089 0.3625
-0.4886 -0.5546 0.3624
-0.4371 -0.5960 0.3624
-0.3821 -0.6326 0.3623
-0.3241 -0.6642 0.3624
-0.2635 -0.6906 0.3624
-0.2009 -0.7115 0.3625
-0.1366 -0.7268 0.3626
-0.0711 -0.7364 0.3627
-0.0051 -0.7401 0.3629
0.0611 -0.7380 0.3631
0.1268 -0.7300 0.3633
0.1916 -0.7163 0.3635
0.2550 -0.6968 0.3638
0.3164 -0.6717 0.3640
0.3754 -0.6413 0.3643
0.4315 -0.6057 0.3646
0.4843 -0.5652 0.3649
0.5333 -0.5202 0.3652
0.5781 -0.4709 0.3656
0.6184 -0.4177 0.3659
0.6539 -0.3612 0.3662
0.6841 -0.3016 0.3666
0.7090 -0.2395 0.3669
0.7281 -0.1754 0.3672
0.7415 -0.1098 0.3675
0.7490 -0.0432 0.3678
0.7504 0.0239 0.3681
0.7458 0.0909 0.3684
0.7353 0.1572 0.3686
0.7187 0.2224 0.3689
0.6964 0.2858 0.3691
0.6684 0.3471 0.3693
0.6350 0.4055 0.3694
0.5965 0.4608 0.3695
0.5531 0.5124 0.3696
0.5052 0.5598 0.3697
0.4533 0.6028 0.3698
0.3977 0.6409 0.3698
0.3389 0.6738 0.3698
0.2773 0.7013 0.3697
0.2135 0.7231 0.3696
0.1480 0.7390 0.3695
0.0814 0.7490 0.3694
0.0142 0.7530 0.3692
-0.0531 0.7509 0.3690
-0.1198 0.7427 0.3688
-0.1855 0.7286 0.3686
-0.2497 0.7086 0.3684
-0.3118 0.6830 0.3681
-0.3712 0.6519 0.3678
-0.4276 0.6156 0.3675
-0.4804 0.5745 0.3672
-0.5293 0.5288 0.3669
-0.5740 0.4790 0.3665
-0.6139 0.4255 0.3662
-0.6488 0.3686 0.3659
-0.6786 0.3089 0.3655
-0.7028 0.2469 0.3652
-0.7214 0.1830 0.3649
-0.7342 0.1177 0.3646
-0.7412 0.0517 0.3643
-0.7423 -0.0147 0.3640
-0.7375 -0.0809 0.3637
-0.7268 -0.1463 0.3635
-0.7104 -0.2105 0.3633
-0.6884 -0.2730 0.3630
-0.6609 -0.3332 0.3629
-0.6282 -0.3907 0.3627
-0.5906 -0.4451 0.3626
-0.5484 -0.4959 0.3625
-0.5018 -0.5428 0.3624
-0.4513 -0.5853 0.3624
-0.3972 -0.6233 0.3623
-0.3399 -0.6563 0.3624
-0.2800 -0.6841 0.3624
-0.2179 -0.7065 0.3625
-0.1539 -0.7233 0.3626
-0.0888 -0.7344 0.3627
-0.0228 -0.7397 0.3628
0.0433 -0.7392 0.3630
0.1092 -0.7328 0.3632
0.1743 -0.7205 0.3634
0.2381 -0.7025 0.3637
0.3001 -0.6790 0.3639
0.3598 -0.6499 0.3642
0.4168 -0.6157 0.3645
0.4705 -0.5765 0.3648
0.5206 -0.5327 0.3651
0.5665 -0.4845 0.3655
0.6081 -0.4323 0.3658
0.6448 -0.3767 0.3661
0.6765 -0.3179 0.3665
0.7028 -0.2564 0.3668
0.7236 -0.1928 0.3671
0.7385 -0.1275 0.3674
0.7476 -0.0611 0.3677
0.7506 0.0059 0.3680
0.7477 0.0730 0.3683
0.7387 0.1395 0.3686
0.7237 0.2051 0.3688
0.7029 0.2690 0.3690
0.6765 0.3309 0.3692
0.6445 0.3902 0.3694
0.6073 0.4463 0.3695
0.5652 0.4989 0.3696
0.5185 0.5475 0.3697
0.4676 0.5917 0.3698
0.4129 0.6311 0.3698
0.3549 0.6655 0.3698
0.2940 0.6944 0.3697
0.2308 0.7178 0.3697
0.1657 0.7353 0.3696
0.0994 0.7469 0.3694
0.0323 0.7525 0.3693
-0.0351 0.7520 0.3691
-0.1020 0.7455 0.3689
-0.1681 0.7329 0.3687
-0.2327 0.7145 0.3684
-0.2954 0.6904 0.3682
-0.3555 0.6607 0.3679
-0.4128 0.6258 0.3676
-0.4666 0.5860 0.3673
-0.5166 0.5415 0.3669
-0.5624 0.4928 0.3666
-0.6037 0.4402 0.3663
-0.6400 0.3842 0.3660
-0.6711 0.3252 0.3656
-0.6968 0.2637 0.3653
-0.7170 0.2003 0.3650
-0.7314 0.1353 0.3647
-0.7399 0.0694 0.3644
-0.7426 0.0031 0.3641
-0.7393 -0.0632 0.3638
-0.7302 -0.1289 0.3635
-0.7153 -0.1935 0.3633
-0.6948 -0.2564 0.3631
-0.6688 -0.3173 0.3629
-0.6375 -0.3756 0.3628
-0.6012 -0.4308 0.3626
-0.5601 -0.4826 0.3625
-0.5147 -0.5306 0.3624
-0.4652 -0.5744 0.3624
-0.4120 -0.6136 0.3623
-0.3556 -0.6479 0.3623
-0.2963 -0.6771 0.3624
-0.2347 -0.7010 0.3624
-0.1712 -0.7193 0.3625
-0.1063 -0.7320 0.3627
-0.0406 -0.7389 0.3628
0.0256 -0.7399 0.3630
0.0916 -0.7350 0.3632
0.1570 -0.7244 0.3634
0.2212 -0.7079 0.3636
0.2837 -0.6858 0.3639
0.3441 -0.6582 0.3642
0.4018 -0.6254 0.3644
0.4564 -0.5875 0.3647
0.4326 -0.5909 0.3647
0.4841 -0.5504 0.3650
0.5318 -0.5054 0.3653
0.5753 -0.4563 0.3656
0.6143 -0.4034 0.3659
0.6484 -0.3473 0.3663
0.6774 -0.2883 0.3666
0.7011 -0.2268 0.3669
0.7192 -0.1634 0.3672
0.7315 -0.0986 0.3675
0.7380 -0.0330 0.3678
0.7385 0.0331 0.3681
0.7332 0.0990 0.3684
0.7219 0.1642 0.3686
0.7048 0.2281 0.3688
0.6819 0.2903 0.3690
0.6536 0.3502 0.3692
0.6200 0.4073 0.3694
0.5813 0.4612 0.3695
0.5379 0.5114 0.3696
0.4902 0.5575 0.3697
0.4385 0.5991 0.3697
0.3833 0.6359 0.3697
0.3249 0.6676 0.3697
0.2640 0.6938 0.3696
0.2009 0.7145 0.3696
0.1363 0.7294 0.3695
0.0706 0.7383 0.3693
0.0044 0.7414 0.3692
-0.0618 0.7384 0.3690
-0.1274 0.7295 0.3688
-0.1919 0.7148 0.3685
-0.2548 0.6943 0.3683
-0.3156 0.6683 0.3680
-0.3737 0.6369 0.3677
-0.4287 0.6005 0.3674
-0.4802 0.5594 0.3671
-0.5278 0.5138 0.3668
-0.5711 0.4642 0.3665
-0.6097 0.4110 0.3661
-0.6434 0.3546 0.3658
-0.6719 0.2955 0.3655
-0.6950 0.2341 0.3652
-0.7125 0.1709 0.3649
-0.7243 0.1065 0.3646
-0.7304 0.0414 0.3643
-0.7306 -0.0240 0.3640
-0.7250 -0.0891 0.3637
-0.7137 -0.1533 0.3635
-0.6967 -0.2163 0.3633
-0.6743 -0.2775 0.3631
-0.6465 -0.3365 0.3629
-0.6136 -0.3927 0.3627
-0.5759 -0.4458 0.3626
-0.5336 -0.4953 0.3625
-0.4872 -0.5408 0.3625
-0.4369 -0.5821 0.3624
-0.3831 -0.6188 0.3624
-0.3264 -0.6505 0.3624
-0.2670 -0.6772 0.3625
-0.2055 -0.6985 0.3625
-0.1424 -0.7142 0.3626
-0.0780 -0.7243 0.3628
-0.0130 -0.7287 0.3629
0.0521 -0.7273 0.3631
0.1169 -0.7202 0.3633
0.1809 -0.7073 0.3635
0.2435 -0.6888 0.3638
0.3042 -0.6647 0.3640
0.3626 -0.6354 0.3643
0.4183 -0.6010 0.3646
0.4707 -0.5617 0.3649
0.5194 -0.5179 0.3652
0.5640 -0.4698 0.3655
0.6043 -0.4179 0.3659
0.6398 -0.3627 0.3662
0.6702 -0.3043 0.3665
0.6953 -0.2435 0.3668
0.7149 -0.1806 0.3671
0.7288 -0.1161 0.3675
0.7368 -0.0506 0.3678
0.7390 0.0154 0.3680
0.7352 0.0814 0.3683
0.7255 0.1468 0.3686
0.7099 0.2111 0.3688
0.6886 0.2738 0.3690
0.6617 0.3344 0.3692
0.6295 0.3923 0.3693
0.5922 0.4471 0.3695
0.5500 0.4984 0.3696
0.5034 0.5456 0.3697
0.4527 0.5884 0.3697
0.3984 0.6266 0.3697
0.3409 0.6596 0.3697
0.2806 0.6873 0.3697
0.2180 0.7095 0.3696
0.1538 0.7259 0.3695
0.0883 0.7365 0.3694
0.0222 0.7411 0.3692
-0.0441 0.7398 0.3690
-0.1099 0.7325 0.3688
-0.1748 0.7193 0.3686
-0.2382 0.7004 0.3683
-0.2995 0.6758 0.3681
-0.3584 0.6459 0.3678
-0.4143 0.6108 0.3675
-0.4668 0.5709 0.3672
-0.5155 0.5264 0.3669
-0.5599 0.4779 0.3666
-0.5998 0.4256 0.3662
-0.6349 0.3700 0.3659
-0.6648 0.3116 0.3656
-0.6894 0.2507 0.3653
-0.7084 0.1880 0.3649
-0.7217 0.1239 0.3646
-0.7293 0.0589 0.3643
-0.7311 -0.0065 0.3641
-0.7271 -0.0717 0.3638
-0.7173 -0.1362 0.3636
-0.7018 -0.1996 0.3633
-0.6808 -0.2613 0.3631
-0.6544 -0.3209 0.3629
-0.6229 -0.3779 0.3628
-0.5864 -0.4319 0.3626
-0.5454 -0.4824 0.3625
-0.5000 -0.5290 0.3625
-0.4507 -0.5715 0.3624
-0.3979 -0.6094 0.3624
-0.3419 -0.6425 0.3624
-0.2831 -0.6706 0.3624
-0.2222 -0.6933 0.3625
-0.1594 -0.7105 0.3626
-0.0954 -0.7222 0.3627
-0.0305 -0.7281 0.3629
0.0346 -0.7283 0.3630
0.0996 -0.7226 0.3632
0.1638 -0.7113 0.3635
0.2268 -0.6943 0.3637
0.2881 -0.6717 0.3639
0.3472 -0.6438 0.3642
0.4037 -0.6107 0.3645
0.4569 -0.5727 0.3648
0.5067 -0.5300 0.3651
0.5525 -0.4831 0.3654
0.5939 -0.4322 0.3658
0.6307 -0.3778 0.3661
0.6625 -0.3202 0.3664
0.6891 -0.2600 0.3667
0.7102 -0.1976 0.3671
0.7256 -0.1335 0.3674
0.7352 -0.0683 0.3677
0.7390 -0.0023 0.3680
0.7368 0.0637 0.3682
0.7286 0.1293 0.3685
0.7146 0.1940 0.3687
0.6949 0.2572 0.3689
0.6695 0.3184 0.3691
0.6386 0.3771 0.3693
0.6027 0.4328 0.3694
0.5618 0.4850 0.3696
0.5163 0.5333 0.3696
0.4667 0.5774 0.3697
0.4133 0.6168 0.3697
0.3566 0.6513 0.3697
0.2970 0.6804 0.3697
0.2350 0.7041 0.3696
0.1711 0.7221 0.3695
0.1059 0.7342 0.3694
0.0399 0.7405 0.3693
-0.0263 0.7407 0.3691
-0.0923 0.7350 0.3689
-0.1575 0.7234 0.3687
-0.2213 0.7060 0.3684
-0.2833 0.6829 0.3682
-0.3429 0.6544 0.3679
-0.3996 0.6207 0.3676
-0.4531 0.5820 0.3673
-0.5028 0.5388 0.3670
-0.5485 0.4913 0.3666
-0.5896 0.4400 0.3663
-0.6260 0.3852 0.3660
-0.6573 0.3275 0.3657
-0.6833 0.2672 0.3653
-0.7038 0.2050 0.3650
-0.7187 0.1412 0.3647
-0.7279 0.0764 0.3644
-0.7312 0.0111 0.3641
-0.7287 -0.0542 0.3639
-0.7205 -0.1190 0.3636
-0.7065 -0.1827 0.3634
-0.6870 -0.2450 0.3632
-0.6620 -0.3052 0.3630
-0.6318 -0.3629 0.3628
-0.5967 -0.4177 0.3627
-0.5568 -0.4692 0.3626
-0.5126 -0.5169 0.3625
-0.4643 -0.5605 0.3624
-0.4124 -0.5997 0.3624
-0.3572 -0.6341 0.3624
-0.2991 -0.6636 0.3624
-0.2387 -0.6877 0.3625
-0.1764 -0.7065 0.3626
-0.1126 -0.7196 0.3627
-0.0480 -0.7271 0.3628
0.0172 -0.7288 0.3630
0.0822 -0.7247 0.3632
0.1467 -0.7149 0.3634
0.2101 -0.6994 0.3636
0.2719 -0.6783 0.3639
0.3316 -0.6518 0.3641
0.3888 -0.6201 0.3644
0.4430 -0.5833 0.3647
0.4937 -0.5419 0.3650
0.5406 -0.4961 0.3654
0.5833 -0.4462 0.3657
0.6214 -0.3927 0.3660
0.6545 -0.3360 0.3663
0.6825 -0.2764 0.3667
0.7051 -0.2145 0.3670
0.7220 -0.1509 0.3673
0.7332 -0.0858 0.3676
0.7386 -0.0200 0.3679
0.7379 0.0460 0.3682
0.7314 0.1118 0.3684
0.7190 0.1768 0.3687
0.7007 0.2404 0.3689
0.6768 0.3022 0.3691
0.6474 0.3616 0.3693
0.6128 0.4182 0.3694
0.5732 0.4713 0.3695
0.5290 0.5208 0.3696
0.4804 0.5660 0.3697
0.4280 0.6067 0.3697
0.3721 0.6425 0.3697
0.3132 0.6731 0.3697
0.2518 0.6983 0.3696
0.1884 0.7178 0.3695
0.1235 0.7316 0.3694
0.0577 0.7394 0.3693
-0.0086 0.7413 0.3691
-0.0747 0.7371 0.3689
-0.1402 0.7271 0.3687
-0.2044 0.7112 0.3685
-0.2669 0.6897 0.3682
-0.3272 0.6626 0.3680
-0.3847 0.6302 0.3677
-0.4391 0.5929 0.3674
-0.4899 0.5508 0.3671
-0.5366 0.5044 0.3667
-0.5790 0.4541 0.3664
-0.6167 0.4002 0.3661
-0.6494 0.3432 0.3658
-0.6769 0.2836 0.3654
-0.6989 0.2218 0.3651
-0.7153 0.1584 0.3648
-0.7260 0.0938 0.3645
-0.7309 0.0286 0.3642
-0.7300 -0.0367 0.3639
-0.7233 -0.1017 0.3637
-0.7108 -0.1658 0.3634
-0.6928 -0.2285 0.3632
-0.6692 -0.2893 0.3630
-0.6404 -0.3477 0.3629
-0.6066 -0.4033 0.3627
-0.5680 -0.4557 0.3626
-0.5249 -0.5045 0.3625
-0.4776 -0.5493 0.3624
-0.4266 -0.5897 0.3624
-0.3723 -0.6254 0.3624
-0.3149 -0.6562 0.3624
-0.2551 -0.6818 0.3625
-0.1933 -0.7020 0.3625
-0.1298 -0.7166 0.3627
-0.0654 -0.7256 0.3628
-0.0003 -0.7289 0.3629
0.0648 -0.7264 0.3631
0.1295 -0.7181 0.3633
0.1932 -0.7041 0.3636
0.2555 -0.6845 0.3638
0.3158 -0.6594 0.3641
0.3737 -0.6291 0.3644
0.4288 -0.5937 0.3646
0.4805 -0.5535 0.3650
0.5285 -0.5088 0.3653
0.5723 -0.4600 0.3656
0.6116 -0.4074 0.3659
0.6461 -0.3515 0.3662
0.6755 -0.2926 0.3666
0.6996 -0.2313 0.3669
0.7180 -0.1681 0.3672
0.7308 -0.1034 0.3675
0.7377 -0.0377 0.3678
0.7387 0.0283 0.3681
0.7337 0.0942 0.3684
0.7229 0.1595 0.3686
0.7062 0.2235 0.3688
0.6838 0.2859 0.3690
0.6558 0.3459 0.3692
0.6226 0.4033 0.3694
0.5843 0.4574 0.3695
0.5413 0.5079 0.3696
0.4938 0.5543 0.3697
0.4424 0.5963 0.3697
0.3874 0.6334 0.3697
0.3293 0.6655 0.3697
0.2685 0.6921 0.3697
0.2056 0.7132 0.3696
0.1410 0.7285 0.3695
0.0754 0.7379 0.3693
0.0092 0.7413 0.3692
-0.0570 0.7388 0.3690
-0.1227 0.7304 0.3688
-0.1873 0.7161 0.3685
-0.2503 0.6960 0.3683
-0.3113 0.6704 0.3680
-0.3696 0.6394 0.3677
-0.4249 0.6033 0.3674
-0.4767 0.5625 0.3671
-0.5245 0.5173 0.3668
-0.5681 0.4679 0.3665
-0.6071 0.4150 0.3662
-0.6412 0.3588 0.3658
-0.6700 0.2998 0.3655
-0.6935 0.2386 0.3652
-0.7114 0.1756 0.3649
-0.7237 0.1112 0.3646
-0.7301 0.0461 0.3643
-0.7308 -0.0192 0.3640
-0.7256 -0.0844 0.3637
-0.7147 -0.1487 0.3635
-0.6981 -0.2118 0.3633
-0.6761 -0.2732 0.3631
-0.6487 -0.3323 0.3629
-0.6161 -0.3887 0.3628
-0.5788 -0.4420 0.3626
-0.5368 -0.4918 0.3625
-0.4907 -0.5377 0.3625
-0.4406 -0.5793 0.3624
-0.3871 -0.6163 0.3624
-0.3306 -0.6484 0.3624
-0.2714 -0.6754 0.3625
-0.2100 -0.6971 0.3625
-0.1470 -0.7133 0.3626
-0.0827 -0.7238 0.3627
-0.0178 -0.7286 0.3629
0.0474 -0.7276 0.3631
0.1122 -0.7209 0.3633
0.1763 -0.7084 0.3635
0.2390 -0.6903 0.3637
0.2999 -0.6667 0.3640
0.3585 -0.6377 0.3643
0.4143 -0.6036 0.3646
0.4670 -0.5647 0.3649
0.5160 -0.5212 0.3652
0.5609 -0.4734 0.3655
0.6015 -0.4218 0.3658
0.6373 -0.3668 0.3662
0.6681 -0.3087 0.3665
0.6937 -0.2480 0.3668
0.7137 -0.1852 0.3671
0.7280 -0.1208 0.3674
0.7364 -0.0554 0.3677
0.7390 0.0106 0.3680
0.7357 0.0766 0.3683
0.7264 0.1421 0.3685
0.7112 0.2065 0.3688
0.6903 0.2693 0.3690
0.6639 0.3301 0.3692
0.6320 0.3882 0.3693
0.5950 0.4433 0.3695
0.5532 0.4948 0.3696
0.5069 0.5423 0.3697
0.4566 0.5855 0.3697
0.4025 0.6240 0.3697
0.3451 0.6574 0.3697
0.2850 0.6855 0.3697
0.2226 0.7081 0.3696
0.1585 0.7249 0.3695
0.0931 0.7359 0.3694
0.0270 0.7410 0.3692
-0.0393 0.7401 0.3690
-0.1052 0.7332 0.3688
-0.1701 0.7205 0.3686
-0.2336 0.7019 0.3684
-0.2952 0.6778 0.3681
-0.3542 0.6482 0.3678
-0.4104 0.6135 0.3675
-0.4631 0.5739 0.3672
-0.5121 0.5298 0.3669
-0.5569 0.4815 0.3666
-0.5971 0.4295 0.3663
-0.6325 0.3741 0.3659
-0.6628 0.3159 0.3656
-0.6878 0.2552 0.3653
-0.7072 0.1926 0.3650
-0.7210 0.1286 0.3647
-0.7290 0.0636 0.3644
-0.7312 -0.0017 0.3641
-0.7276 -0.0669 0.3638
-0.7182 -0.1316 0.3636
-0.7031 -0.1950 0.3633
-0.6825 -0.2569 0.3631
-0.6565 -0.3167 0.3629
-0.6253 -0.3739 0.3628
-0.5892 -0.4281 0.3627
-0.5485 -0.4788 0.3626
-0.5034 -0.5258 0.3625
-0.4544 -0.5686 0.3624
-0.4018 -0.6068 0.3624
-0.3460 -0.6403 0.3624
-0.2875 -0.6687 0.3624
-0.2267 -0.6918 0.3625
-0.1640 -0.7095 0.3626
-0.1000 -0.7215 0.3627
-0.0352 -0.7279 0.3629
0.0299 -0.7284 0.3630
0.0949 -0.7232 0.3632
0.1592 -0.7123 0.3634
0.2223 -0.6957 0.3637
0.2838 -0.6735 0.3639
0.3430 -0.6460 0.3642
0.3997 -0.6133 0.3645
0.4532 -0.5756 0.3648
0.5032 -0.5333 0.3651
0.5493 -0.4866 0.3654
0.5911 -0.4360 0.3657
0.6282 -0.3818 0.3661
0.6604 -0.3245 0.3664
0.6874 -0.2645 0.3667
0.7088 -0.2022 0.3670
0.7247 -0.1382 0.3674
0.7347 -0.0730 0.3677
0.7389 -0.0071 0.3679
0.7371 0.0589 0.3682
0.7294 0.1246 0.3685
0.7158 0.1894 0.3687
0.6965 0.2527 0.3689
0.6715 0.3140 0.3691
0.6411 0.3729 0.3693
0.6054 0.4288 0.3694
0.5649 0.4813 0.3695
0.5198 0.5300 0.3696
0.4704 0.5744 0.3697
0.4173 0.6141 0.3697
0.3608 0.6489 0.3697
0.3014 0.6785 0.3697
0.2395 0.7026 0.3696
0.1758 0.7210 0.3695
0.1107 0.7336 0.3694
0.0447 0.7402 0.3693
-0.0215 0.7409 0.3691
-0.0876 0.7356 0.3689
-0.1528 0.7245 0.3687
-0.2168 0.7075 0.3684
-0.2789 0.6848 0.3682
-0.3387 0.6567 0.3679
-0.3956 0.6233 0.3676
-0.4493 0.5850 0.3673
-0.4993 0.5421 0.3670
-0.5453 0.4949 0.3667
-0.5868 0.4438 0.3663
-0.6235 0.3893 0.3660
-0.6552 0.3318 0.3657
-0.6816 0.2717 0.3654
-0.7025 0.2096 0.3650
-0.7178 0.1459 0.3647
-0.7274 0.0811 0.3644
-0.7312 0.0158 0.3642
-0.7291 -0.0495 0.3639
-0.7213 -0.1143 0.3636
-0.7077 -0.1782 0.3634
-0.6886 -0.2405 0.3632
-0.6640 -0.3009 0.3630
-0.6342 -0.3588 0.3628
-0.5994 -0.4139 0.3627
-0.5599 -0.4656 0.3626
-0.5159 -0.5136 0.3625
-0.4679 -0.5575 0.3624
-0.4162 -0.5970 0.3624
-0.3613 -0.6318 0.3624
-0.3034 -0.6616 0.3624
-0.2432 -0.6862 0.3625
-0.1810 -0.7053 0.3626
-0.1173 -0.7189 0.3627
-0.0527 -0.7267 0.3628
0.0125 -0.7289 0.3630
0.0775 -0.7252 0.3632
0.1421 -0.7158 0.3634
0.2055 -0.7007 0.3636
0.2675 -0.6800 0.3639
0.3274 -0.6539 0.3641
0.3848 -0.6225 0.3644
0.4392 -0.5862 0.3647
0.4902 -0.5451 0.3650
0.5374 -0.4996 0.3653
0.5803 -0.4500 0.3657
0.6187 -0.3967 0.3660
0.6523 -0.3402 0.3663
0.6807 -0.2808 0.3666
0.7036 -0.2191 0.3670
0.7210 -0.1555 0.3673
0.7326 -0.0906 0.3676
0.7384 -0.0248 0.3679
0.7382 0.0412 0.3681
0.7321 0.1071 0.3684
0.7201 0.1721 0.3687
0.7022 0.2359 0.3689
0.6787 0.2978 0.3691
0.6497 0.3574 0.3692
0.6155 0.4142 0.3694
0.5762 0.4676 0.3695
0.5323 0.5173 0.3696
0.4841 0.5629 0.3697
0.4319 0.6039 0.3697
0.3763 0.6401 0.3697
0.3176 0.6711 0.3697
0.2563 0.6967 0.3696
0.1931 0.7166 0.3696
0.1283 0.7308 0.3694
0.0625 0.7390 0.3693
-0.0038 0.7413 0.3691
-0.0699 0.7376 0.3689
-0.1355 0.7280 0.3687
-0.1998 0.7126 0.3685
-0.2624 0.6914 0.3682
-0.3229 0.6647 0.3680
-0.3807 0.6327 0.3677
-0.4353 0.5957 0.3674
-0.4863 0.5540 0.3671
-0.5334 0.5079 0.3668
-0.5761 0.4579 0.3664
-0.6142 0.4042 0.3661
-0.6472 0.3475 0.3658
-0.6750 0.2880 0.3655
-0.6975 0.2264 0.3651
-0.7143 0.1631 0.3648
-0.7254 0.0985 0.3645
-0.7307 0.0333 0.3642
-0.7302 -0.0320 0.3640
-0.7239 -0.0970 0.3637
-0.7119 -0.1612 0.3635
-0.6943 -0.2240 0.3632
-0.6711 -0.2849 0.3630
-0.6427 -0.3435 0.3629
-0.6092 -0.3994 0.3627
-0.5709 -0.4521 0.3626
-0.5281 -0.5011 0.3625
-0.4812 -0.5462 0.3624
-0.4304 -0.5869 0.3624
-0.3763 -0.6230 0.3624
-0.3192 -0.6541 0.3624
-0.2595 -0.6801 0.3625
-0.1978 -0.7007 0.3625
-0.1345 -0.7158 0.3626
-0.0701 -0.7252 0.3628
-0.0050 -0.7288 0.3629
0.0601 -0.7268 0.3631
0.1248 -0.7189 0.3633
0.1887 -0.7053 0.3635
0.2510 -0.6861 0.3638
0.3115 -0.6614 0.3641
0.3697 -0.6314 0.3643
0.4249 -0.5964 0.3646
0.4769 -0.5565 0.3649
0.5251 -0.5122 0.3652
0.5692 -0.4636 0.3656
0.6089 -0.4113 0.3659
0.6438 -0.3556 0.3662
0.6736 -0.2970 0.3665
0.6980 -0.2358 0.3669
0.7169 -0.1727 0.3672
0.7301 -0.1081 0.3675
0.7374 -0.0425 0.3678
0.7388 0.0235 0.3681
0.7343 0.0895 0.3683
0.7239 0.1548 0.3686
0.7076 0.2189 0.3688
0.6856 0.2814 0.3690
0.6580 0.3417 0.3692
0.6252 0.3992 0.3694
0.5872 0.4536 0.3695
0.5445 0.5044 0.3696
0.4974 0.5511 0.3697
0.4463 0.5934 0.3697
0.3915 0.6309 0.3697
0.3336 0.6633 0.3697
0.2730 0.6904 0.3697
0.2102 0.7118 0.3696
0.1457 0.7276 0.3695
0.0802 0.7374 0.3693
0.0140 0.7413 0.3692
-0.0522 0.7392 0.3690
-0.1180 0.7312 0.3688
-0.1827 0.7173 0.3686
-0.2458 0.6976 0.3683
-0.3069 0.6724 0.3680
-0.3655 0.6418 0.3678
-0.4210 0.6061 0.3675
-0.4730 0.5656 0.3672
-0.5212 0.5207 0.3668
-0.5651 0.4716 0.3665
-0.6044 0.4189 0.3662
-0.6389 0.3630 0.3659
-0.6681 0.3042 0.3655
-0.6920 0.2431 0.3652
-0.7103 0.1802 0.3649
-0.7230 0.1159 0.3646
-0.7299 0.0509 0.3643
-0.7309 -0.0145 0.3640
-0.7262 -0.0797 0.3638
-0.7157 -0.1441 0.3635
-0.6995 -0.2073 0.3633
-0.6778 -0.2688 0.3631
-0.6508 -0.3281 0.3629
-0.6187 -0.3847 0.3628
-0.5816 -0.4383 0.3626
-0.5400 -0.4883 0.3625
-0.4942 -0.5345 0.3625
-0.4444 -0.5764 0.3624
-0.3911 -0.6138 0.3624
-0.3348 -0.6463 0.3624
-0.2757 -0.6736 0.3624
-0.2145 -0.6957 0.3625
-0.1516 -0.7123 0.3626
-0.0874 -0.7232 0.3627
-0.0225 -0.7284 0.3629
0.0427 -0.7279 0.3631
0.1076 -0.7216 0.3633
0.1717 -0.7095 0.3635
0.2345 -0.6918 0.3637
0.2955 -0.6686 0.3640
0.3543 -0.6400 0.3643
0.4104 -0.6063 0.3645
0.4633 -0.5677 0.3649
0.5126 -0.5245 0.3652
0.5578 -0.4770 0.3655
0.5987 -0.4257 0.3658
0.6349 -0.3709 0.3661
0.6661 -0.3130 0.3665
0.6920 -0.2525 0.3668
0.7124 -0.1898 0.3671
0.7271 -0.1255 0.3674
0.7360 -0.0602 0.3677
0.7390 0.0058 0.3680
0.7361 0.0718 0.3683
0.7272 0.1374 0.3685
0.7125 0.2019 0.3688
0.6920 0.2649 0.3690
0.6660 0.3258 0.3692
0.6345 0.3841 0.3693
0.5979 0.4394 0.3695
0.5564 0.4912 0.3696
0.5104 0.5390 0.3696
0.4603 0.5825 0.3697
0.4065 0.6213 0.3697
0.3494 0.6551 0.3697
0.2895 0.6837 0.3697
0.2272 0.7066 0.3696
0.1632 0.7239 0.3695
0.0978 0.7353 0.3694
0.0318 0.7408 0.3692
-0.0345 0.7404 0.3691
-0.1004 0.7339 0.3689
-0.1655 0.7216 0.3686
-0.2291 0.7035 0.3684
-0.2908 0.6797 0.3681
-0.3500 0.6505 0.3678
-0.4064 0.6162 0.3675
-0.4594 0.5769 0.3672
-0.5087 0.5332 0.3669
-0.5538 0.4852 0.3666
-0.5943 0.4334 0.3663
-0.6301 0.3783 0.3660
-0.6608 0.3202 0.3656
-0.6861 0.2597 0.3653
-0.7060 0.1972 0.3650
-0.7202 0.1333 0.3647
-0.7286 0.0684 0.3644
-0.7312 0.0030 0.3641
-0.7280 -0.0622 0.3638
-0.7191 -0.1269 0.3636
-0.7044 -0.1905 0.3634
-0.6842 -0.2525 0.3631
-0.6586 -0.3124 0.3630
-0.6278 -0.3698 0.3628
-0.5920 -0.4243 0.3627
-0.5516 -0.4753 0.3626
-0.5069 -0.5225 0.3625
-0.4581 -0.5656 0.3624
-0.4057 -0.6042 0.3624
-0.3502 -0.6380 0.3624
-0.2918 -0.6668 0.3624
-0.2311 -0.6903 0.3625
-0.1686 -0.7084 0.3626
-0.1047 -0.7208 0.3627
-0.0399 -0.7276 0.3628
0.0252 -0.7286 0.3630
0.0902 -0.7238 0.3632
0.1546 -0.7133 0.3634
0.2178 -0.6971 0.3637
0.2794 -0.6753 0.3639
0.3388 -0.6482 0.3642
0.3957 -0.6158 0.3645
0.4494 -0.5785 0.3648
0.4261 -0.5819 0.3647
0.4767 -0.5420 0.3650
0.5237 -0.4977 0.3653
0.5665 -0.4493 0.3656
0.6049 -0.3973 0.3659
0.6385 -0.3420 0.3663
0.6671 -0.2839 0.3666
0.6904 -0.2233 0.3669
0.7082 -0.1609 0.3672
0.7203 -0.0971 0.3675
0.7267 -0.0324 0.3678
0.7272 0.0326 0.3681
0.7219 0.0975 0.3683
0.7108 0.1617 0.3686
0.6939 0.2246 0.3688
0.6715 0.2858 0.3690
0.6436 0.3448 0.3692
0.6104 0.4011 0.3693
0.5724 0.4541 0.3695
0.5297 0.5036 0.3695
0.4827 0.5489 0.3696
0.4318 0.5899 0.3697
0.3774 0.6261 0.3697
0.3199 0.6573 0.3696
0.2599 0.6831 0.3696
0.1978 0.7035 0.3695
0.1342 0.7181 0.3694
0.0695 0.7270 0.3693
0.0043 0.7300 0.3691
-0.0609 0.7271 0.3689
-0.1255 0.7183 0.3687
-0.1890 0.7038 0.3685
-0.2509 0.6837 0.3682
-0.3107 0.6581 0.3680
-0.3680 0.6272 0.3677
-0.4222 0.5914 0.3674
-0.4729 0.5508 0.3671
-0.5198 0.5060 0.3668
-0.5624 0.4571 0.3665
-0.6004 0.4047 0.3661
-0.6336 0.3492 0.3658
-0.6617 0.2910 0.3655
-0.6844 0.2305 0.3652
-0.7017 0.1683 0.3649
-0.7133 0.1049 0.3646
-0.7193 0.0408 0.3643
-0.7195 -0.0236 0.3640
-0.7140 -0.0877 0.3638
-0.7029 -0.1510 0.3635
-0.6862 -0.2131 0.3633
-0.6641 -0.2733 0.3631
-0.6367 -0.3314 0.3629
-0.6043 -0.3868 0.3628
-0.5672 -0.4390 0.3627
-0.5256 -0.4878 0.3626
-0.4798 -0.5327 0.3625
-0.4303 -0.5733 0.3625
-0.3774 -0.6094 0.3625
-0.3214 -0.6407 0.3625
-0.2630 -0.6670 0.3625
-0.2024 -0.6879 0.3626
-0.1402 -0.7034 0.3627
-0.0769 -0.7134 0.3628
-0.0129 -0.7177 0.3630
0.0513 -0.7163 0.3631
0.1151 -0.7093 0.3633
0.1781 -0.6966 0.3636
0.2398 -0.6783 0.3638
0.2996 -0.6547 0.3641
0.3571 -0.6258 0.3643
0.4119 -0.5919 0.3646
0.4635 -0.5532 0.3649
0.5115 -0.5100 0.3652
0.5554 -0.4627 0.3655
0.5951 -0.4116 0.3659
0.6300 -0.3571 0.3662
0.6599 -0.2997 0.3665
0.6847 -0.2398 0.3668
