-0.6634626388549805 0.2007252424955368 0.36673277616500854
-0.6784892678260803 0.1406611055135727 0.3666055202484131
-0.6880859732627869 0.07951918989419937 0.36647337675094604
-0.6921868920326233 0.01778372749686241 0.36633819341659546
-0.690743625164032 -0.0440397746860981 0.3662005662918091
-0.6837992072105408 -0.10547632724046707 0.36606183648109436
-0.671402633190155 -0.16601115465164185 0.36592283844947815
-0.6536666750907898 -0.2251822054386139 0.3657849133014679
-0.6307225823402405 -0.28251585364341736 0.36564910411834717
-0.6027727127075195 -0.3375611901283264 0.3655165135860443
-0.5700482726097107 -0.38986441493034363 0.3653881847858429
-0.5327969789505005 -0.43903887271881104 0.365264892578125
-0.49133336544036865 -0.4846818745136261 0.36514800786972046
-0.44597679376602173 -0.5264390707015991 0.3650384545326233
-0.3971078097820282 -0.5639799237251282 0.364936500787735
-0.34510165452957153 -0.5970231890678406 0.36484357714653015
-0.2903735935688019 -0.6252939701080322 0.3647601306438446
-0.23336468636989594 -0.6485831141471863 0.36468687653541565
-0.17452861368656158 -0.6667101979255676 0.3646243214607239
-0.11431203782558441 -0.6795244216918945 0.36457306146621704
-0.053207047283649445 -0.6869397759437561 0.36453336477279663
0.008311867713928223 -0.6888912320137024 0.3645057678222656
0.06975492835044861 -0.6853711605072021 0.36449018120765686
0.13064807653427124 -0.6764128804206848 0.3644869923591614
0.19049593806266785 -0.6620671153068542 0.3644961416721344
0.24883468449115753 -0.6424661874771118 0.3645175099372864
0.3052091598510742 -0.6177530288696289 0.36455076932907104
0.3591693043708801 -0.5881201028823853 0.36459609866142273
0.41028091311454773 -0.5538005828857422 0.36465269327163696
0.4581545293331146 -0.5150711536407471 0.36472028493881226
0.5023988485336304 -0.47222810983657837 0.36479857563972473
0.5426773428916931 -0.4256119728088379 0.364886611700058
0.5786417126655579 -0.3755819499492645 0.36498382687568665
0.6100284457206726 -0.3225347101688385 0.36508941650390625
0.6365818381309509 -0.26688724756240845 0.36520278453826904
0.6580737233161926 -0.2090788632631302 0.36532285809516907
0.674342691898346 -0.14956501126289368 0.36544859409332275
0.6852452158927917 -0.08882250636816025 0.3655790686607361
0.6906871795654297 -0.027323029935359955 0.3657131791114807
0.6906309127807617 0.03443668410181999 0.36585021018981934
0.6850600242614746 0.09597749263048172 0.36598876118659973
0.6740139126777649 0.15678556263446808 0.36612775921821594
0.6575859189033508 0.21640068292617798 0.3662661612033844
0.6358849406242371 0.27432191371917725 0.36640289425849915
0.6090842485427856 0.3301011323928833 0.36653655767440796
0.5774044394493103 0.3832757771015167 0.3666665554046631
0.5410796403884888 0.4334213137626648 0.3667915165424347
0.5003954768180847 0.4801376163959503 0.36691054701805115
0.45568782091140747 0.5230395197868347 0.3670225441455841
0.40730613470077515 0.5617796182632446 0.3671267628669739
0.3556424379348755 0.5960459113121033 0.36722227931022644
0.3011012673377991 0.6255545020103455 0.3673083484172821
0.24411998689174652 0.6500574350357056 0.3673843443393707
0.1851620078086853 0.6693733334541321 0.36744964122772217
0.12470130622386932 0.6833294034004211 0.36750364303588867
0.06322717666625977 0.6918100118637085 0.36754560470581055
0.0012335586361587048 0.6947485208511353 0.36757567524909973
-0.060772188007831573 0.6921160221099854 0.367593377828598
-0.12230629473924637 0.6839449405670166 0.3675985634326935
-0.18285396695137024 0.6702840328216553 0.3675912320613861
-0.2419230341911316 0.6512531638145447 0.36757156252861023
-0.2990565896034241 0.627014696598053 0.36753952503204346
-0.35377636551856995 0.5977486371994019 0.36749541759490967
-0.4056558609008789 0.5637084245681763 0.3674395680427551
-0.45425811409950256 0.525156557559967 0.3673725724220276
-0.49920839071273804 0.4824201464653015 0.3672950565814972
-0.5401409864425659 0.4358370900154114 0.3672073185443878
-0.5767340064048767 0.38579845428466797 0.3671102821826935
-0.6086859703063965 0.3326874375343323 0.3670046925544739
-0.6357482671737671 0.27695122361183167 0.3668913245201111
-0.6577108502388 0.2190406620502472 0.36677122116088867
-0.6744030117988586 0.1594102680683136 0.366645485162735
-0.6856986284255981 0.09855815023183823 0.36651474237442017
-0.6915035247802734 0.036956001073122025 0.3663804531097412
-0.691780149936676 -0.024899449199438095 0.36624327301979065
-0.686539351940155 -0.08650684356689453 0.3661048710346222
-0.6758224368095398 -0.14737176895141602 0.365965873003006
-0.6597216725349426 -0.20702427625656128 0.36582762002944946
-0.6383772492408752 -0.26498016715049744 0.3656909167766571
-0.6119602918624878 -0.3207717835903168 0.3655572533607483
-0.5806856155395508 -0.3739764392375946 0.3654274046421051
-0.5448057055473328 -0.4241579473018646 0.36530256271362305
-0.5046080946922302 -0.4709356725215912 0.3651837110519409
-0.4604295492172241 -0.5139341354370117 0.3650714159011841
-0.412610799074173 -0.5528167486190796 0.3649671971797943
-0.36153510212898254 -0.5872818827629089 0.3648713529109955
-0.30760782957077026 -0.6170555353164673 0.364784836769104
-0.25125858187675476 -0.6419102549552917 0.36470839381217957
-0.19292940199375153 -0.6616467833518982 0.3646426200866699
-0.13308824598789215 -0.6761322021484375 0.3645876944065094
-0.07221192866563797 -0.6852227449417114 0.3645443618297577
-0.0107670733705163 -0.6888740658760071 0.36451292037963867
0.050749607384204865 -0.6870483756065369 0.3644936978816986
0.11186498403549194 -0.6797692775726318 0.3644866943359375
0.17208462953567505 -0.6670777201652527 0.36449187994003296
0.23094558715820312 -0.6490961909294128 0.36450958251953125
0.28797516226768494 -0.625946581363678 0.36453917622566223
0.34272417426109314 -0.5978114008903503 0.3645806908607483
0.39476823806762695 -0.5649248957633972 0.3646339476108551
0.4436914324760437 -0.5275318622589111 0.3646981716156006
0.4891025125980377 -0.48592838644981384 0.3647732436656952
0.5306366086006165 -0.44044262170791626 0.3648582398891449
0.5679755806922913 -0.39142680168151855 0.3649526834487915
0.6008074283599854 -0.3392729163169861 0.3650558292865753
0.6288869380950928 -0.2843892276287079 0.36516693234443665
0.651967465877533 -0.22720347344875336 0.3652850389480591
0.6698681712150574 -0.16816918551921844 0.36540892720222473
0.6824464201927185 -0.10775348544120789 0.36553817987442017
0.6895877122879028 -0.04643593728542328 0.3656713664531708
0.6912359595298767 0.0152983283624053 0.3658074736595154
0.6873738765716553 0.07696043699979782 0.3659457266330719
0.6780221462249756 0.13804812729358673 0.3660847246646881
0.6632431745529175 0.1980845183134079 0.36622345447540283
0.6431664228439331 0.2565765976905823 0.36636078357696533
0.6179250478744507 0.3130702078342438 0.3664955198764801
0.5877301096916199 0.367103636264801 0.3666267395019531
0.5528138875961304 0.4182329773902893 0.36675336956977844
0.5134511590003967 0.4660493731498718 0.3668743669986725
0.4699585735797882 0.5101693868637085 0.3669886589050293
0.4226748049259186 0.5502369403839111 0.36709532141685486
0.3719804286956787 0.5859213471412659 0.3671937584877014
0.3182789385318756 0.6169291734695435 0.36728301644325256
0.26200777292251587 0.6430124640464783 0.36736205220222473
0.20361685752868652 0.6639516949653625 0.367430716753006
0.1435713917016983 0.6795847415924072 0.3674880862236023
0.08235789090394974 0.6897670030593872 0.3675338625907898
0.02047027461230755 0.6944318413734436 0.3675677478313446
-0.04158593714237213 0.6935307383537292 0.36758941411972046
-0.10332003980875015 0.6870660185813904 0.3675982654094696
-0.1642163097858429 0.675096333026886 0.3675948977470398
-0.22380389273166656 0.6577239036560059 0.36757904291152954
-0.2815897464752197 0.6350781321525574 0.36755064129829407
-0.3371053636074066 0.6073399186134338 0.3675103783607483
-0.389905720949173 0.5747512578964233 0.36745819449424744
-0.43956443667411804 0.5375657677650452 0.3673945665359497
-0.4856884181499481 0.4960990846157074 0.3673202395439148
-0.5279039740562439 0.4506685435771942 0.367235392332077
-0.5658707022666931 0.40165385603904724 0.36714109778404236
-0.5992960333824158 0.3494487702846527 0.3670381009578705
-0.6278940439224243 0.294477254152298 0.3669271767139435
-0.6514647603034973 0.23719115555286407 0.36680907011032104
-0.6698080897331238 0.17804217338562012 0.36668485403060913
-0.6827794313430786 0.11751687526702881 0.366555780172348
-0.6902934312820435 0.05609758198261261 0.3664224147796631
-0.6922842860221863 -0.005731487181037664 0.3662860095500946
-0.6887531876564026 -0.06746990233659744 0.36614790558815
-0.6797305941581726 -0.12861444056034088 0.3660089075565338
-0.6652799248695374 -0.18869800865650177 0.3658703565597534
-0.6455498337745667 -0.24722562730312347 0.3657330274581909
-0.620672881603241 -0.3037334382534027 0.36559829115867615
-0.5908820629119873 -0.357787162065506 0.36546722054481506
-0.5564009547233582 -0.4089534282684326 0.3653407096862793
-0.517514169216156 -0.4568224549293518 0.36521971225738525
-0.4745303690433502 -0.5010311603546143 0.36510542035102844
-0.4277980327606201 -0.5412226915359497 0.3649987578392029
-0.3776800334453583 -0.5770875215530396 0.3649002015590668
-0.32459062337875366 -0.6083409190177917 0.3648107945919037
-0.26894867420196533 -0.6347467303276062 0.3647311329841614
-0.21118468046188354 -0.6560871601104736 0.36466184258461
-0.15176478028297424 -0.6722098588943481 0.36460357904434204
-0.09115694463253021 -0.6829817891120911 0.36455658078193665
-0.02984447591006756 -0.6883273720741272 0.36452147364616394
0.03170601278543472 -0.6882021427154541 0.3644982874393463
0.0929940715432167 -0.682607114315033 0.36448758840560913
0.15354472398757935 -0.6715854406356812 0.3644891381263733
0.21287837624549866 -0.6552285552024841 0.3645026981830597
0.2705222964286804 -0.6336581110954285 0.3645286560058594
0.32602831721305847 -0.6070472002029419 0.3645666539669037
0.37895432114601135 -0.575608491897583 0.3646162450313568
0.42888444662094116 -0.5395869612693787 0.3646771013736725
0.47542059421539307 -0.4992484450340271 0.36474883556365967
0.5181969404220581 -0.45493102073669434 0.3648309111595154
0.5568670630455017 -0.40697428584098816 0.3649224638938904
0.5911304950714111 -0.35575175285339355 0.3650231957435608
0.6207031607627869 -0.3016679584980011 0.36513182520866394
0.6453588604927063 -0.24514274299144745 0.3652476370334625
0.6648867130279541 -0.18663665652275085 0.36536985635757446
0.6791263222694397 -0.12659545242786407 0.36549773812294006
0.6879623532295227 -0.06550843268632889 0.36562973260879517
0.6913202404975891 -0.003849153406918049 0.3657650649547577
0.6891621947288513 0.057885654270648956 0.365902841091156
0.6815003156661987 0.11920436471700668 0.3660415709018707
0.6683957576751709 0.1796204000711441 0.366180419921875
0.6499491930007935 0.23864348232746124 0.36631834506988525
0.6262819766998291 0.29580095410346985 0.366454154253006
0.5976061224937439 0.3506408929824829 0.3665865957736969
0.5641247630119324 0.40272215008735657 0.36671462655067444
0.5261099338531494 0.4516066014766693 0.36683744192123413
0.48385879397392273 0.49691274762153625 0.3669540286064148
0.43770915269851685 0.5382748246192932 0.3670632839202881
0.3880307972431183 0.5753533840179443 0.36716413497924805
0.3352157473564148 0.6078363060951233 0.3672563135623932
0.27970054745674133 0.6354660391807556 0.3673385679721832
0.2219155877828598 0.6580249667167664 0.3674105703830719
0.16233208775520325 0.6753109693527222 0.36747145652770996
0.10142874717712402 0.6872000694274902 0.36752089858055115
0.03969481214880943 0.6935766935348511 0.3675585985183716
-0.02236325666308403 0.6944023966789246 0.36758390069007874
-0.08424690365791321 0.6896589398384094 0.36759689450263977
-0.14546073973178864 0.6793971061706543 0.3675973415374756
-0.2055085301399231 0.6636775135993958 0.36758530139923096
-0.26389527320861816 0.6426489353179932 0.3675607144832611
-0.32016509771347046 0.6164640188217163 0.36752408742904663
-0.37385430932044983 0.5853533148765564 0.36747556924819946
-0.42453670501708984 0.5495703816413879 0.3674154579639435
-0.47179362177848816 0.5093890428543091 0.36734434962272644
-0.5152592062950134 0.4651472270488739 0.3672628700733185
-0.5545756220817566 0.4172031283378601 0.3671713173389435
-0.5894412398338318 0.36594003438949585 0.36707091331481934
-0.6195598840713501 0.31179067492485046 0.3669622838497162
-0.6447155475616455 0.25516605377197266 0.3668462932109833
-0.6646859049797058 0.19654527306556702 0.36672407388687134
-0.6793380379676819 0.13639630377292633 0.3665962219238281
-0.6885574460029602 0.07519874721765518 0.366464227437973
-0.6922578811645508 0.013444657437503338 0.36632856726646423
-0.6904414892196655 -0.048375241458415985 0.3661907911300659
-0.6831096410751343 -0.10976052284240723 0.36605194211006165
-0.6703334450721741 -0.1702236831188202 0.365913063287735
-0.6522229909896851 -0.22927355766296387 0.36577528715133667
-0.6289219260215759 -0.28646472096443176 0.3656396269798279
-0.6006307601928711 -0.3413267731666565 0.3655073344707489
-0.5675730109214783 -0.39342638850212097 0.36537933349609375
-0.53001469373703 -0.4423654079437256 0.36525648832321167
-0.48827043175697327 -0.4877408444881439 0.36514008045196533
-0.4426615536212921 -0.5292180776596069 0.36503082513809204
-0.3935568034648895 -0.5664478540420532 0.36492979526519775
-0.3413431942462921 -0.5991675853729248 0.36483731865882874
-0.28644466400146484 -0.627091646194458 0.3647546172142029
-0.229293555021286 -0.6500215530395508 0.36468198895454407
-0.17033378779888153 -0.6677778363227844 0.3646203577518463
-0.11004303395748138 -0.6802265048027039 0.3645699918270111
-0.04889119043946266 -0.6872538328170776 0.36453109979629517
0.012634772807359695 -0.6888232827186584 0.36450424790382385
0.07405571639537811 -0.6849186420440674 0.36448973417282104
0.13488785922527313 -0.6755719780921936 0.36448729038238525
0.1946427822113037 -0.6608641147613525 0.36449721455574036
0.2528700530529022 -0.640889585018158 0.364519327878952
0.30908164381980896 -0.6158273220062256 0.3645535111427307
0.3628585636615753 -0.5858531594276428 0.3645996153354645
0.41375404596328735 -0.5512285232543945 0.3646569848060608
0.4613823890686035 -0.5121911764144897 0.3647255003452301
0.5053680539131165 -0.4690781533718109 0.36480438709259033
0.5453470349311829 -0.4222078323364258 0.3648931682109833
0.5809994339942932 -0.37195178866386414 0.3649909794330597
0.6120617389678955 -0.31870678067207336 0.3650973439216614
0.6382578611373901 -0.26289767026901245 0.36521100997924805
0.6593895554542542 -0.2049567699432373 0.36533141136169434
0.6752859354019165 -0.14533866941928864 0.36545759439468384
0.6858032941818237 -0.0845201313495636 0.36558836698532104
0.6908661723136902 -0.022984452545642853 0.3657229542732239
0.6904172301292419 0.03877351060509682 0.3658599853515625
0.6844598054885864 0.1002727746963501 0.3659985363483429
0.6730350255966187 0.16101890802383423 0.3661375343799591
0.6562333703041077 0.22052255272865295 0.36627593636512756
0.6341666579246521 0.27831193804740906 0.36641234159469604
0.607016921043396 0.33392828702926636 0.36654600501060486
0.5749939680099487 0.38690027594566345 0.36667540669441223
0.538353443145752 0.4368208944797516 0.36680006980895996
0.497389554977417 0.48327940702438354 0.3669186234474182
0.4524100720882416 0.5259031653404236 0.36703017354011536
0.4037829637527466 0.5643332004547119 0.367133766412735
0.351902037858963 0.5982768535614014 0.3672286868095398
0.2971709668636322 0.6274405717849731 0.3673141300678253
0.24003778398036957 0.6515852808952332 0.36738935112953186
0.18095608055591583 0.6705304384231567 0.36745375394821167
0.12040963768959045 0.6841021776199341 0.36750686168670654
0.05888865888118744 0.6921948790550232 0.3675481975078583
-0.0031226587016135454 0.694742739200592 0.36757734417915344
-0.0651160180568695 0.6917264461517334 0.36759430170059204
-0.1265900433063507 0.683157205581665 0.3675985634326935
-0.18705539405345917 0.669125497341156 0.3675903379917145
-0.24600329995155334 0.6497201323509216 0.3675697147846222
-0.30298465490341187 0.6251237988471985 0.3675369322299957
-0.357521116733551 0.5955164432525635 0.367491751909256
-0.40917763113975525 0.5611410140991211 0.3674353063106537
-0.45754337310791016 0.5222918391227722 0.36736753582954407
-0.5022164583206177 0.4792739450931549 0.36728912591934204
-0.5428593158721924 0.432437539100647 0.3672006130218506
-0.579131543636322 0.38216227293014526 0.3671029508113861
-0.610749363899231 0.3288525640964508 0.3669969141483307
-0.6374639868736267 0.27295565605163574 0.3668830692768097
-0.6590577363967896 0.21490192413330078 0.3667626976966858
-0.6753763556480408 0.15517698228359222 0.36663633584976196
-0.6862867474555969 0.09424884617328644 0.3665054142475128
-0.6917028427124023 0.03260955959558487 0.36637082695961
-0.6915965676307678 -0.029243221506476402 0.36623382568359375
-0.6859692931175232 -0.09080905467271805 0.3660951256752014
-0.674863874912262 -0.15161296725273132 0.3659560978412628
-0.6583991646766663 -0.2111530900001526 0.3658178746700287
-0.6366881132125854 -0.2689673900604248 0.3656814396381378
-0.6099221110343933 -0.3245961666107178 0.36554792523384094
-0.5783149600028992 -0.37760692834854126 0.36541837453842163
-0.5421192646026611 -0.42756354808807373 0.36529403924942017
-0.5016322731971741 -0.47408443689346313 0.3651754558086395
-0.4571819305419922 -0.5168046951293945 0.36506393551826477
-0.40911865234375 -0.5553869605064392 0.3649601638317108
-0.35783544182777405 -0.5895286202430725 0.36486494541168213
-0.30371925234794617 -0.6189671158790588 0.36477920413017273
-0.247218057513237 -0.6434634923934937 0.36470335721969604
-0.18876607716083527 -0.6628389358520508 0.3646383583545685
-0.1288391798734665 -0.6769402027130127 0.364584356546402
-0.0679081380367279 -0.6856632232666016 0.3645419180393219
-0.00644558435305953 -0.6889238357543945 0.36451125144958496
0.05506841465830803 -0.686715304851532 0.364492803812027
0.11613250523805618 -0.6790485978126526 0.3644866943359375
0.17626984417438507 -0.6659862399101257 0.364492803812027
0.23501934111118317 -0.6476312279701233 0.364511102437973
0.2918967008590698 -0.6241236329078674 0.364541620016098
0.34647130966186523 -0.5956578850746155 0.3645840287208557
0.3983117341995239 -0.5624380111694336 0.3646380603313446
0.44699934124946594 -0.5247379541397095 0.36470305919647217
0.4921429455280304 -0.4828539192676544 0.36477890610694885
0.5333980321884155 -0.43710604310035706 0.3648644983768463
0.5704348087310791 -0.3878651261329651 0.364959716796875
0.6029430031776428 -0.33550378680229187 0.36506345868110657
0.6306670308113098 -0.28043901920318604 0.3651750087738037
0.6533980369567871 -0.22311194241046906 0.36529341340065
0.6709270477294922 -0.1639636904001236 0.3654179275035858
0.6831201910972595 -0.10347197949886322 0.3655474781990051
0.6898833513259888 -0.042108505964279175 0.36568084359169006
0.6911504864692688 0.019642524421215057 0.36581724882125854
0.6868930459022522 0.08127374202013016 0.36595550179481506
0.6771625876426697 0.14229950308799744 0.36609435081481934
0.6620119214057922 0.2022438794374466 0.3662331998348236
0.6415605545043945 0.2606147825717926 0.36637023091316223
0.6159604787826538 0.316946417093277 0.36650481820106506
0.5854330062866211 0.37078598141670227 0.36663588881492615
0.5501922369003296 0.421701043844223 0.36676207184791565
0.5105313658714294 0.4692712426185608 0.3668826222419739
0.466758131980896 0.5131237506866455 0.3669964373111725
0.4192201793193817 0.5528918504714966 0.36710265278816223
0.36829885840415955 0.5882546305656433 0.3672003149986267
0.31440842151641846 0.6189272403717041 0.3672887980937958
0.25797557830810547 0.6446531414985657 0.3673672378063202
0.1994512528181076 0.6652225852012634 0.3674349784851074
0.13930058479309082 0.6804733276367188 0.367491751909256
0.07803143560886383 0.6902784109115601 0.36753660440444946
0.01611640490591526 0.6945532560348511 0.36756956577301025
-0.04593806713819504 0.6932597160339355 0.3675903379917145
-0.10762087255716324 0.6864075064659119 0.3675985634326935
-0.16845615208148956 0.674049437046051 0.36759430170059204
-0.22792254388332367 0.6563023924827576 0.3675774931907654
-0.2855668067932129 0.6332899332046509 0.3675481975078583
-0.3409089148044586 0.6052114367485046 0.3675070106983185
-0.39349597692489624 0.5722885131835938 0.3674539029598236
-0.44292888045310974 0.534796953201294 0.3673896789550781
-0.4887872338294983 0.4930301606655121 0.3673144578933716
-0.5307139158248901 0.4473366439342499 0.36722931265830994
-0.5683696866035461 0.39808622002601624 0.3671342432498932
-0.60146164894104 0.34567272663116455 0.36703062057495117
-0.6297227740287781 0.2905316948890686 0.36691924929618835
-0.6529255509376526 0.23309272527694702 0.3668005168437958
-0.6708961129188538 0.1738394945859909 0.36667600274086
-0.6834930181503296 0.11322936415672302 0.36654648184776306
-0.6906191110610962 0.05176321044564247 0.3664129674434662
-0.6922191977500916 -0.010083560831844807 0.3662763833999634
-0.6883025169372559 -0.07179013639688492 0.3661379814147949
-0.6788915395736694 -0.13287366926670074 0.36599913239479065
-0.6640689969062805 -0.19286519289016724 0.36586058139801025
-0.6439635157585144 -0.2512619197368622 0.36572355031967163
-0.6187480688095093 -0.3076156675815582 0.3655889928340912
-0.5886151194572449 -0.36147648096084595 0.36545807123184204
-0.5538094639778137 -0.41242846846580505 0.3653320372104645
-0.5146244764328003 -0.4600512683391571 0.36521148681640625
-0.47136977314949036 -0.5039915442466736 0.36509764194488525
-0.4243832230567932 -0.5438836216926575 0.3649914562702179
-0.3740489184856415 -0.5794355869293213 0.36489349603652954
-0.3207705616950989 -0.6103538274765015 0.36480483412742615
-0.2649581730365753 -0.6364129781723022 0.364725798368454
-0.20706166326999664 -0.6573932766914368 0.36465728282928467
-0.14754721522331238 -0.6731423735618591 0.3645997643470764
-0.08687402307987213 -0.6835379600524902 0.364553838968277
-0.025514688342809677 -0.6884956359863281 0.36451950669288635
0.036023396998643875 -0.6879866123199463 0.36449721455574036
0.0972796231508255 -0.6820060014724731 0.36448729038238525
0.15775863826274872 -0.6706045866012573 0.36448943614959717
0.21698959171772003 -0.6538848876953125 0.3645040690898895
0.2744910418987274 -0.631957471370697 0.3645309507846832
0.3298341929912567 -0.6049973964691162 0.36456969380378723
0.38256630301475525 -0.573226273059845 0.36462005972862244
0.4322715699672699 -0.5368888974189758 0.3646816909313202
0.47854989767074585 -0.4962707757949829 0.364754319190979
0.5210577845573425 -0.4516824185848236 0.36483702063560486
0.5594275593757629 -0.40348121523857117 0.36492919921875
0.5933683514595032 -0.35204145312309265 0.3650304973125458
0.6226059794425964 -0.2977687120437622 0.36513960361480713
0.6469034552574158 -0.2410915493965149 0.36525604128837585
0.6660603880882263 -0.18246175348758698 0.36537885665893555
0.6799255013465881 -0.12233573943376541 0.3655068874359131
0.6883755326271057 -0.0611824132502079 0.3656390309333801
0.6913427114486694 0.0004945564433000982 0.36577484011650085
0.6888008713722229 0.062216971069574356 0.36591246724128723
0.6807611584663391 0.12348346412181854 0.3660513162612915
0.66727614402771 0.18381813168525696 0.3661901652812958
0.6484549641609192 0.24272002279758453 0.3663281202316284
0.6244308352470398 0.29973500967025757 0.36646345257759094
0.5954049825668335 0.3544023931026459 0.3665957450866699
0.5615980625152588 0.40625959634780884 0.3667234778404236
0.5232763290405273 0.454908549785614 0.36684584617614746
0.48074546456336975 0.4999569356441498 0.366961807012558
0.43433189392089844 0.5410205125808716 0.36707061529159546
0.3844178020954132 0.5777879953384399 0.3671710193157196
0.33140406012535095 0.6099367141723633 0.3672622740268707
0.2757086455821991 0.6372207403182983 0.36734405159950256
0.21778054535388947 0.6594107151031494 0.3674151599407196
0.15809281170368195 0.6763240694999695 0.3674752712249756
0.09711343795061111 0.6878280639648438 0.36752378940582275
0.035343289375305176 0.6938256025314331 0.3675607144832611
-0.026723679155111313 0.6942499279975891 0.36758512258529663
-0.08857547491788864 0.6891207695007324 0.3675973415374756
-0.14971952140331268 0.6784599423408508 0.36759689450263977
-0.20966553688049316 0.6623675227165222 0.36758407950401306
-0.26793020963668823 0.6409741640090942 0.3675585985183716
-0.3240273892879486 0.6144392490386963 0.3675210475921631
-0.3775227963924408 0.582996129989624 0.36747175455093384
-0.4279714524745941 0.546886682510376 0.3674108684062958
-0.4749821424484253 0.5064071416854858 0.3673388659954071
-0.5181598663330078 0.46189266443252563 0.36725661158561707
-0.557175874710083 0.4137040674686432 0.36716461181640625
-0.5917083024978638 0.3622325360774994 0.36706358194351196
-0.6214927434921265 0.30788448452949524 0.3669544756412506
-0.646290123462677 0.2511079013347626 0.3668380677700043
-0.6658897399902344 0.1923634260892868 0.3667152225971222
-0.6801673769950867 0.13212965428829193 0.3665870726108551
-0.6889899969100952 0.07087458670139313 0.3664546012878418
-0.6923104524612427 0.009094009175896645 0.3663189709186554
-0.6900995969772339 -0.05270469933748245 0.36618101596832275
-0.682390034198761 -0.11403775960206985 0.3660421669483185
-0.6692332029342651 -0.1744195520877838 0.3659033179283142
-0.6507490873336792 -0.23335793614387512 0.36576569080352783
-0.6270999312400818 -0.29039594531059265 0.3656303286552429
-0.5984588265419006 -0.345085471868515 0.3654983341693878
-0.5650764107704163 -0.39697086811065674 0.3653704822063446
-0.5272208452224731 -0.4456733167171478 0.3652481138706207
-0.48518720269203186 -0.490791916847229 0.3651321232318878
-0.4393143057823181 -0.5319706201553345 0.36502349376678467
-0.3899845480918884 -0.5688981413841248 0.3649229407310486
-0.33757221698760986 -0.6012837290763855 0.36483123898506165
-0.282494455575943 -0.628871738910675 0.36474913358688354
-0.22520112991333008 -0.6514424681663513 0.36467742919921875
-0.16613708436489105 -0.6688261032104492 0.36461639404296875
-0.1057712510228157 -0.6808992624282837 0.3645668029785156
-0.04457346722483635 -0.6875485181808472 0.3645288050174713
0.016959533095359802 -0.688736081123352 0.36450284719467163
0.07835835963487625 -0.6844466328620911 0.36448898911476135
0.13912855088710785 -0.6747211813926697 0.36448758840560913
0.19879241287708282 -0.6596319675445557 0.3644982874393463
0.256887823343277 -0.6392916440963745 0.36452147364616394
0.31294625997543335 -0.6138812899589539 0.3645564317703247
0.36652931571006775 -0.583574652671814 0.3646032512187958
0.41721057891845703 -0.5486254096031189 0.3646615445613861
0.46460241079330444 -0.5092908143997192 0.3647308349609375
0.5083099007606506 -0.4659059941768646 0.3648103177547455
0.5479894876480103 -0.4187813997268677 0.36489975452423096
0.5833396315574646 -0.36830031871795654 0.3649981617927551
0.6140570640563965 -0.3148654103279114 0.3651049733161926
0.6399064660072327 -0.25888583064079285 0.3652194142341614
0.6606780886650085 -0.2008124440908432 0.36534011363983154
0.6762009263038635 -0.14109981060028076 0.3654665946960449
0.6863419413566589 -0.08021590858697891 0.36559784412384033
0.6910149455070496 -0.018652809783816338 0.3657324016094208
0.6901841759681702 0.04311219975352287 0.36586958169937134
0.6838402152061462 0.10456991195678711 0.36600828170776367
0.6720357537269592 0.16524437069892883 0.36614716053009033
0.6548516750335693 0.22464719414710999 0.3662855327129364
0.6324182748794556 0.2822950482368469 0.36642181873321533
0.604928195476532 0.33773791790008545 0.3665551543235779
0.5725728273391724 0.3905159533023834 0.36668455600738525
0.5356156229972839 0.4402019679546356 0.36680862307548523
0.4943526089191437 0.48640456795692444 0.3669265806674957
0.44911009073257446 0.5287395119667053 0.36703765392303467
0.4002384841442108 0.5668691396713257 0.3671407997608185
0.3481394052505493 0.6004804968833923 0.36723509430885315
0.2932281494140625 0.6292984485626221 0.36731964349746704
0.2359439730644226 0.6530947089195251 0.36739423871040344
0.1767473816871643 0.6716583371162415 0.36745786666870117
0.11611612141132355 0.684855580329895 0.367510050535202
0.054538559168577194 0.6925612688064575 0.36755064129829407
-0.007480735424906015 0.6947174668312073 0.36757904291152954
-0.06946262717247009 0.6913077235221863 0.3675948977470398
-0.13087564706802368 0.6823499798774719 0.3675982654094696
-0.19124990701675415 0.6679368615150452 0.3675892651081085
-0.25007566809654236 0.6481666564941406 0.3675677478313446
-0.30689600110054016 0.6232017874717712 0.36753416061401367
-0.36124929785728455 0.5932531952857971 0.36748823523521423
-0.41268089413642883 0.5585620403289795 0.3674308657646179
-0.4608013331890106 0.519404947757721 0.3673623502254486
-0.5052078366279602 0.47609663009643555 0.36728331446647644
-0.5455503463745117 0.42901578545570374 0.3671940565109253
-0.5815009474754333 0.37851354479789734 0.367095947265625
-0.6127845048904419 0.3250051736831665 0.3669891357421875
-0.6391427516937256 0.2689369022846222 0.3668748438358307
-0.6603754758834839 0.21076039969921112 0.36675384640693665
-0.676322340965271 0.15092147886753082 0.36662718653678894
-0.6868457794189453 0.0899367481470108 0.36649611592292786
-0.6918720006942749 0.028270050883293152 0.3663613796234131
-0.691382884979248 -0.033580049872398376 0.3662240505218506
-0.685360312461853 -0.09511497616767883 0.36608535051345825
-0.6738840937614441 -0.1558365821838379 0.36594635248184204
-0.6570369601249695 -0.2152758687734604 0.3658080995082855
-0.6349698305130005 -0.272957444190979 0.3656719923019409
-0.6078537702560425 -0.32841360569000244 0.365538626909256
-0.575912356376648 -0.3812110126018524 0.3654095232486725
-0.5394105911254883 -0.43094179034233093 0.3652854859828949
-0.49863508343696594 -0.47721555829048157 0.3651675283908844
-0.45392176508903503 -0.5196471214294434 0.36505645513534546
-0.40562373399734497 -0.5579280257225037 0.36495330929756165
-0.3541136085987091 -0.5917479395866394 0.3648586869239807
-0.29982784390449524 -0.6208494901657104 0.36477354168891907
-0.24317564070224762 -0.6449974179267883 0.36469846963882446
-0.18459996581077576 -0.6640020608901978 0.36463409662246704
-0.1245882585644722 -0.6777287125587463 0.36458098888397217
-0.06360063701868057 -0.6860648393630981 0.36453917622566223
-0.0021222447976469994 -0.6889541745185852 0.36450958251953125
0.059369638562202454 -0.6863608956336975 0.36449187994003296
0.12039216607809067 -0.6783077120780945 0.3644866943359375
0.18044719099998474 -0.6648744940757751 0.3644936978816986
0.23907549679279327 -0.6461448669433594 0.36451292037963867
0.29580944776535034 -0.6222900748252869 0.3645443618297577
0.3502114713191986 -0.5934743285179138 0.3645873963832855
0.40183669328689575 -0.5599396228790283 0.36464232206344604
0.4502888023853302 -0.5219325423240662 0.3647080957889557
0.4951745867729187 -0.4797687828540802 0.3647845387458801
0.5361399054527283 -0.4337676167488098 0.36487090587615967
0.5728665590286255 -0.3842812776565552 0.3649667203426361
0.6050503849983215 -0.3317221701145172 0.3650710880756378
0.6324276924133301 -0.27648696303367615 0.3651830852031708
0.6548004746437073 -0.2190079391002655 0.36530211567878723
0.6719567775726318 -0.15975543856620789 0.36542677879333496
0.6837753653526306 -0.09917889535427094 0.36555662751197815
0.6901496648788452 -0.037778280675411224 0.36569029092788696
0.6910253167152405 0.023980727419257164 0.36582687497138977
0.6863929033279419 0.08558889478445053 0.3659652769565582
0.6762740015983582 0.1465536206960678 0.3661041259765625
0.660740852355957 0.20639720559120178 0.36624282598495483
0.6399247050285339 0.2646459639072418 0.36637985706329346
0.613975465297699 0.3208147883415222 0.36651426553726196
0.5831059813499451 0.3744613826274872 0.36664488911628723
0.5475502610206604 0.4251612722873688 0.3667706251144409
0.5075805187225342 0.47247645258903503 0.3668908476829529
0.46353551745414734 0.5160508155822754 0.36700406670570374
0.41574424505233765 0.5555291771888733 0.3671096861362457
0.36460569500923157 0.5905693173408508 0.367206871509552
0.3105253577232361 0.6208971738815308 0.3672946095466614
0.2539308965206146 0.6462658047676086 0.36737242341041565
0.19527404010295868 0.6664750576019287 0.36743927001953125
0.13503766059875488 0.6813415288925171 0.36749526858329773
0.07369247823953629 0.690761387348175 0.36753934621810913
0.011759747751057148 0.6946457028388977 0.3675714135169983
-0.05028325319290161 0.6929585337638855 0.3675912320613861
-0.11193422973155975 0.6857207417488098 0.3675985634326935
-0.1726783961057663 0.6729811429977417 0.367593377828598
-0.23204396665096283 0.6548517346382141 0.36757567524909973
-0.28953608870506287 0.631481409072876 0.3675457537174225
-0.3446958363056183 0.6030519008636475 0.36750364303588867
-0.39707931876182556 0.5697956085205078 0.36744993925094604
-0.44626691937446594 0.5319961309432983 0.36738479137420654
-0.49186837673187256 0.48993995785713196 0.36730894446372986
-0.533505380153656 0.4439931809902191 0.36722272634506226
-0.5708510279655457 0.39449724555015564 0.3671272099018097
-0.6036088466644287 0.3418850600719452 0.3670229911804199
-0.6315144896507263 0.2865629494190216 0.36691099405288696
-0.6543579697608948 0.22898176312446594 0.3667919933795929
-0.6719568967819214 0.16961455345153809 0.3666670024394989
-0.6841686367988586 0.10892841219902039 0.3665371537208557
-0.6909059286117554 0.04742511734366417 0.3664034903049469
-0.6921231746673584 -0.014418973587453365 0.36626678705215454
-0.6878120303153992 -0.07610435038805008 0.3661283850669861
-0.6780232191085815 -0.13713566958904266 0.3659893572330475
-0.6628280282020569 -0.19702544808387756 0.3658508360385895
-0.6423568725585938 -0.25529032945632935 0.3657139539718628
-0.6167834997177124 -0.31149187684059143 0.36557966470718384
-0.5863180756568909 -0.3651587665081024 0.3654492199420929
-0.5511966347694397 -0.4158858358860016 0.3653234839439392
-0.511713445186615 -0.4632624685764313 0.36520323157310486
-0.46818697452545166 -0.5069246292114258 0.365090012550354
-0.4209471046924591 -0.5465269088745117 0.3649841248989105
-0.37039652466773987 -0.5817660093307495 0.3648870885372162
-0.3169194757938385 -0.6123501658439636 0.3647988736629486
-0.2609551250934601 -0.6380509734153748 0.36472076177597046
-0.2029261589050293 -0.6586712002754211 0.3646528422832489
-0.14331716299057007 -0.6740466952323914 0.36459624767303467
-0.08257858455181122 -0.6840659379959106 0.3645510673522949
-0.021192770451307297 -0.6886435747146606 0.3645175099372864
0.040343571454286575 -0.6877419352531433 0.3644961416721344
0.10155729949474335 -0.6813845038414001 0.3644869923591614
0.16196465492248535 -0.6696034669876099 0.36449018120765686
0.2210841327905655 -0.6525100469589233 0.3645056188106537
0.2784634828567505 -0.6302178502082825 0.36453336477279663
0.3336322009563446 -0.6029272079467773 0.3645729124546051
0.3861607313156128 -0.5708227157592773 0.36462417244911194
0.4356410503387451 -0.5341695547103882 0.3646865785121918
0.4816626012325287 -0.49326208233833313 0.3647598326206207
0.5238913893699646 -0.44841161370277405 0.36484313011169434
0.561960756778717 -0.3999658524990082 0.3649362027645111
0.5955780148506165 -0.3483186662197113 0.36503782868385315
0.6244698762893677 -0.29386574029922485 0.36514753103256226
0.6484187245368958 -0.2370375543832779 0.3652644157409668
0.6672049760818481 -0.17828406393527985 0.36538755893707275
0.6806965470314026 -0.11806351691484451 0.3655160367488861
0.6887682676315308 -0.056864261627197266 0.365648478269577
0.6913447380065918 0.0048304032534360886 0.36578428745269775
0.6884191632270813 0.0665404200553894 0.3659222424030304
0.6799919605255127 0.12775562703609467 0.3660612404346466
0.6661263704299927 0.18800891935825348 0.3662000894546509
0.6469315886497498 0.24679934978485107 0.3663375675678253
0.6225592494010925 0.30366119742393494 0.36647292971611023
0.5931815505027771 0.3581365644931793 0.36660492420196533
0.5590510368347168 0.40978923439979553 0.3667321801185608
0.5204213261604309 0.4581928849220276 0.3668542504310608
0.4776001274585724 0.5029747486114502 0.36696958541870117
0.4309332072734833 0.5437485575675964 0.36707794666290283
0.3807922601699829 0.5801944136619568 0.36717772483825684
0.3275710344314575 0.6120195388793945 0.3672683537006378
0.2717042565345764 0.638947069644928 0.36734938621520996
0.2136436402797699 0.6607769727706909 0.3674197196960449
0.15384192764759064 0.6773186922073364 0.3674790859222412
0.09279533475637436 0.6884268522262573 0.3675268590450287
0.030988050624728203 0.694035530090332 0.367562860250473
-0.03107624500989914 0.6940769553184509 0.3675863444805145
-0.09289712458848953 0.6885525584220886 0.36759763956069946
-0.15397924184799194 0.6775129437446594 0.36759641766548157
-0.21382445096969604 0.6610382199287415 0.3675827085971832
-0.27193784713745117 0.6392771601676941 0.36755645275115967
-0.3278721570968628 0.6123932003974915 0.36751800775527954
-0.38116487860679626 0.5806069374084473 0.3674677908420563
-0.43138864636421204 0.544181764125824 0.3674060106277466
-0.47814249992370605 0.5034128427505493 0.3673333525657654
-0.5210421085357666 0.45862647891044617 0.3672505021095276
-0.5597479939460754 0.41019243001937866 0.36715787649154663
-0.593957781791687 0.3585037291049957 0.367056280374527
-0.6233973503112793 0.3039657771587372 0.36694639921188354
-0.6478355526924133 0.24704699218273163 0.366829514503479
-0.6670740842819214 0.18817973136901855 0.36670637130737305
-0.6809684634208679 0.1278504878282547 0.3665778934955597
-0.689413845539093 0.06653977185487747 0.36644530296325684
-0.6923425793647766 0.004751224536448717 0.36630934476852417
-0.689738392829895 -0.057036012411117554 0.366171270608902
-0.681641161441803 -0.11831779032945633 0.3660323917865753
-0.6681029200553894 -0.1786084920167923 0.365893691778183
-0.6492549180984497 -0.2374344766139984 0.36575621366500854
-0.6252478361129761 -0.294320285320282 0.365620881319046
-0.5962654948234558 -0.3488265872001648 0.36548903584480286
-0.5625594854354858 -0.400507390499115 0.36536163091659546
-0.5243959426879883 -0.44896459579467773 0.36523985862731934
-0.48208171129226685 -0.49381574988365173 0.3651241958141327
-0.4359661638736725 -0.5347134470939636 0.3650161623954773
-0.38640066981315613 -0.5713300108909607 0.364916056394577
-0.3337799310684204 -0.6033823490142822 0.36482512950897217
-0.2785414755344391 -0.6306226849555969 0.36474379897117615
-0.2211059182882309 -0.6528342366218567 0.36467283964157104
-0.16193854808807373 -0.6698549389839172 0.3646125793457031
-0.10149667412042618 -0.6815429329872131 0.3645637333393097
-0.04026269167661667 -0.6878130435943604 0.3645266592502594
0.021278290078043938 -0.6886090040206909 0.3645014762878418
0.08264527469873428 -0.6839338541030884 0.36448851227760315
0.14336326718330383 -0.6738306879997253 0.3644879162311554
0.20292535424232483 -0.6583688259124756 0.3644995093345642
0.260888010263443 -0.637672483921051 0.364523321390152
0.3167942464351654 -0.6119041442871094 0.3645593225955963
0.37018340826034546 -0.5812650918960571 0.36460691690444946
0.4192359745502472 -0.5342999696731567 0.364692360162735
0.4653436839580536 -0.4948525130748749 0.3647625744342804
0.5077586770057678 -0.4514423608779907 0.3648425340652466
0.5461521744728088 -0.4044303894042969 0.36493223905563354
0.580226480960846 -0.35416099429130554 0.36503082513809204
0.6096957325935364 -0.3010581433773041 0.3651373088359833
0.6343256831169128 -0.24552129209041595 0.3652511537075043
0.6539267301559448 -0.1879933923482895 0.36537107825279236
0.6683184504508972 -0.128928080201149 0.36549651622772217
0.677396833896637 -0.06879616528749466 0.3656265139579773
0.6810882687568665 -0.00806146115064621 0.3657597303390503
0.6793442964553833 0.05277051776647568 0.36589521169662476
0.6721690893173218 0.11322849243879318 0.3660319447517395
0.6596338748931885 0.17282499372959137 0.3661688268184662
0.6418114900588989 0.2310919463634491 0.3663046061992645
0.6188529133796692 0.2875538766384125 0.3664385974407196
0.5909310579299927 0.3417626917362213 0.36656951904296875
0.5582675337791443 0.3932654857635498 0.3666958510875702
0.5211089849472046 0.4416659474372864 0.36681732535362244
0.47977113723754883 0.48657095432281494 0.3669325113296509
0.4345606863498688 0.5275980830192566 0.3670406937599182
0.3858396112918854 0.5644282698631287 0.3671407997608185
0.3340105712413788 0.5967581272125244 0.3672320544719696
0.27947998046875 0.624323308467865 0.36731383204460144
0.22269774973392487 0.6469040513038635 0.36738553643226624
0.16409620642662048 0.664302408695221 0.36744627356529236
0.10417339205741882 0.6763921976089478 0.3674960136413574
0.04339919984340668 0.6830597519874573 0.36753371357917786
-0.01774030737578869 0.6842588186264038 0.36755964159965515
-0.07873683422803879 0.6799701452255249 0.36757323145866394
-0.1391066163778305 0.6702260971069336 0.3675746023654938
-0.19836027920246124 0.6551173329353333 0.3675634562969208
-0.25601547956466675 0.6347643733024597 0.36754027009010315
-0.31161609292030334 0.6093201041221619 0.3675050139427185
-0.36470934748649597 0.5790058970451355 0.3674580156803131
-0.4148600697517395 0.5440648794174194 0.3673996031284332
-0.46166905760765076 0.5047727227210999 0.36733031272888184
-0.5047714710235596 0.46145761013031006 0.3672506511211395
-0.5438005924224854 0.41446712613105774 0.36716124415397644
-0.5784646272659302 0.3641853630542755 0.3670629858970642
-0.608489453792572 0.31101787090301514 0.3669564723968506
-0.6336184144020081 0.25539132952690125 0.366842657327652
-0.6536709666252136 0.19775938987731934 0.36672255396842957
-0.6684750914573669 0.13858634233474731 0.3665969669818878
-0.677936851978302 0.07834388315677643 0.3664669692516327
-0.6819796562194824 0.017525015398859978 0.3663337528705597
-0.6805676817893982 -0.04339297488331795 0.3661981225013733
-0.673732340335846 -0.10391659289598465 0.36606138944625854
-0.6615164875984192 -0.16357088088989258 0.3659246861934662
-0.6440408825874329 -0.22187338769435883 0.3657885789871216
-0.6214378476142883 -0.2783602476119995 0.3656548857688904
-0.5939103364944458 -0.33259016275405884 0.36552414298057556
-0.5616626143455505 -0.3841317594051361 0.3653976321220398
-0.5249605178833008 -0.4325867295265198 0.3652763366699219
-0.48411014676094055 -0.47756293416023254 0.36516112089157104
-0.43943071365356445 -0.5187061429023743 0.36505308747291565
-0.39127448201179504 -0.5556981563568115 0.3649526834487915
-0.34003618359565735 -0.5882561206817627 0.3648611307144165
-0.28611257672309875 -0.6161164045333862 0.3647787272930145
-0.22994384169578552 -0.6390604972839355 0.36470672488212585
-0.17196506261825562 -0.6569193005561829 0.3646450638771057
-0.11263357102870941 -0.669550895690918 0.36459439992904663
-0.05242108553647995 -0.6768614053726196 0.36455535888671875
0.008196963928639889 -0.6787954568862915 0.36452817916870117
0.06873266398906708 -0.6753261685371399 0.36451292037963867
0.1287313848733902 -0.6664884090423584 0.3645097315311432
0.1877056509256363 -0.6523535251617432 0.3645187318325043
0.24518370628356934 -0.6330333948135376 0.36453977227211
0.3007289469242096 -0.6086824536323547 0.3645724356174469
0.3538922667503357 -0.5794835686683655 0.3646172881126404
0.4042588770389557 -0.5456716418266296 0.36467283964157104
0.4514304995536804 -0.5075129270553589 0.36473968625068665
0.4950266182422638 -0.46529459953308105 0.3648165762424469
0.5346998572349548 -0.4193662405014038 0.3649035692214966
0.5701436400413513 -0.3700615167617798 0.364999383687973
0.6010732650756836 -0.31779465079307556 0.36510345339775085
0.6272251605987549 -0.26296231150627136 0.36521515250205994
0.6484001278877258 -0.20600658655166626 0.36533322930336
0.6644184589385986 -0.147371307015419 0.365457147359848
0.6751577854156494 -0.08751573413610458 0.3655856251716614
0.6805230379104614 -0.026921281591057777 0.3657180666923523
0.6804591417312622 0.033936627209186554 0.365852952003479
0.6749672293663025 0.09455757588148117 0.3659893572330475
0.6640814542770386 0.15447722375392914 0.3661263883113861
0.6478925347328186 0.2132062166929245 0.366262823343277
0.6265034079551697 0.27028346061706543 0.3663973808288574
0.6001038551330566 0.3252297639846802 0.3665292263031006
0.5688784718513489 0.37761545181274414 0.3666572570800781
0.5330914855003357 0.42702287435531616 0.3667804002761841
0.49300792813301086 0.47304418683052063 0.3668975830078125
0.44895610213279724 0.5153144598007202 0.3670080602169037
0.4012950360774994 0.5534854531288147 0.36711058020591736
0.35038667917251587 0.5872381329536438 0.367204874753952
0.29664719104766846 0.6163071393966675 0.3672897219657898
0.24051488935947418 0.6404544115066528 0.3673644959926605
0.18242110311985016 0.659471869468689 0.367428719997406
0.12286309152841568 0.6732239127159119 0.3674818277359009
0.062299057841300964 0.6815784573554993 0.367523193359375
0.001213235780596733 0.68446946144104 0.367552787065506
-0.05987635627388954 0.6818771362304688 0.36757034063339233
-0.12049658596515656 0.673824667930603 0.3675755262374878
-0.18014147877693176 0.6603718996047974 0.36756834387779236
-0.23834986984729767 0.6416217684745789 0.3675488233566284
-0.29463475942611694 0.617743730545044 0.3675173819065094
-0.3485479950904846 0.5889107584953308 0.3674737513065338
-0.3996533453464508 0.5553753972053528 0.3674188256263733
-0.4475438594818115 0.5173932313919067 0.3673529028892517
-0.49182555079460144 0.4752894341945648 0.36727631092071533
-0.5321617126464844 0.4294047951698303 0.3671899437904358
-0.5682138204574585 0.3800992965698242 0.3670942485332489
-0.599698007106781 0.3277774751186371 0.3669903576374054
-0.6263577938079834 0.2728661298751831 0.3668786585330963
-0.6480035185813904 0.2158081829547882 0.3667605519294739
-0.6644548177719116 0.15705730020999908 0.36663633584976196
-0.6755861639976501 0.0971018373966217 0.36650770902633667
-0.6813047528266907 0.03640379011631012 0.3663754165172577
-0.6815913319587708 -0.024528570473194122 0.3662402331829071
-0.6764216423034668 -0.08523645997047424 0.36610379815101624
-0.6658738851547241 -0.14520230889320374 0.365966796875
-0.6500130891799927 -0.20397843420505524 0.36583054065704346
-0.628979504108429 -0.2610805928707123 0.36569610238075256
-0.6029549837112427 -0.3160499036312103 0.3655642569065094
-0.5721452832221985 -0.36847439408302307 0.3654364049434662
-0.5367943644523621 -0.4179284870624542 0.36531341075897217
-0.4971974194049835 -0.46401119232177734 0.3651960790157318
-0.45366498827934265 -0.5063790678977966 0.36508575081825256
-0.4065474569797516 -0.5446943044662476 0.3649829030036926
-0.3562183380126953 -0.5786565542221069 0.364888459444046
-0.30308303236961365 -0.6079915761947632 0.3648033142089844
-0.24756233394145966 -0.6324825882911682 0.3647279143333435
-0.19009920954704285 -0.6519402265548706 0.3646630644798279
-0.13113942742347717 -0.6662041544914246 0.3646090626716614
-0.07114404439926147 -0.6751713156700134 0.3645663261413574
-0.01060698926448822 -0.6787751913070679 0.36453551054000854
0.05000510439276695 -0.6769710183143616 0.3645162880420685
0.11022790521383286 -0.6697930097579956 0.3645094335079193
0.1695660799741745 -0.6572919487953186 0.36451461911201477
0.22755849361419678 -0.6395708918571472 0.36453184485435486
0.283750981092453 -0.6167631149291992 0.36456114053726196
0.3376953899860382 -0.5890415906906128 0.3646020293235779
0.3889777362346649 -0.5566317439079285 0.364654541015625
0.43718138337135315 -0.5197880268096924 0.36471787095069885
0.4819159507751465 -0.4787968099117279 0.3647918701171875
0.5228466391563416 -0.4339793622493744 0.3648756444454193
0.5596359968185425 -0.3856860399246216 0.3649687170982361
0.5919833183288574 -0.3342902958393097 0.3650703430175781
0.6196427941322327 -0.2802101969718933 0.36517974734306335
0.6423781514167786 -0.22386452555656433 0.36529600620269775
0.6600193381309509 -0.16569820046424866 0.3654182255268097
0.6724053025245667 -0.10616666823625565 0.36554548144340515
0.6794408559799194 -0.04575134068727493 0.3656768798828125
0.6810610890388489 0.015073261223733425 0.36581099033355713
0.6772496104240417 0.07582800835371017 0.36594709753990173
