ply
format ascii 1.0
element vertex 2177
property float32 x
property float32 y
property float32 z
end_header
-0.9811 1.5680 0.3932
-5.6143 7.4098 1.9760
-6.2270 6.8512 1.9679
-6.7804 6.2382 1.9584
-7.2716 5.5793 1.9482
-7.6972 4.8813 1.9373
-8.0545 4.1509 1.9260
-8.1941 3.3352 1.8804
-8.2029 2.5126 1.8235
-8.2088 1.7319 1.7832
-8.2120 0.9787 1.7579
-8.2124 0.2408 1.7464
-8.2103 -0.4932 1.7483
-3.7051 -0.5573 0.7964
-3.2495 -0.7904 0.7108
-3.1522 -1.0724 0.7077
-3.1259 -1.3856 0.7268
-3.1265 -1.7346 0.7600
-6.9214 -4.6931 1.7775
-6.4387 -5.2618 1.7675
-5.9127 -5.7847 1.7582
-1.0521 -1.2315 0.3443
-0.9341 -1.3148 0.3428
-0.8101 -1.3877 0.3416
-0.6810 -1.4499 0.3405
-0.5475 -1.5009 0.3396
-0.4106 -1.5406 0.3389
-0.2712 -1.5688 0.3384
-0.1301 -1.5854 0.3381
0.0118 -1.5903 0.3380
0.1537 -1.5835 0.3382
0.2946 -1.5650 0.3385
0.4337 -1.5349 0.3390
0.5701 -1.4933 0.3397
0.7029 -1.4404 0.3407
0.8313 -1.3765 0.3418
0.9544 -1.3018 0.3431
1.0713 -1.2168 0.3446
6.0037 -5.7015 1.7599
6.5229 -5.1707 1.7693
6.9981 -4.5947 1.7794
7.4253 -3.9765 1.7904
7.8007 -3.3197 1.8020
8.1204 -2.6285 1.8142
8.3809 -1.9071 1.8270
8.5792 -1.1603 1.8402
8.7122 -0.3934 1.8537
8.7774 0.3881 1.8675
8.7666 1.1773 1.8801
8.6829 1.9672 1.8924
8.5251 2.7507 1.9040
8.2881 3.5180 1.9138
7.9812 4.2645 1.9234
7.6057 4.9834 1.9328
7.1640 5.6680 1.9417
6.6590 6.3119 1.9502
6.0944 6.9089 1.9582
1.0911 1.4855 0.3918
0.9585 1.5838 0.3935
0.8165 1.6692 0.3950
0.6664 1.7409 0.3962
0.5098 1.7979 0.3972
0.3480 1.8395 0.3979
0.1828 1.8653 0.3984
0.0157 1.8749 0.3985
-0.1515 1.8683 0.3984
-0.3172 1.8455 0.3980
-0.4798 1.8067 0.3973
-0.6375 1.7525 0.3964
-0.7888 1.6836 0.3952
-0.9324 1.6006 0.3937
-1.0669 1.5046 0.3921
-6.0170 7.0560 1.9711
-6.5913 6.4608 1.9618
-7.1050 5.8175 1.9519
-7.5542 5.1325 1.9412
-7.9359 4.4128 1.9301
-8.1902 3.6395 1.9050
-8.2001 2.7983 1.8417
-8.2070 2.0045 1.7957
-8.2111 1.2430 1.7652
-8.2126 0.5011 1.7489
-8.2113 -0.2330 1.7461
-8.2076 -0.9703 1.7567
-3.2781 -0.6884 0.7120
-3.1895 -0.9737 0.7088
-3.1257 -1.2688 0.7170
-3.1263 -1.6074 0.7472
-7.0812 -4.4813 1.7812
-6.6148 -5.0655 1.7709
-6.1036 -5.6050 1.7614
-1.0923 -1.1995 0.3448
-0.9767 -1.2865 0.3433
-0.8547 -1.3631 0.3420
-0.7273 -1.4291 0.3408
-0.5952 -1.4841 0.3399
-0.4594 -1.5279 0.3391
-0.3208 -1.5602 0.3386
-0.1802 -1.5809 0.3382
-0.0385 -1.5899 0.3380
0.1035 -1.5873 0.3381
0.2448 -1.5729 0.3384
0.3847 -1.5469 0.3388
0.5221 -1.5093 0.3395
0.6563 -1.4604 0.3403
0.7864 -1.4004 0.3414
0.9114 -1.3295 0.3426
1.0306 -1.2481 0.3440
5.8101 -5.8780 1.7568
6.3438 -5.3640 1.7658
6.8351 -4.8036 1.7758
7.2798 -4.2000 1.7864
7.6739 -3.5564 1.7978
8.0137 -2.8770 1.8098
8.2957 -2.1657 1.8224
8.5163 -1.4273 1.8354
8.6727 -0.6669 1.8489
8.7622 0.1101 1.8626
8.7791 0.8974 1.8758
8.7207 1.6878 1.8880
8.5906 2.4748 1.9002
8.3801 3.2483 1.9104
8.0978 4.0030 1.9201
7.7464 4.7324 1.9295
7.3278 5.4299 1.9386
6.8448 6.0890 1.9473
6.3009 6.7033 1.9555
5.7000 7.2667 1.9631
1.0066 1.5504 0.3929
0.8677 1.6405 0.3945
0.7204 1.7171 0.3958
0.5659 1.7794 0.3969
0.4058 1.8265 0.3977
0.2416 1.8580 0.3983
0.0750 1.8734 0.3985
-0.0924 1.8725 0.3985
-0.2589 1.8554 0.3982
-0.4227 1.8222 0.3976
-0.5823 1.7735 0.3968
-0.7360 1.7096 0.3956
-0.8825 1.6315 0.3943
-1.0204 1.5400 0.3927
-5.7999 7.2540 1.9741
-6.3946 6.6774 1.9652
-6.9303 6.0504 1.9555
-7.4026 5.3794 1.9451
-7.8086 4.6712 1.9341
-8.1456 3.9327 1.9226
-8.1970 3.0899 1.8620
-8.2049 2.2812 1.8102
-8.2100 1.5098 1.7743
-8.2124 0.7623 1.7531
-8.2121 0.0267 1.7455
-8.2092 -0.7082 1.7514
-3.3035 -0.5853 0.7131
-3.2237 -0.8737 0.7099
-3.1255 -1.1550 0.7083
-3.1261 -1.4843 0.7356
-3.1267 -1.8429 0.7714
-6.7853 -4.8636 1.7745
-6.2895 -5.4192 1.7647
-5.7516 -5.9283 1.7557
-1.0184 -1.2568 0.3438
-0.8985 -1.3372 0.3424
-0.7729 -1.4070 0.3412
-0.6424 -1.4659 0.3402
-0.5079 -1.5137 0.3394
-0.3702 -1.5500 0.3387
-0.2302 -1.5749 0.3383
-0.0887 -1.5881 0.3381
0.0533 -1.5895 0.3381
0.1949 -1.5793 0.3382
0.3354 -1.5574 0.3386
0.4738 -1.5239 0.3392
0.6092 -1.4790 0.3400
0.7408 -1.4229 0.3410
0.8678 -1.3558 0.3422
0.9892 -1.2781 0.3435
5.6117 -6.0484 1.7537
6.1595 -5.5515 1.7625
6.6663 -5.0072 1.7722
7.1279 -4.4185 1.7826
7.5404 -3.7887 1.7937
7.8999 -3.1214 1.8055
8.2027 -2.4209 1.8179
8.4454 -1.6916 1.8308
8.6248 -0.9384 1.8441
8.7383 -0.1666 1.8577
8.7828 0.6180 1.8715
8.7496 1.4080 1.8837
8.6449 2.1969 1.8959
8.4632 2.9763 1.9069
8.2058 3.7383 1.9167
7.8786 4.4774 1.9262
7.4835 5.1870 1.9354
7.0230 5.8604 1.9442
6.5002 6.4913 1.9526
5.9190 7.0734 1.9604
1.0535 1.5154 0.3923
0.9179 1.6101 0.3939
0.7735 1.6916 0.3954
0.6214 1.7590 0.3965
0.4630 1.8116 0.3975
0.3001 1.8487 0.3981
0.1341 1.8698 0.3985
-0.0332 1.8747 0.3985
-0.2001 1.8633 0.3983
-0.3651 1.8358 0.3979
-0.5263 1.7925 0.3971
-0.6823 1.7339 0.3961
-0.8316 1.6608 0.3948
-0.9726 1.5739 0.3933
-5.5740 7.4423 1.9764
-6.1906 6.8877 1.9685
-6.7476 6.2778 1.9590
-7.2428 5.6216 1.9488
-7.6726 4.9258 1.9380
-8.0343 4.1972 1.9267
-8.1934 3.3882 1.8846
-8.2025 2.5625 1.8266
-8.2085 1.7796 1.7853
-8.2118 1.0251 1.7590
-8.2125 0.2866 1.7467
-8.2105 -0.4473 1.7478
-8.2060 -1.1877 1.7624
-3.2548 -0.7726 0.7110
-3.1590 -1.0551 0.7079
-3.1259 -1.3648 0.7250
-3.1264 -1.7119 0.7576
-6.9500 -4.6562 1.7782
-6.4701 -5.2277 1.7681
-5.9467 -5.7535 1.7588
-1.0593 -1.2259 0.3444
-0.9417 -1.3099 0.3429
-0.8180 -1.3835 0.3416
-0.6892 -1.4463 0.3405
-0.5559 -1.4980 0.3396
-0.4193 -1.5385 0.3389
-0.2800 -1.5674 0.3384
-0.1389 -1.5847 0.3381
0.0030 -1.5904 0.3380
0.1449 -1.5843 0.3382
0.2858 -1.5665 0.3385
0.4251 -1.5371 0.3390
0.5616 -1.4962 0.3397
0.6947 -1.4440 0.3406
0.8234 -1.3808 0.3417
0.9469 -1.3068 0.3430
1.0642 -1.2224 0.3445
5.9699 -5.7330 1.7593
6.4917 -5.2052 1.7687
6.9699 -4.6318 1.7788
7.4002 -4.0162 1.7897
7.7789 -3.3617 1.8012
8.1021 -2.6725 1.8134
8.3665 -1.9528 1.8262
8.5687 -1.2075 1.8393
8.7058 -0.4417 1.8529
8.7754 0.3391 1.8667
8.7695 1.1280 1.8794
8.6902 1.9181 1.8916
8.5375 2.7023 1.9034
8.3050 3.4707 1.9132
8.0023 4.2187 1.9228
7.6311 4.9395 1.9322
7.1934 5.6265 1.9412
6.6922 6.2731 1.9497
6.1312 6.8732 1.9577
1.0991 1.4789 0.3917
0.9670 1.5780 0.3934
0.8256 1.6643 0.3949
0.6760 1.7368 0.3961
0.5197 1.7947 0.3972
0.3582 1.8374 0.3979
0.1932 1.8642 0.3984
0.0261 1.8748 0.3985
-0.1411 1.8692 0.3984
-0.3070 1.8474 0.3981
-0.4698 1.8096 0.3974
-0.6278 1.7564 0.3965
-0.7796 1.6883 0.3953
-0.9237 1.6062 0.3938
-1.0588 1.5110 0.3922
-5.9793 7.0914 1.9716
-6.5572 6.4994 1.9624
-7.0748 5.8588 1.9525
-7.5281 5.1763 1.9419
-7.9141 4.4585 1.9308
-8.1894 3.6939 1.9096
-8.1996 2.8492 1.8451
-8.2067 2.0529 1.7981
-8.2110 1.2898 1.7667
-8.2126 0.5470 1.7495
-8.2115 -0.1873 1.7459
-8.2079 -0.9241 1.7557
-3.2828 -0.6703 0.7122
-3.1957 -0.9562 0.7090
-3.1257 -1.2486 0.7154
-3.1262 -1.5855 0.7451
-3.1269 -1.9545 0.7838
-6.6452 -5.0304 1.7715
-6.1367 -5.5727 1.7620
-1.0993 -1.1938 0.3449
-0.9841 -1.2814 0.3434
-0.8625 -1.3587 0.3421
-0.7353 -1.4253 0.3409
-0.6036 -1.4810 0.3399
-0.4680 -1.5255 0.3392
-0.3295 -1.5585 0.3386
-0.1890 -1.5799 0.3382
-0.0473 -1.5897 0.3381
0.0947 -1.5878 0.3381
0.2361 -1.5741 0.3383
0.3760 -1.5488 0.3388
0.5136 -1.5120 0.3394
0.6481 -1.4638 0.3403
0.7784 -1.4044 0.3413
0.9038 -1.3342 0.3425
1.0234 -1.2534 0.3439
5.7755 -5.9085 1.7562
6.3118 -5.3974 1.7653
6.8058 -4.8399 1.7751
7.2535 -4.2388 1.7857
7.6509 -3.5977 1.7971
7.9942 -2.9203 1.8091
8.2798 -2.2109 1.8216
8.5044 -1.4740 1.8346
8.6649 -0.7149 1.8480
8.7586 0.0613 1.8618
8.7804 0.8482 1.8750
8.7264 1.6386 1.8873
8.6008 2.4259 1.8995
8.3954 3.2006 1.9098
8.1174 3.9566 1.9195
7.7703 4.6878 1.9289
7.3558 5.3875 1.9380
6.8768 6.0491 1.9467
6.3364 6.6664 1.9550
5.7390 7.2332 1.9626
1.0149 1.5443 0.3928
0.8767 1.6353 0.3944
0.7298 1.7128 0.3957
0.5757 1.7760 0.3968
0.4159 1.8241 0.3977
0.2519 1.8565 0.3982
0.0854 1.8729 0.3985
-0.0820 1.8731 0.3985
-0.2485 1.8569 0.3982
-0.4126 1.8248 0.3977
-0.5725 1.7770 0.3968
-0.7267 1.7140 0.3957
-0.8736 1.6368 0.3944
-1.0120 1.5461 0.3928
-5.7610 7.2882 1.9747
-6.3593 6.7149 1.9658
-6.8987 6.0908 1.9561
-7.3751 5.4224 1.9457
-7.7853 4.7163 1.9348
-8.1266 3.9795 1.9233
-8.1964 3.1419 1.8658
-8.2045 2.3304 1.8129
-8.2097 1.5571 1.7761
-8.2123 0.8085 1.7540
-8.2122 0.0725 1.7456
-8.2095 -0.6622 1.7506
-3.3077 -0.5671 0.7133
-3.2294 -0.8560 0.7101
-3.1265 -1.1357 0.7070
-3.1260 -1.4630 0.7336
-3.1266 -1.8195 0.7689
-6.8147 -4.8275 1.7751
-6.3217 -5.3859 1.7653
-5.7863 -5.8979 1.7562
-1.0256 -1.2515 0.3439
-0.9062 -1.3325 0.3425
-0.7809 -1.4030 0.3413
-0.6507 -1.4626 0.3403
-0.5164 -1.5110 0.3394
-0.3788 -1.5481 0.3388
-0.2389 -1.5737 0.3383
-0.0976 -1.5876 0.3381
0.0444 -1.5898 0.3381
0.1861 -1.5803 0.3382
0.3267 -1.5591 0.3386
0.4652 -1.5263 0.3392
0.6009 -1.4822 0.3399
0.7328 -1.4267 0.3409
0.8600 -1.3603 0.3421
0.9818 -1.2832 0.3434
5.5762 -6.0777 1.7532
6.1265 -5.5839 1.7620
6.6359 -5.0424 1.7715
7.1005 -4.4564 1.7819
7.5162 -3.8291 1.7930
7.8791 -3.1640 1.8047
8.1855 -2.4655 1.8171
8.4321 -1.7378 1.8300
8.6155 -0.9859 1.8432
8.7332 -0.2151 1.8569
8.7825 0.5688 1.8707
8.7537 1.3587 1.8829
8.6535 2.1479 1.8952
8.4769 2.9282 1.9063
8.2239 3.6914 1.9161
7.9010 4.4321 1.9256
7.5101 5.1437 1.9348
7.0536 5.8196 1.9437
6.5345 6.4533 1.9521
5.9568 7.0386 1.9600
1.0616 1.5091 0.3922
0.9267 1.6045 0.3938
0.7827 1.6869 0.3953
0.6310 1.7553 0.3965
0.4731 1.8088 0.3974
0.3104 1.8468 0.3981
0.1446 1.8689 0.3984
-0.0227 1.8749 0.3985
-0.1898 1.8645 0.3984
-0.3549 1.8380 0.3979
-0.5164 1.7956 0.3971
-0.6728 1.7380 0.3961
-0.8225 1.6657 0.3949
-0.9641 1.5797 0.3934
-5.5335 7.4746 1.9768
-6.1539 6.9240 1.9690
-6.7147 6.3172 1.9596
-7.2139 5.6637 1.9495
-7.6478 4.9702 1.9387
-8.0138 4.2435 1.9274
-8.1927 3.4414 1.8888
-8.2020 2.6126 1.8297
-8.2082 1.8274 1.7874
-8.2117 1.0715 1.7602
-8.2125 0.3323 1.7471
-8.2107 -0.4015 1.7473
-8.2064 -1.1412 1.7611
-3.2599 -0.7546 0.7112
-3.1657 -1.0378 0.7081
-3.1258 -1.3441 0.7232
-3.1264 -1.6894 0.7553
-6.9784 -4.6191 1.7788
-6.5013 -5.1934 1.7687
-5.9805 -5.7222 1.7593
-1.0664 -1.2204 0.3445
-0.9492 -1.3050 0.3430
-0.8259 -1.3792 0.3417
-0.6973 -1.4427 0.3406
-0.5644 -1.4951 0.3397
-0.4279 -1.5363 0.3390
-0.2887 -1.5659 0.3385
-0.1477 -1.5840 0.3381
-0.0059 -1.5903 0.3380
0.1360 -1.5850 0.3381
0.2771 -1.5679 0.3384
0.4165 -1.5393 0.3389
0.5532 -1.4991 0.3396
0.6865 -1.4476 0.3406
0.8155 -1.3851 0.3416
0.9393 -1.3117 0.3429
1.0571 -1.2279 0.3444
5.9361 -5.7643 1.7588
6.4605 -5.2394 1.7680
6.9414 -4.6688 1.7781
7.3748 -4.0557 1.7890
7.7568 -3.4036 1.8005
8.0837 -2.7164 1.8127
8.3518 -1.9985 1.8253
8.5580 -1.2546 1.8385
8.6992 -0.4899 1.8520
8.7731 0.2901 1.8658
8.7720 1.0787 1.8786
8.6972 1.8689 1.8908
8.5496 2.6539 1.9028
8.3215 3.4234 1.9126
8.0232 4.1728 1.9222
7.6561 4.8955 1.9316
7.2225 5.5848 1.9406
6.7253 6.2341 1.9492
6.1679 6.8372 1.9573
5.5546 7.3882 1.9647
0.9755 1.5722 0.3933
0.8346 1.6593 0.3948
0.6855 1.7327 0.3961
0.5296 1.7916 0.3971
0.3684 1.8352 0.3979
0.2035 1.8630 0.3983
0.0366 1.8746 0.3985
-0.1307 1.8700 0.3985
-0.2967 1.8492 0.3981
-0.4597 1.8124 0.3974
-0.6181 1.7601 0.3965
-0.7703 1.6929 0.3953
-0.9150 1.6117 0.3939
-1.0506 1.5172 0.3923
-5.9414 7.1265 1.9722
-6.5230 6.5378 1.9630
-7.0444 5.9001 1.9531
-7.5018 5.2199 1.9426
-7.8921 4.5042 1.9315
-8.1887 3.7486 1.9143
-8.1991 2.9003 1.8486
-8.2064 2.1014 1.8006
-8.2108 1.3367 1.7682
-8.2126 0.5929 1.7502
-8.2116 -0.1416 1.7457
-8.2082 -0.8779 1.7547
-3.2874 -0.6522 0.7124
-3.2018 -0.9386 0.7092
-3.1256 -1.2284 0.7138
-3.1262 -1.5636 0.7430
-3.1268 -1.9304 0.7811
-6.6755 -4.9951 1.7722
-6.1696 -5.5403 1.7625
-1.1062 -1.1880 0.3450
-0.9914 -1.2762 0.3435
-0.8702 -1.3542 0.3421
-0.7434 -1.4215 0.3410
-0.6119 -1.4779 0.3400
-0.4765 -1.5230 0.3392
-0.3382 -1.5568 0.3386
-0.1978 -1.5789 0.3382
-0.0562 -1.5894 0.3381
0.0858 -1.5882 0.3381
0.2273 -1.5753 0.3383
0.3674 -1.5507 0.3387
0.5051 -1.5146 0.3394
0.6398 -1.4671 0.3402
0.7704 -1.4085 0.3412
0.8961 -1.3389 0.3425
1.0161 -1.2588 0.3439
5.7408 -5.9387 1.7557
6.2795 -5.4307 1.7647
6.7763 -4.8759 1.7745
7.2270 -4.2775 1.7851
7.6277 -3.6387 1.7964
7.9745 -2.9635 1.8083
8.2638 -2.2559 1.8208
8.4922 -1.5207 1.8338
8.6568 -0.7627 1.8472
8.7548 0.0125 1.8609
8.7814 0.7990 1.8743
8.7319 1.5893 1.8865
8.6107 2.3771 1.8987
8.4104 3.1528 1.9092
8.1368 3.9102 1.9189
7.7939 4.6431 1.9283
7.3835 5.3449 1.9375
6.9084 6.0092 1.9462
6.3719 6.6293 1.9545
5.7778 7.1994 1.9622
1.0232 1.5382 0.3927
0.8855 1.6300 0.3943
0.7392 1.7083 0.3957
0.5855 1.7725 0.3968
0.4260 1.8215 0.3976
0.2622 1.8550 0.3982
0.0958 1.8724 0.3985
-0.0716 1.8735 0.3985
-0.2382 1.8584 0.3983
-0.4025 1.8272 0.3977
-0.5627 1.7804 0.3969
-0.7172 1.7184 0.3958
-0.8647 1.6420 0.3945
-1.0037 1.5521 0.3929
-5.7214 7.3215 1.9750
-6.3237 6.7522 1.9664
-6.8669 6.1311 1.9567
-7.3473 5.4652 1.9464
-7.7617 4.7613 1.9355
-8.1074 4.0261 1.9241
-8.1958 3.1941 1.8697
-8.2041 2.3797 1.8157
-8.2095 1.6044 1.7780
-8.2122 0.8546 1.7550
-8.2123 0.1182 1.7457
-8.2097 -0.6162 1.7499
-3.3615 -0.5571 0.7243
-3.2350 -0.8382 0.7103
-3.1336 -1.1185 0.7072
-3.1260 -1.4418 0.7317
-3.1266 -1.7962 0.7664
-6.8439 -4.7912 1.7758
-6.3537 -5.3525 1.7659
-5.8208 -5.8675 1.7568
-1.0329 -1.2461 0.3440
-0.9138 -1.3278 0.3426
-0.7889 -1.3989 0.3414
-0.6589 -1.4592 0.3403
-0.5249 -1.5083 0.3395
-0.3875 -1.5461 0.3388
-0.2477 -1.5724 0.3383
-0.1064 -1.5871 0.3381
0.0356 -1.5900 0.3380
0.1773 -1.5812 0.3382
0.3180 -1.5608 0.3386
0.4567 -1.5287 0.3391
0.5925 -1.4852 0.3399
0.7247 -1.4305 0.3408
0.8522 -1.3648 0.3420
0.9743 -1.2883 0.3433
5.5407 -6.1069 1.7527
6.0933 -5.6161 1.7614
6.6055 -5.0775 1.7709
7.0730 -4.4942 1.7812
7.4918 -3.8693 1.7923
7.8581 -3.2065 1.8040
8.1681 -2.5099 1.8163
8.4185 -1.7839 1.8291
8.6060 -1.0334 1.8424
8.7279 -0.2636 1.8560
8.7816 0.5197 1.8699
8.7576 1.3094 1.8822
8.6618 2.0989 1.8944
8.4904 2.8801 1.9057
8.2417 3.6444 1.9155
7.9231 4.3867 1.9250
7.5364 5.1004 1.9343
7.0839 5.7786 1.9432
6.5687 6.4151 1.9516
5.9945 7.0037 1.9595
1.0697 1.5027 0.3921
0.9353 1.5990 0.3937
0.7919 1.6822 0.3952
0.6407 1.7514 0.3964
0.4831 1.8059 0.3974
0.3206 1.8449 0.3980
0.1550 1.8680 0.3984
-0.0123 1.8750 0.3985
-0.1794 1.8656 0.3984
-0.3447 1.8401 0.3979
-0.5065 1.7987 0.3972
-0.6632 1.7420 0.3962
-0.8134 1.6706 0.3950
-0.9555 1.5854 0.3935
-5.4928 7.5067 1.9771
-6.1170 6.9602 1.9696
-6.6815 6.3565 1.9602
-7.1846 5.7057 1.9501
-7.6227 5.0144 1.9394
-7.9930 4.2896 1.9282
-8.1921 3.4949 1.8931
-8.2015 2.6628 1.8329
-8.2079 1.8754 1.7896
-8.2116 1.1180 1.7615
-8.2126 0.3782 1.7475
-8.2109 -0.3557 1.7469
-8.2067 -1.0947 1.7598
-3.2650 -0.7367 0.7114
-3.1723 -1.0204 0.7083
-3.1258 -1.3235 0.7215
-3.1264 -1.6669 0.7531
-7.0066 -4.5819 1.7795
-6.5324 -5.1588 1.7693
-6.0141 -5.6906 1.7599
-1.0734 -1.2148 0.3446
-0.9567 -1.3000 0.3431
-0.8337 -1.3749 0.3418
-0.7055 -1.4391 0.3407
-0.5728 -1.4922 0.3397
-0.4365 -1.5341 0.3390
-0.2974 -1.5644 0.3385
-0.1566 -1.5832 0.3382
-0.0147 -1.5903 0.3380
0.1272 -1.5857 0.3381
0.2683 -1.5693 0.3384
0.4078 -1.5414 0.3389
0.5448 -1.5019 0.3396
0.6783 -1.4511 0.3405
0.8076 -1.3893 0.3416
0.9318 -1.3166 0.3428
1.0499 -1.2335 0.3443
5.4899 -5.8515 1.7572
6.0193 -5.3647 1.7658
6.5083 -4.8321 1.7752
6.9530 -4.2567 1.7854
7.3494 -3.6416 1.7963
7.6939 -2.9906 1.8078
7.9829 -2.3078 1.8199
8.2132 -1.5976 1.8324
8.3818 -0.8648 1.8454
8.4860 -0.1145 1.8586
8.5228 0.6474 1.8719
8.4847 1.4138 1.8838
8.3771 2.1786 1.8956
8.1968 2.9340 1.9067
7.9415 3.6714 1.9161
7.6189 4.3861 1.9253
7.2307 5.0715 1.9342
6.7793 5.7214 1.9428
6.2680 6.3294 1.9508
5.7004 6.8897 1.9584
1.0124 1.4737 0.3916
0.8804 1.5644 0.3931
0.7399 1.6424 0.3945
0.5922 1.7066 0.3956
0.4386 1.7565 0.3965
0.2806 1.7913 0.3971
0.1198 1.8107 0.3974
-0.0422 1.8145 0.3975
-0.2038 1.8025 0.3973
-0.3633 1.7750 0.3968
-0.5191 1.7323 0.3960
-0.6699 1.6748 0.3950
-0.8140 1.6033 0.3938
-0.9501 1.5185 0.3923
-1.0771 1.4216 0.3906
-6.0336 6.6383 1.9646
-6.5707 6.0453 1.9554
-7.0479 5.4077 1.9455
-7.4617 4.7319 1.9350
-7.8095 4.0246 1.9241
-8.0893 3.2925 1.9127
-8.1931 2.5096 1.8766
-8.1992 1.7299 1.8352
-8.2025 0.9776 1.8091
-8.2030 0.2405 1.7973
-8.2009 -0.4926 1.7993
-3.7069 -0.5576 0.8210
-3.1552 -0.7675 0.7112
-3.1254 -1.0633 0.7230
-3.1259 -1.3856 0.7488
-3.1265 -1.7346 0.7830
-6.7265 -4.5609 1.7798
-6.2584 -5.1145 1.7701
-5.7479 -5.6235 1.7611
-1.0229 -1.1973 0.3449
-0.9083 -1.2785 0.3435
-0.7878 -1.3495 0.3422
-0.6623 -1.4101 0.3412
-0.5325 -1.4598 0.3403
-0.3994 -1.4985 0.3396
-0.2638 -1.5260 0.3392
-0.1265 -1.5422 0.3389
0.0115 -1.5470 0.3388
0.1495 -1.5403 0.3389
0.2865 -1.5223 0.3392
0.4218 -1.4929 0.3398
0.5544 -1.4524 0.3405
0.6836 -1.4008 0.3414
0.8084 -1.3386 0.3425
0.9280 -1.2658 0.3437
1.0415 -1.1830 0.3452
5.8362 -5.5425 1.7627
6.3400 -5.0258 1.7718
6.8008 -4.4651 1.7817
7.2148 -3.8637 1.7924
7.5781 -3.2250 1.8037
7.8871 -2.5530 1.8155
8.1386 -1.8519 1.8279
8.3293 -1.1265 1.8408
8.4566 -0.3819 1.8539
8.5181 0.3766 1.8673
8.5061 1.1423 1.8796
8.4232 1.9084 1.8915
8.2706 2.6686 1.9032
8.0397 3.4126 1.9128
7.7407 4.1360 1.9221
7.3755 4.8326 1.9311
6.9462 5.4957 1.9398
6.4557 6.1192 1.9480
5.9076 6.6971 1.9558
1.0568 1.4387 0.3910
0.9282 1.5337 0.3926
0.7906 1.6163 0.3940
0.6452 1.6855 0.3953
0.4935 1.7405 0.3962
0.3369 1.7807 0.3969
0.1769 1.8057 0.3973
0.0152 1.8150 0.3975
-0.1467 1.8086 0.3974
-0.3071 1.7865 0.3970
-0.4645 1.7491 0.3963
-0.6172 1.6968 0.3954
-0.7638 1.6301 0.3943
-0.9029 1.5500 0.3928
-1.0333 1.4572 0.3912
-5.8298 6.8365 1.9677
-6.3872 6.2607 1.9587
-6.8860 5.6382 1.9491
-7.3226 4.9752 1.9388
-7.6940 4.2783 1.9280
-7.9981 3.5542 1.9168
-8.1902 2.7949 1.8953
-8.1973 2.0022 1.8480
-8.2016 1.2416 1.8166
-8.2032 0.5005 1.7999
-8.2019 -0.2328 1.7970
-8.1981 -0.9692 1.8079
-3.1828 -0.6684 0.7123
-3.1252 -0.9541 0.7156
-3.1257 -1.2688 0.7388
-3.1263 -1.6074 0.7699
-6.8814 -4.3548 1.7835
-6.4292 -4.9234 1.7734
-5.9333 -5.4485 1.7642
-1.0619 -1.1662 0.3454
-0.9496 -1.2509 0.3439
-0.8311 -1.3256 0.3426
-0.7073 -1.3898 0.3415
-0.5789 -1.4434 0.3406
-0.4469 -1.4861 0.3399
-0.3121 -1.5176 0.3393
-0.1753 -1.5378 0.3390
-0.0374 -1.5466 0.3388
0.1007 -1.5440 0.3389
0.2382 -1.5300 0.3391
0.3742 -1.5046 0.3395
0.5078 -1.4680 0.3402
0.6383 -1.4203 0.3410
0.7647 -1.3618 0.3420
0.8863 -1.2928 0.3433
1.0021 -1.2134 0.3446
5.6483 -5.7144 1.7596
6.1663 -5.2139 1.7685
6.6428 -4.6685 1.7781
7.0738 -4.0811 1.7885
7.4554 -3.4552 1.7996
7.7841 -2.7945 1.8113
8.0563 -2.1032 1.8235
8.2689 -1.3859 1.8362
8.4190 -0.6474 1.8492
8.5040 0.1068 1.8626
8.5188 0.8708 1.8754
8.4605 1.6374 1.8873
8.3326 2.4004 1.8991
8.1293 3.1511 1.9094
7.8543 3.8826 1.9188
7.5123 4.5894 1.9279
7.1054 5.2651 1.9368
6.6362 5.9033 1.9452
6.1080 6.4981 1.9531
1.1000 1.4023 0.3903
0.9748 1.5015 0.3920
0.8403 1.5885 0.3936
0.6975 1.6626 0.3949
0.5479 1.7227 0.3959
0.3928 1.7682 0.3967
0.2339 1.7986 0.3972
0.0726 1.8135 0.3975
-0.0894 1.8126 0.3975
-0.2506 1.7961 0.3972
-0.4092 1.7641 0.3966
-0.5637 1.7170 0.3958
-0.7127 1.6553 0.3947
-0.8546 1.5799 0.3934
-0.9882 1.4915 0.3918
-5.6192 7.0280 1.9706
-6.1963 6.4703 1.9620
-6.7163 5.8636 1.9526
-7.1753 5.2142 1.9425
-7.5701 4.5285 1.9319
-7.8982 3.8132 1.9208
-8.1579 3.0752 1.9093
-8.1952 2.2785 1.8628
-8.2004 1.5081 1.8260
-8.2029 0.7615 1.8042
-8.2027 0.0267 1.7964
-8.1997 -0.7074 1.8024
-3.2073 -0.5683 0.7134
-3.1302 -0.8484 0.7103
-3.1255 -1.1550 0.7297
-3.1261 -1.4843 0.7579
-3.1267 -1.8429 0.7948
-6.5945 -4.7269 1.7769
-6.1136 -5.2677 1.7674
-1.1001 -1.1339 0.3460
-0.9902 -1.2220 0.3444
-0.8737 -1.3003 0.3431
-0.7517 -1.3683 0.3419
-0.6248 -1.4257 0.3409
-0.4940 -1.4722 0.3401
-0.3601 -1.5077 0.3395
-0.2239 -1.5319 0.3391
-0.0863 -1.5448 0.3388
0.0518 -1.5462 0.3388
0.1896 -1.5362 0.3390
0.3262 -1.5149 0.3394
0.4608 -1.4822 0.3399
0.5925 -1.4385 0.3407
0.7205 -1.3838 0.3417
0.8438 -1.3184 0.3428
0.9618 -1.2427 0.3441
1.0734 -1.1570 0.3456
5.9874 -5.3964 1.7653
6.4791 -4.8666 1.7746
6.9266 -4.2937 1.7848
7.3262 -3.6810 1.7956
7.6740 -3.0322 1.8071
7.9666 -2.3512 1.8191
8.2006 -1.6426 1.8316
8.3731 -0.9110 1.8446
8.4815 -0.1617 1.8578
8.5230 0.5997 1.8712
8.4891 1.3661 1.8831
8.3859 2.1311 1.8949
8.2104 2.8874 1.9061
7.9594 3.6261 1.9155
7.6409 4.3423 1.9247
7.2567 5.0298 1.9337
6.8092 5.6820 1.9422
6.3015 6.2928 1.9503
5.7373 6.8563 1.9579
1.0203 1.4677 0.3915
0.8889 1.5591 0.3931
0.7489 1.6379 0.3944
0.6016 1.7030 0.3956
0.4483 1.7538 0.3964
0.2905 1.7896 0.3971
0.1299 1.8100 0.3974
-0.0321 1.8147 0.3975
-0.1937 1.8037 0.3973
-0.3534 1.7772 0.3968
-0.5096 1.7354 0.3961
-0.6606 1.6788 0.3951
-0.8052 1.6081 0.3939
-0.9419 1.5242 0.3924
-1.0695 1.4280 0.3907
-5.9982 6.6737 1.9651
-6.5389 6.0836 1.9560
-7.0200 5.4486 1.9461
-7.4378 4.7750 1.9357
-7.7897 4.0695 1.9247
-8.0738 3.3387 1.9134
-8.1926 2.5595 1.8797
-8.1989 1.7775 1.8373
-8.2023 1.0239 1.8103
-8.2031 0.2862 1.7976
-8.2011 -0.4468 1.7987
-8.1965 -1.1863 1.8138
-3.1603 -0.7501 0.7113
-3.1253 -1.0439 0.7216
-3.1259 -1.3648 0.7470
-3.1265 -1.7119 0.7806
-6.7542 -4.5250 1.7805
-6.2888 -5.0812 1.7707
-5.7809 -5.5932 1.7616
-1.0299 -1.1919 0.3450
-0.9157 -1.2737 0.3435
-0.7955 -1.3454 0.3423
-0.6702 -1.4066 0.3412
-0.5407 -1.4570 0.3404
-0.4078 -1.4964 0.3397
-0.2723 -1.5246 0.3392
-0.1351 -1.5415 0.3389
0.0029 -1.5470 0.3388
0.1409 -1.5411 0.3389
0.2780 -1.5237 0.3392
0.4134 -1.4951 0.3397
0.5463 -1.4552 0.3404
0.6756 -1.4044 0.3413
0.8007 -1.3428 0.3424
0.9207 -1.2706 0.3436
1.0346 -1.1884 0.3451
5.8035 -5.5732 1.7621
6.3098 -5.0593 1.7712
6.7734 -4.5013 1.7811
7.1904 -3.9023 1.7917
7.5570 -3.2658 1.8029
7.8695 -2.5958 1.8148
8.1246 -1.8964 1.8271
8.3193 -1.1723 1.8399
8.4506 -0.4287 1.8531
8.5163 0.3290 1.8665
8.5089 1.0945 1.8788
8.4304 1.8608 1.8907
8.2821 2.6215 1.9025
8.0561 3.3667 1.9122
7.7613 4.0917 1.9215
7.4002 4.7901 1.9305
6.9748 5.4555 1.9393
6.4880 6.0816 1.9475
5.9433 6.6625 1.9553
1.0645 1.4324 0.3908
0.9365 1.5282 0.3925
0.7994 1.6115 0.3940
0.6545 1.6816 0.3952
0.5032 1.7375 0.3962
0.3468 1.7787 0.3969
0.1870 1.8046 0.3973
0.0253 1.8148 0.3975
-0.1366 1.8094 0.3974
-0.2972 1.7883 0.3970
-0.4548 1.7519 0.3964
-0.6078 1.7005 0.3955
-0.7549 1.6347 0.3943
-0.8945 1.5554 0.3929
-1.0254 1.4634 0.3913
-5.7932 6.8707 1.9682
-6.3541 6.2981 1.9593
-6.8567 5.6782 1.9497
-7.2972 5.0175 1.9395
-7.6728 4.3225 1.9287
-7.9811 3.6000 1.9175
-8.1897 2.8458 1.8988
-8.1970 2.0505 1.8505
-8.2014 1.2883 1.8182
-8.2032 0.5464 1.8005
-8.2021 -0.1871 1.7967
-8.1984 -0.9230 1.8068
-3.1874 -0.6508 0.7124
-3.1252 -0.9351 0.7144
-3.1257 -1.2486 0.7371
-3.1262 -1.5855 0.7677
-3.1269 -1.9545 0.8076
-6.4587 -4.8892 1.7740
-5.9654 -5.4171 1.7647
-1.0687 -1.1606 0.3455
-0.9568 -1.2459 0.3440
-0.8387 -1.3212 0.3427
-0.7151 -1.3861 0.3416
-0.5870 -1.4404 0.3406
-0.4552 -1.4837 0.3399
-0.3205 -1.5159 0.3393
-0.1839 -1.5368 0.3390
-0.0460 -1.5464 0.3388
0.0921 -1.5445 0.3388
0.2296 -1.5312 0.3391
0.3657 -1.5065 0.3395
0.4996 -1.4706 0.3401
0.6303 -1.4236 0.3410
0.7570 -1.3658 0.3420
0.8788 -1.2974 0.3432
0.9950 -1.2187 0.3446
5.6147 -5.7440 1.7591
6.1352 -5.2464 1.7679
6.6144 -4.7038 1.7775
7.0483 -4.1189 1.7879
7.4332 -3.4953 1.7989
7.7652 -2.8366 1.8105
8.0410 -2.1471 1.8227
8.2574 -1.4312 1.8354
8.4115 -0.6940 1.8484
8.5006 0.0595 1.8617
8.5202 0.8231 1.8746
8.4661 1.5897 1.8865
8.3426 2.3531 1.8984
8.1442 3.1049 1.9088
7.8734 3.8377 1.9182
7.5355 4.5462 1.9274
7.1326 5.2240 1.9362
6.6672 5.8648 1.9447
6.1426 6.4624 1.9526
5.5627 7.0110 1.9600
0.9829 1.4956 0.3919
0.8489 1.5835 0.3935
0.7066 1.6584 0.3948
0.5574 1.7194 0.3958
0.4026 1.7658 0.3966
0.2439 1.7972 0.3972
0.0827 1.8130 0.3975
-0.0794 1.8131 0.3975
-0.2406 1.7976 0.3972
-0.3994 1.7665 0.3966
-0.5542 1.7203 0.3958
-0.7036 1.6596 0.3948
-0.8460 1.5850 0.3935
-0.9801 1.4973 0.3919
-5.5814 7.0610 1.9711
-6.1619 6.5065 1.9625
-6.6856 5.9027 1.9532
-7.1485 5.2558 1.9431
-7.5474 4.5722 1.9325
-7.8797 3.8586 1.9215
-8.1438 3.1217 1.9101
-8.1948 2.3276 1.8657
-8.2002 1.5553 1.8279
-8.2029 0.8075 1.8051
-8.2028 0.0724 1.7965
-8.2000 -0.6614 1.8017
-3.2503 -0.5572 0.7222
-3.1357 -0.8312 0.7105
-3.1255 -1.1353 0.7282
-3.1260 -1.4630 0.7559
-3.1266 -1.8195 0.7922
-6.6230 -4.6917 1.7775
-6.1449 -5.2353 1.7679
-1.1067 -1.1280 0.3461
-0.9972 -1.2168 0.3445
-0.8812 -1.2957 0.3432
-0.7594 -1.3644 0.3420
-0.6328 -1.4224 0.3410
-0.5023 -1.4697 0.3401
-0.3685 -1.5058 0.3395
-0.2324 -1.5307 0.3391
-0.0949 -1.5443 0.3388
0.0432 -1.5464 0.3388
0.1811 -1.5372 0.3390
0.3178 -1.5165 0.3393
0.4525 -1.4846 0.3399
0.5844 -1.4415 0.3407
0.7126 -1.3875 0.3416
0.8363 -1.3228 0.3427
0.9546 -1.2477 0.3440
1.0667 -1.1626 0.3455
5.9554 -5.4279 1.7647
6.4497 -4.9009 1.7740
6.9001 -4.3306 1.7841
7.3027 -3.7203 1.7949
7.6539 -3.0736 1.8063
7.9500 -2.3945 1.8183
8.1878 -1.6875 1.8308
8.3642 -0.9572 1.8437
8.4766 -0.2088 1.8570
8.5227 0.5520 1.8704
8.4932 1.3183 1.8823
8.3943 2.0836 1.8942
8.2238 2.8408 1.9055
7.9770 3.5806 1.9149
7.6627 4.2985 1.9242
7.2826 4.9879 1.9331
6.8389 5.6425 1.9417
6.3348 6.2561 1.9499
5.7741 6.8227 1.9575
1.0281 1.4616 0.3914
0.8974 1.5538 0.3930
0.7579 1.6334 0.3943
0.6109 1.6994 0.3955
0.4580 1.7511 0.3964
0.3005 1.7878 0.3970
0.1399 1.8092 0.3974
-0.0220 1.8149 0.3975
-0.1837 1.8049 0.3973
-0.3435 1.7793 0.3969
-0.5000 1.7384 0.3961
-0.6514 1.6827 0.3952
-0.7964 1.6129 0.3940
-0.9336 1.5298 0.3925
-1.0618 1.4343 0.3908
-5.9627 6.7088 1.9657
-6.5070 6.1218 1.9566
-6.9918 5.4894 1.9468
-7.4137 4.8180 1.9364
-7.7698 4.1143 1.9254
-8.0582 3.3849 1.9141
-8.1921 2.6094 1.8829
-8.1986 1.8253 1.8395
-8.2022 1.0703 1.8115
-8.2031 0.3320 1.7980
-8.2013 -0.4011 1.7983
-8.1969 -1.1398 1.8124
-3.1653 -0.7327 0.7115
-3.1253 -1.0246 0.7203
-3.1258 -1.3441 0.7452
-3.1264 -1.6894 0.7783
-6.7817 -4.4890 1.7811
-6.3191 -5.0478 1.7712
-5.8137 -5.5626 1.7622
-1.0368 -1.1865 0.3451
-0.9230 -1.2689 0.3436
-0.8032 -1.3412 0.3424
-0.6782 -1.4031 0.3413
-0.5489 -1.4542 0.3404
-0.4162 -1.4943 0.3397
-0.2808 -1.5232 0.3392
-0.1437 -1.5408 0.3389
-0.0057 -1.5470 0.3388
0.1323 -1.5418 0.3389
0.2695 -1.5251 0.3392
0.4051 -1.4972 0.3397
0.5381 -1.4580 0.3404
0.6677 -1.4079 0.3412
0.7931 -1.3469 0.3423
0.9134 -1.2754 0.3436
1.0277 -1.1938 0.3450
5.7706 -5.6037 1.7616
6.2795 -5.0926 1.7706
6.7459 -4.5373 1.7805
7.1659 -3.9408 1.7910
7.5357 -3.3065 1.8022
7.8517 -2.6385 1.8140
8.1105 -1.9408 1.8264
8.3089 -1.2181 1.8391
8.4443 -0.4755 1.8523
8.5141 0.2815 1.8656
8.5115 1.0467 1.8781
8.4373 1.8131 1.8900
8.2934 2.5743 1.9018
8.0722 3.3208 1.9116
7.7817 4.0472 1.9209
7.4246 4.7475 1.9300
7.0031 5.4151 1.9387
6.5200 6.0439 1.9470
5.9789 6.6278 1.9548
1.0722 1.4261 0.3907
0.9447 1.5225 0.3924
0.8082 1.6067 0.3939
0.6637 1.6776 0.3951
0.5127 1.7345 0.3961
0.3567 1.7766 0.3968
0.1970 1.8034 0.3973
0.0354 1.8147 0.3975
-0.1266 1.8102 0.3974
-0.2873 1.7901 0.3971
-0.4451 1.7546 0.3964
-0.5984 1.7041 0.3955
-0.7459 1.6392 0.3944
-0.8860 1.5607 0.3930
-1.0175 1.4695 0.3914
-5.7564 6.9047 1.9687
-6.3208 6.3352 1.9599
-6.8271 5.7181 1.9503
-7.2716 5.0598 1.9401
-7.6513 4.3667 1.9294
-7.9639 3.6457 1.9182
-8.1891 2.8968 1.9023
-8.1966 2.0989 1.8530
-8.2012 1.3351 1.8197
-8.2032 0.5922 1.8012
-8.2022 -0.1414 1.7966
-8.1987 -0.8769 1.8058
-3.1918 -0.6333 0.7126
-3.1251 -0.9161 0.7132
-3.1257 -1.2284 0.7355
-3.1262 -1.5636 0.7655
-3.1268 -1.9304 0.8048
-6.4880 -4.8548 1.7747
-5.9973 -5.3855 1.7653
-1.0755 -1.1549 0.3456
-0.9640 -1.2409 0.3441
-0.8462 -1.3168 0.3428
-0.7230 -1.3824 0.3417
-0.5951 -1.4373 0.3407
-0.4635 -1.4814 0.3399
-0.3290 -1.5142 0.3394
-0.1924 -1.5359 0.3390
-0.0546 -1.5461 0.3388
0.0835 -1.5449 0.3388
0.2211 -1.5323 0.3391
0.3573 -1.5084 0.3395
0.4913 -1.4732 0.3401
0.6222 -1.4269 0.3409
0.7492 -1.3697 0.3419
0.8714 -1.3019 0.3431
0.9880 -1.2239 0.3445
5.5810 -5.7735 1.7586
6.1039 -5.2788 1.7673
6.5858 -4.7388 1.7769
7.0227 -4.1565 1.7872
7.4107 -3.5352 1.7982
7.7461 -2.8786 1.8098
8.0256 -2.1909 1.8219
8.2457 -1.4765 1.8346
8.4037 -0.7404 1.8476
8.4970 0.0121 1.8609
8.5213 0.7753 1.8739
8.4715 1.5419 1.8858
8.3524 2.3057 1.8976
8.1588 3.0586 1.9082
7.8922 3.7927 1.9176
7.5585 4.5029 1.9268
7.1595 5.1828 1.9357
6.6979 5.8261 1.9441
6.1769 6.4265 1.9521
5.6004 6.9783 1.9596
0.9910 1.4897 0.3918
0.8575 1.5784 0.3934
0.7157 1.6541 0.3947
0.5669 1.7160 0.3958
0.4124 1.7634 0.3966
0.2539 1.7957 0.3972
0.0928 1.8125 0.3975
-0.0693 1.8136 0.3975
-0.2306 1.7990 0.3972
-0.3896 1.7689 0.3967
-0.5447 1.7237 0.3959
-0.6944 1.6638 0.3948
-0.8373 1.5900 0.3935
-0.9720 1.5032 0.3920
-5.5435 7.0938 1.9717
-6.1274 6.5426 1.9631
-6.6547 5.9417 1.9538
-7.1215 5.2972 1.9438
-7.5245 4.6157 1.9332
-7.8610 3.9038 1.9222
-8.1293 3.1682 1.9108
-8.1943 2.3768 1.8685
-8.1999 1.6026 1.8298
-8.2028 0.8537 1.8061
-8.2028 0.1180 1.7966
-8.2003 -0.6155 1.8009
-3.3631 -0.5573 0.7466
-3.1412 -0.8139 0.7106
-3.1255 -1.1156 0.7268
-3.1260 -1.4418 0.7539
-3.1266 -1.7963 0.7897
-6.6514 -4.6564 1.7782
-6.1759 -5.2027 1.7685
-5.6588 -5.7041 1.7597
-1.0042 -1.2115 0.3446
-0.8886 -1.2911 0.3432
-0.7672 -1.3604 0.3420
-0.6409 -1.4191 0.3410
-0.5105 -1.4670 0.3402
-0.3769 -1.5039 0.3395
-0.2410 -1.5295 0.3391
-0.1035 -1.5438 0.3389
0.0346 -1.5466 0.3388
0.1725 -1.5381 0.3390
0.3093 -1.5181 0.3393
0.4442 -1.4869 0.3399
0.5763 -1.4445 0.3406
0.7047 -1.3912 0.3415
0.8287 -1.3271 0.3427
0.9474 -1.2527 0.3440
1.0599 -1.1682 0.3454
5.9232 -5.4593 1.7642
6.4201 -4.9351 1.7734
6.8734 -4.3674 1.7835
7.2791 -3.7594 1.7942
7.6336 -3.1149 1.8056
7.9332 -2.4377 1.8176
8.1747 -1.7322 1.8300
8.3551 -1.0033 1.8429
8.4715 -0.2559 1.8561
8.5218 0.5043 1.8696
8.4971 1.2705 1.8816
8.4025 2.0360 1.8934
8.2369 2.7941 1.9049
7.9944 3.5351 1.9143
7.6843 4.2545 1.9236
7.3081 4.9459 1.9326
6.8684 5.6028 1.9412
6.3680 6.2192 1.9494
5.8106 6.7888 1.9570
1.0360 1.4554 0.3912
0.9058 1.5484 0.3929
0.7668 1.6288 0.3943
0.6203 1.6957 0.3954
0.4677 1.7483 0.3963
0.3104 1.7860 0.3970
0.1500 1.8083 0.3974
-0.0119 1.8150 0.3975
-0.1736 1.8060 0.3973
-0.3337 1.7813 0.3969
-0.4903 1.7414 0.3962
-0.6421 1.6866 0.3952
-0.7876 1.6177 0.3940
-0.9253 1.5353 0.3926
-1.0541 1.4406 0.3909
-5.9268 6.7438 1.9662
-6.4747 6.1598 1.9572
-6.9634 5.5300 1.9474
-7.3893 4.8608 1.9370
-7.7495 4.1589 1.9261
-8.0422 3.4310 1.9148
-8.1916 2.6596 1.8862
-8.1983 1.8732 1.8417
-8.2021 1.1167 1.8129
-8.2032 0.3777 1.7984
-8.2015 -0.3553 1.7978
-8.1972 -1.0934 1.8111
-3.1702 -0.7153 0.7117
-3.1253 -1.0053 0.7190
-3.1258 -1.3235 0.7434
-3.1264 -1.6669 0.7759
-6.8090 -4.4528 1.7818
-6.3492 -5.0142 1.7718
-5.8464 -5.5319 1.7627
-1.0436 -1.1810 0.3452
-0.9302 -1.2641 0.3437
-0.8108 -1.3370 0.3424
-0.6861 -1.3996 0.3414
-0.5571 -1.4513 0.3405
-0.4245 -1.4921 0.3397
-0.2893 -1.5217 0.3392
-0.1523 -1.5400 0.3389
-0.0143 -1.5469 0.3388
0.1237 -1.5424 0.3389
0.2610 -1.5265 0.3392
0.3967 -1.4993 0.3396
0.5299 -1.4608 0.3403
0.6597 -1.4113 0.3412
0.7854 -1.3510 0.3422
0.9060 -1.2802 0.3435
1.0208 -1.1992 0.3449
1.0508 -1.1200 0.3463
5.8553 -5.2185 1.7684
6.3300 -4.6998 1.7776
6.7614 -4.1394 1.7875
7.1458 -3.5407 1.7981
7.4794 -2.9073 1.8093
7.7589 -2.2431 1.8210
7.9812 -1.5524 1.8332
8.1434 -0.8402 1.8458
8.2430 -0.1113 1.8587
8.2772 0.6287 1.8716
8.2386 1.3728 1.8832
8.1327 2.1150 1.8947
7.9583 2.8486 1.9058
7.7094 3.5641 1.9150
7.3951 4.2573 1.9239
7.0174 4.9219 1.9326
6.5785 5.5518 1.9408
6.0815 6.1411 1.9487
5.5302 6.6840 1.9560
0.9814 1.4286 0.3908
0.8534 1.5163 0.3923
0.7171 1.5917 0.3936
0.5739 1.6539 0.3947
0.4250 1.7020 0.3955
0.2719 1.7357 0.3961
0.1161 1.7545 0.3964
-0.0409 1.7581 0.3965
-0.1974 1.7466 0.3963
-0.3520 1.7200 0.3958
-0.5031 1.6786 0.3951
-0.6492 1.6230 0.3941
-0.7889 1.5539 0.3929
-0.9210 1.4719 0.3915
-1.0442 1.3781 0.3898
-5.8514 6.4378 1.9615
-6.3731 5.8635 1.9526
-6.8370 5.2459 1.9430
-7.2396 4.5911 1.9328
-7.5783 3.9055 1.9222
-7.8512 3.1956 1.9112
-8.0571 2.4680 1.8999
-8.1896 1.7278 1.8871
-8.1930 0.9765 1.8603
-8.1936 0.2402 1.8482
-8.1914 -0.4920 1.8502
-3.7087 -0.5579 0.8456
-3.1249 -0.7601 0.7251
-3.1254 -1.0633 0.7443
-3.1259 -1.3856 0.7709
-3.1265 -1.7347 0.8062
-6.5418 -4.4357 1.7821
-6.0874 -4.9747 1.7725
-1.1001 -1.0763 0.3470
-0.9952 -1.1649 0.3454
-0.8838 -1.2440 0.3441
-0.7667 -1.3133 0.3429
-0.6445 -1.3723 0.3418
-0.5183 -1.4208 0.3410
-0.3888 -1.4585 0.3403
-0.2568 -1.4854 0.3399
-0.1232 -1.5011 0.3396
0.0112 -1.5058 0.3395
0.1455 -1.4993 0.3396
0.2789 -1.4817 0.3399
0.4105 -1.4531 0.3404
0.5396 -1.4135 0.3411
0.6652 -1.3633 0.3420
0.7866 -1.3026 0.3431
0.9029 -1.2317 0.3443
1.0133 -1.1509 0.3457
5.6775 -5.3917 1.7653
6.1667 -4.8884 1.7742
6.6139 -4.3424 1.7839
7.0153 -3.7569 1.7943
7.3673 -3.1353 1.8052
7.6663 -2.4815 1.8168
7.9092 -1.7997 1.8289
8.0930 -1.0946 1.8413
8.2150 -0.3709 1.8541
8.2730 0.3658 1.8671
8.2599 1.1092 1.8791
8.1779 1.8528 1.8906
8.0284 2.5904 1.9020
7.8051 3.3130 1.9118
7.5138 4.0148 1.9208
7.1583 4.6902 1.9295
6.7407 5.3331 1.9380
6.2639 5.9375 1.9460
5.7314 6.4974 1.9535
1.0245 1.3947 0.3902
0.8997 1.4866 0.3918
0.7662 1.5665 0.3932
0.6253 1.6334 0.3943
0.4782 1.6866 0.3953
0.3265 1.7255 0.3959
0.1714 1.7496 0.3964
0.0147 1.7586 0.3965
-0.1421 1.7524 0.3964
-0.2976 1.7311 0.3960
-0.4501 1.6949 0.3954
-0.5981 1.6443 0.3945
-0.7402 1.5799 0.3934
-0.8752 1.5024 0.3920
-1.0017 1.4127 0.3904
-5.6534 6.6297 1.9645
-6.1948 6.0721 1.9558
-6.6796 5.4692 1.9465
-7.1042 4.8268 1.9365
-7.4658 4.1514 1.9260
-7.7622 3.4493 1.9151
-7.9919 2.7273 1.9039
-8.1541 1.9916 1.8925
-8.1921 1.2402 1.8681
-8.1937 0.4999 1.8509
-8.1925 -0.2325 1.8479
-8.1196 -0.9599 1.8435
-3.1247 -0.6562 0.7199
-3.1252 -0.9541 0.7367
-3.1257 -1.2688 0.7606
-3.1263 -1.6074 0.7926
-6.6921 -4.2350 1.7856
-6.2533 -4.7886 1.7758
-5.7717 -5.3002 1.7668
-1.0332 -1.1345 0.3460
-0.9240 -1.2171 0.3445
-0.8088 -1.2899 0.3433
-0.6883 -1.3526 0.3422
-0.5634 -1.4048 0.3413
-0.4350 -1.4464 0.3405
-0.3037 -1.4771 0.3400
-0.1706 -1.4968 0.3397
-0.0364 -1.5054 0.3395
0.0980 -1.5029 0.3396
0.2318 -1.4892 0.3398
0.3642 -1.4645 0.3402
0.4943 -1.4288 0.3409
0.6212 -1.3823 0.3417
0.7442 -1.3253 0.3427
0.8624 -1.2579 0.3439
0.9749 -1.1806 0.3452
5.4949 -5.5592 1.7624
5.9980 -5.0716 1.7710
6.4606 -4.5404 1.7804
6.8786 -3.9685 1.7905
7.2485 -3.3593 1.8013
7.5667 -2.7165 1.8126
7.8298 -2.0441 1.8245
8.0348 -1.3466 1.8369
8.1790 -0.6289 1.8495
8.2599 0.1038 1.8625
8.2729 0.8457 1.8750
8.2147 1.5899 1.8865
8.0891 2.3303 1.8980
7.8925 3.0593 1.9085
7.6244 3.7690 1.9176
7.2914 4.4544 1.9265
6.8955 5.1096 1.9350
6.4393 5.7283 1.9432
5.9261 6.3046 1.9509
1.0664 1.3595 0.3896
0.9449 1.4554 0.3912
0.8144 1.5396 0.3927
0.6760 1.6112 0.3940
0.5309 1.6694 0.3950
0.3807 1.7134 0.3957
0.2266 1.7428 0.3962
0.0703 1.7571 0.3965
-0.0867 1.7563 0.3965
-0.2428 1.7403 0.3962
-0.3965 1.7094 0.3956
-0.5463 1.6638 0.3948
-0.6907 1.6042 0.3938
-0.8283 1.5313 0.3925
-0.9579 1.4458 0.3910
-1.0783 1.3487 0.3893
-6.0094 6.2751 1.9590
-6.5146 5.6875 1.9498
-6.9609 5.0584 1.9401
-7.3451 4.3939 1.9298
-7.6648 3.7006 1.9190
-7.9182 2.9848 1.9079
-8.1044 2.2532 1.8966
-8.1908 1.5063 1.8777
-8.1935 0.7606 1.8553
-8.1932 0.0267 1.8473
-8.1659 -0.7044 1.8480
-3.1458 -0.5574 0.7203
-3.1250 -0.8470 0.7300
-3.1255 -1.1550 0.7513
-3.1261 -1.4843 0.7802
-3.1267 -1.8429 0.8183
-6.4137 -4.5973 1.7792
-5.9469 -5.1240 1.7699
-1.0702 -1.1031 0.3465
-0.9634 -1.1890 0.3450
-0.8502 -1.2653 0.3437
-0.7315 -1.3315 0.3425
-0.6081 -1.3875 0.3416
-0.4808 -1.4329 0.3408
-0.3505 -1.4675 0.3402
-0.2179 -1.4911 0.3398
-0.0840 -1.5036 0.3396
0.0504 -1.5051 0.3395
0.1846 -1.4953 0.3397
0.3175 -1.4745 0.3401
0.4485 -1.4427 0.3406
0.5767 -1.4000 0.3414
0.7011 -1.3467 0.3423
0.8211 -1.2829 0.3434
0.9358 -1.2091 0.3447
1.0443 -1.1256 0.3462
5.8243 -5.2494 1.7679
6.3017 -4.7333 1.7770
6.7359 -4.1755 1.7869
7.1233 -3.5791 1.7974
7.4601 -2.9477 1.8086
7.7431 -2.2853 1.8203
7.9691 -1.5962 1.8325
8.1351 -0.8851 1.8450
8.2386 -0.1571 1.8579
8.2774 0.5824 1.8709
8.2430 1.3265 1.8824
8.1413 2.0689 1.8939
7.9716 2.8034 1.9053
7.7268 3.5201 1.9144
7.4166 4.2149 1.9234
7.0427 4.8814 1.9320
6.6076 5.5137 1.9403
6.1141 6.1057 1.9482
5.5661 6.6516 1.9555
0.9890 1.4227 0.3907
0.8616 1.5112 0.3922
0.7258 1.5874 0.3935
0.5830 1.6504 0.3946
0.4344 1.6995 0.3955
0.2815 1.7341 0.3961
0.1258 1.7538 0.3964
-0.0311 1.7583 0.3965
-0.1877 1.7477 0.3963
-0.3424 1.7220 0.3959
-0.4938 1.6816 0.3952
-0.6402 1.6269 0.3942
-0.7804 1.5586 0.3930
-0.9130 1.4774 0.3916
-1.0368 1.3843 0.3900
-5.8170 6.4720 1.9620
-6.3423 5.9007 1.9532
-6.8099 5.2855 1.9436
-7.2163 4.6329 1.9335
-7.5591 3.9490 1.9229
-7.8361 3.2404 1.9119
-8.0462 2.5137 1.9006
-8.1887 1.7753 1.8892
-8.1929 1.0227 1.8616
-8.1936 0.2859 1.8485
-8.1916 -0.4463 1.8497
-8.0756 -1.1688 1.8398
-3.1248 -0.7417 0.7241
-3.1253 -1.0439 0.7429
-3.1259 -1.3648 0.7690
-3.1265 -1.7119 0.8037
-6.5687 -4.4007 1.7827
-6.1170 -4.9424 1.7731
-1.1064 -1.0704 0.3471
-1.0020 -1.1596 0.3455
-0.8910 -1.2394 0.3441
-0.7741 -1.3092 0.3429
-0.6523 -1.3689 0.3419
-0.5263 -1.4181 0.3410
-0.3969 -1.4565 0.3404
-0.2651 -1.4840 0.3399
-0.1315 -1.5005 0.3396
0.0028 -1.5058 0.3395
0.1372 -1.5000 0.3396
0.2706 -1.4831 0.3399
0.4024 -1.4552 0.3404
0.5317 -1.4163 0.3411
0.6575 -1.3667 0.3420
0.7792 -1.3066 0.3430
0.8958 -1.2364 0.3442
1.0066 -1.1562 0.3456
5.6457 -5.4216 1.7648
6.1374 -4.9210 1.7737
6.5873 -4.3776 1.7833
6.9917 -3.7945 1.7936
7.3468 -3.1750 1.8045
7.6493 -2.5232 1.8161
7.8958 -1.8429 1.8281
8.0833 -1.1391 1.8405
8.2093 -0.4165 1.8533
8.2713 0.3196 1.8663
8.2628 1.0628 1.8783
8.1850 1.8066 1.8899
8.0397 2.5447 1.9013
7.8211 3.2685 1.9112
7.5339 3.9717 1.9202
7.1822 4.6490 1.9290
6.7685 5.2941 1.9375
6.2953 5.9010 1.9455
5.7661 6.4639 1.9530
1.0319 1.3886 0.3901
0.9077 1.4812 0.3917
0.7748 1.5619 0.3931
0.6343 1.6296 0.3943
0.4876 1.6837 0.3952
0.3360 1.7235 0.3959
0.1812 1.7485 0.3963
0.0245 1.7584 0.3965
-0.1324 1.7532 0.3964
-0.2880 1.7328 0.3961
-0.4407 1.6976 0.3954
-0.5890 1.6479 0.3946
-0.7316 1.5843 0.3935
-0.8670 1.5076 0.3921
-0.9940 1.4186 0.3906
-5.6179 6.6628 1.9650
-6.1627 6.1083 1.9564
-6.6511 5.5080 1.9471
-7.0796 4.8679 1.9371
-7.4451 4.1943 1.9267
-7.7456 3.4938 1.9158
-7.9795 2.7727 1.9046
-8.1460 2.0377 1.8932
-8.1919 1.2868 1.8697
-8.1937 0.5457 1.8515
-8.1926 -0.1868 1.8477
-8.1283 -0.9151 1.8443
-3.1247 -0.6380 0.7191
-3.1252 -0.9351 0.7355
-3.1257 -1.2486 0.7589
-3.1263 -1.5855 0.7903
-3.1269 -1.9545 0.8314
-6.2819 -4.7553 1.7764
-5.8029 -5.2696 1.7673
-1.0397 -1.1291 0.3461
-0.9310 -1.2122 0.3446
-0.8161 -1.2856 0.3433
-0.6959 -1.3490 0.3422
-0.5713 -1.4019 0.3413
-0.4431 -1.4441 0.3406
-0.3120 -1.4755 0.3400
-0.1790 -1.4959 0.3397
-0.0448 -1.5052 0.3395
0.0896 -1.5034 0.3396
0.2235 -1.4904 0.3398
0.3560 -1.4663 0.3402
0.4862 -1.4313 0.3408
0.6134 -1.3855 0.3416
0.7367 -1.3291 0.3426
0.8552 -1.2624 0.3438
0.9681 -1.1857 0.3451
1.0747 -1.0994 0.3466
5.9678 -5.1033 1.7704
6.4330 -4.5747 1.7798
6.8539 -4.0053 1.7899
7.2269 -3.3983 1.8006
7.5484 -2.7574 1.8119
7.8151 -2.0868 1.8238
8.0238 -1.3907 1.8361
8.1718 -0.6742 1.8487
8.2568 0.0578 1.8617
8.2743 0.7993 1.8743
8.2203 1.5435 1.8858
8.0989 2.2844 1.8973
7.9070 3.0145 1.9079
7.6430 3.7254 1.9171
7.3140 4.4125 1.9259
6.9220 5.0697 1.9345
6.4695 5.6909 1.9427
5.9597 6.2700 1.9504
1.0736 1.3532 0.3895
0.9528 1.4498 0.3911
0.8228 1.5347 0.3926
0.6848 1.6072 0.3939
0.5401 1.6662 0.3949
0.3902 1.7111 0.3957
0.2363 1.7414 0.3962
0.0801 1.7567 0.3965
-0.0769 1.7568 0.3965
-0.2331 1.7418 0.3962
-0.3870 1.7117 0.3957
-0.5371 1.6671 0.3949
-0.6819 1.6084 0.3939
-0.8199 1.5362 0.3926
-0.9501 1.4514 0.3911
-1.0711 1.3551 0.3894
-5.9760 6.3102 1.9595
-6.4848 5.7254 1.9504
-6.9349 5.0987 1.9407
-7.3230 4.4363 1.9304
-7.6468 3.7445 1.9197
-7.9044 3.0300 1.9086
-8.0948 2.2992 1.8973
-8.1906 1.5535 1.8796
-8.1934 0.8066 1.8563
-8.1933 0.0723 1.8474
-8.1732 -0.6592 1.8488
-3.2517 -0.5575 0.7438
-3.1250 -0.8283 0.7289
-3.1255 -1.1353 0.7497
-3.1261 -1.4630 0.7782
-3.1267 -1.8195 0.8156
-6.4414 -4.5630 1.7798
-5.9772 -5.0925 1.7705
-1.0766 -1.0974 0.3466
-0.9702 -1.1839 0.3451
-0.8574 -1.2608 0.3438
-0.7390 -1.3277 0.3426
-0.6159 -1.3843 0.3416
-0.4888 -1.4304 0.3408
-0.3587 -1.4657 0.3402
-0.2262 -1.4900 0.3398
-0.0924 -1.5032 0.3396
0.0421 -1.5053 0.3395
0.1762 -1.4963 0.3397
0.3093 -1.4761 0.3400
0.4404 -1.4450 0.3406
0.5688 -1.4030 0.3413
0.6935 -1.3503 0.3422
0.8138 -1.2872 0.3434
0.9288 -1.2140 0.3446
1.0377 -1.1311 0.3461
5.7932 -5.2801 1.7673
6.2731 -4.7668 1.7764
6.7102 -4.2114 1.7862
7.1006 -3.6173 1.7967
7.4407 -2.9880 1.8078
7.7271 -2.3274 1.8195
7.9567 -1.6398 1.8317
8.1265 -0.9300 1.8442
8.2341 -0.2028 1.8571
8.2771 0.5361 1.8701
8.2471 1.2801 1.8817
8.1496 2.0228 1.8932
7.9845 2.7581 1.9046
7.7440 3.4760 1.9138
7.4378 4.1723 1.9228
7.0679 4.8408 1.9315
6.6364 5.4754 1.9398
6.1465 6.0701 1.9477
5.6017 6.6191 1.9551
0.9967 1.4168 0.3906
0.8698 1.5060 0.3921
0.7345 1.5830 0.3935
0.5921 1.6468 0.3946
0.4438 1.6968 0.3954
0.2911 1.7323 0.3961
0.1356 1.7530 0.3964
-0.0213 1.7585 0.3965
-0.1780 1.7488 0.3963
-0.3329 1.7241 0.3959
-0.4845 1.6846 0.3952
-0.6313 1.6307 0.3943
-0.7719 1.5632 0.3931
-0.9050 1.4828 0.3917
-1.0294 1.3904 0.3901
-5.7824 6.5060 1.9625
-6.3112 5.9376 1.9537
-6.7825 5.3250 1.9442
-7.1928 4.6745 1.9341
-7.5396 3.9924 1.9236
-7.8208 3.2852 1.9126
-8.0351 2.5594 1.9013
-8.1818 1.8216 1.8899
-8.1927 1.0691 1.8628
-8.1937 0.3316 1.8489
-8.1918 -0.4006 1.8492
-8.0855 -1.1243 1.8406
-3.1248 -0.7234 0.7232
-3.1253 -1.0246 0.7416
-3.1259 -1.3441 0.7672
-3.1264 -1.6894 0.8012
-6.5954 -4.3656 1.7833
-6.1464 -4.9099 1.7737
-5.6556 -5.4113 1.7648
-1.0087 -1.1543 0.3456
-0.8981 -1.2347 0.3442
-0.7816 -1.3052 0.3430
-0.6600 -1.3655 0.3420
-0.5342 -1.4153 0.3411
-0.4051 -1.4544 0.3404
-0.2733 -1.4826 0.3399
-0.1399 -1.4998 0.3396
-0.0056 -1.5058 0.3395
0.1288 -1.5007 0.3396
0.2624 -1.4845 0.3399
0.3943 -1.4573 0.3404
0.5237 -1.4191 0.3410
0.6498 -1.3701 0.3419
0.7718 -1.3107 0.3429
0.8887 -1.2410 0.3442
0.9999 -1.1615 0.3456
5.6138 -5.4513 1.7643
6.1079 -4.9535 1.7731
6.5606 -4.4127 1.7827
6.9679 -3.8319 1.7929
7.3262 -3.2146 1.8038
7.6320 -2.5646 1.8153
7.8821 -1.8861 1.8273
8.0734 -1.1836 1.8397
8.2032 -0.4620 1.8525
8.2694 0.2734 1.8655
8.2654 1.0165 1.8776
8.1918 1.7603 1.8892
8.0507 2.4990 1.9006
7.8368 3.2239 1.9106
7.5536 3.9286 1.9197
7.2060 4.6077 1.9285
6.7960 5.2550 1.9369
6.3265 5.8645 1.9450
5.8007 6.4302 1.9526
1.0394 1.3825 0.3900
0.9157 1.4758 0.3916
0.7833 1.5572 0.3930
0.6432 1.6258 0.3942
0.4969 1.6808 0.3952
0.3456 1.7214 0.3959
0.1909 1.7474 0.3963
0.0343 1.7583 0.3965
-0.1226 1.7540 0.3964
-0.2783 1.7345 0.3961
-0.4313 1.7002 0.3955
-0.5799 1.6514 0.3946
-0.7229 1.5887 0.3935
-0.8588 1.5127 0.3922
-0.9864 1.4245 0.3907
-5.5822 6.6957 1.9655
-6.1303 6.1443 1.9569
-6.6224 5.5466 1.9477
-7.0547 4.9088 1.9378
-7.4242 4.2371 1.9274
-7.7288 3.5381 1.9165
-7.9669 2.8181 1.9053
-8.1376 2.0838 1.8940
-8.1917 1.3335 1.8713
-8.1937 0.5915 1.8522
-8.1928 -0.1412 1.8475
-8.1368 -0.8702 1.8450
-3.1247 -0.6199 0.7182
-3.1251 -0.9161 0.7343
-3.1257 -1.2284 0.7572
-3.1262 -1.5636 0.7881
-3.1268 -1.9304 0.8285
-6.3104 -4.7219 1.7770
-5.8339 -5.2388 1.7679
-1.0463 -1.1236 0.3462
-0.9379 -1.2073 0.3447
-0.8234 -1.2814 0.3434
-0.7036 -1.3453 0.3423
-0.5792 -1.3989 0.3414
-0.4511 -1.4418 0.3406
-0.3202 -1.4739 0.3401
-0.1873 -1.4950 0.3397
-0.0532 -1.5050 0.3395
0.0813 -1.5038 0.3396
0.2152 -1.4915 0.3398
0.3478 -1.4682 0.3402
0.4782 -1.4338 0.3408
0.6056 -1.3887 0.3416
0.7291 -1.3329 0.3426
0.8479 -1.2669 0.3437
0.9612 -1.1908 0.3450
1.0682 -1.1051 0.3465
5.9375 -5.1349 1.7699
6.4052 -4.6089 1.7792
6.8291 -4.0419 1.7892
7.2051 -3.4371 1.7999
7.5300 -2.7983 1.8112
7.8001 -2.1293 1.8230
8.0125 -1.4348 1.8353
8.1644 -0.7193 1.8479
8.2534 0.0118 1.8609
8.2754 0.7529 1.8735
8.2256 1.4972 1.8851
8.1084 2.2384 1.8966
7.9213 2.9695 1.9074
7.6614 3.6817 1.9165
7.3364 4.3705 1.9254
6.9482 5.0298 1.9340
6.4994 5.6533 1.9422
5.9931 6.2352 1.9499
1.0808 1.3468 0.3893
0.9606 1.4441 0.3910
0.8311 1.5298 0.3925
0.6936 1.6030 0.3938
0.5493 1.6629 0.3949
0.3996 1.7087 0.3957
0.2460 1.7399 0.3962
0.0899 1.7562 0.3965
-0.0671 1.7572 0.3965
-0.2234 1.7431 0.3962
-0.3775 1.7141 0.3957
-0.5279 1.6703 0.3950
-0.6730 1.6124 0.3939
-0.8116 1.5411 0.3927
-0.9422 1.4571 0.3912
-1.0639 1.3614 0.3896
-5.9424 6.3451 1.9600
-6.4548 5.7632 1.9510
-6.9086 5.1389 1.9413
-7.3007 4.4785 1.9311
-7.6285 3.7883 1.9204
-7.8903 3.0750 1.9093
-8.0849 2.3451 1.8980
-8.1903 1.6007 1.8816
-8.1933 0.8527 1.8573
-8.1934 0.1179 1.8475
-8.1803 -0.6140 1.8496
-3.3645 -0.5576 0.7689
-3.1250 -0.8097 0.7278
-3.1255 -1.1156 0.7482
-3.1260 -1.4418 0.7762
-3.1266 -1.7963 0.8130
-6.4689 -4.5287 1.7804
-6.0074 -5.0607 1.7710
-1.0830 -1.0917 0.3467
-0.9771 -1.1788 0.3452
-0.8646 -1.2563 0.3439
-0.7466 -1.3239 0.3427
-0.6237 -1.3811 0.3417
-0.4969 -1.4278 0.3409
-0.3669 -1.4638 0.3402
-0.2345 -1.4888 0.3398
-0.1008 -1.5027 0.3396
0.0337 -1.5055 0.3395
0.1679 -1.4971 0.3397
0.3010 -1.4777 0.3400
0.4323 -1.4472 0.3406
0.5609 -1.4059 0.3413
0.6859 -1.3539 0.3422
0.8064 -1.2914 0.3433
0.9218 -1.2188 0.3446
1.0311 -1.1365 0.3460
5.7620 -5.3107 1.7668
6.2444 -4.8000 1.7758
6.6843 -4.2472 1.7856
7.0777 -3.6554 1.7960
7.4210 -3.0281 1.8071
7.7109 -2.3694 1.8188
7.9441 -1.6834 1.8309
8.1177 -0.9748 1.8434
8.2292 -0.2486 1.8563
8.2764 0.4898 1.8693
8.2509 1.2337 1.8810
8.1576 1.9767 1.8925
7.9967 2.7126 1.9039
7.7609 3.4319 1.9133
7.4588 4.1297 1.9223
7.0927 4.8001 1.9310
6.6651 5.4370 1.9393
6.1787 6.0343 1.9472
5.6372 6.5863 1.9547
1.0043 1.4109 0.3905
0.8779 1.5008 0.3920
0.7431 1.5786 0.3934
0.6011 1.6433 0.3945
0.4532 1.6941 0.3954
0.3007 1.7306 0.3960
0.1453 1.7521 0.3964
-0.0115 1.7586 0.3965
-0.1683 1.7499 0.3964
-0.3233 1.7261 0.3959
-0.4752 1.6874 0.3953
-0.6223 1.6345 0.3943
-0.7633 1.5678 0.3932
-0.8969 1.4882 0.3918
-1.0219 1.3965 0.3902
-5.7477 6.5399 1.9631
-6.2799 5.9744 1.9543
-6.7548 5.3644 1.9448
-7.1691 4.7160 1.9348
-7.5199 4.0357 1.9242
-7.8052 3.3299 1.9133
-8.0237 2.6051 1.9020
-8.1746 1.8678 1.8906
-8.1926 1.1154 1.8642
-8.1937 0.3773 1.8494
-8.1920 -0.3549 1.8488
-8.0951 -1.0798 1.8413
-3.1248 -0.7050 0.7222
-3.1253 -1.0053 0.7402
-3.1258 -1.3235 0.7653
-3.1264 -1.6669 0.7988
-6.6219 -4.3304 1.7839
-6.1757 -4.8771 1.7743
-5.6874 -5.3814 1.7654
-1.0154 -1.1490 0.3457
-0.9051 -1.2300 0.3443
-0.7890 -1.3011 0.3431
-0.6677 -1.3620 0.3420
-0.5422 -1.4125 0.3411
-0.4132 -1.4523 0.3404
-0.2816 -1.4812 0.3399
-0.1482 -1.4990 0.3396
-0.0140 -1.5058 0.3395
0.1204 -1.5014 0.3396
0.2541 -1.4858 0.3399
0.3861 -1.4593 0.3403
0.5157 -1.4218 0.3410
0.6420 -1.3735 0.3418
0.7643 -1.3147 0.3429
0.8816 -1.2457 0.3441
0.9932 -1.1667 0.3455
1.0230 -1.0904 0.3468
5.6995 -5.0797 1.7709
6.1608 -4.5741 1.7798
6.5797 -4.0281 1.7895
6.9526 -3.4450 1.7998
7.2759 -2.8282 1.8107
7.5465 -2.1817 1.8221
7.7613 -1.5097 1.8340
7.9176 -0.8169 1.8462
8.0128 -0.1082 1.8587
8.0447 0.6110 1.8713
8.0058 1.3340 1.8825
7.9015 2.0549 1.8937
7.7316 2.7675 1.9048
7.4898 3.4626 1.9139
7.1836 4.1355 1.9226
6.8157 4.7805 1.9310
6.3887 5.3917 1.9390
5.9054 5.9633 1.9466
1.0673 1.2900 0.3884
0.9521 1.3860 0.3900
0.8278 1.4710 0.3915
0.6956 1.5439 0.3928
0.5566 1.6041 0.3938
0.4122 1.6507 0.3946
0.2637 1.6833 0.3952
0.1126 1.7015 0.3955
-0.0396 1.7050 0.3956
-0.1915 1.6938 0.3954
-0.3414 1.6681 0.3949
-0.4879 1.6281 0.3942
-0.6297 1.5743 0.3933
-0.7653 1.5073 0.3921
-0.8935 1.4280 0.3907
-1.0132 1.3372 0.3891
-5.6793 6.2486 1.9586
-6.1866 5.6919 1.9499
-6.6378 5.0931 1.9406
-7.0298 4.4580 1.9308
-7.3598 3.7929 1.9205
-7.6261 3.1040 1.9098
-7.8274 2.3976 1.8988
-7.9631 1.6801 1.8877
-8.0333 0.9574 1.8765
-8.0353 0.2356 1.8646
-7.9700 -0.4787 1.8520
-3.7105 -0.5582 0.8703
-3.1249 -0.7601 0.7460
-3.1254 -1.0633 0.7657
-3.1259 -1.3856 0.7931
-3.1265 -1.7347 0.8293
-6.3665 -4.3168 1.7842
-5.9251 -4.8421 1.7749
-1.0709 -1.0477 0.3475
-0.9689 -1.1341 0.3460
-0.8606 -1.2113 0.3446
-0.7466 -1.2788 0.3435
-0.6277 -1.3364 0.3425
-0.5048 -1.3837 0.3416
-0.3786 -1.4205 0.3410
-0.2501 -1.4467 0.3405
-0.1200 -1.4621 0.3403
0.0109 -1.4667 0.3402
0.1417 -1.4603 0.3403
0.2716 -1.4432 0.3406
0.3999 -1.4152 0.3411
0.5255 -1.3766 0.3418
0.6478 -1.3276 0.3426
0.7660 -1.2684 0.3437
0.8791 -1.1992 0.3449
0.9865 -1.1205 0.3463
5.5267 -5.2485 1.7679
6.0021 -4.7579 1.7765
6.4364 -4.2259 1.7860
6.8260 -3.6555 1.7960
7.1673 -3.0502 1.8067
7.4570 -2.4138 1.8180
7.6918 -1.7503 1.8297
7.8691 -1.0643 1.8418
7.9862 -0.3606 1.8543
8.0411 0.3555 1.8669
8.0270 1.0780 1.8786
7.9460 1.8003 1.8898
7.7993 2.5165 1.9009
7.5832 3.2188 1.9108
7.2992 3.9001 1.9196
6.9529 4.5557 1.9281
6.5465 5.1795 1.9362
6.0827 5.7657 1.9440
5.5650 6.3088 1.9513
0.9940 1.3532 0.3895
0.8728 1.4422 0.3910
0.7433 1.5195 0.3924
0.6065 1.5843 0.3935
0.4638 1.6358 0.3944
0.3166 1.6734 0.3950
0.1663 1.6967 0.3954
0.0143 1.7054 0.3956
