ply
format ascii 1.0
element vertex 2176
property float32 x
property float32 y
property float32 z
end_header
-0.0742 -0.8167 0.3591
-0.0011 -0.8200 0.3591
0.0721 -0.8169 0.3591
0.1448 -0.8074 0.3592
0.2163 -0.7916 0.3593
0.2863 -0.7695 0.3595
0.3540 -0.7414 0.3598
0.4191 -0.7074 0.3600
0.4810 -0.6678 0.3604
0.5393 -0.6229 0.3608
0.5934 -0.5730 0.3612
0.6430 -0.5184 0.3617
0.6876 -0.4596 0.3621
0.7270 -0.3970 0.3627
0.7607 -0.3310 0.3632
0.7884 -0.2623 0.3638
0.8100 -0.1912 0.3644
0.8252 -0.1183 0.3650
0.8339 -0.0443 0.3657
0.8360 0.0304 0.3663
0.8314 0.1050 0.3669
0.8201 0.1791 0.3675
0.8022 0.2520 0.3682
0.7777 0.3231 0.3688
0.7470 0.3918 0.3693
0.7101 0.4576 0.3699
0.6674 0.5199 0.3704
0.6191 0.5781 0.3709
0.5658 0.6318 0.3714
0.5077 0.6805 0.3718
0.4454 0.7238 0.3721
0.3793 0.7613 0.3724
0.3101 0.7927 0.3727
0.2382 0.8176 0.3729
0.1644 0.8360 0.3730
0.0892 0.8475 0.3731
0.0132 0.8522 0.3732
-0.0629 0.8499 0.3732
-0.1385 0.8407 0.3731
-0.2128 0.8247 0.3729
-0.2854 0.8020 0.3727
-0.3556 0.7728 0.3725
-0.4228 0.7374 0.3722
-0.4865 0.6960 0.3718
-0.5461 0.6491 0.3714
-0.6011 0.5971 0.3710
-0.6511 0.5404 0.3705
-0.6958 0.4795 0.3700
-0.7347 0.4148 0.3694
-0.7676 0.3471 0.3689
-0.7942 0.2768 0.3683
-0.8144 0.2044 0.3677
-0.8280 0.1307 0.3670
-0.8349 0.0562 0.3664
-0.8352 -0.0185 0.3658
-0.8288 -0.0928 0.3651
-0.8158 -0.1661 0.3645
-0.7964 -0.2378 0.3639
-0.7707 -0.3074 0.3633
-0.7391 -0.3744 0.3628
-0.7017 -0.4382 0.3622
-0.6589 -0.4984 0.3617
-0.6110 -0.5545 0.3613
-0.5584 -0.6061 0.3608
-0.5015 -0.6528 0.3604
-0.4409 -0.6942 0.3601
-0.3768 -0.7302 0.3598
-0.3100 -0.7604 0.3595
-0.2407 -0.7846 0.3593
-0.1697 -0.8026 0.3592
-0.0974 -0.8143 0.3591
-0.0243 -0.8197 0.3591
0.0489 -0.8186 0.3591
0.1218 -0.8111 0.3591
0.1938 -0.7973 0.3593
0.2643 -0.7772 0.3594
0.3328 -0.7510 0.3597
0.3988 -0.7188 0.3599
0.4617 -0.6810 0.3603
0.5212 -0.6377 0.3606
0.5767 -0.5894 0.3610
0.6278 -0.5362 0.3615
0.6740 -0.4787 0.3620
0.7151 -0.4172 0.3625
0.7506 -0.3523 0.3631
0.7803 -0.2844 0.3636
0.8038 -0.2139 0.3642
0.8211 -0.1416 0.3648
0.8319 -0.0679 0.3655
0.8361 0.0066 0.3661
0.8336 0.0814 0.3667
0.8244 0.1557 0.3673
0.8086 0.2290 0.3680
0.7862 0.3007 0.3686
0.7574 0.3703 0.3692
0.7224 0.4371 0.3697
0.6815 0.5005 0.3702
0.6350 0.5601 0.3707
0.5832 0.6153 0.3712
0.5266 0.6656 0.3716
0.4656 0.7107 0.3720
0.4006 0.7500 0.3723
0.3324 0.7834 0.3726
0.2613 0.8104 0.3728
0.1880 0.8309 0.3730
0.1131 0.8446 0.3731
0.0373 0.8514 0.3732
-0.0388 0.8513 0.3732
-0.1146 0.8443 0.3731
-0.1894 0.8305 0.3730
-0.2626 0.8099 0.3728
-0.3337 0.7827 0.3726
-0.4019 0.7493 0.3723
-0.4667 0.7098 0.3719
-0.5276 0.6646 0.3716
-0.5841 0.6141 0.3711
-0.6358 0.5589 0.3707
-0.6822 0.4992 0.3702
-0.7230 0.4357 0.3696
-0.7578 0.3689 0.3690
-0.7865 0.2993 0.3685
-0.8087 0.2276 0.3679
-0.8244 0.1542 0.3672
-0.8334 0.0799 0.3666
-0.8358 0.0052 0.3660
-0.8315 -0.0693 0.3653
-0.8206 -0.1430 0.3647
-0.8032 -0.2153 0.3641
-0.7796 -0.2856 0.3635
-0.7498 -0.3535 0.3630
-0.7142 -0.4183 0.3624
-0.6730 -0.4797 0.3619
-0.6267 -0.5371 0.3614
-0.5756 -0.5902 0.3610
-0.5200 -0.6385 0.3606
-0.4605 -0.6817 0.3602
-0.3975 -0.7194 0.3599
-0.3315 -0.7515 0.3596
-0.2629 -0.7776 0.3594
-0.1924 -0.7976 0.3592
-0.1204 -0.8113 0.3591
-0.0475 -0.8187 0.3591
0.0257 -0.8196 0.3591
0.0988 -0.8142 0.3591
0.1711 -0.8024 0.3592
0.2421 -0.7842 0.3594
0.3113 -0.7599 0.3596
0.3781 -0.7297 0.3599
0.4421 -0.6936 0.3602
0.5027 -0.6520 0.3605
0.5595 -0.6052 0.3609
0.6121 -0.5536 0.3614
0.6567 -0.4793 0.3620
0.6979 -0.4193 0.3625
0.7336 -0.3559 0.3630
0.7636 -0.2895 0.3636
0.7877 -0.2205 0.3642
0.8055 -0.1496 0.3648
0.8170 -0.0773 0.3654
0.8220 -0.0041 0.3660
0.8205 0.0694 0.3666
0.8124 0.1426 0.3672
0.7978 0.2149 0.3678
0.7767 0.2857 0.3684
0.7492 0.3544 0.3690
0.7157 0.4205 0.3696
0.6763 0.4834 0.3701
0.6313 0.5425 0.3706
0.5811 0.5974 0.3711
0.5261 0.6476 0.3715
0.4666 0.6927 0.3719
0.4033 0.7322 0.3722
0.3366 0.7659 0.3725
0.2671 0.7933 0.3727
0.1953 0.8144 0.3729
0.1219 0.8288 0.3730
0.0475 0.8365 0.3730
-0.0273 0.8374 0.3730
-0.1019 0.8315 0.3730
-0.1757 0.8189 0.3729
-0.2479 0.7996 0.3727
-0.3181 0.7738 0.3725
-0.3856 0.7418 0.3722
-0.4499 0.7038 0.3719
-0.5104 0.6602 0.3715
-0.5666 0.6113 0.3711
-0.6181 0.5576 0.3707
-0.6646 0.4996 0.3702
-0.7055 0.4377 0.3696
-0.7406 0.3724 0.3691
-0.7697 0.3043 0.3685
-0.7925 0.2341 0.3679
-0.8089 0.1622 0.3673
-0.8187 0.0892 0.3667
-0.8221 0.0157 0.3661
-0.8188 -0.0576 0.3654
-0.8090 -0.1302 0.3648
-0.7929 -0.2016 0.3642
-0.7705 -0.2711 0.3636
-0.7421 -0.3382 0.3631
-0.7079 -0.4025 0.3625
-0.6682 -0.4634 0.3620
-0.6233 -0.5205 0.3616
-0.5737 -0.5733 0.3611
-0.5197 -0.6215 0.3607
-0.4617 -0.6648 0.3603
-0.4002 -0.7027 0.3600
-0.3356 -0.7350 0.3598
-0.2685 -0.7616 0.3595
-0.1994 -0.7821 0.3594
-0.1287 -0.7966 0.3593
-0.0571 -0.8047 0.3592
0.0149 -0.8066 0.3592
0.0868 -0.8021 0.3592
0.1581 -0.7914 0.3593
0.2282 -0.7745 0.3595
0.2965 -0.7514 0.3597
0.3627 -0.7225 0.3599
0.4260 -0.6878 0.3602
0.4862 -0.6476 0.3605
0.5426 -0.6023 0.3609
0.5949 -0.5521 0.3614
0.6426 -0.4975 0.3618
0.6854 -0.4388 0.3623
0.7229 -0.3764 0.3629
0.7547 -0.3109 0.3634
0.7807 -0.2427 0.3640
0.8005 -0.1723 0.3646
0.8141 -0.1004 0.3652
0.8212 -0.0274 0.3658
0.8217 0.0461 0.3664
0.8157 0.1194 0.3670
0.8031 0.1921 0.3677
0.7841 0.2634 0.3683
0.7586 0.3329 0.3688
0.7270 0.3998 0.3694
0.6894 0.4638 0.3699
0.6462 0.5242 0.3704
0.5976 0.5805 0.3709
0.5440 0.6322 0.3714
0.4859 0.6790 0.3717
0.4238 0.7203 0.3721
0.3581 0.7558 0.3724
0.2895 0.7853 0.3726
0.2183 0.8084 0.3728
0.1454 0.8250 0.3730
0.0712 0.8348 0.3730
-0.0036 0.8379 0.3731
-0.0783 0.8341 0.3730
-0.1524 0.8236 0.3729
-0.2252 0.8064 0.3728
-0.2961 0.7827 0.3726
-0.3645 0.7526 0.3723
-0.4299 0.7165 0.3720
-0.4916 0.6746 0.3716
-0.5493 0.6274 0.3712
-0.6023 0.5752 0.3708
-0.6504 0.5184 0.3703
-0.6931 0.4577 0.3698
-0.7301 0.3934 0.3693
-0.7611 0.3262 0.3687
-0.7859 0.2566 0.3681
-0.8044 0.1851 0.3675
-0.8163 0.1124 0.3669
-0.8217 0.0390 0.3663
-0.8205 -0.0344 0.3656
-0.8128 -0.1073 0.3650
-0.7987 -0.1791 0.3644
-0.7782 -0.2492 0.3638
-0.7517 -0.3172 0.3633
-0.7193 -0.3824 0.3627
-0.6813 -0.4445 0.3622
-0.6381 -0.5028 0.3617
-0.5899 -0.5570 0.3612
-0.5373 -0.6068 0.3608
-0.4805 -0.6516 0.3605
-0.4200 -0.6912 0.3601
-0.3564 -0.7254 0.3598
-0.2900 -0.7538 0.3596
-0.2215 -0.7763 0.3594
-0.1513 -0.7927 0.3593
-0.0799 -0.8028 0.3592
-0.0080 -0.8067 0.3592
0.0640 -0.8042 0.3592
0.1356 -0.7955 0.3593
0.2061 -0.7805 0.3594
0.2751 -0.7594 0.3596
0.3420 -0.7323 0.3598
0.4063 -0.6994 0.3601
0.4675 -0.6609 0.3604
0.5251 -0.6172 0.3608
0.5788 -0.5686 0.3612
0.6280 -0.5153 0.3617
0.6724 -0.4578 0.3622
0.7116 -0.3966 0.3627
0.7452 -0.3320 0.3632
0.7731 -0.2646 0.3638
0.7949 -0.1948 0.3644
0.8105 -0.1233 0.3650
0.8196 -0.0506 0.3656
0.8223 0.0228 0.3662
0.8183 0.0962 0.3668
0.8078 0.1691 0.3675
0.7908 0.2410 0.3681
0.7674 0.3111 0.3687
0.7377 0.3789 0.3692
0.7020 0.4439 0.3698
0.6605 0.5054 0.3703
0.6136 0.5631 0.3708
0.5615 0.6163 0.3712
0.5048 0.6647 0.3716
0.4439 0.7078 0.3720
0.3793 0.7452 0.3723
0.3115 0.7766 0.3726
0.2411 0.8018 0.3728
0.1687 0.8204 0.3729
0.0948 0.8324 0.3730
0.0202 0.8376 0.3731
-0.0547 0.8361 0.3730
-0.1290 0.8277 0.3730
-0.2023 0.8126 0.3728
-0.2739 0.7909 0.3726
-0.3431 0.7628 0.3724
-0.4095 0.7286 0.3721
-0.4725 0.6885 0.3718
-0.5314 0.6429 0.3714
-0.5860 0.5922 0.3709
-0.6357 0.5369 0.3705
-0.6802 0.4774 0.3700
-0.7190 0.4142 0.3694
-0.7520 0.3478 0.3689
-0.7788 0.2789 0.3683
-0.7992 0.2080 0.3677
-0.8133 0.1356 0.3671
-0.8207 0.0624 0.3665
-0.8216 -0.0111 0.3658
-0.8160 -0.0842 0.3652
-0.8039 -0.1565 0.3646
-0.7854 -0.2272 0.3640
-0.7608 -0.2959 0.3634
-0.7302 -0.3621 0.3629
-0.6940 -0.4252 0.3624
-0.6524 -0.4847 0.3619
-0.6057 -0.5403 0.3614
-0.5544 -0.5915 0.3610
-0.4989 -0.6379 0.3606
-0.4396 -0.6793 0.3602
-0.3769 -0.7152 0.3599
-0.3114 -0.7454 0.3597
-0.2435 -0.7698 0.3595
-0.1737 -0.7881 0.3593
-0.1027 -0.8003 0.3592
-0.0308 -0.8061 0.3592
0.0412 -0.8057 0.3592
0.1130 -0.7989 0.3593
0.1839 -0.7859 0.3594
0.2534 -0.7667 0.3595
0.3210 -0.7415 0.3597
0.3862 -0.7104 0.3600
0.4484 -0.6737 0.3603
0.5072 -0.6317 0.3607
0.5622 -0.5845 0.3611
0.6129 -0.5327 0.3615
0.6588 -0.4765 0.3620
0.6997 -0.4164 0.3625
0.7352 -0.3528 0.3631
0.7649 -0.2862 0.3636
0.7887 -0.2172 0.3642
0.8062 -0.1462 0.3648
0.8174 -0.0738 0.3654
0.8221 -0.0005 0.3660
0.8203 0.0729 0.3667
0.8119 0.1461 0.3673
0.7969 0.2183 0.3679
0.7755 0.2890 0.3685
0.7478 0.3576 0.3690
0.7139 0.4236 0.3696
0.6743 0.4863 0.3701
0.6290 0.5452 0.3706
0.5786 0.5999 0.3711
0.5233 0.6499 0.3715
0.4637 0.6947 0.3719
0.4002 0.7340 0.3722
0.3334 0.7673 0.3725
0.2637 0.7945 0.3727
0.1919 0.8152 0.3729
0.1184 0.8293 0.3730
0.0439 0.8367 0.3730
-0.0309 0.8373 0.3730
-0.1055 0.8311 0.3730
-0.1792 0.8181 0.3729
-0.2514 0.7985 0.3727
-0.3214 0.7724 0.3725
-0.3888 0.7401 0.3722
-0.4529 0.7018 0.3719
-0.5132 0.6579 0.3715
-0.5692 0.6088 0.3711
-0.6205 0.5549 0.3706
-0.6667 0.4967 0.3701
-0.7073 0.4346 0.3696
-0.7422 0.3692 0.3691
-0.7709 0.3010 0.3685
-0.7934 0.2306 0.3679
-0.8095 0.1587 0.3673
-0.8191 0.0856 0.3667
-0.8220 0.0122 0.3660
-0.8185 -0.0611 0.3654
-0.8084 -0.1337 0.3648
-0.7919 -0.2049 0.3642
-0.7692 -0.2744 0.3636
-0.7405 -0.3414 0.3631
-0.7061 -0.4055 0.3625
-0.6661 -0.4662 0.3620
-0.6211 -0.5231 0.3615
-0.5712 -0.5757 0.3611
-0.5170 -0.6237 0.3607
-0.4588 -0.6667 0.3603
-0.3971 -0.7044 0.3600
-0.3324 -0.7365 0.3597
-0.2652 -0.7627 0.3595
-0.1960 -0.7830 0.3594
-0.1253 -0.7971 0.3593
-0.0537 -0.8050 0.3592
0.0184 -0.8065 0.3592
0.0903 -0.8018 0.3592
0.1615 -0.7907 0.3593
0.2315 -0.7735 0.3595
0.2998 -0.7502 0.3597
0.3658 -0.7209 0.3599
0.4290 -0.6860 0.3602
0.4890 -0.6456 0.3606
0.5452 -0.6000 0.3610
0.5973 -0.5496 0.3614
0.6448 -0.4948 0.3618
0.6873 -0.4358 0.3623
0.7245 -0.3733 0.3629
0.7561 -0.3076 0.3634
0.7818 -0.2393 0.3640
0.8013 -0.1689 0.3646
0.8146 -0.0969 0.3652
0.8213 -0.0238 0.3658
0.8216 0.0496 0.3665
0.8152 0.1230 0.3671
0.8024 0.1955 0.3677
0.7830 0.2668 0.3683
0.7572 0.3361 0.3689
0.7253 0.4030 0.3694
0.6875 0.4668 0.3700
0.6440 0.5270 0.3705
0.5951 0.5831 0.3709
0.5413 0.6346 0.3714
0.4831 0.6811 0.3718
0.4207 0.7221 0.3721
0.3549 0.7574 0.3724
0.2861 0.7866 0.3726
0.2149 0.8093 0.3728
0.1418 0.8256 0.3730
0.0676 0.8351 0.3730
-0.0072 0.8379 0.3731
-0.0819 0.8338 0.3730
-0.1560 0.8229 0.3729
-0.2287 0.8054 0.3728
-0.2995 0.7814 0.3726
-0.3677 0.7510 0.3723
-0.4329 0.7146 0.3720
-0.4945 0.6724 0.3716
-0.5519 0.6250 0.3712
-0.6048 0.5725 0.3708
-0.6526 0.5156 0.3703
-0.6950 0.4547 0.3698
-0.7317 0.3903 0.3692
-0.7625 0.3229 0.3687
-0.7870 0.2532 0.3681
-0.8051 0.1816 0.3675
-0.8167 0.1089 0.3669
-0.8218 0.0355 0.3662
-0.8203 -0.0379 0.3656
-0.8123 -0.1108 0.3650
-0.7978 -0.1825 0.3644
-0.7771 -0.2526 0.3638
-0.7503 -0.3204 0.3632
-0.7176 -0.3855 0.3627
-0.6794 -0.4474 0.3622
-0.6359 -0.5055 0.3617
-0.5875 -0.5595 0.3612
-0.5346 -0.6090 0.3608
-0.4777 -0.6536 0.3604
-0.4170 -0.6930 0.3601
-0.3533 -0.7269 0.3598
-0.2868 -0.7550 0.3596
-0.2182 -0.7772 0.3594
-0.1479 -0.7933 0.3593
-0.0765 -0.8032 0.3592
-0.0045 -0.8067 0.3592
0.0675 -0.8040 0.3592
0.1390 -0.7949 0.3593
0.2095 -0.7796 0.3594
0.2783 -0.7582 0.3596
0.3451 -0.7308 0.3598
0.4093 -0.6977 0.3601
0.4703 -0.6590 0.3605
0.5278 -0.6150 0.3608
0.5812 -0.5661 0.3612
0.6302 -0.5126 0.3617
0.6744 -0.4549 0.3622
0.7133 -0.3935 0.3627
0.7467 -0.3288 0.3633
0.7743 -0.2613 0.3638
0.7958 -0.1914 0.3644
0.8111 -0.1199 0.3650
0.8199 -0.0471 0.3656
0.8222 0.0263 0.3663
0.8180 0.0997 0.3669
0.8071 0.1726 0.3675
0.7898 0.2444 0.3681
0.7661 0.3144 0.3687
0.7361 0.3821 0.3693
0.7001 0.4469 0.3698
0.6584 0.5083 0.3703
0.6112 0.5658 0.3708
0.5589 0.6188 0.3712
0.5020 0.6669 0.3716
0.4409 0.7097 0.3720
0.3761 0.7469 0.3723
0.3082 0.7780 0.3726
0.2377 0.8028 0.3728
0.1652 0.8212 0.3729
0.0912 0.8328 0.3730
0.0166 0.8377 0.3731
-0.0583 0.8358 0.3730
-0.1326 0.8271 0.3730
-0.2058 0.8117 0.3728
-0.2773 0.7897 0.3726
-0.3464 0.7613 0.3724
-0.4126 0.7268 0.3721
-0.4754 0.6864 0.3717
-0.5342 0.6406 0.3714
-0.5885 0.5897 0.3709
-0.6380 0.5341 0.3705
-0.6822 0.4744 0.3699
-0.7207 0.4110 0.3694
-0.7534 0.3446 0.3688
-0.7799 0.2755 0.3683
-0.8001 0.2045 0.3677
-0.8138 0.1321 0.3670
-0.8209 0.0588 0.3664
-0.8215 -0.0146 0.3658
-0.8155 -0.0877 0.3652
-0.8031 -0.1599 0.3646
-0.7844 -0.2305 0.3640
-0.7594 -0.2991 0.3634
-0.7286 -0.3652 0.3629
-0.6921 -0.4281 0.3623
-0.6502 -0.4875 0.3618
-0.6034 -0.5429 0.3614
-0.5519 -0.5938 0.3609
-0.4961 -0.6400 0.3606
-0.4366 -0.6811 0.3602
-0.3738 -0.7168 0.3599
-0.3081 -0.7467 0.3597
-0.2401 -0.7708 0.3595
-0.1703 -0.7889 0.3593
-0.0992 -0.8007 0.3592
-0.0274 -0.8063 0.3592
0.0447 -0.8055 0.3592
0.1164 -0.7985 0.3593
0.1872 -0.7851 0.3594
0.2567 -0.7657 0.3595
0.3242 -0.7402 0.3598
0.3892 -0.7088 0.3600
0.4513 -0.6718 0.3603
0.5100 -0.6295 0.3607
0.5648 -0.5821 0.3611
0.6152 -0.5301 0.3616
0.6609 -0.4737 0.3620
0.7015 -0.4134 0.3625
0.7367 -0.3497 0.3631
0.7662 -0.2830 0.3636
0.7896 -0.2138 0.3642
0.8069 -0.1427 0.3648
0.8178 -0.0703 0.3654
0.8222 0.0030 0.3661
0.8200 0.0765 0.3667
0.8113 0.1496 0.3673
0.7960 0.2218 0.3679
0.7743 0.2924 0.3685
0.7463 0.3609 0.3691
0.7122 0.4267 0.3696
0.6722 0.4892 0.3702
0.6267 0.5480 0.3706
0.5760 0.6025 0.3711
0.5205 0.6522 0.3715
0.4607 0.6967 0.3719
0.3971 0.7357 0.3722
0.3301 0.7688 0.3725
0.2603 0.7956 0.3727
0.1883 0.8161 0.3729
0.1148 0.8299 0.3730
0.0403 0.8369 0.3730
-0.0345 0.8372 0.3730
-0.1091 0.8306 0.3730
-0.1827 0.8173 0.3729
-0.2548 0.7974 0.3727
-0.3247 0.7710 0.3725
-0.3919 0.7384 0.3722
-0.4559 0.6998 0.3719
-0.5160 0.6557 0.3715
-0.5718 0.6063 0.3711
-0.6228 0.5522 0.3706
-0.6687 0.4938 0.3701
-0.7091 0.4315 0.3696
-0.7437 0.3660 0.3690
-0.7722 0.2977 0.3684
-0.7944 0.2272 0.3679
-0.8101 0.1552 0.3672
-0.8193 0.0821 0.3666
-0.8220 0.0087 0.3660
-0.8181 -0.0646 0.3654
-0.8077 -0.1371 0.3648
-0.7910 -0.2083 0.3642
-0.7680 -0.2776 0.3636
-0.7390 -0.3445 0.3630
-0.7043 -0.4085 0.3625
-0.6641 -0.4691 0.3620
-0.6188 -0.5257 0.3615
-0.5687 -0.5782 0.3611
-0.5143 -0.6259 0.3607
-0.4559 -0.6686 0.3603
-0.3941 -0.7060 0.3600
-0.3293 -0.7379 0.3597
-0.2619 -0.7638 0.3595
-0.1927 -0.7838 0.3594
-0.1219 -0.7976 0.3592
-0.0502 -0.8052 0.3592
0.0218 -0.8064 0.3592
0.0937 -0.8014 0.3592
0.1649 -0.7900 0.3593
0.2348 -0.7725 0.3595
0.3030 -0.7489 0.3597
0.3689 -0.7194 0.3599
0.4320 -0.6842 0.3602
0.4918 -0.6435 0.3606
0.5478 -0.5977 0.3610
0.5997 -0.5471 0.3614
0.6469 -0.4920 0.3619
0.6892 -0.4329 0.3624
0.7262 -0.3702 0.3629
0.7575 -0.3044 0.3635
0.7829 -0.2360 0.3640
0.8021 -0.1655 0.3646
0.8150 -0.0934 0.3652
0.8215 -0.0203 0.3659
0.8214 0.0532 0.3665
0.8148 0.1265 0.3671
0.8016 0.1990 0.3677
0.7819 0.2702 0.3683
0.7558 0.3394 0.3689
0.7236 0.4061 0.3695
0.6855 0.4698 0.3700
0.6417 0.5298 0.3705
0.5926 0.5857 0.3710
0.5386 0.6369 0.3714
0.4801 0.6832 0.3718
0.4176 0.7240 0.3721
0.3516 0.7589 0.3724
0.2827 0.7878 0.3726
0.2114 0.8103 0.3728
0.1383 0.8262 0.3730
0.0640 0.8354 0.3730
-0.0108 0.8378 0.3731
-0.0855 0.8334 0.3730
-0.1595 0.8223 0.3729
-0.2321 0.8044 0.3728
-0.3028 0.7800 0.3725
-0.3710 0.7494 0.3723
-0.4360 0.7127 0.3720
-0.4973 0.6703 0.3716
-0.5546 0.6225 0.3712
-0.6072 0.5699 0.3708
-0.6548 0.5128 0.3703
-0.6969 0.4517 0.3698
-0.7334 0.3871 0.3692
-0.7638 0.3196 0.3686
-0.7880 0.2498 0.3680
-0.8058 0.1782 0.3674
-0.8171 0.1054 0.3668
-0.8219 0.0320 0.3662
-0.8201 -0.0414 0.3656
-0.8117 -0.1142 0.3650
-0.7970 -0.1859 0.3644
-0.7760 -0.2559 0.3638
-0.7489 -0.3236 0.3632
-0.7159 -0.3885 0.3627
-0.6774 -0.4502 0.3621
-0.6337 -0.5082 0.3617
-0.5851 -0.5620 0.3612
-0.5320 -0.6113 0.3608
-0.4748 -0.6556 0.3604
-0.4140 -0.6948 0.3601
-0.3501 -0.7284 0.3598
-0.2835 -0.7562 0.3596
-0.2148 -0.7781 0.3594
-0.1445 -0.7939 0.3593
-0.0730 -0.8035 0.3592
-0.0010 -0.8067 0.3592
0.0710 -0.8037 0.3592
0.1424 -0.7943 0.3593
0.2128 -0.7787 0.3594
0.2816 -0.7570 0.3596
0.3483 -0.7294 0.3599
0.4123 -0.6959 0.3601
0.4732 -0.6570 0.3605
0.5305 -0.6128 0.3608
0.5837 -0.5636 0.3613
0.6325 -0.5099 0.3617
0.6764 -0.4521 0.3622
0.7150 -0.3905 0.3627
0.7482 -0.3256 0.3633
0.7755 -0.2579 0.3639
0.7967 -0.1880 0.3644
0.8116 -0.1164 0.3651
0.8202 -0.0436 0.3657
0.8222 0.0299 0.3663
0.8176 0.1033 0.3669
0.8065 0.1761 0.3675
0.7888 0.2478 0.3681
0.7648 0.3177 0.3687
0.7345 0.3853 0.3693
0.6982 0.4499 0.3698
0.6562 0.5112 0.3703
0.6088 0.5684 0.3708
0.5563 0.6212 0.3713
0.4992 0.6691 0.3717
0.4379 0.7116 0.3720
0.3729 0.7485 0.3723
0.3049 0.7793 0.3726
0.2342 0.8039 0.3728
0.1616 0.8219 0.3729
0.0877 0.8332 0.3730
0.0130 0.8378 0.3731
-0.0618 0.8356 0.3730
-0.1361 0.8265 0.3729
-0.2093 0.8108 0.3728
-0.2806 0.7885 0.3726
-0.3496 0.7598 0.3724
-0.4157 0.7250 0.3721
-0.4783 0.6843 0.3717
-0.5369 0.6382 0.3713
-0.5910 0.5871 0.3709
-0.6402 0.5313 0.3704
-0.6842 0.4714 0.3699
-0.7224 0.4079 0.3694
-0.7548 0.3413 0.3688
-0.7810 0.2721 0.3682
-0.8009 0.2010 0.3676
-0.8143 0.1286 0.3670
-0.8211 0.0553 0.3664
-0.8214 -0.0182 0.3658
-0.8151 -0.0912 0.3652
-0.8024 -0.1633 0.3646
-0.7833 -0.2339 0.3640
-0.7581 -0.3024 0.3634
-0.7270 -0.3683 0.3628
-0.6902 -0.4310 0.3623
-0.6481 -0.4902 0.3618
-0.6010 -0.5454 0.3613
-0.5493 -0.5962 0.3609
-0.4934 -0.6421 0.3605
-0.4337 -0.6829 0.3602
-0.3707 -0.7183 0.3599
-0.3049 -0.7480 0.3597
-0.2368 -0.7718 0.3595
-0.1669 -0.7896 0.3593
-0.0958 -0.8011 0.3592
-0.0239 -0.8064 0.3592
0.0481 -0.8053 0.3592
0.1198 -0.7980 0.3593
0.1906 -0.7843 0.3594
0.2600 -0.7646 0.3595
0.3274 -0.7388 0.3598
0.3923 -0.7071 0.3600
0.4542 -0.6699 0.3604
0.5127 -0.6273 0.3607
0.5673 -0.5797 0.3611
0.6175 -0.5274 0.3616
0.6630 -0.4709 0.3621
0.7034 -0.4104 0.3626
0.7383 -0.3465 0.3631
0.7675 -0.2797 0.3637
0.7906 -0.2104 0.3643
0.8076 -0.1393 0.3649
0.8181 -0.0668 0.3655
0.8222 0.0065 0.3661
0.8198 0.0800 0.3667
0.8107 0.1531 0.3673
0.7951 0.2252 0.3679
0.7731 0.2957 0.3685
0.7448 0.3641 0.3691
0.7104 0.4298 0.3697
0.6701 0.4921 0.3702
0.6244 0.5507 0.3707
0.5734 0.6050 0.3711
0.5178 0.6544 0.3715
0.4577 0.6987 0.3719
0.3939 0.7374 0.3722
0.3268 0.7702 0.3725
0.2569 0.7968 0.3727
0.1848 0.8169 0.3729
0.1112 0.8303 0.3730
0.0367 0.8371 0.3730
-0.0381 0.8370 0.3730
-0.1127 0.8301 0.3730
-0.1862 0.8165 0.3729
-0.2582 0.7962 0.3727
-0.3280 0.7696 0.3725
-0.3951 0.7367 0.3722
-0.4589 0.6978 0.3718
-0.5188 0.6534 0.3715
-0.5744 0.6039 0.3710
-0.6252 0.5495 0.3706
-0.6708 0.4909 0.3701
-0.7109 0.4284 0.3696
-0.7452 0.3627 0.3690
-0.7734 0.2943 0.3684
-0.7953 0.2238 0.3678
-0.8107 0.1517 0.3672
-0.8196 0.0786 0.3666
-0.8220 0.0051 0.3660
-0.8178 -0.0681 0.3654
-0.8071 -0.1406 0.3647
-0.7900 -0.2117 0.3641
-0.7667 -0.2809 0.3636
-0.7375 -0.3477 0.3630
-0.7025 -0.4115 0.3625
-0.6620 -0.4719 0.3620
-0.6165 -0.5284 0.3615
-0.5662 -0.5806 0.3611
-0.5115 -0.6281 0.3607
-0.4530 -0.6706 0.3603
-0.3910 -0.7077 0.3600
-0.3261 -0.7392 0.3597
-0.2587 -0.7649 0.3595
-0.1893 -0.7846 0.3594
-0.1185 -0.7981 0.3592
-0.0468 -0.8054 0.3592
0.0253 -0.8063 0.3592
0.0972 -0.8010 0.3592
0.1683 -0.7893 0.3593
0.2382 -0.7715 0.3595
0.3062 -0.7476 0.3597
0.3720 -0.7178 0.3600
0.4349 -0.6823 0.3603
0.4946 -0.6414 0.3606
0.5504 -0.5954 0.3610
0.6021 -0.5445 0.3614
0.6461 -0.4715 0.3620
0.6866 -0.4126 0.3625
0.7217 -0.3502 0.3631
0.7512 -0.2848 0.3636
0.7748 -0.2170 0.3642
0.7924 -0.1472 0.3648
0.8037 -0.0760 0.3654
0.8086 -0.0040 0.3660
0.8071 0.0683 0.3666
0.7991 0.1403 0.3672
0.7847 0.2114 0.3678
0.7639 0.2810 0.3684
0.7369 0.3486 0.3690
0.7039 0.4135 0.3695
0.6651 0.4754 0.3700
0.6209 0.5335 0.3705
0.5715 0.5875 0.3710
0.5173 0.6369 0.3714
0.4589 0.6812 0.3718
0.3966 0.7200 0.3721
0.3310 0.7531 0.3724
0.2627 0.7801 0.3726
0.1921 0.8008 0.3728
0.1199 0.8150 0.3729
0.0467 0.8226 0.3729
-0.0269 0.8235 0.3729
-0.1002 0.8177 0.3729
-0.1728 0.8052 0.3728
-0.2438 0.7863 0.3726
-0.3128 0.7609 0.3724
-0.3792 0.7294 0.3721
-0.4424 0.6921 0.3718
-0.5019 0.6492 0.3714
-0.5572 0.6012 0.3710
-0.6079 0.5484 0.3706
-0.6536 0.4913 0.3701
-0.6938 0.4304 0.3696
-0.7284 0.3663 0.3690
-0.7570 0.2993 0.3685
-0.7795 0.2302 0.3679
-0.7956 0.1595 0.3673
-0.8053 0.0877 0.3667
-0.8086 0.0155 0.3661
-0.8054 -0.0567 0.3655
-0.7958 -0.1281 0.3649
-0.7800 -0.1983 0.3643
-0.7580 -0.2667 0.3637
-0.7300 -0.3327 0.3631
-0.6964 -0.3960 0.3626
-0.6574 -0.4559 0.3621
-0.6133 -0.5121 0.3616
-0.5644 -0.5641 0.3612
-0.5113 -0.6115 0.3608
-0.4542 -0.6541 0.3604
-0.3937 -0.6914 0.3601
-0.3302 -0.7232 0.3599
-0.2642 -0.7494 0.3596
-0.1962 -0.7696 0.3595
-0.1267 -0.7838 0.3594
-0.0562 -0.7918 0.3593
0.0147 -0.7936 0.3593
0.0854 -0.7893 0.3593
0.1556 -0.7787 0.3594
0.2245 -0.7620 0.3596
0.2918 -0.7393 0.3598
0.3568 -0.7108 0.3600
0.4192 -0.6767 0.3603
0.4783 -0.6372 0.3606
0.5339 -0.5926 0.3610
0.5853 -0.5432 0.3614
0.6322 -0.4894 0.3619
0.6743 -0.4317 0.3624
0.7111 -0.3703 0.3629
0.7425 -0.3058 0.3634
0.7680 -0.2387 0.3640
0.7875 -0.1695 0.3646
0.8008 -0.0987 0.3652
0.8077 -0.0269 0.3658
0.8083 0.0454 0.3664
0.8023 0.1175 0.3670
0.7899 0.1889 0.3676
0.7712 0.2591 0.3682
0.7461 0.3274 0.3688
0.7150 0.3932 0.3693
0.6780 0.4561 0.3699
0.6355 0.5155 0.3704
0.5877 0.5709 0.3708
0.5350 0.6217 0.3713
0.4779 0.6677 0.3716
0.4168 0.7083 0.3720
0.3522 0.7433 0.3723
0.2846 0.7722 0.3725
0.2147 0.7949 0.3727
0.1429 0.8112 0.3728
0.0700 0.8209 0.3729
-0.0035 0.8239 0.3729
-0.0770 0.8202 0.3729
-0.1499 0.8099 0.3728
-0.2215 0.7930 0.3727
-0.2912 0.7696 0.3725
-0.3585 0.7401 0.3722
-0.4227 0.7046 0.3719
-0.4835 0.6634 0.3716
-0.5402 0.6170 0.3712
-0.5924 0.5656 0.3707
-0.6396 0.5099 0.3702
-0.6817 0.4501 0.3697
-0.7181 0.3869 0.3692
-0.7486 0.3208 0.3686
-0.7730 0.2524 0.3681
-0.7912 0.1821 0.3675
-0.8029 0.1106 0.3669
-0.8083 0.0384 0.3663
-0.8071 -0.0338 0.3656
-0.7996 -0.1055 0.3650
-0.7857 -0.1762 0.3644
-0.7656 -0.2452 0.3639
-0.7395 -0.3120 0.3633
-0.7077 -0.3762 0.3628
-0.6703 -0.4373 0.3623
-0.6278 -0.4947 0.3618
-0.5804 -0.5480 0.3613
-0.5286 -0.5970 0.3609
-0.4727 -0.6411 0.3605
-0.4133 -0.6801 0.3602
-0.3507 -0.7137 0.3599
-0.2854 -0.7417 0.3597
-0.2180 -0.7638 0.3595
-0.1489 -0.7799 0.3594
-0.0787 -0.7899 0.3593
-0.0079 -0.7937 0.3593
0.0630 -0.7913 0.3593
0.1334 -0.7827 0.3594
0.2028 -0.7680 0.3595
0.2707 -0.7472 0.3597
0.3365 -0.7205 0.3599
0.3997 -0.6881 0.3602
0.4599 -0.6503 0.3605
0.5167 -0.6073 0.3609
0.5694 -0.5594 0.3613
0.6178 -0.5070 0.3617
0.6615 -0.4504 0.3622
0.7000 -0.3901 0.3627
0.7331 -0.3266 0.3633
0.7605 -0.2603 0.3638
0.7820 -0.1917 0.3644
0.7972 -0.1213 0.3650
0.8062 -0.0498 0.3656
0.8088 0.0224 0.3662
0.8049 0.0946 0.3668
0.7946 0.1664 0.3674
0.7778 0.2370 0.3680
0.7547 0.3059 0.3686
0.7255 0.3726 0.3692
0.6904 0.4365 0.3697
0.6496 0.4971 0.3702
0.6034 0.5538 0.3707
0.5522 0.6061 0.3711
0.4965 0.6537 0.3715
0.4366 0.6960 0.3719
0.3730 0.7328 0.3722
0.3064 0.7637 0.3724
0.2371 0.7884 0.3727
0.1659 0.8068 0.3728
0.0932 0.8186 0.3729
0.0198 0.8237 0.3729
-0.0538 0.8221 0.3729
-0.1269 0.8139 0.3728
-0.1989 0.7991 0.3727
-0.2693 0.7777 0.3725
-0.3374 0.7501 0.3723
-0.4027 0.7165 0.3720
-0.4646 0.6770 0.3717
-0.5226 0.6322 0.3713
-0.5763 0.5824 0.3709
-0.6252 0.5280 0.3704
-0.6689 0.4695 0.3699
-0.7071 0.4073 0.3694
-0.7396 0.3421 0.3688
-0.7659 0.2743 0.3683
-0.7861 0.2045 0.3677
-0.7999 0.1334 0.3671
-0.8073 0.0613 0.3665
-0.8082 -0.0109 0.3658
-0.8026 -0.0829 0.3652
-0.7908 -0.1539 0.3646
-0.7726 -0.2235 0.3640
-0.7484 -0.2911 0.3635
-0.7184 -0.3562 0.3629
-0.6828 -0.4183 0.3624
-0.6418 -0.4769 0.3619
-0.5960 -0.5316 0.3615
-0.5455 -0.5820 0.3610
-0.4909 -0.6276 0.3607
-0.4325 -0.6683 0.3603
-0.3708 -0.7037 0.3600
-0.3064 -0.7335 0.3598
-0.2396 -0.7574 0.3596
-0.1709 -0.7755 0.3594
-0.1010 -0.7874 0.3593
-0.0304 -0.7932 0.3593
0.0406 -0.7928 0.3593
0.1112 -0.7861 0.3594
0.1809 -0.7733 0.3595
0.2493 -0.7544 0.3596
0.3158 -0.7296 0.3598
0.3800 -0.6990 0.3601
0.4412 -0.6629 0.3604
0.4991 -0.6215 0.3608
0.5531 -0.5751 0.3612
0.6030 -0.5241 0.3616
0.6482 -0.4688 0.3621
0.6884 -0.4096 0.3626
0.7232 -0.3471 0.3631
0.7525 -0.2816 0.3637
0.7758 -0.2136 0.3642
0.7931 -0.1438 0.3648
0.8041 -0.0726 0.3654
0.8087 -0.0005 0.3660
0.8068 0.0718 0.3666
0.7985 0.1437 0.3672
0.7838 0.2147 0.3678
0.7627 0.2843 0.3684
0.7354 0.3517 0.3690
0.7022 0.4166 0.3695
0.6631 0.4783 0.3701
0.6186 0.5362 0.3705
0.5690 0.5900 0.3710
0.5146 0.6391 0.3714
0.4560 0.6832 0.3718
0.3935 0.7218 0.3721
0.3278 0.7546 0.3724
0.2593 0.7813 0.3726
0.1887 0.8016 0.3728
0.1164 0.8155 0.3729
0.0432 0.8228 0.3729
-0.0304 0.8234 0.3729
-0.1038 0.8172 0.3729
-0.1762 0.8045 0.3728
-0.2472 0.7852 0.3726
-0.3161 0.7595 0.3724
-0.3823 0.7278 0.3721
-0.4454 0.6902 0.3718
-0.5047 0.6470 0.3714
-0.5598 0.5987 0.3710
-0.6102 0.5457 0.3706
-0.6556 0.4885 0.3701
-0.6956 0.4274 0.3695
-0.7299 0.3631 0.3690
-0.7582 0.2961 0.3684
-0.7804 0.2269 0.3678
-0.7962 0.1561 0.3673
-0.8056 0.0842 0.3666
-0.8086 0.0120 0.3660
-0.8051 -0.0601 0.3654
-0.7952 -0.1315 0.3648
-0.7790 -0.2016 0.3642
-0.7568 -0.2699 0.3637
-0.7285 -0.3358 0.3631
-0.6946 -0.3989 0.3626
-0.6554 -0.4587 0.3621
-0.6110 -0.5147 0.3616
-0.5620 -0.5665 0.3612
-0.5086 -0.6137 0.3608
-0.4514 -0.6560 0.3604
-0.3907 -0.6930 0.3601
-0.3271 -0.7246 0.3598
-0.2610 -0.7505 0.3596
-0.1929 -0.7704 0.3595
-0.1233 -0.7843 0.3594
-0.0528 -0.7920 0.3593
0.0181 -0.7936 0.3593
0.0888 -0.7889 0.3593
0.1589 -0.7780 0.3594
0.2278 -0.7611 0.3596
0.2950 -0.7381 0.3598
0.3599 -0.7093 0.3600
0.4221 -0.6749 0.3603
0.4811 -0.6352 0.3607
0.5364 -0.5903 0.3610
0.5876 -0.5407 0.3615
0.6344 -0.4868 0.3619
0.6762 -0.4288 0.3624
0.7128 -0.3673 0.3629
0.7438 -0.3026 0.3635
0.7691 -0.2354 0.3640
0.7883 -0.1661 0.3646
0.8013 -0.0953 0.3652
0.8079 -0.0234 0.3658
0.8081 0.0488 0.3664
0.8019 0.1209 0.3671
0.7892 0.1923 0.3677
0.7701 0.2624 0.3682
0.7448 0.3306 0.3688
0.7134 0.3963 0.3694
0.6761 0.4591 0.3699
0.6333 0.5183 0.3704
0.5853 0.5734 0.3709
0.5324 0.6241 0.3713
0.4750 0.6698 0.3717
0.4137 0.7101 0.3720
0.3490 0.7448 0.3723
0.2813 0.7735 0.3725
0.2113 0.7959 0.3727
0.1395 0.8118 0.3728
0.0665 0.8212 0.3729
-0.0071 0.8239 0.3729
-0.0806 0.8199 0.3729
-0.1534 0.8092 0.3728
-0.2249 0.7920 0.3727
-0.2945 0.7684 0.3724
-0.3616 0.7385 0.3722
-0.4257 0.7027 0.3719
-0.4863 0.6613 0.3715
-0.5428 0.6146 0.3711
-0.5947 0.5630 0.3707
-0.6418 0.5071 0.3702
-0.6835 0.4472 0.3697
-0.7197 0.3838 0.3692
-0.7499 0.3176 0.3686
-0.7740 0.2490 0.3680
-0.7919 0.1787 0.3674
-0.8034 0.1071 0.3668
-0.8084 0.0349 0.3662
-0.8069 -0.0373 0.3656
-0.7990 -0.1090 0.3650
-0.7849 -0.1795 0.3644
-0.7645 -0.2485 0.3638
-0.7381 -0.3152 0.3633
-0.7060 -0.3792 0.3627
-0.6684 -0.4401 0.3622
-0.6256 -0.4973 0.3617
-0.5780 -0.5505 0.3613
-0.5260 -0.5992 0.3609
-0.4700 -0.6431 0.3605
-0.4103 -0.6819 0.3602
-0.3476 -0.7152 0.3599
-0.2822 -0.7429 0.3597
-0.2147 -0.7647 0.3595
-0.1455 -0.7806 0.3594
-0.0753 -0.7903 0.3593
-0.0044 -0.7938 0.3593
0.0664 -0.7911 0.3593
0.1368 -0.7821 0.3594
0.2061 -0.7671 0.3595
0.2739 -0.7460 0.3597
0.3396 -0.7191 0.3599
0.4027 -0.6864 0.3602
0.4628 -0.6483 0.3605
0.5193 -0.6051 0.3609
0.5719 -0.5570 0.3613
0.6201 -0.5043 0.3618
0.6635 -0.4476 0.3622
0.7018 -0.3871 0.3628
0.7346 -0.3235 0.3633
0.7617 -0.2570 0.3639
0.7828 -0.1883 0.3644
0.7978 -0.1179 0.3650
0.8065 -0.0463 0.3656
0.8088 0.0259 0.3663
0.8046 0.0981 0.3669
0.7939 0.1698 0.3675
0.7768 0.2404 0.3681
0.7535 0.3092 0.3686
0.7240 0.3758 0.3692
0.6885 0.4395 0.3697
0.6475 0.4999 0.3702
0.6010 0.5564 0.3707
0.5496 0.6085 0.3712
0.4937 0.6558 0.3715
0.4336 0.6979 0.3719
0.3699 0.7344 0.3722
0.3031 0.7650 0.3725
0.2337 0.7895 0.3727
0.1624 0.8075 0.3728
0.0897 0.8190 0.3729
0.0163 0.8238 0.3729
-0.0573 0.8219 0.3729
-0.1304 0.8133 0.3728
-0.2024 0.7982 0.3727
-0.2726 0.7765 0.3725
-0.3406 0.7486 0.3723
-0.4058 0.7147 0.3720
-0.4675 0.6750 0.3717
-0.5253 0.6300 0.3713
-0.5788 0.5799 0.3708
-0.6274 0.5253 0.3704
-0.6709 0.4666 0.3699
-0.7088 0.4043 0.3694
-0.7410 0.3389 0.3688
-0.7671 0.2710 0.3682
-0.7869 0.2011 0.3676
-0.8004 0.1299 0.3670
-0.8075 0.0579 0.3664
-0.8081 -0.0144 0.3658
-0.8022 -0.0863 0.3652
-0.7900 -0.1573 0.3646
-0.7716 -0.2268 0.3640
-0.7471 -0.2943 0.3635
-0.7168 -0.3592 0.3629
-0.6809 -0.4212 0.3624
-0.6397 -0.4796 0.3619
-0.5936 -0.5341 0.3614
-0.5430 -0.5843 0.3610
-0.4882 -0.6297 0.3606
-0.4296 -0.6701 0.3603
-0.3678 -0.7052 0.3600
-0.3032 -0.7347 0.3598
-0.2363 -0.7584 0.3596
-0.1676 -0.7762 0.3594
-0.0976 -0.7878 0.3593
-0.0269 -0.7933 0.3593
0.0440 -0.7926 0.3593
0.1145 -0.7856 0.3594
0.1842 -0.7725 0.3595
0.2526 -0.7534 0.3596
0.3190 -0.7282 0.3599
0.3830 -0.6974 0.3601
0.4441 -0.6610 0.3604
0.5018 -0.6194 0.3608
0.5556 -0.5727 0.3612
0.6053 -0.5215 0.3616
0.6502 -0.4660 0.3621
0.6902 -0.4067 0.3626
0.7248 -0.3440 0.3631
0.7537 -0.2784 0.3637
0.7768 -0.2103 0.3643
0.7938 -0.1404 0.3648
0.8044 -0.0691 0.3655
0.8087 0.0029 0.3661
0.8066 0.0752 0.3667
0.7980 0.1471 0.3673
0.7829 0.2181 0.3679
0.7615 0.2876 0.3685
0.7340 0.3549 0.3690
0.7004 0.4196 0.3696
0.6611 0.4811 0.3701
0.6163 0.5389 0.3706
0.5665 0.5925 0.3710
0.5119 0.6414 0.3714
0.4531 0.6852 0.3718
0.3905 0.7235 0.3721
0.3246 0.7560 0.3724
0.2560 0.7824 0.3726
0.1852 0.8025 0.3728
0.1129 0.8160 0.3729
0.0396 0.8230 0.3729
-0.0340 0.8232 0.3729
-0.1073 0.8168 0.3729
-0.1797 0.8037 0.3728
-0.2506 0.7841 0.3726
-0.3193 0.7582 0.3724
-0.3854 0.7261 0.3721
-0.4483 0.6882 0.3718
-0.5074 0.6448 0.3714
-0.5623 0.5963 0.3710
-0.6125 0.5431 0.3705
-0.6577 0.4856 0.3700
-0.6974 0.4244 0.3695
-0.7314 0.3599 0.3690
-0.7594 0.2928 0.3684
-0.7813 0.2235 0.3678
-0.7968 0.1526 0.3672
-0.8059 0.0808 0.3666
-0.8086 0.0085 0.3660
-0.8048 -0.0636 0.3654
-0.7946 -0.1349 0.3648
-0.7781 -0.2049 0.3642
-0.7555 -0.2731 0.3636
-0.7270 -0.3389 0.3631
-0.6929 -0.4019 0.3626
-0.6533 -0.4615 0.3620
-0.6088 -0.5173 0.3616
-0.5595 -0.5688 0.3611
-0.5060 -0.6158 0.3608
-0.4486 -0.6579 0.3604
-0.3877 -0.6947 0.3601
-0.3240 -0.7260 0.3598
-0.2577 -0.7516 0.3596
-0.1896 -0.7712 0.3595
-0.1199 -0.7848 0.3594
-0.0494 -0.7923 0.3593
0.0215 -0.7935 0.3593
0.0922 -0.7885 0.3593
0.1623 -0.7774 0.3594
0.2311 -0.7601 0.3596
0.2981 -0.7368 0.3598
0.3630 -0.7078 0.3600
0.4250 -0.6731 0.3603
0.4838 -0.6331 0.3607
0.5390 -0.5880 0.3611
0.5900 -0.5382 0.3615
0.6365 -0.4841 0.3619
0.6781 -0.4259 0.3624
0.7144 -0.3642 0.3630
0.7452 -0.2995 0.3635
0.7701 -0.2321 0.3641
0.7890 -0.1628 0.3647
0.8017 -0.0918 0.3653
0.8081 -0.0200 0.3659
0.8080 0.0523 0.3665
0.8014 0.1244 0.3671
0.7884 0.1957 0.3677
0.7690 0.2657 0.3683
0.7434 0.3338 0.3688
0.7117 0.3994 0.3694
0.6742 0.4620 0.3699
0.6311 0.5210 0.3704
0.5828 0.5760 0.3709
0.5297 0.6264 0.3713
0.4722 0.6718 0.3717
0.4107 0.7119 0.3720
0.3458 0.7463 0.3723
0.2780 0.7747 0.3725
0.2079 0.7968 0.3727
0.1360 0.8124 0.3728
0.0629 0.8215 0.3729
-0.0106 0.8239 0.3729
-0.0841 0.8195 0.3729
-0.1568 0.8086 0.3728
-0.2283 0.7910 0.3726
-0.2978 0.7671 0.3724
-0.3648 0.7369 0.3722
-0.4287 0.7008 0.3719
-0.4891 0.6592 0.3715
-0.5454 0.6122 0.3711
-0.5971 0.5604 0.3707
-0.6439 0.5043 0.3702
-0.6854 0.4442 0.3697
-0.7213 0.3807 0.3692
-0.7512 0.3143 0.3686
-0.7750 0.2457 0.3680
-0.7926 0.1752 0.3674
-0.8037 0.1036 0.3668
-0.8084 0.0315 0.3662
-0.8067 -0.0407 0.3656
-0.7985 -0.1124 0.3650
-0.7840 -0.1829 0.3644
-0.7633 -0.2517 0.3638
-0.7367 -0.3183 0.3633
-0.7043 -0.3822 0.3627
-0.6665 -0.4430 0.3622
-0.6234 -0.5000 0.3617
-0.5756 -0.5530 0.3613
-0.5234 -0.6014 0.3609
-0.4672 -0.6451 0.3605
-0.4074 -0.6836 0.3602
-0.3445 -0.7167 0.3599
-0.2790 -0.7441 0.3597
-0.2114 -0.7656 0.3595
-0.1422 -0.7812 0.3594
-0.0719 -0.7906 0.3593
-0.0010 -0.7938 0.3593
0.0698 -0.7908 0.3593
0.1401 -0.7816 0.3594
0.2094 -0.7662 0.3595
0.2771 -0.7449 0.3597
0.3427 -0.7176 0.3600
0.4057 -0.6847 0.3602
0.4656 -0.6464 0.3606
0.5219 -0.6029 0.3609
0.5743 -0.5545 0.3613
0.6222 -0.5017 0.3618
0.6654 -0.4448 0.3623
0.7035 -0.3842 0.3628
0.7360 -0.3203 0.3633
0.7629 -0.2538 0.3639
0.7837 -0.1850 0.3645
0.7984 -0.1145 0.3651
0.8067 -0.0429 0.3657
0.8087 0.0294 0.3663
0.8042 0.1016 0.3669
0.7932 0.1732 0.3675
0.7759 0.2437 0.3681
0.7522 0.3125 0.3687
0.7224 0.3789 0.3692
0.6867 0.4425 0.3698
0.6453 0.5027 0.3703
0.5987 0.5590 0.3707
0.5471 0.6109 0.3712
0.4909 0.6580 0.3716
0.4306 0.6998 0.3719
0.3667 0.7360 0.3722
0.2998 0.7663 0.3725
0.2303 0.7905 0.3727
0.1589 0.8082 0.3728
0.0862 0.8193 0.3729
0.0127 0.8238 0.3729
-0.0608 0.8216 0.3729
-0.1339 0.8128 0.3728
-0.2058 0.7973 0.3727
-0.2760 0.7753 0.3725
-0.3438 0.7471 0.3723
-0.4088 0.7129 0.3720
-0.4704 0.6730 0.3716
-0.5280 0.6277 0.3712
-0.5812 0.5774 0.3708
-0.6296 0.5226 0.3704
-0.6728 0.4636 0.3699
-0.7105 0.4012 0.3693
-0.7424 0.3357 0.3688
-0.7682 0.2677 0.3682
-0.7877 0.1977 0.3676
-0.8009 0.1265 0.3670
-0.8076 0.0544 0.3664
-0.8079 -0.0179 0.3658
-0.8018 -0.0897 0.3652
-0.7893 -0.1607 0.3646
-0.7706 -0.2301 0.3640
-0.7458 -0.2975 0.3634
-0.7152 -0.3623 0.3629
-0.6790 -0.4241 0.3624
-0.6376 -0.4823 0.3619
-0.5913 -0.5366 0.3614
-0.5404 -0.5866 0.3610
-0.4854 -0.6318 0.3606
-0.4267 -0.6720 0.3603
-0.3648 -0.7068 0.3600
-0.3000 -0.7360 0.3598
-0.2330 -0.7594 0.3596
-0.1643 -0.7769 0.3594
-0.0943 -0.7883 0.3593
-0.0235 -0.7934 0.3593
0.0474 -0.7924 0.3593
0.1179 -0.7852 0.3594
0.1876 -0.7717 0.3595
0.2558 -0.7523 0.3597
0.3221 -0.7269 0.3599
0.3860 -0.6958 0.3601
0.4469 -0.6591 0.3605
0.5044 -0.6172 0.3608
0.5581 -0.5704 0.3612
0.6075 -0.5189 0.3616
0.6523 -0.4632 0.3621
0.6920 -0.4038 0.3626
0.7263 -0.3409 0.3632
0.7550 -0.2751 0.3637
0.7777 -0.2070 0.3643
0.7944 -0.1370 0.3649
0.8048 -0.0657 0.3655
0.8088 0.0064 0.3661
0.8063 0.0787 0.3667
0.7974 0.1506 0.3673
0.7821 0.2215 0.3679
0.7604 0.2909 0.3685
0.7325 0.3581 0.3691
0.6987 0.4227 0.3696
0.6591 0.4840 0.3701
0.6140 0.5416 0.3706
0.5639 0.5949 0.3710
0.5092 0.6436 0.3714
0.4501 0.6871 0.3718
0.3874 0.7252 0.3721
0.3213 0.7574 0.3724
0.2526 0.7835 0.3726
0.1818 0.8033 0.3728
0.1094 0.8165 0.3729
0.0361 0.8231 0.3729
-0.0375 0.8231 0.3729
-0.1108 0.8163 0.3729
-0.1831 0.8029 0.3727
-0.2539 0.7830 0.3726
-0.3226 0.7567 0.3723
-0.3885 0.7244 0.3721
-0.4512 0.6862 0.3717
-0.5102 0.6426 0.3714
-0.5648 0.5938 0.3710
-0.6148 0.5404 0.3705
-0.6597 0.4827 0.3700
-0.6992 0.4214 0.3695
-0.7329 0.3568 0.3689
-0.7606 0.2895 0.3684
-0.7822 0.2201 0.3678
-0.7974 0.1492 0.3672
-0.8062 0.0773 0.3666
-0.8085 0.0050 0.3660
-0.8044 -0.0670 0.3654
-0.7939 -0.1383 0.3648
-0.7772 -0.2083 0.3642
-0.7543 -0.2764 0.3636
-0.7255 -0.3420 0.3631
-0.6911 -0.4048 0.3625
-0.6513 -0.4642 0.3620
-0.6065 -0.5198 0.3616
-0.5570 -0.5712 0.3611
-0.5033 -0.6180 0.3607
-0.4457 -0.6598 0.3604
-0.3847 -0.6963 0.3601
-0.3208 -0.7274 0.3598
-0.2545 -0.7526 0.3596
-0.1862 -0.7720 0.3595
-0.1166 -0.7853 0.3594
-0.0460 -0.7925 0.3593
0.0249 -0.7934 0.3593
0.0956 -0.7881 0.3593
0.1656 -0.7767 0.3594
0.2343 -0.7591 0.3596
0.3013 -0.7356 0.3598
0.3660 -0.7063 0.3600
0.4279 -0.6713 0.3603
0.4866 -0.6311 0.3607
0.5415 -0.5858 0.3611
0.5923 -0.5357 0.3615
0.6358 -0.4640 0.3621
0.6756 -0.4059 0.3626
0.7101 -0.3445 0.3631
0.7391 -0.2802 0.3637
0.7624 -0.2135 0.3642
0.7796 -0.1448 0.3648
0.7907 -0.0748 0.3654
0.7955 -0.0039 0.3660
0.7940 0.0672 0.3666
0.7861 0.1380 0.3672
0.7719 0.2079 0.3678
0.7514 0.2764 0.3684
0.7249 0.3429 0.3689
0.6924 0.4068 0.3695
0.6542 0.4676 0.3700
0.6107 0.5248 0.3705
0.5621 0.5779 0.3709
0.5088 0.6264 0.3713
0.4514 0.6700 0.3717
0.3901 0.7082 0.3720
0.3256 0.7407 0.3723
0.2583 0.7673 0.3725
0.1889 0.7876 0.3726
0.1179 0.8016 0.3728
0.0459 0.8090 0.3728
-0.0264 0.8099 0.3728
-0.0986 0.8042 0.3728
-0.1699 0.7920 0.3727
-0.2398 0.7733 0.3725
-0.3077 0.7484 0.3723
-0.3730 0.7174 0.3720
-0.4351 0.6807 0.3717
-0.4937 0.6386 0.3713
-0.5481 0.5913 0.3709
-0.5980 0.5394 0.3705
-0.6429 0.4833 0.3700
-0.6825 0.4234 0.3695
-0.7165 0.3603 0.3690
-0.7447 0.2945 0.3684
-0.7668 0.2265 0.3678
-0.7827 0.1569 0.3673
-0.7923 0.0863 0.3667
-0.7955 0.0152 0.3661
-0.7924 -0.0557 0.3655
-0.7830 -0.1260 0.3649
-0.7674 -0.1951 0.3643
-0.7458 -0.2624 0.3637
-0.7183 -0.3274 0.3632
-0.6852 -0.3896 0.3627
-0.6469 -0.4486 0.3622
-0.6035 -0.5039 0.3617
-0.5554 -0.5551 0.3613
-0.5031 -0.6018 0.3609
-0.4470 -0.6436 0.3605
-0.3875 -0.6804 0.3602
-0.3250 -0.7117 0.3600
-0.2600 -0.7374 0.3597
-0.1931 -0.7574 0.3596
-0.1247 -0.7713 0.3595
-0.0553 -0.7792 0.3594
0.0144 -0.7810 0.3594
0.0841 -0.7767 0.3594
0.1531 -0.7663 0.3595
0.2209 -0.7499 0.3597
0.2871 -0.7276 0.3599
0.3512 -0.6995 0.3601
0.4125 -0.6659 0.3604
0.4707 -0.6270 0.3607
0.5253 -0.5831 0.3611
0.5759 -0.5345 0.3615
0.6221 -0.4816 0.3620
0.6635 -0.4247 0.3624
0.6997 -0.3644 0.3630
0.7305 -0.3009 0.3635
0.7556 -0.2349 0.3640
0.7748 -0.1668 0.3646
0.7879 -0.0971 0.3652
0.7947 -0.0265 0.3658
0.7952 0.0446 0.3664
0.7893 0.1156 0.3670
0.7771 0.1859 0.3676
0.7586 0.2549 0.3682
0.7340 0.3220 0.3687
0.7033 0.3868 0.3693
0.6669 0.4487 0.3698
0.6251 0.5071 0.3703
0.5780 0.5615 0.3708
0.5262 0.6115 0.3712
0.4700 0.6567 0.3716
0.4099 0.6967 0.3719
0.3464 0.7310 0.3722
0.2799 0.7595 0.3724
0.2112 0.7818 0.3726
0.1406 0.7979 0.3727
0.0688 0.8074 0.3728
-0.0035 0.8103 0.3728
-0.0758 0.8067 0.3728
-0.1474 0.7966 0.3727
-0.2178 0.7799 0.3726
-0.2864 0.7570 0.3724
-0.3526 0.7279 0.3721
-0.4158 0.6930 0.3718
-0.4755 0.6525 0.3715
-0.5313 0.6068 0.3711
-0.5827 0.5564 0.3706
-0.6292 0.5015 0.3702
-0.6705 0.4428 0.3697
-0.7064 0.3806 0.3692
-0.7364 0.3156 0.3686
-0.7605 0.2483 0.3680
-0.7783 0.1791 0.3674
-0.7899 0.1088 0.3669
-0.7952 0.0378 0.3663
-0.7941 -0.0333 0.3657
-0.7867 -0.1038 0.3651
-0.7730 -0.1733 0.3645
-0.7533 -0.2412 0.3639
-0.7276 -0.3070 0.3633
-0.6963 -0.3702 0.3628
-0.6596 -0.4303 0.3623
-0.6178 -0.4868 0.3618
-0.5712 -0.5393 0.3614
-0.5202 -0.5874 0.3610
-0.4652 -0.6309 0.3606
-0.4067 -0.6693 0.3603
-0.3451 -0.7024 0.3600
-0.2809 -0.7299 0.3598
-0.2145 -0.7517 0.3596
-0.1465 -0.7675 0.3595
-0.0774 -0.7774 0.3594
-0.0077 -0.7811 0.3594
0.0620 -0.7788 0.3594
0.1313 -0.7703 0.3595
0.1996 -0.7558 0.3596
0.2663 -0.7353 0.3598
0.3311 -0.7090 0.3600
0.3934 -0.6772 0.3603
0.4526 -0.6399 0.3606
0.5084 -0.5976 0.3610
0.5603 -0.5504 0.3614
0.6080 -0.4989 0.3618
0.6509 -0.4432 0.3623
0.6888 -0.3839 0.3628
0.7214 -0.3213 0.3633
0.7483 -0.2561 0.3639
0.7694 -0.1886 0.3644
0.7844 -0.1194 0.3650
0.7932 -0.0490 0.3656
0.7957 0.0220 0.3662
0.7919 0.0931 0.3668
0.7816 0.1637 0.3674
0.7651 0.2331 0.3680
0.7424 0.3009 0.3686
0.7137 0.3665 0.3691
0.6791 0.4294 0.3696
0.6389 0.4889 0.3701
0.5935 0.5447 0.3706
0.5432 0.5962 0.3710
0.4883 0.6429 0.3714
0.4294 0.6846 0.3718
0.3669 0.7208 0.3721
0.3013 0.7511 0.3723
0.2332 0.7754 0.3725
0.1631 0.7935 0.3727
0.0917 0.8051 0.3728
0.0195 0.8101 0.3728
-0.0529 0.8086 0.3728
-0.1248 0.8005 0.3727
-0.1957 0.7859 0.3726
-0.2649 0.7649 0.3724
-0.3319 0.7378 0.3722
-0.3961 0.7047 0.3719
-0.4570 0.6659 0.3716
-0.5141 0.6219 0.3712
-0.5669 0.5729 0.3708
-0.6150 0.5194 0.3703
-0.6580 0.4618 0.3698
-0.6956 0.4007 0.3693
-0.7275 0.3365 0.3688
-0.7535 0.2698 0.3682
-0.7733 0.2012 0.3676
-0.7869 0.1312 0.3670
-0.7942 0.0603 0.3664
-0.7951 -0.0108 0.3658
-0.7897 -0.0815 0.3652
-0.7780 -0.1514 0.3647
-0.7602 -0.2199 0.3641
-0.7364 -0.2864 0.3635
-0.7069 -0.3505 0.3630
-0.6718 -0.4116 0.3625
-0.6316 -0.4692 0.3620
-0.5864 -0.5231 0.3615
-0.5368 -0.5727 0.3611
-0.4831 -0.6176 0.3607
-0.4256 -0.6577 0.3604
-0.3649 -0.6925 0.3601
-0.3015 -0.7218 0.3599
-0.2357 -0.7454 0.3597
-0.1682 -0.7632 0.3595
-0.0994 -0.7749 0.3594
-0.0299 -0.7806 0.3594
0.0399 -0.7802 0.3594
0.1094 -0.7736 0.3595
0.1780 -0.7610 0.3596
0.2453 -0.7424 0.3597
0.3108 -0.7180 0.3599
0.3739 -0.6879 0.3602
0.4342 -0.6523 0.3605
0.4911 -0.6116 0.3609
0.5443 -0.5659 0.3612
0.5933 -0.5157 0.3617
0.6378 -0.4613 0.3621
0.6773 -0.4031 0.3626
0.7116 -0.3415 0.3631
0.7404 -0.2771 0.3637
0.7633 -0.2102 0.3643
0.7803 -0.1415 0.3648
0.7911 -0.0714 0.3654
0.7956 -0.0005 0.3660
0.7938 0.0706 0.3666
0.7856 0.1414 0.3672
0.7711 0.2112 0.3678
0.7503 0.2796 0.3684
0.7234 0.3460 0.3689
0.6907 0.4098 0.3695
0.6523 0.4704 0.3700
0.6085 0.5274 0.3705
0.5596 0.5803 0.3709
0.5062 0.6286 0.3713
0.4485 0.6719 0.3717
0.3871 0.7099 0.3720
0.3224 0.7421 0.3723
0.2551 0.7684 0.3725
0.1856 0.7884 0.3726
0.1145 0.8021 0.3728
0.0425 0.8092 0.3728
-0.0299 0.8098 0.3728
-0.1020 0.8038 0.3728
-0.1733 0.7912 0.3726
-0.2431 0.7723 0.3725
-0.3109 0.7470 0.3723
-0.3760 0.7158 0.3720
-0.4380 0.6788 0.3717
-0.4964 0.6364 0.3713
-0.5506 0.5889 0.3709
-0.6002 0.5368 0.3705
-0.6449 0.4805 0.3700
-0.6843 0.4204 0.3695
-0.7180 0.3572 0.3690
-0.7459 0.2912 0.3684
-0.7677 0.2232 0.3678
-0.7833 0.1535 0.3672
-0.7926 0.0829 0.3666
-0.7955 0.0118 0.3660
-0.7921 -0.0591 0.3654
-0.7824 -0.1294 0.3648
-0.7665 -0.1984 0.3643
-0.7446 -0.2656 0.3637
-0.7168 -0.3304 0.3632
-0.6835 -0.3925 0.3626
-0.6449 -0.4513 0.3621
-0.6013 -0.5064 0.3617
-0.5530 -0.5574 0.3612
-0.5005 -0.6039 0.3609
-0.4442 -0.6455 0.3605
-0.3845 -0.6820 0.3602
-0.3219 -0.7131 0.3599
-0.2568 -0.7385 0.3597
-0.1898 -0.7582 0.3596
-0.1214 -0.7718 0.3595
-0.0520 -0.7795 0.3594
0.0178 -0.7810 0.3594
0.0874 -0.7764 0.3594
0.1564 -0.7657 0.3595
0.2242 -0.7490 0.3597
0.2903 -0.7264 0.3599
0.3542 -0.6980 0.3601
0.4154 -0.6642 0.3604
0.4734 -0.6250 0.3607
0.5279 -0.5809 0.3611
0.5783 -0.5321 0.3615
0.6242 -0.4790 0.3620
0.6653 -0.4219 0.3625
0.7013 -0.3614 0.3630
0.7319 -0.2978 0.3635
0.7567 -0.2316 0.3641
0.7756 -0.1635 0.3647
0.7883 -0.0937 0.3652
0.7948 -0.0231 0.3658
0.7950 0.0480 0.3664
0.7889 0.1190 0.3670
0.7763 0.1892 0.3676
0.7576 0.2581 0.3682
0.7326 0.3252 0.3688
0.7017 0.3899 0.3693
0.6651 0.4516 0.3698
0.6229 0.5098 0.3703
0.5757 0.5640 0.3708
0.5236 0.6138 0.3712
0.4672 0.6588 0.3716
0.4069 0.6985 0.3719
0.3432 0.7325 0.3722
0.2767 0.7607 0.3724
0.2078 0.7828 0.3726
0.1372 0.7985 0.3727
0.0654 0.8077 0.3728
-0.0070 0.8103 0.3728
-0.0792 0.8064 0.3728
-0.1508 0.7959 0.3727
-0.2212 0.7790 0.3725
-0.2896 0.7557 0.3723
-0.3557 0.7264 0.3721
-0.4187 0.6912 0.3718
-0.4783 0.6504 0.3714
-0.5339 0.6045 0.3711
-0.5850 0.5538 0.3706
-0.6313 0.4988 0.3702
-0.6724 0.4399 0.3697
-0.7079 0.3776 0.3691
-0.7377 0.3124 0.3686
-0.7615 0.2450 0.3680
-0.7790 0.1758 0.3674
-0.7903 0.1054 0.3668
-0.7953 0.0344 0.3662
-0.7939 -0.0367 0.3656
-0.7861 -0.1072 0.3650
-0.7722 -0.1766 0.3644
-0.7522 -0.2445 0.3639
-0.7263 -0.3101 0.3633
-0.6947 -0.3732 0.3628
-0.6577 -0.4331 0.3623
-0.6156 -0.4894 0.3618
-0.5688 -0.5417 0.3614
-0.5176 -0.5896 0.3610
-0.4625 -0.6329 0.3606
-0.4038 -0.6710 0.3603
-0.3420 -0.7038 0.3600
-0.2777 -0.7311 0.3598
-0.2113 -0.7526 0.3596
-0.1432 -0.7682 0.3595
-0.0741 -0.7777 0.3594
-0.0044 -0.7812 0.3594
0.0654 -0.7785 0.3594
0.1346 -0.7697 0.3595
0.2028 -0.7549 0.3596
0.2695 -0.7342 0.3598
0.3342 -0.7076 0.3600
0.3963 -0.6755 0.3603
0.4554 -0.6380 0.3606
0.5110 -0.5954 0.3610
0.5627 -0.5481 0.3614
0.6101 -0.4963 0.3618
0.6528 -0.4404 0.3623
0.6905 -0.3809 0.3628
0.7228 -0.3183 0.3633
0.7494 -0.2529 0.3639
0.7702 -0.1853 0.3645
0.7849 -0.1160 0.3651
0.7935 -0.0456 0.3656
0.7957 0.0255 0.3662
0.7915 0.0965 0.3668
0.7810 0.1670 0.3674
0.7642 0.2364 0.3680
0.7412 0.3042 0.3686
0.7122 0.3696 0.3691
0.6773 0.4323 0.3697
0.6369 0.4917 0.3702
0.5912 0.5473 0.3706
0.5406 0.5985 0.3711
0.4856 0.6451 0.3715
0.4265 0.6865 0.3718
0.3638 0.7224 0.3721
0.2981 0.7524 0.3724
0.2299 0.7765 0.3725
0.1597 0.7942 0.3727
0.0882 0.8055 0.3728
0.0160 0.8102 0.3728
-0.0563 0.8083 0.3728
-0.1282 0.7999 0.3727
-0.1990 0.7850 0.3726
-0.2681 0.7638 0.3724
-0.3350 0.7363 0.3722
-0.3991 0.7029 0.3719
-0.4598 0.6639 0.3716
-0.5167 0.6196 0.3712
-0.5693 0.5704 0.3708
-0.6172 0.5167 0.3703
-0.6599 0.4589 0.3698
-0.6973 0.3977 0.3693
-0.7289 0.3334 0.3688
-0.7546 0.2666 0.3682
-0.7741 0.1979 0.3676
-0.7874 0.1278 0.3670
-0.7944 0.0569 0.3664
-0.7950 -0.0142 0.3658
-0.7893 -0.0849 0.3652
-0.7773 -0.1548 0.3646
-0.7592 -0.2231 0.3641
-0.7351 -0.2896 0.3635
-0.7053 -0.3535 0.3630
-0.6700 -0.4144 0.3624
-0.6295 -0.4719 0.3620
-0.5841 -0.5256 0.3615
-0.5343 -0.5749 0.3611
-0.4804 -0.6197 0.3607
-0.4228 -0.6595 0.3604
-0.3619 -0.6940 0.3601
-0.2984 -0.7231 0.3599
-0.2325 -0.7464 0.3597
-0.1649 -0.7639 0.3595
-0.0961 -0.7753 0.3594
-0.0265 -0.7807 0.3594
0.0433 -0.7800 0.3594
0.1127 -0.7732 0.3595
0.1813 -0.7603 0.3596
0.2485 -0.7414 0.3597
0.3139 -0.7167 0.3600
0.3769 -0.6863 0.3602
0.4370 -0.6505 0.3605
0.4938 -0.6095 0.3609
0.5468 -0.5636 0.3613
0.5956 -0.5132 0.3617
0.6398 -0.4586 0.3622
0.6791 -0.4002 0.3626
0.7131 -0.3385 0.3632
0.7416 -0.2739 0.3637
0.7643 -0.2069 0.3643
0.7809 -0.1381 0.3649
0.7914 -0.0680 0.3655
0.7957 0.0029 0.3661
0.7935 0.0740 0.3667
0.7850 0.1448 0.3673
0.7702 0.2146 0.3678
0.7491 0.2829 0.3684
0.7220 0.3491 0.3690
0.6890 0.4128 0.3695
0.6503 0.4733 0.3700
0.6062 0.5301 0.3705
0.5572 0.5828 0.3709
0.5035 0.6308 0.3713
0.4456 0.6739 0.3717
0.3840 0.7116 0.3720
0.3192 0.7435 0.3723
0.2518 0.7695 0.3725
0.1822 0.7892 0.3727
0.1110 0.8026 0.3728
0.0390 0.8094 0.3728
-0.0334 0.8096 0.3728
-0.1055 0.8033 0.3728
-0.1767 0.7905 0.3726
-0.2464 0.7712 0.3725
-0.3141 0.7457 0.3723
-0.3791 0.7142 0.3720
-0.4409 0.6769 0.3717
-0.4991 0.6342 0.3713
-0.5531 0.5865 0.3709
-0.6025 0.5342 0.3705
-0.6469 0.4777 0.3700
-0.6860 0.4175 0.3695
-0.7195 0.3541 0.3689
-0.7471 0.2880 0.3684
-0.7686 0.2198 0.3678
-0.7839 0.1501 0.3672
-0.7929 0.0795 0.3666
-0.7955 0.0084 0.3660
-0.7918 -0.0625 0.3654
-0.7818 -0.1327 0.3648
-0.7656 -0.2016 0.3642
-0.7434 -0.2687 0.3637
-0.7154 -0.3335 0.3631
-0.6818 -0.3954 0.3626
-0.6429 -0.4541 0.3621
-0.5990 -0.5090 0.3617
-0.5506 -0.5598 0.3612
-0.4979 -0.6060 0.3608
-0.4414 -0.6474 0.3605
-0.3816 -0.6836 0.3602
-0.3188 -0.7144 0.3599
-0.2536 -0.7396 0.3597
-0.1865 -0.7590 0.3596
-0.1180 -0.7723 0.3595
-0.0486 -0.7797 0.3594
0.0211 -0.7809 0.3594
0.0907 -0.7760 0.3594
0.1597 -0.7650 0.3595
0.2274 -0.7480 0.3597
0.2934 -0.7251 0.3599
0.3572 -0.6965 0.3601
0.4182 -0.6624 0.3604
0.4761 -0.6230 0.3608
0.5304 -0.5787 0.3611
0.5806 -0.5296 0.3616
0.6263 -0.4763 0.3620
0.6672 -0.4191 0.3625
0.7029 -0.3584 0.3630
0.7332 -0.2947 0.3635
0.7577 -0.2284 0.3641
0.7763 -0.1601 0.3647
0.7888 -0.0904 0.3653
0.7950 -0.0196 0.3659
0.7949 0.0515 0.3665
0.7884 0.1224 0.3671
0.7756 0.1926 0.3677
0.7565 0.2614 0.3682
0.7313 0.3284 0.3688
0.7001 0.3929 0.3693
0.6632 0.4544 0.3699
0.6208 0.5125 0.3703
0.5733 0.5665 0.3708
0.5210 0.6161 0.3712
0.4644 0.6608 0.3716
0.4039 0.7002 0.3719
0.3401 0.7340 0.3722
0.2734 0.7619 0.3724
0.2044 0.7837 0.3726
0.1337 0.7991 0.3727
0.0619 0.8080 0.3728
-0.0104 0.8103 0.3728
-0.0827 0.8060 0.3728
-0.1543 0.7952 0.3727
-0.2245 0.7780 0.3725
-0.2929 0.7544 0.3723
-0.3588 0.7248 0.3721
-0.4217 0.6893 0.3718
-0.4811 0.6483 0.3714
-0.5364 0.6022 0.3710
-0.5873 0.5513 0.3706
-0.6334 0.4960 0.3701
-0.6742 0.4369 0.3696
-0.7095 0.3745 0.3691
-0.7390 0.3092 0.3685
-0.7624 0.2417 0.3680
-0.7797 0.1724 0.3674
-0.7907 0.1020 0.3668
-0.7954 0.0309 0.3662
-0.7936 -0.0401 0.3656
-0.7856 -0.1106 0.3650
-0.7714 -0.1799 0.3644
-0.7511 -0.2477 0.3638
-0.7249 -0.3132 0.3633
-0.6930 -0.3761 0.3628
-0.6558 -0.4359 0.3623
-0.6135 -0.4920 0.3618
-0.5664 -0.5441 0.3614
-0.5151 -0.5918 0.3610
-0.4597 -0.6348 0.3606
-0.4009 -0.6727 0.3603
-0.3390 -0.7053 0.3600
-0.2745 -0.7322 0.3598
-0.2080 -0.7535 0.3596
-0.1399 -0.7688 0.3595
-0.0707 -0.7780 0.3594
-0.0010 -0.7812 0.3594
0.0687 -0.7782 0.3594
0.1379 -0.7691 0.3595
0.2061 -0.7540 0.3596
0.2727 -0.7330 0.3598
0.3372 -0.7062 0.3600
0.3992 -0.6738 0.3603
0.4581 -0.6361 0.3606
0.5136 -0.5933 0.3610
0.5651 -0.5457 0.3614
0.6123 -0.4937 0.3619
0.6548 -0.4376 0.3623
0.6922 -0.3780 0.3628
0.7242 -0.3152 0.3634
0.7506 -0.2497 0.3639
0.7711 -0.1820 0.3645
0.7855 -0.1126 0.3651
0.7937 -0.0422 0.3657
0.7956 0.0289 0.3663
0.7911 0.0999 0.3669
0.7803 0.1704 0.3675
0.7632 0.2397 0.3681
0.7399 0.3074 0.3686
0.7106 0.3727 0.3692
0.6755 0.4353 0.3697
0.6348 0.4945 0.3702
0.5889 0.5498 0.3707
0.5381 0.6009 0.3711
0.4828 0.6472 0.3715
0.4235 0.6883 0.3718
0.3607 0.7239 0.3721
0.2949 0.7537 0.3724
0.2265 0.7774 0.3726
0.1563 0.7949 0.3727
0.0848 0.8058 0.3728
0.0125 0.8103 0.3728
-0.0598 0.8081 0.3728
-0.1317 0.7994 0.3727
-0.2024 0.7841 0.3726
-0.2714 0.7626 0.3724
-0.3382 0.7348 0.3722
-0.4021 0.7012 0.3719
-0.4626 0.6619 0.3715
-0.5193 0.6174 0.3712
-0.5717 0.5679 0.3707
-0.6193 0.5140 0.3703
-0.6618 0.4561 0.3698
-0.6989 0.3946 0.3693
-0.7303 0.3302 0.3687
-0.7557 0.2633 0.3682
-0.7749 0.1945 0.3676
-0.7879 0.1244 0.3670
-0.7946 0.0535 0.3664
-0.7949 -0.0176 0.3658
-0.7888 -0.0883 0.3652
-0.7766 -0.1581 0.3646
-0.7582 -0.2264 0.3640
-0.7338 -0.2927 0.3635
-0.7037 -0.3565 0.3629
-0.6682 -0.4173 0.3624
-0.6274 -0.4746 0.3619
-0.5818 -0.5280 0.3615
-0.5318 -0.5772 0.3611
-0.4777 -0.6217 0.3607
-0.4199 -0.6612 0.3604
-0.3589 -0.6955 0.3601
