ply
format ascii 1.0
element vertex 1942
property float32 x
property float32 y
property float32 z
end_header
-7.3272 -19.7788 -8.9276
20.7693 -28.5877 -14.9564
21.0588 -24.1236 -13.5538
21.6744 -20.7560 -12.7021
25.5321 -20.4107 -13.8355
25.7770 -20.4264 -13.6825
23.4265 -9.9597 -10.5901
23.5133 -7.6001 -10.2803
24.0569 -5.4618 -10.2628
24.4483 -3.2929 -10.2628
24.6447 -1.0977 -10.2628
24.6443 1.1063 -10.2628
24.4472 3.3014 -10.2628
20.7503 -29.9859 -15.1703
20.9906 -25.1902 -13.6411
21.5613 -21.6182 -12.7021
24.2669 -20.3299 -13.1701
29.9311 -20.8293 -15.1703
23.8180 -10.9013 -10.8973
23.4687 -8.2981 -10.3558
23.8992 -6.1150 -10.2628
24.3496 -3.9576 -10.2628
24.6056 -1.7685 -10.2628
24.6653 0.4346 -10.2628
24.5281 2.6343 -10.2628
24.5015 4.8739 -10.3928
12.1388 9.0987 -6.3111
20.5807 -31.5434 -15.6688
20.9053 -26.5247 -14.0501
21.1681 -22.4130 -12.8255
22.8649 -20.2403 -12.7037
29.0345 -21.4023 -15.0059
23.4234 -9.0071 -10.4402
23.7238 -6.7637 -10.2628
24.2328 -4.6193 -10.2628
24.5483 -2.4380 -10.2628
24.6680 -0.2373 -10.2628
24.5907 1.9653 -10.2628
24.3172 4.1522 -10.2628
21.2684 -28.5519 -14.8114
21.0930 -23.5886 -13.1645
22.3023 -20.8528 -12.7021
26.2227 -20.4549 -13.8356
23.4113 -9.7424 -10.5492
23.5308 -7.4073 -10.2628
24.0980 -5.2776 -10.2628
24.4728 -3.1057 -10.2628
24.6524 -0.9091 -10.2628
24.6351 1.2948 -10.2628
24.4212 3.4884 -10.2628
-9.4261 0.4762 -3.9264
20.9792 -29.8262 -15.1703
21.0137 -24.8290 -13.5322
21.7261 -21.4526 -12.7021
15.6351 -12.8961 -8.4316
30.2477 -20.7078 -15.2500
23.5901 -10.5794 -10.7557
23.4813 -8.1010 -10.3337
23.9453 -5.9319 -10.2628
24.3792 -3.7711 -10.2628
24.6184 -1.5802 -10.2628
24.6612 0.6234 -10.2628
24.5072 2.8220 -10.2628
24.6389 5.0976 -10.4673
11.9868 9.1288 -6.2682
-8.2512 -19.6625 -8.8710
20.6108 -31.0674 -15.5103
20.9298 -26.1417 -13.9316
21.1885 -22.0934 -12.7350
23.2488 -20.2648 -12.8304
29.4478 -21.3610 -15.1345
23.4362 -8.8068 -10.4156
23.7748 -6.5819 -10.2628
24.2674 -4.4337 -10.2628
24.5663 -2.2501 -10.2628
24.6691 -0.0485 -10.2628
24.5749 2.1535 -10.2628
24.3289 4.3461 -10.2815
21.5490 -28.4711 -14.8546
21.1145 -23.2520 -13.0664
22.4612 -20.6816 -12.7021
26.6786 -20.4840 -13.9930
23.3963 -9.5267 -10.5093
23.5868 -7.2270 -10.2628
24.1376 -5.0930 -10.2628
23.8177 -2.8375 -9.9787
24.6586 -0.7204 -10.2628
24.6245 1.4833 -10.2628
24.3938 3.6752 -10.2628
-9.4010 0.4028 -3.9146
21.2068 -29.6648 -15.1703
21.0364 -24.4736 -13.4258
21.8896 -21.2856 -12.7021
25.1014 -20.3832 -13.4520
30.8024 -20.7432 -15.4492
23.4888 -10.3188 -10.6731
23.4939 -7.9046 -10.3123
23.9900 -5.7485 -10.2628
24.4073 -3.5844 -10.2628
24.6298 -1.3917 -10.2628
24.6557 0.8121 -10.2628
24.4849 3.0094 -10.2628
24.8950 5.3496 -10.5932
11.9138 9.2182 -6.2668
-8.0826 -19.6815 -8.8514
20.6406 -30.6013 -15.3560
20.9539 -25.7652 -13.8160
21.3017 -21.8739 -12.7021
23.6403 -20.2899 -12.9605
29.4687 -21.0339 -15.0621
23.4490 -8.6073 -10.3916
23.8245 -6.3998 -10.2628
24.3006 -4.2478 -10.2628
24.5828 -2.0620 -10.2628
24.6687 0.1403 -10.2628
24.5577 2.3414 -10.2628
24.3688 4.5459 -10.3128
21.5752 -28.0569 -14.7243
21.1357 -22.9204 -12.9706
22.6188 -20.5091 -12.7021
28.2535 -21.3516 -14.7329
23.4033 -9.3214 -10.4801
23.6414 -7.0462 -10.2628
24.1759 -4.9081 -10.2628
24.0068 -2.6739 -10.0490
24.6634 -0.5316 -10.2628
24.6124 1.6718 -10.2628
24.3650 3.8618 -10.2628
-9.4211 0.3315 -3.9218
20.7693 -28.5877 -14.7004
21.0588 -24.1236 -13.3218
22.0519 -21.1175 -12.7021
25.5321 -20.4108 -13.5987
25.7770 -20.4264 -13.4454
31.6973 -20.8004 -15.4992
23.4265 -9.9597 -10.4066
23.8872 -7.7209 -10.2628
24.4123 -5.5425 -10.2340
24.5563 -3.3075 -10.1295
24.6968 -1.1000 -10.1063
24.8372 1.1149 -10.1639
24.8782 3.3596 -10.2628
21.1161 -30.5145 -15.1703
20.9906 -25.1902 -13.4047
21.9414 -21.9993 -12.7021
24.2669 -20.3299 -12.9419
30.4588 -21.1966 -15.1703
23.8180 -10.9013 -10.7085
23.6681 -8.3686 -10.2628
24.3205 -6.2228 -10.2628
24.5127 -3.9841 -10.1526
24.6542 -1.7720 -10.1049
24.7942 0.4369 -10.1377
24.9363 2.6782 -10.2529
24.6216 4.8978 -10.2628
-8.4411 -19.6911 -8.7584
20.5804 -31.5430 -15.3971
20.9053 -26.5247 -13.8067
21.3341 -22.5888 -12.7021
23.2651 -20.5945 -12.7021
29.0345 -21.4023 -14.7459
23.4314 -9.0102 -10.2628
24.1420 -6.8829 -10.2628
24.4689 -4.6643 -10.1833
24.6116 -2.4443 -10.1110
24.7514 -0.2381 -10.1191
24.8926 1.9894 -10.2088
24.7459 4.2254 -10.2628
21.2684 -28.5519 -14.5548
21.0930 -23.5886 -12.9364
22.4820 -21.0208 -12.5826
26.2227 -20.4549 -13.5959
32.2913 -20.8384 -15.7111
23.4113 -9.7424 -10.3664
23.9456 -7.5379 -10.2628
24.4248 -5.3492 -10.2218
24.5685 -3.1178 -10.1244
24.7087 -0.9111 -10.1081
24.8493 1.3061 -10.1727
24.8518 3.5499 -10.2628
5.6037 9.4508 -4.4917
-9.4258 0.4762 -3.8583
21.3490 -30.3520 -15.1703
21.0137 -24.8290 -13.2977
22.0072 -21.7301 -12.6435
24.6797 -20.3563 -13.0785
30.6201 -20.9628 -15.1703
23.5901 -10.5794 -10.5693
23.7315 -8.1872 -10.2628
24.3675 -6.0365 -10.2628
24.5250 -3.7937 -10.1453
24.6661 -1.5833 -10.1045
24.8063 0.6270 -10.1443
24.9392 2.8717 -10.2628
24.6389 5.0976 -10.2860
20.6108 -31.0675 -15.2415
20.9298 -26.1417 -13.6903
21.5063 -22.4248 -12.7021
23.4220 -20.4158 -12.7021
29.4478 -21.3610 -14.8723
23.4996 -8.8306 -10.2628
24.1940 -6.6979 -10.2628
24.4813 -4.4727 -10.1739
24.6235 -2.2553 -10.1085
24.7634 -0.0487 -10.1236
24.9049 2.1824 -10.2204
24.7128 4.4147 -10.2628
12.6029 9.0665 -6.3469
21.5490 -28.4711 -14.5973
21.1145 -23.2520 -12.8400
22.8069 -20.9999 -12.6741
26.6786 -20.4840 -13.7505
23.3963 -9.5267 -10.3272
24.0026 -7.3545 -10.2628
24.4372 -5.1562 -10.2102
23.8177 -2.8375 -9.8058
24.7207 -0.7222 -10.1104
24.8614 1.4976 -10.1821
24.8239 3.7400 -10.2628
5.4950 9.4313 -4.4623
-9.4008 0.4028 -3.8467
21.4472 -30.0010 -15.0765
21.0364 -24.4736 -13.1932
22.0580 -21.4494 -12.5781
15.8980 -12.9097 -8.3722
30.8024 -20.7432 -15.1815
23.4888 -10.3188 -10.4882
23.7934 -8.0054 -10.2628
24.3929 -5.8450 -10.2544
24.5373 -3.6034 -10.1387
24.6781 -1.3945 -10.1048
24.8183 0.8174 -10.1515
24.9165 3.0625 -10.2628
24.8950 5.3496 -10.4097
20.7506 -30.7643 -15.1703
20.9539 -25.7652 -13.5767
21.6773 -22.2596 -12.7021
23.6403 -20.2899 -12.7359
29.4687 -21.0339 -14.8012
23.5665 -8.6505 -10.2628
24.2446 -6.5126 -10.2628
24.4936 -4.2815 -10.1651
24.6355 -2.0664 -10.1066
24.7754 0.1409 -10.1286
24.9171 2.3757 -10.2326
24.6783 4.6037 -10.2628
12.4341 9.0903 -6.2968
-8.6914 -19.6252 -8.7746
20.5320 -32.3046 -15.6482
20.8663 -27.1350 -13.9937
21.1357 -22.9204 -12.7459
23.0176 -20.8707 -12.7021
27.1449 -20.5138 -13.9096
23.4033 -9.3214 -10.2985
24.0582 -7.1704 -10.2628
24.4496 -4.9637 -10.1992
24.0068 -2.6739 -9.8749
24.7327 -0.5331 -10.1134
24.8736 1.6895 -10.1920
24.7945 3.9299 -10.2628
-9.4209 0.3315 -3.8537
20.7693 -28.5877 -14.4457
21.0588 -24.1236 -13.0910
22.1839 -21.2439 -12.5568
25.5321 -20.4108 -13.3631
16.3315 -12.9416 -8.3692
31.6973 -20.8004 -15.2273
23.5153 -9.9975 -10.2628
24.2642 -7.8428 -10.2419
24.4123 -5.5425 -10.0545
24.5563 -3.3075 -9.9518
24.6968 -1.1000 -9.9290
24.8372 1.1149 -9.9856
24.9804 3.3734 -10.1242
5.6812 9.4165 -4.4171
21.3887 -30.9085 -15.0966
20.9906 -25.1902 -13.1696
21.9582 -22.0162 -12.4888
24.2669 -20.3299 -12.7149
30.9213 -21.5185 -15.1305
23.8180 -10.9013 -10.5206
24.0907 -8.5181 -10.2628
24.3677 -6.2349 -10.1023
24.5127 -3.9841 -9.9745
24.6542 -1.7720 -9.9276
24.7942 0.4369 -9.9599
24.9363 2.6781 -10.0730
25.0613 4.9853 -10.2628
20.6393 -31.6332 -15.1703
20.9053 -26.5247 -13.5645
21.7150 -22.9921 -12.7021
23.6804 -20.9622 -12.7021
27.8942 -20.5617 -13.9183
23.8498 -9.1711 -10.2628
24.3227 -6.9344 -10.1582
24.4689 -4.6643 -10.0046
24.6116 -2.4443 -9.9336
24.7514 -0.2381 -9.9416
24.8926 1.9894 -10.0297
25.0866 4.2836 -10.2216
12.8000 9.0605 -6.2986
-14.5628 13.2493 -7.9075
-9.0472 -19.6119 -8.6747
20.4673 -33.3186 -15.7053
20.8147 -27.9429 -13.9945
21.0930 -23.5886 -12.7094
22.4820 -21.0208 -12.3619
26.2227 -20.4549 -13.3574
32.2913 -20.8384 -15.4355
23.5911 -9.8172 -10.2628
24.2771 -7.6422 -10.2223
24.4248 -5.3492 -10.0425
24.5685 -3.1179 -9.9468
24.7087 -0.9111 -9.9308
24.8493 1.3061 -9.9942
24.9928 3.5700 -10.1400
5.5892 9.4264 -4.4015
-9.4256 0.4762 -3.7905
21.4182 -30.4504 -14.9525
21.0137 -24.8290 -13.0644
22.0072 -21.7301 -12.4217
24.6797 -20.3563 -12.8491
31.1668 -21.3371 -15.1703
23.5901 -10.5794 -10.3839
24.1552 -8.3334 -10.2628
24.3803 -6.0397 -10.0881
24.5250 -3.7936 -9.9674
24.6661 -1.5832 -9.9273
24.8063 0.6270 -9.9663
24.9486 2.8728 -10.0866
25.0224 5.1769 -10.2628
5.9322 9.4108 -4.4680
20.8808 -31.4744 -15.1703
20.9298 -26.1417 -13.4501
21.8903 -22.8252 -12.7021
23.8402 -20.7804 -12.7021
29.4478 -21.3610 -14.6114
23.9193 -8.9883 -10.2628
24.3354 -6.7371 -10.1417
24.4813 -4.4727 -9.9954
24.6235 -2.2554 -9.9312
24.7634 -0.0487 -9.9460
24.9049 2.1824 -10.0411
25.1541 4.4935 -10.2628
-8.8896 -19.6648 -8.6677
20.4999 -32.8060 -15.5372
20.8407 -27.5353 -13.8698
21.2606 -23.4129 -12.7021
22.8069 -20.9999 -12.4518
16.8641 -12.9484 -8.5395
32.9017 -20.8774 -15.6505
23.6656 -9.6363 -10.2628
24.2900 -7.4425 -10.2035
24.4372 -5.1562 -10.0311
23.8177 -2.8375 -9.6338
24.7207 -0.7222 -9.9331
24.8614 1.4976 -10.0034
25.0053 3.7674 -10.1565
5.5014 9.4422 -4.3891
-9.4005 0.4028 -3.7791
21.4472 -30.0010 -14.8120
21.0364 -24.4736 -12.9618
22.0580 -21.4494 -12.3574
16.0525 -13.0352 -8.3053
31.3292 -21.0980 -15.1703
23.4888 -10.3188 -10.3042
24.2183 -8.1483 -10.2628
24.3929 -5.8450 -10.0745
24.5373 -3.6034 -9.9608
24.6781 -1.3945 -9.9275
24.8183 0.8174 -9.9734
24.9610 3.0680 -10.1008
24.9820 5.3683 -10.2628
5.8303 9.4079 -4.4454
21.1211 -31.3136 -15.1703
20.9539 -25.7652 -13.3385
21.9265 -22.5155 -12.6227
23.9985 -20.5973 -12.7021
29.4687 -21.0339 -14.5415
23.9873 -8.8050 -10.2628
24.3481 -6.5404 -10.1258
24.4936 -4.2815 -9.9868
24.6355 -2.0664 -9.9293
24.7754 0.1409 -9.9510
24.9171 2.3757 -10.0531
25.1190 4.6859 -10.2628
20.5318 -32.3043 -15.3735
20.8663 -27.1350 -13.7483
21.4392 -23.2495 -12.7021
23.1853 -21.0227 -12.5702
27.1449 -20.5138 -13.6656
23.7387 -9.4550 -10.2628
24.3028 -7.2434 -10.1853
24.4496 -4.9637 -10.0203
24.0068 -2.6739 -9.7017
24.7327 -0.5331 -9.9359
24.8736 1.6895 -10.0132
25.0300 3.9672 -10.1785
-9.4206 0.3315 -3.7860
20.7693 -28.5877 -14.1923
21.0588 -24.1236 -12.8614
22.1839 -21.2439 -12.3365
16.1650 -12.9226 -8.3121
16.3537 -12.9591 -8.2316
32.1500 -21.0975 -15.1703
23.9407 -10.1783 -10.2628
24.2642 -7.8428 -10.0599
24.4123 -5.5425 -9.8759
24.5563 -3.3075 -9.7750
24.6968 -1.1001 -9.7526
24.8372 1.1149 -9.8082
24.9804 3.3734 -9.9443
15.8090 15.0203 -8.6028
5.7140 9.4708 -4.3636
21.3887 -30.9085 -14.8284
20.9906 -25.1902 -12.9356
21.9582 -22.0162 -12.2669
24.6811 -20.6769 -12.7021
30.9214 -21.5185 -14.8617
23.8180 -10.9013 -10.3337
24.2178 -8.5630 -10.1336
24.3677 -6.2349 -9.9228
24.5127 -3.9841 -9.7973
24.6542 -1.7720 -9.7512
24.7942 0.4369 -9.7829
24.9363 2.6782 -9.8940
25.5146 5.0755 -10.2628
16.2897 14.6539 -8.6439
6.0256 9.3987 -4.4044
21.0126 -32.2055 -15.1703
20.9053 -26.5247 -13.3234
21.8849 -23.1720 -12.5740
23.7934 -21.0622 -12.5359
27.8942 -20.5617 -13.6710
24.1707 -9.2944 -10.2161
24.3227 -6.9344 -9.9777
24.4689 -4.6643 -9.8269
24.6116 -2.4443 -9.7571
24.7514 -0.2381 -9.7650
24.8926 1.9894 -9.8515
25.0866 4.2836 -10.0400
16.6394 14.1679 -8.6215
15.2979 15.5857 -8.6156
-14.5451 13.2331 -7.7575
20.4670 -33.3181 -15.4260
20.8147 -27.9429 -13.7458
21.4621 -24.0014 -12.7021
22.4820 -21.0208 -12.1422
26.2227 -20.4549 -13.1200
32.3105 -20.8508 -15.1703
24.0179 -9.9948 -10.2628
24.2771 -7.6422 -10.0407
24.4248 -5.3492 -9.8640
24.5685 -3.1179 -9.7701
24.7087 -0.9111 -9.7543
24.8493 1.3061 -9.8167
24.9928 3.5700 -9.9598
16.9993 13.6936 -8.6115
15.6967 15.1439 -8.6046
-9.4253 0.4762 -3.7231
-9.6813 -19.5672 -8.6125
21.4182 -30.4504 -14.6868
21.0137 -24.8290 -12.8323
22.0072 -21.7301 -12.2010
24.8387 -20.4874 -12.7021
31.4834 -21.5538 -15.0521
23.7367 -10.6452 -10.2628
24.2309 -8.3595 -10.1121
24.3803 -6.0397 -9.9089
24.5250 -3.7937 -9.7903
24.6661 -1.5832 -9.7509
24.8063 0.6270 -9.7893
24.9486 2.8728 -9.9074
25.4750 5.2706 -10.2628
16.1907 14.7906 -8.6513
5.9327 9.4116 -4.3890
21.2585 -32.0437 -15.1703
20.9298 -26.1417 -13.2111
21.9059 -22.8414 -12.4853
24.1933 -21.0881 -12.6612
28.3896 -20.5934 -13.8361
24.1840 -9.0877 -10.1920
24.3354 -6.7371 -9.9615
24.4813 -4.4727 -9.8178
24.6235 -2.2553 -9.7547
24.7634 -0.0487 -9.7693
24.9049 2.1824 -9.8627
25.1593 4.4944 -10.0826
16.5415 14.3044 -8.6273
15.2110 15.7362 -8.6342
6.2797 9.3853 -4.4549
20.4997 -32.8057 -15.2610
20.8407 -27.5353 -13.6234
21.6452 -23.8364 -12.7021
22.8069 -20.9999 -12.2306
16.8641 -12.9484 -8.3878
32.9017 -20.8774 -15.3724
24.0937 -9.8106 -10.2628
24.2900 -7.4425 -10.0222
24.4372 -5.1562 -9.8528
23.8177 -2.8375 -9.4626
24.7207 -0.7222 -9.7566
24.8614 1.4976 -9.8257
25.0053 3.7674 -9.9760
13.2793 9.0146 -6.3318
16.8969 13.8256 -8.6130
15.5844 15.2676 -8.6068
-9.4002 0.4028 -3.7118
-9.5017 -19.5797 -8.5858
20.7420 -29.0146 -14.0704
21.0364 -24.4736 -12.7315
22.0580 -21.4494 -12.1378
25.1014 -20.3832 -12.7563
31.8959 -21.4797 -15.1703
23.8175 -10.4632 -10.2628
24.2439 -8.1570 -10.0911
24.3929 -5.8450 -9.8955
24.5373 -3.6034 -9.7839
24.6781 -1.3945 -9.7511
24.8183 0.8174 -9.7962
24.9610 3.0679 -9.9213
25.4339 5.4654 -10.2628
16.0915 14.9275 -8.6590
5.8441 9.4302 -4.3767
21.3416 -31.6405 -15.0563
20.9539 -25.7652 -13.1015
21.9265 -22.5155 -12.3985
24.4326 -20.9699 -12.7021
28.8970 -20.6258 -14.0060
24.1972 -8.8820 -10.1687
24.3481 -6.5404 -9.9459
24.4936 -4.2815 -9.8093
24.6355 -2.0664 -9.7529
24.7754 0.1409 -9.7742
24.9171 2.3757 -9.8745
25.3410 4.7273 -10.1696
16.4433 14.4409 -8.6334
6.1760 9.3850 -4.4322
20.6268 -32.4539 -15.1703
20.8663 -27.1351 -13.5040
21.8270 -23.6701 -12.7021
23.1853 -21.0227 -12.3469
27.1449 -20.5138 -13.4228
33.5294 -20.9175 -15.5904
24.1660 -9.6251 -10.2619
24.3028 -7.2433 -10.0043
24.4496 -4.9637 -9.8422
24.0067 -2.6739 -9.5293
24.7327 -0.5331 -9.7594
24.8736 1.6895 -9.8353
25.0300 3.9672 -9.9977
13.1135 9.0495 -6.2856
16.7946 13.9579 -8.6150
15.4721 15.3913 -8.6096
-9.4203 0.3315 -3.7186
-9.3430 -19.6338 -8.5779
20.4148 -34.1401 -15.6927
20.7693 -28.5877 -13.9401
21.1741 -24.2558 -12.7021
22.1840 -21.2439 -12.1173
16.3045 -13.0340 -8.2348
25.7770 -20.4264 -12.7413
32.7393 -21.4842 -15.1703
24.3596 -10.3564 -10.2544
24.2642 -7.8428 -9.8788
24.4123 -5.5425 -9.6981
24.5563 -3.3074 -9.5991
24.6968 -1.1000 -9.5771
24.8372 1.1149 -9.6317
24.9804 3.3734 -9.7653
15.9729 15.1761 -8.5356
5.7769 9.5751 -4.3322
-14.4885 14.1364 -7.8419
-9.8641 -19.5586 -8.4861
20.6859 -29.8928 -14.0829
20.9906 -25.1902 -12.7027
21.9582 -22.0162 -12.0461
25.1336 -21.0559 -12.7021
29.7068 -20.6732 -14.0209
24.0882 -11.0250 -10.2628
24.2178 -8.5630 -9.9512
24.3677 -6.2349 -9.7442
24.5127 -3.9841 -9.6209
24.6542 -1.7720 -9.5757
24.7942 0.4369 -9.6068
24.9363 2.6782 -9.7159
25.9823 5.1685 -10.2628
17.4621 13.0887 -8.4542
6.0709 9.4694 -4.3576
-14.4597 14.8983 -8.0431
21.2789 -32.6135 -15.0860
20.9053 -26.5247 -13.0836
21.8849 -23.1720 -12.3477
23.7934 -21.0622 -12.3103
27.8942 -20.5617 -13.4249
34.5446 -20.9824 -15.6579
24.1707 -9.2945 -10.0322
24.3227 -6.9344 -9.7981
24.4689 -4.6643 -9.6500
24.6116 -2.4443 -9.5815
24.7514 -0.2381 -9.5892
24.8926 1.9894 -9.6742
25.0866 4.2836 -9.8592
17.7875 12.5909 -8.4426
15.5247 15.8168 -8.5859
6.3802 9.3794 -4.3946
-14.5590 13.2458 -7.6252
20.4967 -33.3664 -15.1703
20.8147 -27.9429 -13.4984
21.8078 -24.3880 -12.6744
21.8972 -20.4740 -11.6135
16.6238 -12.9673 -8.1677
32.9028 -21.2330 -15.1703
24.2024 -10.0716 -10.1555
24.2771 -7.6422 -9.8600
24.4248 -5.3492 -9.6865
24.5685 -3.1179 -9.5942
24.7087 -0.9111 -9.5787
24.8493 1.3061 -9.6400
24.9928 3.5700 -9.7805
13.4953 9.0111 -6.2865
15.8729 15.3139 -8.5445
6.7628 9.3818 -4.4804
5.7388 9.6786 -4.3591
-14.4986 13.9313 -7.7895
-9.4250 0.4762 -3.6559
-9.7131 -19.6315 -8.4853
20.3448 -35.2365 -15.7627
20.7142 -29.4495 -13.9484
21.1817 -25.0276 -12.7021
22.0072 -21.7301 -11.9814
25.2940 -20.8629 -12.7021
31.4834 -21.5538 -14.7812
24.1719 -10.8404 -10.2628
24.2309 -8.3595 -9.9300
24.3803 -6.0397 -9.7305
24.5250 -3.7936 -9.6140
24.6661 -1.5832 -9.5754
24.8063 0.6270 -9.6131
24.9486 2.8728 -9.7290
25.9420 5.3672 -10.2628
17.3788 13.2352 -8.4627
-14.4646 14.6769 -7.9831
21.3105 -32.1222 -14.9337
20.9298 -26.1417 -12.9733
21.9059 -22.8414 -12.2605
24.1933 -21.0881 -12.4333
28.3896 -20.5934 -13.5870
24.1840 -9.0877 -10.0086
24.3354 -6.7371 -9.7822
24.4813 -4.4727 -9.6411
24.6235 -2.2553 -9.5791
24.7634 -0.0487 -9.5934
24.9049 2.1824 -9.6852
25.1593 4.4944 -9.9011
17.6849 12.7225 -8.4398
15.4194 15.9519 -8.5949
6.2868 9.3959 -4.3796
20.7514 -33.2086 -15.1703
20.8407 -27.5353 -13.3782
21.8299 -24.0398 -12.5799
22.8069 -20.9999 -12.0104
16.8806 -12.9611 -8.2449
33.0642 -20.9806 -15.1703
24.1768 -9.8445 -10.1128
24.2900 -7.4425 -9.8418
24.4372 -5.1562 -9.6755
23.8177 -2.8375 -9.2923
24.7207 -0.7222 -9.5809
24.8614 1.4976 -9.6488
25.0053 3.7674 -9.7964
15.7719 15.4512 -8.5535
6.6409 9.3629 -4.4469
-14.5089 13.7291 -7.7383
-9.3999 0.4028 -3.6449
20.3800 -34.6817 -15.5838
20.7420 -29.0146 -13.8171
21.3726 -24.8648 -12.7021
21.4944 -20.9012 -11.6148
25.4529 -20.6687 -12.7021
32.0599 -21.5901 -14.9738
24.2541 -10.6551 -10.2628
24.2439 -8.1570 -9.9095
24.3929 -5.8450 -9.7173
24.5373 -3.6034 -9.6077
24.6781 -1.3945 -9.5756
24.8183 0.8174 -9.6199
24.9610 3.0680 -9.7427
25.9001 5.5656 -10.2628
5.9279 9.5655 -4.3596
-14.4727 14.4622 -7.9263
21.3416 -31.6405 -14.7853
20.9539 -25.7652 -12.8657
21.9265 -22.5155 -12.1753
24.6012 -21.1146 -12.5595
28.8970 -20.6258 -13.7539
24.1972 -8.8820 -9.9856
24.3481 -6.5404 -9.7669
24.4936 -4.2815 -9.6327
24.6355 -2.0664 -9.5774
24.7754 0.1409 -9.5982
24.9171 2.3757 -9.6967
25.3410 4.7273 -9.9865
17.5939 12.8625 -8.4431
6.1961 9.4154 -4.3665
-10.7803 -19.4419 -8.6122
21.0050 -33.0488 -15.1703
20.8663 -27.1350 -13.2609
21.8516 -23.6968 -12.4875
23.1853 -21.0227 -12.1246
27.1449 -20.5138 -13.1812
33.5294 -20.9175 -15.3098
24.1660 -9.6251 -10.0772
24.3028 -7.2433 -9.8242
24.4496 -4.9637 -9.6651
24.0068 -2.6739 -9.3578
24.7327 -0.5331 -9.5837
24.8736 1.6895 -9.6583
25.0300 3.9672 -9.8177
15.6867 15.6048 -8.5718
6.5335 9.3625 -4.4229
-14.5192 13.5298 -7.6884
-9.4200 0.3314 -3.6516
20.4145 -34.1396 -15.4100
20.7693 -28.5877 -13.6892
21.5623 -24.7005 -12.7021
21.6329 -20.7162 -11.6036
25.6103 -20.4733 -12.7021
26.1752 -20.7420 -12.7021
32.9898 -21.6486 -15.0075
24.3596 -10.3564 -10.0673
24.2642 -7.8428 -9.6986
24.4123 -5.5425 -9.5211
23.7942 -3.2048 -9.1315
23.9309 -1.0659 -9.1108
24.0681 1.0804 -9.1631
24.9804 3.3734 -9.5871
13.7128 9.0054 -6.2395
6.8472 9.3472 -4.4069
5.7769 9.5751 -4.2532
20.3793 -35.9283 -15.7100
20.6859 -29.8928 -13.8260
21.3796 -25.6570 -12.7021
21.3077 -21.3640 -11.4760
25.2542 -21.1570 -12.5302
29.7068 -20.6732 -13.7651
24.5358 -11.2299 -10.2628
24.2178 -8.5630 -9.7697
24.3677 -6.2349 -9.5665
23.7523 -3.8605 -9.1524
23.8893 -1.7170 -9.1094
24.0261 0.4234 -9.1394
24.9363 2.6782 -9.5387
26.4651 5.2646 -10.2628
-14.4993 14.9391 -7.9180
-10.5185 -19.5153 -8.4318
21.2789 -32.6135 -14.8108
20.9053 -26.5247 -12.8449
21.8849 -23.1720 -12.1224
22.8649 -20.2403 -11.6141
27.8942 -20.5617 -13.1800
34.5445 -20.9824 -15.3722
24.1707 -9.2945 -9.8492
24.3227 -6.9344 -9.6194
24.4689 -4.6643 -9.4739
23.8477 -2.3684 -9.1147
23.9843 -0.2307 -9.1225
24.8926 1.9894 -9.4977
25.0866 4.2836 -9.6794
-14.4083 15.6780 -8.0985
-14.5571 13.2441 -7.4851
20.8776 -33.9865 -15.1703
20.8147 -27.9429 -13.2521
21.8078 -24.3881 -12.4431
21.8972 -20.4740 -11.4016
26.3331 -20.5411 -12.7021
33.5142 -21.6276 -15.1703
24.2024 -10.0716 -9.9702
24.2771 -7.6422 -9.6801
24.4248 -5.3492 -9.5098
23.8060 -3.0211 -9.1268
23.9426 -0.8829 -9.1124
24.0799 1.2656 -9.1711
24.9928 3.5700 -9.6021
18.1424 12.1141 -8.2970
6.7461 9.3586 -4.3877
5.7388 9.6786 -4.2795
-9.4247 0.4762 -3.5891
20.3444 -35.2358 -15.4748
20.7142 -29.4495 -13.6939
21.5753 -25.4927 -12.7021
21.3843 -21.1151 -11.4299
25.6843 -21.1849 -12.6628
30.2476 -20.7078 -13.9419
24.6211 -11.0418 -10.2628
24.2309 -8.3595 -9.7489
24.3803 -6.0397 -9.5530
23.7641 -3.6759 -9.1458
23.9010 -1.5341 -9.1091
24.0379 0.6076 -9.1453
24.9486 2.8728 -9.5515
26.4241 5.4669 -10.2628
7.1431 9.3610 -4.4785
-10.3266 -19.5155 -8.3975
21.3105 -32.1222 -14.6613
20.9298 -26.1417 -12.7366
21.9059 -22.8414 -12.0368
24.1933 -21.0881 -12.2065
28.3896 -20.5934 -13.3391
35.2203 -21.0256 -15.6009
24.1840 -9.0877 -9.8260
24.3354 -6.7371 -9.6037
23.7221 -4.3340 -9.1717
23.8594 -2.1854 -9.1125
23.9960 -0.0472 -9.1265
24.9049 2.1824 -9.5085
25.1593 4.4944 -9.7204
-14.4263 15.4584 -8.0419
21.1371 -33.8257 -15.1703
20.8407 -27.5353 -13.1341
21.8299 -24.0398 -12.3504
22.1072 -20.3556 -11.4296
16.8782 -12.9593 -8.0933
33.6787 -21.3705 -15.1703
24.1768 -9.8445 -9.9283
24.2900 -7.4425 -9.6622
24.4372 -5.1562 -9.4990
23.8177 -2.8375 -9.1227
23.9543 -0.6998 -9.1145
24.8614 1.4976 -9.4728
25.0053 3.7674 -9.6177
18.0637 12.2626 -8.3037
6.6510 9.3771 -4.3725
-14.3724 16.2673 -8.2559
-9.3997 0.4028 -3.5783
20.3798 -34.6815 -15.2994
20.7420 -29.0146 -13.5651
21.7498 -25.3035 -12.6904
21.4944 -20.9012 -11.4029
25.9259 -21.0528 -12.7021
32.0599 -21.5901 -14.7006
24.7048 -10.8530 -10.2628
24.2439 -8.1570 -9.7287
24.3929 -5.8450 -9.5401
23.7759 -3.4916 -9.1398
23.9127 -1.3512 -9.1093
24.0497 0.7921 -9.1519
24.9610 3.0680 -9.5650
18.3935 11.7676 -8.3049
7.0153 9.3408 -4.4430
5.9279 9.5655 -4.2800
-10.1634 -19.5679 -8.3863
20.6406 -30.6012 -14.0388
21.0719 -25.9104 -12.7021
21.2221 -21.7922 -11.5692
24.6012 -21.1146 -12.3304
28.8970 -20.6258 -13.5030
24.1972 -8.8820 -9.8034
24.3481 -6.5404 -9.5887
23.7339 -4.1487 -9.1637
23.8711 -2.0023 -9.1109
24.0078 0.1366 -9.1311
24.9171 2.3757 -9.5198
25.3410 4.7273 -9.8043
-14.4535 15.2519 -7.9918
-10.7774 -19.4367 -8.4528
21.2282 -33.4001 -15.0519
20.8663 -27.1350 -13.0190
21.8516 -23.6968 -12.2597
22.3745 -20.2876 -11.4871
27.1449 -20.5138 -12.9407
33.8413 -21.1121 -15.1703
24.1660 -9.6251 -9.8933
24.3028 -7.2433 -9.6450
24.4496 -4.9637 -9.4887
23.8294 -2.6542 -9.1192
23.9660 -0.5166 -9.1172
24.8736 1.6895 -9.4821
25.0300 3.9672 -9.6386
6.5581 9.3977 -4.3585
-14.3768 16.0234 -8.1877
-9.4197 0.3314 -3.5849
20.4705 -34.2332 -15.1703
20.7693 -28.5877 -13.4394
21.7727 -24.9415 -12.5921
21.6329 -20.7162 -11.3919
26.0863 -20.8538 -12.7021
26.6685 -21.1328 -12.7021
32.9898 -21.6486 -14.7299
24.3596 -10.3564 -9.8811
24.2642 -7.8428 -9.5192
23.6558 -5.3708 -9.0554
23.7942 -3.2048 -8.9626
23.9309 -1.0659 -8.9423
24.0681 1.0804 -8.9936
24.2079 3.2691 -9.1188
6.8843 9.3978 -4.3488
5.7769 9.5751 -4.1745
-14.3699 16.7751 -8.2456
20.3789 -35.9276 -15.4191
20.6859 -29.8928 -13.5703
21.7028 -26.0449 -12.6556
21.3077 -21.3640 -11.2638
25.2542 -21.1570 -12.2985
29.7068 -20.6732 -13.5105
24.2178 -8.5630 -9.5890
23.6129 -6.0418 -9.0987
23.7523 -3.8605 -8.9831
23.8893 -1.7170 -8.9409
24.0261 0.4234 -8.9703
24.1649 2.5953 -9.0726
26.9639 5.3638 -10.2628
18.5884 11.4951 -8.1587
7.2287 9.3243 -4.4043
-10.5368 -19.5492 -8.2902
20.5804 -31.5430 -14.0597
21.0625 -26.7241 -12.7021
21.1681 -22.4130 -11.5085
22.8649 -20.2403 -11.3993
27.8942 -20.5617 -12.9362
34.7333 -21.0970 -15.1703
24.1707 -9.2945 -9.6670
23.5696 -6.7197 -9.1491
23.7102 -4.5197 -9.0104
23.8477 -2.3684 -8.9461
23.9843 -0.2307 -8.9537
24.1222 1.9279 -9.0335
25.0866 4.2836 -9.5004
-14.5552 13.2424 -7.3457
21.1608 -34.4475 -15.0917
20.8147 -27.9429 -13.0070
21.8078 -24.3880 -12.2130
21.8972 -20.4740 -11.1907
26.8294 -20.9281 -12.7021
33.6070 -21.6875 -14.9309
24.2024 -10.0716 -9.7858
24.2771 -7.6422 -9.5010
23.6678 -5.1834 -9.0446
23.8060 -3.0211 -8.9580
23.9426 -0.8829 -8.9438
24.0799 1.2656 -9.0014
24.2201 3.4597 -9.1331
5.7388 9.6786 -4.2004
-9.4245 0.4761 -3.5226
20.3444 -35.2358 -15.1886
20.7142 -29.4495 -13.4406
21.7265 -25.6712 -12.5545
21.3843 -21.1151 -11.2185
25.6843 -21.1849 -12.4286
30.2476 -20.7078 -13.6840
25.0850 -11.2499 -10.2628
24.2309 -8.3595 -9.5685
23.6250 -5.8526 -9.0858
23.7641 -3.6759 -8.9766
23.9010 -1.5341 -8.9406
24.0379 0.6076 -8.9762
24.1769 2.7839 -9.0849
18.5146 11.6463 -8.1652
7.1242 9.3362 -4.3840
-14.3126 17.3861 -8.4065
20.6108 -31.0674 -13.9176
21.2664 -26.5621 -12.7021
21.1885 -22.0934 -11.4273
23.2488 -20.2648 -11.5129
28.3896 -20.5934 -13.0924
35.2203 -21.0256 -15.3123
24.1840 -9.0877 -9.6442
23.5818 -6.5285 -9.1342
23.7221 -4.3340 -9.0020
23.8594 -2.1854 -8.9440
23.9960 -0.0472 -8.9577
24.1342 2.1148 -9.0438
25.1593 4.4944 -9.5406
18.8529 11.1543 -8.1773
21.1948 -33.9182 -14.9304
20.8407 -27.5353 -12.8912
21.8299 -24.0398 -12.1220
22.1072 -20.3556 -11.2182
16.8759 -12.9575 -7.9425
34.2412 -21.7274 -15.1384
24.1768 -9.8445 -9.7447
24.2900 -7.4425 -9.4835
23.6797 -4.9964 -9.0343
23.8177 -2.8375 -8.9540
23.9543 -0.6998 -8.9459
24.0918 1.4513 -9.0098
24.2323 3.6509 -9.1480
-9.3994 0.4028 -3.5120
20.5887 -35.0369 -15.1703
20.7420 -29.0146 -13.3142
21.7498 -25.3035 -12.4557
21.4944 -20.9012 -11.1920
26.1237 -21.2134 -12.5623
30.8024 -20.7432 -13.8628
25.1704 -11.0576 -10.2628
23.7510 -7.9911 -9.3546
23.6371 -5.6639 -9.0735
23.7759 -3.4916 -8.9707
23.9127 -1.3512 -8.9408
24.0497 0.7921 -8.9826
24.1890 2.9731 -9.0977
14.0216 8.9706 -6.2138
7.0262 9.3553 -4.3676
5.9279 9.5655 -4.2009
-14.3197 17.1259 -8.3335
20.6406 -30.6012 -13.7791
21.4690 -26.3986 -12.7021
21.2221 -21.7922 -11.3552
24.1889 -20.7607 -11.8995
28.8970 -20.6258 -13.2532
35.9168 -21.0701 -15.5445
24.1972 -8.8820 -9.6221
23.5940 -6.3378 -9.1199
23.7339 -4.1487 -8.9942
23.8711 -2.0023 -8.9424
24.0078 0.1366 -8.9622
24.1462 2.3022 -9.0546
25.3410 4.7273 -9.6230
18.7329 11.2777 -8.1624
7.4043 9.3190 -4.4432
-10.7901 -19.4596 -8.3062
21.2282 -33.4001 -14.7735
20.8663 -27.1350 -12.7782
21.5126 -23.3292 -11.8463
22.3745 -20.2876 -11.2747
27.1466 -20.5151 -12.7021
34.4790 -21.5100 -15.1703
24.1660 -9.6251 -9.7104
23.5505 -7.0191 -9.1735
23.6917 -4.8098 -9.0245
23.8294 -2.6541 -8.9505
23.9660 -0.5166 -8.9486
24.1037 1.6372 -9.0186
24.2446 3.8427 -9.1635
-9.4195 0.3314 -3.5185
20.8562 -34.8783 -15.1703
20.7693 -28.5877 -13.1909
21.7727 -24.9415 -12.3592
21.6329 -20.7162 -11.1812
26.5725 -21.2425 -12.6996
26.8278 -21.2591 -12.5383
31.6973 -20.8004 -13.8873
24.3596 -10.3564 -9.6958
23.5133 -7.6001 -9.0516
23.6558 -5.3708 -8.8856
23.7942 -3.2048 -8.7945
23.9309 -1.0659 -8.7745
24.0681 1.0804 -8.8249
24.2079 3.2691 -8.9478
5.7769 9.5751 -4.0962
20.4334 -36.0237 -15.1703
20.6859 -29.8928 -13.3157
21.7028 -26.0449 -12.4182
21.3077 -21.3640 -11.0525
24.2669 -20.3299 -11.5960
29.7068 -20.6732 -13.2571
23.4687 -8.2981 -9.1181
23.6129 -6.0418 -8.9280
23.7523 -3.8605 -8.8146
23.8893 -1.7170 -8.7732
24.0261 0.4234 -8.8020
24.1649 2.5953 -8.9024
24.5015 4.8739 -9.1507
19.7378 9.8893 -8.0866
7.2665 9.3730 -4.3442
20.5804 -31.5430 -13.7959
21.4651 -27.2350 -12.7021
21.1681 -22.4130 -11.2926
22.8649 -20.2403 -11.1854
27.9130 -20.5756 -12.7021
35.3972 -21.5003 -15.1703
24.1707 -9.2944 -9.4857
23.5696 -6.7197 -8.9775
23.7102 -4.5197 -8.8414
23.8477 -2.3684 -8.7783
23.9843 -0.2307 -8.7858
24.1222 1.9279 -8.8641
24.2892 4.1474 -9.0258
18.9448 11.0138 -8.0269
7.6241 9.2997 -4.4049
-14.5533 13.2406 -7.2070
21.1608 -34.4475 -14.8086
20.8147 -27.9429 -12.7630
21.0930 -23.5886 -11.5911
21.8972 -20.4740 -10.9808
27.2923 -21.2892 -12.6789
32.2913 -20.8384 -14.0773
24.2024 -10.0716 -9.6022
23.5258 -7.4057 -9.0343
23.6678 -5.1834 -8.8749
23.8060 -3.0211 -8.7900
23.9426 -0.8829 -8.7761
24.0799 1.2656 -8.8326
24.2201 3.4597 -8.9618
5.7388 9.6786 -4.1216
-9.4242 0.4761 -3.4565
20.7084 -35.8662 -15.1703
20.7142 -29.4495 -13.1885
21.7265 -25.6712 -12.3190
21.3843 -21.1151 -11.0081
25.6843 -21.1849 -12.1955
30.2476 -20.7078 -13.4273
23.4813 -8.1010 -9.0986
23.6250 -5.8526 -8.9154
23.7641 -3.6759 -8.8083
23.9010 -1.5341 -8.7729
24.0379 0.6076 -8.8078
24.1769 2.7839 -8.9145
19.6469 10.0325 -8.0806
14.2429 8.9593 -6.1635
20.6108 -31.0674 -13.6565
21.6404 -27.0292 -12.6830
21.1885 -22.0935 -11.2130
23.2488 -20.2648 -11.2970
28.3896 -20.5934 -12.8468
35.5607 -21.2288 -15.1703
23.4362 -8.8068 -9.1707
23.5818 -6.5285 -8.9629
23.7221 -4.3340 -8.8332
23.8594 -2.1854 -8.7762
23.9960 -0.0472 -8.7897
24.1342 2.1148 -8.8742
24.3289 4.3461 -9.0527
18.8850 11.1733 -8.0376
7.5159 9.3121 -4.3834
21.1948 -33.9182 -14.6504
20.9276 -27.6501 -12.7021
21.1145 -23.2520 -11.5047
22.1072 -20.3556 -11.0077
16.8736 -12.9557 -7.7925
34.2412 -21.7274 -14.8544
24.1768 -9.8445 -9.5619
23.5381 -7.2121 -9.0176
23.6797 -4.9964 -8.8648
23.8177 -2.8375 -8.7860
23.9543 -0.6998 -8.7781
24.0918 1.4513 -8.8407
24.2323 3.6509 -8.9764
-9.3991 0.4028 -3.4460
20.9823 -35.7067 -15.1703
20.7420 -29.0146 -13.0644
21.7498 -25.3036 -12.2221
21.4944 -20.9012 -10.9820
26.1237 -21.2134 -12.3266
30.8023 -20.7432 -13.6027
25.6516 -11.2690 -10.2628
23.4939 -7.9046 -9.0798
23.6371 -5.6639 -8.9033
23.7759 -3.4916 -8.8025
23.9127 -1.3512 -8.7731
24.0497 0.7921 -8.8141
24.1890 2.9731 -8.9270
14.1354 9.0434 -6.1467
5.9279 9.5655 -4.1221
20.6406 -30.6012 -13.5206
21.6651 -26.6398 -12.5777
21.2221 -21.7922 -11.1422
23.6403 -20.2899 -11.4115
28.8970 -20.6258 -13.0046
35.9168 -21.0701 -15.2529
23.4490 -8.6073 -9.1497
23.5940 -6.3378 -8.9488
23.7339 -4.1487 -8.8255
23.8711 -2.0023 -8.7746
24.0078 0.1366 -8.7941
24.1462 2.3022 -8.8848
24.3688 4.5459 -9.0802
7.4133 9.3303 -4.3651
-14.2667 18.0390 -8.4244
-10.7888 -19.4573 -8.1495
20.5318 -32.3043 -14.0207
21.1386 -27.4892 -12.7021
21.1357 -22.9204 -11.4204
22.3745 -20.2876 -11.0632
27.6656 -20.9073 -12.7021
34.8933 -21.7684 -15.0646
24.1660 -9.6251 -9.5282
23.5505 -7.0191 -9.0015
23.6917 -4.8098 -8.8552
23.8294 -2.6541 -8.7826
23.9660 -0.5166 -8.7807
24.1037 1.6372 -8.8494
24.2446 3.8427 -8.9916
19.0816 10.7908 -8.0297
7.8096 9.2975 -4.4477
-9.4192 0.3314 -3.4524
21.1061 -35.2962 -15.0641
20.7693 -28.5877 -12.9434
21.7727 -24.9415 -12.1273
21.6329 -20.7162 -10.9714
26.5725 -21.2425 -12.4613
26.8278 -21.2591 -12.2997
31.6973 -20.8004 -13.6230
23.4265 -9.9597 -9.1469
23.5133 -7.6001 -8.8793
23.6558 -5.3708 -8.7165
23.7942 -3.2048 -8.6271
23.9309 -1.0659 -8.6075
24.0681 1.0804 -8.6570
24.2079 3.2691 -8.7775
19.3761 10.3776 -7.8981
8.1616 9.2756 -4.4395
5.7769 9.5751 -4.0183
20.8298 -36.7225 -15.1703
20.6859 -29.8928 -13.0623
21.7028 -26.0449 -12.1819
21.3077 -21.3640 -10.8421
24.2669 -20.3299 -11.3753
29.7068 -20.6732 -13.0048
23.4687 -8.2982 -8.9446
23.6129 -6.0418 -8.7581
23.7523 -3.8605 -8.6468
23.8893 -1.7170 -8.6062
24.0261 0.4234 -8.6345
24.1649 2.5953 -8.7330
24.5015 4.8739 -8.9765
19.7378 9.8893 -7.9327
14.4688 8.9476 -6.1128
20.5804 -31.5430 -13.5334
21.6153 -27.4255 -12.5475
21.1681 -22.4130 -11.0777
22.8649 -20.2403 -10.9725
28.4546 -20.9748 -12.7021
35.9479 -21.8348 -15.1131
23.4234 -9.0071 -9.0175
23.5696 -6.7197 -8.8067
23.7102 -4.5197 -8.6731
23.8477 -2.3684 -8.6113
23.9843 -0.2307 -8.6186
24.1222 1.9279 -8.6954
24.2892 4.1474 -8.8541
7.6591 9.3424 -4.3409
-14.2730 18.6260 -8.4319
-14.5514 13.2389 -7.0689
20.4670 -33.3181 -14.0505
21.1172 -28.3490 -12.7021
21.0930 -23.5886 -11.3705
21.8972 -20.4740 -10.7718
27.2923 -21.2892 -12.4376
32.2912 -20.8384 -13.8094
23.4113 -9.7424 -9.1116
23.5258 -7.4057 -8.8624
23.6678 -5.1834 -8.7060
23.8060 -3.0211 -8.6227
23.9426 -0.8829 -8.6091
24.0799 1.2656 -8.6645
24.2201 3.4597 -8.7913
19.2918 10.5233 -7.8963
8.0357 9.2746 -4.4095
5.7388 9.6786 -4.0432
-9.4239 0.4761 -3.3906
21.1102 -36.5620 -15.1703
20.7142 -29.4495 -12.9375
21.7265 -25.6712 -12.0846
21.3843 -21.1151 -10.7986
24.6797 -20.3563 -11.4954
30.2476 -20.7078 -13.1718
23.4813 -8.1010 -8.9255
23.6250 -5.8526 -8.7457
23.7641 -3.6760 -8.6406
23.9010 -1.5341 -8.6059
24.0379 0.6076 -8.6402
24.1769 2.7839 -8.7448
24.6389 5.0976 -9.0409
19.6282 10.0230 -7.9193
20.6108 -31.0674 -13.3966
21.6404 -27.0292 -12.4417
21.1885 -22.0935 -10.9996
23.2488 -20.2648 -11.0820
28.6143 -20.7564 -12.7021
36.2506 -21.6406 -15.1703
23.4362 -8.8068 -8.9962
23.5818 -6.5285 -8.7923
23.7221 -4.3340 -8.6651
23.8594 -2.1854 -8.6092
23.9960 -0.0472 -8.6224
24.1342 2.1148 -8.7053
24.3289 4.3461 -8.8804
7.5811 9.3930 -4.3373
20.4997 -32.8058 -13.9002
21.3336 -28.1865 -12.7021
21.1145 -23.2520 -11.2858
22.1072 -20.3556 -10.7982
16.8713 -12.9539 -7.6432
32.9017 -20.8774 -14.0017
23.3963 -9.5267 -9.0771
23.5381 -7.2121 -8.8460
23.6797 -4.9964 -8.6961
23.8177 -2.8375 -8.6188
23.9543 -0.6998 -8.6111
24.0918 1.4513 -8.6725
24.2323 3.6509 -8.8056
19.2265 10.6794 -7.9028
7.9222 9.2863 -4.3861
-9.3989 0.4027 -3.3804
21.3893 -36.3994 -15.1703
20.7420 -29.0146 -12.8158
21.0364 -24.4736 -11.5962
21.4944 -20.9012 -10.7730
26.1237 -21.2134 -12.0920
30.8024 -20.7432 -13.3439
23.4939 -7.9046 -8.9070
23.6371 -5.6639 -8.7339
23.7759 -3.4916 -8.6349
23.9127 -1.3512 -8.6062
24.0497 0.7921 -8.6464
24.1890 2.9731 -8.7572
24.8950 5.3496 -9.1496
5.9279 9.5655 -4.0436
20.6406 -30.6012 -13.2633
21.6651 -26.6398 -12.3383
21.2221 -21.7922 -10.9301
23.6403 -20.2899 -11.1943
28.8970 -20.6258 -12.7571
36.4152 -21.3625 -15.1703
23.4490 -8.6073 -8.9755
23.5940 -6.3378 -8.7785
23.7339 -4.1488 -8.6575
23.8711 -2.0023 -8.6076
24.0078 0.1366 -8.6268
24.1462 2.3022 -8.7157
24.3688 4.5459 -8.9074
-10.7876 -19.4551 -7.9935
20.5318 -32.3043 -13.7539
21.5487 -28.0224 -12.7021
21.1357 -22.9204 -11.2030
22.3745 -20.2876 -10.8526
28.2023 -21.3129 -12.7021
34.8933 -21.7684 -14.7779
23.4033 -9.3214 -9.0519
23.5505 -7.0191 -8.8302
23.6917 -4.8098 -8.6867
23.8294 -2.6542 -8.6155
23.9660 -0.5166 -8.6136
24.1037 1.6372 -8.6810
24.2446 3.8427 -8.8205
7.8133 9.3019 -4.3651
-9.4189 0.3314 -3.3866
21.1061 -35.2962 -14.7774
20.7693 -28.5877 -12.6971
21.0588 -24.1236 -11.5064
21.6329 -20.7162 -10.7627
26.5725 -21.2425 -12.2242
25.7770 -20.4264 -11.5897
31.6973 -20.8004 -13.3599
23.4265 -9.9597 -8.9703
23.5133 -7.6001 -8.7078
23.6558 -5.3708 -8.5481
23.7942 -3.2048 -8.4605
23.9309 -1.0659 -8.4413
24.0681 1.0804 -8.4898
24.2079 3.2691 -8.6080
8.1690 9.2840 -4.3577
5.7769 9.5751 -3.9407
-14.0130 19.6719 -8.5110
20.6859 -29.8928 -12.8100
20.9906 -25.1902 -11.5546
21.3077 -21.3640 -10.6327
24.2669 -20.3299 -11.1556
29.7067 -20.6732 -12.7536
23.4687 -8.2982 -8.7718
23.6129 -6.0418 -8.5889
23.7523 -3.8605 -8.4798
23.8893 -1.7170 -8.4400
24.0261 0.4234 -8.4678
24.1649 2.5953 -8.5643
24.5014 4.8739 -8.8031
19.7911 9.9160 -7.8005
8.6140 9.2680 -4.4587
20.5804 -31.5430 -13.2720
21.6153 -27.4255 -12.3052
21.1681 -22.4130 -10.8637
22.8649 -20.2403 -10.7606
29.0150 -21.3879 -12.7021
35.9479 -21.8348 -14.8212
23.4234 -9.0071 -8.8433
23.5696 -6.7197 -8.6366
23.7102 -4.5197 -8.5056
23.8477 -2.3684 -8.4449
23.9843 -0.2307 -8.4521
24.1222 1.9279 -8.5274
24.2892 4.1474 -8.6831
-14.5495 13.2372 -6.9315
20.4670 -33.3181 -13.7791
21.2684 -28.5519 -12.5459
21.0930 -23.5886 -11.1509
21.8972 -20.4740 -10.5638
27.2923 -21.2892 -12.1974
32.2913 -20.8384 -13.5427
23.4113 -9.7424 -8.9356
23.5258 -7.4057 -8.6912
23.6678 -5.1834 -8.5379
23.8060 -3.0211 -8.4562
23.9426 -0.8829 -8.4428
24.0799 1.2656 -8.4971
24.2201 3.4597 -8.6215
8.0653 9.3088 -4.3403
5.7388 9.6786 -3.9651
-14.1099 19.4905 -8.4790
-9.4237 0.4761 -3.3250
20.7614 -29.5166 -12.7166
21.0137 -24.8290 -11.4623
21.3843 -21.1151 -10.5900
24.6797 -20.3563 -11.2734
30.2476 -20.7078 -12.9174
23.5901 -10.5794 -9.1105
23.4813 -8.1010 -8.7531
23.6250 -5.8526 -8.5768
23.7641 -3.6759 -8.4737
23.9010 -1.5341 -8.4397
24.0379 0.6076 -8.4733
24.1769 2.7840 -8.5759
24.6389 5.0976 -8.8663
19.6390 10.0285 -7.7706
8.4691 9.2532 -4.4203
20.6108 -31.0674 -13.1379
21.6404 -27.0292 -12.2014
21.1885 -22.0934 -10.7871
23.2488 -20.2648 -10.8680
29.1778 -21.1651 -12.7021
36.9645 -22.0668 -15.1703
23.4362 -8.8068 -8.8224
23.5818 -6.5285 -8.6225
23.7221 -4.3340 -8.4977
23.8594 -2.1854 -8.4429
23.9960 -0.0472 -8.4559
24.1342 2.1148 -8.5371
24.3289 4.3461 -8.7089
20.4997 -32.8058 -13.6317
21.5490 -28.4711 -12.5825
21.1145 -23.2520 -11.0678
22.1072 -20.3556 -10.5897
16.8690 -12.9522 -7.4945
32.9017 -20.8774 -13.7312
23.3963 -9.5267 -8.9018
23.5381 -7.2121 -8.6751
23.6797 -4.9964 -8.5281
23.8177 -2.8375 -8.4524
23.9543 -0.6998 -8.4448
24.0918 1.4513 -8.5050
24.2323 3.6509 -8.6355
7.9751 9.3482 -4.3301
-14.3602 19.5200 -8.5394
-9.3986 0.4027 -3.3150
21.8109 -37.1163 -15.1703
20.9867 -29.3569 -12.7166
21.0364 -24.4736 -11.3722
21.4944 -20.9012 -10.5650
25.1014 -20.3832 -11.3944
30.8024 -20.7432 -13.0861
23.4888 -10.3188 -9.0406
23.4939 -7.9046 -8.7350
23.6371 -5.6639 -8.5652
23.7759 -3.4916 -8.4682
23.9127 -1.3512 -8.4399
24.0497 0.7921 -8.4794
24.1890 2.9731 -8.5880
24.8950 5.3496 -8.9729
19.5547 10.1749 -7.7678
8.3447 9.2585 -4.3922
5.9279 9.5655 -3.9655
20.6406 -30.6012 -13.0072
21.6651 -26.6398 -12.1000
21.2221 -21.7922 -10.7190
23.6403 -20.2899 -10.9781
29.3390 -20.9412 -12.7021
37.1324 -21.7832 -15.1703
23.4490 -8.6073 -8.8022
23.5940 -6.3378 -8.6089
23.7339 -4.1488 -8.4903
23.8711 -2.0023 -8.4414
24.0078 0.1366 -8.4601
24.1462 2.3022 -8.5474
24.3688 4.5459 -8.7354
-10.7864 -19.4529 -7.8382
20.5318 -32.3043 -13.4883
21.5752 -28.0569 -12.4721
21.1357 -22.9204 -10.9867
22.3745 -20.2876 -10.6430
28.2535 -21.3516 -12.4794
33.5294 -20.9175 -13.9260
23.4033 -9.3214 -8.8771
23.5505 -7.0191 -8.6596
23.6917 -4.8098 -8.5189
23.8294 -2.6542 -8.4491
23.9660 -0.5166 -8.4473
24.1037 1.6372 -8.5134
24.2446 3.8427 -8.6501
-9.4186 0.3314 -3.3211
20.4145 -34.1396 -14.0171
20.7693 -28.5877 -12.4519
21.0588 -24.1236 -11.2842
21.6329 -20.7162 -10.5548
25.5321 -20.4108 -11.5187
25.7770 -20.4264 -11.3624
31.6973 -20.8004 -13.0980
23.4265 -9.9597 -8.7944
23.5133 -7.6001 -8.5371
23.6558 -5.3708 -8.3805
23.7942 -3.2048 -8.2946
23.9309 -1.0659 -8.2758
24.0681 1.0804 -8.3233
24.2079 3.2691 -8.4392
5.7769 9.5751 -3.8634
-14.0846 19.7725 -8.3868
20.9457 -30.2682 -12.7166
20.9906 -25.1902 -11.3280
21.3077 -21.3640 -10.4242
24.2670 -20.3299 -10.9369
30.2128 -21.0254 -12.7166
23.8180 -10.9013 -9.0495
23.4687 -8.2982 -8.5998
23.6129 -6.0418 -8.4205
23.7523 -3.8605 -8.3135
23.8893 -1.7170 -8.2745
24.0261 0.4234 -8.3017
24.1649 2.5953 -8.3964
24.5014 4.8739 -8.6305
19.7809 9.9109 -7.6436
8.5979 9.2507 -4.3631
20.5804 -31.5430 -13.0117
21.6153 -27.4255 -12.0639
21.1681 -22.4130 -10.6507
22.8649 -20.2403 -10.5496
29.0345 -21.4023 -12.4614
34.5446 -20.9824 -13.9633
23.4234 -9.0071 -8.6699
23.5696 -6.7197 -8.4672
23.7102 -4.5197 -8.3388
23.8477 -2.3684 -8.2793
23.9843 -0.2307 -8.2864
24.1222 1.9279 -8.3602
24.2892 4.1474 -8.5128
-14.5477 13.2355 -6.7947
20.4670 -33.3181 -13.5089
21.2684 -28.5519 -12.2999
21.0930 -23.5886 -10.9322
21.8972 -20.4740 -10.3567
26.2227 -20.4549 -11.4895
32.2913 -20.8384 -13.2771
23.4113 -9.7424 -8.7604
23.5258 -7.4057 -8.5208
23.6678 -5.1834 -8.3704
23.8060 -3.0211 -8.2904
23.9426 -0.8829 -8.2772
24.0799 1.2656 -8.3305
24.2201 3.4597 -8.4524
5.7388 9.6786 -3.8873
-14.2236 19.6476 -8.3798
-9.4234 0.4761 -3.2597
20.3444 -35.2358 -14.0565
21.1767 -30.1070 -12.7166
21.0137 -24.8290 -11.2376
21.3843 -21.1151 -10.3823
24.6797 -20.3563 -11.0524
30.3729 -20.7936 -12.7166
23.5901 -10.5794 -8.9319
23.4813 -8.1010 -8.5814
23.6250 -5.8526 -8.4086
23.7641 -3.6759 -8.3076
23.9010 -1.5341 -8.2742
24.0379 0.6076 -8.3072
24.1769 2.7839 -8.4077
24.6389 5.0976 -8.6924
19.6417 10.0299 -7.6193
8.4892 9.2751 -4.3439
-13.9034 20.3499 -8.5146
20.6108 -31.0674 -12.8803
20.9298 -26.1417 -11.5693
21.1885 -22.0934 -10.5756
23.2488 -20.2648 -10.6548
29.4478 -21.3610 -12.5683
37.7039 -22.5082 -15.1703
23.4362 -8.8068 -8.6494
23.5818 -6.5285 -8.4534
23.7221 -4.3340 -8.3311
23.8594 -2.1854 -8.2773
23.9960 -0.0472 -8.2901
24.1342 2.1148 -8.3697
24.3289 4.3461 -8.5381
8.9237 9.2318 -4.4358
20.4997 -32.8058 -13.3644
21.5490 -28.4711 -12.3358
21.1145 -23.2520 -10.8508
22.1072 -20.3556 -10.3820
16.8668 -12.9504 -7.3466
32.9017 -20.8774 -13.4620
23.3963 -9.5267 -8.7272
23.5381 -7.2121 -8.5050
23.6797 -4.9964 -8.3609
23.8177 -2.8375 -8.2866
23.9543 -0.6998 -8.2792
24.0918 1.4513 -8.3382
24.2323 3.6509 -8.4662
-14.3613 19.5217 -8.3727
-9.3983 0.4027 -3.2499
20.3798 -34.6815 -13.8972
21.4065 -29.9441 -12.7166
21.0364 -24.4736 -11.1492
21.4944 -20.9012 -10.3578
25.1014 -20.3832 -11.1710
30.8024 -20.7432 -12.8295
23.4888 -10.3188 -8.8633
23.4939 -7.9046 -8.5637
23.6371 -5.6639 -8.3972
23.7759 -3.4916 -8.3021
23.9127 -1.3512 -8.2744
24.0497 0.7921 -8.3131
24.1890 2.9731 -8.4196
24.8950 5.3496 -8.7970
8.3888 9.3075 -4.3288
5.9279 9.5655 -3.8878
-13.9350 20.0648 -8.4397
20.6406 -30.6012 -12.7521
20.9539 -25.7652 -11.4733
21.2221 -21.7922 -10.5088
23.6403 -20.2899 -10.7628
29.4687 -21.0339 -12.5081
23.4490 -8.6073 -8.6296
23.5940 -6.3378 -8.4401
23.7339 -4.1488 -8.3238
23.8711 -2.0023 -8.2758
24.0078 0.1366 -8.2942
24.1461 2.3022 -8.3797
24.3688 4.5459 -8.5641
14.8765 8.9561 -5.9990
8.7869 9.2306 -4.4028
-10.7852 -19.4507 -7.6837
20.5318 -32.3043 -13.2238
21.5752 -28.0570 -12.2275
21.1357 -22.9204 -10.7712
22.3745 -20.2876 -10.4343
28.2535 -21.3516 -12.2347
33.5294 -20.9175 -13.6529
23.4033 -9.3214 -8.7030
23.5505 -7.0191 -8.4898
23.6917 -4.8098 -8.3519
23.8294 -2.6542 -8.2834
23.9660 -0.5166 -8.2816
24.1037 1.6372 -8.3464
24.2446 3.8427 -8.4805
-9.4184 0.3314 -3.2558
20.4145 -34.1396 -13.7422
20.7693 -28.5877 -12.2077
21.0588 -24.1236 -11.0629
21.6329 -20.7162 -10.3478
25.5321 -20.4108 -11.2928
25.7770 -20.4264 -11.1361
31.6973 -20.8004 -12.8371
23.4265 -9.9597 -8.6192
23.5133 -7.6001 -8.3671
23.6558 -5.3708 -8.2136
23.7942 -3.2048 -8.1294
23.9309 -1.0659 -8.1109
24.0681 1.0804 -8.1576
24.2079 3.2691 -8.2711
5.7769 9.5751 -3.7865
-14.4102 20.2295 -8.4098
20.3789 -35.9276 -13.9857
21.3713 -30.8833 -12.7166
20.9906 -25.1902 -11.1024
21.3790 -21.4355 -10.2508
24.2669 -20.3299 -10.7191
30.8268 -21.4527 -12.7166
23.8180 -10.9013 -8.8693
23.4687 -8.2981 -8.4285
23.6129 -6.0418 -8.2528
23.7523 -3.8605 -8.1480
23.8893 -1.7170 -8.1097
24.0261 0.4234 -8.1364
24.1649 2.5953 -8.2292
24.5014 4.8739 -8.4586
19.7707 9.9058 -7.4875
20.5804 -31.5430 -12.7526
20.9053 -26.5247 -11.4353
21.1681 -22.4130 -10.4386
22.8649 -20.2403 -10.3395
29.0345 -21.4023 -12.2132
34.5446 -20.9824 -13.6852
23.4234 -9.0071 -8.4972
23.5696 -6.7197 -8.2986
23.7102 -4.5197 -8.1727
23.8477 -2.3684 -8.1144
23.9843 -0.2307 -8.1213
24.1222 1.9279 -8.1937
24.2892 4.1474 -8.3432
15.3071 8.8990 -5.9951
9.0495 9.2198 -4.3743
-14.5458 13.2338 -6.6585
20.4670 -33.3181 -13.2399
21.2684 -28.5519 -12.0549
21.0930 -23.5886 -10.7145
22.1138 -20.6766 -10.2508
26.2227 -20.4549 -11.2607
32.2912 -20.8384 -13.0127
23.4113 -9.7424 -8.5859
23.5258 -7.4057 -8.3511
23.6678 -5.1834 -8.2037
23.8060 -3.0211 -8.1252
23.9426 -0.8829 -8.1124
24.0799 1.2656 -8.1646
24.2201 3.4597 -8.2841
5.7388 9.6786 -3.8099
-9.4231 0.4761 -3.1947
20.3444 -35.2358 -13.7766
21.4182 -30.4504 -12.6055
21.0137 -24.8290 -11.0138
21.5424 -21.2712 -10.2508
24.6797 -20.3563 -10.8322
30.9901 -21.2161 -12.7166
23.5901 -10.5794 -8.7540
23.4813 -8.1010 -8.4105
23.6250 -5.8526 -8.2411
23.7641 -3.6759 -8.1421
23.9010 -1.5342 -8.1094
24.0379 0.6076 -8.1417
24.1769 2.7840 -8.2403
24.6389 5.0976 -8.5193
19.6394 10.0287 -7.4666
-14.0589 20.5776 -8.4384
20.7624 -31.2959 -12.7166
20.9298 -26.1417 -11.3389
21.1885 -22.0934 -10.3650
23.2488 -20.2648 -10.4426
29.4478 -21.3610 -12.3179
35.2203 -21.0256 -13.8888
23.4362 -8.8068 -8.4772
23.5818 -6.5285 -8.2850
23.7221 -4.3340 -8.1651
23.8594 -2.1853 -8.1125
23.9960 -0.0472 -8.1250
24.1342 2.1148 -8.2030
24.3289 4.3461 -8.3681
15.1222 8.9471 -5.9494
8.9292 9.2375 -4.3502
20.4997 -32.8058 -13.0983
21.5490 -28.4711 -12.0901
21.1145 -23.2520 -10.6347
22.2714 -20.5068 -10.2508
16.8646 -12.9488 -7.1993
32.9017 -20.8774 -13.1939
23.3963 -9.5267 -8.5534
23.5381 -7.2121 -8.3356
23.6797 -4.9964 -8.1944
23.8177 -2.8375 -8.1216
23.9543 -0.6998 -8.1143
24.0918 1.4513 -8.1722
24.2323 3.6509 -8.2976
-9.3981 0.4027 -3.1851
20.3798 -34.6815 -13.6204
21.4472 -30.0010 -12.4870
21.0364 -24.4736 -10.9272
21.7046 -21.1057 -10.2508
25.1013 -20.3832 -10.9485
31.1515 -20.9784 -12.7166
23.4888 -10.3188 -8.6868
23.4939 -7.9046 -8.3931
23.6371 -5.6639 -8.2300
23.7759 -3.4916 -8.1368
23.9127 -1.3512 -8.1096
24.0497 0.7921 -8.1475
24.1890 2.9731 -8.2519
24.8950 5.3496 -8.6217
5.9279 9.5655 -3.8103
-14.2040 20.4522 -8.4313
21.0013 -31.1360 -12.7166
20.9539 -25.7652 -11.2448
21.2221 -21.7922 -10.2995
23.6403 -20.2899 -10.5485
29.4687 -21.0339 -12.2590
23.4490 -8.6073 -8.4577
23.5940 -6.3378 -8.2720
23.7339 -4.1488 -8.1580
23.8711 -2.0023 -8.1110
24.0078 0.1366 -8.1291
24.1462 2.3022 -8.2129
24.3688 4.5459 -8.3935
8.8192 9.2646 -4.3310
-10.7840 -19.4486 -7.5298
20.5318 -32.3043 -12.9604
20.8663 -27.1351 -11.5902
21.1357 -22.9204 -10.5567
22.4277 -20.3358 -10.2508
27.1449 -20.5138 -11.5205
33.5294 -20.9175 -13.3810
23.4033 -9.3214 -8.5297
23.5505 -7.0191 -8.3207
23.6917 -4.8098 -8.1855
23.8294 -2.6541 -8.1184
23.9660 -0.5166 -8.1167
24.1037 1.6372 -8.1802
24.2446 3.8427 -8.3116
9.2575 9.2092 -4.4214
-9.4181 0.3314 -3.1909
20.4145 -34.1396 -13.4686
20.7693 -28.5877 -11.9645
21.0588 -24.1236 -10.8426
21.8655 -20.9390 -10.2508
25.5321 -20.4108 -11.0679
25.7770 -20.4264 -10.9107
32.0482 -21.0307 -12.7166
23.4265 -9.9597 -8.4448
23.5133 -7.6001 -8.1978
23.6558 -5.3708 -8.0474
23.7942 -3.2048 -7.9649
23.9309 -1.0659 -7.9468
24.0681 1.0804 -7.9925
24.2079 3.2691 -8.1037
9.6694 9.1870 -4.4247
5.7769 9.5751 -3.7098
20.3789 -35.9276 -13.7026
21.3887 -30.9085 -12.4694
20.9906 -25.1902 -10.8777
21.8206 -21.8782 -10.2508
24.2669 -20.3299 -10.5021
30.9213 -21.5185 -12.4974
23.8180 -10.9013 -8.6898
23.4687 -8.2982 -8.2580
23.6129 -6.0418 -8.0858
23.7523 -3.8605 -7.9831
23.8893 -1.7170 -7.9456
24.0261 0.4234 -7.9717
24.1649 2.5953 -8.0626
24.5014 4.8739 -8.2875
19.7605 9.9007 -7.3322
-11.3052 13.9490 -5.9565
20.9461 -32.1035 -12.7166
20.9053 -26.5247 -11.2039
21.2166 -22.4644 -10.2508
23.1369 -20.4811 -10.2508
27.8942 -20.5617 -11.4961
34.5446 -20.9824 -13.4083
23.4234 -9.0071 -8.3253
23.5696 -6.7197 -8.1306
23.7102 -4.5197 -8.0073
23.8477 -2.3684 -7.9502
23.9843 -0.2307 -7.9570
24.1222 1.9279 -8.0279
24.2892 4.1474 -8.1744
15.3726 8.9371 -5.8990
9.1103 9.2817 -4.3146
-14.5440 13.2321 -6.5229
20.4670 -33.3181 -12.9720
20.8147 -27.9429 -11.5591
21.0930 -23.5886 -10.4977
22.4820 -21.0208 -10.2106
26.2227 -20.4549 -11.0328
32.2913 -20.8384 -12.7493
23.4113 -9.7424 -8.4122
23.5258 -7.4057 -8.1821
23.6678 -5.1834 -8.0377
23.8060 -3.0211 -7.9608
23.9426 -0.8829 -7.9482
24.0799 1.2656 -7.9994
24.2201 3.4597 -8.1164
9.5219 9.1865 -4.3893
5.7388 9.6786 -3.7328
-9.4229 0.4761 -3.1300
20.3444 -35.2358 -13.4978
21.4182 -30.4504 -12.3504
21.0137 -24.8290 -10.7909
21.9874 -21.7106 -10.2508
24.6797 -20.3563 -10.6130
31.4834 -21.5538 -12.6576
23.5901 -10.5794 -8.5768
23.4813 -8.1010 -8.2403
23.6250 -5.8526 -8.0744
23.7641 -3.6760 -7.9773
23.9010 -1.5341 -7.9453
24.0379 0.6076 -7.9770
24.1769 2.7839 -8.0735
24.6389 5.0976 -8.3469
19.6372 10.0276 -7.3147
-11.3976 13.8451 -5.9491
21.1912 -31.9423 -12.7166
20.9298 -26.1417 -11.1094
21.3879 -22.3014 -10.2508
23.2932 -20.3034 -10.2508
29.4478 -21.3610 -12.0687
35.2203 -21.0256 -13.6077
23.4362 -8.8068 -8.3056
23.5818 -6.5285 -8.1174
23.7221 -4.3340 -7.9999
23.8594 -2.1853 -7.9483
23.9960 -0.0472 -7.9605
24.1342 2.1148 -8.0370
24.3289 4.3461 -8.1987
20.4997 -32.8058 -12.8332
20.8407 -27.5353 -11.4561
21.1145 -23.2520 -10.4195
22.7314 -20.9304 -10.2508
16.8627 -12.9473 -7.0528
32.9017 -20.8774 -12.9269
23.3963 -9.5267 -8.3803
23.5381 -7.2121 -8.1670
23.6797 -4.9964 -8.0286
23.8177 -2.8375 -7.9572
23.9543 -0.6998 -7.9501
24.0918 1.4513 -8.0068
24.2323 3.6509 -8.1296
9.3928 9.2018 -4.3621
-9.3978 0.4027 -3.1205
20.3798 -34.6815 -13.3448
21.4472 -30.0010 -12.2343
21.0364 -24.4736 -10.7061
22.0580 -21.4494 -10.2069
25.1014 -20.3832 -10.7269
31.7949 -21.4117 -12.7166
23.4888 -10.3188 -8.5110
23.4939 -7.9046 -8.2233
23.6371 -5.6639 -8.0634
23.7759 -3.4916 -7.9721
23.9127 -1.3512 -7.9455
24.0497 0.7921 -7.9826
24.1890 2.9731 -8.0849
24.8950 5.3496 -8.4473
5.9279 9.5655 -3.7332
21.3416 -31.6405 -12.6611
20.9539 -25.7652 -11.0172
21.5580 -22.1371 -10.2508
23.6403 -20.2899 -10.3350
29.4687 -21.0339 -12.0109
35.9167 -21.0701 -13.8141
23.4490 -8.6073 -8.2866
23.5940 -6.3378 -8.1046
23.7339 -4.1488 -7.9930
23.8711 -2.0023 -7.9469
24.0078 0.1366 -7.9645
24.1462 2.3022 -8.0467
24.3688 4.5459 -8.2237
-10.7828 -19.4464 -7.3766
20.5616 -32.3512 -12.7166
20.8663 -27.1351 -11.3557
21.1357 -22.9204 -10.3431
22.8909 -20.7558 -10.2508
27.1449 -20.5138 -11.2874
33.5294 -20.9175 -13.1102
23.4033 -9.3214 -8.3571
23.5505 -7.0191 -8.1523
23.6917 -4.8098 -8.0199
23.8294 -2.6542 -7.9541
23.9660 -0.5166 -7.9524
