ply
format ascii 1.0
element vertex 2041
property float32 x
property float32 y
property float32 z
end_header
-30.8643 14.6501 1.8960
-31.4507 11.6162 1.8607
-31.5961 8.5554 1.8166
-31.6640 5.6006 1.7845
-31.1810 2.6788 1.7368
-30.4223 -0.1117 1.6884
-29.4731 -2.7501 1.6428
-28.3547 -5.2304 1.6001
-27.0871 -7.5485 1.5605
-25.6885 -9.7029 1.5239
-24.1753 -11.6934 1.4903
-20.0988 -12.0446 1.3004
-20.0867 -14.6226 1.3788
-19.0872 -16.6943 1.4073
-17.2475 -18.0451 1.3853
-15.3525 -19.2421 1.3661
-13.4101 -20.2878 1.3496
-10.4721 -19.4131 1.2241
-9.6905 -22.5839 1.3638
-8.0231 -24.5423 1.4329
-5.7750 -25.0487 1.4266
-3.5074 -25.3999 1.4230
-1.2258 -25.5961 1.4221
1.0649 -25.6374 1.4240
3.3598 -25.5229 1.4287
5.6534 -25.2515 1.4361
7.9406 -24.8212 1.4463
10.2154 -24.2297 1.4593
12.4716 -23.4743 1.4752
13.8664 -21.2697 1.4091
15.5255 -19.7138 1.3926
17.4936 -18.5362 1.4145
19.4055 -17.1909 1.4387
21.2563 -15.6810 1.4659
23.0347 -14.0032 1.4960
24.7281 -12.1548 1.5291
24.1880 -9.3116 1.4384
23.7844 -6.7908 1.3727
24.4780 -4.6757 1.3830
24.6166 -2.4544 1.3729
24.5864 -0.2460 1.3645
24.8894 1.9794 1.3856
25.0721 4.2710 1.4115
32.4139 8.5569 1.8605
32.0589 11.6105 1.8922
33.3576 15.5755 2.0431
31.8344 18.4905 2.0431
30.0570 21.2580 2.0431
28.0398 23.8556 2.0431
25.7988 26.2629 2.0431
23.3518 28.4607 2.0431
20.0512 29.4510 1.9773
17.5050 31.4146 1.9958
14.9654 33.6012 2.0414
11.9162 34.8303 2.0430
8.7605 35.7572 2.0431
5.5343 36.3963 2.0431
2.2638 36.7450 2.0431
-1.0247 36.8003 2.0431
-4.3051 36.5620 2.0431
-7.1849 34.2845 1.9440
-9.9389 32.5977 1.8913
-13.0494 32.1740 1.9268
-16.6821 32.4637 2.0256
-19.6817 31.1119 2.0431
-22.3798 29.2312 2.0431
-24.8995 27.1171 2.0431
-14.5206 13.2224 1.0899
-29.3239 22.2584 2.0431
-31.1934 19.5523 2.0431
-30.4518 15.4889 1.8960
-31.3493 12.5635 1.8743
-31.5813 9.4860 1.8300
-31.5868 6.4828 1.7895
-31.3715 3.5619 1.7522
-9.5241 0.2256 0.5287
-29.7826 -1.9590 1.6564
-28.7138 -4.4881 1.6129
-27.4899 -6.8562 1.5723
-26.1296 -9.0608 1.5348
-24.6498 -11.1014 1.5003
-21.2759 -11.9716 1.3548
-20.0333 -13.7613 1.3488
-19.6378 -16.2497 1.4146
-17.8170 -17.6481 1.3917
-15.9380 -18.8918 1.3717
-14.0093 -19.9836 1.3544
-12.0385 -20.9257 1.3398
-10.0335 -21.7235 1.3280
-8.7067 -24.3561 1.4354
-6.4655 -24.9102 1.4282
-4.2033 -25.3088 1.4238
-1.9255 -25.5525 1.4221
0.3631 -25.6412 1.4231
2.6571 -25.5746 1.4269
4.9518 -25.3513 1.4335
7.2415 -24.9699 1.4428
9.5207 -24.4281 1.4550
11.7833 -23.7232 1.4700
13.7760 -22.4506 1.4618
14.9113 -20.0383 1.3862
16.8977 -18.9157 1.4076
15.6024 -17.2743 1.4357
17.3500 -16.0610 1.4582
16.7004 -12.8937 1.3013
20.6383 -13.1732 1.5101
22.1625 -11.5023 1.5401
23.5897 -9.6791 1.5727
24.3003 -7.5168 1.5689
24.1360 -5.1602 1.5223
24.5831 -2.9955 1.5274
24.1579 -0.7706 1.4908
24.2924 1.3979 1.5008
24.9951 3.6972 1.5584
28.8494 6.9445 1.8302
28.8451 9.7382 1.8778
28.0596 12.3613 1.8912
29.0012 16.0068 2.0431
27.4568 18.5312 2.0431
25.6933 20.9078 2.0431
23.7248 23.1175 2.0431
21.5669 25.1427 2.0431
19.2368 26.9671 2.0431
16.6946 28.4765 2.0360
14.0896 29.8595 2.0364
11.3548 30.9607 2.0340
8.5503 31.8658 2.0349
5.6750 32.5180 2.0360
2.7507 32.9022 2.0364
-0.1967 33.0132 2.0362
-3.1530 32.9749 2.0431
-6.0834 32.5619 2.0431
-8.9653 31.8890 2.0431
-11.7755 30.9616 2.0431
-14.4919 29.7870 2.0431
-17.0927 28.3748 2.0431
-19.5568 26.7360 2.0431
-21.8650 24.8839 2.0431
-23.9986 22.8331 2.0431
-25.9405 20.6002 2.0431
-25.6197 16.8505 1.8913
-27.0887 14.5328 1.8960
-27.8045 11.8554 1.8643
-28.1467 9.1303 1.8251
-28.2379 6.4423 1.7864
-28.2475 3.8349 1.7582
-9.3986 0.4286 0.5803
-27.0946 -1.1876 1.6727
-26.2348 -3.5145 1.6326
-25.2209 -5.7072 1.5949
-24.0698 -7.7609 1.5598
-22.7969 -9.6727 1.5274
-21.4165 -11.4411 1.4976
-19.9415 -13.0655 1.4704
-18.3838 -14.5462 1.4459
-16.7539 -15.8841 1.4239
-15.0615 -17.0802 1.4046
-13.3152 -18.1360 1.3877
-11.5231 -19.0530 1.3733
-9.6933 -19.8349 1.3616
-8.5236 -22.2927 1.4720
-6.4671 -22.8483 1.4646
-4.3875 -23.2572 1.4598
-2.2908 -23.5199 1.4575
-0.1825 -23.6363 1.4579
1.9317 -23.6059 1.4608
4.0461 -23.4281 1.4664
6.1550 -23.1014 1.4745
8.2523 -22.6245 1.4854
10.3314 -21.9953 1.4988
12.3854 -21.2118 1.5150
13.9623 -19.6463 1.4866
15.0545 -17.6133 1.4291
16.8229 -16.4501 1.4512
18.5230 -15.1273 1.4750
20.1544 -13.6544 1.5015
21.7055 -12.0300 1.5306
23.1639 -10.2534 1.5624
24.2553 -8.2363 1.5799
24.0234 -5.8276 1.5247
24.5406 -3.6742 1.5305
24.6776 -1.4637 1.5247
24.6477 0.7427 1.5209
24.9519 2.9959 1.5500
28.8854 6.1224 1.8212
28.8149 8.8577 1.8593
28.4164 11.6011 1.8931
17.1656 8.8706 1.1917
27.9535 17.7732 2.0431
26.2557 20.1971 2.0431
24.3483 22.4599 2.0431
22.2466 24.5433 2.0431
19.9673 26.4309 2.0431
17.4894 28.0446 2.0385
14.9021 29.4647 2.0365
12.1949 30.6321 2.0335
9.4177 31.6164 2.0347
6.5616 32.3462 2.0357
3.6497 32.8135 2.0364
0.7065 33.0084 2.0364
-2.2497 33.0488 2.0431
-5.1904 32.7161 2.0431
-8.0896 32.1223 2.0431
-10.9242 31.2721 2.0431
-13.6716 30.1723 2.0431
-16.3100 28.8317 2.0431
-18.8181 27.2610 2.0431
-11.4858 13.8163 1.1082
-23.3650 23.4811 2.0431
-25.3674 21.3020 2.0431
-27.1674 18.9530 2.0431
-26.6773 15.2662 1.8958
-27.6474 12.6931 1.8764
-28.0692 9.9617 1.8370
-28.2358 7.2598 1.7982
-28.2038 4.6179 1.7627
-27.9559 2.0423 1.7289
-27.3243 -0.4493 1.6855
-26.5152 -2.8162 1.6446
-25.5466 -5.0506 1.6062
-24.4358 -7.1472 1.5703
-23.1986 -9.1027 1.5370
-21.8497 -10.9151 1.5064
-20.4024 -12.5835 1.4785
-18.8688 -14.1082 1.4531
-17.2599 -15.4897 1.4304
-15.5857 -16.7290 1.4102
-13.8550 -17.8276 1.3926
-12.0760 -18.7868 1.3775
-10.2572 -19.6101 1.3650
-9.1476 -22.0932 1.4748
-7.0993 -22.6938 1.4666
-5.0262 -23.1476 1.4610
-2.9341 -23.4550 1.4579
-0.8288 -23.6162 1.4575
1.2841 -23.6308 1.4596
3.3991 -23.4982 1.4644
5.5104 -23.2173 1.4718
7.6118 -22.7866 1.4818
9.6973 -22.2042 1.4944
11.7598 -21.4682 1.5098
13.7918 -20.5761 1.5278
14.5022 -17.9383 1.4227
16.2898 -16.8249 1.4444
18.0094 -15.5481 1.4675
19.6629 -14.1214 1.4931
21.2399 -12.5434 1.5214
22.7281 -10.8134 1.5524
24.1140 -8.9313 1.5860
23.9278 -6.5024 1.5293
24.4980 -4.3560 1.5347
24.6360 -2.1389 1.5252
24.6059 0.0681 1.5176
24.9092 2.3015 1.5429
25.2028 4.6253 1.5804
28.7695 7.9892 1.8416
28.7530 10.8306 1.8951
29.8332 14.3967 2.0431
28.4292 17.0019 2.0431
26.7983 19.4714 2.0431
24.9536 21.7854 2.0431
22.9096 23.9256 2.0431
20.6829 25.8748 2.0431
18.2655 27.5789 2.0403
15.6969 29.0357 2.0358
13.0329 30.2976 2.0343
10.2776 31.3424 2.0344
7.4427 32.1492 2.0353
4.5456 32.6992 2.0362
1.6092 32.9778 2.0364
-1.3449 33.0979 2.0431
-4.2935 32.8457 2.0431
-7.2078 32.3316 2.0431
-10.0647 31.5592 2.0431
-12.8411 30.5350 2.0431
-15.5152 29.2671 2.0431
-18.0653 27.7656 2.0431
-20.4713 26.0424 2.0431
-22.7139 24.1114 2.0431
-24.7752 21.9880 2.0431
-26.6386 19.6891 2.0431
-26.2223 15.9736 1.8938
-27.4654 13.5311 1.8884
-27.9678 10.7959 1.8491
-28.2111 8.0824 1.8100
-28.2089 5.4150 1.7716
-28.1107 2.8285 1.7426
-27.5374 0.3006 1.6986
-26.7806 -2.1054 1.6569
-25.8590 -4.3810 1.6177
-24.7900 -6.5202 1.5810
-23.5899 -8.5192 1.5469
-22.2737 -10.3755 1.5155
-20.8551 -12.0881 1.4868
-19.3468 -13.6567 1.4606
-17.7598 -15.0819 1.4371
-16.1046 -16.3646 1.4161
-14.3903 -17.5062 1.3977
-12.6254 -18.5079 1.3818
-10.7368 -19.2271 1.3583
-9.6085 -21.5210 1.4537
-7.7293 -22.5256 1.4688
-5.6631 -23.0242 1.4624
-3.5762 -23.3764 1.4586
-1.4743 -23.5824 1.4574
0.6368 -23.6420 1.4587
2.7518 -23.5545 1.4627
4.8648 -23.3191 1.4692
6.9699 -22.9344 1.4784
9.0610 -22.3987 1.4903
11.1313 -21.7100 1.5048
13.1735 -20.8659 1.5220
14.0592 -18.3978 1.4281
15.7477 -17.1816 1.4375
17.4896 -15.9549 1.4601
16.7630 -12.7479 1.2989
20.7660 -13.0426 1.5125
22.2828 -11.3592 1.5426
23.7015 -9.5236 1.5755
24.3122 -7.3266 1.5661
23.9000 -4.9277 1.5051
24.5944 -2.8150 1.5268
24.1688 -0.5945 1.4911
24.8669 1.6130 1.5370
25.0067 3.8855 1.5609
28.8358 7.1641 1.8326
28.8686 9.9813 1.8840
27.9620 12.5626 1.8907
28.8836 16.2179 2.0431
27.3209 18.7310 2.0431
25.5402 21.0946 2.0431
23.5556 23.2899 2.0431
21.3829 25.2993 2.0431
19.0339 27.0986 2.0425
16.4789 28.5844 2.0350
13.8688 29.9558 2.0360
11.1292 31.0442 2.0341
8.3179 31.9281 2.0350
5.4379 32.5595 2.0360
2.5107 32.9216 2.0364
-0.4375 33.0101 2.0362
-3.3934 32.9510 2.0431
-6.3207 32.5166 2.0431
-9.1976 31.8228 2.0431
-12.0010 30.8749 2.0431
-14.7087 29.6805 2.0431
-17.2992 28.2494 2.0431
-19.7513 26.5926 2.0431
-22.0459 24.7237 2.0431
-24.1645 22.6575 2.0431
-26.0902 20.4104 2.0431
-25.7489 16.6677 1.8918
-27.1940 14.3349 1.8960
-27.8421 11.6322 1.8611
-28.1634 8.9092 1.8219
-28.2347 6.2253 1.7833
-28.2467 3.6252 1.7565
-9.3807 0.3592 0.5790
-27.0306 -1.3824 1.6694
-26.1576 -3.6986 1.6294
-25.1319 -5.8801 1.5919
-23.9702 -7.9223 1.5571
-22.6881 -9.8224 1.5249
-21.2995 -11.5791 1.4953
-19.8174 -13.1917 1.4683
-18.2533 -14.6608 1.4440
-16.6180 -15.9870 1.4223
-14.9209 -17.1716 1.4031
-13.1706 -18.2160 1.3864
-11.3751 -19.1219 1.3723
-9.5425 -19.8927 1.3608
-8.3568 -22.3436 1.4713
-6.2981 -22.8871 1.4641
-4.2169 -23.2841 1.4595
-2.1191 -23.5349 1.4575
-0.0101 -23.6393 1.4580
2.1043 -23.5969 1.4612
4.2185 -23.4070 1.4669
6.3267 -23.0681 1.4753
8.4227 -22.5789 1.4864
10.5001 -21.9372 1.5000
12.5517 -21.1410 1.5164
13.9832 -19.3749 1.4737
15.2010 -17.5243 1.4308
16.9639 -16.3478 1.4531
18.6589 -15.0128 1.4771
20.2841 -13.5275 1.5038
21.8282 -11.8907 1.5331
23.2784 -10.1017 1.5651
24.2673 -8.0435 1.5768
24.0652 -5.6522 1.5247
24.5520 -3.4930 1.5296
24.6887 -1.2837 1.5248
24.5130 0.9176 1.5130
24.9634 3.1821 1.5521
28.8781 6.3412 1.8236
28.8162 9.0887 1.8636
28.3232 11.8047 1.8926
29.3165 15.4217 2.0431
27.8231 17.9766 2.0431
26.1077 20.3881 2.0431
24.1838 22.6368 2.0431
22.0674 24.7038 2.0431
19.7740 26.5758 2.0431
17.2783 28.1614 2.0378
14.6881 29.5752 2.0367
11.9719 30.7220 2.0337
9.1872 31.6853 2.0348
6.3257 32.3944 2.0358
3.4102 32.8397 2.0364
0.4657 33.0121 2.0363
-2.4908 33.0315 2.0431
-5.4288 32.6774 2.0431
-8.3236 32.0624 2.0431
-11.1520 31.1916 2.0431
-13.8913 30.0718 2.0431
-16.5199 28.7120 2.0431
-19.0164 27.1230 2.0431
-21.3612 25.3176 2.0431
-23.5356 23.3100 2.0431
-25.5220 21.1165 2.0431
-27.3050 18.7544 2.0431
-26.7917 15.0734 1.8960
-27.6918 12.4697 1.8731
-28.0922 9.7398 1.8339
-28.2386 7.0414 1.7950
-28.2159 4.4089 1.7614
-27.9115 1.8345 1.7252
-27.2647 -0.6473 1.6821
-26.4419 -3.0036 1.6414
-25.4611 -5.2269 1.6031
-24.3394 -7.3121 1.5675
-23.0925 -9.2559 1.5345
-21.7351 -11.0566 1.5041
-20.2803 -12.7133 1.4763
-18.7402 -14.2263 1.4512
-17.1256 -15.5961 1.4286
-15.4464 -16.8239 1.4087
-13.7116 -17.9111 1.3913
-11.9290 -18.8590 1.3763
-10.1072 -19.6713 1.3641
-8.9815 -22.1478 1.4741
-6.9310 -22.7363 1.4660
-4.8561 -23.1782 1.4606
-2.7628 -23.4737 1.4578
-0.6566 -23.6229 1.4576
1.4567 -23.6256 1.4599
3.5717 -23.4809 1.4649
5.6823 -23.1878 1.4725
7.7827 -22.7447 1.4827
9.8665 -22.1499 1.4956
11.9268 -21.4013 1.5111
13.9029 -20.4182 1.5236
14.6499 -17.8530 1.4244
16.4328 -16.7267 1.4462
18.1469 -15.4373 1.4695
19.7946 -13.9983 1.4953
21.3649 -12.4080 1.5238
22.8453 -10.6655 1.5550
24.2218 -8.7708 1.5889
23.9392 -6.3183 1.5271
24.5094 -4.1739 1.5334
24.6471 -1.9589 1.5250
24.6170 0.2476 1.5184
24.9206 2.4860 1.5447
25.4433 4.8615 1.5976
28.7772 8.2180 1.8459
28.6653 11.0370 1.8945
29.7274 14.6139 2.0431
28.3045 17.2088 2.0431
26.6556 19.6663 2.0431
24.7940 21.9668 2.0431
22.7345 24.0920 2.0431
20.4936 26.0249 2.0431
18.0596 27.7048 2.0398
15.4862 29.1523 2.0360
12.8079 30.3831 2.0337
10.0492 31.4179 2.0345
7.2083 32.2042 2.0354
4.3071 32.7322 2.0363
1.3687 32.9885 2.0364
-1.5862 33.0873 2.0431
-4.5329 32.8136 2.0431
-7.4434 32.2781 2.0431
-10.2946 31.4850 2.0431
-13.0635 30.4406 2.0431
-15.7282 29.1531 2.0431
-18.2673 27.6331 2.0431
-20.6607 25.8924 2.0431
-22.8891 23.9451 2.0431
-24.8129 21.7000 2.0331
-26.7816 19.4943 2.0431
-26.3454 15.7863 1.8943
-27.5164 13.3078 1.8852
-27.9972 10.5734 1.8459
-28.2199 7.8626 1.8068
-28.1983 5.2001 1.7685
-28.0713 2.6179 1.7389
-27.4823 0.0995 1.6951
-26.7114 -2.2960 1.6536
-25.7771 -4.5607 1.6146
-24.6968 -6.6886 1.5781
-23.4866 -8.6760 1.5443
-22.1616 -10.5206 1.5131
-20.7352 -12.2215 1.4845
-19.2201 -13.7783 1.4586
-17.6271 -15.1919 1.4353
-15.9668 -16.4631 1.4145
-14.2481 -17.5931 1.3963
-12.4793 -18.5835 1.3806
-10.5596 -19.2381 1.3536
-9.6034 -21.9381 1.4771
-7.5616 -22.5718 1.4682
-5.4935 -23.0585 1.4620
-3.4052 -23.3987 1.4584
-1.3024 -23.5928 1.4574
0.8094 -23.6403 1.4589
2.9244 -23.5409 1.4631
5.0370 -23.2933 1.4699
7.1412 -22.8964 1.4793
9.2308 -22.3483 1.4913
11.2991 -21.6469 1.5061
13.3386 -20.7901 1.5235
14.0945 -18.1678 1.4182
15.8927 -17.0879 1.4393
17.6288 -15.8478 1.4621
16.9994 -12.7331 1.3100
20.8931 -12.9109 1.5148
22.4024 -11.2151 1.5452
23.8125 -9.3671 1.5782
24.3240 -7.1371 1.5635
23.9111 -4.7485 1.5036
24.6055 -2.6346 1.5263
24.1797 -0.4183 1.4916
24.8781 1.7960 1.5384
25.0379 4.0776 1.5646
28.8204 7.3838 1.8350
28.8904 10.2254 1.8902
30.1160 13.7952 2.0431
28.7646 16.4281 2.0431
27.1836 18.9297 2.0431
25.3857 21.2803 2.0431
23.3850 23.4611 2.0431
21.1979 25.4546 2.0431
18.8274 27.2247 2.0416
16.2718 28.7069 2.0352
13.6473 30.0500 2.0356
10.9031 31.1261 2.0342
8.0851 31.9889 2.0351
5.2004 32.5992 2.0361
2.2706 32.9391 2.0364
-0.6783 33.0052 2.0361
-3.6336 32.9254 2.0431
-6.5576 32.4697 2.0431
-9.4295 31.7548 2.0431
-12.2259 30.7865 2.0431
-14.9249 29.5725 2.0431
-17.5046 28.1224 2.0431
-19.9446 26.4480 2.0431
-22.2256 24.5623 2.0431
-14.5103 13.4079 1.2185
-26.2385 20.2196 2.0431
-25.8769 16.4840 1.8924
-27.2979 14.1361 1.8960
-27.8780 11.4091 1.8579
-28.1783 8.6885 1.8187
-28.2300 6.0087 1.7802
-28.2123 3.4119 1.7528
-9.4137 0.2917 0.5809
-26.9656 -1.5763 1.6660
-26.0793 -3.8818 1.6262
-25.0420 -6.0520 1.5890
-23.8700 -8.0827 1.5544
-22.5786 -9.9712 1.5224
-21.1819 -11.7161 1.4930
-19.6926 -13.3170 1.4662
-18.1224 -14.7743 1.4421
-16.4817 -16.0889 1.4206
-14.7799 -17.2621 1.4016
-13.0257 -18.2951 1.3852
-11.2269 -19.1900 1.3713
-9.5452 -20.2763 1.3822
-8.1897 -22.3934 1.4706
-6.1291 -22.9250 1.4636
-4.0463 -23.3101 1.4592
-1.9473 -23.5489 1.4574
0.1623 -23.6413 1.4582
2.2769 -23.5870 1.4616
4.3908 -23.3849 1.4675
6.4983 -23.0339 1.4761
8.5930 -22.5322 1.4874
10.6686 -21.8780 1.5013
12.7178 -21.0691 1.5179
14.0037 -19.1081 1.4612
15.3472 -17.4343 1.4326
17.1046 -16.2444 1.4549
16.7477 -13.2751 1.3181
20.4134 -13.3996 1.5061
21.9502 -11.7504 1.5356
23.3922 -9.9489 1.5678
24.2793 -7.8515 1.5738
24.1058 -5.4765 1.5247
24.5633 -3.3120 1.5287
24.6997 -1.1038 1.5249
24.2730 1.0860 1.4986
24.9749 3.3688 1.5543
28.8691 6.5604 1.8260
28.8210 9.3217 1.8683
28.2286 12.0076 1.8921
29.2032 15.6351 2.0431
27.6913 18.1790 2.0431
25.9582 20.5780 2.0431
24.0181 22.8126 2.0431
21.8862 24.8652 2.0431
19.5797 26.7194 2.0431
17.0680 28.2793 2.0373
14.4732 29.6842 2.0369
11.7482 30.8102 2.0338
8.9561 31.7524 2.0348
6.0895 32.4409 2.0358
3.1706 32.8640 2.0364
0.2249 33.0141 2.0363
-2.7315 33.0124 2.0431
-5.6671 32.6369 2.0431
-8.5572 32.0009 2.0431
-11.3792 31.1094 2.0431
-14.1103 29.9697 2.0431
-16.7288 28.5908 2.0431
-19.2138 26.9836 2.0431
-21.5453 25.1611 2.0431
-23.7050 23.1377 2.0431
-25.6754 20.9298 2.0431
-25.3941 17.1707 1.8907
-26.9009 14.8776 1.8960
-27.7342 12.2464 1.8699
-28.1135 9.5180 1.8307
-28.2397 6.8233 1.7919
-28.2282 4.2001 1.7602
-27.8657 1.6275 1.7216
-27.2039 -0.8444 1.6787
-26.3675 -3.1901 1.6382
-25.3746 -5.4022 1.6001
-24.2421 -7.4761 1.5647
-22.9857 -9.4082 1.5319
-21.6198 -11.1973 1.5017
-20.1576 -12.8422 1.4742
-18.6111 -14.3434 1.4492
-16.9909 -15.7016 1.4269
-15.3068 -16.9179 1.4072
-13.5677 -17.9937 1.3899
-11.7816 -18.9302 1.3752
-9.9569 -19.7316 1.3632
-8.8152 -22.2013 1.4733
-6.7626 -22.7779 1.4655
-4.6859 -23.2078 1.4603
-2.5913 -23.4913 1.4577
-0.4843 -23.6286 1.4577
1.6294 -23.6193 1.4602
3.7441 -23.4625 1.4654
5.8542 -23.1572 1.4732
7.9535 -22.7019 1.4836
10.0357 -22.0946 1.4967
12.0937 -21.3333 1.5125
13.9249 -20.1332 1.5098
14.7972 -17.7667 1.4261
16.5748 -16.6271 1.4480
18.2840 -15.3255 1.4715
19.9258 -13.8742 1.4976
21.4893 -12.2714 1.5263
22.9617 -10.5166 1.5577
24.2340 -8.5758 1.5855
23.9506 -6.1349 1.5249
24.5208 -3.9921 1.5323
24.6582 -1.7789 1.5248
24.6281 0.4274 1.5192
24.9320 2.6710 1.5465
28.8942 5.7396 1.8170
28.8156 8.4566 1.8522
28.5761 11.2426 1.8940
19.6123 9.8196 1.3528
28.1782 17.4148 2.0431
26.5115 19.8601 2.0431
24.6331 22.1471 2.0431
22.5582 24.2572 2.0431
20.3033 26.1737 2.0431
17.8531 27.8298 2.0393
15.2747 29.2672 2.0362
12.5838 30.4706 2.0333
9.8202 31.4915 2.0346
6.9737 32.2573 2.0355
4.0683 32.7634 2.0363
1.1280 32.9973 2.0364
-1.8275 33.0748 2.0431
-4.7721 32.7797 2.0431
-7.6787 32.2229 2.0431
-10.5239 31.4091 2.0431
-13.2851 30.3445 2.0431
-15.9404 29.0377 2.0431
-18.4684 27.4991 2.0431
-11.3247 13.9819 1.1098
-23.0632 23.7776 2.0431
-25.0932 21.6243 2.0431
-26.9232 19.2984 2.0431
-26.4672 15.5981 1.8948
-27.5656 13.0843 1.8820
-28.0249 10.3509 1.8426
-28.2271 7.6432 1.8037
-28.1862 4.9855 1.7655
-28.0305 2.4081 1.7352
-27.4259 -0.1007 1.6916
-26.6410 -2.4858 1.6503
-25.6941 -4.7396 1.6115
-24.6027 -6.8561 1.5753
-23.3826 -8.8320 1.5416
-22.0488 -10.6649 1.5107
-20.6148 -12.3539 1.4823
-19.0928 -13.8991 1.4566
-17.4941 -15.3009 1.4335
-15.8286 -16.5606 1.4129
-14.1055 -17.6792 1.3950
-12.3329 -18.6582 1.3795
-10.4060 -19.2906 1.3519
-9.4380 -21.9954 1.4762
-7.3937 -22.6170 1.4676
-5.3238 -23.0917 1.4616
-3.2340 -23.4201 1.4582
-1.1303 -23.6021 1.4574
0.9819 -23.6377 1.4592
3.0970 -23.5262 1.4636
5.2091 -23.2666 1.4706
7.3124 -22.8573 1.4802
9.4005 -22.2968 1.4924
11.4667 -21.5829 1.5074
13.5036 -20.7132 1.5251
14.2429 -18.0853 1.4198
16.0373 -16.9931 1.4412
17.7674 -15.7398 1.4640
19.4311 -14.3344 1.4893
21.0197 -12.7782 1.5172
22.5213 -11.0700 1.5478
23.9228 -9.2095 1.5811
23.7844 -6.7908 1.5256
24.4780 -4.6757 1.5370
24.6166 -2.4544 1.5258
24.5864 -0.2460 1.5165
24.8894 1.9794 1.5400
25.0721 4.2710 1.5687
28.8034 7.6038 1.8374
28.9032 10.4676 1.8960
30.0146 14.0146 2.0431
28.6440 16.6374 2.0431
27.0448 19.1275 2.0431
25.2298 21.4649 2.0431
23.2134 23.6310 2.0431
21.0116 25.6085 2.0431
18.6217 27.3515 2.0409
16.0636 28.8278 2.0355
13.4247 30.1421 2.0352
10.6763 31.2062 2.0343
7.8520 32.0488 2.0352
4.9627 32.6371 2.0361
2.0302 32.9547 2.0364
-0.9192 33.0121 2.0369
-3.8737 32.8980 2.0431
-6.7943 32.4210 2.0431
-9.6607 31.6852 2.0431
-12.4501 30.6965 2.0431
-15.1401 29.4628 2.0431
-17.7093 27.9940 2.0431
-20.1370 26.3018 2.0431
-22.4042 24.3995 2.0431
-14.5117 13.2143 1.2105
-26.3852 20.0277 2.0431
-26.0036 16.2993 1.8929
-27.3717 13.9222 1.8941
-27.9122 11.1861 1.8547
-28.1917 8.4679 1.8156
-28.2236 5.7925 1.7771
-28.1766 3.1991 1.7490
-9.5235 0.2256 0.5876
-26.8993 -1.7694 1.6627
-26.0001 -4.0640 1.6231
-24.9511 -6.2231 1.5861
-23.7688 -8.2422 1.5517
-22.4684 -10.1190 1.5199
-21.0636 -11.8522 1.4907
-19.5674 -13.4413 1.4642
-17.9910 -14.8870 1.4403
-16.3450 -16.1900 1.4190
-14.6386 -17.3516 1.4002
-12.8804 -18.3733 1.3839
-11.0545 -19.2153 1.3673
-9.5675 -20.7145 1.4073
-8.0226 -22.4423 1.4700
-5.9598 -22.9619 1.4632
-3.8755 -23.3351 1.4590
-1.7755 -23.5619 1.4574
0.3348 -23.6424 1.4584
2.4495 -23.5760 1.4619
4.5632 -23.3619 1.4681
6.6698 -22.9986 1.4769
8.7633 -22.4846 1.4884
10.8369 -21.8179 1.5025
12.8836 -20.9962 1.5194
14.0239 -18.8457 1.4489
15.4931 -17.3433 1.4344
14.3988 -15.9417 1.4578
15.9996 -14.8109 1.4796
16.6377 -12.8453 1.4265
18.9841 -12.1174 1.5284
20.3538 -10.5636 1.5562
21.6272 -8.8738 1.5864
22.7911 -7.0500 1.6190
23.8314 -5.0950 1.6538
24.7115 -3.0112 1.6894
24.1579 -0.7706 1.6403
24.2924 1.3979 1.6513
26.1041 3.8612 1.7908
26.0346 6.2669 1.8173
25.8511 8.7274 1.8516
25.5492 11.2554 1.8947
26.3577 14.5477 2.0431
24.9541 16.8421 2.0431
23.3514 19.0020 2.0431
21.5622 21.0103 2.0431
19.6010 22.8509 2.0431
17.3883 24.3758 2.0320
15.1099 25.7735 2.0275
12.7629 27.0479 2.0297
10.2841 28.0412 2.0269
7.7437 28.8597 2.0278
5.1386 29.4443 2.0284
2.4907 29.7916 2.0288
-0.1781 29.8923 2.0286
-2.8656 29.9691 2.0431
-5.5289 29.5938 2.0431
-8.1481 28.9823 2.0431
-10.7022 28.1394 2.0431
-13.1710 27.0719 2.0431
-15.5346 25.7884 2.0431
-17.7742 24.2990 2.0431
-19.8719 22.6157 2.0431
-21.8112 20.7518 2.0431
-23.5761 18.7224 2.0431
-23.3274 15.3428 1.8948
-24.4451 13.1145 1.8826
-25.0424 10.6777 1.8475
-25.4038 8.2405 1.8124
-25.5388 5.8265 1.7777
-25.4591 3.4564 1.7436
-9.3983 0.4285 0.6385
-24.6882 -1.0821 1.6770
-23.9559 -3.2093 1.6403
-23.0763 -5.2219 1.6056
-22.0643 -7.1143 1.5733
-20.9338 -8.8822 1.5432
-19.6976 -10.5228 1.5155
-18.3678 -12.0344 1.4902
-16.9553 -13.4159 1.4673
-15.4703 -14.6671 1.4467
-13.9221 -15.7881 1.4285
-12.3191 -16.7792 1.4126
-10.6699 -17.6422 1.3992
-9.4754 -19.3889 1.4645
-7.9014 -20.6655 1.5014
-5.9972 -21.1883 1.4944
-4.0697 -21.5727 1.4898
-2.1251 -21.8188 1.4877
-0.1693 -21.9264 1.4880
1.7917 -21.8950 1.4908
3.7518 -21.7240 1.4961
5.7050 -21.4125 1.5038
7.6449 -20.9592 1.5140
9.5646 -20.3628 1.5267
11.4570 -19.6217 1.5420
13.3142 -18.7343 1.5597
14.1722 -16.5811 1.4803
15.5155 -15.1718 1.4727
17.0702 -13.9408 1.4957
18.5475 -12.5658 1.5204
19.9442 -11.0537 1.5475
21.2484 -9.4055 1.5769
22.4473 -7.6224 1.6088
23.5270 -5.7072 1.6429
24.4690 -3.6634 1.6791
25.2033 -1.4949 1.7134
25.7623 0.7763 1.7491
26.0813 3.1315 1.7827
26.0797 5.5277 1.8092
25.8529 7.9472 1.8355
25.8663 10.5599 1.8960
17.1656 8.8706 1.3113
25.4055 16.1532 2.0431
23.8624 18.3562 2.0431
22.1289 20.4126 2.0431
20.2187 22.3061 2.0431
18.0753 23.9264 2.0350
15.8033 25.3408 2.0267
13.4941 26.6808 2.0291
11.0574 27.7747 2.0288
8.5294 28.6341 2.0276
5.9414 29.2892 2.0282
3.3046 29.7114 2.0288
0.6397 29.8878 2.0288
-2.0437 30.0224 2.0422
-4.7173 29.7340 2.0431
-7.3522 29.1943 2.0431
-9.9284 28.4216 2.0431
-12.4254 27.4221 2.0431
-14.8233 26.2037 2.0431
-17.1028 24.7761 2.0431
-11.4858 13.8163 1.2193
-21.2352 21.3408 2.0431
-23.0552 19.3603 2.0431
-22.8779 15.9605 1.8931
-24.2139 13.8565 1.8933
-24.8850 11.4249 1.8583
-25.3177 8.9852 1.8232
-25.5209 6.5618 1.7883
-25.5056 4.1761 1.7540
-25.3973 1.8554 1.7282
-24.8806 -0.4092 1.6887
-24.1964 -2.5699 1.6513
-23.3603 -4.6183 1.6160
-22.3873 -6.5480 1.5829
-21.2917 -8.3544 1.5522
-20.0865 -10.0343 1.5238
-18.7841 -11.5854 1.4977
-17.3958 -13.0069 1.4741
-15.9320 -14.2980 1.4528
-14.4022 -15.4587 1.4338
-12.8152 -16.4896 1.4172
-11.1791 -17.3914 1.4030
-9.5021 -18.1663 1.3913
-8.4787 -20.4777 1.5041
-6.5829 -21.0429 1.4963
-4.6619 -21.4698 1.4910
-2.7219 -21.7582 1.4881
-0.7689 -21.9082 1.4877
1.1912 -21.9194 1.4897
3.1522 -21.7913 1.4942
5.1082 -21.5229 1.5012
7.0528 -21.1131 1.5106
8.9795 -20.5607 1.5226
10.8810 -19.8640 1.5370
12.7498 -19.0216 1.5540
14.1053 -17.4473 1.5226
15.0261 -15.5197 1.4660
16.6035 -14.3344 1.4886
18.1033 -13.0013 1.5126
19.5258 -11.5311 1.5389
20.8597 -9.9245 1.5677
22.0922 -8.1824 1.5988
23.2100 -6.3073 1.6322
24.1983 -4.3027 1.6679
24.9964 -2.1702 1.7027
24.3354 0.0673 1.6515
26.0382 2.4058 1.7746
26.1037 4.7906 1.8011
25.9467 7.2054 1.8275
25.7982 9.7176 1.8709
25.1147 12.1197 1.8925
25.8379 15.4521 2.0431
24.3556 17.6965 2.0431
22.6790 19.7996 2.0431
20.8214 21.7447 2.0431
18.7673 23.4783 2.0398
16.4994 24.9124 2.0278
14.2143 26.2932 2.0284
11.8210 27.4804 2.0302
9.3083 28.3863 2.0273
6.7399 29.1134 2.0280
4.1159 29.6081 2.0286
1.4571 29.8600 2.0288
-1.2135 29.8648 2.0284
-3.9021 29.8519 2.0431
-6.5509 29.3845 2.0431
-9.1472 28.6826 2.0431
-11.6707 27.7517 2.0431
-14.1010 26.5993 2.0431
-16.4186 25.2347 2.0431
-18.6053 23.6686 2.0431
-20.6435 21.9136 2.0431
-14.7608 13.1002 1.3393
-22.4124 16.5653 1.8914
-23.8603 14.5348 1.8960
-24.7052 12.1713 1.8690
-25.2101 9.7314 1.8339
-25.4824 7.3006 1.7989
-25.5328 4.9013 1.7644
-25.4786 2.5637 1.7378
-25.0573 0.2735 1.7006
-24.4227 -1.9200 1.6625
-23.6315 -4.0036 1.6266
-22.6989 -5.9702 1.5928
-21.6393 -7.8147 1.5614
-20.4663 -9.5336 1.5322
-19.1924 -11.1243 1.5054
-17.8293 -12.5856 1.4810
-16.3876 -13.9165 1.4590
-14.8770 -15.1172 1.4394
-13.3066 -16.1878 1.4221
-11.6845 -17.1287 1.4071
-10.0195 -17.9427 1.3946
-9.0531 -20.2769 1.5070
-7.1663 -20.8847 1.4984
-5.2523 -21.3538 1.4923
-3.3174 -21.6846 1.4887
-1.3677 -21.8770 1.4875
0.5907 -21.9308 1.4888
2.5521 -21.8454 1.4926
4.5103 -21.6200 1.4988
6.4591 -21.2536 1.5075
8.3920 -20.7450 1.5187
10.3020 -20.0927 1.5323
12.1817 -19.2951 1.5486
14.0230 -18.3505 1.5673
14.5315 -15.8546 1.4595
16.1276 -14.7125 1.4815
16.6858 -12.6893 1.4226
19.0992 -11.9957 1.5306
20.4615 -10.4307 1.5586
21.7265 -8.7300 1.5890
22.8809 -6.8953 1.6218
23.9104 -4.9299 1.6568
24.7735 -2.8355 1.6922
24.1688 -0.5945 1.6407
25.9285 1.6819 1.7633
26.1068 4.0564 1.7930
26.0189 6.4642 1.8194
25.8373 8.9333 1.8553
25.4601 11.4386 1.8942
26.2509 14.7396 2.0431
24.8306 17.0237 2.0431
23.2121 19.1718 2.0431
21.4085 21.1670 2.0431
19.4338 22.9932 2.0431
17.2036 24.4928 2.0312
14.9230 25.8855 2.0277
12.5662 27.1423 2.0298
10.0797 28.1167 2.0270
7.5332 28.9160 2.0279
4.9239 29.4818 2.0285
2.2734 29.8091 2.0288
-0.3961 29.8896 2.0286
-3.0841 29.9475 2.0431
-5.7446 29.5527 2.0431
-8.3592 28.9221 2.0431
-10.9071 28.0606 2.0431
-13.3680 26.9751 2.0431
-15.7222 25.6744 2.0431
-17.9509 24.1687 2.0431
-20.0364 22.4701 2.0431
-21.9619 20.5922 2.0431
-23.7120 18.5500 2.0431
-23.4445 15.1760 1.8953
-24.5029 12.9163 1.8797
-25.0806 10.4785 1.8446
-25.4231 8.0424 1.8096
-25.5402 5.6312 1.7749
-25.4608 3.2677 1.7420
-9.3804 0.3592 0.6371
-24.6343 -1.2598 1.6740
-23.8894 -3.3779 1.6374
-22.9985 -5.3809 1.6029
-21.9763 -7.2633 1.5707
-20.8367 -9.0209 1.5409
-19.5924 -10.6511 1.5134
-18.2554 -12.1520 1.4883
-16.8367 -13.5230 1.4655
-15.3462 -14.7635 1.4451
-13.7932 -15.8738 1.4271
-12.1861 -16.8544 1.4115
-10.5335 -17.7071 1.3982
-9.4956 -19.7951 1.4899
-7.7470 -20.7134 1.5008
-5.8407 -21.2249 1.4939
-3.9116 -21.5980 1.4896
-1.9658 -21.8328 1.4876
-0.0094 -21.9291 1.4882
1.9517 -21.8863 1.4912
3.9116 -21.7039 1.4966
5.8639 -21.3808 1.5046
7.8024 -20.9159 1.5150
9.7201 -20.3078 1.5279
11.6100 -19.5548 1.5433
13.4639 -18.6553 1.5613
14.1894 -16.3581 1.4696
15.6451 -15.0768 1.4745
17.1935 -13.8337 1.4976
18.6647 -12.4475 1.5225
20.0542 -10.9244 1.5498
21.3503 -9.2650 1.5795
22.5401 -7.4710 1.6115
23.6094 -5.5452 1.6458
24.5351 -3.4906 1.6818
25.2557 -1.3132 1.7163
25.7997 0.9658 1.7521
26.0894 3.3256 1.7848
26.0697 5.7246 1.8113
25.8316 8.1474 1.8382
25.7875 10.7479 1.8960
24.6568 12.9705 1.8907
25.2870 16.3380 2.0431
23.7279 18.5297 2.0431
21.9795 20.5734 2.0431
20.0555 22.4530 2.0431
17.8955 24.0511 2.0345
15.6196 25.4580 2.0269
13.3002 26.7807 2.0292
10.8521 27.8484 2.0283
8.3206 28.6964 2.0277
5.7278 29.3327 2.0282
3.0879 29.7350 2.0288
0.4217 29.8913 2.0287
-2.2637 30.0206 2.0431
-4.9340 29.6988 2.0431
-7.5649 29.1399 2.0431
-10.1355 28.3484 2.0431
-12.6251 27.3307 2.0431
-15.0140 26.0948 2.0431
-17.2831 24.6507 2.0431
-19.4141 23.0099 2.0431
-21.3903 21.1853 2.0431
-23.1957 19.1917 2.0431
-22.9993 15.7971 1.8935
-24.2777 13.6590 1.8904
-24.9292 11.2257 1.8554
-25.3427 8.7866 1.8203
-25.5277 6.3654 1.7855
-25.4951 3.9837 1.7512
-25.3618 1.6669 1.7249
-24.8308 -0.5895 1.6856
-24.1337 -2.7414 1.6483
-23.2858 -4.7803 1.6132
-22.3023 -6.7001 1.5803
-21.1973 -8.4963 1.5498
-19.9837 -10.1657 1.5216
-18.6739 -11.7063 1.4957
-17.2791 -13.1171 1.4722
-15.8095 -14.3976 1.4511
-14.2747 -15.5477 1.4324
-12.6834 -16.5680 1.4160
-11.0437 -17.4594 1.4020
-9.4263 -18.3460 1.3998
-8.3251 -20.5291 1.5034
-6.4270 -21.0830 1.4958
-4.5042 -21.4985 1.4906
-2.5629 -21.7756 1.4880
-0.6091 -21.9143 1.4878
1.3512 -21.9142 1.4900
3.3121 -21.7746 1.4947
5.2674 -21.4947 1.5019
7.2108 -21.0734 1.5115
9.1357 -20.5092 1.5237
11.0349 -19.8008 1.5383
12.9007 -18.9463 1.5555
14.1235 -17.2116 1.5110
15.1571 -15.4282 1.4677
16.7285 -14.2308 1.4905
18.2224 -12.8864 1.5146
19.6382 -11.4051 1.5412
20.9642 -9.7874 1.5701
22.1880 -8.0344 1.6014
23.2957 -6.1485 1.6351
24.2728 -4.1336 1.6710
25.0531 -1.9912 1.7056
24.3464 0.2449 1.6523
26.0516 2.5988 1.7767
26.0993 4.9869 1.8032
25.9239 7.4031 1.8296
25.7996 9.9336 1.8762
25.0196 12.2996 1.8920
25.7245 15.6402 2.0431
24.2259 17.8737 2.0431
22.5340 19.9645 2.0431
20.6622 21.8960 2.0431
18.5867 23.6034 2.0388
16.3037 25.0111 2.0261
14.0234 26.3985 2.0286
11.6185 27.5615 2.0298
9.1013 28.4545 2.0274
6.5274 29.1621 2.0280
3.8999 29.6379 2.0287
1.2393 29.8697 2.0288
-1.4312 29.8543 2.0284
-4.1197 29.8226 2.0431
-6.7650 29.3360 2.0431
-9.3562 28.6151 2.0431
-11.8728 27.6658 2.0431
-14.2945 26.4958 2.0431
-16.6022 25.1143 2.0431
-18.7775 23.5323 2.0431
-20.8028 21.7625 2.0431
-22.6621 19.8190 2.0431
-22.5381 16.4054 1.8918
-23.9657 14.3603 1.8960
-24.7554 11.9725 1.8662
-25.2409 9.5325 1.8310
-25.4947 7.1033 1.7961
-25.5274 4.7075 1.7616
-25.4816 2.3764 1.7368
-25.0118 0.0906 1.6974
-24.3638 -2.0942 1.6595
-23.5605 -4.1685 1.6237
-22.6170 -6.1253 1.5902
-21.5476 -7.9598 1.5589
-20.3660 -9.6682 1.5299
-19.0844 -11.2484 1.5034
-17.7145 -12.6990 1.4792
-16.2667 -14.0194 1.4573
-14.7510 -15.2094 1.4379
-13.1761 -16.2694 1.4208
-11.5501 -17.1998 1.4060
-9.8820 -18.0035 1.3937
-8.9002 -20.3317 1.5062
-7.0110 -20.9281 1.4978
-5.0950 -21.3860 1.4919
-3.1588 -21.7055 1.4885
-1.2082 -21.8866 1.4876
0.7508 -21.9290 1.4890
2.7121 -21.8322 1.4930
4.6698 -21.5954 1.4994
6.6175 -21.2175 1.5083
8.5489 -20.6972 1.5197
10.4567 -20.0331 1.5336
12.3335 -19.2235 1.5500
14.0537 -18.1151 1.5559
14.6638 -15.7666 1.4612
16.2553 -14.6132 1.4834
16.8992 -12.6581 1.4329
19.2137 -11.8732 1.5328
20.5686 -10.2970 1.5610
21.8250 -8.5853 1.5916
22.9698 -6.7397 1.6245
23.9885 -4.7638 1.6597
24.8345 -2.6591 1.6950
24.1797 -0.4183 1.6412
25.9598 1.8741 1.7663
26.1080 4.2518 1.7951
26.0018 6.6617 1.8216
25.8249 9.1404 1.8591
25.3698 11.6212 1.8937
26.1427 14.9307 2.0431
24.7058 17.2043 2.0431
23.0717 19.3406 2.0431
21.2535 21.3226 2.0431
19.2656 23.1343 2.0431
17.0180 24.6082 2.0305
14.7352 25.9961 2.0279
12.3689 27.2351 2.0300
9.8748 28.1907 2.0271
7.3223 28.9708 2.0279
4.7088 29.5177 2.0285
2.0559 29.8249 2.0288
-0.6141 29.8853 2.0286
-3.3024 29.9242 2.0431
-5.9599 29.5100 2.0431
-8.5699 28.8603 2.0431
-11.1115 27.9803 2.0431
-13.5645 26.8769 2.0431
-15.9090 25.5590 2.0431
-18.1266 24.0372 2.0431
-20.1997 22.3234 2.0431
-14.4255 13.3296 1.3329
-23.8467 18.3765 2.0431
-23.5604 15.0084 1.8958
-24.5591 12.7178 1.8769
-25.1173 10.2793 1.8418
-25.4410 7.8444 1.8067
-25.5402 5.4362 1.7721
-25.4665 3.0798 1.7408
-9.4134 0.2917 0.6391
-24.5794 -1.4368 1.6709
-23.8219 -3.5458 1.6345
-22.9198 -5.5391 1.6002
-21.8876 -7.4114 1.5682
-20.7389 -9.1588 1.5386
-19.4866 -10.7784 1.5112
-18.1426 -12.2688 1.4863
-16.7176 -13.6291 1.4638
-15.2217 -14.8589 1.4436
-13.6640 -15.9587 1.4258
-12.0528 -16.9287 1.4103
-10.3968 -17.7711 1.3972
-9.4723 -20.1214 1.5092
-7.5924 -20.7603 1.5001
-5.6841 -21.2605 1.4935
-3.7534 -21.6224 1.4893
-1.8065 -21.8459 1.4876
0.1505 -21.9308 1.4883
2.1118 -21.8767 1.4915
4.0713 -21.6828 1.4972
6.0228 -21.3482 1.5053
7.9598 -20.8717 1.5159
9.8755 -20.2518 1.5291
11.7628 -19.4869 1.5447
13.6134 -18.5755 1.5629
14.2132 -16.1461 1.4598
15.7743 -14.9810 1.4763
16.6100 -13.1659 1.4384
18.7813 -12.3283 1.5246
20.1636 -10.7940 1.5521
21.4516 -9.1236 1.5820
22.6320 -7.3187 1.6142
23.6909 -5.3822 1.6487
24.6002 -3.3170 1.6846
25.3069 -1.1309 1.7191
24.2730 1.0860 1.6489
26.0960 3.5200 1.7870
26.0582 5.9216 1.8135
25.8617 8.3647 1.8446
25.7020 10.9329 1.8955
26.5413 14.2099 2.0431
25.1672 16.5220 2.0431
23.5921 18.7023 2.0431
21.8288 20.7332 2.0431
19.8912 22.5987 2.0431
17.7111 24.1693 2.0335
15.4352 25.5739 2.0272
13.1055 26.8791 2.0294
10.6462 27.9200 2.0278
8.1113 28.7571 2.0277
5.5139 29.3747 2.0283
2.8709 29.7570 2.0288
0.2037 29.8931 2.0287
-2.4825 30.0033 2.0431
-5.1505 29.6620 2.0431
-7.7772 29.0840 2.0431
-10.3420 28.2738 2.0431
-12.8241 27.2379 2.0431
-15.2039 25.9847 2.0431
-17.4624 24.5240 2.0431
-19.5814 22.8677 2.0431
-21.5444 21.0287 2.0431
-23.3351 19.0220 2.0431
-23.1196 15.6327 1.8940
-24.3400 13.4613 1.8876
-24.9717 11.0266 1.8525
-25.3662 8.5879 1.8174
-25.5330 6.1693 1.7826
-25.4832 3.7916 1.7484
-25.3251 1.4791 1.7216
-24.7800 -0.7691 1.6825
-24.0699 -2.9121 1.6454
-23.2105 -4.9415 1.6105
-22.2165 -6.8514 1.5778
-21.1021 -8.6373 1.5474
-19.8802 -10.2963 1.5194
-18.5631 -11.8264 1.4937
-17.1618 -13.2265 1.4704
-15.6866 -14.4963 1.4495
-14.1469 -15.6358 1.4310
-12.5512 -16.6455 1.4148
-10.9081 -17.5266 1.4010
-9.4415 -18.7101 1.4222
-8.1713 -20.5794 1.5027
-6.2710 -21.1221 1.4953
-4.3464 -21.5263 1.4903
-2.4038 -21.7922 1.4879
-0.4492 -21.9195 1.4878
1.5113 -21.9080 1.4903
3.4719 -21.7571 1.4952
5.4266 -21.4657 1.5026
7.3687 -21.0327 1.5124
9.2918 -20.4568 1.5248
11.1885 -19.7365 1.5396
13.0513 -18.8701 1.5570
14.1415 -16.9794 1.4996
15.2877 -15.3358 1.4695
16.8531 -14.1262 1.4923
18.3410 -12.7707 1.5167
19.7500 -11.2782 1.5434
21.0681 -9.6494 1.5726
22.2829 -7.8854 1.6041
23.3805 -5.9888 1.6379
24.3463 -3.9637 1.6740
25.1087 -1.8114 1.7084
24.3574 0.4227 1.6532
26.0637 2.7922 1.7789
26.0935 5.1833 1.8054
25.8994 7.6007 1.8318
25.8024 10.1514 1.8817
19.5963 9.8116 1.4873
25.6097 15.8274 2.0431
24.0949 18.0499 2.0431
22.3878 20.1284 2.0431
20.5020 22.0461 2.0431
18.3987 23.7183 2.0371
16.1226 25.1322 2.0264
13.8317 26.5024 2.0288
11.4150 27.6406 2.0295
8.8939 28.5212 2.0275
6.3147 29.2093 2.0281
3.6837 29.6660 2.0287
1.0214 29.8777 2.0288
-1.6489 29.8421 2.0283
-4.3371 29.7918 2.0431
-6.9788 29.2858 2.0431
-9.5646 28.5461 2.0431
-12.0742 27.5785 2.0431
-14.4874 26.3908 2.0431
-16.7850 24.9925 2.0431
-11.3247 13.9819 1.2211
-20.9609 21.6102 2.0431
-22.8060 19.6532 2.0431
-22.6626 16.2445 1.8923
-24.0698 14.1852 1.8960
-24.8039 11.7734 1.8633
-25.2701 9.3334 1.8282
-25.5055 6.9063 1.7932
-25.5207 4.5140 1.7588
-25.4565 2.1870 1.7339
-24.9651 -0.0917 1.6942
-24.3039 -2.2678 1.6565
-23.4885 -4.3327 1.6209
-22.5342 -6.2797 1.5875
-21.4553 -8.1040 1.5564
-20.2650 -9.8020 1.5277
-18.9758 -11.3717 1.5013
-17.5991 -12.8117 1.4773
-16.1455 -14.1214 1.4557
-14.6245 -15.3008 1.4364
-13.0452 -16.3502 1.4195
-11.4155 -17.2702 1.4049
-9.7441 -18.0634 1.3928
-8.7473 -20.3856 1.5054
-6.8555 -20.9707 1.4973
-4.9378 -21.4173 1.4916
-3.0000 -21.7255 1.4884
-1.0485 -21.8953 1.4876
0.9108 -21.9263 1.4893
2.8721 -21.8182 1.4934
4.8292 -21.5699 1.5000
6.7759 -21.1804 1.5091
8.7055 -20.6484 1.5207
10.6111 -19.9725 1.5348
12.4851 -19.1510 1.5514
14.0727 -17.8691 1.5436
14.7958 -15.6776 1.4629
16.3825 -14.5130 1.4853
17.1722 -12.6681 1.4482
19.3277 -11.7496 1.5350
20.6749 -10.1625 1.5634
21.9228 -8.4396 1.5942
23.0578 -6.5833 1.6273
24.0656 -4.5969 1.6627
24.8943 -2.4821 1.6978
24.3161 -0.2433 1.6503
25.9897 2.0670 1.7693
26.1077 4.4474 1.7973
25.9831 6.8593 1.8237
25.8122 9.3482 1.8631
25.2782 11.8030 1.8933
26.0331 15.1209 2.0431
24.5796 17.3840 2.0431
22.9300 19.5084 2.0431
21.0974 21.4770 2.0431
19.0964 23.2743 2.0431
16.8271 24.7155 2.0291
14.5466 26.1054 2.0281
12.1707 27.3265 2.0301
9.6695 28.2632 2.0272
7.1109 29.0240 2.0279
4.4936 29.5520 2.0286
1.8383 29.8391 2.0288
-0.8320 29.8793 2.0285
-3.5206 29.8993 2.0431
-6.1750 29.4658 2.0431
-8.7801 28.7971 2.0431
-11.3153 27.8985 2.0431
-13.7600 26.7773 2.0431
-16.0951 25.4423 2.0431
-18.3015 23.9043 2.0431
-20.3620 22.1755 2.0431
-14.4379 13.1470 1.3252
-22.1913 16.8444 1.8907
-23.6728 14.8383 1.8960
-24.6136 12.5194 1.8740
-25.1524 10.0801 1.8389
-25.4573 7.6466 1.8039
-25.5387 5.2415 1.7693
-25.4713 2.8920 1.7397
-9.5228 0.2256 0.6464
-24.5233 -1.6131 1.6678
-23.7536 -3.7128 1.6316
-22.8402 -5.6966 1.5975
-21.7980 -7.5588 1.5657
-20.6404 -9.2957 1.5362
-19.3802 -10.9049 1.5091
-18.0292 -12.3846 1.4844
-16.5980 -13.7343 1.4620
-15.0967 -14.9536 1.4420
-13.5344 -16.0427 1.4244
-11.9192 -17.0022 1.4091
-10.2599 -17.8342 1.3963
-9.3201 -20.1788 1.5084
-7.4377 -20.8063 1.4995
-5.5272 -21.2953 1.4931
-3.5950 -21.6458 1.4891
-1.6471 -21.8580 1.4876
0.3105 -21.9316 1.4885
2.2718 -21.8661 1.4919
4.2309 -21.6608 1.4978
6.1814 -21.3147 1.5061
8.1170 -20.8265 1.5169
10.0307 -20.1948 1.5302
11.9152 -19.4180 1.5461
13.7626 -18.4945 1.5645
14.2989 -16.0065 1.4566
14.2129 -15.7359 1.5703
14.8369 -13.7346 1.4972
16.2454 -12.5424 1.5199
17.5743 -11.2175 1.5440
18.8168 -9.7659 1.5700
19.9648 -8.1917 1.5981
21.0061 -6.4978 1.6283
21.9266 -4.6878 1.6605
22.6674 -2.7621 1.6910
23.2537 -0.7417 1.7229
23.6718 1.3622 1.7559
23.8127 3.5223 1.7826
23.7185 5.7094 1.8066
23.4176 7.9059 1.8304
23.2065 10.2234 1.8779
22.3733 12.3486 1.8925
22.8679 15.4341 2.0431
21.3992 17.4135 2.0431
19.7596 19.2538 2.0431
17.8457 20.8046 2.0298
15.8326 22.1950 2.0190
13.8055 23.5484 2.0215
11.6600 24.7106 2.0234
9.4110 25.6605 2.0241
7.0757 26.3699 2.0219
4.6946 26.9000 2.0222
2.2754 27.2164 2.0225
-0.1627 27.3086 2.0224
-2.6019 27.2118 2.0244
-5.0667 27.1197 2.0431
-7.4669 26.5593 2.0431
-9.8075 25.7869 2.0431
-12.0699 24.8087 2.0431
-3.8610 6.4096 0.5541
-16.2882 22.2676 2.0431
-18.2104 20.7251 2.0431
-19.9877 19.0170 2.0431
-20.0137 15.8934 1.8926
-21.3910 14.0692 1.8960
-22.1964 11.9082 1.8654
-22.7778 9.7121 1.8337
-23.1462 7.5082 1.8020
-23.3090 5.3178 1.7705
-23.2753 3.1599 1.7395
-9.3981 0.4285 0.6967
-22.6729 -0.9938 1.6806
-22.0398 -2.9525 1.6467
-21.2664 -4.8124 1.6147
-20.3660 -6.5667 1.5847
-19.3510 -8.2106 1.5567
-18.2329 -9.7404 1.5308
-17.0231 -11.1534 1.5071
-15.7318 -12.4478 1.4856
-14.3685 -13.6225 1.4663
-12.9421 -14.6768 1.4491
-11.4609 -15.6104 1.4341
-9.9338 -16.4251 1.4215
-9.1064 -18.6340 1.5359
-7.3635 -19.2585 1.5269
-5.5907 -19.7521 1.5202
-3.7946 -20.1146 1.5159
-1.9816 -20.3460 1.5138
-0.1579 -20.4460 1.5142
1.6705 -20.4142 1.5168
3.4972 -20.2499 1.5218
5.3160 -19.9525 1.5291
7.1203 -19.5211 1.5388
8.9032 -18.9547 1.5508
10.6574 -18.2522 1.5652
12.3750 -17.4128 1.5820
14.0477 -16.4354 1.6011
14.3929 -14.0741 1.4908
15.8214 -12.9209 1.5127
17.1768 -11.6371 1.5365
18.4460 -10.2234 1.5618
19.6241 -8.6865 1.5893
20.6994 -7.0289 1.6189
21.6593 -5.2541 1.6505
22.4564 -3.3621 1.6815
23.0915 -1.3697 1.7130
23.5625 0.7100 1.7457
23.8013 2.8577 1.7753
23.7690 5.0379 1.7993
23.5320 7.2337 1.8231
23.2704 9.5002 1.8614
17.1656 8.8706 1.4309
23.2816 14.8028 2.0431
21.8675 16.8216 2.0431
20.2789 18.7061 2.0431
18.4629 20.3691 2.0359
16.4515 21.7770 2.0212
14.4394 23.1539 2.0208
12.3283 24.3758 2.0229
10.1115 25.3988 2.0245
7.7936 26.1640 2.0217
5.4286 26.7611 2.0222
3.0190 27.1431 2.0225
0.5844 27.3043 2.0225
-1.8543 27.2402 2.0219
-4.3229 27.2482 2.0431
-6.7376 26.7536 2.0431
-9.0984 26.0455 2.0431
-11.3867 25.1296 2.0431
-3.6932 6.5286 0.5555
-15.6730 22.7048 2.0431
-11.4858 13.8163 1.3305
-19.4600 19.5567 2.0431
-19.5558 16.4218 1.8911
-20.9982 14.6491 1.8960
-21.9750 12.5753 1.8750
-22.6227 10.3862 1.8435
-23.0557 8.1824 1.8117
-23.2805 5.9857 1.7801
-23.3058 3.8160 1.7489
-23.1914 1.6943 1.7220
-22.8366 -0.3756 1.6914
-22.2491 -2.3631 1.6569
-21.5173 -4.2540 1.6243
-20.6544 -6.0412 1.5936
-19.6732 -7.7193 1.5650
-18.5854 -9.2844 1.5385
-17.4026 -10.7334 1.5142
-16.1352 -12.0643 1.4920
-14.7929 -13.2757 1.4719
-13.3850 -14.3669 1.4541
-11.9197 -15.3374 1.4385
-10.4059 -16.1885 1.4251
-9.3794 -17.9318 1.4986
-7.9005 -19.0812 1.5294
-6.1362 -19.6149 1.5220
-4.3466 -20.0175 1.5169
-2.5381 -20.2891 1.5142
-0.7170 -20.4293 1.5138
1.1106 -20.4379 1.5158
2.9386 -20.3143 1.5200
4.7605 -20.0577 1.5266
6.5699 -19.6674 1.5356
8.3601 -19.1425 1.5469
10.1239 -18.4818 1.5605
11.8535 -17.6844 1.5766
13.5409 -16.7493 1.5950
14.2887 -14.7580 1.5212
15.3909 -13.2875 1.5058
16.7718 -12.0450 1.5291
18.0666 -10.6694 1.5538
19.2738 -9.1700 1.5806
20.3819 -7.5490 1.6096
21.3785 -5.8096 1.6406
22.2313 -3.9530 1.6722
22.9139 -1.9894 1.7033
23.4365 0.0648 1.7356
23.7715 2.1964 1.7679
23.8003 4.3679 1.7920
23.6267 6.5611 1.8159
23.3575 8.7982 1.8484
23.0529 11.1247 1.8956
21.9116 13.1041 1.8907
22.3195 16.2171 2.0431
20.7830 18.1444 2.0431
19.0807 19.9268 2.0431
17.0758 21.3623 2.0253
15.0618 22.7417 2.0200
12.9866 24.0224 2.0223
10.8002 25.1073 2.0240
8.5083 25.9463 2.0221
6.1584 26.6015 2.0221
3.7601 27.0489 2.0224
1.3311 27.2789 2.0225
-1.1086 27.2837 2.0222
-3.5759 27.3562 2.0431
-6.0032 26.9279 2.0431
-8.3825 26.2847 2.0431
-10.6950 25.4317 2.0431
-3.5214 6.6425 0.5568
-4.0677 6.2519 0.5524
-17.0499 21.6899 2.0431
-18.9177 20.0817 2.0431
-14.7416 13.0832 1.4596
-20.5735 15.2061 1.8946
-21.7330 13.2389 1.8845
-22.4475 11.0590 1.8531
-22.9456 8.8573 1.8214
-23.2333 6.6562 1.7898
-23.3187 4.4763 1.7584
-23.2115 2.3356 1.7276
-22.9855 0.2509 1.7023
-22.4449 -1.7645 1.6673
-21.7558 -3.6858 1.6341
-20.9317 -5.5054 1.6028
-19.9854 -7.2174 1.5736
-18.9291 -8.8175 1.5464
-17.7742 -10.3023 1.5214
-16.5316 -11.6695 1.4985
-15.2112 -12.9176 1.4778
-13.8224 -14.0456 1.4593
-12.3739 -15.0531 1.4430
-10.8740 -15.9405 1.4290
-9.3317 -16.7109 1.4174
-8.4346 -18.8917 1.5321
-6.6793 -19.4654 1.5240
-4.8967 -19.9082 1.5182
-3.0933 -20.2199 1.5148
-1.2754 -20.4004 1.5137
0.5508 -20.4493 1.5149
2.3793 -20.3662 1.5185
4.2037 -20.1505 1.5244
6.0177 -19.8012 1.5326
7.8145 -19.3175 1.5432
9.5872 -18.6985 1.5561
11.3282 -17.9430 1.5714
13.0294 -17.0502 1.5891
14.2293 -15.5249 1.5595
14.9543 -13.6421 1.4990
16.3573 -12.4395 1.5218
17.6790 -11.1037 1.5460
18.9142 -9.6420 1.5722
20.0539 -8.0580 1.6005
21.0860 -6.3544 1.6309
21.9925 -4.5344 1.6629
22.7213 -2.6006 1.6936
23.2944 -0.5730 1.7256
23.6981 1.5372 1.7586
23.8126 3.6999 1.7846
23.7017 5.8885 1.8086
23.3837 8.0849 1.8323
23.2094 10.4274 1.8843
22.2779 12.5088 1.8921
22.7547 15.6005 2.0431
21.2716 17.5690 2.0431
19.6187 19.3974 2.0431
17.6854 20.9246 2.0289
15.6720 22.3123 2.0192
13.6346 23.6506 2.0216
11.4802 24.7966 2.0236
9.2219 25.7240 2.0237
6.8833 26.4214 2.0219
4.4983 26.9338 2.0222
2.0769 27.2323 2.0225
-0.3619 27.3062 2.0223
-2.8111 27.2964 2.0321
-5.2643 27.0822 2.0431
-7.6604 26.5042 2.0431
-9.9953 25.7147 2.0431
-12.2504 24.7200 2.0431
-3.9051 6.3770 0.5538
-16.4502 22.1482 2.0431
-18.3615 20.5916 2.0431
-20.1258 18.8708 2.0431
-20.1334 15.7504 1.8930
-21.4704 13.8982 1.8940
-22.2520 11.7298 1.8628
-22.8158 9.5322 1.8312
-23.1671 7.3287 1.7994
-23.3135 5.1403 1.7679
-23.2641 2.9857 1.7370
-9.3802 0.3592 0.6952
-22.6268 -1.1571 1.6778
-21.9817 -3.1081 1.6440
-21.1975 -4.9596 1.6122
-20.2873 -6.7051 1.5823
-19.2634 -8.3397 1.5545
-18.1375 -9.8601 1.5288
-16.9207 -11.2635 1.5053
-15.6231 -12.5482 1.4839
-14.2543 -13.7131 1.4648
-12.8232 -14.7575 1.4478
-11.3380 -15.6813 1.4330
-9.8073 -16.4862 1.4206
-8.9654 -18.6899 1.5351
-7.2198 -19.3037 1.5262
-5.4449 -19.7866 1.5198
-3.6472 -20.1384 1.5156
-1.8331 -20.3591 1.5138
-0.0088 -20.4483 1.5143
1.8197 -20.4057 1.5171
3.6461 -20.2306 1.5223
5.4639 -19.9223 1.5298
7.2667 -19.4799 1.5397
9.0475 -18.9025 1.5519
10.7990 -18.1889 1.5665
12.5133 -17.3382 1.5834
14.1667 -16.3319 1.6011
14.5118 -13.9847 1.4925
15.9351 -12.8212 1.5146
17.2835 -11.5264 1.5384
18.5457 -10.1026 1.5639
19.7159 -8.5557 1.5916
20.7823 -6.8884 1.6214
21.7321 -5.1042 1.6532
22.5141 -3.2030 1.6841
23.1363 -1.2030 1.7157
23.5933 0.8832 1.7484
23.8061 3.0346 1.7772
23.7574 5.2168 1.8013
23.5034 7.4130 1.8251
23.2497 9.6902 1.8653
19.6853 10.3553 1.6472
23.1730 14.9721 2.0431
21.7442 16.9806 2.0431
20.1420 18.8535 2.0431
18.2959 20.4831 2.0339
16.2697 21.8660 2.0184
14.2715 23.2608 2.0210
12.1511 24.4669 2.0230
9.9265 25.4731 2.0246
7.6028 26.2209 2.0218
5.2333 26.8001 2.0222
2.8209 27.1647 2.0225
0.3852 27.3075 2.0225
-2.0529 27.2250 2.0219
-4.5215 27.2159 2.0431
-6.9325 26.7038 2.0431
-9.2881 25.9785 2.0431
-11.5697 25.0458 2.0431
-3.7383 6.4973 0.5551
-15.8382 22.5899 2.0431
-17.7911 21.0863 2.0431
-19.6021 19.4142 2.0431
-19.6792 16.2822 1.8915
-21.1045 14.4956 1.8960
-22.0360 12.3978 1.8724
-22.6661 10.2066 1.8409
-23.0817 8.0026 1.8091
-23.2899 5.8074 1.7775
-23.2994 3.6406 1.7464
-23.1895 1.5242 1.7210
-22.7944 -0.5412 1.6885
-22.1946 -2.5211 1.6542
-21.4516 -4.4037 1.6217
-20.5786 -6.1823 1.5912
-19.5882 -7.8513 1.5628
-18.4923 -9.4070 1.5365
-17.3022 -10.8464 1.5123
-16.0283 -12.1676 1.4902
-14.6803 -13.3693 1.4704
-13.2674 -14.4506 1.4528
-11.7979 -15.4113 1.4373
-10.2804 -16.2526 1.4242
-9.3969 -18.2889 1.5227
-7.7576 -19.1297 1.5287
-5.9910 -19.6527 1.5215
-4.1996 -20.0446 1.5166
-2.3899 -20.3055 1.5141
-0.5680 -20.4350 1.5139
1.2599 -20.4328 1.5160
3.0876 -20.2983 1.5205
4.9087 -20.0309 1.5273
6.7168 -19.6297 1.5364
8.5051 -19.0936 1.5479
10.2664 -18.4218 1.5618
11.9930 -17.6132 1.5780
13.6765 -16.6668 1.5966
14.3040 -14.5598 1.5115
15.5062 -13.1910 1.5076
16.8805 -11.9374 1.5311
18.1685 -10.5516 1.5559
19.3681 -9.0422 1.5829
20.4676 -7.4114 1.6120
21.4545 -5.6625 1.6432
22.2927 -3.7964 1.6746
22.9627 -1.8250 1.7059
23.4717 0.2361 1.7383
23.7812 2.3723 1.7699
23.7938 4.5464 1.7939
23.6034 6.7404 1.8178
23.3338 8.9842 1.8516
22.9661 11.2901 1.8951
23.5739 14.3327 2.0431
22.2006 16.3794 2.0431
20.6501 18.2955 2.0431
18.9260 20.0561 2.0421
16.9111 21.4755 2.0243
14.8971 22.8533 2.0202
12.8121 24.1184 2.0225
10.6174 25.1869 2.0242
8.3163 26.0002 2.0215
5.9642 26.6460 2.0221
3.5628 27.0761 2.0224
1.1322 27.2877 2.0225
-1.3075 27.2742 2.0221
-3.7753 27.3294 2.0431
-6.1994 26.8834 2.0431
-8.5740 26.2229 2.0431
-10.8802 25.3530 2.0431
-3.5675 6.6127 0.5564
-4.1103 6.2177 0.5520
-17.2076 21.5650 2.0431
-19.0637 19.9432 2.0431
-20.7675 18.1621 2.0431
-20.6884 15.0590 1.8950
-21.7996 13.0624 1.8820
-22.4962 10.8799 1.8506
-22.9769 8.6774 1.8188
-23.2477 6.4773 1.7872
-23.3170 4.2999 1.7559
-23.1945 2.1631 1.7251
-22.9473 0.0831 1.6994
-22.3941 -1.9249 1.6645
-21.6934 -3.8382 1.6315
-20.8589 -5.6492 1.6004
-19.9032 -7.3523 1.5713
-18.8384 -8.9430 1.5443
-17.6759 -10.4183 1.5194
-16.4266 -11.7758 1.4968
-15.1003 -13.0142 1.4762
-13.7064 -14.1324 1.4579
-12.2533 -15.1300 1.4418
-10.7496 -16.0077 1.4279
-9.3340 -17.0052 1.4365
-8.2925 -18.9434 1.5314
-6.5347 -19.5065 1.5234
-4.7502 -19.9386 1.5179
-2.9454 -20.2396 1.5146
-1.1267 -20.4093 1.5137
0.7001 -20.4475 1.5151
2.5284 -20.3536 1.5189
4.3523 -20.1270 1.5249
6.1651 -19.7668 1.5334
7.9602 -19.2721 1.5441
9.7306 -18.6420 1.5573
11.4685 -17.8754 1.5728
13.1662 -16.9712 1.5907
14.2454 -15.3167 1.5490
15.0713 -13.5487 1.5008
16.4688 -12.3357 1.5238
17.7831 -10.9891 1.5481
19.0110 -9.5173 1.5744
20.1423 -7.9234 1.6029
21.1651 -6.2102 1.6335
22.0575 -4.3804 1.6654
22.7741 -2.4385 1.6962
23.3338 -0.4037 1.7282
23.7232 1.7126 1.7614
23.8111 3.8778 1.7866
23.6837 6.0678 1.8105
23.3887 8.2782 1.8374
23.2696 10.6591 1.8954
22.1814 12.6683 1.8917
22.6404 15.7660 2.0431
21.1429 17.7237 2.0431
19.4767 19.5400 2.0431
17.5274 21.0470 2.0283
15.5105 22.4285 2.0194
13.4629 23.7515 2.0218
11.2999 24.8813 2.0237
9.0324 25.7857 2.0233
6.6906 26.4714 2.0220
4.3018 26.9665 2.0223
1.8782 27.2468 2.0226
-0.5611 27.3023 2.0223
-3.0263 27.4225 2.0431
-5.4616 27.0430 2.0431
-7.8535 26.4476 2.0431
-10.1826 25.6411 2.0431
-12.4305 24.6300 2.0431
-3.9489 6.3441 0.5534
-16.6112 22.0277 2.0431
-18.5111 20.4572 2.0431
-14.4106 13.3158 1.4530
-20.2521 15.6065 1.8934
-21.5424 13.7229 1.8915
-22.3061 11.5512 1.8602
-22.8523 9.3523 1.8286
-23.1866 7.1493 1.7969
-23.3167 4.9629 1.7654
-23.2518 2.8119 1.7345
-9.4132 0.2917 0.6974
-22.5797 -1.3199 1.6750
-21.9227 -3.2631 1.6414
-21.1278 -5.1060 1.6097
-20.2079 -6.8427 1.5800
-19.1752 -8.4682 1.5523
-18.0415 -9.9791 1.5268
-16.8176 -11.3728 1.5035
-15.5139 -12.6478 1.4823
-14.1398 -13.8028 1.4633
-12.7039 -14.8375 1.4465
-11.2147 -15.7515 1.4319
-9.6804 -16.5466 1.4197
-8.8243 -18.7448 1.5343
-7.0760 -19.3480 1.5256
-5.2990 -19.8202 1.5193
-3.4997 -20.1613 1.5154
-1.6845 -20.3713 1.5137
0.1404 -20.4498 1.5144
1.9689 -20.3964 1.5175
3.7948 -20.2105 1.5228
5.6117 -19.8913 1.5305
7.4130 -19.4379 1.5406
9.1916 -18.8493 1.5530
10.9404 -18.1246 1.5678
12.6513 -17.2627 1.5849
14.1837 -16.1125 1.5897
14.6303 -13.8946 1.4942
16.0482 -12.7206 1.5165
17.3897 -11.4149 1.5404
18.6448 -9.9809 1.5661
19.8070 -8.4241 1.5940
20.8643 -6.7471 1.6239
21.8041 -4.9536 1.6558
22.5707 -3.0433 1.6866
23.1799 -1.0359 1.7183
23.6229 1.0569 1.7511
23.8097 3.2117 1.7792
23.7444 5.3958 1.8032
23.4735 7.5922 1.8270
23.2300 9.8814 1.8695
22.5377 12.0664 1.8932
23.0632 15.1407 2.0431
21.6198 17.1388 2.0431
20.0039 18.9999 2.0431
18.1250 20.5921 2.0315
16.1116 21.9866 2.0186
14.1029 23.3664 2.0211
11.9732 24.5567 2.0232
9.7406 25.5451 2.0246
7.4115 26.2763 2.0218
5.0377 26.8377 2.0222
2.6227 27.1848 2.0225
0.1861 27.3092 2.0224
-2.2513 27.2083 2.0218
-4.7199 27.1822 2.0431
-7.1270 26.6525 2.0431
-9.4774 25.9101 2.0431
-11.7520 24.9608 2.0431
-3.7832 6.4658 0.5548
-16.0025 22.4738 2.0431
-17.9443 20.9560 2.0431
-19.7432 19.2707 2.0431
-19.8017 16.1417 1.8919
-21.2096 14.3412 1.8960
