0.7184668779373169 0.04338458552956581 0.36395689845085144
0.712003231048584 0.10737492144107819 0.36409667134284973
0.6998726725578308 0.17056792974472046 0.3642520010471344
0.6821781992912292 0.2324555218219757 0.3644215166568756
0.6590389013290405 0.2925516366958618 0.36460402607917786
0.6306408643722534 0.35038986802101135 0.364797979593277
0.5971792340278625 0.40550491213798523 0.3650021255016327
0.5589362382888794 0.4574441909790039 0.3652145266532898
0.5161872506141663 0.5058034658432007 0.36543381214141846
0.46927410364151 0.5501977205276489 0.3656582534313202
0.4185575842857361 0.5902449488639832 0.3658859133720398
0.3644372224807739 0.6256377696990967 0.3661147952079773
0.30734020471572876 0.6560824513435364 0.3663433790206909
0.24771980941295624 0.6813089847564697 0.3665698170661926
0.18603762984275818 0.7011272311210632 0.36679214239120483
0.12279381603002548 0.7153530120849609 0.36700865626335144
0.05849813297390938 0.7238721251487732 0.36721768975257874
-0.0063438317738473415 0.7265998125076294 0.3674176037311554
-0.07120447605848312 0.7235033512115479 0.36760634183883667
-0.1355534791946411 0.7146003842353821 0.3677828907966614
-0.19887858629226685 0.6999643445014954 0.36794525384902954
-0.2606606185436249 0.6796900629997253 0.3680926561355591
-0.32039153575897217 0.6539494395256042 0.3682233989238739
-0.37759658694267273 0.6229392290115356 0.3683367967605591
-0.43178847432136536 0.5869072079658508 0.3684316873550415
-0.48254507780075073 0.5461410880088806 0.36850738525390625
-0.5294399857521057 0.5009689927101135 0.36856308579444885
-0.5720924735069275 0.45176130533218384 0.36859846115112305
-0.6101551651954651 0.39891359210014343 0.36861327290534973
-0.6433067321777344 0.34286680817604065 0.36860746145248413
-0.6712950468063354 0.28406187891960144 0.36858075857162476
-0.6938749551773071 0.22298789024353027 0.3685336112976074
-0.7108811736106873 0.16014236211776733 0.36846649646759033
-0.7221710681915283 0.09603917598724365 0.3683798015117645
-0.7276511788368225 0.03119502030313015 0.3682742118835449
-0.7272807955741882 -0.03385147079825401 0.36815062165260315
-0.7210840582847595 -0.09859069436788559 0.36801040172576904
-0.7091087102890015 -0.16248688101768494 0.3678542971611023
-0.6914603114128113 -0.22501254081726074 0.3676837086677551
-0.6682775616645813 -0.2856845557689667 0.367499977350235
-0.6397808194160461 -0.344001829624176 0.3673046827316284
-0.6061846613883972 -0.3995020091533661 0.36709943413734436
-0.5677782893180847 -0.4517532289028168 0.3668859899044037
-0.5248813629150391 -0.5003180503845215 0.36666595935821533
-0.4778423309326172 -0.5448323488235474 0.3664410412311554
-0.42704835534095764 -0.5849374532699585 0.3662130534648895
-0.37290871143341064 -0.6203274726867676 0.36598387360572815
-0.31585726141929626 -0.6507294178009033 0.3657556176185608
-0.2563626766204834 -0.6759049892425537 0.3655296266078949
-0.19489601254463196 -0.6956655979156494 0.36530792713165283
-0.13195191323757172 -0.7098654508590698 0.36509230732917786
-0.06803876906633377 -0.7184002995491028 0.36488449573516846
-0.003648290643468499 -0.7212127447128296 0.3646858036518097
0.060694675892591476 -0.7182896733283997 0.3644982874393463
0.12450128048658371 -0.709662139415741 0.36432310938835144
0.18726064264774323 -0.6954135894775391 0.3641613721847534
0.24847571551799774 -0.6756552457809448 0.3640148937702179
0.3076660931110382 -0.6505451202392578 0.3638845682144165
0.36439013481140137 -0.6203047037124634 0.3637710511684418
0.41818541288375854 -0.585148811340332 0.3636758327484131
0.4686422348022461 -0.5453830361366272 0.3635992407798767
0.5153590440750122 -0.501302182674408 0.3635418713092804
0.5579826831817627 -0.45326292514801025 0.3635043203830719
0.5961808562278748 -0.4016289710998535 0.36348676681518555
0.6296600103378296 -0.34682753682136536 0.3634893596172333
0.658133327960968 -0.28926485776901245 0.363512247800827
0.6814011931419373 -0.22940398752689362 0.363554984331131
0.6992831826210022 -0.16770495474338531 0.36361753940582275
0.7116115689277649 -0.10464591532945633 0.3636990189552307
0.7183110117912292 -0.040731001645326614 0.363799124956131
0.7193143367767334 0.023546632379293442 0.36391693353652954
0.7146058678627014 0.08768150210380554 0.36405181884765625
0.704217791557312 0.15117508172988892 0.3642024099826813
0.6882338523864746 0.213516503572464 0.36436766386032104
0.6667540073394775 0.2742169499397278 0.3645462095737457
0.6399555802345276 0.3327988386154175 0.364736944437027
0.6080422401428223 0.3888080418109894 0.36493805050849915
0.5712397694587708 0.4417739808559418 0.36514830589294434
0.529853880405426 0.4912868142127991 0.365365594625473
0.48419031500816345 0.5369367003440857 0.365588515996933
0.43460580706596375 0.5783706307411194 0.36581528186798096
0.3814876079559326 0.6152300238609314 0.36604398488998413
0.32526278495788574 0.6472212672233582 0.36627286672592163
0.26636257767677307 0.6740908026695251 0.36650022864341736
0.205266535282135 0.6955920457839966 0.36672407388687134
0.14245134592056274 0.7115667462348938 0.36694273352622986
0.07843372225761414 0.7218526005744934 0.36715424060821533
0.013698529452085495 0.7263716459274292 0.3673568665981293
-0.05120449885725975 0.725074827671051 0.36754927039146423
-0.11577266454696655 0.7179654240608215 0.3677297830581665
-0.17947016656398773 0.7050911784172058 0.36789670586586
-0.24177786707878113 0.6865467429161072 0.36804884672164917
-0.30219322443008423 0.6624735593795776 0.36818480491638184
-0.36023032665252686 0.6330601572990417 0.3683038353919983
-0.4154006242752075 0.5985446572303772 0.36840423941612244
-0.46727079153060913 0.5592065453529358 0.3684860169887543
-0.515393853187561 0.5153669118881226 0.3685479760169983
-0.5593944787979126 0.46736598014831543 0.3685897886753082
-0.5989156365394592 0.415600448846817 0.36861082911491394
-0.6336124539375305 0.3604852855205536 0.3686114549636841
-0.663216233253479 0.30248337984085083 0.36859130859375
-0.6874984502792358 0.24206183850765228 0.3685504198074341
-0.7062331438064575 0.1797071099281311 0.3684893846511841
-0.7192980647087097 0.11593997478485107 0.3684086501598358
-0.726577877998352 0.051260583102703094 0.3683086931705475
-0.7280236482620239 -0.013781356625258923 0.3681907653808594
-0.7236207127571106 -0.0786706879734993 0.36805540323257446
-0.7134155035018921 -0.14288128912448883 0.36790403723716736
-0.6975038051605225 -0.20588432252407074 0.36773771047592163
-0.6760162711143494 -0.2671855390071869 0.36755797266960144
-0.6491343379020691 -0.32627829909324646 0.3673660159111023
-0.6170837879180908 -0.38269200921058655 0.36716368794441223
-0.5801345109939575 -0.43599197268486023 0.36695265769958496
-0.5385866761207581 -0.48573794960975647 0.3667342960834503
-0.49279171228408813 -0.5315465331077576 0.3665105998516083
-0.44310909509658813 -0.5730452537536621 0.3662835657596588
-0.38995906710624695 -0.6099197864532471 0.3660546839237213
-0.33375635743141174 -0.641894519329071 0.3658258020877838
-0.27496397495269775 -0.668700635433197 0.3655990660190582
-0.21406272053718567 -0.6901509761810303 0.36537566781044006
-0.15152105689048767 -0.7060763239860535 0.3651580810546875
-0.08784729987382889 -0.7163723707199097 0.3649477958679199
-0.02355673722922802 -0.720955491065979 0.36474609375
0.0408644936978817 -0.7198070287704468 0.3645550310611725
0.10489436239004135 -0.7129331231117249 0.36437559127807617
0.16802054643630981 -0.7004076838493347 0.36420974135398865
0.22976399958133698 -0.6823294162750244 0.3640585243701935
0.2896346151828766 -0.6588576436042786 0.3639228641986847
0.3471658229827881 -0.6301782727241516 0.36380431056022644
0.4019159972667694 -0.5965126156806946 0.36370331048965454
0.4534408152103424 -0.5581321120262146 0.3636207580566406
0.5013607740402222 -0.5153478980064392 0.3635574281215668
0.5452800393104553 -0.4684933125972748 0.3635137975215912
0.5848759412765503 -0.41793063282966614 0.3634899854660034
0.6198409199714661 -0.3640594482421875 0.36348646879196167
0.6498910188674927 -0.30730539560317993 0.36350294947624207
0.6747839450836182 -0.24810808897018433 0.3635397255420685
0.6943472623825073 -0.1869165152311325 0.36359602212905884
0.7084066867828369 -0.12422948330640793 0.3636718690395355
0.7168533802032471 -0.060526371002197266 0.3637661635875702
0.7196122407913208 0.0036886308807879686 0.3638787865638733
0.7166658639907837 0.06791969388723373 0.36400848627090454
0.7080273032188416 0.13166552782058716 0.3641543388366699
0.6937608122825623 0.1944124400615692 0.3643151819705963
0.6739650368690491 0.2556813061237335 0.364489883184433
0.6487913131713867 0.31497102975845337 0.3646768033504486
0.6184251308441162 0.37181511521339417 0.36487486958503723
0.5831087231636047 0.4257648289203644 0.3650825321674347
0.5431011319160461 0.4763939678668976 0.3652978539466858
0.49872031807899475 0.5232747197151184 0.36551910638809204
0.4503052830696106 0.5660415291786194 0.3657449185848236
0.39824026823043823 0.6043552160263062 0.36597320437431335
0.34292909502983093 0.6378791928291321 0.36620238423347473
0.2848140597343445 0.666351854801178 0.3664303421974182
0.22434282302856445 0.6895414590835571 0.3666554093360901
0.16200050711631775 0.7072321176528931 0.36687591671943665
0.09829958528280258 0.7192903757095337 0.3670896887779236
0.03373056277632713 0.7255994081497192 0.36729520559310913
-0.031174801290035248 0.7260979413986206 0.3674911558628082
-0.09590273350477219 0.7207810282707214 0.3676753044128418
-0.15992432832717896 0.7096754908561707 0.36784666776657104
-0.22271902859210968 0.6928664445877075 0.3680035173892975
-0.28377190232276917 0.6704773306846619 0.36814451217651367
-0.34259694814682007 0.6426966786384583 0.3682688772678375
-0.3987014591693878 0.6097336411476135 0.3683752417564392
-0.4516300857067108 0.5718511939048767 0.36846283078193665
-0.5009550452232361 0.5293676257133484 0.36853086948394775
-0.5462789535522461 0.4826065003871918 0.36857908964157104
-0.5872143507003784 0.43195927143096924 0.3686065673828125
-0.6234261393547058 0.37783923745155334 0.3686135709285736
-0.6546399593353271 0.3206707835197449 0.36859968304634094
-0.6805817484855652 0.26094725728034973 0.36856505274772644
-0.7010517120361328 0.19913165271282196 0.3685104250907898
-0.7158780694007874 0.13574203848838806 0.36843565106391907
-0.7249480485916138 0.07129786163568497 0.3683416545391083
-0.7281975150108337 0.006311587989330292 0.36822906136512756
-0.7256050705909729 -0.05868091061711311 0.36809906363487244
-0.7171865701675415 -0.12315898388624191 0.3679525554180145
-0.7030186057090759 -0.1865910291671753 0.3677905201911926
-0.6832345724105835 -0.2484634667634964 0.36761474609375
-0.6579923629760742 -0.308295875787735 0.3674266040325165
-0.6275123357772827 -0.3655872344970703 0.36722731590270996
-0.5920450091362 -0.4199000597000122 0.3670187294483185
-0.5518823266029358 -0.4707830250263214 0.3668023645877838
-0.507357656955719 -0.5178403854370117 0.36658018827438354
-0.45883890986442566 -0.560710608959198 0.3663540482521057
-0.40671175718307495 -0.599044919013977 0.3661254942417145
-0.35140201449394226 -0.6325592398643494 0.3658962845802307
-0.29336291551589966 -0.6609836220741272 0.3656686246395111
-0.2330588847398758 -0.6841086149215698 0.3654441833496094
-0.17097902297973633 -0.7017582058906555 0.36522459983825684
-0.1075957864522934 -0.7138029932975769 0.36501190066337585
-0.04343550652265549 -0.7201512455940247 0.3648074269294739
0.020993547514081 -0.7207677960395813 0.36461272835731506
0.08519004285335541 -0.7156655788421631 0.36442962288856506
0.1486554890871048 -0.7048771381378174 0.36425963044166565
0.2108803540468216 -0.6884955167770386 0.3641035258769989
0.2713732123374939 -0.6666706800460815 0.3639630079269409
0.32967573404312134 -0.6395770311355591 0.3638390898704529
0.3853338956832886 -0.6074183583259583 0.3637324571609497
0.4379032552242279 -0.5704658627510071 0.3636440932750702
0.4869726002216339 -0.5290156602859497 0.3635748326778412
0.5321723222732544 -0.48337751626968384 0.36352506279945374
0.5731396079063416 -0.43390968441963196 0.3634951710700989
0.527885913848877 -0.47198790311813354 0.36355939507484436
0.5678607821464539 -0.4229590892791748 0.36353179812431335
0.6033276319503784 -0.3705843389034271 0.3635236918926239
0.6340205073356628 -0.3152768313884735 0.3635357618331909
0.6596843600273132 -0.2574582099914551 0.3635673522949219
0.6801278591156006 -0.1975802630186081 0.36361876130104065
0.6951735019683838 -0.13612249493598938 0.3636890947818756
0.7047210335731506 -0.0735531821846962 0.3637782335281372
0.7086841464042664 -0.010368280112743378 0.36388519406318665
0.7070247530937195 0.052943289279937744 0.36400923132896423
0.699747622013092 0.11586914956569672 0.3641494810581207
0.6869017481803894 0.17793288826942444 0.3643048107624054
0.6685982942581177 0.23863747715950012 0.3644738793373108
0.6449456810951233 0.2975051999092102 0.36465543508529663
0.6161501407623291 0.35406264662742615 0.3648483157157898
0.5824138522148132 0.4078652858734131 0.3650507926940918
0.5440055131912231 0.45848822593688965 0.36526137590408325
0.5012127161026001 0.505509078502655 0.36547818779945374
0.45437586307525635 0.5485528111457825 0.36569976806640625
0.4038502871990204 0.5872758626937866 0.3659243583679199
0.35004791617393494 0.6213529706001282 0.36614990234375
0.29337239265441895 0.6505165696144104 0.36637482047080994
0.2342839390039444 0.6745173335075378 0.3665972948074341
0.1732565313577652 0.6931474208831787 0.3668154776096344
0.11076685786247253 0.7062485218048096 0.3670275807380676
0.04732329398393631 0.7137163877487183 0.36723220348358154
-0.016568612307310104 0.7154661417007446 0.36742734909057617
-0.08039508014917374 0.711492657661438 0.3676113784313202
-0.14364372193813324 0.701801061630249 0.3677828907966614
-0.20579402148723602 0.6864761114120483 0.36794066429138184
-0.2663392722606659 0.6656303405761719 0.3680831789970398
-0.3247893452644348 0.6394231915473938 0.3682093620300293
-0.38067084550857544 0.6080610752105713 0.36831802129745483
-0.4335283637046814 0.5718070268630981 0.3684085011482239
-0.48292720317840576 0.5309309363365173 0.36847975850105286
-0.5284548997879028 0.4857881963253021 0.3685314953327179
-0.5697458386421204 0.4367176294326782 0.3685632348060608
-0.6064761877059937 0.3841409683227539 0.3685745298862457
-0.6383203268051147 0.3284701406955719 0.3685653507709503
-0.6650304198265076 0.270175039768219 0.3685359060764313
-0.686397135257721 0.20972000062465668 0.3684861660003662
-0.7022443413734436 0.1475941240787506 0.3684169054031372
-0.7124483585357666 0.08430857211351395 0.3683285415172577
-0.7169159054756165 0.02038000151515007 0.3682217299938202
-0.7156339883804321 -0.043666791170835495 0.3680972158908844
-0.7086072564125061 -0.1073194071650505 0.3679565489292145
-0.6959111094474792 -0.17005594074726105 0.36780044436454773
-0.6776371598243713 -0.231376513838768 0.3676303029060364
-0.6539644598960876 -0.29079386591911316 0.3674473464488983
-0.6250730156898499 -0.3478110730648041 0.3672534227371216
-0.5912051200866699 -0.40197956562042236 0.36704984307289124
-0.5526583194732666 -0.452878475189209 0.36683836579322815
-0.5097285509109497 -0.5000967383384705 0.3666207790374756
-0.46278518438339233 -0.5432631969451904 0.3663986027240753
-0.41219180822372437 -0.5820455551147461 0.3661738634109497
-0.3583880662918091 -0.6161322593688965 0.3659481704235077
-0.3017774820327759 -0.6452559232711792 0.36572355031967163
-0.24284377694129944 -0.6692099571228027 0.3655017018318176
-0.1820387989282608 -0.6878030300140381 0.36528411507606506
-0.11986538022756577 -0.7009004950523376 0.36507293581962585
-0.056801557540893555 -0.7084032893180847 0.3648693859577179
0.006643018685281277 -0.7102668881416321 0.3646755814552307
0.06997393816709518 -0.7064833045005798 0.3644924759864807
0.1326843649148941 -0.6970962285995483 0.3643220365047455
0.19428138434886932 -0.6821766495704651 0.364165335893631
0.25429144501686096 -0.6618618369102478 0.3640234172344208
0.31224241852760315 -0.6362989544868469 0.3638973832130432
0.3676733374595642 -0.6057122349739075 0.36378875374794006
0.4201549291610718 -0.570341169834137 0.3636976480484009
0.46929267048835754 -0.5304597616195679 0.36362531781196594
0.514679491519928 -0.4863930344581604 0.3635719120502472
0.5559885501861572 -0.43847429752349854 0.3635382056236267
0.592881977558136 -0.3870975375175476 0.36352401971817017
0.6250689029693604 -0.33264023065567017 0.3635299503803253
0.6523081064224243 -0.27555152773857117 0.36355558037757874
0.6743848323822021 -0.2162570208311081 0.3636007606983185
0.6911118030548096 -0.15523761510849 0.36366546154022217
0.7023695111274719 -0.09296441078186035 0.3637487590312958
0.7080590724945068 -0.02991536073386669 0.3638502359390259
0.7081342339515686 0.03340950980782509 0.3639691174030304
0.7025887966156006 0.09650611877441406 0.36410459876060486
0.6914619207382202 0.15889663994312286 0.36425521969795227
0.6748276352882385 0.2200688123703003 0.3644201457500458
0.6528120040893555 0.27955737709999084 0.36459821462631226
0.6255844235420227 0.3368736505508423 0.3647877275943756
0.5933468341827393 0.3915732204914093 0.36498749256134033
0.5563499927520752 0.44321855902671814 0.3651956021785736
0.5148705244064331 0.4913957417011261 0.3654107451438904
0.46924182772636414 0.5357088446617126 0.365631103515625
0.4198206663131714 0.5758047699928284 0.36585479974746704
0.36698177456855774 0.6113428473472595 0.36608031392097473
0.3111494481563568 0.6420487761497498 0.36630553007125854
0.25276464223861694 0.6676706075668335 0.3665289282798767
0.1922750473022461 0.6879765391349792 0.3667488098144531
0.1301877796649933 0.7028031945228577 0.36696287989616394
0.06698640435934067 0.7120129466056824 0.3671700954437256
0.0031736658420413733 0.7155401706695557 0.3673681616783142
-0.06072966754436493 0.7133316397666931 0.3675558269023895
-0.12420296669006348 0.7054032683372498 0.3677313029766083
-0.18675048649311066 0.6918069124221802 0.3678935170173645
-0.24784480035305023 0.6726480722427368 0.36804091930389404
-0.3069944381713867 0.648076593875885 0.36817213892936707
-0.3637232184410095 0.6182795763015747 0.3682864308357239
-0.41756319999694824 0.5835019946098328 0.3683825731277466
-0.46807152032852173 0.5440248250961304 0.3684597611427307
-0.5148299932479858 0.5001648664474487 0.36851775646209717
-0.5574731230735779 0.45226091146469116 0.36855560541152954
-0.5956369638442993 0.4007306694984436 0.3685731291770935
-0.6290222406387329 0.34596243500709534 0.36857038736343384
-0.6573519110679626 0.2884303331375122 0.3685470521450043
-0.6803849935531616 0.22858351469039917 0.36850371956825256
-0.6979466676712036 0.16692085564136505 0.36844053864479065
-0.7099023461341858 0.10394516587257385 0.3683578372001648
-0.7161474227905273 0.040164802223443985 0.36825650930404663
-0.7166470289230347 -0.023911910131573677 0.36813750863075256
-0.7113906741142273 -0.08774086087942123 0.36800169944763184
-0.7004314064979553 -0.15081660449504852 0.36785003542900085
-0.6838625073432922 -0.21262969076633453 0.367684006690979
-0.661835253238678 -0.272678941488266 0.36750519275665283
-0.6345365047454834 -0.3304882049560547 0.3673144578933716
-0.6021824479103088 -0.38558530807495117 0.3671136498451233
-0.5650414824485779 -0.43754538893699646 0.3669045865535736
-0.5234319567680359 -0.4859406054019928 0.3666885197162628
-0.4776843190193176 -0.530394434928894 0.36646759510040283
-0.4281746447086334 -0.5705565214157104 0.3662434220314026
-0.3753219246864319 -0.6061221957206726 0.3660179078578949
-0.31953245401382446 -0.6368047595024109 0.365792840719223
-0.2612636983394623 -0.6623740792274475 0.36556974053382874
-0.2009868621826172 -0.6826417446136475 0.3653506338596344
-0.13917860388755798 -0.6974493861198425 0.3651373088359833
-0.07633762806653976 -0.7066912651062012 0.3649313151836395
-0.01294739730656147 -0.7102991938591003 0.36473432183265686
0.05046726018190384 -0.7082598209381104 0.36454787850379944
0.11341609805822372 -0.7005946040153503 0.3643733263015747
0.17541442811489105 -0.6873635649681091 0.3642120361328125
0.23596800863742828 -0.6686970591545105 0.364065557718277
0.29459503293037415 -0.6447435617446899 0.36393463611602783
0.3508482575416565 -0.6156861186027527 0.36382049322128296
0.4042888581752777 -0.5817652344703674 0.3637237548828125
0.45450007915496826 -0.543238639831543 0.36364561319351196
0.5010845065116882 -0.5004299283027649 0.36358642578125
0.5436932444572449 -0.45365577936172485 0.3635464310646057
0.581977367401123 -0.40330198407173157 0.36352628469467163
0.6156473755836487 -0.3497556149959564 0.36352598667144775
0.6444370746612549 -0.29343000054359436 0.3635455369949341
0.6681249737739563 -0.2347714900970459 0.3635849058628082
0.6865292191505432 -0.17423050105571747 0.36364349722862244
0.699483335018158 -0.11229483038187027 0.36372101306915283
0.7069063186645508 -0.04942997917532921 0.36381712555885315
0.7087134122848511 0.013858471065759659 0.3639306426048279
0.7049065232276917 0.0770774856209755 0.3640609681606293
0.6954877376556396 0.13973401486873627 0.3642071485519409
0.680537760257721 0.20133651793003082 0.3643679618835449
0.6601759791374207 0.26139897108078003 0.3645419180393219
0.6345314979553223 0.3194368779659271 0.36472809314727783
0.6038175225257874 0.37499743700027466 0.36492490768432617
0.5682570934295654 0.4276293218135834 0.3651304543018341
0.5281379222869873 0.47691038250923157 0.3653436303138733
0.48376166820526123 0.5224598050117493 0.3655625879764557
0.4354601502418518 0.5638912916183472 0.36578550934791565
0.38363584876060486 0.6008780002593994 0.3660105764865875
0.3286799490451813 0.6331015229225159 0.3662361204624176
0.27103191614151 0.6603193283081055 0.36646026372909546
0.21115200221538544 0.682282030582428 0.36668136715888977
0.14950032532215118 0.6988093256950378 0.36689743399620056
0.0865880474448204 0.7097775340080261 0.36710691452026367
0.022907009348273277 0.7150602340698242 0.3673080503940582
-0.041015204042196274 0.7146250009536743 0.36749908328056335
-0.10468275099992752 0.7084546685218811 0.36767852306365967
-0.16757091879844666 0.69660484790802 0.3678451478481293
-0.2291674017906189 0.6791496276855469 0.36799710988998413
-0.2889696955680847 0.6562303900718689 0.368133544921875
-0.3464904725551605 0.6280260682106018 0.36825287342071533
-0.40126875042915344 0.5947608947753906 0.36835479736328125
-0.4528491795063019 0.5566979050636292 0.36843809485435486
-0.5008137226104736 0.5141539573669434 0.3685018718242645
-0.544766366481781 0.46746230125427246 0.36854612827301025
-0.5843568444252014 0.41699907183647156 0.368569940328598
-0.6192417740821838 0.363188773393631 0.36857330799102783
-0.6491580009460449 0.30646392703056335 0.36855649948120117
-0.6738450527191162 0.24727652966976166 0.36851927638053894
-0.6931185126304626 0.1861267387866974 0.36846205592155457
-0.7068216800689697 0.12350095808506012 0.36838531494140625
-0.7148306965827942 0.05991028621792793 0.3682897984981537
-0.7171022891998291 -0.004125928971916437 0.36817610263824463
-0.7136231064796448 -0.06808285415172577 0.3680453300476074
-0.7044174671173096 -0.13145092129707336 0.367898553609848
-0.6895702481269836 -0.1937095671892166 0.36773681640625
-0.6692132353782654 -0.254354864358902 0.3675616383552551
-0.6435141563415527 -0.31290778517723083 0.36737456917762756
-0.6126905679702759 -0.36888667941093445 0.36717650294303894
-0.5770026445388794 -0.4218553900718689 0.36696991324424744
-0.5367367267608643 -0.4714014232158661 0.36675581336021423
-0.49222904443740845 -0.5171094536781311 0.3665362596511841
-0.4438445568084717 -0.5586375594139099 0.3663128614425659
-0.3919774293899536 -0.5956476926803589 0.36608749628067017
-0.3370422422885895 -0.6278643012046814 0.365862101316452
-0.27948951721191406 -0.6550366878509521 0.36563825607299805
-0.219782292842865 -0.6769651174545288 0.3654177784919739
-0.15839028358459473 -0.6934705972671509 0.36520248651504517
-0.09582329541444778 -0.7044392228126526 0.36499419808387756
-0.032548196613788605 -0.7097805738449097 0.36479416489601135
0.03091154433786869 -0.7094908952713013 0.3646041750907898
0.09406011551618576 -0.7035531401634216 0.3644259572029114
0.1564045548439026 -0.6920382380485535 0.3642602562904358
0.217454731464386 -0.6750367879867554 0.36410918831825256
0.2767288088798523 -0.6526969075202942 0.36397337913513184
0.3337574601173401 -0.6251851916313171 0.3638537526130676
0.3881211280822754 -0.5927395224571228 0.3637518286705017
0.4393713176250458 -0.5556023120880127 0.363667756319046
0.4871092736721039 -0.5140874981880188 0.36360257863998413
0.53098464012146 -0.4685021936893463 0.36355680227279663
0.5706360340118408 -0.4192141592502594 0.3635302782058716
0.6057628393173218 -0.3666023313999176 0.3635238707065582
0.6360811591148376 -0.3110923171043396 0.3635372817516327
0.6613664031028748 -0.25311118364334106 0.36357054114341736
0.6814161539077759 -0.19310256838798523 0.3636232018470764
0.6960721611976624 -0.1315430849790573 0.36369505524635315
0.7052066922187805 -0.06891492754220963 0.36378538608551025
0.7087512612342834 -0.005701560992747545 0.3638937175273895
0.7066789269447327 0.057599809020757675 0.3640190064907074
0.6989930272102356 0.12048646807670593 0.36416029930114746
0.6857454776763916 0.1824626922607422 0.3643167018890381
0.6670347452163696 0.24304935336112976 0.3644869923591614
0.6429997086524963 0.30176326632499695 0.36466947197914124
0.6138273477554321 0.35812821984291077 0.36486297845840454
0.5797379016876221 0.41171225905418396 0.36506620049476624
0.540991485118866 0.4620792269706726 0.36527708172798157
0.49789389967918396 0.5088194012641907 0.36549437046051025
0.450775682926178 0.5515561103820801 0.36571624875068665
0.3999922573566437 0.5899459719657898 0.3659408390522003
0.34596380591392517 0.623674750328064 0.3661666810512543
0.2890954613685608 0.6524652242660522 0.36639130115509033
0.22984729707241058 0.6760680079460144 0.36661359667778015
0.16870029270648956 0.69429612159729 0.36683136224746704
0.10612136870622635 0.7069896459579468 0.367043137550354
0.04262033477425575 0.7140348553657532 0.3672470152378082
-0.021280698478221893 0.7153688073158264 0.3674410879611969
-0.0850858986377716 0.7109742760658264 0.3676244914531708
-0.14826495945453644 0.7008684277534485 0.36779510974884033
-0.2103152871131897 0.6851236820220947 0.3679516613483429
-0.2707246243953705 0.6638830900192261 0.36809295415878296
-0.32900020480155945 0.6372867226600647 0.36821791529655457
-0.38468095660209656 0.6055589318275452 0.3683253526687622
-0.43728941679000854 0.568946123123169 0.3684143126010895
-0.4864144027233124 0.5277444124221802 0.36848416924476624
-0.5316516757011414 0.48229819536209106 0.36853453516960144
-0.5726177096366882 0.43295878171920776 0.36856475472450256
-0.6089872717857361 0.3801381289958954 0.3685745298862457
-0.6404665112495422 0.3242633640766144 0.36856383085250854
-0.6667952537536621 0.26578646898269653 0.36853301525115967
-0.6877557039260864 0.20518279075622559 0.36848175525665283
-0.7031939625740051 0.14295803010463715 0.3684110939502716
-0.7129656076431274 0.07961641997098923 0.3683212101459503
-0.717014729976654 0.01565936952829361 0.3682131767272949
-0.7153100967407227 -0.04837581142783165 0.36808744072914124
-0.7078664302825928 -0.1119781881570816 0.3679455518722534
-0.6947477459907532 -0.17463405430316925 0.3677882254123688
-0.6760777235031128 -0.2358284294605255 0.3676171898841858
-0.6520046591758728 -0.2950795590877533 0.36743345856666565
-0.622736394405365 -0.3519043028354645 0.36723875999450684
-0.5885249376296997 -0.4058554768562317 0.36703458428382874
-0.5496304035186768 -0.45649710297584534 0.36682265996932983
-0.5063971877098083 -0.503424882888794 0.36660459637641907
-0.45917391777038574 -0.5462747812271118 0.3663821220397949
-0.40833380818367004 -0.584715723991394 0.366157203912735
-0.3543053865432739 -0.6184443831443787 0.3659316897392273
-0.2975102663040161 -0.6472059488296509 0.36570706963539124
-0.238416850566864 -0.6707620620727539 0.36548537015914917
-0.1775018721818924 -0.6889544725418091 0.3652682304382324
-0.1152392327785492 -0.7016443610191345 0.36505767703056335
-0.052126213908195496 -0.7087355852127075 0.3648548722267151
0.011327505111694336 -0.7101833820343018 0.36466169357299805
0.07462887465953827 -0.7059897184371948 0.364479660987854
0.13726972043514252 -0.6961883902549744 0.36430999636650085
0.19876952469348907 -0.6808684468269348 0.364154189825058
0.2586423456668854 -0.6601492166519165 0.36401334404945374
0.3164215683937073 -0.6342163681983948 0.36388885974884033
0.3716434836387634 -0.6032750010490417 0.3637814223766327
0.42389678955078125 -0.5675520300865173 0.3636917173862457
0.4727620482444763 -0.5273547172546387 0.3636206090450287
0.5178694725036621 -0.48299285769462585 0.3635687232017517
0.5588633418083191 -0.4348038136959076 0.36353635787963867
0.5954152941703796 -0.38318029046058655 0.3635238707065582
0.6272469758987427 -0.3285176753997803 0.3635311722755432
0.6541145443916321 -0.2712457478046417 0.36355820298194885
0.6757960319519043 -0.211810901761055 0.363604873418808
0.6921319961547852 -0.15068015456199646 0.3636709451675415
0.7029849290847778 -0.0883370190858841 0.36375564336776733
0.7082546353340149 -0.025249851867556572 0.36385849118232727
0.7079154849052429 0.03807447850704193 0.3639785647392273
0.7019599080085754 0.1011415347456932 0.3641149699687958
0.6904202103614807 0.16345281898975372 0.364266961812973
0.6733869314193726 0.22451812028884888 0.3644329607486725
0.6509779095649719 0.2838611900806427 0.36461180448532104
0.6233707070350647 0.34100431203842163 0.3648020923137665
0.5907784700393677 0.39549490809440613 0.36500242352485657
0.5534422397613525 0.44689396023750305 0.36521115899086
0.5116468071937561 0.4947986602783203 0.365426629781723
0.46572574973106384 0.538813054561615 0.36564743518829346
0.41603708267211914 0.5785744190216064 0.36587128043174744
0.362961083650589 0.6137723922729492 0.3660967946052551
0.30692484974861145 0.6441135406494141 0.3663221597671509
0.24836929142475128 0.6693455576896667 0.3665454089641571
0.187748983502388 0.689257800579071 0.3667646646499634
0.12556283175945282 0.7036754488945007 0.3669784367084503
0.06229293718934059 0.7124708294868469 0.36718490719795227
-0.0015371894696727395 0.7155712246894836 0.36738234758377075
-0.06542894244194031 0.7129402160644531 0.3675692677497864
-0.1288519650697708 0.7045948505401611 0.3677438199520111
-0.19130918383598328 0.6905773878097534 0.3679049611091614
-0.25227731466293335 0.6710222959518433 0.368051141500473
-0.3112621009349823 0.6460602283477783 0.36818113923072815
-0.36778873205184937 0.6158878207206726 0.3682940602302551
-0.42140036821365356 0.5807583332061768 0.3683888018131256
-0.4716416299343109 0.5409349203109741 0.36846479773521423
-0.5181180238723755 0.49676039814949036 0.368521124124527
-0.5604459643363953 0.44858622550964355 0.36855757236480713
-0.5982669591903687 0.3967994749546051 0.3685736060142517
-0.6312859654426575 0.3418176472187042 0.3685693144798279
-0.6592328548431396 0.28409409523010254 0.3685446083545685
-0.6818693280220032 0.22409728169441223 0.368499755859375
-0.6990193128585815 0.16231638193130493 0.3684350550174713
-0.7105591297149658 0.09926249086856842 0.3683509826660156
-0.7163844108581543 0.03544401004910469 0.3682482838630676
-0.7164517045021057 -0.02861972711980343 0.3681280314922333
-0.7107754945755005 -0.09241773188114166 0.36799103021621704
-0.6994034647941589 -0.15541423857212067 0.36783844232559204
-0.6824259161949158 -0.21711905300617218 0.36767148971557617
-0.6600051522254944 -0.2770228087902069 0.3674914538860321
-0.6323185563087463 -0.33464786410331726 0.3672999441623688
-0.5996016263961792 -0.389524906873703 0.36709854006767273
-0.562122642993927 -0.44122904539108276 0.36688873171806335
-0.5201972126960754 -0.4893518090248108 0.3666723668575287
-0.4741571247577667 -0.5335069298744202 0.36645111441612244
-0.42438971996307373 -0.5733358263969421 0.36622679233551025
-0.37130123376846313 -0.6085518002510071 0.36600127816200256
-0.3153175413608551 -0.638870894908905 0.3657762110233307
-0.25688764452934265 -0.6640519499778748 0.3655535876750946
-0.1964801549911499 -0.6839257478713989 0.36533477902412415
-0.13457296788692474 -0.6983245015144348 0.3651220500469208
-0.07167455554008484 -0.7071437835693359 0.36491653323173523
-0.008275194093585014 -0.710335910320282 0.36472028493881226
0.05512925982475281 -0.7078836560249329 0.3645345866680145
0.11802782863378525 -0.6998013854026794 0.3643609583377838
0.17993035912513733 -0.6861796379089355 0.36420074105262756
0.24035775661468506 -0.6671169996261597 0.36405515670776367
0.298829585313797 -0.6427714228630066 0.36392560601234436
0.3548917770385742 -0.6133468151092529 0.36381256580352783
0.4081040024757385 -0.5790741443634033 0.36371734738349915
0.4580620527267456 -0.5402288436889648 0.36364057660102844
0.5043658018112183 -0.49711519479751587 0.3635827600955963
0.5466592907905579 -0.4500707983970642 0.3635443150997162
0.5846213102340698 -0.39946746826171875 0.3635256886482239
0.6179429292678833 -0.3456950783729553 0.36352676153182983
0.6463609933853149 -0.2891862094402313 0.36354780197143555
0.6696702241897583 -0.23036524653434753 0.3635883927345276
0.6876641511917114 -0.16971568763256073 0.36364835500717163
0.7002203464508057 -0.10768939554691315 0.3637274205684662
0.7072221040725708 -0.04477674514055252 0.3638247549533844
0.7086231708526611 0.018522223457694054 0.36393967270851135
0.704395055770874 0.08171997964382172 0.3640713393688202
0.6945703029632568 0.14431796967983246 0.36421844363212585
0.6792199611663818 0.20582328736782074 0.3643801808357239
0.6584633588790894 0.26574990153312683 0.36455535888671875
0.6324379444122314 0.32362431287765503 0.36474213004112244
0.6013596057891846 0.37897443771362305 0.3649395704269409
0.5654569268226624 0.4313794672489166 0.3651460111141205
0.5250093936920166 0.4804059565067291 0.3653596341609955
0.48033103346824646 0.5256552696228027 0.36557891964912415
0.4317593276500702 0.5667715072631836 0.36580199003219604
0.3796882629394531 0.6034168601036072 0.36602720618247986
0.32451730966567993 0.6352837681770325 0.36625275015830994
0.2666875123977661 0.6621202230453491 0.36647674441337585
0.2066575586795807 0.6836862564086914 0.3666975200176239
0.14490556716918945 0.6998142600059509 0.3669131398200989
0.08191653341054916 0.7103569507598877 0.36712202429771423
0.018207015469670296 0.7152212262153625 0.3673223853111267
-0.04572293162345886 0.7143606543540955 0.3675128221511841
-0.1093512699007988 0.7077814936637878 0.3676913380622864
-0.17215877771377563 0.6955091953277588 0.3678567409515381
-0.23363734781742096 0.6776466965675354 0.36800751090049744
-0.29329270124435425 0.6543244123458862 0.368142694234848
-0.35063067078590393 0.6257419586181641 0.36826109886169434
-0.40518897771835327 0.5921138525009155 0.3683616518974304
-0.4565134644508362 0.553712785243988 0.36844342947006226
-0.5041943788528442 0.5108446478843689 0.3685058653354645
-0.5478386878967285 0.46386203169822693 0.36854857206344604
-0.5870876908302307 0.4131520092487335 0.36857086420059204
-0.6216229796409607 0.3591059744358063 0.36857298016548157
-0.6511549949645996 0.3021800220012665 0.36855438351631165
-0.675453782081604 0.2428315281867981 0.36851561069488525
-0.6943237781524658 0.1815524846315384 0.36845701932907104
-0.7075999975204468 0.11884022504091263 0.3683789074420929
-0.7151975035667419 0.05520036444067955 0.3682819902896881
-0.7170436978340149 -0.00884358398616314 0.36816710233688354
-0.7131433486938477 -0.07277924567461014 0.3680349588394165
-0.7035138010978699 -0.13607631623744965 0.3678872585296631
-0.6882565021514893 -0.1982363611459732 0.36772429943084717
-0.6675046682357788 -0.25874578952789307 0.3675481975078583
-0.6414163708686829 -0.31712424755096436 0.3673602342605591
-0.6102270483970642 -0.37290236353874207 0.3671615421772003
-0.5741885900497437 -0.42563316226005554 0.36695432662963867
-0.5335971117019653 -0.47490522265434265 0.36673980951309204
-0.48878738284111023 -0.5203132033348083 0.3665197789669037
-0.44013404846191406 -0.5615163445472717 0.3662963807582855
-0.3880201280117035 -0.598185122013092 0.36607086658477783
-0.33287960290908813 -0.630046546459198 0.36584562063217163
-0.2751547694206238 -0.6568388938903809 0.365621954202652
-0.2153085619211197 -0.6783624291419983 0.3654017448425293
-0.15381628274917603 -0.6944687366485596 0.3651868999004364
-0.09117109328508377 -0.7050215601921082 0.364979088306427
-0.02787582390010357 -0.7099553346633911 0.36477965116500854
0.03558198735117912 -0.7092417478561401 0.36459076404571533
0.09869135916233063 -0.7028953433036804 0.36441314220428467
0.16095654666423798 -0.6909675598144531 0.364248663187027
0.22188052535057068 -0.6735698580741882 0.3640986680984497
0.28100910782814026 -0.6508366465568542 0.36396393179893494
0.3378674387931824 -0.62296462059021 0.3638458251953125
0.39200136065483093 -0.5901573896408081 0.36374494433403015
0.4430066645145416 -0.5526904463768005 0.36366239190101624
0.49048179388046265 -0.5108582973480225 0.36359861493110657
0.5340502262115479 -0.46499165892601013 0.36355406045913696
0.5733780264854431 -0.4154444932937622 0.36352935433387756
0.6081565618515015 -0.3626065254211426 0.3635241687297821
0.6381210684776306 -0.30690088868141174 0.3635391294956207
0.6630262732505798 -0.2487475872039795 0.3635736107826233
0.6826823353767395 -0.18860827386379242 0.36362791061401367
0.6969308257102966 -0.12695957720279694 0.3637011647224426
0.7056618928909302 -0.06427117437124252 0.36379286646842957
0.7087879776954651 -0.0010293483501300216 0.36390241980552673
0.706304132938385 0.06225214898586273 0.3640289306640625
0.6982011795043945 0.12508854269981384 0.36417144536972046
0.6845518350601196 0.18697722256183624 0.36432892084121704
0.6654436588287354 0.24744737148284912 0.3644999563694
0.641027569770813 0.3059978485107422 0.3646833598613739
0.6114866733551025 0.3621813952922821 0.3648776113986969
0.5770453810691833 0.4155370593070984 0.36508145928382874
0.537960946559906 0.4656481146812439 0.3652929663658142
0.4945584833621979 0.5121074914932251 0.3655107021331787
0.44714927673339844 0.5545358657836914 0.365732878446579
0.3961176574230194 0.5925940275192261 0.365957647562027
0.341863214969635 0.6259744167327881 0.36618316173553467
0.2848033607006073 0.6543821096420288 0.3664077818393707
0.2254038006067276 0.6775979995727539 0.36662977933883667
0.16412745416164398 0.6954225897789001 0.3668472170829773
0.10147038847208023 0.7077004313468933 0.3670583963394165
0.03792016953229904 0.7143339514732361 0.3672616481781006
-0.025998257100582123 0.7152411341667175 0.3674551248550415
-0.08977114409208298 0.7104171514511108 0.3676374852657318
-0.15288062393665314 0.6998969912528992 0.367807000875473
-0.21482406556606293 0.6837533712387085 0.36796262860298157
-0.27509477734565735 0.6620985865592957 0.36810269951820374
-0.3332068920135498 0.6351212859153748 0.3682263195514679
-0.38866621255874634 0.6030208468437195 0.36833250522613525
-0.4410380721092224 0.5660672783851624 0.3684200942516327
-0.4898891746997833 0.5245399475097656 0.36848875880241394
-0.5348166823387146 0.47879308462142944 0.36853742599487305
-0.5754578709602356 0.42918479442596436 0.3685661256313324
-0.6114763021469116 0.3761187195777893 0.3685745298862457
-0.6425809860229492 0.3200414478778839 0.3685623109340668
-0.6685283780097961 0.2613827586174011 0.36852964758872986
-0.6890853643417358 0.20064979791641235 0.36847731471061707
-0.7041050791740417 0.138327494263649 0.36840513348579407
-0.7134621739387512 0.07491736114025116 0.36831390857696533
-0.7170941829681396 0.010941543616354465 0.3682043254375458
-0.7149574160575867 -0.05308065935969353 0.36807769536972046
-0.7070966362953186 -0.11663276702165604 0.36793455481529236
-0.6935665607452393 -0.1791997104883194 0.36777618527412415
-0.6744906306266785 -0.24026650190353394 0.3676040470600128
-0.6500269770622253 -0.299352765083313 0.36741942167282104
-0.6203819513320923 -0.35598501563072205 0.36722394824028015
-0.5858088731765747 -0.4097065329551697 0.36701902747154236
-0.5465970635414124 -0.46008533239364624 0.36680662631988525
-0.5030507445335388 -0.5067213177680969 0.3665882647037506
-0.455546110868454 -0.5492641925811768 0.3663656413555145
-0.40445780754089355 -0.5873733758926392 0.366140753030777
-0.3502061367034912 -0.620734453201294 0.365914911031723
-0.2932291626930237 -0.6491146087646484 0.3656906187534332
-0.23398298025131226 -0.672293484210968 0.365469366312027
-0.17294839024543762 -0.6900837421417236 0.3652525246143341
-0.1106075718998909 -0.702357828617096 0.36504241824150085
-0.047455042600631714 -0.7090389132499695 0.36484023928642273
0.015996741130948067 -0.7100626826286316 0.3646478056907654
0.07926718890666962 -0.7054492235183716 0.3644665479660034
0.14184950292110443 -0.6952419877052307 0.3642980754375458
0.2032424509525299 -0.6795229911804199 0.36414337158203125
0.2629711329936981 -0.6584200263023376 0.36400389671325684
0.3205772340297699 -0.6321076154708862 0.36388030648231506
0.3755984306335449 -0.6008004546165466 0.3637740910053253
0.4276164770126343 -0.5647464394569397 0.3636859059333801
0.47622716426849365 -0.5242207646369934 0.3636161684989929
0.5210359692573547 -0.47956642508506775 0.3635656535625458
0.5617063045501709 -0.4311181604862213 0.3635348379611969
0.5979264974594116 -0.3792465031147003 0.3635236918926239
0.6294029951095581 -0.3243785798549652 0.3635323941707611
0.6558904051780701 -0.26693451404571533 0.3635609447956085
0.6771864891052246 -0.20735789835453033 0.3636089861392975
0.6931135654449463 -0.14612823724746704 0.3636764585971832
0.7035602927207947 -0.08370554447174072 0.36376264691352844
0.7084211707115173 -0.020588530227541924 0.3638667166233063
0.7076677680015564 0.0427352674305439 0.3639880418777466
0.7013033628463745 0.10576313734054565 0.36412566900253296
0.6893509030342102 0.1679951399564743 0.3642787039279938
0.6719185709953308 0.22895358502864838 0.3644458055496216
0.6491162180900574 0.2881511151790619 0.3646255433559418
0.6211404204368591 0.3451128602027893 0.3648165762424469
0.5881839394569397 0.3993930220603943 0.36501768231391907
0.5505082011222839 0.4505458474159241 0.3652268946170807
0.5083969235420227 0.49817806482315063 0.36544281244277954
0.462193101644516 0.5418952107429504 0.3656637370586395
0.4122355580329895 0.5813316106796265 0.3658880591392517
0.3589335083961487 0.6161813139915466 0.3661135733127594
0.30269336700439453 0.6461575031280518 0.3663387894630432
0.24396701157093048 0.6709998846054077 0.36656156182289124
0.18321748077869415 0.6905086636543274 0.36678069829940796
0.12093240767717361 0.7045174837112427 0.3669940233230591
0.05760504677891731 0.7128901481628418 0.36719968914985657
-0.006253557279706001 0.7155720591545105 0.3673965334892273
-0.07012402266263962 0.7125198245048523 0.3675825297832489
-0.13349540531635284 0.7037477493286133 0.36775603890419006
-0.19585540890693665 0.6893299221992493 0.3679161071777344
-0.2566945552825928 0.6693593263626099 0.36806121468544006
-0.315524160861969 0.6440051794052124 0.3681899905204773
-0.37185004353523254 0.6134670376777649 0.3683016896247864
-0.42522233724594116 0.5779774188995361 0.368395060300827
-0.4752090871334076 0.5378255844116211 0.3684695363044739
-0.5213853120803833 0.4933490753173828 0.3685244619846344
-0.5633856058120728 0.44488662481307983 0.3685595691204071
-0.6008636951446533 0.39284345507621765 0.3685740530490875
-0.6335164904594421 0.33764809370040894 0.36856809258461
-0.6610819697380066 0.2797427177429199 0.36854201555252075
-0.6833218932151794 0.21959586441516876 0.36849546432495117
-0.7000712156295776 0.15770499408245087 0.368429571390152
-0.7111855745315552 0.09457433223724365 0.36834409832954407
-0.7165813446044922 0.03071911819279194 0.36824002861976624
-0.7162342667579651 -0.0333440788090229 0.3681185841560364
-0.7101313471794128 -0.09709043055772781 0.36798033118247986
-0.6983354091644287 -0.16001594066619873 0.36782652139663696
-0.6809602975845337 -0.22160424292087555 0.3676585257053375
-0.6581377983093262 -0.2813514173030853 0.3674777150154114
-0.6300745010375977 -0.33878397941589355 0.36728546023368835
-0.5969931483268738 -0.39345067739486694 0.36708328127861023
-0.5591748356819153 -0.4449084997177124 0.3668728470802307
-0.5169348120689392 -0.4927491247653961 0.36665618419647217
-0.47061485052108765 -0.5365875959396362 0.366434782743454
-0.4205881655216217 -0.5760930180549622 0.36621031165122986
-0.3672736585140228 -0.6109606623649597 0.36598479747772217
-0.31108739972114563 -0.6409052014350891 0.36575958132743835
-0.25249648094177246 -0.6656979918479919 0.3655371069908142
-0.1919596642255783 -0.685168445110321 0.3653188943862915
-0.1299729198217392 -0.6991609930992126 0.3651064932346344
-0.06701426208019257 -0.7075768709182739 0.36490172147750854
-0.0035961053799837828 -0.7103520035743713 0.3647060990333557
0.0597870796918869 -0.7074784636497498 0.364521324634552
0.1226271241903305 -0.6989902853965759 0.36434873938560486
0.1844407171010971 -0.6849570870399475 0.3641894459724426
0.24473224580287933 -0.6654995679855347 0.36404526233673096
0.30305030941963196 -0.640771746635437 0.3639167845249176
0.3589117228984833 -0.6109813451766968 0.3638050854206085
0.41190671920776367 -0.576365053653717 0.36371123790740967
0.46160057187080383 -0.5371927618980408 0.36363568902015686
0.507623553276062 -0.49377432465553284 0.36357924342155457
0.549611508846283 -0.44645819067955017 0.3635421693325043
0.5872320532798767 -0.395608127117157 0.3635249137878418
0.6202067136764526 -0.3416193723678589 0.3635275065898895
0.6482530832290649 -0.2849273383617401 0.3635500967502594
0.6711753606796265 -0.22595489025115967 0.3635920584201813
0.6887769103050232 -0.16518434882164001 0.3636535704135895
0.7009269595146179 -0.1030784547328949 0.3637341260910034
0.7075170874595642 -0.04011663421988487 0.3638326823711395
0.7085024118423462 0.023191465064883232 0.3639488220214844
0.7038642764091492 0.0863596722483635 0.36408156156539917
0.693633496761322 0.1488991379737854 0.36423003673553467
0.6778745055198669 0.21029618382453918 0.3643926978111267
0.6567230820655823 0.27008697390556335 0.3645687699317932
0.6303180456161499 0.32778823375701904 0.3647564649581909
0.5988726615905762 0.3829473555088043 0.36495453119277954
0.5626291632652283 0.4351157248020172 0.3651614189147949
0.5218560695648193 0.4838683605194092 0.36537566781044006
0.4768742620944977 0.5288272500038147 0.3655950725078583
0.42804190516471863 0.5696296691894531 0.36581847071647644
0.37572404742240906 0.6059335470199585 0.36604368686676025
0.32034918665885925 0.6374356150627136 0.36626923084259033
0.2623375654220581 0.663890540599823 0.36649322509765625
0.2021673023700714 0.6850614547729492 0.3667135536670685
0.14029568433761597 0.7007874846458435 0.3669288456439972
0.0772395133972168 0.7109061479568481 0.3671371340751648
0.013490485958755016 0.7153601050376892 0.36733686923980713
-0.050427861511707306 0.7140769958496094 0.36752623319625854
-0.11401422321796417 0.7070696949958801 0.3677038550376892
-0.1767410784959793 0.6943749189376831 0.3678683340549469
-0.23810172080993652 0.6761052012443542 0.36801818013191223
-0.2976032793521881 0.6524004936218262 0.3681521415710449
-0.3547474145889282 0.6234315633773804 0.36826902627944946
-0.40908560156822205 0.5894405841827393 0.3683682084083557
-0.4601541757583618 0.5507014989852905 0.36844879388809204
-0.5075530409812927 0.5075188279151917 0.36850982904434204
-0.550890326499939 0.46025484800338745 0.36855071783065796
-0.5897936820983887 0.4092690944671631 0.36857175827026367
-0.6239709854125977 0.3549984395503998 0.3685722351074219
-0.6531298756599426 0.29787957668304443 0.36855223774909973
-0.6770320534706116 0.23838107287883759 0.3685120940208435
-0.6954890489578247 0.1769741028547287 0.3684519827365875
-0.7083576917648315 0.11417260766029358 0.3683723509311676
-0.7155337929725647 0.05048496276140213 0.368274062871933
-0.7169546484947205 -0.01356672216206789 0.3681579530239105
-0.7126248478889465 -0.0774700716137886 0.3680245876312256
-0.7025797367095947 -0.14070720970630646 0.36787551641464233
-0.6869136691093445 -0.2027590125799179 0.36771178245544434
-0.665757417678833 -0.26313120126724243 0.3675347864627838
