ply
format ascii 1.0
element vertex 1919
property float32 x
property float32 y
property float32 z
end_header
23.7252 -4.2843 -3.1362
23.8625 -2.1361 -3.1166
23.9992 0.0024 -3.1220
24.1374 2.1656 -3.1525
24.3397 4.4003 -3.2176
1.7809 34.7031 -4.5203
-1.3282 34.8409 -4.5356
-36.6323 -13.1333 -5.0624
-25.3340 -11.7300 -3.6317
-20.7559 -11.9668 -3.1167
-20.0928 -14.1145 -3.1942
-20.2771 -17.1402 -3.4539
-28.5740 -28.9036 -5.2872
-24.1048 -29.1892 -4.9245
-20.1803 -29.4400 -4.6431
-17.9915 -32.0496 -4.7812
21.2058 -33.7482 -5.1849
21.5576 -28.3352 -4.6315
21.1214 -23.1429 -4.0759
22.1765 -20.3166 -3.9125
16.9114 -12.9171 -2.7683
34.4545 -21.7408 -5.2997
23.3947 -9.4568 -3.2826
23.5422 -7.1477 -3.2006
23.6837 -4.9340 -3.1471
23.8216 -2.7760 -3.1198
23.9582 -0.6383 -3.1177
24.0958 1.5139 -3.1407
24.2365 3.7156 -3.1897
18.9973 22.3880 -3.8196
2.7096 34.6643 -4.5231
-0.3957 34.7979 -4.5270
-17.8050 46.0578 -6.4236
-34.5264 14.4965 -4.8712
-9.3880 0.3757 -1.2222
-39.6885 -13.0427 -5.4346
-26.9762 -11.6250 -3.8212
-21.9662 -11.8939 -3.2495
-20.0308 -13.2857 -3.1268
-20.2159 -16.1820 -3.3686
-30.0457 -28.8096 -5.4150
-25.3764 -29.1080 -5.0235
-21.3067 -29.3680 -4.7199
-17.6733 -29.6002 -4.4847
-18.2811 -37.9527 -5.4800
15.6764 -32.8803 -4.7385
20.9631 -35.4303 -5.3553
21.4584 -29.8269 -4.7799
21.0452 -24.3352 -4.1853
21.5440 -20.8234 -3.8977
25.2705 -20.3940 -4.2243
32.2927 -21.6048 -5.0543
23.4521 -10.2176 -3.3278
23.4989 -7.8265 -3.2220
23.6419 -5.5886 -3.1602
23.7806 -3.4178 -3.1253
23.9174 -1.2777 -3.1158
24.0544 0.8666 -3.1312
24.1939 3.0496 -3.1722
25.1059 5.4764 -3.3427
3.6397 34.6225 -4.5287
0.5339 34.7543 -4.5216
-2.5888 34.9139 -4.5543
-42.4158 -12.6932 -5.7595
-28.6802 -11.4604 -4.0177
-23.2691 -11.8062 -3.3943
-19.9804 -12.4964 -3.0657
-20.1576 -15.2694 -3.2896
-20.4968 -18.6279 -3.6030
-26.7013 -29.0233 -5.1303
-22.4720 -29.2936 -4.8028
-18.7222 -29.5332 -4.5488
-18.1017 -35.1451 -5.1427
-12.0528 -39.4005 -5.3599
21.3556 -31.4230 -4.9424
21.6763 -26.4627 -4.4499
21.2475 -21.6650 -3.9475
23.8237 -20.3016 -4.0718
29.4783 -20.8837 -4.6995
36.2465 -21.0912 -5.4553
23.4549 -8.5148 -3.2460
23.5997 -6.2492 -3.1758
23.7394 -4.0623 -3.1331
23.8765 -1.9167 -3.1160
24.0133 0.2228 -3.1239
24.1518 2.3904 -3.1572
24.3877 4.6405 -3.2294
33.2724 9.4743 -4.5003
24.8682 31.5351 -5.2243
19.7554 30.2608 -4.7011
4.5736 34.5860 -4.5383
1.4622 34.7158 -4.5200
-1.6493 34.8571 -4.5395
-35.8575 -13.2282 -4.9719
-24.8073 -11.7636 -3.5715
-20.3649 -11.9917 -3.0744
-20.1142 -14.4069 -3.2185
-20.2989 -17.4803 -3.4848
-28.0847 -28.9349 -5.2455
-23.6798 -29.2164 -4.8922
-19.8020 -29.4642 -4.6181
-10.6988 -19.4750 -2.8906
21.2454 -33.1327 -5.1201
21.5889 -27.8422 -4.5831
21.1467 -22.7479 -4.0403
22.5352 -20.2680 -3.9428
28.5149 -21.3685 -4.6354
35.0159 -21.6483 -5.3553
23.4102 -9.2140 -3.2727
23.5570 -6.9168 -3.1938
23.6980 -4.7105 -3.1431
23.8357 -2.5563 -3.1185
23.9723 -0.4186 -3.1189
24.1100 1.7369 -3.1445
24.2512 3.9460 -3.1962
2.3906 34.6779 -4.5218
-0.7154 34.8128 -4.5296
-7.0950 35.1264 -4.6618
-14.4960 13.3924 -2.5673
-9.4298 0.2908 -1.2273
-38.4233 -13.0188 -5.2775
-26.2835 -11.6135 -3.7380
-21.5392 -11.9196 -3.2024
-20.0486 -13.5640 -3.1489
-20.2366 -16.5055 -3.3971
-29.5327 -28.8424 -5.3700
-24.9343 -29.1362 -4.9887
-20.9160 -29.3930 -4.6929
-17.5542 -30.0230 -4.5242
-18.2497 -38.7939 -5.5771
21.1270 -34.9713 -5.3150
20.9254 -28.5300 -4.6026
21.0719 -23.9189 -4.1467
21.7267 -20.6176 -3.8964
26.8439 -21.2601 -4.4545
21.0696 -23.9545 -3.9503
21.7102 -20.6349 -3.7089
25.7468 -20.4245 -4.0695
32.9488 -21.6461 -4.8816
23.4275 -9.9740 -3.1529
23.5125 -7.6127 -3.0603
23.6550 -5.3827 -3.0040
23.7935 -3.2163 -2.9731
23.9302 -1.0772 -2.9662
24.0673 1.0691 -2.9831
24.2072 3.2577 -3.0245
-16.8170 45.9947 -6.0641
-41.8431 -12.9050 -5.4221
-28.0906 -11.4987 -3.7585
-22.8474 -11.8341 -3.1861
-19.9960 -12.7405 -2.9359
-20.1756 -15.5510 -3.1543
-20.5183 -18.9639 -3.4597
-26.2798 -29.0502 -4.8507
-22.1023 -29.3172 -4.5463
-18.3900 -29.5544 -4.3103
-18.1555 -35.9875 -4.9912
21.3886 -30.9109 -4.6546
20.9905 -25.1918 -4.0604
21.3075 -21.3649 -3.7364
24.2659 -20.3298 -3.9199
30.9205 -21.5184 -4.6647
23.8178 -10.9012 -3.2435
23.4688 -8.2979 -3.0824
23.6130 -6.0414 -3.0181
23.7524 -3.8599 -2.9798
23.8894 -1.7163 -2.9658
24.0261 0.4243 -2.9755
24.1650 2.5964 -3.0095
24.5022 4.8754 -3.0935
17.3256 8.6823 -2.3997
4.2444 34.3071 -4.2805
-11.3070 13.9450 -2.2231
-44.8730 -12.5362 -5.7693
-34.9806 -13.2388 -4.6314
-24.3408 -11.7934 -3.3492
-20.0170 -12.0140 -2.8908
-20.1191 -14.6672 -3.0830
-20.3191 -17.7966 -3.3447
-27.6441 -28.9630 -4.9578
-23.2963 -29.2409 -4.6295
-19.4598 -29.4861 -4.3746
-17.9907 -33.4090 -4.6986
21.2808 -32.5835 -4.8190
20.9068 -26.5009 -4.1798
21.1694 -22.3929 -3.8158
22.8891 -20.2418 -3.7836
29.0674 -21.4044 -4.4699
35.9932 -21.8376 -5.2131
23.4243 -8.9936 -3.1070
23.5704 -6.7066 -3.0345
23.7110 -4.5068 -2.9886
23.8485 -2.3556 -2.9675
23.9851 -0.2177 -2.9701
24.1231 1.9413 -2.9967
24.2921 4.1619 -3.0518
19.4093 34.9171 -4.9467
-14.5497 13.2178 -2.4341
-37.6598 -13.1130 -4.9379
-25.7709 -11.6463 -3.5019
-21.1575 -11.9411 -3.0083
-20.0651 -13.8218 -3.0170
-20.2558 -16.8058 -3.2591
-29.0712 -28.8719 -5.0735
-24.5357 -29.1617 -4.7191
-20.5628 -29.4156 -4.4442
-17.8604 -31.1429 -4.4455
21.1651 -34.3798 -4.9992
21.3140 -28.5549 -4.4122
21.0957 -23.5450 -3.9146
21.9243 -20.4587 -3.7132
16.8256 -13.0977 -2.6403
33.6893 -21.6927 -4.9616
23.4093 -9.7135 -3.1383
23.5274 -7.3797 -3.0533
23.6694 -5.1580 -2.9997
23.8076 -2.9961 -2.9713
23.9442 -0.8578 -2.9668
24.0815 1.2912 -2.9862
24.2218 3.4862 -3.0302
19.5330 27.1620 -4.1428
-3.2146 35.0056 -4.3529
-17.3090 46.0262 -6.0890
-9.4106 0.4632 -1.1667
-40.7403 -12.9755 -5.2944
-27.5802 -11.5864 -3.7043
-22.3966 -11.8625 -3.1383
-20.0133 -13.0112 -2.9559
-20.1956 -15.8639 -3.1800
-20.4096 -19.2136 -3.4709
-25.8250 -29.0793 -4.8158
-21.7022 -29.3428 -4.5192
-18.0300 -29.5774 -4.2893
-18.3176 -37.1527 -5.1293
21.4239 -30.3627 -4.6014
21.0181 -24.7594 -4.0216
21.4059 -21.0732 -3.7195
24.7618 -20.3615 -3.9697
31.5960 -21.5609 -4.7366
23.5632 -10.5242 -3.1956
23.4839 -8.0616 -3.0745
23.6274 -5.8146 -3.0130
23.7665 -3.6387 -2.9772
23.9034 -1.4970 -2.9657
24.0403 0.6452 -2.9779
24.1794 2.8227 -3.0144
24.6870 5.1481 -3.1227
17.1877 8.8114 -2.3917
19.2420 25.3019 -3.9361
0.8474 34.5266 -4.2766
-2.2534 34.7055 -4.3065
-24.3535 35.5131 -5.3321
-11.4345 13.8407 -2.2231
-43.8485 -12.6849 -5.6523
-29.3517 -11.4175 -3.8998
-23.7464 -11.7757 -3.2821
-19.9635 -12.2324 -2.8992
-20.1382 -14.9660 -3.1069
-20.4737 -18.2667 -3.3976
-27.1692 -28.9934 -4.9201
-22.8816 -29.2674 -4.6002
-19.0890 -29.5098 -4.3520
-18.1448 -34.4487 -4.8212
21.3187 -31.9962 -4.7609
20.9361 -26.0430 -4.1377
21.1938 -22.0106 -3.7836
23.3508 -20.2714 -3.8290
29.4533 -21.2745 -4.4990
37.1795 -22.0932 -5.3553
23.4396 -8.7536 -3.0982
23.5851 -6.4775 -3.0286
23.7252 -4.2843 -2.9853
23.8625 -2.1361 -2.9666
23.9992 0.0024 -2.9717
24.1374 2.1655 -3.0009
24.3397 4.4003 -3.0628
-36.6323 -13.1333 -4.8188
-25.3340 -11.7300 -3.4570
-20.7558 -11.9668 -2.9667
-20.0833 -14.1078 -3.0391
-20.2771 -17.1402 -3.2877
-28.5740 -28.9036 -5.0328
-24.1048 -29.1892 -4.6876
-20.1802 -29.4400 -4.4197
-17.9389 -31.9558 -4.5378
21.2058 -33.7482 -4.9355
21.5576 -28.3351 -4.4087
21.1214 -23.1429 -3.8798
22.1765 -20.3166 -3.7242
16.9109 -12.9167 -2.6350
34.4545 -21.7408 -5.0447
23.3947 -9.4568 -3.1246
23.5423 -7.1477 -3.0466
23.6837 -4.9340 -2.9956
23.8216 -2.7760 -2.9697
23.9582 -0.6383 -2.9677
24.0958 1.5139 -2.9896
24.2365 3.7156 -3.0362
19.0734 22.4777 -3.6503
-3.5338 34.9565 -4.3506
-17.8050 46.0578 -6.1145
-34.5251 14.4960 -4.6367
-9.3878 0.3757 -1.1634
-39.6885 -13.0427 -5.1731
-26.9762 -11.6250 -3.6373
-21.9589 -11.8899 -3.0921
-20.0308 -13.2857 -2.9763
-20.2159 -16.1820 -3.2065
-30.0457 -28.8096 -5.1544
-25.3764 -29.1080 -4.7818
-21.3067 -29.3680 -4.4928
-17.6733 -29.6002 -4.2689
-18.2811 -37.9527 -5.2163
15.6758 -32.8790 -4.5104
21.1213 -35.6976 -5.1361
21.4584 -29.8269 -4.5499
21.0452 -24.3352 -3.9839
21.5440 -20.8234 -3.7102
25.2705 -20.3940 -4.0211
32.2927 -21.6048 -4.8111
23.4521 -10.2176 -3.1676
23.4989 -7.8265 -3.0669
23.6419 -5.5886 -3.0082
23.7806 -3.4178 -2.9749
23.9174 -1.2777 -2.9658
24.0544 0.8666 -2.9805
24.1939 3.0496 -3.0196
25.1059 5.4764 -3.1819
-42.8982 -12.8376 -5.5447
-28.6802 -11.4604 -3.8244
-23.2691 -11.8062 -3.2310
-19.9804 -12.4964 -2.9182
-20.1576 -15.2694 -3.1313
-20.4968 -18.6279 -3.4296
-26.7014 -29.0233 -4.8834
-22.4720 -29.2936 -4.5717
-18.7222 -29.5332 -4.3299
-18.1017 -35.1451 -4.8952
-12.0525 -39.3995 -5.1019
21.3556 -31.4230 -4.7046
20.9648 -25.5941 -4.0967
21.2475 -21.6650 -3.7576
23.8237 -20.3016 -3.8758
29.4783 -20.8837 -4.4734
37.3807 -21.7511 -5.3553
23.4549 -8.5148 -3.0898
23.5997 -6.2492 -3.0230
23.7394 -4.0623 -2.9823
23.8765 -1.9167 -2.9661
24.0133 0.2228 -2.9736
24.1518 2.3904 -3.0052
24.3877 4.6405 -3.0740
33.2717 9.4741 -4.2837
24.8671 31.5338 -4.9728
19.7553 30.2608 -4.4749
-35.8575 -13.2282 -4.7326
-24.8072 -11.7636 -3.3997
-20.3649 -11.9917 -2.9264
-20.1019 -14.3981 -3.0618
-20.2989 -17.4803 -3.3171
-28.0847 -28.9349 -4.9931
-23.6798 -29.2164 -4.6568
-19.8020 -29.4642 -4.3959
-10.6985 -19.4744 -2.7514
21.2454 -33.1327 -4.8737
20.8796 -26.9275 -4.2193
21.1467 -22.7479 -3.8459
22.5352 -20.2680 -3.7531
27.3958 -20.5299 -4.2392
35.2461 -21.7906 -5.1312
23.4102 -9.2141 -3.1153
23.5570 -6.9168 -3.0401
23.6980 -4.7105 -2.9919
23.8357 -2.5563 -2.9684
23.9723 -0.4185 -2.9689
24.1100 1.7369 -2.9932
24.2512 3.9460 -3.0424
-3.8647 35.0158 -4.3622
-7.0950 35.1264 -4.4375
-18.3051 46.0898 -6.1408
-14.4953 13.3918 -2.4437
-9.4295 0.2907 -1.1682
-38.2573 -12.9626 -5.0018
-26.2835 -11.6135 -3.5582
-21.5345 -11.9170 -3.0476
-20.0486 -13.5640 -2.9973
-20.2366 -16.5055 -3.2336
-29.5327 -28.8424 -5.1116
-24.9343 -29.1362 -4.7486
-20.9160 -29.3930 -4.4671
-17.5542 -30.0230 -4.3065
-18.2497 -38.7939 -5.3087
21.1270 -34.9713 -5.0593
20.9254 -28.5300 -4.3812
21.0719 -23.9189 -3.9472
21.7267 -20.6176 -3.7089
25.7924 -20.4274 -4.0741
21.0696 -23.9545 -3.7510
21.7102 -20.6349 -3.5217
25.7468 -20.4245 -3.8641
32.9488 -21.6461 -4.6352
23.4275 -9.9740 -2.9938
23.5125 -7.6127 -2.9058
24.0629 -5.4755 -2.9016
24.4556 -3.3059 -2.9016
24.6531 -1.1098 -2.9016
24.6537 1.0951 -2.9016
24.4576 3.2913 -2.9016
-16.8170 45.9947 -5.7581
-41.8431 -12.9050 -5.1485
-28.0906 -11.4987 -3.5688
-22.8457 -11.8332 -3.0251
-19.9960 -12.7405 -2.7877
-20.1756 -15.5510 -2.9951
-20.5183 -18.9639 -3.2851
-26.2798 -29.0502 -4.6059
-22.1023 -29.3172 -4.3169
-18.3900 -29.5544 -4.0927
-18.1555 -35.9875 -4.7393
21.3886 -30.9109 -4.4196
20.9905 -25.1918 -3.8554
21.3075 -21.3649 -3.5478
24.2660 -20.3298 -3.7221
29.7060 -20.6732 -4.2553
23.8178 -10.9012 -3.0798
23.4688 -8.2979 -2.9268
23.9079 -6.1168 -2.9016
24.3585 -3.9584 -2.9016
24.6146 -1.7684 -2.9016
24.6742 0.4357 -2.9016
24.5368 2.6364 -2.9016
24.5022 4.8754 -2.9374
17.3256 8.6823 -2.2786
4.2405 34.2756 -4.0607
-11.3070 13.9450 -2.1109
-45.3834 -12.6788 -5.5404
-34.9806 -13.2388 -4.3976
-24.2417 -11.7454 -3.1672
-20.0170 -12.0140 -2.7449
-20.1191 -14.6672 -2.9274
-20.3191 -17.7966 -3.1759
-27.6441 -28.9630 -4.7076
-23.2963 -29.2409 -4.3958
-19.4598 -29.4861 -4.1538
-17.9907 -33.4090 -4.4615
21.2808 -32.5835 -4.5758
20.9068 -26.5009 -3.9688
21.1694 -22.3929 -3.6232
22.8891 -20.2419 -3.5926
27.9258 -20.5637 -4.0776
35.9932 -21.8376 -4.9500
23.4243 -8.9936 -2.9502
23.7359 -6.7537 -2.9016
24.2440 -4.6081 -2.9016
24.5585 -2.4257 -2.9016
24.6770 -0.2240 -2.9016
24.5985 1.9796 -2.9016
24.3237 4.1673 -2.9016
19.4087 34.9160 -4.6969
-4.1602 35.0002 -4.1442
-14.5494 13.2174 -2.3112
-37.6598 -13.1130 -4.6887
-25.7709 -11.6463 -3.3251
-21.1575 -11.9411 -2.8565
-20.0651 -13.8217 -2.8648
-20.2558 -16.8058 -3.0946
-29.0712 -28.8719 -4.8174
-24.5357 -29.1617 -4.4809
-20.5628 -29.4156 -4.2199
-17.8441 -31.1144 -4.2173
20.8441 -33.8584 -4.6749
20.8180 -27.8904 -4.0921
21.0957 -23.5450 -3.7170
21.9243 -20.4587 -3.5258
16.8249 -13.0971 -2.5069
33.6893 -21.6927 -4.7112
23.4093 -9.7135 -2.9799
23.5469 -7.3858 -2.9016
24.1121 -5.2545 -2.9016
24.4849 -3.0813 -2.9016
24.6622 -0.8835 -2.9016
24.6426 1.3213 -2.9016
24.4263 3.5156 -2.9016
-17.3090 46.0262 -5.7816
-9.4104 0.4632 -1.1078
-40.5657 -12.9198 -5.0057
-27.5802 -11.5864 -3.5173
-22.3956 -11.8620 -2.9798
-20.0133 -13.0112 -2.8067
-20.1956 -15.8639 -3.0195
-20.4096 -19.2136 -3.2958
-25.8250 -29.0793 -4.5727
-21.7022 -29.3428 -4.2911
-18.0300 -29.5774 -4.0728
-18.3176 -37.1527 -4.8704
20.7196 -29.3646 -4.2256
21.0181 -24.7594 -3.8186
21.4059 -21.0732 -3.5318
24.7618 -20.3615 -3.7693
31.5961 -21.5609 -4.4975
23.5632 -10.5242 -3.0343
23.4839 -8.0616 -2.9193
23.9630 -5.8972 -2.9016
24.3938 -3.7347 -2.9016
24.6298 -1.5425 -2.9016
24.6691 0.6621 -2.9016
24.5116 2.8614 -2.9016
24.6870 5.1481 -2.9651
17.1877 8.8114 -2.2710
19.2420 25.3019 -3.7375
0.8468 34.5007 -4.0577
-2.2524 34.6894 -4.0873
-24.3529 35.5122 -5.0629
-11.4345 13.8407 -2.1109
-44.1090 -12.7602 -5.3989
-29.3517 -11.4175 -3.7030
-23.7464 -11.7757 -3.1165
-19.9635 -12.2324 -2.7528
-20.1382 -14.9660 -2.9501
-20.3527 -18.1587 -3.2070
-27.1692 -28.9934 -4.6718
-22.8816 -29.2674 -4.3680
-19.0890 -29.5098 -4.1323
-18.1341 -34.4283 -4.5752
21.3187 -31.9962 -4.5206
20.9361 -26.0430 -3.9288
21.1938 -22.0106 -3.5926
23.3508 -20.2714 -3.6358
28.5220 -20.6018 -4.1369
23.4396 -8.7535 -2.9419
23.7969 -6.5356 -2.9016
24.2852 -4.3855 -2.9016
24.5797 -2.2003 -2.9016
24.6780 0.0025 -2.9016
24.5793 2.2052 -2.9016
24.3397 4.4003 -2.9082
-4.4870 35.0061 -4.1496
-47.4784 -12.3697 -5.7687
-36.6323 -13.1333 -4.5756
-25.3340 -11.7300 -3.2825
-20.7558 -11.9668 -2.8170
-20.0833 -14.1078 -2.8857
-20.2771 -17.1402 -3.1218
-28.5740 -28.9036 -4.7787
-24.1048 -29.1892 -4.4510
-20.1802 -29.4400 -4.1966
-17.8669 -31.8276 -4.2915
21.2058 -33.7482 -4.6863
20.8491 -27.4039 -4.0486
21.1214 -23.1429 -3.6840
22.1765 -20.3166 -3.5362
16.9105 -12.9163 -2.5019
34.4545 -21.7408 -4.7901
23.3947 -9.4568 -2.9669
23.6136 -7.1694 -2.9016
24.1593 -5.0331 -2.9016
23.8216 -2.7761 -2.8198
24.6693 -0.6572 -2.9016
24.6295 1.5474 -2.9016
24.3931 3.7396 -2.9016
19.5632 27.7374 -3.9908
-17.8050 46.0578 -5.8059
-34.5239 14.4955 -4.4025
-9.3875 0.3757 -1.1046
-39.6885 -13.0427 -4.9120
-26.9762 -11.6250 -3.4538
-21.9589 -11.8899 -2.9360
-20.0308 -13.2857 -2.8261
-20.2159 -16.1820 -3.0446
-30.0457 -28.8096 -4.8943
-25.3764 -29.1080 -4.5404
-21.3068 -29.3680 -4.2661
-17.6733 -29.6002 -4.0535
-18.2811 -37.9527 -4.9531
15.6752 -32.8778 -4.2825
21.1213 -35.6976 -4.8769
20.7528 -28.8461 -4.1782
21.0452 -24.3352 -3.7828
21.5440 -20.8234 -3.5229
25.2705 -20.3940 -3.8181
32.2927 -21.6048 -4.5683
23.4521 -10.2176 -3.0078
23.4989 -7.8265 -2.9121
24.0161 -5.6771 -2.9016
24.4270 -3.5107 -2.9016
24.6429 -1.3164 -2.9016
24.6620 0.8885 -2.9016
24.4843 3.0862 -2.9016
25.1059 5.4764 -3.0213
-42.8982 -12.8376 -5.2649
-28.6802 -11.4604 -3.6314
-23.2691 -11.8062 -3.0679
-19.9804 -12.4964 -2.7709
-20.1576 -15.2694 -2.9733
-20.3792 -18.5210 -3.2378
-26.7014 -29.0233 -4.6369
-22.4720 -29.2936 -4.3410
-18.7222 -29.5332 -4.1114
-18.1017 -35.1451 -4.6482
-12.0522 -39.3986 -4.8443
21.3556 -31.4230 -4.4671
20.9648 -25.5941 -3.8900
21.2475 -21.6650 -3.5679
23.8237 -20.3016 -3.6802
29.1357 -20.6410 -4.1983
23.4549 -8.5148 -2.9339
23.8558 -6.3170 -2.9016
24.3245 -4.1624 -2.9016
24.5989 -1.9747 -2.9016
24.6770 0.2289 -2.9016
24.5581 2.4306 -2.9016
24.3877 4.6405 -2.9189
33.2709 9.4739 -4.0674
24.8660 31.5324 -4.7216
19.7554 30.2608 -4.2490
-46.4075 -12.5464 -5.6524
-35.8576 -13.2282 -4.4938
-24.7092 -11.7171 -3.2153
-20.3649 -11.9918 -2.7787
-20.1019 -14.3981 -2.9072
-20.2989 -17.4803 -3.1497
-28.0847 -28.9349 -4.7411
-23.6798 -29.2164 -4.4218
-19.8020 -29.4642 -4.1740
-10.6982 -19.4738 -2.6124
21.2454 -33.1327 -4.6277
20.8796 -26.9275 -4.0063
21.1467 -22.7479 -3.6518
22.5352 -20.2680 -3.5636
27.3958 -20.5299 -4.0252
35.2461 -21.7906 -4.8722
23.4102 -9.2140 -2.9580
23.6784 -6.9525 -2.9016
24.2045 -4.8112 -2.9016
24.5373 -2.6315 -2.9016
24.6743 -0.4308 -2.9016
24.6142 1.7733 -2.9016
24.3577 3.9633 -2.9016
-7.0950 35.1264 -4.2135
-18.3051 46.0898 -5.8309
-14.4946 13.3911 -2.3202
-9.4293 0.2907 -1.1092
-38.3342 -12.9887 -4.7589
-26.2835 -11.6135 -3.3786
-21.5345 -11.9170 -2.8938
-20.0486 -13.5640 -2.8461
-20.2366 -16.5055 -3.0704
-29.5327 -28.8424 -4.8536
-24.9343 -29.1362 -4.5090
-20.9160 -29.3930 -4.2416
-17.5542 -30.0230 -4.0891
-18.2497 -38.7939 -5.0408
21.1270 -34.9713 -4.8039
20.7891 -28.3441 -4.1329
21.0719 -23.9189 -3.7480
21.7267 -20.6176 -3.5217
25.7925 -20.4274 -3.8685
21.0696 -23.9545 -3.5519
21.7103 -20.6349 -3.3348
25.7468 -20.4245 -3.6590
31.6578 -20.7979 -4.2172
23.9786 -10.2086 -2.9016
24.2633 -7.8558 -2.8395
24.4115 -5.5549 -2.7874
24.5556 -3.3194 -2.7588
24.6960 -1.1117 -2.7523
24.8365 1.1033 -2.7679
24.9796 3.3616 -2.8062
-16.8170 45.9947 -5.4524
-41.8430 -12.9050 -4.8752
-28.0906 -11.4987 -3.3793
-22.8457 -11.8332 -2.8645
-19.9960 -12.7405 -2.6398
-20.1756 -15.5510 -2.8361
-20.3858 -18.8415 -3.0906
-26.2798 -29.0502 -4.3614
-22.1023 -29.3172 -4.0877
-18.3901 -29.5544 -3.8755
-18.1555 -35.9875 -4.4877
20.6857 -29.8951 -4.0475
20.9905 -25.1918 -3.6508
21.3075 -21.3649 -3.3595
24.2659 -20.3298 -3.5245
29.7059 -20.6732 -4.0294
23.8178 -10.9012 -2.9163
24.2178 -8.5627 -2.8599
24.3678 -6.2345 -2.8004
24.5128 -3.9835 -2.7650
24.6542 -1.7712 -2.7520
24.7943 0.4379 -2.7609
24.9364 2.6793 -2.7923
25.5602 5.0860 -2.9016
17.3256 8.6823 -2.1576
4.2401 34.2721 -3.8448
-5.1168 35.0305 -3.9416
-15.4059 45.9045 -5.3910
-11.3070 13.9450 -1.9988
-45.3834 -12.6788 -5.2463
-34.9806 -13.2388 -4.1642
-24.2392 -11.7442 -2.9988
-20.0170 -12.0140 -2.5992
-20.1191 -14.6672 -2.7720
-20.3191 -17.7966 -3.0073
-27.6442 -28.9630 -4.4577
-23.2963 -29.2409 -4.1625
-19.4598 -29.4861 -3.9334
-17.9907 -33.4090 -4.2247
20.5823 -31.5139 -4.1907
20.9068 -26.5009 -3.7582
21.1694 -22.3929 -3.4309
22.8891 -20.2418 -3.4019
27.9258 -20.5637 -3.8612
34.8835 -21.1644 -4.5427
24.1716 -9.2805 -2.8827
24.3236 -6.9209 -2.8156
24.4698 -4.6510 -2.7732
24.6124 -2.4311 -2.7536
24.7523 -0.2247 -2.7559
24.8935 2.0033 -2.7805
25.0892 4.2985 -2.8340
19.5650 28.8006 -3.8765
19.4081 34.9149 -4.4475
-14.5490 13.2170 -2.1884
-37.6597 -13.1130 -4.4398
-25.7709 -11.6463 -3.1486
-21.1575 -11.9411 -2.7049
-20.0651 -13.8217 -2.7127
-20.2558 -16.8058 -2.9304
-29.0712 -28.8719 -4.5617
-24.5357 -29.1617 -4.2431
-20.5628 -29.4156 -3.9959
-17.8441 -31.1145 -3.9934
20.8441 -33.8584 -4.4268
20.8180 -27.8904 -3.8749
21.0957 -23.5450 -3.5197
21.9243 -20.4587 -3.3387
16.8242 -13.0966 -2.3738
33.6893 -21.6927 -4.4612
24.0713 -9.9882 -2.9016
24.2788 -7.6154 -2.8330
24.4265 -5.3230 -2.7834
24.5702 -3.0921 -2.7571
24.7104 -0.8853 -2.7529
24.8510 1.3325 -2.7708
24.9946 3.5974 -2.8115
-17.3090 46.0262 -5.4748
-9.4101 0.4631 -1.0490
-40.8590 -13.0132 -4.7742
-27.5802 -11.5864 -3.3306
-22.3956 -11.8620 -2.8216
-20.0133 -13.0112 -2.6577
-20.1956 -15.8639 -2.8593
-20.4096 -19.2136 -3.1208
-25.8250 -29.0793 -4.3300
-21.7022 -29.3428 -4.0634
-18.0300 -29.5774 -3.8567
-18.3068 -37.1307 -4.6091
20.7196 -29.3646 -4.0013
21.0181 -24.7594 -3.6159
21.4059 -21.0732 -3.3443
24.7618 -20.3615 -3.5693
30.3560 -20.7147 -4.0916
23.7957 -10.6281 -2.9016
24.2335 -8.3189 -2.8526
24.3828 -6.0005 -2.7957
24.5275 -3.7552 -2.7626
24.6686 -1.5449 -2.7519
24.8087 0.6659 -2.7631
24.9512 2.9128 -2.7968
25.5125 5.3203 -2.9016
17.1877 8.8114 -2.1504
0.8467 34.4964 -3.8418
-2.2525 34.6913 -3.8705
-5.4536 35.0824 -3.9529
-15.8867 45.9353 -5.4115
-24.3523 35.5113 -4.7940
-11.4345 13.8407 -1.9988
-43.9874 -12.7250 -5.0982
-29.3517 -11.4175 -3.5064
-23.7464 -11.7757 -2.9511
-19.9635 -12.2324 -2.6067
-20.1382 -14.9660 -2.7935
-20.3416 -18.1488 -3.0351
-27.1692 -28.9934 -4.4238
-22.8816 -29.2674 -4.1362
-19.0890 -29.5098 -3.9130
-18.0076 -34.1881 -4.3021
20.6186 -30.9455 -4.1401
20.9361 -26.0430 -3.7203
21.1938 -22.0106 -3.4020
23.3508 -20.2714 -3.4428
28.5220 -20.6018 -3.9173
24.1875 -9.0328 -2.8746
24.3388 -6.6845 -2.8101
24.4846 -4.4214 -2.7701
24.6268 -2.2045 -2.7528
24.7667 0.0025 -2.7574
24.9082 2.2347 -2.7843
25.1953 4.5550 -2.8506
-48.0185 -12.5104 -5.5247
-36.6323 -13.1333 -4.3327
-25.2282 -11.6810 -3.0953
-20.7558 -11.9668 -2.6675
-20.0833 -14.1078 -2.7326
-20.2771 -17.1402 -2.9561
-28.5740 -28.9036 -4.5251
-24.1048 -29.1892 -4.2147
-20.1803 -29.4400 -3.9739
-17.8926 -31.8734 -4.0696
21.2058 -33.7482 -4.4376
20.8491 -27.4039 -3.8337
21.1214 -23.1429 -3.4884
22.1765 -20.3166 -3.3485
16.9100 -12.9159 -2.3691
34.4545 -21.7408 -4.5359
24.1619 -9.7669 -2.9016
24.2942 -7.3760 -2.8267
24.4414 -5.0919 -2.7796
23.8216 -2.7761 -2.6702
24.7247 -0.6587 -2.7537
24.8655 1.5622 -2.7739
25.0096 3.8341 -2.8170
-17.8050 46.0578 -5.4977
-34.5227 14.4949 -4.1687
-9.3873 0.3757 -1.0460
-39.6885 -13.0427 -4.6513
-26.8729 -11.5805 -3.2579
-21.9589 -11.8899 -2.7802
-20.0308 -13.2857 -2.6761
-20.2159 -16.1820 -2.8830
-30.0457 -28.8096 -4.6345
-25.3764 -29.1080 -4.2994
-21.3068 -29.3680 -4.0396
-17.6733 -29.6002 -3.8383
-18.2811 -37.9527 -4.6902
15.6746 -32.8765 -4.0551
21.1213 -35.6976 -4.6180
20.7528 -28.8461 -3.9564
21.0452 -24.3352 -3.5820
21.5440 -20.8234 -3.3359
25.2705 -20.3940 -3.6155
31.0264 -20.7576 -4.1562
23.8922 -10.4093 -2.9016
24.2491 -8.0763 -2.8456
24.3979 -5.7673 -2.7912
24.5422 -3.5273 -2.7605
24.6829 -1.3186 -2.7520
24.8232 0.8943 -2.7655
24.9660 3.1469 -2.8016
25.4626 5.5542 -2.9016
-16.3712 45.9662 -5.4326
-43.0128 -12.8719 -4.9987
-28.6802 -11.4604 -3.4387
-23.2691 -11.8062 -2.9051
-19.9804 -12.4964 -2.6238
-20.1576 -15.2694 -2.8155
-20.3645 -18.5076 -3.0638
-26.7013 -29.0233 -4.3908
-22.4720 -29.2936 -4.1106
-18.7222 -29.5332 -3.8932
-18.1017 -35.1451 -4.4015
-12.0519 -39.3976 -4.5870
20.6540 -30.3908 -4.0910
20.9648 -25.5941 -3.6835
21.2475 -21.6650 -3.3785
23.8237 -20.3016 -3.4849
29.1358 -20.6410 -3.9754
24.2034 -8.7866 -2.8668
24.3540 -6.4490 -2.8049
24.4993 -4.1923 -2.7673
24.6411 -1.9781 -2.7523
24.7811 0.2299 -2.7592
24.9229 2.4667 -2.7884
25.6020 4.8715 -2.9016
33.2701 9.4736 -3.8514
24.8649 31.5310 -4.4708
19.7553 30.2608 -4.0235
-4.8217 35.0627 -3.9405
-15.2147 46.6268 -5.4606
-46.6077 -12.6005 -5.3754
-35.8576 -13.2282 -4.2553
-24.7036 -11.7145 -3.0440
-20.3649 -11.9918 -2.6312
-20.1019 -14.3981 -2.7529
-20.2989 -17.4803 -2.9825
-28.0847 -28.9349 -4.4895
-23.6798 -29.2164 -4.1871
-19.8020 -29.4642 -3.9525
-10.6978 -19.4732 -2.4737
20.5483 -32.0455 -4.2383
20.8796 -26.9275 -3.7937
21.1467 -22.7479 -3.4580
22.5352 -20.2680 -3.3745
27.3958 -20.5299 -3.8115
34.8588 -21.5512 -4.5629
24.1602 -9.5093 -2.8908
24.3096 -7.1378 -2.8208
24.4562 -4.8612 -2.7761
24.5993 -2.6382 -2.7545
24.7391 -0.4319 -2.7548
24.8801 1.7924 -2.7772
25.0494 4.0758 -2.8256
19.5935 28.3286 -3.8349
-7.0950 35.1264 -3.9899
-18.3051 46.0898 -5.5214
-14.4938 13.3904 -2.1970
-9.4290 0.2907 -1.0503
-38.3342 -12.9887 -4.5063
-26.2835 -11.6135 -3.1992
-21.5346 -11.9170 -2.7402
-20.0486 -13.5640 -2.6950
-20.2366 -16.5055 -2.9075
-29.5326 -28.8424 -4.5960
-24.9343 -29.1362 -4.2696
-20.9160 -29.3930 -4.0165
-17.5542 -30.0230 -3.8721
-18.2497 -38.7939 -4.7732
21.1270 -34.9713 -4.5489
20.7891 -28.3441 -3.9136
21.0719 -23.9189 -3.5491
21.7267 -20.6176 -3.3348
25.7925 -20.4274 -3.6632
21.0696 -23.9545 -3.3531
21.7102 -20.6349 -3.1481
25.7468 -20.4245 -3.4542
31.6578 -20.7979 -3.9812
24.3751 -10.3774 -2.7844
24.2633 -7.8558 -2.6805
24.4116 -5.5549 -2.6313
24.5556 -3.3194 -2.6044
24.6960 -1.1117 -2.5983
24.8365 1.1033 -2.6130
24.9796 3.3616 -2.6491
-6.0860 35.0808 -3.7422
-16.8170 45.9947 -5.1472
-41.8430 -12.9050 -4.6023
-28.0906 -11.4987 -3.1902
-22.8457 -11.8332 -2.7042
-19.9960 -12.7405 -2.4920
-20.1756 -15.5510 -2.6774
-20.3858 -18.8414 -2.9176
-26.2798 -29.0502 -4.1173
-22.1023 -29.3172 -3.8589
-18.3900 -29.5544 -3.6586
-18.1555 -35.9876 -4.2365
20.6857 -29.8951 -3.8210
20.9905 -25.1918 -3.4464
21.3075 -21.3649 -3.1714
24.2659 -20.3298 -3.3272
29.7060 -20.6732 -3.8039
24.2178 -8.5627 -2.6998
24.3678 -6.2345 -2.6437
24.5128 -3.9835 -2.6102
24.6542 -1.7712 -2.5979
24.7943 0.4379 -2.6064
24.9364 2.6793 -2.6360
27.0758 5.3875 -2.9016
17.3255 8.6823 -2.0368
-15.4059 45.9045 -5.0892
-11.3070 13.9450 -1.8869
-45.3834 -12.6788 -4.9526
-34.9806 -13.2388 -3.9311
-24.2392 -11.7442 -2.8309
-20.0170 -12.0140 -2.4537
-20.1191 -14.6672 -2.6169
-20.3191 -17.7966 -2.8390
-27.6442 -28.9630 -4.2082
-23.2963 -29.2409 -3.9295
-19.4598 -29.4861 -3.7132
-17.9907 -33.4090 -3.9882
20.5823 -31.5139 -3.9561
20.9068 -26.5009 -3.5478
21.1694 -22.3928 -3.2388
22.8891 -20.2418 -3.2115
27.9258 -20.5637 -3.6450
34.5882 -20.9852 -4.2521
24.1716 -9.2805 -2.7214
24.3236 -6.9209 -2.6580
24.4698 -4.6510 -2.6179
24.6124 -2.4311 -2.5995
24.7523 -0.2247 -2.6017
24.8935 2.0033 -2.6249
25.0892 4.2985 -2.6754
19.6437 28.9165 -3.6742
19.4074 34.9137 -4.1984
-14.5486 13.2167 -2.0659
-37.6598 -13.1130 -4.1913
-25.7709 -11.6463 -2.9724
-21.1575 -11.9411 -2.5535
-20.0651 -13.8217 -2.5609
-20.2558 -16.8058 -2.7663
-20.4817 -20.3412 -3.0340
-24.5357 -29.1617 -4.0056
-20.5628 -29.4156 -3.7722
-17.8441 -31.1144 -3.7699
20.4712 -33.2526 -4.1042
20.8181 -27.8904 -3.6580
21.0957 -23.5450 -3.3227
21.9243 -20.4587 -3.1518
16.8234 -13.0960 -2.2408
32.3705 -20.8435 -4.0466
24.1871 -10.0363 -2.7523
24.2788 -7.6154 -2.6744
24.4265 -5.3230 -2.6276
24.5702 -3.0921 -2.6028
24.7104 -0.8853 -2.5988
24.8510 1.3325 -2.6157
24.9946 3.5974 -2.6541
-17.3090 46.0262 -5.1683
-9.4099 0.4631 -0.9902
-40.8590 -13.0132 -4.5070
-27.4659 -11.5384 -3.1312
-22.3956 -11.8620 -2.6637
-20.0133 -13.0112 -2.5089
-20.1956 -15.8639 -2.6992
-20.4096 -19.2136 -2.9461
-25.8250 -29.0793 -4.0876
-21.7022 -29.3428 -3.8359
-18.0300 -29.5774 -3.6408
-18.1628 -36.8387 -4.3169
20.3513 -35.1279 -4.2670
20.7196 -29.3646 -3.7773
21.0181 -24.7594 -3.4135
21.4059 -21.0732 -3.1571
24.7618 -20.3615 -3.3695
30.3560 -20.7147 -3.8626
25.2066 -11.2583 -2.9016
24.2335 -8.3189 -2.6929
24.3828 -6.0005 -2.6392
24.5275 -3.7552 -2.6080
24.6686 -1.5449 -2.5978
24.8087 0.6659 -2.6084
24.9512 2.9128 -2.6403
17.1877 8.8114 -2.0301
-2.2656 34.8931 -3.6751
-15.8867 45.9353 -5.1086
-24.3517 35.5105 -4.5256
-11.4345 13.8407 -1.8869
-43.9874 -12.7250 -4.8128
-29.3517 -11.4175 -3.3102
-23.7464 -11.7757 -2.7859
-19.9635 -12.2324 -2.4608
-20.1382 -14.9660 -2.6371
-20.3416 -18.1488 -2.8652
-27.1692 -28.9934 -4.1762
-22.8816 -29.2674 -3.9047
-19.0890 -29.5098 -3.6940
-18.0451 -34.2593 -4.0698
20.6186 -30.9455 -3.9083
20.9361 -26.0430 -3.5121
21.1938 -22.0106 -3.2115
23.3508 -20.2714 -3.2501
28.5220 -20.6018 -3.6980
24.1875 -9.0328 -2.7137
24.3388 -6.6845 -2.6528
24.4846 -4.4214 -2.6151
24.6268 -2.2045 -2.5987
24.7667 0.0025 -2.6031
24.9082 2.2347 -2.6285
25.1953 4.5550 -2.6911
19.5920 29.4175 -3.7149
-48.0185 -12.5104 -5.2154
-36.6323 -13.1333 -4.0902
-25.2282 -11.6810 -2.9220
-20.7558 -11.9668 -2.5181
-20.0833 -14.1078 -2.5796
-20.2771 -17.1402 -2.7906
-20.5074 -20.7440 -3.0659
-24.1048 -29.1892 -3.9788
-20.1802 -29.4400 -3.7514
-17.8926 -31.8733 -3.8418
20.5102 -32.6413 -4.0518
20.8491 -27.4039 -3.6191
21.1214 -23.1429 -3.2932
22.1765 -20.3166 -3.1611
16.9095 -12.9156 -2.2364
33.1070 -20.8905 -4.1145
24.1732 -9.7715 -2.7404
24.2942 -7.3760 -2.6685
24.4414 -5.0919 -2.6240
23.8216 -2.7761 -2.5207
24.7247 -0.6587 -2.5996
24.8655 1.5622 -2.6186
25.0096 3.8341 -2.6593
-17.8050 46.0578 -5.1900
-34.5215 14.4944 -3.9352
-9.3870 0.3757 -0.9874
-39.6885 -13.0427 -4.3909
-26.8635 -11.5765 -3.0745
-21.9589 -11.8899 -2.6246
-20.0308 -13.2857 -2.5263
-20.2159 -16.1820 -2.7217
-20.4339 -19.5932 -2.9755
-25.3764 -29.1080 -4.0588
-21.3068 -29.3680 -3.8135
-17.6733 -29.6002 -3.6235
-18.2811 -37.9527 -4.4276
15.6740 -32.8753 -3.8280
20.3935 -34.4676 -4.2093
20.7528 -28.8461 -3.7349
21.0452 -24.3352 -3.3815
21.5440 -20.8234 -3.1492
25.2705 -20.3940 -3.4131
31.0264 -20.7576 -3.9235
25.3089 -11.0265 -2.9016
24.2491 -8.0763 -2.6863
24.3979 -5.7673 -2.6350
24.5422 -3.5273 -2.6060
24.6829 -1.3186 -2.5980
24.8232 0.8943 -2.6107
24.9660 3.1469 -2.6448
-5.7819 35.0708 -3.7358
-16.3712 45.9662 -5.1285
-43.0128 -12.8719 -4.7189
-28.6802 -11.4604 -3.2462
-23.2691 -11.8062 -2.7425
-19.9804 -12.4964 -2.4769
-20.1576 -15.2694 -2.6579
-20.3645 -18.5076 -2.8923
-26.7013 -29.0233 -4.1451
-22.4720 -29.2936 -3.8805
-18.7222 -29.5332 -3.6752
-18.1017 -35.1451 -4.1551
-12.0516 -39.3967 -4.3302
20.6540 -30.3907 -3.8620
20.9648 -25.5941 -3.4773
21.2475 -21.6650 -3.1894
23.8237 -20.3016 -3.2898
29.1357 -20.6410 -3.7529
24.2034 -8.7865 -2.7063
24.3540 -6.4490 -2.6479
24.4993 -4.1923 -2.6124
24.6411 -1.9781 -2.5982
24.7811 0.2299 -2.6047
24.9229 2.4667 -2.6323
27.1200 5.1604 -2.9016
33.2693 9.4734 -3.6357
24.8638 31.5296 -4.2203
19.7554 30.2608 -3.7983
-15.2147 46.6268 -5.1550
-46.3202 -12.5228 -5.0432
-35.8576 -13.2282 -4.0171
-24.7036 -11.7145 -2.8736
-20.3649 -11.9917 -2.4840
-20.1019 -14.3981 -2.5988
-20.2989 -17.4803 -2.8156
-28.0847 -28.9349 -4.2382
-23.6798 -29.2164 -3.9527
-19.8020 -29.4642 -3.7312
-10.6975 -19.4726 -2.3352
20.5483 -32.0455 -4.0011
20.8796 -26.9275 -3.5813
21.1467 -22.7479 -3.2644
22.5352 -20.2680 -3.1856
27.3958 -20.5299 -3.5982
33.8690 -20.9392 -4.1852
24.1602 -9.5093 -2.7290
24.3096 -7.1378 -2.6629
24.4562 -4.8612 -2.6207
24.5993 -2.6382 -2.6003
24.7391 -0.4319 -2.6006
24.8801 1.7924 -2.6218
25.0494 4.0758 -2.6674
-7.0950 35.1264 -3.7666
-18.3051 46.0898 -5.2123
-14.4931 13.3898 -2.0739
-9.4288 0.2907 -0.9915
-38.3342 -12.9887 -4.2541
-26.2834 -11.6135 -3.0202
-21.5346 -11.9170 -2.5868
-20.0486 -13.5640 -2.5442
-20.2366 -16.5055 -2.7447
-20.4586 -19.9804 -3.0056
-24.9343 -29.1362 -4.0306
-20.9160 -29.3930 -3.7917
-17.5542 -30.0230 -3.6554
-18.2497 -38.7939 -4.5061
20.4346 -33.8251 -4.1536
20.7891 -28.3441 -3.6945
21.0719 -23.9188 -3.3504
21.7267 -20.6176 -3.1481
25.7925 -20.4274 -3.4581
21.0696 -23.9545 -3.1545
21.7103 -20.6349 -2.9617
25.7468 -20.4245 -3.2496
31.6578 -20.7979 -3.7454
24.3751 -10.3774 -2.6195
24.2633 -7.8558 -2.5218
24.4116 -5.5549 -2.4755
24.5556 -3.3194 -2.4501
24.6960 -1.1117 -2.4444
24.8365 1.1033 -2.4582
24.9796 3.3616 -2.4922
-16.8170 45.9947 -4.8424
-41.8430 -12.9050 -4.3298
-28.0892 -11.4981 -3.0012
-22.8457 -11.8332 -2.5440
-19.9960 -12.7405 -2.3444
-20.1756 -15.5510 -2.5188
-20.3858 -18.8414 -2.7449
-26.2798 -29.0502 -3.8735
-22.1023 -29.3172 -3.6304
-18.3900 -29.5544 -3.4419
-18.1555 -35.9875 -3.9857
20.3792 -35.9322 -4.0846
20.6857 -29.8951 -3.5947
20.9905 -25.1918 -3.2423
21.3075 -21.3649 -2.9836
24.2659 -20.3298 -3.1302
29.7060 -20.6732 -3.5786
24.2178 -8.5627 -2.5399
24.3678 -6.2345 -2.4871
24.5128 -3.9835 -2.4556
24.6542 -1.7712 -2.4441
24.7943 0.4379 -2.4520
24.9364 2.6793 -2.4799
17.3256 8.6823 -1.9162
-15.4059 45.9045 -4.7878
-11.3070 13.9450 -1.7752
-45.3835 -12.6787 -4.6594
-34.9806 -13.2388 -3.6983
-24.2392 -11.7442 -2.6633
-20.0170 -12.0140 -2.3084
-20.1191 -14.6672 -2.4619
-20.3191 -17.7966 -2.6708
-27.6441 -28.9631 -3.9590
-23.2963 -29.2409 -3.6968
-19.4598 -29.4861 -3.4933
-17.9907 -33.4090 -3.7520
20.5823 -31.5139 -3.7218
20.9068 -26.5009 -3.3377
21.1694 -22.3929 -3.0470
22.8891 -20.2418 -3.0213
27.9258 -20.5637 -3.4292
34.5882 -20.9852 -4.0003
24.1716 -9.2805 -2.5602
24.3236 -6.9209 -2.5006
24.4698 -4.6510 -2.4629
24.6124 -2.4311 -2.4455
24.7523 -0.2247 -2.4476
24.8935 2.0033 -2.4694
25.0892 4.2985 -2.5170
19.4068 34.9126 -3.9496
-14.5482 13.2163 -1.9435
-37.6597 -13.1130 -3.9431
-25.7709 -11.6463 -2.7964
-21.1575 -11.9411 -2.4023
-20.0651 -13.8217 -2.4092
-20.2558 -16.8058 -2.6025
-29.0712 -28.8719 -4.0513
-24.5357 -29.1617 -3.7684
-20.5628 -29.4156 -3.5488
-17.8441 -31.1145 -3.5466
20.4712 -33.2526 -3.8611
20.8181 -27.8904 -3.4414
21.0957 -23.5450 -3.1259
21.9243 -20.4587 -2.9651
16.8227 -13.0954 -2.1080
32.3705 -20.8435 -3.8069
24.1871 -10.0363 -2.5893
24.2788 -7.6154 -2.5160
24.4265 -5.3230 -2.4720
24.5702 -3.0921 -2.4487
24.7104 -0.8853 -2.4449
24.8510 1.3325 -2.4608
24.9946 3.5974 -2.4969
-6.4272 35.1303 -3.5313
-17.3090 46.0262 -4.8622
-9.4097 0.4631 -0.9316
-40.8590 -13.0132 -4.2401
-27.4650 -11.5380 -2.9457
-22.3956 -11.8620 -2.5059
-20.0133 -13.0112 -2.3604
-20.1956 -15.8639 -2.5394
-20.4096 -19.2136 -2.7717
-25.8250 -29.0793 -3.8456
-21.7022 -29.3428 -3.6088
-18.0300 -29.5774 -3.4252
-18.2169 -36.9484 -4.0734
20.3513 -35.1279 -4.0143
20.7196 -29.3646 -3.5536
21.0181 -24.7594 -3.2114
21.4059 -21.0732 -2.9702
24.7618 -20.3615 -3.1699
30.3560 -20.7147 -3.6339
24.2335 -8.3189 -2.5335
24.3828 -6.0005 -2.4829
24.5275 -3.7552 -2.4535
24.6686 -1.5449 -2.4440
24.8087 0.6659 -2.4540
24.9512 2.9128 -2.4839
17.1877 8.8114 -1.9098
-15.8867 45.9353 -4.8061
-24.3511 35.5096 -4.2575
-11.4345 13.8407 -1.7752
-43.9874 -12.7250 -4.5278
-29.3517 -11.4175 -3.1141
-23.7464 -11.7757 -2.6209
-19.9635 -12.2324 -2.3151
-20.1382 -14.9660 -2.4809
-20.3416 -18.1488 -2.6956
-27.1692 -28.9934 -3.9289
-22.8816 -29.2674 -3.6734
-19.0890 -29.5098 -3.4752
-18.0451 -34.2593 -3.8287
20.6186 -30.9455 -3.6769
20.9361 -26.0430 -3.3041
21.1938 -22.0106 -3.0213
23.3508 -20.2714 -3.0576
28.5220 -20.6018 -3.4790
35.4024 -21.0372 -4.0720
24.1875 -9.0328 -2.5530
24.3388 -6.6845 -2.4957
24.4846 -4.4214 -2.4602
24.6268 -2.2045 -2.4448
24.7667 0.0025 -2.4489
24.9082 2.2347 -2.4728
25.1953 4.5550 -2.5317
19.6747 29.5416 -3.5096
-48.0185 -12.5104 -4.9066
-36.6323 -13.1333 -3.8480
-25.2282 -11.6810 -2.7490
-20.7558 -11.9668 -2.3690
-20.0833 -14.1078 -2.4268
-20.2771 -17.1402 -2.6254
-20.5074 -20.7440 -2.8843
-24.1048 -29.1892 -3.7432
-20.1802 -29.4400 -3.5293
-17.8926 -31.8733 -3.6143
20.5102 -32.6413 -3.8119
20.8491 -27.4039 -3.4048
21.1214 -23.1429 -3.0981
22.1765 -20.3166 -2.9739
16.9090 -12.9152 -2.1039
33.1070 -20.8905 -3.8709
24.1732 -9.7715 -2.5781
24.2942 -7.3760 -2.5105
24.4414 -5.0919 -2.4687
23.8216 -2.7761 -2.3714
24.7247 -0.6587 -2.4457
24.8655 1.5622 -2.4636
25.0096 3.8341 -2.5018
-6.7557 35.1031 -3.5347
-17.8050 46.0578 -4.8827
-34.5202 14.4939 -3.7020
-9.3868 0.3757 -0.9289
-39.6885 -13.0427 -4.1309
-26.8635 -11.5765 -2.8924
-21.9589 -11.8899 -2.4692
-20.0308 -13.2857 -2.3767
-20.2159 -16.1820 -2.5605
-30.0457 -28.8096 -4.1160
-25.3764 -29.1080 -3.8184
-21.3068 -29.3680 -3.5877
-17.6733 -29.6002 -3.4089
-18.2811 -37.9527 -4.1654
15.6734 -32.8740 -3.6011
20.3935 -34.4676 -3.9600
20.7528 -28.8461 -3.5138
21.0452 -24.3352 -3.1813
21.5440 -20.8234 -2.9627
25.2705 -20.3940 -3.2110
31.0264 -20.7576 -3.6912
24.2491 -8.0763 -2.5272
24.3979 -5.7673 -2.4789
24.5422 -3.5273 -2.4517
24.6829 -1.3186 -2.4441
24.8232 0.8943 -2.4561
24.9660 3.1469 -2.4882
-16.3712 45.9662 -4.8248
-43.0128 -12.8718 -4.4395
-28.6802 -11.4604 -3.0539
-23.2691 -11.8062 -2.5801
-19.9804 -12.4964 -2.3303
-20.1576 -15.2694 -2.5005
-20.3645 -18.5076 -2.7210
-26.7013 -29.0233 -3.8996
-22.4720 -29.2936 -3.6507
-18.7222 -29.5332 -3.4576
-18.1017 -35.1451 -3.9090
-12.0513 -39.3957 -4.0737
20.6540 -30.3907 -3.6333
20.9648 -25.5941 -3.2714
21.2475 -21.6650 -3.0005
23.8237 -20.3016 -3.0950
29.1357 -20.6410 -3.5307
36.2465 -21.0912 -4.1467
24.2034 -8.7865 -2.5461
24.3540 -6.4490 -2.4911
24.4993 -4.1923 -2.4577
24.6411 -1.9781 -2.4444
24.7811 0.2299 -2.4505
24.8693 2.4614 -2.4711
33.2685 9.4732 -3.4204
24.8627 31.5283 -3.9702
19.6198 30.0531 -3.5488
-15.2147 46.6268 -4.8497
-46.4532 -12.5587 -4.7582
-35.8576 -13.2282 -3.7792
-24.7036 -11.7145 -2.7034
-20.3649 -11.9918 -2.3369
-20.1019 -14.3981 -2.4449
-20.2989 -17.4803 -2.6488
-28.0847 -28.9349 -3.9872
-23.6798 -29.2164 -3.7186
-19.8020 -29.4642 -3.5103
-10.6971 -19.4719 -2.1968
20.5483 -32.0455 -3.7641
20.8796 -26.9275 -3.3693
21.1467 -22.7479 -3.0711
22.5352 -20.2680 -2.9969
27.3958 -20.5299 -3.3851
33.8690 -20.9392 -3.9373
24.1602 -9.5093 -2.5673
24.3096 -7.1378 -2.5052
24.4562 -4.8612 -2.4655
24.5993 -2.6382 -2.4463
24.7391 -0.4319 -2.4466
24.8801 1.7924 -2.4665
25.0494 4.0758 -2.5095
-7.0950 35.1264 -3.5436
-18.3051 46.0898 -4.9036
-14.4924 13.3891 -1.9510
-9.4285 0.2907 -0.9327
-38.3342 -12.9887 -4.0022
-26.2835 -11.6135 -2.8413
-21.5346 -11.9170 -2.4336
-20.0486 -13.5640 -2.3935
-20.2366 -16.5055 -2.5822
-29.5326 -28.8424 -4.0818
-24.9343 -29.1362 -3.7920
-20.9160 -29.3930 -3.5671
-17.5542 -30.0230 -3.4389
-18.2497 -38.7939 -4.2392
20.4346 -33.8251 -3.9076
20.7891 -28.3441 -3.4757
21.0719 -23.9189 -3.1520
21.7267 -20.6176 -2.9617
25.7924 -20.4274 -3.2533
21.0696 -23.9545 -2.9562
22.2634 -21.1606 -2.8462
25.7468 -20.4245 -3.0453
31.6578 -20.7979 -3.5099
24.3751 -10.3774 -2.4549
24.2633 -7.8558 -2.3632
24.4116 -5.5549 -2.3199
24.5556 -3.3194 -2.2961
24.6960 -1.1117 -2.2907
24.8365 1.1033 -2.3037
24.9796 3.3616 -2.3356
-16.8170 45.9947 -4.5380
-41.8431 -12.9050 -4.0576
-28.0892 -11.4981 -2.8125
-22.8457 -11.8332 -2.3841
-19.9960 -12.7405 -2.1970
-20.1756 -15.5510 -2.3604
-20.3858 -18.8414 -2.5723
-26.2798 -29.0502 -3.6299
-22.1023 -29.3172 -3.4022
-18.3900 -29.5544 -3.2255
-18.1555 -35.9876 -3.7351
20.3792 -35.9322 -3.8278
20.6857 -29.8951 -3.3687
20.9905 -25.1918 -3.0385
21.9581 -22.0172 -2.8814
24.2660 -20.3298 -2.9334
29.7060 -20.6732 -3.3536
24.2178 -8.5627 -2.3803
24.3678 -6.2345 -2.3307
24.5128 -3.9835 -2.3012
24.6542 -1.7712 -2.2904
24.7943 0.4379 -2.2979
24.9364 2.6793 -2.3240
17.3256 8.6823 -1.7958
-15.4060 45.9045 -4.4868
-11.3070 13.9450 -1.6636
-45.3834 -12.6788 -4.3664
-34.9806 -13.2388 -3.4658
-24.2392 -11.7442 -2.4958
-20.0170 -12.0140 -2.1633
-20.1191 -14.6672 -2.3071
-20.3191 -17.7966 -2.5029
-27.6441 -28.9630 -3.7101
-23.2963 -29.2409 -3.4644
-19.4598 -29.4861 -3.2737
-17.9907 -33.4090 -3.5161
20.5823 -31.5139 -3.4878
20.9068 -26.5009 -3.1279
21.4767 -22.7180 -2.8969
23.4189 -20.7104 -2.8969
27.9258 -20.5637 -3.2136
34.5882 -20.9852 -3.7488
24.1716 -9.2805 -2.3992
24.3236 -6.9209 -2.3434
24.4698 -4.6510 -2.3081
24.6124 -2.4311 -2.2918
24.7523 -0.2247 -2.2937
24.8935 2.0033 -2.3142
25.0892 4.2985 -2.3587
19.4062 34.9115 -3.7012
-14.5478 13.2160 -1.8213
-37.6598 -13.1130 -3.6952
-25.7710 -11.6463 -2.6206
-21.1575 -11.9411 -2.2512
-20.0651 -13.8217 -2.2577
-20.2558 -16.8058 -2.4389
-29.0712 -28.8718 -3.7966
-24.5357 -29.1617 -3.5315
-20.5628 -29.4156 -3.3257
-17.8893 -31.1933 -3.3321
20.4712 -33.2526 -3.6184
20.8181 -27.8904 -3.2250
21.0957 -23.5450 -2.9294
22.5238 -21.0181 -2.8547
16.8220 -13.0949 -1.9754
32.3705 -20.8435 -3.5676
24.1871 -10.0363 -2.4265
24.2788 -7.6154 -2.3578
24.4265 -5.3230 -2.3166
24.5702 -3.0921 -2.2947
24.7104 -0.8853 -2.2912
24.8510 1.3325 -2.3061
24.9946 3.5974 -2.3399
-17.3090 46.0262 -4.5566
-9.4094 0.4631 -0.8730
-40.8589 -13.0132 -3.9735
-27.4650 -11.5380 -2.7605
-22.3956 -11.8620 -2.3484
-20.0133 -13.0112 -2.2120
-20.1956 -15.8639 -2.3797
-20.4096 -19.2136 -2.5974
-25.8250 -29.0793 -3.6038
-21.7022 -29.3428 -3.3819
-18.0300 -29.5774 -3.2098
-18.2169 -36.9484 -3.8173
20.3513 -35.1279 -3.7619
20.7196 -29.3646 -3.3302
21.0181 -24.7594 -3.0095
22.0170 -21.6749 -2.8629
24.7618 -20.3615 -2.9706
30.3560 -20.7147 -3.4054
24.2335 -8.3189 -2.3742
24.3828 -6.0005 -2.3268
24.5275 -3.7552 -2.2993
24.6686 -1.5449 -2.2904
24.8087 0.6659 -2.2997
24.9512 2.9128 -2.3278
17.1877 8.8114 -1.7898
-15.8867 45.9353 -4.5039
-24.3505 35.5087 -3.9897
-11.4345 13.8407 -1.6636
-43.9874 -12.7250 -4.2432
-29.3517 -11.4175 -2.9184
-23.7464 -11.7757 -2.4561
-19.9635 -12.2324 -2.1695
-20.1382 -14.9660 -2.3250
-20.3416 -18.1488 -2.5261
-27.1692 -28.9934 -3.6819
-22.8816 -29.2674 -3.4425
-19.0890 -29.5098 -3.2567
-18.0451 -34.2593 -3.5880
20.6186 -30.9455 -3.4457
20.9361 -26.0430 -3.0964
21.6843 -22.5200 -2.8969
23.6079 -20.4946 -2.8969
28.5220 -20.6018 -3.2603
35.4024 -21.0372 -3.8160
24.1875 -9.0328 -2.3925
24.3388 -6.6845 -2.3388
24.4846 -4.4215 -2.3055
24.6268 -2.2045 -2.2911
24.7667 0.0025 -2.2950
24.9082 2.2347 -2.3173
25.1953 4.5550 -2.3725
-48.0185 -12.5104 -4.5981
-36.6323 -13.1333 -3.6060
-25.2282 -11.6810 -2.5762
-20.7558 -11.9668 -2.2201
-20.0833 -14.1078 -2.2743
-20.2771 -17.1402 -2.4603
-20.5074 -20.7440 -2.7030
-24.1048 -29.1892 -3.5079
-20.1802 -29.4400 -3.3074
-17.9185 -31.9195 -3.3920
20.5102 -32.6413 -3.5722
20.8491 -27.4039 -3.1907
21.1214 -23.1429 -2.9034
22.9291 -21.0061 -2.8815
16.9085 -12.9149 -1.9716
33.1070 -20.8905 -3.6275
24.1732 -9.7715 -2.4161
24.2942 -7.3760 -2.3527
24.4414 -5.0919 -2.3135
23.8216 -2.7761 -2.2223
24.7247 -0.6587 -2.2919
24.8655 1.5622 -2.3087
25.0096 3.8341 -2.3445
-17.8050 46.0578 -4.5757
-34.5190 14.4934 -3.4692
-9.3865 0.3757 -0.8705
-39.6885 -13.0427 -3.8712
-26.8635 -11.5765 -2.7106
-21.9589 -11.8899 -2.3139
-20.0308 -13.2857 -2.2273
-20.2159 -16.1819 -2.3995
-30.0457 -28.8096 -3.8572
-25.3764 -29.1080 -3.5784
-21.3067 -29.3680 -3.3621
-17.6733 -29.6002 -3.1946
-18.2811 -37.9527 -3.9036
15.6728 -32.8728 -3.3746
20.3935 -34.4676 -3.7111
20.7528 -28.8461 -3.2929
21.0452 -24.3352 -2.9813
22.1068 -21.3674 -2.8490
25.2705 -20.3940 -3.0091
31.0264 -20.7576 -3.4591
24.0508 -8.0103 -2.3490
24.3979 -5.7673 -2.3231
24.5422 -3.5273 -2.2975
24.6829 -1.3186 -2.2905
24.8232 0.8943 -2.3017
24.9660 3.1469 -2.3317
-16.3712 45.9662 -4.5215
-43.0128 -12.8719 -4.1604
-28.6802 -11.4604 -2.8619
-23.2691 -11.8062 -2.4179
-19.9804 -12.4964 -2.1837
-20.1576 -15.2694 -2.3433
-20.3645 -18.5076 -2.5499
-26.7013 -29.0233 -3.6544
-22.4720 -29.2936 -3.4212
-18.7222 -29.5332 -3.2402
-18.1017 -35.1451 -3.6633
-12.0510 -39.3948 -3.8175
20.6540 -30.3907 -3.4049
20.9648 -25.5941 -3.0657
21.8900 -22.3201 -2.8969
23.8237 -20.3016 -2.9004
29.1357 -20.6410 -3.3087
36.2465 -21.0912 -3.8860
24.2034 -8.7865 -2.3860
24.3540 -6.4490 -2.3345
24.4993 -4.1923 -2.3032
24.6411 -1.9781 -2.2907
24.7811 0.2299 -2.2964
24.5552 2.4303 -2.2865
33.2677 9.4730 -3.2052
24.8617 31.5269 -3.7205
19.7137 30.1970 -3.3417
-15.2147 46.6268 -4.5448
-46.4532 -12.5587 -4.4591
-35.5982 -13.1325 -3.5160
-24.7037 -11.7145 -2.5335
-20.3649 -11.9917 -2.1899
-20.1019 -14.3981 -2.2912
-20.2989 -17.4803 -2.4823
-28.0847 -28.9349 -3.7365
-23.6798 -29.2164 -3.4849
-19.8020 -29.4642 -3.2896
-10.6968 -19.4713 -2.0586
20.5483 -32.0455 -3.5275
20.8796 -26.9275 -3.1574
21.2855 -22.8972 -2.8969
23.2445 -20.9059 -2.8969
27.3957 -20.5298 -3.1723
33.8690 -20.9392 -3.6898
24.1602 -9.5093 -2.4059
24.3096 -7.1378 -2.3477
24.4562 -4.8612 -2.3105
24.5993 -2.6382 -2.2925
24.7391 -0.4319 -2.2928
24.8801 1.7924 -2.3115
25.0494 4.0758 -2.3517
-7.0950 35.1264 -3.3207
-18.3051 46.0898 -4.5954
-14.4917 13.3884 -1.8282
-9.4283 0.2907 -0.8741
-38.3342 -12.9887 -3.7506
-26.2835 -11.6135 -2.6627
-21.5346 -11.9170 -2.2806
-20.0486 -13.5640 -2.2430
-20.2366 -16.5055 -2.4198
-29.5326 -28.8424 -3.8252
-24.9343 -29.1362 -3.5536
-20.9160 -29.3930 -3.3429
-17.5542 -30.0230 -3.2227
-18.2497 -38.7939 -3.9727
20.4346 -33.8251 -3.6619
20.7891 -28.3441 -3.2572
21.0719 -23.9189 -2.9538
22.2802 -21.1429 -2.8462
25.7924 -20.4274 -3.0488
21.7838 -24.7666 -2.8516
22.2633 -21.1606 -2.6555
26.2513 -20.8247 -2.8969
31.6578 -20.7979 -3.2747
24.3751 -10.3774 -2.2904
24.2633 -7.8558 -2.2049
24.4115 -5.5549 -2.1644
24.5556 -3.3194 -2.1422
24.6960 -1.1117 -2.1372
24.8365 1.1033 -2.1493
24.9796 3.3616 -2.1791
-16.8170 45.9947 -4.2339
-41.8431 -12.9050 -3.7857
-28.0892 -11.4981 -2.6240
-22.8457 -11.8332 -2.2243
-19.9960 -12.7405 -2.0498
-20.1756 -15.5510 -2.2023
-20.3858 -18.8415 -2.3999
-26.2798 -29.0502 -3.3867
-22.1023 -29.3172 -3.1742
-18.3900 -29.5544 -3.0094
-18.1555 -35.9876 -3.4848
20.3792 -35.9322 -3.5713
20.6857 -29.8951 -3.1430
21.4498 -25.7430 -2.8969
21.9581 -22.0172 -2.6883
25.2531 -21.1569 -2.8482
29.7060 -20.6732 -3.1289
24.2178 -8.5627 -2.2207
24.3678 -6.2345 -2.1746
24.5128 -3.9835 -2.1470
24.6542 -1.7712 -2.1370
24.7943 0.4379 -2.1439
24.9364 2.6793 -2.1683
17.3256 8.6823 -1.6754
-15.4059 45.9045 -4.1862
-11.3070 13.9450 -1.5521
-45.3835 -12.6787 -4.0738
-34.9806 -13.2388 -3.2336
-24.2392 -11.7442 -2.3286
-20.0170 -12.0140 -2.0183
-20.1191 -14.6672 -2.1525
-20.3191 -17.7966 -2.3352
-27.6442 -28.9630 -3.4615
-23.2963 -29.2409 -3.2322
-19.4598 -29.4861 -3.0543
-17.9907 -33.4090 -3.2805
20.5823 -31.5139 -3.2541
20.9068 -26.5009 -2.9183
21.8862 -23.1511 -2.7543
23.8186 -21.0638 -2.7489
27.9258 -20.5637 -2.9982
34.5882 -20.9852 -3.4976
24.1716 -9.2805 -2.2385
24.3236 -6.9209 -2.1863
24.4698 -4.6510 -2.1534
24.6124 -2.4310 -2.1382
24.7523 -0.2247 -2.1400
24.8935 2.0033 -2.1591
25.0892 4.2985 -2.2007
19.4056 34.9104 -3.4531
-18.7659 46.1193 -4.3046
-14.5474 13.2156 -1.6992
-37.5496 -13.0747 -3.4375
-25.7709 -11.6463 -2.4450
-21.1575 -11.9411 -2.1004
-20.0651 -13.8217 -2.1064
-20.2558 -16.8058 -2.2755
-29.0712 -28.8718 -3.5422
-24.5357 -29.1617 -3.2948
-20.5628 -29.4156 -3.1029
-17.9428 -31.2865 -3.1181
20.4712 -33.2526 -3.3759
20.8180 -27.8904 -3.0089
21.8107 -24.3430 -2.8257
22.5238 -21.0181 -2.6634
16.8213 -13.0943 -1.8429
32.3705 -20.8435 -3.3285
24.1871 -10.0363 -2.2639
24.2788 -7.6154 -2.1998
24.4265 -5.3230 -2.1613
24.5702 -3.0921 -2.1409
24.7104 -0.8853 -2.1377
24.8510 1.3325 -2.1516
24.9946 3.5974 -2.1831
-17.3090 46.0261 -4.2512
-9.4092 0.4631 -0.8144
-40.8589 -13.0132 -3.7073
-27.4650 -11.5380 -2.5755
-22.3956 -11.8620 -2.1910
-20.0133 -13.0113 -2.0637
-20.1956 -15.8639 -2.2203
-20.4096 -19.2136 -2.4234
-25.8250 -29.0793 -3.3623
-21.7022 -29.3428 -3.1553
-18.0300 -29.5774 -2.9947
-18.2169 -36.9484 -3.5615
20.3513 -35.1279 -3.5098
20.7196 -29.3646 -3.1070
21.6851 -25.5451 -2.8969
22.0170 -21.6749 -2.6711
25.7699 -21.1904 -2.8844
30.3560 -20.7147 -3.1772
24.2335 -8.3189 -2.2151
24.3828 -6.0005 -2.1709
24.5275 -3.7552 -2.1452
24.6686 -1.5449 -2.1369
24.8087 0.6659 -2.1456
24.9512 2.9127 -2.1718
17.1877 8.8114 -1.6698
-15.8867 45.9353 -4.2021
-24.3499 35.5078 -3.7223
-11.4345 13.8407 -1.5521
-43.9874 -12.7250 -3.9588
-29.3517 -11.4175 -2.7228
-23.7464 -11.7757 -2.2915
-19.9635 -12.2324 -2.0242
-20.1382 -14.9660 -2.1692
-20.3416 -18.1488 -2.3568
-27.1692 -28.9934 -3.4352
-22.8816 -29.2674 -3.2118
-19.0890 -29.5098 -3.0385
-18.0834 -34.3320 -3.3547
20.6186 -30.9455 -3.2148
20.9945 -26.1156 -2.8969
21.9113 -22.7557 -2.7311
24.2996 -21.0950 -2.7820
28.5220 -20.6018 -3.0418
26.1648 -15.5479 -2.6313
24.1875 -9.0328 -2.2322
24.3388 -6.6845 -2.1821
24.4846 -4.4214 -2.1510
24.6268 -2.2045 -2.1376
24.7667 0.0025 -2.1412
24.9082 2.2347 -2.1621
25.1953 4.5550 -2.2135
-48.0185 -12.5104 -4.2900
-36.6323 -13.1333 -3.3644
-25.2282 -11.6810 -2.4035
-20.7558 -11.9668 -2.0713
-20.0833 -14.1078 -2.1219
-20.2771 -17.1402 -2.2954
-20.5074 -20.7440 -2.5218
-24.1048 -29.1892 -3.2728
-20.1802 -29.4400 -3.0858
-17.9915 -32.0496 -3.1776
20.5102 -32.6413 -3.3328
20.8491 -27.4039 -2.9769
21.8371 -23.9270 -2.8006
22.9291 -21.0061 -2.6884
16.9081 -12.9145 -1.8394
33.1070 -20.8905 -3.3844
24.1732 -9.7715 -2.2542
24.2942 -7.3760 -2.1950
24.4414 -5.0919 -2.1584
23.8216 -2.7761 -2.0734
24.7247 -0.6587 -2.1383
24.8655 1.5622 -2.1540
25.0096 3.8341 -2.1874
-17.8050 46.0578 -4.2691
-34.5178 14.4929 -3.2366
-9.3863 0.3757 -0.8121
-39.6885 -13.0427 -3.6118
-26.8635 -11.5765 -2.5289
-21.9589 -11.8899 -2.1589
-20.0308 -13.2857 -2.0780
-20.2159 -16.1820 -2.2387
-30.0456 -28.8096 -3.5988
-25.3764 -29.1080 -3.3386
-21.3067 -29.3680 -3.1368
-17.6733 -29.6002 -2.9805
-18.2811 -37.9527 -3.6420
15.6722 -32.8715 -3.1484
20.3935 -34.4676 -3.4624
20.7528 -28.8461 -3.0722
21.7589 -25.1604 -2.8758
22.1067 -21.3674 -2.6581
26.0758 -21.0439 -2.8969
31.0264 -20.7576 -3.2273
24.0508 -8.0103 -2.1916
24.3979 -5.7673 -2.1674
24.5422 -3.5273 -2.1436
24.6829 -1.3186 -2.1370
24.8232 0.8943 -2.1475
24.9660 3.1469 -2.1755
-16.3712 45.9662 -4.2185
-43.0128 -12.8718 -3.8816
-28.6802 -11.4604 -2.6702
-23.2691 -11.8062 -2.2558
-19.9804 -12.4964 -2.0374
-20.1576 -15.2694 -2.1863
-20.3645 -18.5076 -2.3791
-26.7013 -29.0233 -3.4095
-22.4720 -29.2936 -3.1919
-18.7222 -29.5332 -3.0231
-18.1017 -35.1451 -3.4178
-12.0507 -39.3939 -3.5616
20.6540 -30.3907 -3.1768
21.2333 -25.9219 -2.8969
21.9359 -22.3670 -2.7085
24.7923 -21.1270 -2.8161
29.1357 -20.6410 -3.0870
36.2465 -21.0912 -3.6256
24.2034 -8.7865 -2.2261
24.3540 -6.4490 -2.1781
24.4993 -4.1923 -2.1489
24.6411 -1.9781 -2.1372
24.7811 0.2299 -2.1425
24.5552 2.4303 -2.1333
33.2669 9.4727 -2.9904
24.8606 31.5255 -3.4710
19.7554 30.2608 -3.1243
-15.2147 46.6268 -4.2403
-46.4532 -12.5588 -4.1603
-35.7527 -13.1895 -3.2946
-24.7036 -11.7145 -2.3637
-20.3649 -11.9917 -2.0432
-20.1019 -14.3981 -2.1377
-20.2989 -17.4803 -2.3160
-28.0847 -28.9349 -3.4861
-23.6798 -29.2164 -3.2513
-19.8020 -29.4642 -3.0691
-10.6965 -19.4707 -1.9206
20.5483 -32.0455 -3.2911
20.8796 -26.9275 -2.9459
21.8630 -23.5184 -2.7761
