ply
format ascii 1.0
element vertex 2025
property float32 x
property float32 y
property float32 z
end_header
7.5405 12.2539 -2.6896
6.5610 13.1656 -2.7498
5.2450 13.4029 -2.6905
4.1418 14.2055 -2.7660
3.0548 15.5172 -2.9563
2.2734 21.5572 -4.0521
0.3249 20.6166 -3.8544
-1.6146 21.9116 -4.1071
-3.4527 21.0119 -3.9805
-5.4523 21.1604 -4.0848
-7.6749 21.5939 -4.2840
-10.1460 22.0758 -4.5417
-9.6562 -15.1557 -3.3593
1.3937 -24.0376 -4.5009
33.2925 -5.8242 -6.3180
17.9055 0.0974 -3.3472
21.5670 2.0496 -4.0497
19.5579 3.6411 -3.7188
17.7982 4.9905 -3.4554
16.0563 6.0930 -3.2103
17.9716 8.7257 -3.7345
17.4688 10.5026 -3.8102
16.0675 11.7306 -3.7188
12.9968 11.3977 -3.2314
9.9864 10.4746 -2.7053
8.9415 11.2347 -2.6841
7.9048 11.9889 -2.6844
6.8595 12.7493 -2.7063
5.6183 13.1313 -2.6699
4.5352 13.9193 -2.7366
3.4897 15.2008 -2.9155
2.9433 21.4526 -4.0478
0.9491 20.1625 -3.7732
-0.9101 21.5150 -4.0255
-2.9341 22.1690 -4.1802
-4.7420 21.1161 -4.0456
-6.8156 21.2614 -4.1737
-9.2472 21.9005 -4.4439
-11.9268 22.4231 -4.7477
33.4910 -3.8737 -6.3023
48.6389 -1.2572 -9.0952
22.4252 1.4253 -4.2005
19.8977 3.0639 -3.7634
18.2049 4.4955 -3.5053
16.5542 5.6964 -3.2726
17.2333 7.7109 -3.5292
18.0364 10.0897 -3.8633
16.4538 11.2410 -3.7250
13.4483 11.0692 -3.2560
10.3573 10.2047 -2.7180
9.3057 10.9698 -2.6891
8.2680 11.7246 -2.6819
7.2276 12.4815 -2.6962
6.2102 13.3444 -2.7514
5.0696 14.0514 -2.7924
3.9570 15.0600 -2.9108
3.5549 21.0077 -3.9829
1.6389 20.8837 -3.9158
-0.2312 21.0211 -3.9298
-2.2172 22.0292 -4.1388
-4.0071 20.8785 -3.9741
-6.1249 21.3858 -4.1584
-8.3855 21.7325 -4.3544
-10.9474 22.2321 -4.6324
33.3323 -4.9161 -6.2983
49.0561 -2.8051 -9.1852
23.3508 0.7520 -4.3673
20.8797 2.5496 -3.9321
19.0534 4.0774 -3.6423
17.2990 5.3537 -3.3851
16.5714 6.8010 -3.3485
18.6205 9.6647 -3.9217
16.9951 10.8472 -3.7689
13.9073 10.7353 -3.2842
12.6156 11.6750 -3.2132
9.6715 10.7036 -2.6967
8.6309 11.4607 -2.6819
7.5933 12.2155 -2.6887
6.6155 13.1259 -2.7477
5.2993 13.3634 -2.6873
4.1992 14.1637 -2.7616
3.1185 15.4708 -2.9502
2.3647 21.4908 -4.0416
0.4169 20.5497 -3.8422
-1.5136 21.8919 -4.1021
-3.3991 21.2871 -4.0297
-5.3617 21.2053 -4.0887
-4.7491 13.5562 -2.6851
-10.0135 22.0500 -4.5270
-27.1735 -10.6587 -5.4564
-31.1508 -15.5547 -6.5087
-9.7085 -15.0868 -3.3537
1.2866 -24.0746 -4.5067
33.2994 -5.9808 -6.3243
17.9458 0.0164 -3.3547
21.6873 1.9621 -4.0706
19.5742 3.5526 -3.7188
17.8847 4.9276 -3.4678
16.1004 6.0266 -3.2136
17.8595 8.5717 -3.7031
17.5499 10.4436 -3.8176
16.1205 11.6577 -3.7188
13.0617 11.3505 -3.2348
10.0398 10.4357 -2.7070
8.9942 11.1964 -2.6846
7.9574 11.9506 -2.6839
6.9129 12.7105 -2.7047
5.6719 13.0923 -2.6672
4.5915 13.8783 -2.7326
3.5915 15.3259 -2.9425
3.0330 21.3874 -4.0380
1.0372 20.0983 -3.7620
-0.8098 21.4420 -4.0111
-2.8295 22.1486 -4.1739
-4.6372 21.0956 -4.0376
-6.7142 21.2758 -4.1705
-9.1204 21.8758 -4.4305
-11.7822 22.3949 -4.7304
-21.1254 32.6969 -7.2769
29.6608 -15.3263 -6.2410
33.4414 -4.0214 -6.2963
48.6987 -1.4792 -9.1076
22.5547 1.3311 -4.2235
20.2309 3.0216 -3.8238
18.2949 4.4301 -3.5188
16.6327 5.6393 -3.2830
17.1331 7.5732 -3.5017
18.1198 10.0290 -3.8714
16.5313 11.1846 -3.7311
13.5143 11.0213 -3.2598
12.2384 11.9494 -3.1974
9.3585 10.9314 -2.6900
8.3205 11.6865 -2.6817
7.2806 12.4430 -2.6949
6.2919 13.3614 -2.7608
5.1265 14.0101 -2.7888
4.0181 15.0156 -2.9057
3.5827 20.6047 -3.9095
1.7463 21.0314 -3.9450
-0.1356 20.9516 -3.9166
-2.1146 22.0091 -4.1332
-3.9056 20.8587 -3.9669
-6.0143 21.3642 -4.1489
-8.2637 21.7087 -4.3421
-10.8096 22.2052 -4.6166
33.3163 -5.0679 -6.2995
23.4908 0.6501 -4.3929
20.9932 2.4671 -3.9513
19.1495 4.0074 -3.6572
17.3820 5.2933 -3.3966
16.4811 6.6770 -3.3241
18.5511 9.5224 -3.8980
17.0745 10.7894 -3.7756
13.9744 10.6865 -3.2886
12.6797 11.6284 -3.2161
9.7246 10.6650 -2.6980
8.6834 11.4225 -2.6822
7.6461 12.1771 -2.6878
6.6700 13.0863 -2.7457
5.3536 13.3239 -2.6842
4.2565 14.1220 -2.7572
3.1820 15.4247 -2.9441
2.4556 21.4247 -4.0312
0.5082 20.4832 -3.8302
-1.4134 21.8811 -4.0988
-3.3441 21.5688 -4.0801
-5.2628 21.2176 -4.0865
-4.6739 13.5375 -2.6772
-9.8819 22.0243 -4.5125
-46.4099 -4.7194 -8.7202
-27.2338 -10.5404 -5.4589
-31.1987 -15.4026 -6.5041
-9.7889 -15.0615 -3.3579
33.3644 -4.6128 -6.0817
48.8093 -2.3481 -8.8234
23.0755 0.9522 -4.1702
20.6562 2.7122 -3.7618
18.8634 4.2156 -3.4901
17.1346 5.4732 -3.2479
16.7558 7.0545 -3.2827
18.4497 9.7890 -3.7712
16.8372 10.9621 -3.6278
13.7737 10.8325 -3.1641
12.4876 11.7682 -3.0983
9.5655 10.7808 -2.6024
8.5259 11.5371 -2.5903
7.4877 12.2923 -2.5989
6.5064 13.2053 -2.6581
5.1905 13.4426 -2.6019
4.0841 14.2474 -2.6762
2.9909 15.5637 -2.8617
2.1816 21.6240 -3.9244
0.2324 20.6839 -3.7350
-1.7159 21.9314 -3.9721
-3.5116 20.7819 -3.8057
-5.5600 21.1814 -3.9542
-7.8335 21.7280 -4.1705
-10.2793 22.1018 -4.4013
-24.8802 8.5679 -4.7514
-25.3372 6.2632 -4.7127
-48.1991 -5.5634 -8.7608
32.4642 -33.0179 -8.3609
33.2857 -5.6679 -6.0967
17.9274 0.1786 -3.2372
21.4479 2.1363 -3.8919
19.5335 3.7281 -3.5907
17.7123 5.0530 -3.3258
16.1404 6.2086 -3.1226
18.0856 8.8824 -3.6382
17.6029 10.6919 -3.7188
16.1101 11.8738 -3.6137
12.9320 11.4449 -3.1182
9.9330 10.5134 -2.6116
8.8890 11.2729 -2.5922
7.8522 12.0272 -2.5935
6.8824 12.9318 -2.6451
5.5647 13.1703 -2.5817
4.4788 13.9603 -2.6473
3.4275 15.2460 -2.8216
2.8532 21.5182 -3.9194
0.8604 20.2270 -3.6556
-1.0111 21.5885 -3.9024
-3.0391 22.1895 -4.0440
-4.8471 21.1366 -3.9156
-7.0191 21.5602 -4.0941
-9.3748 21.9254 -4.3057
-24.7345 9.3929 -4.7774
-25.1716 7.0645 -4.7207
-25.6531 4.7822 -4.7118
-35.5996 -9.5565 -6.6556
33.2827 -6.7447 -6.1318
33.5407 -3.7258 -6.0935
48.4557 -1.0331 -8.7514
22.2971 1.5185 -4.0354
20.0541 3.1810 -3.6663
18.1155 4.5605 -3.3731
16.4763 5.7531 -3.1512
17.3351 7.8507 -3.4361
17.9533 10.1501 -3.7240
16.6466 11.4835 -3.6516
13.3826 11.1171 -3.1414
10.3035 10.2439 -2.6235
9.2529 11.0081 -2.5966
8.2155 11.7629 -2.5907
7.1745 12.5202 -2.6056
6.0457 13.1461 -2.6127
5.0126 14.0929 -2.7009
3.8958 15.1045 -2.8166
3.4676 21.0712 -3.8559
1.5331 20.7383 -3.7548
-0.3274 21.0911 -3.8088
-2.3200 22.0492 -4.0033
-4.1091 20.8984 -3.8458
-6.2361 21.4075 -4.0261
-8.5080 21.7563 -4.2181
-11.0862 22.2592 -4.4901
-25.0122 7.8715 -4.7347
-25.4789 5.5795 -4.7096
33.3483 -4.7644 -6.0827
48.8696 -2.5727 -8.8363
23.2123 0.8527 -4.1942
20.7675 2.6313 -3.7799
18.9580 4.1468 -3.5041
17.2165 5.4137 -3.2588
16.6629 6.9268 -3.2583
18.5350 9.7270 -3.7796
16.9160 10.9047 -3.6341
13.8404 10.7840 -3.1681
12.5515 11.7216 -3.1010
9.6185 10.7422 -2.6036
8.5784 11.4989 -2.5904
7.5405 12.2539 -2.5980
6.5610 13.1656 -2.6561
5.2450 13.4029 -2.5988
4.1418 14.2055 -2.6718
3.0548 15.5172 -2.8556
2.2734 21.5572 -3.9141
0.3249 20.6166 -3.7231
-1.6146 21.9116 -3.9672
-3.4527 21.0119 -3.8449
-5.4523 21.1604 -3.9456
-7.6749 21.5939 -4.1380
-10.1460 22.0758 -4.3869
-24.8589 8.6867 -4.7548
-25.3130 6.3789 -4.7135
-9.6557 -15.1550 -3.2447
1.3936 -24.0370 -4.3475
33.2925 -5.8242 -6.1027
17.9050 0.0974 -3.2331
21.5670 2.0496 -3.9118
19.6337 3.6552 -3.6061
17.7982 4.9905 -3.3377
16.0563 6.0930 -3.1009
17.9716 8.7257 -3.6073
17.6511 10.6122 -3.7188
16.1870 11.8178 -3.6189
12.9968 11.3977 -3.1213
9.9864 10.4746 -2.6132
8.9415 11.2347 -2.5927
7.9048 11.9889 -2.5930
6.8595 12.7493 -2.6141
5.6183 13.1313 -2.5790
4.5352 13.9193 -2.6434
3.4897 15.2008 -2.8161
2.9433 21.4526 -3.9099
0.9491 20.1625 -3.6447
-0.9101 21.5150 -3.8883
-2.9341 22.1690 -4.0378
-4.7420 21.1161 -3.9078
-6.9042 21.5378 -4.0839
-9.2472 21.9005 -4.2925
-11.9268 22.4231 -4.5859
-24.7176 9.5147 -4.7824
-25.1487 7.1810 -4.7225
-25.6276 4.8975 -4.7112
32.8740 -6.8169 -6.0622
33.4910 -3.8737 -6.0876
48.5151 -1.2540 -8.7630
22.4252 1.4253 -4.0574
20.1247 3.0989 -3.6766
18.2049 4.4955 -3.3859
16.5542 5.6964 -3.1611
17.2333 7.7109 -3.4090
18.0364 10.0897 -3.7317
16.7252 11.4263 -3.6575
13.4483 11.0692 -3.1451
10.3573 10.2047 -2.6254
9.3057 10.9698 -2.5974
8.2680 11.7246 -2.5905
7.2276 12.4815 -2.6043
6.2102 13.3443 -2.6577
5.0696 14.0514 -2.6973
3.9570 15.0600 -2.8116
3.5549 21.0077 -3.8472
1.6389 20.8837 -3.7824
-0.2312 21.0211 -3.7959
-2.2172 22.0292 -3.9978
-4.0071 20.8785 -3.8387
-6.1249 21.3858 -4.0168
-8.3855 21.7324 -4.2061
-10.9474 22.2321 -4.4746
-24.9889 7.9887 -4.7371
-25.4551 5.6951 -4.7099
-31.7201 -10.3630 -6.0254
33.3323 -4.9161 -6.0837
48.9302 -2.7979 -8.8495
23.3508 0.7520 -4.2185
20.8797 2.5496 -3.7982
19.0533 4.0774 -3.5183
17.2990 5.3537 -3.2698
16.5713 6.8010 -3.2344
18.6205 9.6647 -3.7881
16.9951 10.8472 -3.6405
13.9073 10.7353 -3.1723
12.6156 11.6750 -3.1037
9.6715 10.7036 -2.6048
8.6309 11.4607 -2.5906
7.5933 12.2155 -2.5971
6.6155 13.1259 -2.6541
5.2993 13.3634 -2.5958
4.1992 14.1637 -2.6675
3.1186 15.4708 -2.8497
2.3647 21.4908 -3.9039
0.4169 20.5497 -3.7113
-1.5136 21.8919 -3.9623
-3.3991 21.2871 -3.8924
-5.3617 21.2053 -3.9494
-4.7489 13.5555 -2.5935
-10.0135 22.0500 -4.3728
-24.8376 8.8055 -4.7583
-25.2887 6.4946 -4.7144
-27.1728 -10.6585 -5.2704
-31.1852 -15.5719 -6.2939
-9.7083 -15.0864 -3.2394
1.2865 -24.0736 -4.3530
33.2994 -5.9808 -6.1089
33.3066 -2.9520 -6.0376
17.9453 0.0164 -3.2403
21.6873 1.9621 -3.9320
19.7347 3.5817 -3.6216
17.8847 4.9276 -3.3497
16.1004 6.0266 -3.1041
17.8595 8.5717 -3.5770
17.6989 10.5322 -3.7188
16.2642 11.7617 -3.6242
13.0617 11.3505 -3.1246
10.0398 10.4357 -2.6148
8.9942 11.1964 -2.5932
7.9574 11.9506 -2.5925
6.9129 12.7105 -2.6125
5.6719 13.0923 -2.5763
4.5915 13.8783 -2.6395
3.5915 15.3259 -2.8423
3.0330 21.3874 -3.9004
1.0372 20.0983 -3.6339
-0.8098 21.4420 -3.8744
-2.8295 22.1486 -4.0318
-4.6372 21.0956 -3.9001
-6.7899 21.5155 -4.0738
-9.1204 21.8758 -4.2795
-11.7822 22.3949 -4.5692
-21.1200 32.6885 -7.0272
-24.7008 9.6368 -4.7875
-25.1257 7.2976 -4.7243
-25.6019 5.0128 -4.7106
29.6595 -15.3256 -6.0282
32.8632 -6.9700 -6.0659
33.4414 -4.0214 -6.0818
48.5746 -1.4754 -8.7749
22.5547 1.3311 -4.0797
20.2310 3.0216 -3.6935
18.2949 4.4301 -3.3989
16.6327 5.6393 -3.1712
17.1331 7.5732 -3.3824
18.1199 10.0289 -3.7395
16.8039 11.3690 -3.6634
13.5143 11.0213 -3.1488
12.2384 11.9494 -3.0885
9.3585 10.9314 -2.5983
8.3205 11.6865 -2.5904
7.2806 12.4430 -2.6031
6.2919 13.3614 -2.6667
5.1265 14.0101 -2.6938
4.0181 15.0156 -2.8067
3.5827 20.6047 -3.7763
1.7463 21.0314 -3.8106
-0.1356 20.9516 -3.7832
-2.1146 22.0091 -3.9924
-3.9056 20.8587 -3.8318
-6.0143 21.3642 -4.0076
-8.2637 21.7087 -4.1942
-10.8096 22.2052 -4.4593
-24.9656 8.1058 -4.7396
-25.4313 5.8107 -4.7103
-31.7306 -10.2079 -6.0186
33.3163 -5.0679 -6.0849
48.9910 -3.0239 -8.8629
23.4908 0.6501 -4.2432
20.9932 2.4671 -3.8167
19.1495 4.0074 -3.5326
17.3820 5.2933 -3.2809
16.4811 6.6770 -3.2109
18.5512 9.5224 -3.7652
17.0745 10.7894 -3.6470
13.9744 10.6865 -3.1765
12.6797 11.6284 -3.1065
9.7246 10.6650 -2.6061
8.6834 11.4225 -2.5908
7.6461 12.1771 -2.5963
6.6700 13.0863 -2.6522
5.3536 13.3239 -2.5928
4.2565 14.1220 -2.6632
3.1820 15.4247 -2.8438
2.4556 21.4247 -3.8939
0.5082 20.4832 -3.6997
-1.4134 21.8811 -3.9592
-3.4046 21.9587 -4.0123
-5.2628 21.2176 -3.9472
-4.6738 13.5371 -2.5859
-9.8819 22.0243 -4.3588
-24.8164 8.9246 -4.7619
-25.2642 6.6103 -4.7154
-25.7508 4.3302 -4.7150
-27.2330 -10.5401 -5.2728
-31.2375 -15.4218 -6.2903
-9.7886 -15.0611 -3.2434
33.3644 -4.6128 -5.8677
23.0755 0.9522 -4.0234
20.6562 2.7122 -3.6294
18.8634 4.2156 -3.3673
17.1347 5.4732 -3.1336
16.7558 7.0545 -3.1672
18.4497 9.7890 -3.6385
16.8372 10.9620 -3.5001
13.7737 10.8325 -3.0527
12.4876 11.7682 -2.9893
9.5655 10.7808 -2.5108
8.5259 11.5371 -2.4992
7.4877 12.2923 -2.5075
6.5064 13.2053 -2.5646
5.1905 13.4426 -2.5104
4.0841 14.2474 -2.5820
2.9909 15.5637 -2.7610
2.1816 21.6240 -3.7863
0.2323 20.6839 -3.6036
-1.7159 21.9314 -3.8324
-3.5116 20.7819 -3.6718
-5.5600 21.1814 -3.8150
-7.8419 21.7515 -4.0281
-10.2793 22.1018 -4.2464
-24.4397 10.9423 -4.6649
33.2857 -5.6679 -5.8822
33.3384 -2.6510 -5.8262
17.9270 0.1786 -3.1232
21.4479 2.1363 -3.7549
19.5335 3.7281 -3.4644
17.7123 5.0530 -3.2088
16.1404 6.2086 -3.0127
18.4068 9.0402 -3.5725
17.6747 10.7356 -3.6026
16.1101 11.8738 -3.4865
12.9320 11.4449 -3.0085
9.9330 10.5134 -2.5197
8.8890 11.2729 -2.5010
7.8522 12.0272 -2.5023
6.8824 12.9318 -2.5521
5.5647 13.1703 -2.4908
4.4788 13.9603 -2.5541
3.4275 15.2460 -2.7223
2.8532 21.5182 -3.7815
0.8604 20.2270 -3.5269
-1.0111 21.5885 -3.7651
-3.0391 22.1894 -3.9017
-4.8471 21.1366 -3.7778
-7.0192 21.5602 -3.9501
-9.4117 22.0116 -4.1705
-24.2887 11.8000 -4.7043
33.3484 -6.7580 -5.9277
33.5407 -3.7258 -5.8791
22.2971 1.5185 -3.8934
20.0541 3.1810 -3.5373
18.1155 4.5605 -3.2544
16.4763 5.7531 -3.0403
17.3351 7.8508 -3.3152
18.2493 10.3175 -3.6522
16.6466 11.4835 -3.5231
13.3826 11.1171 -3.0309
10.3035 10.2439 -2.5312
9.2529 11.0081 -2.5052
8.2155 11.7629 -2.4995
7.1745 12.5202 -2.5139
6.0457 13.1461 -2.5208
5.0126 14.0929 -2.6058
3.8958 15.1045 -2.7175
3.4676 21.0712 -3.7202
1.5331 20.7383 -3.6227
-0.3274 21.0911 -3.6747
-2.3200 22.0492 -3.8624
-4.1091 20.8984 -3.7104
-6.2361 21.4075 -3.8844
-8.5609 21.8918 -4.0950
-11.0862 22.2592 -4.3321
-24.6047 10.2351 -4.6425
-25.1536 7.9160 -4.5939
33.3483 -4.7644 -5.8686
23.2123 0.8527 -4.0466
20.7675 2.6313 -3.6468
18.9580 4.1468 -3.3808
17.2165 5.4137 -3.1441
16.6629 6.9268 -3.1437
18.5350 9.7270 -3.6466
16.9160 10.9047 -3.5062
13.8404 10.7840 -3.0567
12.5515 11.7217 -2.9919
9.6185 10.7422 -2.5120
8.5784 11.4989 -2.4993
7.5405 12.2539 -2.5066
6.5610 13.1656 -2.5626
5.2450 13.4029 -2.5074
4.1418 14.2055 -2.5778
3.0548 15.5172 -2.7552
2.2734 21.5572 -3.7763
0.3249 20.6166 -3.5921
-1.6146 21.9116 -3.8276
-3.4527 21.0119 -3.7096
-5.4523 21.1604 -3.8068
-7.6749 21.5939 -3.9924
-10.1460 22.0758 -4.2326
-24.4148 11.0640 -4.6697
-9.6552 -15.1542 -3.1303
1.3936 -24.0364 -4.1944
33.2925 -5.8242 -5.8880
33.4256 -2.8101 -5.8436
17.9045 0.0974 -3.1192
21.5670 2.0496 -3.7741
19.6337 3.6552 -3.4792
17.7982 4.9905 -3.2202
16.0563 6.0930 -2.9918
17.9716 8.7257 -3.4804
17.7568 10.6758 -3.6095
16.1870 11.8178 -3.4915
12.9968 11.3977 -3.0115
9.9864 10.4746 -2.5212
8.9415 11.2347 -2.5014
7.9048 11.9889 -2.5017
6.8595 12.7493 -2.5221
5.6183 13.1313 -2.4882
4.5352 13.9193 -2.5504
3.4897 15.2008 -2.7170
2.9433 21.4526 -3.7723
0.9491 20.1625 -3.5164
-0.9101 21.5150 -3.7515
-2.9341 22.1690 -3.8958
-4.7420 21.1161 -3.7703
-6.9042 21.5378 -3.9402
-9.3048 22.0368 -4.1672
-11.9268 22.4231 -4.4246
33.7348 -6.9954 -6.0020
33.4910 -3.8737 -5.8734
22.4252 1.4253 -3.9146
20.1247 3.0989 -3.5473
18.2049 4.4955 -3.2668
16.5542 5.6964 -3.0499
17.2333 7.7109 -3.2891
18.3338 10.2561 -3.6597
16.7251 11.4263 -3.5288
13.4483 11.0692 -3.0344
10.3573 10.2047 -2.5330
9.3057 10.9698 -2.5060
8.2680 11.7246 -2.4994
7.2276 12.4815 -2.5127
6.2102 13.3444 -2.5641
5.0696 14.0514 -2.6024
3.9570 15.0600 -2.7127
3.5549 21.0077 -3.7118
1.6389 20.8837 -3.6493
-0.2312 21.0211 -3.6623
-2.2172 22.0292 -3.8571
-4.0071 20.8785 -3.7037
-6.1249 21.3858 -3.8754
-8.4377 21.8677 -4.0833
-10.9474 22.2321 -4.3172
-24.5769 10.3543 -4.6460
-25.1306 8.0340 -4.5963
-31.7365 -10.3684 -5.8164
33.3323 -4.9161 -5.8697
23.3508 0.7520 -4.0701
20.8797 2.5496 -3.6645
19.0534 4.0774 -3.3945
17.2990 5.3537 -3.1547
16.5713 6.8010 -3.1206
18.6205 9.6647 -3.6548
16.9951 10.8472 -3.5124
13.9073 10.7353 -3.0607
12.6156 11.6750 -2.9945
9.6715 10.7036 -2.5131
8.6309 11.4607 -2.4994
7.5933 12.2155 -2.5057
6.6155 13.1259 -2.5607
5.2993 13.3634 -2.5044
4.1992 14.1637 -2.5736
3.1186 15.4708 -2.7494
2.3647 21.4908 -3.7665
0.4169 20.5497 -3.5807
-1.5136 21.8919 -3.8229
-3.3991 21.2871 -3.7554
-5.3617 21.2053 -3.8105
-4.7486 13.5547 -2.5021
-10.0135 22.0500 -4.2189
-24.3895 11.1858 -4.6745
-27.1722 -10.6582 -5.0848
-31.1837 -15.5711 -6.0721
-9.7080 -15.0860 -3.1253
1.2865 -24.0726 -4.1997
33.2994 -5.9808 -5.8939
33.9363 -3.0078 -5.9352
17.9448 0.0164 -3.1262
21.6873 1.9621 -3.7936
19.7347 3.5817 -3.4942
17.8847 4.9276 -3.2318
16.1004 6.0266 -2.9949
17.8595 8.5717 -3.4511
17.8393 10.6158 -3.6164
16.2642 11.7617 -3.4967
13.0617 11.3505 -3.0146
10.0398 10.4357 -2.5228
8.9942 11.1964 -2.5019
7.9574 11.9506 -2.5012
6.9129 12.7105 -2.5206
5.6719 13.0923 -2.4857
4.5915 13.8783 -2.5466
3.5915 15.3259 -2.7423
3.0330 21.3874 -3.7632
1.0372 20.0983 -3.5060
-0.8098 21.4420 -3.7381
-2.8295 22.1486 -3.8899
-4.6372 21.0956 -3.7628
-6.7899 21.5155 -3.9304
-9.1772 22.0119 -4.1546
-11.7822 22.3949 -4.4084
-21.1145 32.6800 -6.7781
-41.2270 25.3106 -8.4277
29.6582 -15.3249 -5.8158
33.2973 -7.0620 -5.9298
33.4414 -4.0214 -5.8678
22.5547 1.3311 -3.9361
20.2310 3.0216 -3.5635
18.2949 4.4301 -3.2793
16.6327 5.6393 -3.0596
17.1331 7.5732 -3.2634
18.4186 10.1943 -3.6674
16.8039 11.3690 -3.5345
13.5143 11.0213 -3.0380
12.2384 11.9494 -2.9798
9.3585 10.9314 -2.5069
8.3205 11.6865 -2.4992
7.2806 12.4430 -2.5115
6.2919 13.3614 -2.5729
5.1265 14.0101 -2.5990
4.0181 15.0156 -2.7079
3.5827 20.6047 -3.6434
1.7463 21.0314 -3.6765
-0.1356 20.9516 -3.6501
-2.1146 22.0091 -3.8519
-3.9056 20.8587 -3.6970
-6.0143 21.3642 -3.8665
-8.3151 21.8438 -4.0718
-10.8096 22.2052 -4.3024
-24.5490 10.4736 -4.6497
-31.7431 -10.2119 -5.8091
33.4640 -32.8505 -8.1693
33.3163 -5.0679 -5.8708
23.4908 0.6501 -4.0939
20.9932 2.4671 -3.6824
19.1495 4.0074 -3.4083
17.3820 5.2933 -3.1654
16.4811 6.6769 -3.0979
18.5512 9.5224 -3.6327
17.0745 10.7894 -3.5187
13.9744 10.6865 -3.0648
12.6797 11.6284 -2.9972
9.7246 10.6650 -2.5144
8.6834 11.4225 -2.4996
7.6461 12.1771 -2.5049
6.6700 13.0863 -2.5588
5.3536 13.3239 -2.5015
4.2565 14.1220 -2.5695
3.1819 15.4247 -2.7437
2.4556 21.4247 -3.7568
0.5082 20.4832 -3.5695
-1.4134 21.8811 -3.8199
-3.4046 21.9587 -3.8711
-5.2628 21.2176 -3.8083
-4.6737 13.5368 -2.4948
-9.8819 22.0243 -4.2054
-24.3638 11.3077 -4.6793
-27.2322 -10.5398 -5.0871
-31.2366 -15.4214 -6.0688
-9.7884 -15.0607 -3.1292
34.2575 -32.7283 -7.9534
33.3644 -4.6128 -5.6542
23.0755 0.9522 -3.8770
20.6562 2.7122 -3.4973
18.8634 4.2156 -3.2447
17.1347 5.4732 -3.0196
16.7558 7.0545 -3.0519
18.4497 9.7890 -3.5061
16.8372 10.9620 -3.3727
13.7737 10.8325 -2.9416
12.4876 11.7682 -2.8805
9.5655 10.7808 -2.4195
8.5259 11.5371 -2.4082
7.4877 12.2923 -2.4162
6.5064 13.2053 -2.4713
5.1905 13.4426 -2.4190
4.0841 14.2474 -2.4881
2.9909 15.5637 -2.6605
2.1816 21.6240 -3.6485
0.2324 20.6839 -3.4724
-1.7159 21.9314 -3.6929
-3.5116 20.7819 -3.5381
-5.5600 21.1814 -3.6762
-7.8419 21.7515 -3.8815
-10.4768 22.5263 -4.1705
-24.5534 10.9932 -4.5161
33.2857 -5.6679 -5.6681
34.2033 -2.7197 -5.7598
17.9265 0.1786 -3.0095
21.4479 2.1363 -3.6183
19.5335 3.7281 -3.3383
17.7123 5.0530 -3.0920
16.1404 6.2086 -2.9031
18.4068 9.0402 -3.4425
17.6747 10.7356 -3.4715
16.1101 11.8738 -3.3596
12.9320 11.4449 -2.8990
9.9330 10.5134 -2.4280
8.8890 11.2729 -2.4099
7.8522 12.0272 -2.4112
6.8824 12.9318 -2.4592
5.5647 13.1703 -2.4002
4.4788 13.9603 -2.4612
3.4275 15.2460 -2.6232
2.8532 21.5182 -3.6439
0.8604 20.2270 -3.3986
-1.0111 21.5885 -3.6280
-3.0391 22.1895 -3.7597
-4.8471 21.1366 -3.6403
-7.0191 21.5602 -3.8063
-9.4331 22.0619 -4.0279
-24.3533 11.8314 -4.5451
33.3495 -6.7583 -5.7122
33.5407 -3.7258 -5.6651
22.2971 1.5185 -3.7517
20.0541 3.1810 -3.4086
18.1155 4.5605 -3.1360
16.4763 5.7531 -2.9297
17.3351 7.8507 -3.1946
18.2493 10.3175 -3.5192
16.6466 11.4835 -3.3949
13.3826 11.1171 -2.9206
10.3035 10.2439 -2.4390
9.2529 11.0081 -2.4140
8.2155 11.7629 -2.4086
7.1745 12.5202 -2.4224
6.0457 13.1461 -2.4290
5.0126 14.0929 -2.5110
3.8958 15.1045 -2.6186
3.4676 21.0712 -3.5848
1.5331 20.7383 -3.4908
-0.3274 21.0911 -3.5410
-2.3200 22.0492 -3.7218
-4.1091 20.8984 -3.5754
-6.2361 21.4075 -3.7431
-8.5609 21.8918 -3.9460
-11.0862 22.2592 -4.1745
-25.1536 7.9160 -4.4267
33.3483 -4.7644 -5.6551
23.2123 0.8527 -3.8993
20.7675 2.6313 -3.5141
18.9580 4.1468 -3.2577
17.2165 5.4137 -3.0297
16.6629 6.9268 -3.0293
18.5350 9.7270 -3.5139
16.9160 10.9047 -3.3786
13.8404 10.7840 -2.9454
12.5515 11.7216 -2.8830
9.6185 10.7422 -2.4205
8.5784 11.4989 -2.4083
7.5405 12.2539 -2.4153
6.5610 13.1656 -2.4694
5.2450 13.4029 -2.4161
4.1418 14.2055 -2.4840
3.0548 15.5172 -2.6549
2.2734 21.5572 -3.6389
0.3249 20.6166 -3.4613
-1.6146 21.9116 -3.6883
-3.4527 21.0119 -3.5746
-5.4523 21.1604 -3.6682
-7.6749 21.5939 -3.8471
-10.3747 22.5735 -4.1705
-9.6547 -15.1534 -3.0163
1.3936 -24.0358 -4.0417
33.2926 -5.8242 -5.6737
34.5924 -2.9083 -5.8275
17.9040 0.0974 -3.0056
21.5670 2.0496 -3.6368
19.6337 3.6552 -3.3526
17.7982 4.9905 -3.1030
16.0563 6.0930 -2.8829
17.9716 8.7257 -3.3537
17.7568 10.6758 -3.4781
16.1870 11.8178 -3.3645
12.9968 11.3977 -2.9019
9.9864 10.4746 -2.4295
8.9415 11.2347 -2.4104
7.9048 11.9889 -2.4107
6.8595 12.7493 -2.4304
5.6183 13.1313 -2.3977
4.5352 13.9193 -2.4575
3.4897 15.2008 -2.6182
2.9433 21.4526 -3.6350
0.9491 20.1625 -3.3884
-0.9101 21.5150 -3.6150
-2.9341 22.1690 -3.7540
-4.7420 21.1161 -3.6330
-6.9042 21.5378 -3.7968
-9.3048 22.0368 -4.0156
-11.9268 22.4231 -4.2635
-42.0633 25.5628 -8.2629
-24.2770 11.9304 -4.5409
34.6585 -7.1870 -5.9419
33.4910 -3.8737 -5.6596
22.4252 1.4253 -3.7721
20.1247 3.0989 -3.4182
18.2049 4.4955 -3.1479
16.5542 5.6964 -2.9389
17.2333 7.7109 -3.1694
18.3338 10.2561 -3.5265
16.7251 11.4263 -3.4003
13.4483 11.0692 -2.9240
10.3573 10.2047 -2.4408
9.3057 10.9698 -2.4148
8.2680 11.7246 -2.4084
7.2276 12.4815 -2.4212
6.2102 13.3444 -2.4708
5.0696 14.0514 -2.5077
3.9570 15.0600 -2.6139
3.5549 21.0077 -3.5767
1.6389 20.8837 -3.5165
-0.2312 21.0211 -3.5290
-2.2172 22.0292 -3.7167
-4.0071 20.8785 -3.5689
-6.1249 21.3858 -3.7344
-8.4377 21.8677 -3.9347
-10.9749 22.2879 -4.1705
-25.1306 8.0340 -4.4290
-31.7365 -10.3683 -5.6047
33.3323 -4.9161 -5.6560
23.3508 0.7520 -3.9219
20.8797 2.5496 -3.5311
19.0534 4.0774 -3.2709
17.2990 5.3537 -3.0399
16.5714 6.8010 -3.0070
18.6205 9.6647 -3.5218
16.9951 10.8472 -3.3846
13.9073 10.7353 -2.9493
12.6156 11.6750 -2.8855
9.6715 10.7036 -2.4217
8.6309 11.4607 -2.4085
7.5933 12.2155 -2.4145
6.6155 13.1259 -2.4675
5.2993 13.3634 -2.4133
4.1992 14.1637 -2.4800
3.1185 15.4708 -2.6493
2.3647 21.4908 -3.6294
0.4168 20.5497 -3.4504
-1.5136 21.8919 -3.6838
-3.3991 21.2871 -3.6187
-5.3617 21.2053 -3.6718
-4.7484 13.5540 -2.4109
-10.2725 22.6202 -4.1705
-27.1715 -10.6580 -4.8996
-31.1822 -15.5704 -5.8509
-9.7078 -15.0856 -3.0115
1.2864 -24.0717 -4.0467
33.2994 -5.9808 -5.6794
35.1401 -3.1145 -5.9221
17.9443 0.0164 -3.0123
21.6873 1.9621 -3.6555
19.7347 3.5817 -3.3670
17.8847 4.9276 -3.1142
16.1004 6.0266 -2.8859
17.8595 8.5717 -3.3255
17.8393 10.6158 -3.4848
16.2642 11.7617 -3.3694
13.0617 11.3505 -2.9049
10.0398 10.4357 -2.4309
8.9942 11.1964 -2.4109
7.9574 11.9506 -2.4102
6.9129 12.7105 -2.4289
5.6719 13.0923 -2.3952
4.5915 13.8783 -2.4540
3.5915 15.3259 -2.6425
3.0330 21.3874 -3.6262
1.0372 20.0983 -3.3784
-0.8098 21.4420 -3.6021
-2.8295 22.1486 -3.7483
-4.6372 21.0956 -3.6259
-6.7899 21.5155 -3.7874
-9.1772 22.0119 -4.0034
-11.7822 22.3949 -4.2480
-21.0762 32.6206 -6.5196
-24.2295 12.0434 -4.5422
29.6570 -15.3243 -5.6039
34.1978 -7.2530 -5.8685
33.4414 -4.0214 -5.6543
22.5547 1.3311 -3.7929
20.2310 3.0216 -3.4339
18.2949 4.4301 -3.1599
16.6327 5.6393 -2.9483
17.1331 7.5732 -3.1446
18.4186 10.1943 -3.5340
16.8039 11.3690 -3.4059
13.5143 11.0213 -2.9274
12.2384 11.9494 -2.8714
9.3585 10.9314 -2.4157
8.3205 11.6865 -2.4083
7.2806 12.4430 -2.4201
6.2919 13.3614 -2.4792
5.1265 14.0101 -2.5044
4.0181 15.0156 -2.6094
3.5827 20.6047 -3.5108
1.7463 21.0314 -3.5427
-0.1356 20.9516 -3.5172
-2.1146 22.0091 -3.7117
-3.9056 20.8587 -3.5624
-6.0143 21.3642 -3.7258
-8.3151 21.8438 -3.9236
-10.8739 22.3373 -4.1705
-31.7431 -10.2119 -5.5977
33.3163 -5.0679 -5.6572
23.4908 0.6501 -3.9449
20.9932 2.4671 -3.5484
19.1495 4.0074 -3.2843
17.3820 5.2933 -3.0502
16.4811 6.6770 -2.9851
18.5553 9.5245 -3.5013
17.0745 10.7894 -3.3906
13.9744 10.6865 -2.9532
12.6797 11.6284 -2.8881
9.7246 10.6650 -2.4229
8.6834 11.4225 -2.4087
7.6461 12.1771 -2.4138
6.6700 13.0863 -2.4657
5.3536 13.3239 -2.4105
4.2565 14.1220 -2.4760
3.1819 15.4247 -2.6439
2.4556 21.4247 -3.6201
0.5082 20.4832 -3.4396
-1.4134 21.8811 -3.6809
-3.4046 21.9587 -3.7303
-5.2628 21.2176 -3.6698
-4.6735 13.5364 -2.4040
-10.1700 22.6665 -4.1705
-27.2314 -10.5395 -4.9018
-31.2357 -15.4209 -5.8478
-9.7881 -15.0602 -3.0152
33.3644 -4.6128 -5.4411
36.7834 -1.7695 -5.9490
23.0755 0.9522 -3.7309
20.6562 2.7122 -3.3655
18.8634 4.2156 -3.1224
17.1347 5.4732 -2.9058
16.7558 7.0545 -2.9369
18.4497 9.7890 -3.3740
16.8372 10.9621 -3.2456
13.7737 10.8325 -2.8307
12.4876 11.7682 -2.7719
9.5655 10.7808 -2.3283
8.5259 11.5371 -2.3174
7.4877 12.2923 -2.3251
6.5064 13.2053 -2.3781
5.1905 13.4426 -2.3278
4.0841 14.2474 -2.3943
2.9909 15.5637 -2.5602
2.1816 21.6240 -3.5110
0.2324 20.6839 -3.3416
-1.7159 21.9314 -3.5537
-3.5116 20.7819 -3.4048
-5.5600 21.1814 -3.5376
-7.8419 21.7515 -3.7352
-10.8871 23.4086 -4.1705
-24.5534 10.9932 -4.3458
-8.2668 -16.1364 -2.9289
33.2857 -5.6679 -5.4545
36.6623 -2.9153 -5.9412
17.9261 0.1786 -2.8960
21.4479 2.1363 -3.4819
19.5335 3.7281 -3.2125
17.7123 5.0530 -2.9755
16.1404 6.2086 -2.7936
18.4068 9.0402 -3.3128
17.6747 10.7356 -3.3407
16.1101 11.8738 -3.2330
12.9320 11.4449 -2.7897
9.9330 10.5134 -2.3365
8.8890 11.2729 -2.3191
7.8522 12.0272 -2.3203
6.8824 12.9318 -2.3665
5.5647 13.1703 -2.3097
4.4788 13.9603 -2.3684
3.4275 15.2460 -2.5244
2.8532 21.5182 -3.5065
0.8604 20.2270 -3.2705
-1.0111 21.5885 -3.4913
-3.0391 22.1895 -3.6180
-4.8471 21.1366 -3.5031
-7.0191 21.5602 -3.6628
-9.4332 22.0619 -3.8761
-8.6776 -15.7076 -2.8989
33.3499 -6.7583 -5.4970
33.5407 -3.7258 -5.4516
36.8874 -0.7864 -5.9603
22.2971 1.5185 -3.6103
20.0541 3.1810 -3.2801
18.1155 4.5605 -3.0178
16.4763 5.7531 -2.8192
17.3351 7.8508 -3.0742
18.2493 10.3175 -3.3866
16.6466 11.4835 -3.2669
13.3826 11.1171 -2.8105
10.3035 10.2439 -2.3471
9.2529 11.0081 -2.3231
8.2155 11.7629 -2.3178
7.1745 12.5202 -2.3311
6.0457 13.1460 -2.3375
5.0126 14.0929 -2.4163
3.8958 15.1045 -2.5199
3.4676 21.0712 -3.4497
1.5331 20.7383 -3.3593
-0.3274 21.0911 -3.4075
-2.3200 22.0492 -3.5816
-4.1091 20.8984 -3.4406
-6.2361 21.4075 -3.6020
-8.5609 21.8918 -3.7973
-11.5094 23.1090 -4.1705
-24.1055 12.6576 -4.3983
-25.1536 7.9160 -4.2599
-9.3296 -15.7063 -2.9511
-7.9081 -16.5104 -2.9573
33.3483 -4.7644 -5.4419
36.7659 -1.9355 -5.9475
23.2123 0.8527 -3.7523
20.7675 2.6313 -3.3817
18.9580 4.1468 -3.1350
17.2165 5.4137 -2.9155
16.6629 6.9268 -2.9151
18.5350 9.7270 -3.3815
16.9160 10.9047 -3.2513
13.8404 10.7840 -2.8344
12.5515 11.7216 -2.7743
9.6185 10.7422 -2.3293
8.5784 11.4989 -2.3175
7.5406 12.2539 -2.3243
6.5610 13.1656 -2.3763
5.2450 13.4029 -2.3250
4.1418 14.2055 -2.3904
3.0548 15.5172 -2.5548
2.2734 21.5572 -3.5017
0.3249 20.6166 -3.3309
-1.6146 21.9116 -3.5493
-3.4527 21.0119 -3.4399
-5.4523 21.1604 -3.5300
-7.6749 21.5939 -3.7021
-10.7811 23.4577 -4.1705
-9.6543 -15.1527 -2.9024
-8.3267 -16.0739 -2.9244
1.3935 -24.0352 -3.8892
33.2926 -5.8242 -5.4599
35.8408 -3.0132 -5.8103
17.9036 0.0974 -2.8922
21.5670 2.0496 -3.4997
19.6337 3.6552 -3.2262
17.7982 4.9905 -2.9861
16.0563 6.0930 -2.7743
17.9716 8.7257 -3.2273
17.7568 10.6758 -3.3470
16.1870 11.8178 -3.2377
12.9968 11.3977 -2.7925
9.9864 10.4746 -2.3379
8.9415 11.2347 -2.3195
7.9048 11.9889 -2.3198
6.8595 12.7493 -2.3387
5.6183 13.1313 -2.3073
4.5352 13.9193 -2.3649
3.4897 15.2008 -2.5195
2.9433 21.4526 -3.4980
0.9491 20.1625 -3.2607
-0.9101 21.5150 -3.4787
-2.9341 22.1690 -3.6125
-4.7420 21.1161 -3.4961
-6.9042 21.5378 -3.6537
-9.3048 22.0368 -3.8642
-8.7730 -15.7119 -2.9070
35.6322 -7.3889 -5.8786
33.4910 -3.8737 -5.4463
36.8698 -0.9530 -5.9581
22.9743 1.4602 -3.7188
20.1247 3.0989 -3.2893
18.2049 4.4955 -3.0292
16.5542 5.6964 -2.8281
17.2333 7.7109 -3.0499
18.3338 10.2561 -3.3936
16.7251 11.4263 -3.2722
13.4483 11.0692 -2.8138
10.3573 10.2047 -2.3488
9.3057 10.9698 -2.3238
8.2680 11.7246 -2.3176
7.2276 12.4815 -2.3300
6.2102 13.3444 -2.3777
5.0696 14.0514 -2.4131
3.9570 15.0600 -2.5154
3.5549 21.0077 -3.4419
1.6389 20.8837 -3.3840
-0.2312 21.0211 -3.3960
-2.2172 22.0292 -3.5766
-4.0071 20.8785 -3.4343
-6.1249 21.3858 -3.5936
-8.4377 21.8677 -3.7864
-11.4048 23.1609 -4.1705
-24.0787 12.7829 -4.4039
-25.1306 8.0340 -4.2621
-31.7365 -10.3683 -5.3935
-9.5342 -15.8866 -2.9931
-7.9693 -16.4467 -2.9523
33.3323 -4.9161 -5.4429
36.7484 -2.1013 -5.9462
23.3508 0.7520 -3.7741
20.8797 2.5496 -3.3980
19.0534 4.0774 -3.1476
17.2990 5.3537 -2.9253
16.5714 6.8010 -2.8937
18.6205 9.6647 -3.3891
16.9951 10.8472 -3.2570
13.9073 10.7353 -2.8381
12.6156 11.6750 -2.7768
9.6715 10.7036 -2.3304
8.6309 11.4607 -2.3177
7.5933 12.2155 -2.3235
6.6155 13.1259 -2.3745
5.2993 13.3634 -2.3223
4.1992 14.1637 -2.3865
3.1185 15.4708 -2.5495
2.3647 21.4908 -3.4927
0.4169 20.5497 -3.3203
-1.5136 21.8919 -3.5449
-3.3991 21.2871 -3.4823
-5.3617 21.2053 -3.5334
-4.7481 13.5533 -2.3199
-10.6748 23.5062 -4.1705
-27.1708 -10.6577 -4.7148
-31.1807 -15.5696 -5.6301
-9.7075 -15.0853 -2.8979
-8.3865 -16.0115 -2.9199
1.2864 -24.0707 -3.8940
33.2994 -5.9808 -5.4654
36.4297 -3.2288 -5.9080
17.9439 0.0164 -2.8987
21.6873 1.9621 -3.5178
19.7347 3.5817 -3.2401
17.8847 4.9276 -2.9968
16.1004 6.0266 -2.7771
17.8595 8.5717 -3.2002
17.8393 10.6158 -3.3535
16.2642 11.7617 -3.2424
13.0617 11.3505 -2.7954
10.0398 10.4357 -2.3393
8.9942 11.1964 -2.3200
7.9574 11.9506 -2.3194
6.9129 12.7105 -2.3373
5.6719 13.0923 -2.3049
4.5915 13.8783 -2.3615
3.5915 15.3259 -2.5429
3.0330 21.3874 -3.4896
1.0372 20.0983 -3.2511
-0.8098 21.4420 -3.4663
-2.8295 22.1486 -3.6070
-4.6372 21.0956 -3.4892
-6.7899 21.5155 -3.6446
-9.1772 22.0119 -3.8525
-21.1170 32.6839 -6.2860
-8.8317 -15.6500 -2.9029
29.6557 -15.3236 -5.3924
35.1463 -7.4541 -5.8039
33.4414 -4.0214 -5.4412
36.8522 -1.1193 -5.9560
22.9807 1.3562 -3.7188
20.2310 3.0216 -3.3044
18.2949 4.4301 -3.0408
16.6327 5.6393 -2.8371
17.1331 7.5732 -3.0261
18.4186 10.1943 -3.4008
16.8039 11.3690 -3.2775
13.5143 11.0213 -2.8171
12.2384 11.9494 -2.7631
9.3585 10.9314 -2.3246
8.3205 11.6865 -2.3175
7.2806 12.4430 -2.3289
6.2919 13.3614 -2.3858
5.1265 14.0101 -2.4100
4.0181 15.0156 -2.5110
3.5827 20.6047 -3.3785
1.7463 21.0314 -3.4092
-0.1356 20.9516 -3.3847
-2.1146 22.0091 -3.5718
-3.9056 20.8587 -3.4281
-6.0143 21.3642 -3.5854
-8.3151 21.8438 -3.7757
-11.2998 23.2122 -4.1705
-24.0674 12.9168 -4.4125
-31.7431 -10.2119 -5.3867
-9.6468 -15.9105 -3.0058
-8.0302 -16.3832 -2.9474
33.3163 -5.0679 -5.4439
36.7308 -2.2671 -5.9449
23.4908 0.6501 -3.7962
20.9932 2.4671 -3.4146
19.1495 4.0074 -3.1605
17.3820 5.2933 -2.9353
16.4811 6.6770 -2.8726
18.5553 9.5245 -3.3693
17.0745 10.7894 -3.2628
13.9744 10.6865 -2.8419
12.6797 11.6284 -2.7793
9.7246 10.6650 -2.3316
8.6834 11.4225 -2.3179
7.6461 12.1771 -2.3228
6.6700 13.0863 -2.3728
5.3536 13.3239 -2.3196
4.2565 14.1220 -2.3827
3.1820 15.4247 -2.5442
2.4556 21.4247 -3.4837
0.5082 20.4832 -3.3099
-1.4134 21.8811 -3.5421
-3.4046 21.9587 -3.5897
-5.2628 21.2176 -3.5314
-4.6734 13.5361 -2.3133
-10.5683 23.5543 -4.1705
-27.2306 -10.5392 -4.7169
-31.2349 -15.4205 -5.6272
-9.7878 -15.0598 -2.9015
-8.4462 -15.9493 -2.9155
33.3644 -4.6128 -5.2284
36.7834 -1.7695 -5.7165
34.7795 1.4352 -5.4034
20.6562 2.7122 -3.2340
18.8634 4.2156 -3.0004
17.1347 5.4732 -2.7922
16.7558 7.0545 -2.8221
18.4497 9.7890 -3.2421
16.8372 10.9620 -3.1187
13.7737 10.8325 -2.7201
12.4876 11.7682 -2.6636
9.5655 10.7808 -2.2373
8.5259 11.5371 -2.2268
7.4877 12.2923 -2.2343
6.5064 13.2053 -2.2852
5.1905 13.4426 -2.2368
4.0841 14.2474 -2.3007
2.9909 15.5637 -2.4601
2.1816 21.6240 -3.3737
0.2323 20.6839 -3.2109
-1.7159 21.9314 -3.4148
-3.5116 20.7819 -3.2717
-5.5600 21.1814 -3.3994
-7.8419 21.7515 -3.5892
-11.0446 23.7473 -4.0654
-23.9625 13.4123 -4.2627
-24.5534 10.9932 -4.1760
-10.6306 -16.8527 -3.0930
-8.3031 -16.2074 -2.8268
-7.0443 -17.4273 -2.9179
33.2858 -5.6679 -5.2413
36.6623 -2.9153 -5.7090
17.9256 0.1786 -2.7827
21.4479 2.1363 -3.3458
19.5335 3.7281 -3.0869
17.7123 5.0530 -2.8592
16.1404 6.2086 -2.6844
18.4068 9.0402 -3.1833
17.6747 10.7356 -3.2101
16.1101 11.8738 -3.1066
12.9320 11.4449 -2.6807
9.9330 10.5134 -2.2452
8.8890 11.2729 -2.2285
7.8522 12.0272 -2.2296
6.8824 12.9318 -2.2740
5.5647 13.1703 -2.2194
4.4788 13.9603 -2.2758
3.4275 15.2460 -2.4257
2.8532 21.5182 -3.3695
0.8604 20.2270 -3.1427
-1.0111 21.5885 -3.3548
-3.0391 22.1895 -3.4766
-4.8471 21.1366 -3.3662
-7.0191 21.5602 -3.5197
-9.4332 22.0619 -3.7246
-8.7143 -15.7739 -2.7974
-7.5152 -17.0384 -2.8907
33.3502 -6.7584 -5.2822
33.5404 -3.7257 -5.2385
36.8874 -0.7864 -5.7273
22.2971 1.5185 -3.4692
20.0541 3.1810 -3.1519
18.1155 4.5605 -2.8998
16.4763 5.7531 -2.7090
17.3351 7.8507 -2.9540
18.2493 10.3175 -3.2542
16.6466 11.4835 -3.1392
13.3826 11.1171 -2.7006
10.3035 10.2439 -2.2554
9.2529 11.0081 -2.2323
8.2155 11.7629 -2.2272
7.1745 12.5202 -2.2400
6.0457 13.1461 -2.2461
5.0126 14.0929 -2.3219
3.8958 15.1045 -2.4214
3.4676 21.0712 -3.3149
1.5331 20.7383 -3.2280
-0.3274 21.0911 -3.2743
-2.3200 22.0492 -3.4416
-4.1091 20.8984 -3.3062
-6.2361 21.4075 -3.4612
-8.5609 21.8918 -3.6488
-25.1536 7.9160 -4.0933
-9.3297 -15.7063 -2.8358
-7.9443 -16.5859 -2.8547
-6.6577 -17.8296 -2.9543
33.3483 -4.7644 -5.2292
36.7659 -1.9355 -5.7150
34.7864 1.2779 -5.4035
20.7675 2.6313 -3.2495
18.9580 4.1468 -3.0124
17.2165 5.4137 -2.8015
16.6629 6.9268 -2.8012
18.5350 9.7270 -3.2493
16.9160 10.9047 -3.1242
13.8404 10.7840 -2.7236
12.5515 11.7216 -2.6659
9.6185 10.7422 -2.2383
8.5784 11.4989 -2.2269
7.5405 12.2539 -2.2335
6.5610 13.1656 -2.2834
5.2450 13.4029 -2.2342
4.1418 14.2055 -2.2969
3.0549 15.5172 -2.4550
2.2734 21.5572 -3.3649
0.3249 20.6166 -3.2007
-1.6146 21.9116 -3.4105
-3.4527 21.0119 -3.3054
-5.4523 21.1604 -3.3920
-7.6749 21.5939 -3.5574
-10.9012 23.7192 -4.0521
-23.9694 13.5590 -4.2748
-9.6538 -15.1519 -2.7888
-8.3632 -16.1441 -2.8223
-7.1087 -17.3603 -2.9120
1.3935 -24.0347 -3.7371
33.2926 -5.8242 -5.2465
36.6448 -3.0808 -5.7084
17.9031 0.0974 -2.7791
21.5670 2.0496 -3.3629
19.6337 3.6552 -3.1001
17.7982 4.9905 -2.8693
16.0563 6.0930 -2.6658
17.9716 8.7257 -3.1012
17.7568 10.6758 -3.2162
16.1870 11.8178 -3.1111
12.9968 11.3977 -2.6834
9.9864 10.4746 -2.2465
8.9415 11.2347 -2.2289
7.9048 11.9889 -2.2291
6.8595 12.7493 -2.2473
5.6183 13.1313 -2.2171
4.5352 13.9193 -2.2725
3.4897 15.2008 -2.4210
2.9433 21.4526 -3.3613
0.9491 20.1625 -3.1333
-0.9101 21.5150 -3.3427
-2.9341 22.1690 -3.4713
-4.7420 21.1161 -3.3595
-6.9042 21.5378 -3.5109
-9.3048 22.0368 -3.7132
-8.7730 -15.7119 -2.7934
-7.5780 -16.9722 -2.8853
36.6600 -7.6020 -5.8118
33.4907 -3.8737 -5.2334
36.8698 -0.9530 -5.7252
23.9089 1.5196 -3.7188
20.1247 3.0989 -3.1608
18.2049 4.4955 -2.9108
16.5542 5.6964 -2.7176
17.2333 7.7109 -2.9307
18.3338 10.2561 -3.2610
16.7251 11.4263 -3.1443
13.4483 11.0692 -2.7038
10.3573 10.2047 -2.2570
9.3057 10.9698 -2.2330
8.2680 11.7246 -2.2270
7.2276 12.4815 -2.2389
6.2102 13.3444 -2.2848
5.0696 14.0514 -2.3188
3.9570 15.0600 -2.4171
3.5549 21.0077 -3.3074
1.6389 20.8837 -3.2517
-0.2312 21.0211 -3.2633
-2.2172 22.0292 -3.4368
-4.0071 20.8785 -3.3001
-6.1249 21.3858 -3.4532
-8.4377 21.8677 -3.6384
-25.1306 8.0340 -4.0955
-31.7365 -10.3684 -5.1827
-9.5342 -15.8866 -2.8761
-8.0054 -16.5214 -2.8498
-6.7238 -17.7609 -2.9480
33.3323 -4.9161 -5.2301
36.7484 -2.1013 -5.7137
34.7933 1.1205 -5.4037
20.8797 2.5496 -3.2652
19.0533 4.0774 -3.0246
17.2990 5.3537 -2.8110
16.5714 6.8010 -2.7806
18.6205 9.6647 -3.2566
16.9951 10.8472 -3.1297
13.9073 10.7353 -2.7272
12.6156 11.6750 -2.6682
9.6715 10.7036 -2.2393
8.6309 11.4607 -2.2271
7.5933 12.2155 -2.2327
6.6155 13.1259 -2.2817
5.2993 13.3634 -2.2315
4.1992 14.1637 -2.2932
3.1186 15.4708 -2.4498
2.3647 21.4908 -3.3561
0.4169 20.5497 -3.1906
-1.5136 21.8919 -3.4064
-3.3991 21.2871 -3.3462
-5.3617 21.2053 -3.3953
-4.7479 13.5526 -2.2291
-10.7588 23.6912 -4.0390
-27.1702 -10.6574 -4.5304
-31.1792 -15.5689 -5.4097
-9.7073 -15.0849 -2.7845
-8.4230 -16.0810 -2.8179
-7.1729 -17.2934 -2.9062
1.2863 -24.0697 -3.7416
33.2995 -5.9808 -5.2517
36.6273 -3.2463 -5.7079
17.9434 0.0164 -2.7853
21.6873 1.9621 -3.3802
19.7347 3.5817 -3.1134
17.8847 4.9276 -2.8797
16.1004 6.0266 -2.6686
17.8595 8.5717 -3.0751
17.8393 10.6158 -3.2224
16.2642 11.7617 -3.1157
13.0617 11.3505 -2.6861
10.0398 10.4357 -2.2479
8.9942 11.1964 -2.2293
7.9574 11.9506 -2.2287
6.9129 12.7105 -2.2460
5.6719 13.0923 -2.2148
4.5915 13.8783 -2.2692
3.5915 15.3259 -2.4435
3.0330 21.3874 -3.3532
1.0372 20.0983 -3.1240
-0.8098 21.4420 -3.3308
-2.8295 22.1486 -3.4660
-4.6372 21.0956 -3.3528
-6.7899 21.5155 -3.5022
-9.1772 22.0119 -3.7020
-21.1158 32.6820 -6.0399
-8.8317 -15.6500 -2.7895
-7.6405 -16.9063 -2.8799
29.6544 -15.3229 -5.1814
33.4411 -4.0213 -5.2284
36.8522 -1.1193 -5.7232
23.9155 1.4114 -3.7188
20.2310 3.0216 -3.1753
18.2949 4.4301 -2.9220
16.6327 5.6393 -2.7262
17.1331 7.5732 -2.9078
18.4186 10.1943 -3.2678
16.8039 11.3690 -3.1494
13.5143 11.0213 -2.7070
12.2384 11.9494 -2.6551
9.3585 10.9314 -2.2338
8.3205 11.6865 -2.2269
7.2806 12.4430 -2.2379
6.2919 13.3614 -2.2925
5.1265 14.0101 -2.3158
4.0181 15.0156 -2.4129
3.5827 20.6047 -3.2464
1.7463 21.0314 -3.2759
-0.1356 20.9516 -3.2524
-2.1146 22.0091 -3.4322
-3.9056 20.8587 -3.2941
-6.0143 21.3642 -3.4452
-8.3151 21.8438 -3.6281
-11.6147 23.8592 -4.1192
-24.1237 12.9470 -4.2499
-31.7431 -10.2119 -5.1762
-9.7447 -16.0721 -2.9176
-8.0665 -16.4570 -2.8450
-6.7896 -17.6924 -2.9417
33.3163 -5.0679 -5.2311
36.7308 -2.2671 -5.7125
34.8002 0.9631 -5.4041
20.9932 2.4671 -3.2812
19.1495 4.0074 -3.0370
17.3820 5.2933 -2.8205
16.4811 6.6770 -2.7603
18.5553 9.5245 -3.2376
17.0745 10.7894 -3.1353
13.9744 10.6865 -2.7308
12.6797 11.6284 -2.6706
9.7246 10.6650 -2.2404
8.6834 11.4225 -2.2273
7.6461 12.1771 -2.2320
6.6700 13.0863 -2.2800
5.3536 13.3239 -2.2290
4.2565 14.1220 -2.2896
3.1820 15.4247 -2.4448
2.4556 21.4247 -3.3475
0.5082 20.4832 -3.1806
-1.4134 21.8811 -3.4037
-3.4046 21.9586 -3.4493
-5.2628 21.2176 -3.3934
-4.6733 13.5358 -2.2228
-10.6173 23.6634 -4.0260
-27.2298 -10.5389 -4.5324
-31.2340 -15.4201 -5.4071
-9.7876 -15.0594 -2.7880
-8.4826 -16.0181 -2.8136
-7.2368 -17.2269 -2.9005
33.4833 -4.6292 -5.0340
36.7834 -1.7695 -5.4844
34.9077 1.4405 -5.2031
20.6562 2.7122 -3.1027
18.8634 4.2156 -2.8786
17.1347 5.4732 -2.6788
16.7558 7.0545 -2.7075
18.4497 9.7890 -3.1105
16.8372 10.9620 -2.9921
13.7737 10.8325 -2.6097
12.4876 11.7682 -2.5554
9.5655 10.7808 -2.1464
8.5259 11.5371 -2.1364
7.4877 12.2923 -2.1435
6.5064 13.2053 -2.1924
5.1905 13.4426 -2.1460
4.0841 14.2474 -2.2073
2.9909 15.5637 -2.3603
2.1816 21.6240 -3.2367
0.2324 20.6839 -3.0806
-1.7159 21.9314 -3.2761
-3.5116 20.7819 -3.1388
-5.5601 21.1814 -3.2613
-7.8419 21.7515 -3.4435
-11.0446 23.7473 -3.9004
-24.0542 13.4636 -4.1053
-24.5534 10.9932 -4.0064
-10.6306 -16.8527 -2.9674
-8.3031 -16.2074 -2.7120
-7.0748 -17.5029 -2.8115
-5.7167 -18.8256 -2.9301
1.5127 -24.1956 -3.6104
33.4089 -5.6889 -5.0471
36.6623 -2.9153 -5.4772
17.9252 0.1786 -2.6697
21.4479 2.1363 -3.2100
19.5335 3.7281 -2.9616
17.7123 5.0530 -2.7431
16.1404 6.2086 -2.5754
18.4068 9.0402 -3.0540
17.6747 10.7356 -3.0797
16.1101 11.8738 -2.9805
12.9320 11.4449 -2.5718
9.9330 10.5134 -2.1540
8.8890 11.2729 -2.1380
7.8522 12.0272 -2.1391
6.8824 12.9318 -2.1817
5.5647 13.1703 -2.1293
4.4788 13.9603 -2.1834
3.4275 15.2460 -2.3272
2.8532 21.5182 -3.2327
0.8604 20.2270 -3.0151
-1.0111 21.5885 -3.2186
-3.0391 22.1894 -3.3354
-4.8471 21.1366 -3.2295
-7.0192 21.5602 -3.3768
-9.4332 22.0619 -3.5733
-8.7143 -15.7739 -2.6838
-7.5152 -17.0384 -2.7733
-6.2228 -18.4014 -2.8929
33.7301 -6.8354 -5.1254
33.6717 -3.7403 -5.0454
36.8874 -0.7864 -5.4948
22.2971 1.5185 -3.3283
20.0541 3.1810 -3.0239
18.1155 4.5605 -2.7821
16.4763 5.7531 -2.5990
17.3351 7.8507 -2.8341
18.2493 10.3175 -3.1221
16.6466 11.4835 -3.0118
13.3826 11.1171 -2.5910
10.3035 10.2439 -2.1638
9.2529 11.0081 -2.1416
8.2155 11.7628 -2.1368
7.1745 12.5202 -2.1490
6.0457 13.1461 -2.1549
5.0126 14.0929 -2.2276
3.8958 15.1045 -2.3231
3.4676 21.0712 -3.1803
1.5331 20.7383 -3.0969
-0.3274 21.0911 -3.1414
-2.3200 22.0492 -3.3018
-4.1091 20.8984 -3.1719
-6.2361 21.4075 -3.3207
-8.5610 21.8918 -3.5007
-25.1536 7.9160 -3.9271
-9.3297 -15.7063 -2.7206
-7.9443 -16.5859 -2.7388
-6.6880 -17.9108 -2.8473
33.4672 -4.7814 -5.0348
36.7659 -1.9355 -5.4830
34.9169 1.2826 -5.2036
20.7675 2.6313 -3.1176
18.9580 4.1468 -2.8901
17.2165 5.4137 -2.6878
16.6629 6.9268 -2.6874
18.5350 9.7270 -3.1174
16.9160 10.9047 -2.9973
13.8404 10.7840 -2.6130
12.5515 11.7216 -2.5576
9.6185 10.7422 -2.1474
8.5784 11.4989 -2.1365
7.5405 12.2539 -2.1428
6.5610 13.1656 -2.1907
5.2450 13.4029 -2.1434
4.1418 14.2055 -2.2037
3.0548 15.5172 -2.3553
2.2734 21.5572 -3.2282
0.3249 20.6166 -3.0707
-1.6146 21.9116 -3.2721
-3.4527 21.0119 -3.1712
-5.4523 21.1604 -3.2543
-7.6749 21.5939 -3.4130
-10.9012 23.7192 -3.8876
-23.9703 13.5595 -4.1014
-9.6533 -15.1512 -2.6755
-8.3632 -16.1441 -2.7077
-7.1393 -17.4349 -2.8058
-5.7872 -18.7523 -2.9227
1.3935 -24.0341 -3.5853
33.4180 -5.8461 -5.0524
36.6448 -3.0808 -5.4766
17.9026 0.0974 -2.6662
21.5670 2.0496 -3.2264
19.6337 3.6552 -2.9742
17.7982 4.9905 -2.7529
16.0563 6.0930 -2.5576
17.9716 8.7257 -2.9752
17.7568 10.6758 -3.0856
16.1870 11.8178 -2.9848
12.9968 11.3977 -2.5744
9.9864 10.4746 -2.1553
8.9415 11.2347 -2.1384
7.9048 11.9889 -2.1386
6.8595 12.7493 -2.1561
5.6183 13.1313 -2.1271
4.5352 13.9193 -2.1802
3.4897 15.2008 -2.3227
2.9433 21.4526 -3.2248
0.9491 20.1625 -3.0061
-0.9101 21.5150 -3.2070
-2.9341 22.1690 -3.3303
-4.7420 21.1161 -3.2231
-6.9042 21.5378 -3.3683
-9.3048 22.0368 -3.5624
-8.7730 -15.7119 -2.6800
-7.5780 -16.9722 -2.7681
-6.2910 -18.3295 -2.8860
37.7467 -7.8273 -5.7411
33.6166 -3.8882 -5.0398
36.8698 -0.9530 -5.4927
34.8820 2.2170 -5.2053
20.1247 3.0989 -3.0324
18.2049 4.4955 -2.7926
16.5542 5.6964 -2.6072
17.2333 7.7109 -2.8117
18.3338 10.2561 -3.1286
16.7251 11.4263 -3.0166
13.4483 11.0692 -2.5940
10.3573 10.2047 -2.1654
9.3057 10.9698 -2.1423
8.2680 11.7247 -2.1366
7.2276 12.4815 -2.1480
6.2102 13.3444 -2.1920
5.0696 14.0514 -2.2247
3.9570 15.0600 -2.3190
3.5549 21.0077 -3.1731
1.6389 20.8837 -3.1197
-0.2312 21.0211 -3.1308
-2.2172 22.0292 -3.2973
-4.0071 20.8785 -3.1661
-6.1249 21.3858 -3.3130
-8.4377 21.8677 -3.4907
-25.1306 8.0340 -3.9292
-31.7365 -10.3684 -4.9722
-9.5342 -15.8866 -2.7593
-8.0054 -16.5214 -2.7341
-6.7541 -17.8410 -2.8410
-5.3705 -19.2099 -2.9706
33.4511 -4.9336 -5.0356
36.7484 -2.1013 -5.4817
34.9260 1.1248 -5.2041
20.8797 2.5496 -3.1326
19.0534 4.0774 -2.9018
17.2990 5.3537 -2.6968
16.5714 6.8010 -2.6677
18.6205 9.6647 -3.1244
16.9951 10.8472 -3.0026
13.9073 10.7353 -2.6165
12.6156 11.6750 -2.5599
9.6715 10.7036 -2.1484
8.6309 11.4607 -2.1367
7.5933 12.2155 -2.1420
6.6155 13.1259 -2.1890
5.2993 13.3634 -2.1409
4.1992 14.1637 -2.2001
3.1186 15.4708 -2.3504
2.3647 21.4908 -3.2199
0.4168 20.5497 -3.0610
-1.5136 21.8919 -3.2681
-3.3991 21.2871 -3.2104
-5.3617 21.2053 -3.2574
-4.7476 13.5519 -2.1385
-10.7588 23.6912 -3.8750
-23.9166 13.6723 -4.1027
-27.1695 -10.6572 -4.3464
-31.1777 -15.5682 -5.1898
-9.7070 -15.0845 -2.6714
-8.4230 -16.0810 -2.7035
-7.2035 -17.3671 -2.8001
-5.8574 -18.6794 -2.9154
1.2863 -24.0688 -3.5896
33.4272 -6.0037 -5.0578
36.6273 -3.2463 -5.4762
17.9429 0.0164 -2.6722
21.6873 1.9621 -3.2430
19.7347 3.5817 -2.9870
17.8847 4.9276 -2.7628
16.1004 6.0266 -2.5602
17.8595 8.5717 -2.9502
17.8393 10.6158 -3.0916
16.2642 11.7617 -2.9892
13.0617 11.3505 -2.5771
10.0398 10.4357 -2.1566
8.9942 11.1964 -2.1388
7.9574 11.9506 -2.1382
6.9129 12.7105 -2.1548
5.6719 13.0923 -2.1249
4.5915 13.8783 -2.1770
3.5915 15.3259 -2.3443
3.0330 21.3874 -3.2170
1.0372 20.0983 -2.9972
-0.8098 21.4420 -3.1956
-2.8295 22.1486 -3.3253
-4.6372 21.0956 -3.2167
-6.7899 21.5155 -3.3600
-9.1772 22.0119 -3.5517
-21.1145 32.6800 -5.7944
-8.8317 -15.6500 -2.6762
-7.6405 -16.9063 -2.7630
-6.3589 -18.2579 -2.8793
29.6531 -15.3223 -4.9708
33.5617 -4.0358 -5.0342
36.8522 -1.1193 -5.4908
34.8719 2.0580 -5.2024
20.2310 3.0216 -3.0463
18.2949 4.4301 -2.8033
16.6327 5.6393 -2.6156
17.1331 7.5732 -2.7897
18.4186 10.1943 -3.1352
16.8039 11.3690 -3.0215
13.5143 11.0213 -2.5971
12.2384 11.9494 -2.5473
9.3585 10.9314 -2.1431
8.3205 11.6865 -2.1365
7.2806 12.4430 -2.1470
6.2919 13.3614 -2.1995
5.1265 14.0101 -2.2218
4.0181 15.0156 -2.3149
3.5827 20.6047 -3.1146
1.7463 21.0314 -3.1429
-0.1356 20.9516 -3.1203
-2.1146 22.0091 -3.2928
-3.9056 20.8587 -3.1604
-6.0143 21.3642 -3.3054
-8.3151 21.8438 -3.4808
-11.6148 23.8592 -3.9519
-31.7431 -10.2119 -4.9660
-9.7447 -16.0721 -2.7991
-8.0665 -16.4570 -2.7295
-6.8200 -17.7716 -2.8349
-5.4371 -19.1161 -2.9598
33.4350 -5.0859 -5.0366
36.7308 -2.2671 -5.4806
34.9352 0.9668 -5.2048
20.9932 2.4671 -3.1480
19.1495 4.0074 -2.9137
17.3820 5.2933 -2.7060
16.4811 6.6770 -2.6483
18.5553 9.5245 -3.1062
17.0745 10.7894 -3.0080
13.9744 10.6865 -2.6199
12.6797 11.6284 -2.5622
9.7246 10.6650 -2.1495
8.6834 11.4225 -2.1368
7.6461 12.1771 -2.1414
6.6700 13.0863 -2.1875
5.3536 13.3239 -2.1385
4.2565 14.1220 -2.1966
3.1819 15.4247 -2.3455
2.4556 21.4247 -3.2116
0.5082 20.4832 -3.0514
-1.4134 21.8811 -3.2655
-3.4046 21.9586 -3.3093
-5.2628 21.2176 -3.2556
-4.6732 13.5354 -2.1325
-10.6173 23.6634 -3.8626
-23.8822 13.7964 -4.1075
-27.2290 -10.5386 -4.3482
-31.2331 -15.4197 -5.1874
-9.7873 -15.0590 -2.6747
-8.4826 -16.0181 -2.6994
-7.2674 -17.2997 -2.7945
-5.9272 -18.6068 -2.9082
33.4833 -4.6292 -4.8213
36.7850 -1.7696 -5.2529
34.9076 1.4405 -4.9833
20.6562 2.7122 -2.9716
18.8634 4.2156 -2.7570
17.1347 5.4732 -2.5657
16.7558 7.0545 -2.5932
18.4497 9.7890 -2.9791
16.8372 10.9620 -2.8657
13.7737 10.8325 -2.4994
12.4876 11.7682 -2.4475
9.5655 10.7808 -2.0558
8.5259 11.5371 -2.0462
7.4877 12.2923 -2.0530
6.5064 13.2053 -2.0998
5.1905 13.4426 -2.0554
4.0841 14.2474 -2.1140
2.9909 15.5637 -2.2606
2.1816 21.6240 -3.1000
0.2323 20.6839 -2.9504
-1.7159 21.9314 -3.1378
-3.5116 20.7819 -3.0063
-5.5601 21.1814 -3.1236
-7.8419 21.7515 -3.2980
-11.0446 23.7473 -3.7356
-10.6306 -16.8527 -2.8421
-8.3031 -16.2074 -2.5975
-7.0748 -17.5029 -2.6928
-5.7419 -18.9086 -2.8186
-4.2515 -20.3948 -2.9716
1.5125 -24.1914 -3.4573
33.4088 -5.6889 -4.8339
36.6623 -2.9153 -5.2459
17.9247 0.1786 -2.5568
21.4479 2.1363 -3.0744
19.5335 3.7281 -2.8365
17.7123 5.0530 -2.6272
16.1404 6.2086 -2.4667
18.4068 9.0402 -2.9250
17.6747 10.7356 -2.9497
16.1101 11.8738 -2.8546
12.9320 11.4449 -2.4632
9.9330 10.5134 -2.0630
8.8890 11.2729 -2.0477
7.8522 12.0272 -2.0487
6.8824 12.9318 -2.0895
5.5943 13.2403 -2.0502
4.4788 13.9603 -2.0912
3.4275 15.2460 -2.2289
2.8532 21.5182 -3.0961
0.8604 20.2270 -2.8877
-1.0111 21.5885 -3.0827
-3.0391 22.1894 -3.1946
-4.8471 21.1366 -3.0931
-7.0191 21.5602 -3.2341
-9.4332 22.0619 -3.4224
-23.7866 14.3087 -3.9594
-8.7143 -15.7739 -2.5704
-7.5152 -17.0384 -2.6562
-6.2228 -18.4014 -2.7707
-4.7816 -19.8152 -2.9075
39.4885 -8.0023 -5.7470
33.6718 -3.7403 -4.8323
36.8874 -0.7864 -5.2626
22.2971 1.5185 -3.1877
20.0541 3.1810 -2.8962
18.1155 4.5605 -2.6645
16.4763 5.7531 -2.4893
17.3351 7.8508 -2.7144
18.2493 10.3175 -2.9902
16.6466 11.4835 -2.8846
13.3826 11.1171 -2.4815
10.3035 10.2439 -2.0724
9.2529 11.0081 -2.0512
8.2155 11.7628 -2.0465
7.1745 12.5202 -2.0583
6.0457 13.1461 -2.0639
5.0126 14.0929 -2.1335
3.8958 15.1045 -2.2250
3.4676 21.0712 -3.0459
1.5331 20.7383 -2.9661
-0.3274 21.0911 -3.0087
-2.3200 22.0492 -3.1624
-4.1091 20.8984 -3.0379
-6.2361 21.4075 -3.1804
-8.5609 21.8918 -3.3528
-9.3297 -15.7063 -2.6057
-7.9443 -16.5859 -2.6231
-6.6880 -17.9108 -2.7270
-5.3168 -19.3569 -2.8632
33.4672 -4.7814 -4.8221
36.7675 -1.9355 -5.2516
34.9168 1.2827 -4.9837
20.7675 2.6313 -2.9859
18.9580 4.1468 -2.7680
17.2165 5.4137 -2.5742
16.6629 6.9268 -2.5739
18.5350 9.7270 -2.9857
16.9160 10.9047 -2.8707
13.8404 10.7840 -2.5026
12.5515 11.7216 -2.4496
9.6185 10.7422 -2.0567
8.5784 11.4989 -2.0463
7.5406 12.2539 -2.0523
6.5610 13.1656 -2.0982
5.2450 13.4029 -2.0529
4.1418 14.2055 -2.1106
3.0548 15.5172 -2.2558
2.2734 21.5572 -3.0919
0.3249 20.6166 -2.9410
-1.6146 21.9116 -3.1339
-3.4527 21.0119 -3.0372
-5.4523 21.1604 -3.1168
-7.6749 21.5939 -3.2688
-10.9013 23.7192 -3.7234
-9.6528 -15.1505 -2.5623
-8.3632 -16.1441 -2.5934
-7.1393 -17.4349 -2.6872
-5.8125 -18.8341 -2.8114
-4.3250 -20.2890 -2.9590
1.3934 -24.0335 -3.4338
33.4180 -5.8461 -4.8390
36.6448 -3.0808 -5.2453
17.9021 0.0974 -2.5535
21.5670 2.0496 -3.0901
19.6337 3.6552 -2.8486
17.7982 4.9905 -2.6366
16.0563 6.0930 -2.4496
17.9716 8.7257 -2.8496
17.7568 10.6758 -2.9553
16.1870 11.8178 -2.8587
12.9968 11.3977 -2.4657
9.9864 10.4746 -2.0643
8.9415 11.2347 -2.0480
7.9048 11.9889 -2.0483
