ply
format ascii 1.0
element vertex 1936
property float32 x
property float32 y
property float32 z
end_header
23.9660 -0.5169 -10.4964
24.1036 1.6356 -10.5784
24.2444 3.8396 -10.7481
-9.4131 0.3496 -4.1245
20.7578 -28.7736 -15.5354
21.7626 -25.1015 -14.5468
21.5650 -20.7943 -13.1174
26.3656 -21.2291 -14.8218
23.4424 -10.1873 -11.1920
23.5003 -7.8042 -10.8426
23.6432 -5.5687 -10.6358
23.7817 -3.4000 -10.5191
23.9184 -1.2614 -10.4877
24.0554 0.8815 -10.5401
24.1948 3.0634 -10.6787
25.1436 5.4976 -11.2697
-6.1177 -19.8246 -9.0845
21.6663 -26.6208 -15.0291
21.2244 -21.7806 -13.3163
23.6537 -20.2907 -13.6458
28.9107 -20.6267 -15.5507
23.4490 -8.6063 -10.9373
23.5940 -6.3383 -10.6973
23.7338 -4.1505 -10.5500
23.8709 -2.0053 -10.4891
24.0075 0.1322 -10.5123
24.1458 2.2963 -10.6204
24.3673 4.5382 -10.8531
20.9996 -27.5079 -15.1534
21.1258 -23.0745 -13.6986
22.2314 -20.3050 -13.1836
27.5330 -20.9666 -15.1534
23.3968 -9.4233 -11.0444
23.5442 -7.1174 -10.7700
23.6855 -4.9062 -10.5913
23.8233 -2.7502 -10.5007
23.9598 -0.6140 -10.4947
24.0972 1.5369 -10.5728
24.2379 3.7379 -10.7384
-9.3965 0.3872 -4.1179
20.7433 -29.0007 -15.6125
21.7504 -25.2940 -14.6071
21.4964 -20.8972 -13.1272
26.1286 -21.2137 -14.7369
23.4897 -10.3214 -11.2345
23.4937 -7.9080 -10.8542
23.6368 -5.6686 -10.6432
23.7755 -3.4976 -10.5226
23.9122 -1.3584 -10.4873
24.0491 0.7836 -10.5359
24.1884 2.9630 -10.6705
24.8742 5.3329 -11.1391
-6.2021 -19.8127 -9.0905
21.6532 -26.8266 -15.0955
21.1988 -21.9318 -13.3560
14.8527 -12.8460 -8.5985
28.6401 -20.6094 -15.4500
23.4262 -9.9551 -10.9590
23.5135 -7.5973 -10.6390
23.6559 -5.3695 -10.4440
23.7942 -3.2049 -10.3370
23.9308 -1.0673 -10.3136
24.0679 1.0776 -10.3727
24.2077 3.2648 -10.5169
11.4718 9.0877 -6.3011
20.6735 -30.0924 -15.7190
21.6920 -26.2151 -14.6498
21.2827 -21.4889 -13.0216
15.2635 -12.8798 -8.5987
29.4631 -20.6620 -15.4936
24.1297 -11.1529 -11.4450
23.4625 -8.3958 -10.7290
23.6069 -6.1367 -10.5016
23.7463 -3.9544 -10.3647
23.8833 -1.8113 -10.3124
24.0199 0.3271 -10.3426
24.1585 2.4956 -10.4567
24.4416 4.7576 -10.7207
21.5830 -27.8014 -15.1534
21.1481 -22.7257 -13.3657
22.5533 -20.2658 -13.0545
28.1733 -21.0952 -15.1534
23.4105 -9.2087 -10.8311
23.5572 -6.9132 -10.5702
23.6981 -4.7086 -10.4026
23.8357 -2.5559 -10.3212
23.9722 -0.4197 -10.3227
24.1099 1.7343 -10.4072
24.2509 3.9416 -10.5782
-9.4313 0.3120 -4.0628
20.7718 -28.5481 -15.2005
21.0607 -24.0936 -13.7778
21.6454 -20.7031 -12.8958
26.6052 -21.2446 -14.6586
23.4343 -10.0709 -10.9818
23.5069 -7.7007 -10.6500
23.6495 -5.4691 -10.4509
23.7880 -3.3024 -10.3400
23.9246 -1.1644 -10.3128
24.0616 0.9795 -10.3682
24.2012 3.1640 -10.5084
11.4959 9.0311 -6.2942
21.6792 -26.4171 -14.7134
21.2537 -21.6343 -13.0574
15.1170 -12.8616 -8.5455
29.1852 -20.6442 -15.3914
23.4558 -8.5009 -10.7416
23.6004 -6.2374 -10.5100
23.7401 -4.0524 -10.3690
23.8771 -1.9083 -10.3130
24.0137 0.2296 -10.3395
24.1521 2.3959 -10.4496
24.3886 4.6447 -10.6891
-6.7077 -19.8166 -9.0075
21.4700 -27.8887 -15.1534
21.1370 -22.8994 -13.4173
22.3918 -20.2855 -13.0086
28.0875 -21.2094 -15.1534
23.4037 -9.3158 -10.8453
23.5507 -7.0153 -10.5800
23.6918 -4.8074 -10.4083
23.8295 -2.6530 -10.3231
23.9660 -0.5169 -10.3209
24.1036 1.6356 -10.4016
24.2444 3.8396 -10.5684
-9.4128 0.3496 -4.0554
20.7574 -28.7731 -15.2754
21.0489 -24.2783 -13.8345
21.5650 -20.7943 -12.8981
25.3335 -20.3981 -14.0035
23.4424 -10.1873 -11.0049
23.5003 -7.8042 -10.6613
23.6432 -5.5687 -10.4580
23.7817 -3.4000 -10.3433
23.9184 -1.2614 -10.3123
24.0554 0.8815 -10.3639
24.1948 3.0634 -10.5001
25.1436 5.4976 -11.0812
11.5342 8.9858 -6.2952
21.6663 -26.6208 -14.7778
21.2244 -21.7806 -13.0936
15.0280 -12.8914 -8.5247
28.9108 -20.6267 -15.2907
23.4490 -8.6063 -10.7544
23.5940 -6.3383 -10.5185
23.7338 -4.1505 -10.3736
23.8709 -2.0053 -10.3137
24.0075 0.1321 -10.3365
24.1458 2.2963 -10.4428
24.3673 4.5382 -10.6716
-6.7885 -19.7904 -9.0080
21.3566 -27.9757 -15.1534
21.1258 -23.0745 -13.4695
22.2314 -20.3050 -12.9632
28.0012 -21.3231 -15.1534
23.3968 -9.4233 -10.8598
23.5442 -7.1174 -10.5899
23.6855 -4.9062 -10.4142
23.8233 -2.7502 -10.3251
23.9598 -0.6140 -10.3192
24.0972 1.5369 -10.3961
24.2379 3.7379 -10.5589
-9.3962 0.3872 -4.0489
20.7429 -29.0002 -15.3511
21.0370 -24.4644 -13.8918
21.4964 -20.8972 -12.9077
25.1061 -20.3835 -13.9234
23.4897 -10.3214 -11.0467
23.4937 -7.9080 -10.6728
23.6368 -5.6686 -10.4653
23.7755 -3.4976 -10.3466
23.9122 -1.3583 -10.3119
24.0491 0.7836 -10.3597
24.1884 2.9629 -10.4921
24.8742 5.3329 -10.9528
11.5929 8.9560 -6.3073
21.6532 -26.8266 -14.8431
21.1988 -21.9318 -13.1327
14.9989 -12.9724 -8.5380
28.6400 -20.6094 -15.1916
23.4262 -9.9551 -10.7736
23.5135 -7.5973 -10.4590
23.6559 -5.3695 -10.2674
24.0299 -3.2367 -10.2628
24.2228 -1.0804 -10.2628
24.2226 1.0845 -10.2628
24.2077 3.2648 -10.3390
11.6056 9.1936 -6.2668
20.6731 -30.0919 -15.4529
20.9801 -25.3547 -13.9293
21.2828 -21.4889 -12.8014
15.2963 -12.9075 -8.4714
29.4631 -20.6620 -15.2315
24.1297 -11.1529 -11.2514
23.4625 -8.3958 -10.5475
23.6069 -6.1367 -10.3240
23.9176 -3.9829 -10.2628
24.1775 -1.8336 -10.2628
24.2447 0.3302 -10.2628
24.1585 2.4956 -10.2798
24.4416 4.7576 -10.5394
21.5908 -27.8114 -14.9025
21.1481 -22.7257 -13.1396
22.5533 -20.2658 -12.8337
28.5405 -21.3702 -15.0913
23.4105 -9.2087 -10.6479
23.5572 -6.9132 -10.3914
23.7820 -4.7252 -10.2628
24.1087 -2.5851 -10.2628
24.2432 -0.4244 -10.2628
24.1844 1.7397 -10.2628
24.2509 3.9416 -10.3992
-9.4310 0.3120 -3.9940
-7.3012 -19.7892 -8.9280
20.7718 -28.5481 -14.9434
21.0607 -24.0936 -13.5448
21.6870 -20.7429 -12.7021
25.5634 -20.4128 -13.8464
23.4343 -10.0709 -10.7960
23.5069 -7.7007 -10.4699
23.6495 -5.4691 -10.2742
24.0166 -3.3342 -10.2628
24.2183 -1.1787 -10.2628
24.2269 0.9863 -10.2628
24.2012 3.1640 -10.3307
11.6428 9.1465 -6.2668
20.6581 -30.3330 -15.5335
20.9676 -25.5500 -13.9898
21.2537 -21.6343 -12.8366
15.2667 -12.9890 -8.4842
29.2283 -20.6747 -15.1534
23.4558 -8.5009 -10.5599
23.6004 -6.2374 -10.3322
23.9012 -4.0799 -10.2628
24.1698 -1.9317 -10.2628
24.2458 0.2318 -10.2628
24.1521 2.3959 -10.2729
24.3886 4.6447 -10.5083
21.5771 -28.0278 -14.9714
21.1370 -22.8994 -13.1903
22.3918 -20.2855 -12.7885
28.2779 -21.3532 -14.9981
23.4037 -9.3158 -10.6619
23.5507 -7.0153 -10.4010
23.7627 -4.8217 -10.2628
24.0307 -2.6754 -10.2342
24.2413 -0.5228 -10.2628
24.1913 1.6415 -10.2628
24.2444 3.8396 -10.3897
-9.4125 0.3496 -3.9867
-7.3806 -19.7574 -8.9270
20.9694 -29.0669 -15.1703
21.0489 -24.2783 -13.6005
21.6027 -20.8307 -12.7021
25.3336 -20.3981 -13.7666
23.4424 -10.1873 -10.8187
23.5003 -7.8042 -10.4810
23.6432 -5.5687 -10.2811
24.0029 -3.4316 -10.2628
24.2133 -1.2769 -10.2628
24.2307 0.8879 -10.2628
24.1948 3.0634 -10.3225
25.1436 5.4976 -10.8938
11.6798 9.0992 -6.2668
20.6425 -30.5760 -15.6150
20.9550 -25.7469 -14.0509
21.2244 -21.7806 -12.8722
23.6537 -20.2907 -13.1907
29.1441 -20.7932 -15.1534
23.4490 -8.6063 -10.5725
23.5940 -6.3383 -10.3405
23.8845 -4.1769 -10.2628
24.1618 -2.0298 -10.2628
24.2465 0.1335 -10.2628
24.1458 2.2963 -10.2661
24.3673 4.5382 -10.4911
21.5632 -28.2463 -15.0412
21.1258 -23.0745 -13.2417
22.2314 -20.3050 -12.7439
28.0185 -21.3363 -14.9063
23.3968 -9.4233 -10.6761
23.5442 -7.1174 -10.4108
23.7429 -4.9181 -10.2628
23.8233 -2.7502 -10.1505
24.2390 -0.6212 -10.2628
24.1978 1.5434 -10.2628
24.2379 3.7378 -10.3803
-9.3959 0.3872 -3.9803
-7.4621 -19.7308 -8.9286
20.8513 -29.1517 -15.1703
21.0370 -24.4643 -13.6568
21.5180 -20.9182 -12.7021
25.1061 -20.3835 -13.6879
30.8049 -20.7434 -15.7191
23.4897 -10.3214 -10.8598
23.4937 -7.9080 -10.4922
23.6368 -5.6686 -10.2883
23.9887 -3.5289 -10.2628
24.2079 -1.3751 -10.2628
24.2340 0.7896 -10.2628
24.1884 2.9630 -10.3146
24.8742 5.3329 -10.7676
11.7167 9.0517 -6.2668
20.6268 -30.8216 -15.6975
21.6532 -26.8266 -14.5920
21.1988 -21.9318 -12.9106
23.4451 -20.2774 -13.1201
29.0595 -20.9112 -15.1534
23.4262 -9.9551 -10.5892
23.5135 -7.5973 -10.2800
24.0572 -5.4606 -10.2628
24.4484 -3.2930 -10.2628
24.6447 -1.0992 -10.2628
24.6445 1.1034 -10.2628
24.4478 3.2972 -10.2628
-7.8957 -19.7385 -8.8442
20.6731 -30.0919 -15.1884
20.9801 -25.3547 -13.6909
21.4855 -21.6936 -12.7021
24.0781 -20.3178 -13.1067
29.4912 -20.6817 -14.9851
24.1297 -11.1529 -11.0588
23.4625 -8.3958 -10.3670
23.8756 -6.2066 -10.2628
24.3341 -4.0522 -10.2628
24.5985 -1.8656 -10.2628
24.6669 0.3360 -10.2628
24.5386 2.5348 -10.2628
24.4416 4.7577 -10.3590
12.2403 9.0911 -6.3431
21.5908 -27.8114 -14.6474
21.1481 -22.7257 -12.9147
22.7108 -20.4073 -12.7021
28.5405 -21.3702 -14.8330
23.4105 -9.2087 -10.4656
23.6709 -6.9466 -10.2628
24.1962 -4.8075 -10.2628
24.5286 -2.6302 -10.2628
24.6654 -0.4318 -10.2628
24.6056 1.7700 -10.2628
24.3496 3.9577 -10.2628
-9.4307 0.3120 -3.9255
20.7718 -28.5481 -14.6877
21.0607 -24.0936 -13.3129
22.0647 -21.1042 -12.7021
25.5634 -20.4128 -13.6094
31.4094 -20.7820 -15.6682
23.4343 -10.0709 -10.6112
23.5069 -7.7007 -10.2907
24.0349 -5.5582 -10.2628
24.4348 -3.3922 -10.2628
24.6400 -1.1992 -10.2628
24.6488 1.0034 -10.2628
24.4610 3.1980 -10.2628
-7.9753 -19.7053 -8.8438
20.6578 -30.3325 -15.2674
20.9676 -25.5500 -13.7503
21.3973 -21.7806 -12.7021
23.8648 -20.3042 -13.0353
29.4803 -20.8530 -15.0225
23.4558 -8.5009 -10.3791
23.8503 -6.3034 -10.2628
24.3174 -4.1509 -10.2628
24.5908 -1.9654 -10.2628
24.6680 0.2359 -10.2628
24.5487 2.4352 -10.2628
24.3886 4.6447 -10.3285
21.5771 -28.0278 -14.7151
21.1370 -22.8994 -12.9646
22.6278 -20.4993 -12.7021
28.2779 -21.3532 -14.7414
23.4037 -9.3158 -10.4794
23.6425 -7.0426 -10.2628
24.1765 -4.9057 -10.2628
24.0307 -2.6754 -10.0590
24.6634 -0.5319 -10.2628
24.6126 1.6701 -10.2628
24.3655 3.8588 -10.2628
-9.4122 0.3496 -3.9184
21.3346 -29.5731 -15.1703
21.0489 -24.2783 -13.3677
21.9789 -21.1935 -12.7021
25.3335 -20.3981 -13.5310
31.1049 -20.7626 -15.5582
23.4424 -10.1873 -10.6335
23.5003 -7.8042 -10.3016
24.0121 -5.6556 -10.2628
24.4209 -3.4914 -10.2628
24.6349 -1.2992 -10.2628
24.6526 0.9034 -10.2628
24.4738 3.0987 -10.2628
25.1436 5.4976 -10.7073
11.8868 9.2604 -6.2687
-8.0603 -19.6853 -8.8494
20.6422 -30.5756 -15.3475
20.9550 -25.7469 -13.8104
21.3088 -21.8672 -12.7021
23.6537 -20.2907 -12.9649
29.4693 -21.0252 -15.0602
23.4490 -8.6064 -10.3915
23.8245 -6.4002 -10.2628
24.3004 -4.2496 -10.2628
24.5826 -2.0651 -10.2628
24.6688 0.1358 -10.2628
24.5584 2.3356 -10.2628
24.3673 4.5382 -10.3116
21.5632 -28.2462 -14.7838
21.1258 -23.0745 -13.0150
22.5444 -20.5909 -12.7021
28.0185 -21.3363 -14.6512
23.3968 -9.4233 -10.4933
23.6138 -7.1385 -10.2628
24.1564 -5.0037 -10.2628
23.8233 -2.7502 -9.9767
24.6611 -0.6320 -10.2628
24.6192 1.5702 -10.2628
24.3810 3.7599 -10.2628
-9.3957 0.3872 -3.9121
21.2144 -29.6594 -15.1703
21.0370 -24.4643 -13.4230
21.8928 -21.2825 -12.7021
25.1061 -20.3835 -13.4536
30.8048 -20.7434 -15.4501
23.4897 -10.3214 -10.6739
23.4937 -7.9080 -10.3126
23.9890 -5.7531 -10.2628
24.4065 -3.5904 -10.2628
24.6295 -1.3991 -10.2628
24.6561 0.8034 -10.2628
24.4862 2.9994 -10.2628
24.8742 5.3329 -10.5833
11.9207 9.2093 -6.2668
-8.1476 -19.6705 -8.8575
20.6265 -30.8212 -15.4286
20.9423 -25.9458 -13.8714
21.2198 -21.9535 -12.7021
23.4451 -20.2774 -12.8955
29.4582 -21.1981 -15.0984
31.7182 -20.8018 -15.5066
23.4262 -9.9551 -10.4057
23.8881 -7.7184 -10.2628
24.4124 -5.5412 -10.2339
24.5563 -3.3076 -10.1296
24.6967 -1.1015 -10.1063
24.8370 1.1120 -10.1638
24.8789 3.3554 -10.2628
21.0126 -30.5860 -15.1703
20.9801 -25.3547 -13.4537
21.8643 -22.0761 -12.7021
24.0781 -20.3178 -12.8796
29.4912 -20.6817 -14.7255
24.1297 -11.1529 -10.8672
23.6364 -8.4580 -10.2628
24.2966 -6.3160 -10.2628
24.5065 -4.0810 -10.1565
24.6480 -1.8693 -10.1053
24.7879 0.3376 -10.1345
24.9298 2.5752 -10.2458
24.6416 4.7966 -10.2628
-8.5773 -19.6464 -8.7638
20.5511 -32.0045 -15.5490
20.8815 -26.8977 -13.9208
21.1667 -22.7458 -12.7021
23.1112 -20.7671 -12.7021
27.4203 -20.5314 -14.0039
23.4105 -9.2087 -10.2843
24.0883 -7.0691 -10.2628
24.4564 -4.8592 -10.1935
24.5993 -2.6377 -10.1141
24.7391 -0.4331 -10.1151
24.8800 1.7897 -10.1975
24.7789 4.0274 -10.2628
-9.4305 0.3119 -3.8574
20.7718 -28.5481 -14.4332
21.0607 -24.0936 -13.0823
22.1968 -21.2305 -12.5568
25.5634 -20.4128 -13.3736
31.4094 -20.7820 -15.3967
23.4343 -10.0709 -10.4274
23.8566 -7.8153 -10.2628
24.4058 -5.6440 -10.2407
24.5498 -3.4082 -10.1325
24.6903 -1.2016 -10.1056
24.8306 1.0108 -10.1594
24.8923 3.2544 -10.2628
20.8883 -30.6710 -15.1703
20.9676 -25.5500 -13.5121
21.7746 -22.1646 -12.7021
23.8648 -20.3042 -12.8095
29.4803 -20.8530 -14.7622
23.6019 -8.5538 -10.2628
24.2707 -6.4146 -10.2628
24.5000 -4.1821 -10.1607
24.6417 -1.9695 -10.1059
24.7815 0.2370 -10.1314
24.9232 2.4724 -10.2389
24.6609 4.6966 -10.2628
12.3974 9.1300 -6.2943
-8.6651 -19.6298 -8.7720
20.5344 -32.2657 -15.6353
20.8681 -27.1069 -13.9851
21.1370 -22.8994 -12.7399
23.0267 -20.8607 -12.7021
27.1683 -20.5153 -13.9176
23.4037 -9.3158 -10.2978
24.0594 -7.1668 -10.2628
24.4498 -4.9611 -10.1990
24.0307 -2.6754 -9.8847
24.7327 -0.5334 -10.1134
24.8735 1.6878 -10.1920
24.7951 3.9268 -10.2628
-9.4119 0.3496 -3.8504
21.4633 -29.7515 -14.9974
21.0489 -24.2783 -13.1361
22.1259 -21.3352 -12.5655
16.0442 -12.9184 -8.4209
31.1049 -20.7626 -15.2887
23.4424 -10.1873 -10.4493
23.8247 -7.9120 -10.2628
24.3992 -5.7468 -10.2476
24.5434 -3.5089 -10.1356
24.6840 -1.3017 -10.1051
24.8242 0.9097 -10.1552
24.9053 3.1534 -10.2628
25.1436 5.4976 -10.5218
20.7637 -30.7555 -15.1703
20.9550 -25.7469 -13.5712
21.6845 -22.2527 -12.7021
23.6537 -20.2907 -12.7403
29.4693 -21.0252 -14.7993
23.5669 -8.6496 -10.2628
24.2445 -6.5130 -10.2628
24.4935 -4.2834 -10.1652
24.6353 -2.0696 -10.1067
24.7752 0.1364 -10.1285
24.9167 2.3697 -10.2322
24.6797 4.5964 -10.2628
12.4444 9.0869 -6.2994
-8.7610 -19.6311 -8.7884
20.5177 -32.5300 -15.7229
20.8546 -27.3180 -14.0502
21.1258 -23.0744 -12.7895
22.9419 -20.9539 -12.7021
26.9195 -20.4994 -13.8326
23.3968 -9.4232 -10.3115
24.0301 -7.2643 -10.2628
24.4432 -5.0631 -10.2048
23.8233 -2.7502 -9.8039
24.7263 -0.6337 -10.1117
24.8671 1.5860 -10.1866
24.8108 3.8262 -10.2628
5.4786 9.4665 -4.4714
-9.3954 0.3871 -3.8442
21.4481 -29.9861 -15.0717
21.0370 -24.4643 -13.1905
22.0604 -21.4454 -12.5776
15.9003 -12.9094 -8.3729
30.8049 -20.7434 -15.1824
23.4897 -10.3214 -10.4890
23.7924 -8.0086 -10.2628
24.3926 -5.8499 -10.2547
24.5369 -3.6096 -10.1389
24.6776 -1.4018 -10.1048
24.8178 0.8086 -10.1512
24.9178 3.0523 -10.2628
24.8742 5.3329 -10.3999
20.6388 -30.8395 -15.1703
20.9423 -25.9458 -13.6311
21.5939 -22.3406 -12.7021
23.5005 -20.3254 -12.7021
29.4582 -21.1981 -14.8368
31.7182 -20.8018 -15.2346
23.5170 -9.9937 -10.2628
24.2644 -7.8400 -10.2416
24.4124 -5.5412 -10.0544
24.5563 -3.3076 -9.9518
24.6967 -1.1015 -9.9290
24.8370 1.1120 -9.9855
24.9801 3.3690 -10.1238
5.6900 9.4156 -4.4186
21.3755 -31.1142 -15.1616
20.9801 -25.3547 -13.2177
21.9490 -22.1616 -12.5276
24.1702 -20.3956 -12.7021
29.4912 -20.6817 -14.4672
24.1297 -11.1528 -10.6766
24.0584 -8.6091 -10.2628
24.3614 -6.3329 -10.1097
24.5065 -4.0810 -9.9783
24.6480 -1.8693 -9.9280
24.7879 0.3376 -9.9567
24.9298 2.5752 -10.0661
25.0816 4.8822 -10.2628
20.5509 -32.0042 -15.2761
20.8815 -26.8977 -13.6765
21.5447 -23.1519 -12.7021
23.4121 -21.0375 -12.6418
27.4203 -20.5314 -13.7582
23.7789 -9.3536 -10.2628
24.3098 -7.1341 -10.1755
24.4564 -4.8592 -10.0147
24.5993 -2.6377 -9.9367
24.7390 -0.4331 -9.9377
24.8800 1.7897 -10.0186
25.0486 4.0713 -10.1925
-9.4302 0.3119 -3.7896
-9.2953 -19.6036 -8.7139
20.7718 -28.5481 -14.1800
21.0607 -24.0936 -12.8528
22.1968 -21.2305 -12.3365
16.1804 -12.9203 -8.3164
31.5001 -20.8421 -15.1703
23.4763 -10.0890 -10.2628
24.2575 -7.9466 -10.2522
24.4058 -5.6439 -10.0610
24.5498 -3.4082 -9.9547
24.6903 -1.2016 -9.9283
24.8306 1.0108 -9.9812
24.9735 3.2650 -10.1157
5.7391 9.4103 -4.4270
21.2613 -31.2187 -15.1703
20.9676 -25.5500 -13.2750
21.9382 -22.3312 -12.5731
24.0873 -20.4935 -12.7021
29.4803 -20.8530 -14.5032
24.0233 -8.7066 -10.2628
24.3547 -6.4368 -10.1177
24.5000 -4.1821 -9.9825
24.6417 -1.9695 -9.9286
24.7815 0.2370 -9.9537
24.9232 2.4724 -10.0593
25.1012 4.7804 -10.2628
20.5342 -32.2654 -15.3609
20.8681 -27.1069 -13.7397
21.4506 -23.2391 -12.7021
23.2071 -21.0242 -12.5771
27.1683 -20.5153 -13.6734
23.7407 -9.4500 -10.2628
24.3030 -7.2394 -10.1849
24.4498 -4.9611 -10.0201
24.0307 -2.6754 -9.7113
24.7327 -0.5334 -9.9359
24.8735 1.6878 -10.0132
25.0294 3.9640 -10.1781
-9.4117 0.3496 -3.7827
21.4633 -29.7515 -14.7343
21.0489 -24.2782 -12.9056
22.1259 -21.3352 -12.3451
16.0858 -12.9519 -8.2947
31.4153 -20.9697 -15.1703
23.4424 -10.1873 -10.2660
24.2501 -8.0533 -10.2628
24.3992 -5.7468 -10.0678
24.5434 -3.5089 -9.9578
24.6840 -1.3018 -9.9278
24.8242 0.9097 -9.9771
24.9669 3.1612 -10.1077
25.1436 5.4976 -10.3373
5.7901 9.4079 -4.4369
21.1345 -31.3047 -15.1703
20.9550 -25.7469 -13.3331
21.9274 -22.5020 -12.6191
24.0040 -20.5911 -12.7021
29.4693 -21.0252 -14.5397
23.9877 -8.8041 -10.2628
24.3480 -6.5408 -10.1259
24.4935 -4.2834 -9.9868
24.6353 -2.0696 -9.9294
24.7752 0.1364 -9.9508
24.9167 2.3696 -10.0527
25.1204 4.6785 -10.2628
20.5174 -32.5294 -15.4468
20.8546 -27.3180 -13.8037
21.3561 -23.3260 -12.7021
23.0044 -21.0110 -12.5133
26.9195 -20.4994 -13.5900
33.2210 -20.8978 -15.7633
23.7022 -9.5462 -10.2628
24.2962 -7.3448 -10.1945
24.4432 -5.0631 -10.0258
23.8233 -2.7502 -9.6319
24.7263 -0.6337 -9.9343
24.8671 1.5860 -10.0079
25.0110 3.8571 -10.1642
5.4786 9.4665 -4.3929
-9.3951 0.3871 -3.7767
21.4481 -29.9862 -14.8073
21.0370 -24.4644 -12.9591
22.0604 -21.4454 -12.3570
16.0518 -13.0324 -8.3044
31.3300 -21.0970 -15.1703
23.4897 -10.3214 -10.3050
24.2173 -8.1516 -10.2628
24.3926 -5.8499 -10.0748
24.5369 -3.6096 -9.9610
24.6776 -1.4018 -9.9275
24.8178 0.8086 -9.9731
24.9603 3.0575 -10.1000
24.9846 5.3566 -10.2628
5.8429 9.4080 -4.4480
21.0073 -31.3902 -15.1703
20.9423 -25.9458 -13.3919
21.9165 -22.6743 -12.6657
23.9202 -20.6883 -12.7021
29.4582 -21.1982 -14.5765
32.1558 -21.0887 -15.1703
23.9424 -10.1744 -10.2628
24.2644 -7.8400 -10.0596
24.4124 -5.5412 -9.8758
24.5563 -3.3076 -9.7750
24.6967 -1.1015 -9.7526
24.8370 1.1120 -9.8081
24.9801 3.3690 -9.9439
15.8172 15.0113 -8.6027
5.7216 9.4679 -4.3642
21.3755 -31.1142 -14.8922
20.9801 -25.3547 -12.9829
21.9490 -22.1616 -12.3051
24.6075 -20.7645 -12.7021
29.4912 -20.6817 -14.2102
24.1297 -11.1529 -10.4869
24.2113 -8.6638 -10.1445
24.3614 -6.3329 -9.9301
24.5065 -4.0809 -9.8010
24.6480 -1.8693 -9.7516
24.7879 0.3376 -9.7798
24.9298 2.5752 -9.8872
25.5353 4.9705 -10.2628
16.3470 14.5746 -8.6399
6.0828 9.3924 -4.4145
20.7778 -32.3575 -15.1703
20.8815 -26.8977 -13.4336
21.8644 -23.4955 -12.6616
23.4121 -21.0375 -12.4172
27.4203 -20.5314 -13.5138
33.8967 -20.9410 -15.7184
24.1600 -9.5035 -10.2421
24.3098 -7.1341 -9.9947
24.4564 -4.8592 -9.8367
24.5993 -2.6377 -9.7601
24.7390 -0.4331 -9.7611
24.8800 1.7897 -9.8406
25.0486 4.0713 -10.0114
13.0778 9.0957 -6.2844
16.7465 14.0202 -8.6162
15.4200 15.4488 -8.6110
-9.4299 0.3119 -3.7222
-9.3162 -19.6476 -8.5783
20.4182 -34.0858 -15.6750
20.7718 -28.5481 -13.9281
21.1903 -24.2418 -12.7021
22.1968 -21.2305 -12.1173
16.2992 -13.0152 -8.2286
32.0699 -21.2191 -15.1703
23.9009 -10.2715 -10.2628
24.2575 -7.9466 -10.0701
24.4058 -5.6439 -9.8823
24.5498 -3.4082 -9.7779
24.6903 -1.2016 -9.7519
24.8306 1.0108 -9.8039
24.9735 3.2650 -9.9360
15.8770 14.9461 -8.6022
5.7641 9.4514 -4.3673
21.3595 -31.3628 -14.9696
20.9676 -25.5500 -13.0392
21.9382 -22.3312 -12.3497
24.5230 -20.8642 -12.7021
29.4803 -20.8530 -14.2455
24.2043 -8.7722 -10.1564
24.3547 -6.4368 -9.9379
24.5000 -4.1821 -9.8051
24.6417 -1.9695 -9.7522
24.7815 0.2370 -9.7768
24.9232 2.4724 -9.8806
25.5553 4.8669 -10.2628
16.3992 14.5021 -8.6363
6.1335 9.3868 -4.4236
20.6464 -32.4416 -15.1703
20.8681 -27.1069 -13.4956
21.8386 -23.6595 -12.7021
23.2071 -21.0242 -12.3536
27.1683 -20.5153 -13.4305
33.5563 -20.9192 -15.5998
24.1657 -9.6191 -10.2609
24.3030 -7.2394 -10.0040
24.4498 -4.9611 -9.8421
24.0307 -2.6754 -9.5388
24.7327 -0.5334 -9.7594
24.8735 1.6878 -9.8352
25.0294 3.9640 -9.9973
13.1212 9.0470 -6.2875
16.8007 13.9500 -8.6149
15.4796 15.3831 -8.6094
-9.4114 0.3496 -3.7154
-9.3946 -19.6071 -8.5771
20.7574 -28.7731 -13.9966
21.0917 -24.3276 -12.7021
22.1259 -21.3352 -12.1257
25.3335 -20.3981 -12.8312
31.9835 -21.3491 -15.1703
23.8590 -10.3684 -10.2628
24.2506 -8.0534 -10.0807
24.3992 -5.7468 -9.8890
24.5434 -3.5089 -9.7809
24.6840 -1.3017 -9.7514
24.8242 0.9097 -9.7998
24.9669 3.1612 -9.9282
25.4142 5.5568 -10.2628
15.9610 14.9035 -8.6149
5.8084 9.4377 -4.3718
21.3433 -31.6140 -15.0480
20.9550 -25.7469 -13.0962
21.9274 -22.5020 -12.3949
24.4381 -20.9636 -12.7021
28.9107 -20.6267 -14.0107
24.1973 -8.8810 -10.1686
24.3480 -6.5408 -9.9459
24.4935 -4.2834 -9.8094
24.6353 -2.0696 -9.7529
24.7752 0.1364 -9.7740
24.9167 2.3696 -9.8741
25.3320 4.7179 -10.1654
16.4514 14.4297 -8.6329
6.1868 9.3850 -4.4345
20.5174 -32.5294 -15.1724
20.8546 -27.3180 -13.5585
21.7424 -23.7479 -12.7021
23.0044 -21.0110 -12.2910
17.0706 -12.9994 -8.4647
33.2210 -20.8978 -15.4832
24.1309 -9.7189 -10.2628
24.2963 -7.3448 -10.0133
24.4432 -5.0631 -9.8476
23.8233 -2.7502 -9.4608
24.7263 -0.6337 -9.7578
24.8671 1.5860 -9.8301
25.0110 3.8571 -9.9836
13.2022 9.0241 -6.3088
16.8549 13.8799 -8.6137
15.5392 15.3175 -8.6079
-9.3948 0.3871 -3.7094
-9.4813 -19.5836 -8.5836
20.7429 -29.0002 -14.0660
21.0370 -24.4643 -12.7288
22.0604 -21.4454 -12.1374
25.1061 -20.3835 -12.7578
31.8967 -21.4786 -15.1703
23.8168 -10.4651 -10.2628
24.2437 -8.1605 -10.0915
24.3926 -5.8499 -9.8958
24.5369 -3.6096 -9.7841
24.6776 -1.4018 -9.7511
24.8178 0.8086 -9.7959
24.9603 3.0575 -9.9205
25.4365 5.4535 -10.2628
16.1019 14.9132 -8.6582
5.8553 9.4279 -4.3783
21.3269 -31.8678 -15.1275
20.9423 -25.9458 -13.1540
21.9165 -22.6743 -12.4407
24.3529 -21.0625 -12.7021
28.6401 -20.6094 -13.9199
32.7452 -21.4753 -15.1703
24.3546 -10.3496 -10.2516
24.2644 -7.8399 -9.8785
24.4124 -5.5412 -9.6980
24.5563 -3.3076 -9.5991
24.6967 -1.1015 -9.5770
24.8370 1.1120 -9.6315
24.9801 3.3690 -9.7649
15.9802 15.1660 -8.5349
5.7860 9.5745 -4.3339
-14.4864 14.1785 -7.8527
-9.9245 -19.5458 -8.4923
21.3755 -31.1142 -14.6241
20.9801 -25.3547 -12.7491
21.9490 -22.1616 -12.0835
25.0574 -21.1442 -12.7015
29.4631 -20.6620 -13.9410
24.1297 -11.1529 -10.2981
24.2113 -8.6638 -9.9619
24.3614 -6.3329 -9.7513
24.5065 -4.0810 -9.6246
24.6480 -1.8693 -9.5761
24.7879 0.3376 -9.6038
24.9298 2.5752 -9.7092
26.0034 5.0617 -10.2628
17.5049 13.0012 -8.4472
6.1164 9.4442 -4.3590
-10.6910 -19.5254 -8.6238
21.1587 -32.9507 -15.1703
20.8815 -26.8977 -13.1917
21.8644 -23.4955 -12.4337
23.4121 -21.0375 -12.1936
27.4203 -20.5314 -13.2705
33.8968 -20.9410 -15.4355
24.1600 -9.5035 -10.0577
24.3098 -7.1341 -9.8148
24.4564 -4.8592 -9.6596
24.5993 -2.6377 -9.5844
24.7391 -0.4331 -9.5854
24.8800 1.7897 -9.6634
25.0486 4.0713 -9.8312
15.6388 15.6680 -8.5760
6.4891 9.3673 -4.4146
-14.5226 13.4640 -7.6720
-9.4296 0.3119 -3.6551
20.4179 -34.0854 -15.3926
20.7718 -28.5481 -13.6773
21.5787 -24.6862 -12.7021
21.6454 -20.7031 -11.6036
25.6215 -20.4593 -12.7021
32.6578 -21.6080 -15.1703
24.3391 -10.4598 -10.2628
24.2575 -7.9466 -9.8888
24.4058 -5.6439 -9.7044
24.5498 -3.4082 -9.6019
24.6903 -1.2016 -9.5764
24.8306 1.0108 -9.6274
24.9735 3.2650 -9.7571
16.0327 15.0926 -8.5302
5.8372 9.5713 -4.3431
-14.4810 14.2887 -7.8812
-10.0173 -19.5317 -8.5038
21.3595 -31.3628 -14.7001
20.9676 -25.5500 -12.8045
21.9382 -22.3312 -12.1274
24.8351 -21.1298 -12.6322
29.1852 -20.6442 -13.8490
24.2043 -8.7722 -9.9736
24.3547 -6.4368 -9.7590
24.5000 -4.1821 -9.6286
24.6417 -1.9695 -9.5767
24.7815 0.2370 -9.6008
24.9232 2.4724 -9.7027
26.0237 4.9561 -10.2628
17.5523 12.9263 -8.4448
6.1595 9.4266 -4.3624
-10.7556 -19.4556 -8.6122
21.0248 -33.0363 -15.1703
20.8681 -27.1069 -13.2527
21.8530 -23.6752 -12.4817
23.2071 -21.0242 -12.1312
27.1683 -20.5153 -13.1887
33.5563 -20.9192 -15.3190
24.1657 -9.6191 -10.0762
24.3030 -7.2394 -9.8239
24.4498 -4.9611 -9.6649
24.0307 -2.6754 -9.3671
24.7327 -0.5334 -9.5837
24.8735 1.6878 -9.6582
25.0294 3.9640 -9.8173
15.6935 15.5957 -8.5713
6.5421 9.3625 -4.4248
-14.5171 13.5688 -7.6981
-9.4111 0.3496 -3.6484
20.3997 -34.3707 -15.4840
20.7574 -28.7731 -13.7446
21.4783 -24.7736 -12.7021
21.5650 -20.7943 -11.6056
25.5384 -20.5630 -12.7021
32.3743 -21.6099 -15.0793
24.2964 -10.5585 -10.2628
24.2506 -8.0534 -9.8992
24.3992 -5.7468 -9.7109
24.5434 -3.5089 -9.6048
24.6840 -1.3017 -9.5759
24.8242 0.9097 -9.6234
24.9669 3.1612 -9.7494
16.0848 15.0191 -8.5254
5.8886 9.5680 -4.3524
-14.4757 14.3998 -7.9100
-10.1238 -19.5437 -8.5268
21.3433 -31.6139 -14.7771
20.9550 -25.7469 -12.8604
21.9274 -22.5020 -12.1718
24.6152 -21.1155 -12.5639
28.9107 -20.6267 -13.7584
24.1973 -8.8810 -9.9855
24.3480 -6.5408 -9.7669
24.4935 -4.2834 -9.6328
24.6353 -2.0696 -9.5774
24.7752 0.1364 -9.5981
24.9167 2.3696 -9.6963
25.3320 4.7179 -9.9824
17.6007 12.8520 -8.4429
6.2055 9.4134 -4.3679
-10.8527 -19.4443 -8.6267
20.8907 -33.1213 -15.1703
20.8546 -27.3180 -13.3144
21.8415 -23.8562 -12.5304
23.0044 -21.0110 -12.0697
16.9677 -12.9210 -8.2622
33.2210 -20.8978 -15.2045
24.1714 -9.7352 -10.0950
24.2963 -7.3448 -9.8331
24.4432 -5.0631 -9.6704
23.8233 -2.7502 -9.2905
24.7263 -0.6337 -9.5822
24.8671 1.5860 -9.6531
25.0110 3.8571 -9.8039
15.7479 15.5233 -8.5665
6.5990 9.3627 -4.4375
-14.5117 13.6744 -7.7246
-9.3946 0.3871 -3.6426
20.3814 -34.6594 -15.5766
20.7429 -29.0002 -13.8128
21.3777 -24.8605 -12.7021
21.4964 -20.8972 -11.6142
25.4547 -20.6666 -12.7021
32.0625 -21.5903 -14.9747
24.2534 -10.6569 -10.2628
24.2437 -8.1605 -9.9098
24.3926 -5.8499 -9.7177
24.5369 -3.6096 -9.6079
24.6776 -1.4018 -9.5756
24.8178 0.8086 -9.6195
24.9603 3.0575 -9.7420
25.9028 5.5535 -10.2628
5.9435 9.5700 -4.3642
-14.4704 14.5119 -7.9393
21.3269 -31.8677 -14.8552
20.9423 -25.9458 -12.9172
21.9165 -22.6743 -12.2167
24.3978 -21.1014 -12.4965
28.6401 -20.6094 -13.6693
33.0116 -21.6500 -15.0147
24.3546 -10.3496 -10.0646
24.2644 -7.8400 -9.6983
24.4124 -5.5412 -9.5211
23.7942 -3.2049 -9.1315
23.9308 -1.0673 -9.1108
24.0679 1.0776 -9.1630
24.9801 3.3690 -9.5868
13.7205 9.0017 -6.2412
6.8561 9.3462 -4.4085
5.7860 9.5745 -4.2548
20.6731 -30.0919 -13.8856
21.2911 -25.7306 -12.7021
21.2827 -21.4889 -11.5030
25.0574 -21.1442 -12.4698
29.4631 -20.6620 -13.6867
24.2113 -8.6638 -9.7802
24.3614 -6.3329 -9.5734
23.7463 -3.9544 -9.1559
23.8833 -1.8113 -9.1097
24.0199 0.3272 -9.1364
24.2829 2.5084 -9.2848
26.4866 5.1557 -10.2628
-14.4787 15.0813 -7.9514
-10.6910 -19.5253 -8.4665
21.2482 -33.0901 -14.9566
20.8815 -26.8977 -12.9511
21.8644 -23.4955 -12.2068
22.5533 -20.2658 -11.5321
27.4203 -20.5314 -13.0284
33.9335 -20.9637 -15.1703
24.1600 -9.5035 -9.8742
24.3098 -7.1341 -9.6358
24.4564 -4.8592 -9.4834
23.8357 -2.5559 -9.1175
23.9722 -0.4197 -9.1188
24.8800 1.7897 -9.4871
25.0486 4.0713 -9.6519
6.5210 9.4133 -4.3553
-14.3845 15.9482 -8.1684
-9.4293 0.3119 -3.5883
20.4970 -34.2174 -15.1703
20.7718 -28.5481 -13.4278
21.7747 -24.9105 -12.5837
21.6454 -20.7031 -11.3919
26.0978 -20.8395 -12.7021
32.6907 -21.6298 -14.9086
24.7913 -10.6541 -10.2628
24.2575 -7.9466 -9.7084
24.4058 -5.6439 -9.5273
23.7880 -3.3024 -9.1342
23.9246 -1.1644 -9.1101
24.0616 0.9795 -9.1590
24.9735 3.2650 -9.5791
13.8186 8.9860 -6.2692
6.9102 9.3403 -4.4189
5.8372 9.5713 -4.2638
20.6578 -30.3325 -13.9578
21.1866 -25.8168 -12.7021
21.2537 -21.6343 -11.5346
24.8351 -21.1298 -12.4018
29.1851 -20.6442 -13.5964
24.2043 -8.7722 -9.7917
24.3547 -6.4368 -9.5810
23.7401 -4.0524 -9.1598
23.8771 -1.9083 -9.1102
24.0137 0.2296 -9.1336
24.5212 2.4325 -9.3720
26.5073 5.0482 -10.2628
-14.4630 15.1879 -7.9766
-10.7538 -19.4523 -8.4537
21.2308 -33.3599 -15.0395
20.8681 -27.1069 -13.0109
21.8530 -23.6752 -12.2540
22.3918 -20.2855 -11.4915
27.1683 -20.5153 -12.9481
33.8482 -21.1012 -15.1703
24.1657 -9.6191 -9.8924
24.3030 -7.2394 -9.6446
24.4498 -4.9611 -9.4886
23.8295 -2.6530 -9.1192
23.9660 -0.5169 -9.1172
24.8735 1.6878 -9.4820
25.0294 3.9640 -9.6382
6.5656 9.3961 -4.3597
-14.3725 16.0655 -8.1985
-9.4108 0.3496 -3.5817
20.3997 -34.3707 -15.2015
20.7574 -28.7731 -13.4939
21.7626 -25.1015 -12.6354
21.5650 -20.7943 -11.3939
26.0130 -20.9452 -12.7021
32.3743 -21.6099 -14.8042
24.7479 -10.7547 -10.2628
24.2506 -8.0534 -9.7186
24.3992 -5.7468 -9.5338
23.7817 -3.4000 -9.1370
23.9184 -1.2614 -9.1096
24.0554 0.8815 -9.1552
24.9669 3.1612 -9.5716
18.3439 11.8232 -8.3004
6.9692 9.3406 -4.4324
5.8886 9.5680 -4.2730
-10.1428 -19.5804 -8.3869
20.6422 -30.5756 -14.0310
21.0817 -25.9025 -12.7021
21.2244 -21.7806 -11.5666
24.6152 -21.1155 -12.3347
28.9107 -20.6267 -13.5074
24.1973 -8.8810 -9.8033
24.3480 -6.5408 -9.5887
23.7338 -4.1505 -9.1638
23.8709 -2.0053 -9.1109
24.0075 0.1322 -9.1310
24.9167 2.3696 -9.5194
25.3320 4.7179 -9.8003
-14.4471 15.2950 -8.0020
-10.8527 -19.4443 -8.4693
21.2132 -33.6327 -15.1235
20.8546 -27.3180 -13.0715
21.8415 -23.8562 -12.3018
22.2314 -20.3050 -11.4513
17.0316 -12.9697 -8.1421
33.7623 -21.2383 -15.1703
24.1714 -9.7352 -9.9108
24.2963 -7.3448 -9.6537
24.4432 -5.0631 -9.4939
23.8233 -2.7502 -9.1210
23.9598 -0.6140 -9.1157
24.8671 1.5860 -9.4770
25.0110 3.8571 -9.6250
18.0341 12.3268 -8.3082
6.6148 9.3852 -4.3670
-14.3721 16.1968 -8.2357
-9.3943 0.3871 -3.5760
20.3813 -34.6592 -15.2924
20.7429 -29.0002 -13.5608
21.7504 -25.2940 -12.6878
21.4964 -20.8972 -11.4024
25.9278 -21.0506 -12.7021
32.0625 -21.5903 -14.7015
24.7041 -10.8550 -10.2628
24.2437 -8.1605 -9.7291
24.3926 -5.8499 -9.5404
23.7755 -3.4976 -9.1400
23.9122 -1.3583 -9.1093
24.0491 0.7836 -9.1515
24.9603 3.0575 -9.5642
18.4036 11.7562 -8.3058
7.0286 9.3409 -4.4461
5.9402 9.5647 -4.2823
-10.2215 -19.5379 -8.3864
21.3269 -31.8677 -14.5842
20.9763 -25.9879 -12.7021
21.1988 -21.9318 -11.6011
24.3978 -21.1014 -12.2685
28.6400 -20.6094 -13.4199
33.0116 -21.6500 -14.7370
24.3546 -10.3496 -9.8784
24.2644 -7.8399 -9.5189
23.6559 -5.3695 -9.0554
23.7942 -3.2049 -8.9626
23.9308 -1.0673 -8.9422
24.0679 1.0776 -8.9935
24.2077 3.2648 -9.1185
6.8916 9.3947 -4.3494
5.7860 9.5745 -4.1761
-14.3604 16.8149 -8.2546
20.6731 -30.0919 -13.6288
21.6920 -26.2150 -12.7019
21.2827 -21.4889 -11.2903
25.0574 -21.1442 -12.2392
29.4631 -20.6620 -13.4336
24.2113 -8.6638 -9.5993
23.6069 -6.1367 -9.1053
23.7463 -3.9544 -8.9866
23.8833 -1.8113 -8.9412
24.0199 0.3272 -8.9675
24.1585 2.4956 -9.0664
26.9857 5.2529 -10.2628
18.6378 11.4144 -8.1586
7.2923 9.3183 -4.4171
-10.6751 -19.4963 -8.2976
21.2482 -33.0901 -14.6799
20.8815 -26.8977 -12.7115
21.1481 -22.7257 -11.5885
22.5533 -20.2658 -11.3188
27.4203 -20.5314 -12.7874
34.5730 -21.3588 -15.1703
24.1600 -9.5035 -9.6916
23.5572 -6.9132 -9.1648
23.6981 -4.7086 -9.0194
23.8357 -2.5559 -8.9489
23.9722 -0.4197 -8.9502
24.1099 1.7343 -9.0235
24.2509 3.9416 -9.1717
-9.4291 0.3119 -3.5218
20.8833 -34.8622 -15.1703
20.7718 -28.5481 -13.1795
21.7747 -24.9104 -12.3509
21.6454 -20.7031 -11.1812
26.5896 -21.2322 -12.7021
31.4094 -20.7820 -14.0593
25.2585 -10.8549 -10.2628
24.2575 -7.9466 -9.5288
23.6495 -5.4691 -9.0613
23.7880 -3.3024 -8.9652
23.9246 -1.1644 -8.9416
24.0616 0.9795 -8.9896
24.2012 3.1640 -9.1112
13.8975 9.0373 -6.1884
6.9364 9.3757 -4.3537
5.8372 9.5713 -4.1850
-14.3402 16.9299 -8.2824
20.6578 -30.3325 -13.6997
21.5858 -26.3033 -12.7021
21.2537 -21.6343 -11.3213
24.8351 -21.1298 -12.1724
29.1851 -20.6442 -13.3449
36.3084 -21.0951 -15.6755
24.2043 -8.7722 -9.6106
23.6004 -6.2374 -9.1125
23.7401 -4.0524 -8.9903
23.8771 -1.9083 -8.9417
24.0137 0.2296 -8.9647
24.1521 2.3959 -9.0602
27.0068 5.1433 -10.2628
18.6840 11.3387 -8.1586
7.3538 9.3187 -4.4314
-10.7647 -19.4720 -8.3057
21.2308 -33.3599 -14.7613
20.8681 -27.1069 -12.7703
21.5350 -23.3306 -11.8524
22.3918 -20.2855 -11.2789
27.1683 -20.5153 -12.7086
34.4861 -21.4988 -15.1703
24.1657 -9.6191 -9.7094
23.5507 -7.0153 -9.1732
23.6918 -4.8073 -9.0244
23.8295 -2.6530 -8.9505
23.9660 -0.5169 -8.9486
24.1036 1.6356 -9.0185
24.2444 3.8396 -9.1632
-9.4105 0.3495 -3.5154
20.7416 -34.9467 -15.1703
20.7574 -28.7731 -13.2443
21.7626 -25.1015 -12.4017
21.5650 -20.7943 -11.1831
26.3656 -21.2291 -12.6362
31.1049 -20.7626 -13.9606
25.2143 -10.9573 -10.2628
24.1374 -8.0158 -9.4943
23.6432 -5.5687 -9.0675
23.7817 -3.4000 -8.9680
23.9184 -1.2614 -8.9411
24.0554 0.8815 -8.9859
24.1948 3.0634 -9.1040
13.9485 8.9902 -6.1948
6.9869 9.3643 -4.3615
5.8886 9.5680 -4.1940
-14.3272 17.0545 -8.3148
20.6422 -30.5756 -13.7715
21.4789 -26.3906 -12.7021
21.2244 -21.7806 -11.3527
24.1895 -20.7503 -11.8971
28.9107 -20.6267 -13.2576
35.9305 -21.0710 -15.5491
24.1973 -8.8810 -9.6220
23.5940 -6.3383 -9.1199
23.7338 -4.1505 -8.9943
23.8709 -2.0053 -8.9424
24.0075 0.1322 -8.9621
24.1458 2.2963 -9.0543
25.3320 4.7179 -9.6190
18.7405 11.2691 -8.1632
7.4156 9.3191 -4.4458
-10.8710 -19.4771 -8.3266
21.2132 -33.6327 -14.8438
20.8546 -27.3180 -12.8297
21.3495 -23.3188 -11.8022
22.2314 -20.3050 -11.2395
17.0213 -12.9618 -7.9866
34.3985 -21.6385 -15.1703
24.1714 -9.7352 -9.7275
24.2963 -7.3448 -9.4751
23.6855 -4.9062 -9.0295
23.8233 -2.7502 -8.9523
23.9598 -0.6140 -8.9471
24.0972 1.5369 -9.0138
24.2379 3.7379 -9.1550
-9.3940 0.3871 -3.5098
20.5996 -35.0306 -15.1703
20.7429 -29.0002 -13.3100
21.7504 -25.2940 -12.4532
21.4964 -20.8972 -11.1915
26.1286 -21.2137 -12.5638
30.8048 -20.7434 -13.8636
25.1696 -11.0595 -10.2628
23.7382 -7.9903 -9.3500
23.6368 -5.6686 -9.0738
23.7755 -3.4976 -8.9709
23.9122 -1.3583 -8.9408
24.0491 0.7836 -8.9823
24.1884 2.9629 -9.0970
14.0434 8.9710 -6.2208
7.0376 9.3528 -4.3694
5.9402 9.5647 -4.2031
-14.3137 17.1794 -8.3473
20.6265 -30.8212 -13.8443
21.3716 -26.4776 -12.7021
21.1988 -21.9318 -11.3865
23.4451 -20.2774 -11.5714
28.6400 -20.6094 -13.1717
31.7182 -20.8018 -13.8940
24.3546 -10.3496 -9.6931
23.5135 -7.5973 -9.0514
23.6559 -5.3695 -8.8855
23.7942 -3.2049 -8.7945
23.9308 -1.0673 -8.7745
24.0679 1.0776 -8.8248
24.2077 3.2648 -8.9475
5.7860 9.5745 -4.0978
20.6731 -30.0918 -13.3731
21.6920 -26.2151 -12.4637
21.2827 -21.4889 -11.0785
24.0781 -20.3178 -11.5402
29.4631 -20.6620 -13.1815
36.8581 -21.2148 -15.5777
23.4625 -8.3958 -9.1279
23.6069 -6.1367 -8.9345
23.7463 -3.9544 -8.8180
23.8833 -1.8113 -8.7735
24.0199 0.3272 -8.7992
24.1585 2.4956 -8.8963
24.4416 4.7577 -9.1209
7.3188 9.3522 -4.3500
-14.2968 17.8358 -8.3730
-10.7035 -19.5482 -8.1636
20.5509 -32.0042 -13.9319
21.2649 -27.3916 -12.7021
21.1481 -22.7257 -11.3712
22.5533 -20.2658 -11.1065
27.7581 -20.7844 -12.7021
35.2339 -21.7671 -15.1703
24.1600 -9.5035 -9.5098
23.5572 -6.9132 -8.9928
23.6981 -4.7086 -8.8502
23.8357 -2.5559 -8.7810
23.9722 -0.4197 -8.7823
24.1099 1.7343 -8.8542
24.2509 3.9416 -8.9996
19.0356 10.8583 -8.0273
7.7541 9.2971 -4.4345
-9.4288 0.3119 -3.4556
21.1097 -35.2402 -15.0471
20.7718 -28.5481 -12.9322
21.7747 -24.9105 -12.1192
21.6454 -20.7031 -10.9714
26.6052 -21.2446 -12.4712
31.4094 -20.7820 -13.7956
25.7414 -11.0624 -10.2628
23.5069 -7.7007 -9.0608
23.6495 -5.4691 -8.8914
23.7880 -3.3024 -8.7970
23.9246 -1.1644 -8.7739
24.0616 0.9795 -8.8210
24.2012 3.1640 -8.9403
5.8372 9.5713 -4.1065
20.6578 -30.3325 -13.4427
21.6792 -26.4171 -12.5178
21.2537 -21.6343 -11.1089
23.8648 -20.3042 -11.4774
29.1851 -20.6442 -13.0946
36.3084 -21.0951 -15.3815
23.4558 -8.5009 -9.1386
23.6004 -6.2374 -8.9416
23.7401 -4.0524 -8.8217
23.8771 -1.9083 -8.7740
24.0137 0.2296 -8.7965
24.1521 2.3959 -8.8903
24.3886 4.6447 -9.0940
7.3707 9.3402 -4.3583
-14.2766 17.9595 -8.4038
-10.7635 -19.4698 -8.1490
20.5342 -32.2654 -14.0092
21.1536 -27.4777 -12.7021
21.1370 -22.8994 -11.4151
22.3918 -20.2855 -11.0673
27.6736 -20.8968 -12.7021
34.9213 -21.7702 -15.0736
24.1657 -9.6191 -9.5273
23.5507 -7.0153 -9.0011
23.6918 -4.8073 -8.8551
23.8295 -2.6530 -8.7826
23.9660 -0.5169 -8.7807
24.1036 1.6356 -8.8494
24.2444 3.8396 -8.9913
19.0869 10.7852 -8.0304
7.8203 9.2995 -4.4507
-9.4103 0.3495 -3.4493
21.1153 -35.5764 -15.1540
20.7574 -28.7731 -12.9959
21.7626 -25.1015 -12.1691
21.5650 -20.7943 -10.9733
26.3656 -21.2291 -12.3992
31.1049 -20.7626 -13.6987
25.6963 -11.1668 -10.2628
23.5003 -7.8042 -9.0703
23.6432 -5.5687 -8.8974
23.7817 -3.4000 -8.7998
23.9184 -1.2614 -8.7734
24.0554 0.8815 -8.8173
24.1948 3.0634 -8.9332
5.8886 9.5680 -4.1153
20.6422 -30.5755 -13.5132
21.6663 -26.6208 -12.5726
21.2244 -21.7806 -11.1397
23.6537 -20.2907 -11.4154
28.9107 -20.6267 -13.0089
35.9305 -21.0710 -15.2575
23.4490 -8.6063 -9.1496
23.5940 -6.3383 -8.9488
23.7338 -4.1505 -8.8256
23.8709 -2.0053 -8.7746
24.0075 0.1322 -8.7940
24.1458 2.2963 -8.8844
24.3673 4.5382 -9.0791
7.4228 9.3281 -4.3666
-14.2605 18.0893 -8.4374
-10.8691 -19.4738 -8.1691
21.2132 -33.6327 -14.5654
21.0419 -27.5634 -12.7021
21.1258 -23.0745 -11.4595
22.2314 -20.3050 -11.0287
17.0110 -12.9540 -7.8321
34.5729 -21.7482 -14.9612
24.1714 -9.7352 -9.5451
23.5442 -7.1174 -9.0096
23.6855 -4.9062 -8.8601
23.8233 -2.7502 -8.7843
23.9598 -0.6140 -8.7793
24.0972 1.5369 -8.8447
24.2379 3.7379 -8.9832
19.1501 10.7186 -8.0386
7.9032 9.3210 -4.4763
-9.3938 0.3871 -3.4438
20.9934 -35.7002 -15.1703
20.7429 -29.0002 -13.0603
21.7504 -25.2940 -12.2196
21.4964 -20.8972 -10.9815
26.1286 -21.2137 -12.3281
30.8049 -20.7434 -13.6035
25.6508 -11.2710 -10.2628
23.4937 -7.9080 -9.0801
23.6368 -5.6686 -8.9036
23.7755 -3.4976 -8.8026
23.9122 -1.3583 -8.7731
24.0491 0.7836 -8.8138
24.1884 2.9629 -8.9264
14.1329 9.0282 -6.1430
5.9402 9.5647 -4.1242
20.6265 -30.8212 -13.5846
21.6532 -26.8266 -12.6281
21.1988 -21.9318 -11.1729
23.4451 -20.2774 -11.3543
28.6400 -20.6094 -12.9246
31.7182 -20.8018 -13.6296
23.4262 -9.9551 -9.1462
23.5135 -7.5973 -8.8791
23.6559 -5.3695 -8.7164
23.7942 -3.2049 -8.6271
23.9308 -1.0673 -8.6075
24.0679 1.0776 -8.6569
24.2077 3.2648 -8.7772
19.3817 10.3709 -7.8987
8.1718 9.2756 -4.4420
5.7860 9.5745 -4.0198
20.6731 -30.0919 -13.1186
21.6920 -26.2151 -12.2265
21.2827 -21.4889 -10.8676
24.0781 -20.3178 -11.3206
29.4630 -20.6620 -12.9307
36.8578 -21.2147 -15.2811
23.4625 -8.3958 -8.9542
23.6069 -6.1367 -8.7645
23.7463 -3.9544 -8.6502
23.8833 -1.8113 -8.6065
24.0199 0.3272 -8.6318
24.1585 2.4956 -8.7270
24.4416 4.7576 -8.9474
-10.7019 -19.5452 -8.0070
20.5509 -32.0043 -13.6668
21.5908 -27.8114 -12.6513
21.1481 -22.7257 -11.1548
22.5533 -20.2658 -10.8951
28.2966 -21.1876 -12.7021
35.2749 -21.7924 -14.8990
23.4105 -9.2087 -9.0394
23.5572 -6.9132 -8.8217
23.6981 -4.7086 -8.6818
23.8357 -2.5559 -8.6139
23.9722 -0.4197 -8.6152
24.1099 1.7343 -8.6857
24.2509 3.9416 -8.8283
7.7672 9.3128 -4.3575
-14.2202 18.9178 -8.5039
-9.4285 0.3119 -3.3898
21.1097 -35.2402 -14.7608
20.7718 -28.5481 -12.6861
21.0607 -24.0936 -11.4988
21.6454 -20.7031 -10.7626
26.6052 -21.2446 -12.2338
31.4094 -20.7820 -13.5330
23.4343 -10.0709 -9.1652
23.5069 -7.7007 -8.8883
23.6495 -5.4691 -8.7222
23.7880 -3.3024 -8.6296
23.9246 -1.1644 -8.6069
24.0616 0.9795 -8.6531
24.2012 3.1640 -8.7701
19.4457 10.3038 -7.9077
8.2550 9.2938 -4.4666
5.8372 9.5713 -4.0283
20.6578 -30.3325 -13.1869
21.6792 -26.4171 -12.2796
21.2537 -21.6343 -10.8975
23.8648 -20.3042 -11.2590
29.1851 -20.6442 -12.8454
36.5048 -21.2092 -15.1703
23.4558 -8.5009 -8.9647
23.6004 -6.2374 -8.7714
23.7401 -4.0524 -8.6538
23.8771 -1.9083 -8.6070
24.0137 0.2296 -8.6291
24.1521 2.3959 -8.7211
24.3886 4.6447 -8.9210
-10.7623 -19.4676 -7.9930
20.5342 -32.2654 -13.7426
21.5640 -28.0108 -12.7021
21.1370 -22.8994 -11.1978
22.3918 -20.2855 -10.8567
28.2104 -21.3022 -12.7021
34.9213 -21.7702 -14.7868
23.4037 -9.3158 -9.0513
23.5507 -7.0153 -8.8299
23.6918 -4.8073 -8.6866
23.8295 -2.6530 -8.6155
23.9660 -0.5169 -8.6136
24.1036 1.6356 -8.6810
24.2444 3.8396 -8.8202
7.8208 9.3001 -4.3663
-9.4100 0.3495 -3.3836
21.1153 -35.5764 -14.8656
20.7574 -28.7731 -12.7486
21.0489 -24.2783 -11.5460
21.5650 -20.7943 -10.7645
26.3656 -21.2291 -12.1632
31.1049 -20.7626 -13.4380
26.1948 -11.3834 -10.2628
23.5003 -7.8042 -8.8977
23.6432 -5.5687 -8.7281
23.7817 -3.4000 -8.6323
23.9184 -1.2614 -8.6065
24.0554 0.8815 -8.6495
24.1948 3.0634 -8.7632
19.5099 10.2367 -7.9168
5.8886 9.5680 -4.0370
20.6422 -30.5755 -13.2560
21.6663 -26.6208 -12.3333
21.2244 -21.7806 -10.9277
23.6537 -20.2907 -11.1982
28.9108 -20.6267 -12.7614
36.4185 -21.3571 -15.1703
23.4490 -8.6063 -8.9754
23.5940 -6.3383 -8.7785
23.7338 -4.1505 -8.6576
23.8709 -2.0053 -8.6076
24.0075 0.1322 -8.6266
24.1458 2.2963 -8.7154
24.3673 4.5382 -8.9064
-10.8673 -19.4705 -8.0122
20.5174 -32.5294 -13.8195
21.4501 -28.0981 -12.7021
21.1258 -23.0745 -11.2414
22.2314 -20.3050 -10.8188
17.0008 -12.9462 -7.6784
34.5729 -21.7482 -14.6765
23.3968 -9.4233 -9.0634
23.5442 -7.1174 -8.8382
23.6855 -4.9062 -8.6915
23.8233 -2.7502 -8.6172
23.9598 -0.6140 -8.6122
24.0972 1.5369 -8.6764
24.2379 3.7379 -8.8123
19.2067 10.7502 -7.9090
7.8781 9.2914 -4.3772
-9.3935 0.3871 -3.3782
21.1998 -36.0512 -15.0279
20.7429 -29.0002 -12.8118
21.0370 -24.4644 -11.5938
21.4964 -20.8972 -10.7725
26.1286 -21.2137 -12.0935
30.8049 -20.7434 -13.3446
23.4937 -7.9080 -8.9073
23.6368 -5.6686 -8.7341
23.7755 -3.4976 -8.6351
23.9122 -1.3583 -8.6061
24.0491 0.7836 -8.6461
24.1884 2.9630 -8.7565
24.8742 5.3329 -9.1411
5.9402 9.5647 -4.0457
20.6265 -30.8212 -13.3261
21.6532 -26.8266 -12.3878
21.1988 -21.9318 -10.9603
23.4451 -20.2774 -11.1382
28.6930 -20.6475 -12.7021
31.7182 -20.8018 -13.3664
23.4262 -9.9551 -8.9695
23.5135 -7.5973 -8.7076
23.6559 -5.3695 -8.5481
23.7942 -3.2049 -8.4605
23.9308 -1.0673 -8.4413
24.0679 1.0776 -8.4897
24.2077 3.2648 -8.6077
8.1774 9.2820 -4.3591
5.7860 9.5745 -3.9422
-14.0102 19.7284 -8.5267
20.6731 -30.0918 -12.8652
20.9801 -25.3547 -11.5968
21.2827 -21.4889 -10.6577
24.0781 -20.3178 -11.1020
29.4912 -20.6817 -12.6931
23.4625 -8.3958 -8.7813
23.6069 -6.1367 -8.5952
23.7463 -3.9544 -8.4831
23.8833 -1.8113 -8.4403
24.0199 0.3272 -8.4651
24.1585 2.4956 -8.5584
24.4416 4.7576 -8.7745
14.6361 8.9636 -6.0479
-10.7003 -19.5422 -7.8511
20.5509 -32.0042 -13.4028
21.5908 -27.8114 -12.4070
21.1481 -22.7257 -10.9393
22.5533 -20.2658 -10.6847
28.5405 -21.3702 -12.5642
33.8967 -20.9410 -14.0403
23.4105 -9.2087 -8.8648
23.5572 -6.9132 -8.6513
23.6981 -4.7086 -8.5141
23.8357 -2.5559 -8.4475
23.9722 -0.4197 -8.4488
24.1099 1.7343 -8.5179
24.2509 3.9416 -8.6578
-9.4282 0.3119 -3.3242
20.4179 -34.0854 -14.0013
20.7718 -28.5481 -12.4411
21.0607 -24.0936 -11.2767
21.6454 -20.7031 -10.5548
25.5634 -20.4128 -11.5278
31.4094 -20.7820 -13.2717
23.4343 -10.0709 -8.9882
23.5069 -7.7007 -8.7167
23.6495 -5.4691 -8.5537
23.7880 -3.3024 -8.4629
23.9246 -1.1644 -8.4407
24.0616 0.9795 -8.4860
24.2012 3.1640 -8.6007
19.5099 10.3378 -7.7805
8.2351 9.2713 -4.3698
5.8372 9.5713 -3.9505
-14.0158 19.9068 -8.5792
20.6578 -30.3325 -12.9322
21.6792 -26.4171 -12.0424
21.2537 -21.6343 -10.6870
23.8648 -20.3042 -11.0415
29.4280 -20.8160 -12.7021
37.2237 -21.6269 -15.1703
23.4558 -8.5009 -8.7916
23.6004 -6.2374 -8.6020
23.7401 -4.0524 -8.4867
23.8771 -1.9083 -8.4408
24.0137 0.2296 -8.4625
24.1521 2.3959 -8.5527
24.3886 4.6447 -8.7487
14.7183 8.9320 -6.0669
-10.7610 -19.4654 -7.8377
20.5342 -32.2654 -13.4772
21.5771 -28.0279 -12.4644
21.1370 -22.8994 -10.9816
22.3918 -20.2855 -10.6470
28.2779 -21.3532 -12.4866
33.5563 -20.9192 -13.9344
23.4037 -9.3158 -8.8765
23.5507 -7.0153 -8.6593
23.6918 -4.8073 -8.5188
23.8295 -2.6530 -8.4491
23.9660 -0.5169 -8.4472
24.1036 1.6356 -8.5133
24.2444 3.8396 -8.6499
-9.4097 0.3495 -3.3181
20.3997 -34.3707 -14.0844
21.1132 -29.2662 -12.7166
21.0489 -24.2783 -11.3230
21.5650 -20.7943 -10.5566
25.3335 -20.3981 -11.4613
31.1049 -20.7626 -13.1785
23.4424 -10.1873 -9.0071
23.5003 -7.8042 -8.7259
23.6432 -5.5687 -8.5595
23.7817 -3.4000 -8.4656
23.9184 -1.2614 -8.4402
24.0554 0.8815 -8.4825
24.1948 3.0634 -8.5940
25.1436 5.4976 -9.0696
19.5336 10.2491 -7.7733
8.2962 9.2642 -4.3823
5.8886 9.5680 -3.9590
20.6422 -30.5756 -13.0000
21.6663 -26.6208 -12.0951
21.2244 -21.7806 -10.7167
23.6537 -20.2907 -10.9819
29.3433 -20.9353 -12.7021
37.1357 -21.7777 -15.1703
23.4490 -8.6063 -8.8021
23.5940 -6.3383 -8.6090
23.7338 -4.1505 -8.4904
23.8709 -2.0053 -8.4414
24.0075 0.1322 -8.4600
24.1458 2.2963 -8.5470
24.3673 4.5382 -8.7343
-10.8655 -19.4672 -7.8562
20.5174 -32.5294 -13.5526
21.5632 -28.2463 -12.5225
21.1258 -23.0745 -11.0243
22.2314 -20.3050 -10.6099
16.9906 -12.9385 -7.5256
33.2210 -20.8978 -13.8302
23.3968 -9.4233 -8.8883
23.5442 -7.1174 -8.6675
23.6855 -4.9062 -8.5236
23.8233 -2.7502 -8.4507
23.9598 -0.6140 -8.4459
24.0972 1.5369 -8.5088
24.2379 3.7379 -8.6421
7.9546 9.3816 -4.3344
-9.3932 0.3871 -3.3129
21.1998 -36.0512 -14.7377
20.9943 -29.3516 -12.7166
21.0370 -24.4644 -11.3699
21.4964 -20.8972 -10.5645
25.1061 -20.3835 -11.3958
30.8049 -20.7434 -13.0869
23.4897 -10.3214 -9.0413
23.4937 -7.9080 -8.7353
23.6368 -5.6686 -8.5654
23.7755 -3.4976 -8.4683
23.9122 -1.3583 -8.4399
24.0491 0.7836 -8.4791
24.1884 2.9629 -8.5874
24.8742 5.3329 -8.9645
19.5617 10.1628 -7.7680
8.3577 9.2570 -4.3949
5.9402 9.5647 -3.9676
20.6265 -30.8212 -13.0687
21.6532 -26.8266 -12.1485
21.1988 -21.9318 -10.7486
23.4451 -20.2774 -10.9231
29.2582 -21.0542 -12.7021
31.7183 -20.8018 -13.1043
23.4262 -9.9551 -8.7936
23.5135 -7.5973 -8.5369
23.6559 -5.3695 -8.3804
23.7942 -3.2049 -8.2946
23.9308 -1.0673 -8.2758
24.0679 1.0776 -8.3232
24.2077 3.2648 -8.4389
5.7860 9.5745 -3.8649
-14.0583 19.7960 -8.3882
20.8430 -30.3391 -12.7166
20.9801 -25.3547 -11.3694
21.2827 -21.4889 -10.4488
24.0781 -20.3178 -10.8843
29.4912 -20.6817 -12.4442
23.4625 -8.3958 -8.6091
23.6069 -6.1367 -8.4267
23.7463 -3.9544 -8.3168
23.8833 -1.8113 -8.2748
24.0199 0.3272 -8.2991
24.1585 2.4956 -8.3906
24.4416 4.7577 -8.6025
8.6681 9.2425 -4.3776
-10.6986 -19.5392 -7.6960
20.5509 -32.0042 -13.1400
21.5908 -27.8114 -12.1637
21.1481 -22.7257 -10.7248
22.5533 -20.2658 -10.4752
28.5405 -21.3702 -12.3178
33.8968 -20.9410 -13.7650
23.4105 -9.2087 -8.6910
23.5572 -6.9132 -8.4817
23.6981 -4.7086 -8.3472
23.8357 -2.5559 -8.2819
23.9722 -0.4197 -8.2831
24.1099 1.7343 -8.3509
24.2509 3.9416 -8.4881
-9.4280 0.3119 -3.2589
20.4179 -34.0854 -13.7268
20.7718 -28.5481 -12.1971
21.0607 -24.0936 -11.0555
21.6454 -20.7031 -10.3478
25.5634 -20.4128 -11.3017
31.4095 -20.7820 -13.0114
23.4343 -10.0709 -8.8119
23.5069 -7.7007 -8.5457
23.6495 -5.4691 -8.3860
23.7880 -3.3024 -8.2970
23.9246 -1.1644 -8.2752
24.0616 0.9795 -8.3196
24.2012 3.1640 -8.4321
5.8372 9.5713 -3.8731
-13.9840 19.8616 -8.3919
20.7197 -30.4234 -12.7166
20.9676 -25.5500 -11.4187
21.2537 -21.6343 -10.4775
23.8648 -20.3042 -10.8250
29.4803 -20.8530 -12.4752
23.4558 -8.5009 -8.6192
23.6004 -6.2374 -8.4333
23.7401 -4.0524 -8.3203
23.8771 -1.9083 -8.2753
24.0137 0.2296 -8.2965
24.1521 2.3959 -8.3849
24.3886 4.6447 -8.5771
8.7318 9.2350 -4.3908
-10.7598 -19.4632 -7.6832
20.5342 -32.2654 -13.2129
21.5771 -28.0278 -12.2200
21.1370 -22.8994 -10.7662
22.3918 -20.2855 -10.4383
28.2779 -21.3532 -12.2417
33.5563 -20.9192 -13.6611
23.4037 -9.3158 -8.7024
23.5507 -7.0153 -8.4895
23.6918 -4.8073 -8.3518
23.8295 -2.6530 -8.2834
23.9660 -0.5169 -8.2816
24.1036 1.6356 -8.3464
24.2444 3.8396 -8.4803
-9.4095 0.3495 -3.2530
20.3997 -34.3707 -13.8082
21.4633 -29.7515 -12.6740
21.0489 -24.2783 -11.1010
21.5650 -20.7943 -10.3496
25.3335 -20.3981 -11.2366
31.1049 -20.7626 -12.9201
23.4424 -10.1873 -8.8305
23.5003 -7.8042 -8.5548
23.6432 -5.5687 -8.3917
23.7817 -3.4000 -8.2996
23.9184 -1.2614 -8.2747
24.0554 0.8815 -8.3161
24.1948 3.0634 -8.4255
25.1436 5.4976 -8.8917
8.3516 9.3260 -4.3250
5.8886 9.5680 -3.8814
-13.9488 19.9834 -8.4193
20.6422 -30.5755 -12.7451
20.9550 -25.7469 -11.4687
21.2244 -21.7806 -10.5065
23.6537 -20.2907 -10.7665
29.4693 -21.0252 -12.5065
23.4490 -8.6063 -8.6295
23.5940 -6.3383 -8.4402
23.7338 -4.1505 -8.3239
23.8709 -2.0053 -8.2759
24.0075 0.1322 -8.2941
24.1458 2.2963 -8.3794
24.3673 4.5382 -8.5631
14.8825 8.9492 -5.9995
8.7990 9.2307 -4.4057
-10.8636 -19.4639 -7.7008
20.5174 -32.5294 -13.2868
21.5632 -28.2463 -12.2769
21.1258 -23.0745 -10.8081
22.2314 -20.3050 -10.4018
16.9805 -12.9308 -7.3736
33.2210 -20.8978 -13.5590
23.3968 -9.4233 -8.7140
23.5442 -7.1174 -8.4975
23.6855 -4.9062 -8.3565
23.8233 -2.7502 -8.2850
23.9598 -0.6140 -8.2803
24.0972 1.5369 -8.3419
24.2379 3.7379 -8.4726
-9.3930 0.3871 -3.2478
20.3813 -34.6593 -13.8908
21.4142 -29.9387 -12.7166
21.0370 -24.4643 -11.1470
21.4964 -20.8972 -10.3573
25.1061 -20.3835 -11.1723
30.8048 -20.7434 -12.8303
23.4897 -10.3214 -8.8640
23.4937 -7.9080 -8.5640
23.6368 -5.6686 -8.3975
23.7755 -3.4976 -8.3023
23.9122 -1.3583 -8.2744
24.0491 0.7836 -8.3128
24.1884 2.9629 -8.4190
24.8742 5.3329 -8.7887
