ply
format ascii 1.0
element vertex 930
property float32 x
property float32 y
property float32 z
end_header
11.5229 -21.0098 -8.9451
11.6286 -21.2025 -8.8578
10.0696 -22.6673 -8.9125
11.6286 -21.2025 -8.6892
10.0985 -22.7326 -8.7655
11.6286 -21.2025 -8.5214
8.4665 -24.3646 -8.9111
10.0986 -22.7326 -8.5936
11.6286 -21.2025 -8.3543
8.4665 -24.3646 -8.7337
10.0985 -22.7326 -8.4225
11.5861 -21.1250 -8.1580
6.6682 -26.0249 -8.9125
8.4665 -24.3646 -8.5569
10.0068 -22.5259 -8.1770
11.6286 -21.2025 -8.0222
6.6964 -26.1348 -8.7660
8.4665 -24.3646 -8.3809
10.0986 -22.7326 -8.0823
11.6286 -21.2025 -7.8572
6.6964 -26.1348 -8.5826
8.4174 -24.2234 -8.1580
10.0985 -22.7326 -7.9132
11.6286 -21.2025 -7.6929
0.0000 -25.0410 -7.7966
6.6964 -26.1348 -8.4000
8.4665 -24.3646 -8.0310
10.0986 -22.7326 -7.7448
11.6286 -21.2025 -7.5291
-0.0000 -25.0410 -7.6277
6.6475 -25.9439 -8.1580
8.4665 -24.3646 -7.8570
10.0986 -22.7326 -7.5770
11.5229 -21.0098 -7.2991
0.0000 -25.0753 -7.4697
6.6964 -26.1348 -8.0368
8.4665 -24.3646 -7.6837
10.0068 -22.5259 -7.3426
11.6286 -21.2025 -7.2036
-0.0000 -25.0682 -7.2997
6.6964 -26.1348 -7.8562
8.4665 -24.3646 -7.5110
10.0986 -22.7326 -7.2434
11.6286 -21.2025 -7.0417
-0.0000 -25.0610 -7.1305
6.6964 -26.1348 -7.6762
8.4166 -24.2212 -7.2957
10.0985 -22.7326 -7.0775
11.6286 -21.2025 -6.8804
0.0000 -25.0539 -6.9619
6.6964 -26.1348 -7.4969
8.4665 -24.3646 -7.1675
10.0985 -22.7326 -6.9121
10.6795 -19.4720 -6.1712
-0.0000 -25.0472 -6.7941
6.6759 -26.0547 -7.2957
8.4665 -24.3646 -6.9966
10.0985 -22.7326 -6.7473
10.6795 -19.4720 -6.0241
-0.0000 -25.0443 -6.6280
6.6964 -26.1348 -7.1400
8.4665 -24.3646 -6.8263
9.3888 -21.1348 -6.1204
10.6848 -19.4816 -5.8803
0.0000 -25.0414 -6.4624
6.6964 -26.1348 -6.9625
7.7960 -22.4351 -6.1294
9.3906 -21.1390 -5.9694
10.8134 -19.7161 -5.8032
-0.0000 -25.0024 -6.2884
6.6964 -26.1348 -6.7855
7.8465 -22.5805 -6.0123
9.3906 -21.1390 -5.8177
10.8134 -19.7161 -5.6557
0.0000 -25.0024 -6.1249
6.2013 -24.2025 -6.1204
7.8465 -22.5805 -5.8560
9.3906 -21.1389 -5.6664
10.8134 -19.7161 -5.5086
-0.0000 -25.0024 -5.9618
6.2269 -24.3027 -5.9822
7.8465 -22.5805 -5.7001
9.3906 -21.1390 -5.5156
10.8134 -19.7161 -5.3620
-0.0000 -25.0411 -5.8083
4.3918 -26.0188 -6.1204
6.2269 -24.3027 -5.8191
7.8465 -22.5805 -5.5447
9.3906 -21.1390 -5.3652
10.8134 -19.7161 -5.2158
-0.0000 -25.0404 -5.6458
4.4090 -26.1206 -5.9727
6.2269 -24.3027 -5.6565
7.8118 -22.4806 -5.3660
9.3906 -21.1389 -5.2153
10.8134 -19.7161 -5.0700
0.0000 -25.0398 -5.4838
4.4090 -26.1206 -5.8014
6.2269 -24.3027 -5.4943
7.8465 -22.5805 -5.2353
9.3906 -21.1390 -5.0657
10.8134 -19.7161 -4.9247
0.0000 -25.0391 -5.3222
4.4090 -26.1206 -5.6306
6.2269 -24.3027 -5.3326
7.8465 -22.5805 -5.0811
9.3906 -21.1390 -4.9166
10.8134 -19.7161 -4.7797
-0.0000 -25.0384 -5.1611
4.3659 -25.8652 -5.4069
6.2269 -24.3027 -5.1712
7.8465 -22.5805 -4.9274
9.3906 -21.1390 -4.7679
10.8134 -19.7161 -4.6351
-0.0000 -25.0378 -5.0004
4.4090 -26.1206 -5.2904
6.2269 -24.3026 -5.0103
7.8465 -22.5805 -4.7741
9.3906 -21.1390 -4.6195
10.8134 -19.7161 -4.4909
-0.0000 -25.0371 -4.8401
4.4090 -26.1206 -5.1209
6.2269 -24.3027 -4.8498
7.8465 -22.5805 -4.6212
9.3906 -21.1389 -4.4716
10.8134 -19.7161 -4.3470
-0.0000 -25.0365 -4.6801
4.4090 -26.1206 -4.9519
6.2269 -24.3027 -4.6897
7.8465 -22.5805 -4.4686
9.3906 -21.1390 -4.3239
10.8134 -19.7161 -4.2035
-0.0000 -25.0358 -4.5206
4.4090 -26.1206 -4.7832
6.1908 -24.1617 -4.5037
7.8465 -22.5805 -4.3164
9.3906 -21.1390 -4.1766
10.8134 -19.7161 -4.0603
-0.0000 -25.0352 -4.3614
4.4090 -26.1206 -4.6149
6.2269 -24.3027 -4.3705
7.8465 -22.5805 -4.1645
9.3906 -21.1390 -4.0297
10.4041 -18.9698 -3.7692
0.0000 -25.0345 -4.2026
4.4090 -26.1206 -4.4469
6.2269 -24.3027 -4.2115
7.8465 -22.5805 -4.0129
9.0701 -20.4174 -3.7505
10.4443 -19.0432 -3.6460
-0.0000 -25.0339 -4.0441
4.4090 -26.1206 -4.2793
6.2269 -24.3027 -4.0528
7.6042 -21.8833 -3.7424
9.0701 -20.4174 -3.6091
10.4443 -19.0432 -3.5086
0.0000 -25.0332 -3.8859
4.4090 -26.1206 -4.1120
6.0144 -23.4731 -3.7614
7.6042 -21.8833 -3.5962
9.0701 -20.4174 -3.4680
10.4443 -19.0432 -3.3715
-0.0000 -25.0326 -3.7280
4.2421 -25.1318 -3.7957
6.0144 -23.4731 -3.6087
7.6042 -21.8833 -3.4502
9.0701 -20.4174 -3.3272
10.4443 -19.0432 -3.2346
-0.0000 -25.0319 -3.5704
4.2421 -25.1318 -3.6354
6.0144 -23.4731 -3.4563
7.6042 -21.8833 -3.3044
9.0701 -20.4174 -3.1867
10.4443 -19.0432 -3.0979
-0.0000 -25.0313 -3.4132
2.2713 -27.1026 -3.7086
4.2421 -25.1318 -3.4754
6.0144 -23.4731 -3.3041
7.6042 -21.8833 -3.1589
9.0351 -20.3388 -3.0346
10.4443 -19.0432 -2.9615
-0.0000 -25.0306 -3.2561
2.2713 -27.1026 -3.5380
4.2421 -25.1318 -3.3155
6.0144 -23.4731 -3.1522
7.5934 -21.8519 -3.0094
9.0701 -20.4174 -2.9063
10.4443 -19.0432 -2.8254
0.0000 -25.0300 -3.0994
2.2713 -27.1026 -3.3678
4.2421 -25.1318 -3.1560
6.0144 -23.4731 -3.0005
7.6042 -21.8833 -2.8687
9.0701 -20.4174 -2.7665
10.4443 -19.0432 -2.6894
-0.0000 -25.0294 -2.9429
2.2713 -27.1026 -3.1978
4.2421 -25.1318 -2.9967
6.0144 -23.4731 -2.8491
7.6042 -21.8833 -2.7239
9.0701 -20.4174 -2.6268
10.4443 -19.0432 -2.5537
-0.0000 -25.0287 -2.7866
2.2713 -27.1026 -3.0281
4.2421 -25.1318 -2.8377
6.0144 -23.4731 -2.6978
7.6042 -21.8833 -2.5793
9.0701 -20.4174 -2.4874
10.4443 -19.0432 -2.4181
-0.0000 -25.0281 -2.6306
2.2713 -27.1026 -2.8586
4.2421 -25.1318 -2.6788
6.0144 -23.4731 -2.5468
7.6042 -21.8833 -2.4349
9.0701 -20.4174 -2.3482
10.4443 -19.0432 -2.2828
0.0000 -25.0274 -2.4747
2.2713 -27.1026 -2.6893
4.2421 -25.1318 -2.5202
6.0144 -23.4731 -2.3960
7.6042 -21.8833 -2.2907
9.0701 -20.4174 -2.2091
10.4418 -19.0386 -2.1471
-0.0000 -25.0268 -2.3191
2.2713 -27.1026 -2.5202
4.2421 -25.1318 -2.3617
6.0144 -23.4731 -2.2454
7.6042 -21.8833 -2.1467
9.0701 -20.4174 -2.0702
10.4443 -19.0432 -2.0126
0.0000 -25.0262 -2.1636
2.2713 -27.1026 -2.3514
4.2421 -25.1318 -2.2035
6.0144 -23.4731 -2.0949
7.6042 -21.8833 -2.0029
9.0701 -20.4174 -1.9315
10.4443 -19.0432 -1.8777
-0.0000 -25.0255 -2.0083
2.2713 -27.1026 -2.1827
4.2421 -25.1318 -2.0454
6.0144 -23.4731 -1.9446
7.6042 -21.8833 -1.8592
9.0701 -20.4174 -1.7929
10.4443 -19.0432 -1.7430
-0.0000 -25.0249 -1.8532
2.2713 -27.1026 -2.0141
4.2421 -25.1318 -1.8874
6.0144 -23.4731 -1.7945
7.6042 -21.8833 -1.7156
9.0701 -20.4174 -1.6545
10.4443 -19.0432 -1.6084
0.0000 -25.0243 -1.6982
2.2713 -27.1026 -1.8457
4.2421 -25.1318 -1.7297
6.0144 -23.4731 -1.6444
7.6042 -21.8833 -1.5722
9.0701 -20.4174 -1.5162
10.4443 -19.0432 -1.4740
-0.0000 -25.0236 -1.5434
2.2713 -27.1026 -1.6775
4.2421 -25.1318 -1.5720
6.0144 -23.4731 -1.4945
7.5750 -21.7990 -1.4234
9.0351 -20.3388 -1.3727
10.4041 -18.9698 -1.3344
-0.0000 -25.0230 -1.3887
2.2713 -27.1026 -1.5094
4.2421 -25.1318 -1.4145
5.9912 -23.3827 -1.3396
7.5750 -21.7990 -1.2807
9.0351 -20.3388 -1.2351
10.4041 -18.9698 -1.2007
-0.0000 -25.0223 -1.2341
2.2713 -27.1026 -1.3414
4.2421 -25.1318 -1.2570
5.9912 -23.3827 -1.1905
7.5750 -21.7990 -1.1382
9.0351 -20.3388 -1.0976
10.4041 -18.9698 -1.0671
-0.0000 -25.0217 -1.0796
2.2713 -27.1026 -1.1735
4.2421 -25.1318 -1.0997
5.9912 -23.3827 -1.0415
7.5750 -21.7990 -0.9957
9.0351 -20.3388 -0.9602
10.4041 -18.9698 -0.9335
0.0000 -25.0211 -0.9252
2.2713 -27.1026 -1.0057
4.2421 -25.1318 -0.9424
5.9912 -23.3827 -0.8925
7.5750 -21.7990 -0.8533
9.0351 -20.3388 -0.8229
10.4041 -18.9698 -0.8000
-0.0000 -25.0204 -0.7709
2.2713 -27.1026 -0.8379
4.2421 -25.1318 -0.7852
5.9912 -23.3827 -0.7437
7.5750 -21.7990 -0.7110
9.0351 -20.3388 -0.6857
10.4041 -18.9698 -0.6666
-0.0000 -25.0198 -0.6166
2.2713 -27.1026 -0.6703
4.2421 -25.1318 -0.6281
5.9912 -23.3827 -0.5949
7.5750 -21.7990 -0.5687
9.0351 -20.3388 -0.5485
10.4041 -18.9698 -0.5332
-0.0000 -25.0192 -0.4624
2.2713 -27.1026 -0.5027
4.2421 -25.1318 -0.4711
5.9912 -23.3827 -0.4461
7.5750 -21.7990 -0.4265
9.0351 -20.3388 -0.4113
10.4041 -18.9698 -0.3999
-0.0000 -25.0185 -0.3082
2.2713 -27.1026 -0.3351
4.2421 -25.1318 -0.3140
5.9912 -23.3827 -0.2974
7.5750 -21.7990 -0.2843
9.0351 -20.3388 -0.2742
10.4041 -18.9698 -0.2666
-0.0000 -25.0179 -0.1541
2.2713 -27.1026 -0.1675
4.2421 -25.1318 -0.1570
5.9912 -23.3827 -0.1487
7.5750 -21.7990 -0.1422
9.0351 -20.3388 -0.1371
10.4041 -18.9698 -0.1333
-0.0000 -25.0173 -0.0000
2.2713 -27.1026 -0.0000
4.2421 -25.1318 -0.0000
5.9912 -23.3827 -0.0000
7.5750 -21.7990 -0.0000
9.0351 -20.3388 -0.0000
10.4041 -18.9698 -0.0000
-0.0000 -25.0167 0.1541
2.2713 -27.1026 0.1675
4.3786 -25.9404 0.1621
6.1840 -24.1351 0.1535
7.8187 -22.5004 0.1467
9.3259 -20.9932 0.1415
10.7388 -19.5802 0.1376
-0.0000 -25.0160 0.3082
2.2713 -27.1026 0.3351
4.3786 -25.9404 0.3241
6.1840 -24.1351 0.3070
7.8187 -22.5004 0.2935
9.3259 -20.9932 0.2830
10.7388 -19.5802 0.2751
-0.0000 -25.0154 0.4623
2.2713 -27.1026 0.5027
4.3786 -25.9404 0.4862
6.1840 -24.1351 0.4605
7.8187 -22.5004 0.4402
9.3259 -20.9932 0.4246
10.7388 -19.5802 0.4127
-0.0000 -25.0148 0.6165
2.2713 -27.1026 0.6703
4.3786 -25.9404 0.6483
6.1840 -24.1351 0.6140
7.8187 -22.5004 0.5870
9.3258 -20.9932 0.5661
10.7388 -19.5802 0.5504
-0.0000 -25.0141 0.7707
2.2713 -27.1026 0.8379
4.3786 -25.9404 0.8105
6.1840 -24.1351 0.7676
7.8187 -22.5004 0.7339
9.3259 -20.9932 0.7077
10.7388 -19.5802 0.6880
0.0000 -25.0135 0.9249
2.2713 -27.1026 1.0057
4.3786 -25.9404 0.9728
6.1840 -24.1351 0.9213
7.8187 -22.5004 0.8808
9.3259 -20.9932 0.8494
10.7388 -19.5802 0.8258
-0.0000 -25.0129 1.0792
2.2713 -27.1026 1.1735
4.3786 -25.9404 1.1351
6.1840 -24.1351 1.0750
7.8187 -22.5004 1.0278
9.3259 -20.9932 0.9911
10.7388 -19.5802 0.9635
-0.0000 -25.0122 1.2336
2.2713 -27.1026 1.3414
4.3786 -25.9404 1.2975
6.1840 -24.1351 1.2288
7.8187 -22.5004 1.1748
9.3259 -20.9932 1.1329
10.7388 -19.5802 1.1014
-0.0000 -25.0116 1.3881
2.2713 -27.1026 1.5094
4.3786 -25.9404 1.4600
6.1840 -24.1351 1.3827
7.8187 -22.5004 1.3219
9.3259 -20.9932 1.2748
10.7388 -19.5802 1.2393
0.0000 -24.9149 1.5367
2.2713 -27.1026 1.6775
4.3786 -25.9404 1.6226
6.1840 -24.1351 1.5367
7.8187 -22.5004 1.4692
9.3259 -20.9932 1.4168
10.7388 -19.5802 1.3774
0.0000 -24.8866 1.6889
2.2713 -27.1026 1.8457
4.3786 -25.9404 1.7853
6.1840 -24.1351 1.6908
7.8187 -22.5004 1.6165
9.3259 -20.9932 1.5589
10.7388 -19.5802 1.5155
0.0000 -24.8584 1.8409
2.2713 -27.1026 2.0141
4.3786 -25.9404 1.9482
6.1840 -24.1351 1.8451
7.8187 -22.5004 1.7640
9.3259 -20.9932 1.7011
10.7388 -19.5802 1.6538
-0.0000 -24.8302 1.9927
2.2713 -27.1026 2.1826
4.3786 -25.9404 2.1112
6.1840 -24.1351 1.9994
7.8187 -22.5004 1.9116
9.3259 -20.9932 1.8435
10.7388 -19.5802 1.7921
-0.0000 -24.7894 2.1432
2.1469 -25.6183 2.2226
4.2586 -25.2296 2.2121
6.1840 -24.1351 2.1540
7.8187 -22.5004 2.0593
9.3259 -20.9932 1.9860
10.7388 -19.5802 1.9307
0.0000 -24.0132 2.2252
1.9982 -23.8431 2.2171
3.9585 -23.4515 2.2038
5.8682 -22.9027 2.1908
7.6866 -22.1202 2.1700
9.3259 -20.9932 2.1286
10.7388 -19.5802 2.0693
0.0000 -22.4480 2.2197
1.8657 -22.2627 2.2091
3.6976 -21.9058 2.1967
5.4755 -21.3698 2.1813
7.1767 -20.6528 2.1619
8.7889 -19.7845 2.1406
10.2792 -18.7421 2.1136
0.0000 -21.4601 2.2555
1.7496 -20.8769 2.2019
3.4687 -20.5496 2.1904
5.1316 -20.0276 2.1730
6.7297 -19.3665 2.1549
8.2362 -18.5403 2.1323
9.6404 -17.5774 2.1071
-0.0000 -21.2538 2.3663
1.6606 -19.8146 2.2138
3.2625 -19.3282 2.1824
4.8283 -18.8441 2.1658
6.3333 -18.2258 2.1482
7.7483 -17.4419 2.1249
9.0756 -16.5476 2.1013
0.0000 -20.0595 2.3585
1.6581 -19.7854 2.3345
3.1026 -18.3808 2.1917
4.5588 -17.7921 2.1595
5.9772 -17.2010 2.1411
7.3159 -16.4687 2.1188
8.5736 -15.6323 2.0963
0.0000 -18.9860 2.3510
1.5805 -18.8590 2.3434
3.0983 -18.3554 2.3050
4.3824 -17.1039 2.1863
5.6586 -16.2841 2.1347
6.9298 -15.5995 2.1136
8.1257 -14.8155 2.0924
0.0000 -18.0201 2.3442
1.5003 -17.9024 2.3370
2.9726 -17.6106 2.3233
4.3767 -17.0815 2.2939
5.5404 -15.9439 2.1957
6.6161 -14.8932 2.1200
7.7216 -14.0788 2.0888
-0.0000 -17.1464 2.3380
1.4278 -17.0366 2.3312
2.8290 -16.7597 2.3176
4.1928 -16.3638 2.3034
5.4978 -15.8213 2.2839
6.6064 -14.8715 2.2189
7.6129 -13.8806 2.1587
-0.0000 -16.3523 2.3324
1.3615 -16.2458 2.3253
2.6984 -15.9861 2.3124
3.9983 -15.6048 2.2977
5.2440 -15.0910 2.2788
6.4308 -14.4762 2.2594
7.5510 -13.7677 2.2397
-0.0000 -15.6272 2.3273
1.3010 -15.5240 2.3200
2.5791 -15.2795 2.3077
3.8202 -14.9096 2.2922
5.0122 -14.4240 2.2741
6.1489 -13.8416 2.2556
7.2175 -13.1598 2.2352
0.0000 -14.9625 2.3226
1.2455 -14.8623 2.3151
2.4698 -14.6316 2.3034
3.6570 -14.2726 2.2871
4.7997 -13.8125 2.2698
5.8902 -13.2593 2.2522
6.9084 -12.5961 2.2300
0.0000 -14.3510 2.3183
1.1945 -14.2537 2.3107
2.3681 -14.0291 2.2984
3.5069 -13.6868 2.2824
4.6041 -13.2496 2.2659
5.6458 -12.7092 2.2466
6.6242 -12.0778 2.2253
0.0000 -13.7854 2.3142
1.1475 -13.6919 2.3065
2.2739 -13.4712 2.2934
3.3684 -13.1461 2.2781
4.4211 -12.7229 2.2611
5.4203 -12.2014 2.2413
6.3619 -11.5996 2.2209
0.0000 -13.2614 2.3103
1.1039 -13.1716 2.3027
2.1867 -12.9549 2.2888
3.2393 -12.6425 2.2736
4.2494 -12.2289 2.2554
5.2116 -11.7316 2.2364
6.1198 -11.1583 2.2171
-0.0000 -12.7738 2.3065
1.0628 -12.6823 2.2980
2.1055 -12.4740 2.2842
3.1171 -12.1653 2.2676
4.0903 -11.7709 2.2501
5.0189 -11.2978 2.2322
5.8986 -10.7550 2.2149
0.0000 -12.3222 2.3034
1.0244 -12.2232 2.2929
2.0283 -12.0161 2.2780
3.0035 -11.7221 2.2620
3.9438 -11.3493 2.2460
4.8253 -10.8621 2.2218
5.6924 -10.3790 2.2128
0.0000 -11.9025 2.3009
0.9882 -11.7917 2.2875
1.9572 -11.5954 2.2733
2.8996 -11.3167 2.2584
3.7947 -10.9201 2.2348
4.6608 -10.4919 2.2194
5.4997 -10.0276 2.2109
0.0000 -11.4965 2.2960
0.9547 -11.3917 2.2830
1.8913 -11.2044 2.2693
2.8025 -10.9376 2.2549
3.6685 -10.5570 2.2320
4.5069 -10.1453 2.2171
5.3192 -9.6985 2.2091
-0.0000 -11.1163 2.2914
0.9233 -11.0171 2.2789
1.8294 -10.8381 2.2656
2.7114 -10.5822 2.2517
3.5627 -10.2527 2.2373
4.3624 -9.8201 2.2149
5.1497 -9.3895 2.2074
0.0000 -10.7597 2.2870
0.8938 -10.6655 2.2750
1.7714 -10.4941 2.2622
2.6259 -10.2483 2.2487
3.4510 -9.9313 2.2348
4.2410 -9.5467 2.2204
4.9790 -9.0782 2.2008
0.0000 -10.4243 2.2830
0.8661 -10.3348 2.2713
1.7167 -10.1705 2.2589
2.5454 -9.9341 2.2459
3.3459 -9.6286 2.2324
4.1125 -9.2576 2.2185
4.8402 -8.8251 2.2043
0.0000 -10.1084 2.2791
0.8400 -10.0231 2.2678
1.6652 -9.8654 2.2558
2.4694 -9.6378 2.2432
3.2466 -9.3431 2.2301
3.9913 -8.9847 2.2167
4.6984 -8.5666 2.2029
0.0000 -9.8103 2.2755
0.8153 -9.7289 2.2645
1.6166 -9.5774 2.2529
2.3977 -9.3579 2.2407
3.1529 -9.0733 2.2280
3.8767 -8.7268 2.2149
4.5643 -8.3222 2.2016
0.0000 -9.5285 2.2721
0.7920 -9.4508 2.2614
1.5649 -9.2709 2.2419
2.3299 -9.0931 2.2383
3.0642 -8.8179 2.2260
3.7682 -8.4826 2.2133
4.4374 -8.0907 2.2003
0.0000 -1.4819 0.3630
0.7699 -9.1873 2.2585
1.5215 -9.0140 2.2394
2.2656 -8.8421 2.2360
2.9800 -8.5758 2.2240
3.6654 -8.2510 2.2117
4.3169 -7.8710 2.1991
0.0000 -1.4437 0.3631
0.7490 -8.9374 2.2557
1.4804 -8.7701 2.2370
2.2045 -8.6039 2.2339
2.9002 -8.3460 2.2222
3.5677 -8.0311 2.2102
4.2025 -7.6624 2.1980
-0.0000 -1.4073 0.3632
0.1176 -1.4034 0.3634
1.4464 -8.5691 2.2427
2.1391 -8.3484 2.2241
2.8243 -8.1275 2.2205
3.4748 -7.8220 2.2088
4.0937 -7.4640 2.1969
0.0000 -1.3726 0.3633
0.1147 -1.3687 0.3635
1.4091 -8.3477 2.2405
2.0913 -8.1621 2.2299
2.7427 -7.8929 2.2114
3.3863 -7.6228 2.2075
3.9900 -7.2749 2.1959
0.0000 -1.3394 0.3633
0.1119 -1.3356 0.3636
1.3735 -8.1368 2.2384
2.0317 -7.9294 2.2204
2.6741 -7.6955 2.2099
3.2913 -7.4089 2.1991
3.8911 -7.0947 2.1949
-0.0000 -1.3077 0.3634
0.1093 -1.3040 0.3636
0.2179 -1.2912 0.3639
1.9817 -7.7343 2.2186
2.6174 -7.5322 2.2158
3.2111 -7.2283 2.1979
3.7967 -6.9226 2.1940
-0.0000 -1.2774 0.3634
0.1067 -1.2737 0.3637
0.2129 -1.2612 0.3639
1.9406 -7.5739 2.2246
2.5546 -7.3515 2.2144
3.1446 -7.0786 2.2038
3.7065 -6.7581 2.1931
0.0000 -1.2483 0.3635
0.1043 -1.2447 0.3637
0.2080 -1.2325 0.3640
0.3105 -1.2116 0.3642
2.4945 -7.1786 2.2130
3.0710 -6.9130 2.2027
3.6202 -6.6007 2.1922
-0.0000 -1.2205 0.3636
0.1020 -1.2169 0.3638
0.2034 -1.2049 0.3640
0.3035 -1.1845 0.3643
2.4370 -7.0132 2.2117
3.0005 -6.7544 2.2016
3.5375 -6.4500 2.1914
-0.0000 -1.1937 0.3636
0.0997 -1.1902 0.3638
0.1989 -1.1785 0.3641
0.2968 -1.1585 0.3643
0.3928 -1.1305 0.3646
2.9330 -6.6023 2.2006
3.4583 -6.3054 2.1906
0.0000 -1.1680 0.3637
0.0976 -1.1646 0.3639
0.1946 -1.1531 0.3641
0.2904 -1.1336 0.3643
0.3844 -1.1061 0.3646
2.8681 -6.4564 2.1996
3.3822 -6.1667 2.1898
-0.0000 -1.1433 0.3637
0.0955 -1.1400 0.3639
0.1905 -1.1287 0.3641
0.2843 -1.1096 0.3644
0.3762 -1.0827 0.3646
0.4656 -1.0482 0.3649
3.3091 -6.0335 2.1891
-0.0000 -1.1196 0.3638
0.0935 -1.1163 0.3640
0.1866 -1.1052 0.3642
0.2784 -1.0864 0.3644
0.3684 -1.0601 0.3647
0.4559 -1.0263 0.3649
0.5404 -0.9854 0.3652
-0.0000 -1.0967 0.3638
0.0916 -1.0934 0.3640
0.1827 -1.0826 0.3642
0.2727 -1.0642 0.3644
0.3608 -1.0384 0.3647
0.4466 -1.0053 0.3649
0.5293 -0.9652 0.3652
0.0000 -1.0746 0.3639
0.0898 -1.0714 0.3640
0.1791 -1.0608 0.3643
0.2672 -1.0427 0.3645
0.3535 -1.0174 0.3647
0.4376 -0.9850 0.3649
0.5187 -0.9457 0.3652
0.0000 -1.0533 0.3639
0.0880 -1.0502 0.3641
0.1755 -1.0398 0.3643
0.2619 -1.0221 0.3645
0.3465 -0.9972 0.3647
0.4289 -0.9654 0.3650
0.5083 -0.9269 0.3652
0.0000 -1.0328 0.3639
0.0863 -1.0297 0.3641
0.1721 -1.0195 0.3643
0.2568 -1.0021 0.3645
0.3398 -0.9778 0.3648
0.4205 -0.9466 0.3650
0.4984 -0.9087 0.3652
0.0000 -1.0130 0.3640
0.0846 -1.0099 0.3642
0.1688 -0.9999 0.3644
0.2518 -0.9828 0.3646
0.3332 -0.9589 0.3648
0.4124 -0.9283 0.3650
0.4888 -0.8912 0.3652
0.0000 -0.9938 0.3640
0.0830 -0.9908 0.3642
0.1656 -0.9809 0.3644
0.2471 -0.9642 0.3646
0.3269 -0.9408 0.3648
0.4046 -0.9107 0.3650
0.4795 -0.8743 0.3653
-0.0000 -0.9752 0.3641
0.0815 -0.9723 0.3642
0.1625 -0.9626 0.3644
0.2424 -0.9462 0.3646
0.3208 -0.9232 0.3648
0.3970 -0.8937 0.3650
0.4705 -0.8579 0.3653
0.0000 -0.9573 0.3641
0.0800 -0.9544 0.3643
0.1595 -0.9449 0.3644
0.2380 -0.9287 0.3646
0.3149 -0.9061 0.3649
0.3897 -0.8772 0.3651
0.4619 -0.8421 0.3653
0.0000 -0.9399 0.3641
0.0785 -0.9371 0.3643
0.1566 -0.9277 0.3645
0.2336 -0.9119 0.3647
0.3091 -0.8897 0.3649
0.3826 -0.8612 0.3651
0.4534 -0.8268 0.3653
-0.0000 -0.9231 0.3642
0.0771 -0.9203 0.3643
0.1538 -0.9111 0.3645
0.2295 -0.8955 0.3647
0.3036 -0.8737 0.3649
0.3757 -0.8458 0.3651
0.4453 -0.8119 0.3653
-0.0000 -0.9068 0.3642
0.0758 -0.9040 0.3644
0.1511 -0.8950 0.3645
0.2254 -0.8797 0.3647
0.2982 -0.8582 0.3649
0.3691 -0.8308 0.3651
0.4374 -0.7975 0.3653
-0.0000 -0.8909 0.3642
0.0744 -0.8882 0.3644
0.1484 -0.8793 0.3646
0.2215 -0.8643 0.3647
0.2930 -0.8432 0.3649
0.3626 -0.8162 0.3651
0.4297 -0.7836 0.3653
-0.0000 -0.8756 0.3643
0.0732 -0.8729 0.3644
0.1459 -0.8641 0.3646
0.2176 -0.8494 0.3648
0.2879 -0.8286 0.3650
0.3563 -0.8021 0.3651
0.4223 -0.7700 0.3654
-0.0000 -0.8607 0.3643
0.0719 -0.8580 0.3644
0.1434 -0.8494 0.3646
0.2139 -0.8349 0.3648
0.2830 -0.8145 0.3650
0.3503 -0.7884 0.3652
0.4151 -0.7568 0.3654
0.0000 -0.8462 0.3643
0.0707 -0.8436 0.3645
0.1410 -0.8351 0.3646
0.2103 -0.8208 0.3648
0.2783 -0.8008 0.3650
0.3443 -0.7751 0.3652
0.4081 -0.7441 0.3654
-0.0000 -0.8321 0.3643
0.0695 -0.8295 0.3645
0.1386 -0.8212 0.3647
0.2068 -0.8071 0.3648
0.2736 -0.7874 0.3650
0.3386 -0.7622 0.3652
0.4013 -0.7316 0.3654
0.0000 -0.8184 0.3644
0.0684 -0.8159 0.3645
0.1363 -0.8077 0.3647
0.2034 -0.7938 0.3648
0.2691 -0.7744 0.3650
0.3330 -0.7496 0.3652
0.3947 -0.7196 0.3654
0.0000 -0.8051 0.3644
0.0673 -0.8026 0.3645
0.1341 -0.7945 0.3647
0.2001 -0.7809 0.3649
0.2647 -0.7618 0.3650
0.3276 -0.7374 0.3652
0.3882 -0.7078 0.3654
0.0000 -0.7921 0.3644
0.0662 -0.7897 0.3646
0.1319 -0.7817 0.3647
0.1969 -0.7683 0.3649
0.2604 -0.7495 0.3651
0.3223 -0.7255 0.3652
0.3819 -0.6964 0.3654
0.0000 -0.7795 0.3645
0.0651 -0.7771 0.3646
0.1298 -0.7692 0.3647
0.1937 -0.7560 0.3649
0.2563 -0.7375 0.3651
0.3171 -0.7139 0.3652
0.3758 -0.6853 0.3654
-0.0000 -0.7672 0.3645
0.0641 -0.7648 0.3646
0.1278 -0.7571 0.3648
0.1907 -0.7441 0.3649
0.2522 -0.7259 0.3651
0.3121 -0.7026 0.3653
0.3699 -0.6744 0.3654
-0.0000 -0.7552 0.3645
0.0631 -0.7528 0.3646
0.1258 -0.7452 0.3648
0.1877 -0.7324 0.3649
0.2483 -0.7145 0.3651
0.3072 -0.6916 0.3653
0.3641 -0.6639 0.3654
-0.0000 -0.7435 0.3645
0.0621 -0.7412 0.3647
0.1238 -0.7337 0.3648
0.1848 -0.7211 0.3650
0.2444 -0.7035 0.3651
0.3025 -0.6809 0.3653
0.3584 -0.6536 0.3655
0.0000 -0.7321 0.3645
0.0612 -0.7298 0.3647
0.1219 -0.7224 0.3648
0.1819 -0.7100 0.3650
0.2407 -0.6927 0.3651
0.2978 -0.6704 0.3653
0.3529 -0.6435 0.3655
0.0000 -0.7210 0.3646
0.0602 -0.7187 0.3647
0.1201 -0.7115 0.3648
0.1792 -0.6992 0.3650
0.2370 -0.6821 0.3651
0.2933 -0.6602 0.3653
0.3476 -0.6337 0.3655
0.0000 -0.7101 0.3646
0.0593 -0.7079 0.3647
0.1183 -0.7007 0.3649
0.1765 -0.6887 0.3650
0.2335 -0.6718 0.3652
0.2889 -0.6503 0.3653
0.3423 -0.6242 0.3655
-0.0000 -0.6995 0.3646
0.0584 -0.6973 0.3647
0.1165 -0.6903 0.3649
0.1738 -0.6784 0.3650
0.2300 -0.6618 0.3652
0.2845 -0.6405 0.3653
0.3372 -0.6148 0.3655
0.0000 -0.6892 0.3646
0.0576 -0.6870 0.3648
0.1148 -0.6801 0.3649
0.1713 -0.6684 0.3650
0.2266 -0.6520 0.3652
0.2803 -0.6310 0.3653
0.3322 -0.6057 0.3655
0.0000 -0.6791 0.3647
0.0567 -0.6769 0.3648
0.1131 -0.6701 0.3649
0.1687 -0.6585 0.3650
0.2232 -0.6424 0.3652
0.2762 -0.6218 0.3653
0.3273 -0.5968 0.3655
0.0000 -0.6692 0.3647
0.0559 -0.6671 0.3648
0.1115 -0.6603 0.3649
0.1663 -0.6489 0.3651
0.2200 -0.6330 0.3652
0.2722 -0.6127 0.3654
0.3225 -0.5881 0.3655
0.0000 -0.6595 0.3647
0.0551 -0.6574 0.3648
0.1098 -0.6508 0.3649
0.1639 -0.6396 0.3651
0.2168 -0.6239 0.3652
0.2682 -0.6038 0.3654
0.3179 -0.5796 0.3655
-0.0000 -0.6501 0.3647
0.0543 -0.6480 0.3648
0.1083 -0.6414 0.3650
0.1615 -0.6304 0.3651
0.2137 -0.6149 0.3652
0.2644 -0.5952 0.3654
0.3133 -0.5712 0.3655
0.0000 -0.6408 0.3647
0.0535 -0.6388 0.3648
0.1067 -0.6323 0.3650
0.1592 -0.6214 0.3651
0.2106 -0.6062 0.3652
0.2606 -0.5867 0.3654
0.3088 -0.5631 0.3655
-0.0000 -0.6318 0.3648
0.0528 -0.6298 0.3649
0.1052 -0.6234 0.3650
0.1570 -0.6126 0.3651
0.2077 -0.5976 0.3653
0.2569 -0.5784 0.3654
0.3045 -0.5551 0.3655
