ply
format ascii 1.0
element vertex 2176
property float32 x
property float32 y
property float32 z
end_header
-0.5569 0.6807 0.3659
-0.6150 0.6279 0.3657
-0.6682 0.5702 0.3655
-0.7161 0.5080 0.3652
-0.7581 0.4418 0.3650
-0.7941 0.3722 0.3649
-0.8238 0.2997 0.3647
-0.8468 0.2249 0.3645
-0.8631 0.1483 0.3643
-0.8726 0.0707 0.3642
-0.8751 -0.0075 0.3641
-0.8707 -0.0855 0.3640
-0.8593 -0.1629 0.3639
-0.8412 -0.2389 0.3638
-0.8163 -0.3129 0.3637
-0.7850 -0.3845 0.3637
-0.7476 -0.4530 0.3636
-0.7041 -0.5179 0.3636
-0.6551 -0.5787 0.3636
-0.6009 -0.6349 0.3637
-0.5419 -0.6861 0.3637
-0.4786 -0.7319 0.3638
-0.4115 -0.7719 0.3639
-0.3410 -0.8057 0.3640
-0.2678 -0.8332 0.3641
-0.1925 -0.8541 0.3642
-0.1155 -0.8682 0.3644
-0.0376 -0.8755 0.3645
0.0407 -0.8758 0.3647
0.1188 -0.8691 0.3649
0.1960 -0.8555 0.3651
0.2717 -0.8350 0.3653
0.3453 -0.8079 0.3655
0.4163 -0.7743 0.3657
0.4840 -0.7345 0.3659
0.5480 -0.6887 0.3662
0.6076 -0.6375 0.3664
0.6625 -0.5810 0.3666
0.7121 -0.5199 0.3668
0.7561 -0.4545 0.3670
0.7941 -0.3854 0.3672
0.8257 -0.3132 0.3674
0.8508 -0.2383 0.3676
0.8690 -0.1615 0.3677
0.8803 -0.0833 0.3679
0.8846 -0.0044 0.3680
0.8817 0.0746 0.3681
0.8718 0.1530 0.3682
0.8549 0.2303 0.3683
0.8311 0.3057 0.3684
0.8006 0.3787 0.3684
0.7636 0.4487 0.3685
0.7206 0.5151 0.3685
0.6717 0.5773 0.3685
0.6174 0.6349 0.3684
0.5582 0.6874 0.3684
0.4946 0.7343 0.3683
0.4269 0.7754 0.3682
0.3559 0.8101 0.3681
0.2821 0.8384 0.3680
0.2061 0.8599 0.3679
0.1285 0.8745 0.3677
0.0499 0.8821 0.3676
-0.0290 0.8826 0.3674
-0.1076 0.8761 0.3672
-0.1853 0.8625 0.3670
-0.2614 0.8420 0.3668
-0.3353 0.8149 0.3666
-0.4065 0.7813 0.3664
-0.4743 0.7414 0.3662
-0.5383 0.6957 0.3659
-0.5979 0.6445 0.3657
-0.6526 0.5883 0.3655
-0.7021 0.5274 0.3653
-0.7460 0.4623 0.3651
-0.7838 0.3937 0.3649
-0.8154 0.3220 0.3647
-0.8405 0.2478 0.3646
-0.8589 0.1717 0.3644
-0.8704 0.0943 0.3642
-0.8751 0.0163 0.3641
-0.8727 -0.0619 0.3640
-0.8635 -0.1395 0.3639
-0.8474 -0.2159 0.3638
-0.8246 -0.2907 0.3637
-0.7952 -0.3630 0.3637
-0.7596 -0.4325 0.3636
-0.7179 -0.4986 0.3636
-0.6706 -0.5607 0.3636
-0.6179 -0.6183 0.3637
-0.5603 -0.6711 0.3637
-0.4983 -0.7186 0.3638
-0.4322 -0.7603 0.3639
-0.3628 -0.7961 0.3639
-0.2903 -0.8255 0.3641
-0.2156 -0.8485 0.3642
-0.1390 -0.8647 0.3643
-0.0613 -0.8740 0.3645
0.0169 -0.8764 0.3647
0.0951 -0.8718 0.3649
0.1726 -0.8603 0.3650
0.2489 -0.8419 0.3652
0.3232 -0.8168 0.3655
0.3951 -0.7852 0.3657
0.4638 -0.7472 0.3659
0.5290 -0.7032 0.3661
0.5900 -0.6536 0.3663
0.6464 -0.5987 0.3665
0.6976 -0.5389 0.3667
0.7433 -0.4748 0.3669
0.7832 -0.4068 0.3671
0.8168 -0.3354 0.3673
0.8439 -0.2613 0.3675
0.8642 -0.1850 0.3677
0.8776 -0.1072 0.3678
0.8840 -0.0285 0.3680
0.8834 0.0506 0.3681
0.8756 0.1293 0.3682
0.8608 0.2069 0.3683
0.8390 0.2830 0.3684
0.8105 0.3568 0.3684
0.7755 0.4278 0.3685
0.7343 0.4953 0.3685
0.6871 0.5588 0.3685
0.6345 0.6179 0.3684
0.5767 0.6720 0.3684
0.5144 0.7207 0.3683
0.4479 0.7635 0.3683
0.3779 0.8002 0.3682
0.3048 0.8305 0.3680
0.2294 0.8541 0.3679
0.1522 0.8708 0.3678
0.0738 0.8805 0.3676
-0.0051 0.8832 0.3674
-0.0838 0.8788 0.3673
-0.1618 0.8674 0.3671
-0.2385 0.8490 0.3669
-0.3131 0.8238 0.3667
-0.3852 0.7921 0.3664
-0.4541 0.7542 0.3662
-0.5193 0.7102 0.3660
-0.5802 0.6606 0.3658
-0.6365 0.6059 0.3656
-0.6877 0.5463 0.3654
-0.7333 0.4825 0.3652
-0.7730 0.4149 0.3650
-0.8065 0.3441 0.3648
-0.8336 0.2706 0.3646
-0.8540 0.1950 0.3644
-0.8677 0.1180 0.3643
-0.8744 0.0400 0.3641
-0.8742 -0.0382 0.3640
-0.8670 -0.1160 0.3639
-0.8530 -0.1929 0.3638
-0.8322 -0.2682 0.3637
-0.8048 -0.3413 0.3637
-0.7711 -0.4118 0.3637
-0.7312 -0.4789 0.3636
-0.6855 -0.5423 0.3636
-0.6345 -0.6013 0.3637
-0.5783 -0.6556 0.3637
-0.5176 -0.7047 0.3637
-0.4527 -0.7483 0.3638
-0.3842 -0.7859 0.3639
-0.3126 -0.8173 0.3640
-0.2385 -0.8422 0.3642
-0.1625 -0.8605 0.3643
-0.0850 -0.8719 0.3644
-0.0069 -0.8764 0.3646
0.0714 -0.8740 0.3648
0.1492 -0.8645 0.3650
0.2259 -0.8482 0.3652
0.3009 -0.8252 0.3654
0.3735 -0.7955 0.3656
0.4433 -0.7594 0.3658
0.5096 -0.7172 0.3660
0.5719 -0.6693 0.3662
0.6297 -0.6159 0.3665
0.6826 -0.5576 0.3667
0.7300 -0.4947 0.3669
0.7717 -0.4278 0.3671
0.8072 -0.3574 0.3673
0.8363 -0.2841 0.3675
0.8587 -0.2084 0.3676
0.8743 -0.1310 0.3678
0.8828 -0.0524 0.3679
0.8843 0.0266 0.3681
0.8787 0.1054 0.3682
0.8660 0.1835 0.3683
0.8463 0.2601 0.3683
0.8199 0.3346 0.3684
0.7868 0.4065 0.3684
0.7475 0.4752 0.3685
0.7021 0.5400 0.3685
0.6510 0.6005 0.3685
0.5948 0.6561 0.3684
0.5338 0.7065 0.3684
0.4685 0.7511 0.3683
0.3995 0.7898 0.3682
0.3273 0.8220 0.3681
0.2525 0.8477 0.3680
0.1758 0.8665 0.3678
0.0977 0.8783 0.3677
0.0189 0.8832 0.3675
-0.0599 0.8809 0.3673
-0.1382 0.8716 0.3671
-0.2154 0.8553 0.3669
-0.2907 0.8322 0.3667
-0.3636 0.8025 0.3665
-0.4335 0.7664 0.3663
-0.4999 0.7242 0.3661
-0.5622 0.6763 0.3659
-0.6199 0.6230 0.3656
-0.6727 0.5649 0.3654
-0.7200 0.5023 0.3652
-0.7616 0.4358 0.3650
-0.7970 0.3659 0.3648
-0.8261 0.2932 0.3647
-0.8485 0.2182 0.3645
-0.8642 0.1415 0.3643
-0.8731 0.0638 0.3642
-0.8750 -0.0144 0.3641
-0.8699 -0.0924 0.3639
-0.8580 -0.1696 0.3638
-0.8392 -0.2455 0.3638
-0.8138 -0.3193 0.3637
-0.7820 -0.3907 0.3637
-0.7440 -0.4589 0.3636
-0.7000 -0.5234 0.3636
-0.6505 -0.5838 0.3636
-0.5959 -0.6396 0.3637
-0.5365 -0.6904 0.3637
-0.4728 -0.7356 0.3638
-0.4054 -0.7751 0.3639
-0.3347 -0.8084 0.3640
-0.2613 -0.8353 0.3641
-0.1857 -0.8556 0.3642
-0.1087 -0.8692 0.3644
-0.0307 -0.8758 0.3646
0.0476 -0.8754 0.3647
0.1256 -0.8681 0.3649
0.2027 -0.8539 0.3651
0.2783 -0.8329 0.3653
0.3517 -0.8052 0.3655
0.4224 -0.7710 0.3657
0.4898 -0.7307 0.3660
0.5534 -0.6844 0.3662
0.6127 -0.6327 0.3664
0.6671 -0.5758 0.3666
0.7162 -0.5143 0.3668
0.7597 -0.4485 0.3670
0.7971 -0.3791 0.3672
0.8282 -0.3066 0.3674
0.8526 -0.2316 0.3676
0.8703 -0.1547 0.3677
0.8810 -0.0764 0.3679
0.8846 0.0025 0.3680
0.8811 0.0815 0.3681
0.8706 0.1599 0.3682
0.8530 0.2370 0.3683
0.8286 0.3122 0.3684
0.7976 0.3850 0.3684
0.7601 0.4547 0.3685
0.7165 0.5207 0.3685
0.6671 0.5826 0.3685
0.6124 0.6397 0.3684
0.5528 0.6917 0.3684
0.4888 0.7382 0.3683
0.4208 0.7787 0.3682
0.3495 0.8129 0.3681
0.2755 0.8406 0.3680
0.1993 0.8615 0.3679
0.1216 0.8755 0.3677
0.0429 0.8824 0.3675
-0.0360 0.8823 0.3674
-0.1145 0.8751 0.3672
-0.1921 0.8610 0.3670
-0.2680 0.8399 0.3668
-0.3417 0.8122 0.3666
-0.4126 0.7780 0.3664
-0.4801 0.7376 0.3661
-0.5437 0.6914 0.3659
-0.6029 0.6398 0.3657
-0.6572 0.5831 0.3655
-0.7062 0.5218 0.3653
-0.7496 0.4564 0.3651
-0.7869 0.3875 0.3649
-0.8179 0.3156 0.3647
-0.8424 0.2412 0.3645
-0.8602 0.1649 0.3644
-0.8711 0.0875 0.3642
-0.8751 0.0094 0.3641
-0.8722 -0.0687 0.3640
-0.8623 -0.1463 0.3639
-0.8456 -0.2226 0.3638
-0.8222 -0.2971 0.3637
-0.7923 -0.3693 0.3637
-0.7562 -0.4385 0.3636
-0.7140 -0.5042 0.3636
-0.6661 -0.5659 0.3636
-0.6130 -0.6232 0.3637
-0.5550 -0.6755 0.3637
-0.4926 -0.7225 0.3638
-0.4262 -0.7637 0.3639
-0.3565 -0.7989 0.3640
-0.2838 -0.8278 0.3641
-0.2089 -0.8502 0.3642
-0.1322 -0.8658 0.3644
-0.0545 -0.8745 0.3645
0.0238 -0.8763 0.3647
0.1020 -0.8711 0.3649
0.1794 -0.8590 0.3651
0.2555 -0.8400 0.3653
0.3297 -0.8143 0.3655
0.4012 -0.7821 0.3657
0.4697 -0.7436 0.3659
0.5345 -0.6991 0.3661
0.5951 -0.6490 0.3663
0.6511 -0.5936 0.3665
0.7019 -0.5334 0.3668
0.7471 -0.4689 0.3670
0.7864 -0.4006 0.3672
0.8194 -0.3290 0.3673
0.8459 -0.2547 0.3675
0.8657 -0.1782 0.3677
0.8785 -0.1003 0.3678
0.8843 -0.0215 0.3680
0.8830 0.0575 0.3681
0.8745 0.1362 0.3682
0.8591 0.2137 0.3683
0.8368 0.2896 0.3684
0.8077 0.3632 0.3684
0.7721 0.4339 0.3685
0.7303 0.5011 0.3685
0.6827 0.5642 0.3685
0.6296 0.6229 0.3684
0.5714 0.6765 0.3684
0.5087 0.7247 0.3683
0.4418 0.7670 0.3683
0.3715 0.8032 0.3682
0.2983 0.8329 0.3680
0.2227 0.8559 0.3679
0.1453 0.8720 0.3678
0.0669 0.8811 0.3676
-0.0120 0.8831 0.3674
-0.0907 0.8781 0.3672
-0.1687 0.8660 0.3670
-0.2451 0.8470 0.3668
-0.3196 0.8213 0.3666
-0.3914 0.7891 0.3664
-0.4600 0.7505 0.3662
-0.5248 0.7061 0.3660
-0.5854 0.6560 0.3658
-0.6412 0.6008 0.3656
-0.6919 0.5409 0.3654
-0.7370 0.4767 0.3651
-0.7762 0.4088 0.3650
-0.8092 0.3377 0.3648
-0.8357 0.2640 0.3646
-0.8555 0.1883 0.3644
-0.8685 0.1111 0.3643
-0.8746 0.0331 0.3641
-0.8738 -0.0450 0.3640
-0.8661 -0.1228 0.3639
-0.8514 -0.1996 0.3638
-0.8301 -0.2747 0.3637
-0.8021 -0.3476 0.3637
-0.7678 -0.4178 0.3636
-0.7274 -0.4846 0.3636
-0.6813 -0.5476 0.3636
-0.6297 -0.6063 0.3637
-0.5731 -0.6602 0.3637
-0.5120 -0.7088 0.3638
-0.4468 -0.7518 0.3638
-0.3780 -0.7889 0.3639
-0.3062 -0.8197 0.3640
-0.2319 -0.8441 0.3642
-0.1557 -0.8618 0.3643
-0.0782 -0.8726 0.3645
0.0000 -0.8765 0.3646
0.0783 -0.8734 0.3648
0.1560 -0.8634 0.3650
0.2326 -0.8465 0.3652
0.3074 -0.8228 0.3654
0.3798 -0.7926 0.3656
0.4493 -0.7559 0.3658
0.5153 -0.7132 0.3660
0.5772 -0.6648 0.3663
0.6346 -0.6110 0.3665
0.5696 -0.6514 0.3663
0.6259 -0.5983 0.3665
0.6771 -0.5404 0.3667
0.7231 -0.4780 0.3669
0.7633 -0.4118 0.3671
0.7974 -0.3422 0.3673
0.8251 -0.2698 0.3674
0.8463 -0.1952 0.3676
0.8607 -0.1189 0.3678
0.8682 -0.0416 0.3679
0.8688 0.0360 0.3680
0.8624 0.1135 0.3681
0.8490 0.1900 0.3682
0.8288 0.2651 0.3683
0.8020 0.3381 0.3684
0.7687 0.4083 0.3684
0.7292 0.4753 0.3684
0.6839 0.5385 0.3684
0.6330 0.5974 0.3684
0.5771 0.6514 0.3684
0.5166 0.7002 0.3683
0.4520 0.7434 0.3682
0.3837 0.7806 0.3681
0.3124 0.8114 0.3680
0.2387 0.8358 0.3679
0.1631 0.8534 0.3678
0.0862 0.8642 0.3676
0.0087 0.8681 0.3674
-0.0688 0.8650 0.3673
-0.1456 0.8549 0.3671
-0.2212 0.8381 0.3669
-0.2950 0.8146 0.3667
-0.3663 0.7845 0.3665
-0.4346 0.7483 0.3663
-0.4994 0.7061 0.3660
-0.5601 0.6583 0.3658
-0.6162 0.6054 0.3656
-0.6674 0.5476 0.3654
-0.7133 0.4856 0.3652
-0.7533 0.4198 0.3650
-0.7874 0.3507 0.3648
-0.8152 0.2789 0.3647
-0.8364 0.2049 0.3645
-0.8510 0.1294 0.3643
-0.8588 0.0529 0.3642
-0.8598 -0.0240 0.3641
-0.8540 -0.1006 0.3640
-0.8414 -0.1763 0.3639
-0.8221 -0.2507 0.3638
-0.7963 -0.3230 0.3637
-0.7643 -0.3928 0.3637
-0.7261 -0.4594 0.3637
-0.6822 -0.5223 0.3637
-0.6329 -0.5812 0.3637
-0.5785 -0.6354 0.3637
-0.5196 -0.6846 0.3638
-0.4565 -0.7284 0.3638
-0.3898 -0.7664 0.3639
-0.3199 -0.7984 0.3640
-0.2475 -0.8240 0.3642
-0.1730 -0.8431 0.3643
-0.0971 -0.8556 0.3644
-0.0203 -0.8612 0.3646
0.0566 -0.8600 0.3648
0.1332 -0.8519 0.3650
0.2088 -0.8371 0.3652
0.2829 -0.8155 0.3654
0.3547 -0.7875 0.3656
0.4238 -0.7531 0.3658
0.4897 -0.7127 0.3660
0.5516 -0.6665 0.3662
0.6093 -0.6150 0.3664
0.6621 -0.5585 0.3666
0.7097 -0.4974 0.3668
0.7517 -0.4323 0.3670
0.7877 -0.3637 0.3672
0.8174 -0.2921 0.3674
0.8406 -0.2181 0.3676
0.8571 -0.1422 0.3677
0.8667 -0.0652 0.3679
0.8693 0.0124 0.3680
0.8650 0.0900 0.3681
0.8538 0.1669 0.3682
0.8357 0.2425 0.3683
0.8108 0.3161 0.3684
0.7795 0.3873 0.3684
0.7418 0.4553 0.3684
0.6983 0.5197 0.3684
0.6491 0.5800 0.3684
0.5946 0.6355 0.3684
0.5355 0.6860 0.3683
0.4720 0.7309 0.3683
0.4048 0.7699 0.3682
0.3344 0.8027 0.3681
0.2613 0.8291 0.3679
0.1862 0.8488 0.3678
0.1096 0.8617 0.3677
0.0323 0.8676 0.3675
-0.0453 0.8666 0.3673
-0.1224 0.8587 0.3671
-0.1984 0.8439 0.3669
-0.2728 0.8224 0.3667
-0.3449 0.7943 0.3665
-0.4142 0.7599 0.3663
-0.4801 0.7195 0.3661
-0.5421 0.6734 0.3659
-0.5997 0.6220 0.3657
-0.6524 0.5656 0.3655
-0.6999 0.5049 0.3653
-0.7418 0.4402 0.3651
-0.7777 0.3720 0.3649
-0.8074 0.3010 0.3647
-0.8307 0.2276 0.3645
-0.8473 0.1525 0.3644
-0.8572 0.0762 0.3642
-0.8602 -0.0006 0.3641
-0.8565 -0.0773 0.3640
-0.8459 -0.1534 0.3639
-0.8287 -0.2283 0.3638
-0.8049 -0.3013 0.3638
-0.7747 -0.3719 0.3637
-0.7383 -0.4395 0.3637
-0.6961 -0.5036 0.3637
-0.6484 -0.5638 0.3637
-0.5956 -0.6194 0.3637
-0.5380 -0.6702 0.3638
-0.4761 -0.7157 0.3638
-0.4104 -0.7555 0.3639
-0.3414 -0.7893 0.3640
-0.2697 -0.8169 0.3641
-0.1958 -0.8380 0.3643
-0.1203 -0.8525 0.3644
-0.0437 -0.8602 0.3646
0.0332 -0.8611 0.3647
0.1100 -0.8551 0.3649
0.1860 -0.8423 0.3651
0.2606 -0.8228 0.3653
0.3332 -0.7967 0.3655
0.4032 -0.7642 0.3657
0.4700 -0.7256 0.3659
0.5332 -0.6811 0.3661
0.5922 -0.6312 0.3663
0.6466 -0.5762 0.3666
0.6958 -0.5164 0.3668
0.7395 -0.4525 0.3670
0.7774 -0.3849 0.3672
0.8090 -0.3141 0.3673
0.8342 -0.2408 0.3675
0.8528 -0.1654 0.3677
0.8645 -0.0887 0.3678
0.8693 -0.0112 0.3680
0.8671 0.0665 0.3681
0.8579 0.1436 0.3682
0.8419 0.2197 0.3683
0.8191 0.2940 0.3683
0.7897 0.3660 0.3684
0.7539 0.4350 0.3684
0.7121 0.5006 0.3684
0.6646 0.5621 0.3684
0.6117 0.6192 0.3684
0.5539 0.6712 0.3683
0.4917 0.7178 0.3683
0.4256 0.7587 0.3682
0.3561 0.7934 0.3681
0.2838 0.8218 0.3680
0.2092 0.8435 0.3679
0.1330 0.8585 0.3677
0.0559 0.8666 0.3675
-0.0217 0.8677 0.3674
-0.0990 0.8619 0.3672
-0.1754 0.8491 0.3670
-0.2504 0.8296 0.3668
-0.3233 0.8035 0.3666
-0.3935 0.7710 0.3664
-0.4605 0.7324 0.3662
-0.5237 0.6880 0.3660
-0.5827 0.6381 0.3658
-0.6369 0.5833 0.3655
-0.6861 0.5238 0.3653
-0.7297 0.4602 0.3651
-0.7674 0.3930 0.3649
-0.7990 0.3228 0.3648
-0.8243 0.2501 0.3646
-0.8429 0.1754 0.3644
-0.8549 0.0995 0.3643
-0.8600 0.0228 0.3641
-0.8584 -0.0541 0.3640
-0.8499 -0.1304 0.3639
-0.8346 -0.2057 0.3638
-0.8128 -0.2793 0.3638
-0.7845 -0.3507 0.3637
-0.7500 -0.4193 0.3637
-0.7096 -0.4845 0.3637
-0.6635 -0.5459 0.3637
-0.6122 -0.6030 0.3637
-0.5560 -0.6553 0.3637
-0.4953 -0.7024 0.3638
-0.4307 -0.7440 0.3639
-0.3627 -0.7797 0.3640
-0.2918 -0.8092 0.3641
-0.2185 -0.8323 0.3642
-0.1434 -0.8488 0.3644
-0.0671 -0.8586 0.3645
0.0098 -0.8615 0.3647
0.0867 -0.8576 0.3649
0.1630 -0.8469 0.3650
0.2381 -0.8294 0.3652
0.3113 -0.8053 0.3654
0.3822 -0.7747 0.3656
0.4501 -0.7380 0.3659
0.5144 -0.6953 0.3661
0.5748 -0.6469 0.3663
0.6306 -0.5934 0.3665
0.6814 -0.5350 0.3667
0.7268 -0.4724 0.3669
0.7665 -0.4058 0.3671
0.8001 -0.3359 0.3673
0.8273 -0.2633 0.3675
0.8479 -0.1885 0.3676
0.8617 -0.1121 0.3678
0.8686 -0.0348 0.3679
0.8685 0.0429 0.3680
0.8615 0.1202 0.3682
0.8475 0.1967 0.3682
0.8267 0.2716 0.3683
0.7993 0.3444 0.3684
0.7654 0.4144 0.3684
0.7254 0.4811 0.3684
0.6796 0.5439 0.3684
0.6283 0.6023 0.3684
0.5720 0.6559 0.3684
0.5111 0.7043 0.3683
0.4461 0.7469 0.3682
0.3775 0.7835 0.3681
0.3060 0.8139 0.3680
0.2321 0.8376 0.3679
0.1563 0.8547 0.3678
0.0794 0.8648 0.3676
0.0019 0.8681 0.3674
-0.0756 0.8644 0.3673
-0.1524 0.8537 0.3671
-0.2278 0.8363 0.3669
-0.3014 0.8122 0.3667
-0.3724 0.7816 0.3665
-0.4405 0.7448 0.3662
-0.5049 0.7021 0.3660
-0.5652 0.6538 0.3658
-0.6210 0.6004 0.3656
-0.6717 0.5423 0.3654
-0.7170 0.4799 0.3652
-0.7566 0.4138 0.3650
-0.7901 0.3445 0.3648
-0.8173 0.2724 0.3646
-0.8380 0.1983 0.3645
-0.8520 0.1227 0.3643
-0.8592 0.0461 0.3642
-0.8596 -0.0307 0.3641
-0.8532 -0.1073 0.3640
-0.8400 -0.1830 0.3639
-0.8201 -0.2572 0.3638
-0.7938 -0.3293 0.3637
-0.7611 -0.3988 0.3637
-0.7225 -0.4651 0.3637
-0.6781 -0.5277 0.3637
-0.6283 -0.5861 0.3637
-0.5735 -0.6400 0.3637
-0.5142 -0.6887 0.3638
-0.4508 -0.7320 0.3639
-0.3837 -0.7695 0.3639
-0.3136 -0.8009 0.3641
-0.2410 -0.8260 0.3642
-0.1663 -0.8445 0.3643
-0.0903 -0.8563 0.3645
-0.0136 -0.8614 0.3646
0.0634 -0.8595 0.3648
0.1399 -0.8509 0.3650
0.2154 -0.8354 0.3652
0.2893 -0.8133 0.3654
0.3609 -0.7847 0.3656
0.4298 -0.7498 0.3658
0.4953 -0.7088 0.3660
0.5569 -0.6622 0.3662
0.6141 -0.6102 0.3664
0.6665 -0.5533 0.3666
0.7136 -0.4918 0.3668
0.7551 -0.4264 0.3670
0.7905 -0.3575 0.3672
0.8197 -0.2857 0.3674
0.8423 -0.2115 0.3676
0.8582 -0.1355 0.3677
0.8672 -0.0584 0.3679
0.8692 0.0193 0.3680
0.8643 0.0968 0.3681
0.8525 0.1736 0.3682
0.8337 0.2490 0.3683
0.8083 0.3225 0.3684
0.7764 0.3934 0.3684
0.7382 0.4612 0.3684
0.6941 0.5252 0.3684
0.6445 0.5851 0.3684
0.5896 0.6402 0.3684
0.5300 0.6902 0.3683
0.4662 0.7346 0.3683
0.3987 0.7731 0.3682
0.3280 0.8053 0.3681
0.2548 0.8311 0.3679
0.1795 0.8502 0.3678
0.1029 0.8625 0.3676
0.0255 0.8678 0.3675
-0.0521 0.8662 0.3673
-0.1291 0.8577 0.3671
-0.2050 0.8423 0.3669
-0.2793 0.8202 0.3667
-0.3511 0.7915 0.3665
-0.4202 0.7566 0.3663
-0.4857 0.7157 0.3661
-0.5473 0.6691 0.3659
-0.6045 0.6172 0.3657
-0.6568 0.5605 0.3655
-0.7038 0.4993 0.3653
-0.7452 0.4343 0.3651
-0.7806 0.3658 0.3649
-0.8097 0.2946 0.3647
-0.8324 0.2210 0.3645
-0.8484 0.1458 0.3644
-0.8577 0.0695 0.3642
-0.8602 -0.0074 0.3641
-0.8558 -0.0841 0.3640
-0.8447 -0.1601 0.3639
-0.8268 -0.2348 0.3638
-0.8025 -0.3076 0.3637
-0.7717 -0.3780 0.3637
-0.7348 -0.4453 0.3637
-0.6921 -0.5091 0.3637
-0.6440 -0.5689 0.3637
-0.5907 -0.6241 0.3637
-0.5327 -0.6744 0.3638
-0.4705 -0.7194 0.3638
-0.4045 -0.7587 0.3639
-0.3352 -0.7920 0.3640
-0.2633 -0.8190 0.3641
-0.1892 -0.8396 0.3643
-0.1136 -0.8534 0.3644
-0.0369 -0.8605 0.3646
0.0400 -0.8608 0.3647
0.1168 -0.8542 0.3649
0.1926 -0.8408 0.3651
0.2671 -0.8207 0.3653
0.3394 -0.7941 0.3655
0.4092 -0.7610 0.3657
0.4758 -0.7219 0.3659
0.5386 -0.6770 0.3662
0.5972 -0.6265 0.3664
0.6511 -0.5711 0.3666
0.6999 -0.5110 0.3668
0.7431 -0.4467 0.3670
0.7804 -0.3788 0.3672
0.8115 -0.3078 0.3674
0.8361 -0.2342 0.3675
0.8541 -0.1587 0.3677
0.8652 -0.0819 0.3678
0.8694 -0.0044 0.3680
0.8666 0.0733 0.3681
0.8568 0.1504 0.3682
0.8401 0.2263 0.3683
0.8168 0.3004 0.3683
0.7868 0.3722 0.3684
0.7505 0.4409 0.3684
0.7081 0.5062 0.3684
0.6601 0.5674 0.3684
0.6068 0.6240 0.3684
0.5486 0.6755 0.3683
0.4860 0.7217 0.3683
0.4196 0.7620 0.3682
0.3498 0.7962 0.3681
0.2773 0.8240 0.3680
0.2025 0.8451 0.3678
0.1263 0.8595 0.3677
0.0490 0.8669 0.3675
-0.0285 0.8675 0.3674
-0.1058 0.8610 0.3672
-0.1821 0.8477 0.3670
-0.2569 0.8276 0.3668
-0.3296 0.8009 0.3666
-0.3995 0.7679 0.3664
-0.4662 0.7287 0.3662
-0.5291 0.6838 0.3659
-0.5876 0.6335 0.3657
-0.6415 0.5782 0.3655
-0.6901 0.5183 0.3653
-0.7332 0.4544 0.3651
-0.7705 0.3870 0.3649
-0.8015 0.3165 0.3647
-0.8262 0.2436 0.3646
-0.8443 0.1688 0.3644
-0.8556 0.0927 0.3643
-0.8602 0.0160 0.3641
-0.8579 -0.0608 0.3640
-0.8488 -0.1371 0.3639
-0.8330 -0.2123 0.3638
-0.8106 -0.2857 0.3638
-0.7817 -0.3569 0.3637
-0.7467 -0.4252 0.3637
-0.7057 -0.4901 0.3637
-0.6592 -0.5511 0.3637
-0.6074 -0.6078 0.3637
-0.5508 -0.6597 0.3637
-0.4898 -0.7063 0.3638
-0.4249 -0.7474 0.3639
-0.3566 -0.7825 0.3640
-0.2854 -0.8115 0.3641
-0.2119 -0.8340 0.3642
-0.1367 -0.8499 0.3644
-0.0603 -0.8591 0.3645
0.0166 -0.8615 0.3647
0.0935 -0.8570 0.3649
0.1697 -0.8456 0.3651
0.2446 -0.8276 0.3653
0.3177 -0.8029 0.3655
0.3883 -0.7717 0.3657
0.4559 -0.7344 0.3659
0.5199 -0.6912 0.3661
0.5799 -0.6424 0.3663
0.6353 -0.5884 0.3665
0.6856 -0.5297 0.3667
0.7306 -0.4666 0.3669
0.7697 -0.3998 0.3671
0.8027 -0.3297 0.3673
0.8294 -0.2568 0.3675
0.8493 -0.1818 0.3676
0.8625 -0.1054 0.3678
0.8688 -0.0280 0.3679
0.8681 0.0497 0.3681
0.8605 0.1270 0.3682
0.8459 0.2034 0.3683
0.8246 0.2781 0.3683
0.7966 0.3507 0.3684
0.7622 0.4204 0.3684
0.7216 0.4868 0.3684
0.6753 0.5492 0.3684
0.6235 0.6073 0.3684
0.5668 0.6604 0.3684
0.5055 0.7083 0.3683
0.4402 0.7504 0.3682
0.3713 0.7865 0.3681
0.2996 0.8162 0.3680
0.2255 0.8394 0.3679
0.1496 0.8558 0.3677
0.0726 0.8654 0.3676
-0.0050 0.8680 0.3674
-0.0824 0.8637 0.3672
-0.1591 0.8525 0.3670
-0.2344 0.8344 0.3668
-0.3077 0.8097 0.3666
-0.3786 0.7786 0.3664
-0.4463 0.7413 0.3662
-0.5104 0.6981 0.3660
-0.5703 0.6493 0.3658
-0.6256 0.5955 0.3656
-0.6759 0.5370 0.3654
-0.7207 0.4743 0.3652
-0.7598 0.4078 0.3650
-0.7928 0.3382 0.3648
-0.8194 0.2660 0.3646
-0.8395 0.1917 0.3645
-0.8529 0.1160 0.3643
-0.8595 0.0394 0.3642
-0.8593 -0.0375 0.3641
-0.8523 -0.1140 0.3639
-0.8385 -0.1896 0.3639
-0.8181 -0.2636 0.3638
-0.7911 -0.3355 0.3637
-0.7580 -0.4047 0.3637
-0.7188 -0.4708 0.3637
-0.6739 -0.5330 0.3637
-0.6237 -0.5911 0.3637
-0.5685 -0.6445 0.3637
-0.5088 -0.6927 0.3638
-0.4450 -0.7355 0.3639
-0.3777 -0.7725 0.3640
-0.3073 -0.8034 0.3641
-0.2345 -0.8279 0.3642
-0.1597 -0.8458 0.3643
-0.0836 -0.8570 0.3645
-0.0068 -0.8615 0.3646
0.0702 -0.8591 0.3648
0.1466 -0.8498 0.3650
0.2220 -0.8338 0.3652
0.2957 -0.8111 0.3654
0.3671 -0.7819 0.3656
0.4357 -0.7464 0.3658
0.5009 -0.7050 0.3660
0.5621 -0.6578 0.3662
0.6189 -0.6054 0.3665
0.6709 -0.5480 0.3667
0.7175 -0.4862 0.3669
0.7585 -0.4205 0.3671
0.7934 -0.3513 0.3672
0.8220 -0.2792 0.3674
0.8440 -0.2048 0.3676
0.8593 -0.1287 0.3678
0.8677 -0.0515 0.3679
0.8691 0.0261 0.3680
0.8636 0.1036 0.3681
0.8511 0.1803 0.3682
0.8318 0.2556 0.3683
0.8058 0.3289 0.3684
0.7733 0.3995 0.3684
0.7346 0.4670 0.3684
0.6900 0.5307 0.3684
0.6398 0.5901 0.3684
0.5845 0.6448 0.3684
0.5246 0.6943 0.3683
0.4604 0.7382 0.3682
0.3926 0.7762 0.3682
0.3217 0.8079 0.3680
0.2482 0.8331 0.3679
0.1728 0.8516 0.3678
0.0961 0.8632 0.3676
0.0186 0.8680 0.3675
-0.0589 0.8658 0.3673
-0.1359 0.8566 0.3671
-0.2117 0.8406 0.3669
-0.2857 0.8179 0.3667
-0.3573 0.7887 0.3665
-0.4261 0.7532 0.3663
-0.4913 0.7118 0.3661
-0.5526 0.6647 0.3659
-0.6093 0.6124 0.3657
-0.6612 0.5552 0.3654
-0.7077 0.4937 0.3652
-0.7486 0.4284 0.3650
-0.7834 0.3597 0.3649
-0.8120 0.2882 0.3647
-0.8341 0.2144 0.3645
-0.8495 0.1391 0.3644
-0.8582 0.0627 0.3642
-0.8601 -0.0142 0.3641
-0.8551 -0.0908 0.3640
-0.8434 -0.1668 0.3639
-0.8250 -0.2413 0.3638
-0.8000 -0.3139 0.3637
-0.7687 -0.3840 0.3637
-0.7313 -0.4511 0.3637
-0.6881 -0.5145 0.3637
-0.6395 -0.5739 0.3637
-0.5857 -0.6287 0.3637
-0.5274 -0.6786 0.3638
-0.4648 -0.7231 0.3638
-0.3985 -0.7619 0.3639
-0.3290 -0.7946 0.3640
-0.2568 -0.8211 0.3641
-0.1826 -0.8411 0.3643
-0.1068 -0.8543 0.3644
-0.0302 -0.8609 0.3646
0.0468 -0.8605 0.3648
0.1235 -0.8533 0.3649
0.1993 -0.8393 0.3651
0.2735 -0.8186 0.3653
0.3457 -0.7914 0.3655
0.4152 -0.7578 0.3658
0.4815 -0.7182 0.3660
0.5439 -0.6727 0.3662
0.6022 -0.6218 0.3664
0.6556 -0.5659 0.3666
0.7039 -0.5055 0.3668
0.7466 -0.4409 0.3670
0.7834 -0.3726 0.3672
0.8139 -0.3014 0.3674
0.8380 -0.2276 0.3675
0.8553 -0.1520 0.3677
0.8658 -0.0751 0.3679
0.8694 0.0025 0.3680
0.8660 0.0801 0.3681
0.8556 0.1571 0.3682
0.8384 0.2329 0.3683
0.8144 0.3069 0.3683
0.7838 0.3784 0.3684
0.7470 0.4469 0.3684
0.7041 0.5117 0.3684
0.6556 0.5725 0.3684
0.6019 0.6287 0.3684
0.5433 0.6798 0.3683
0.4803 0.7255 0.3683
0.4136 0.7653 0.3682
0.3435 0.7989 0.3681
0.2708 0.8261 0.3680
0.1959 0.8467 0.3678
0.1195 0.8604 0.3677
0.0422 0.8673 0.3675
-0.0354 0.8672 0.3673
-0.1126 0.8601 0.3672
-0.1888 0.8462 0.3670
-0.2634 0.8255 0.3668
-0.3359 0.7983 0.3666
-0.4055 0.7647 0.3664
-0.4719 0.7250 0.3661
-0.5344 0.6796 0.3659
-0.5926 0.6288 0.3657
-0.6460 0.5731 0.3655
-0.6941 0.5129 0.3653
-0.7368 0.4486 0.3651
-0.7735 0.3809 0.3649
-0.8040 0.3102 0.3647
-0.8281 0.2371 0.3646
-0.8455 0.1621 0.3644
-0.8563 0.0860 0.3643
-0.8602 0.0092 0.3641
-0.8573 -0.0676 0.3640
-0.8477 -0.1438 0.3639
-0.8313 -0.2188 0.3638
-0.8083 -0.2921 0.3638
-0.7789 -0.3630 0.3637
-0.7433 -0.4310 0.3637
-0.7018 -0.4956 0.3637
-0.6548 -0.5563 0.3637
-0.6026 -0.6126 0.3637
-0.5456 -0.6640 0.3638
-0.4842 -0.7102 0.3638
-0.4190 -0.7507 0.3639
-0.3504 -0.7853 0.3640
-0.2790 -0.8137 0.3641
-0.2053 -0.8357 0.3642
-0.1300 -0.8510 0.3644
-0.0535 -0.8596 0.3645
0.0234 -0.8613 0.3647
0.1002 -0.8562 0.3649
0.1764 -0.8443 0.3651
0.2512 -0.8256 0.3653
0.3240 -0.8004 0.3655
0.3944 -0.7687 0.3657
0.4617 -0.7309 0.3659
0.5254 -0.6871 0.3661
0.5850 -0.6379 0.3663
0.6399 -0.5834 0.3665
0.6898 -0.5243 0.3667
0.7343 -0.4609 0.3669
0.7729 -0.3937 0.3671
0.8053 -0.3233 0.3673
0.8314 -0.2503 0.3675
0.8508 -0.1752 0.3677
0.8634 -0.0986 0.3678
0.8690 -0.0211 0.3679
0.8678 0.0565 0.3681
0.8595 0.1338 0.3682
0.8443 0.2100 0.3683
0.8224 0.2846 0.3683
0.7938 0.3569 0.3684
0.7588 0.4264 0.3684
0.7178 0.4924 0.3684
0.6709 0.5545 0.3684
0.6187 0.6122 0.3684
0.5616 0.6649 0.3684
0.4999 0.7122 0.3683
0.4342 0.7538 0.3682
0.3651 0.7893 0.3681
0.2931 0.8185 0.3680
0.2188 0.8411 0.3679
0.1428 0.8570 0.3677
0.0657 0.8659 0.3676
-0.0118 0.8679 0.3674
-0.0892 0.8630 0.3672
-0.1658 0.8511 0.3670
-0.2409 0.8325 0.3668
-0.3141 0.8072 0.3666
-0.3847 0.7755 0.3664
-0.4521 0.7377 0.3662
-0.5158 0.6940 0.3660
-0.5754 0.6448 0.3658
-0.6303 0.5905 0.3656
-0.6801 0.5316 0.3654
-0.7244 0.4685 0.3652
-0.7629 0.4018 0.3650
-0.7954 0.3319 0.3648
-0.8214 0.2595 0.3646
-0.8409 0.1851 0.3645
-0.8537 0.1092 0.3643
-0.8598 0.0326 0.3642
-0.8590 -0.0443 0.3640
-0.8513 -0.1207 0.3639
-0.8369 -0.1962 0.3638
-0.8159 -0.2700 0.3638
-0.7885 -0.3417 0.3637
-0.7547 -0.4107 0.3637
-0.7150 -0.4764 0.3637
-0.6697 -0.5383 0.3637
-0.6190 -0.5960 0.3637
-0.5634 -0.6489 0.3637
-0.5033 -0.6967 0.3638
-0.4392 -0.7390 0.3639
-0.3716 -0.7755 0.3640
-0.3010 -0.8058 0.3641
-0.2279 -0.8297 0.3642
-0.1530 -0.8471 0.3643
-0.0768 -0.8577 0.3645
0.0000 -0.8615 0.3647
0.0769 -0.8585 0.3648
0.1533 -0.8487 0.3650
0.2286 -0.8320 0.3652
0.3021 -0.8087 0.3654
0.3733 -0.7790 0.3656
0.4416 -0.7430 0.3658
0.5064 -0.7010 0.3660
0.5673 -0.6534 0.3663
0.6237 -0.6005 0.3665
0.5600 -0.6404 0.3663
0.6153 -0.5882 0.3665
0.6657 -0.5312 0.3667
0.7108 -0.4699 0.3669
0.7503 -0.4048 0.3671
0.7838 -0.3364 0.3673
0.8111 -0.2652 0.3674
0.8319 -0.1919 0.3676
0.8461 -0.1169 0.3677
0.8535 -0.0409 0.3679
0.8540 0.0354 0.3680
0.8477 0.1115 0.3681
0.8345 0.1868 0.3682
0.8147 0.2606 0.3683
0.7883 0.3323 0.3683
0.7556 0.4014 0.3684
0.7168 0.4672 0.3684
0.6722 0.5294 0.3684
0.6223 0.5872 0.3684
0.5673 0.6403 0.3683
0.5078 0.6883 0.3683
0.4443 0.7307 0.3682
0.3772 0.7673 0.3681
0.3071 0.7976 0.3680
0.2346 0.8216 0.3679
0.1603 0.8389 0.3677
0.0847 0.8496 0.3676
0.0086 0.8533 0.3674
-0.0676 0.8503 0.3672
-0.1431 0.8404 0.3671
-0.2175 0.8239 0.3669
-0.2900 0.8007 0.3667
-0.3601 0.7712 0.3665
-0.4273 0.7356 0.3663
-0.4909 0.6941 0.3660
-0.5506 0.6472 0.3658
-0.6058 0.5951 0.3656
-0.6562 0.5384 0.3654
-0.7012 0.4774 0.3652
-0.7406 0.4127 0.3650
-0.7741 0.3448 0.3649
-0.8014 0.2742 0.3647
-0.8223 0.2015 0.3645
-0.8367 0.1272 0.3644
-0.8444 0.0520 0.3642
-0.8454 -0.0236 0.3641
-0.8396 -0.0989 0.3640
-0.8273 -0.1734 0.3639
-0.8083 -0.2465 0.3638
-0.7830 -0.3176 0.3638
-0.7514 -0.3862 0.3637
-0.7139 -0.4517 0.3637
-0.6707 -0.5136 0.3637
-0.6222 -0.5714 0.3637
-0.5688 -0.6247 0.3638
-0.5109 -0.6731 0.3638
-0.4488 -0.7161 0.3639
-0.3832 -0.7535 0.3640
-0.3145 -0.7849 0.3641
-0.2433 -0.8101 0.3642
-0.1701 -0.8289 0.3643
-0.0954 -0.8411 0.3645
-0.0200 -0.8467 0.3646
0.0557 -0.8455 0.3648
0.1310 -0.8376 0.3650
0.2053 -0.8229 0.3652
0.2781 -0.8018 0.3654
0.3487 -0.7742 0.3656
0.4167 -0.7404 0.3658
0.4814 -0.7006 0.3660
0.5423 -0.6552 0.3662
0.5990 -0.6046 0.3664
0.6509 -0.5490 0.3666
0.6977 -0.4890 0.3668
0.7389 -0.4250 0.3670
0.7743 -0.3575 0.3672
0.8035 -0.2871 0.3674
0.8263 -0.2144 0.3675
0.8425 -0.1398 0.3677
0.8519 -0.0641 0.3678
0.8546 0.0122 0.3680
0.8503 0.0885 0.3681
0.8393 0.1640 0.3682
0.8214 0.2383 0.3683
0.7970 0.3107 0.3683
0.7662 0.3807 0.3684
0.7292 0.4476 0.3684
0.6864 0.5109 0.3684
0.6380 0.5701 0.3684
0.5845 0.6247 0.3683
0.5264 0.6743 0.3683
0.4640 0.7184 0.3682
0.3979 0.7568 0.3681
0.3287 0.7891 0.3680
0.2569 0.8150 0.3679
0.1830 0.8344 0.3678
0.1078 0.8470 0.3676
0.0317 0.8529 0.3675
-0.0445 0.8519 0.3673
-0.1203 0.8441 0.3671
-0.1951 0.8296 0.3669
-0.2682 0.8085 0.3667
-0.3391 0.7809 0.3665
-0.4072 0.7471 0.3663
-0.4720 0.7073 0.3661
-0.5329 0.6620 0.3659
-0.5895 0.6115 0.3657
-0.6414 0.5561 0.3655
-0.6881 0.4964 0.3653
-0.7293 0.4327 0.3651
-0.7646 0.3657 0.3649
-0.7938 0.2959 0.3647
-0.8167 0.2238 0.3646
-0.8330 0.1499 0.3644
-0.8427 0.0749 0.3643
-0.8458 -0.0006 0.3641
-0.8421 -0.0761 0.3640
-0.8317 -0.1509 0.3639
-0.8147 -0.2244 0.3639
-0.7913 -0.2962 0.3638
-0.7616 -0.3656 0.3637
-0.7259 -0.4321 0.3637
-0.6844 -0.4952 0.3637
-0.6375 -0.5543 0.3637
-0.5856 -0.6090 0.3638
-0.5289 -0.6589 0.3638
-0.4681 -0.7036 0.3639
-0.4035 -0.7428 0.3639
-0.3357 -0.7760 0.3640
-0.2652 -0.8032 0.3642
-0.1925 -0.8239 0.3643
-0.1182 -0.8381 0.3644
-0.0430 -0.8457 0.3646
0.0327 -0.8466 0.3648
0.1082 -0.8407 0.3649
0.1829 -0.8281 0.3651
0.2562 -0.8089 0.3653
0.3275 -0.7832 0.3655
0.3964 -0.7513 0.3657
0.4621 -0.7133 0.3659
0.5242 -0.6696 0.3661
0.5822 -0.6205 0.3663
0.6356 -0.5664 0.3666
0.6840 -0.5077 0.3668
0.7270 -0.4448 0.3669
0.7642 -0.3784 0.3671
0.7953 -0.3088 0.3673
0.8201 -0.2367 0.3675
0.8383 -0.1626 0.3677
0.8498 -0.0872 0.3678
0.8545 -0.0110 0.3679
0.8523 0.0653 0.3680
0.8433 0.1412 0.3681
0.8276 0.2159 0.3682
0.8051 0.2890 0.3683
0.7762 0.3597 0.3683
0.7411 0.4276 0.3684
0.7000 0.4921 0.3684
0.6533 0.5526 0.3684
0.6013 0.6086 0.3684
0.5445 0.6598 0.3683
0.4834 0.7056 0.3682
0.4184 0.7458 0.3682
0.3500 0.7799 0.3681
0.2789 0.8078 0.3680
0.2057 0.8292 0.3678
0.1308 0.8439 0.3677
0.0549 0.8518 0.3675
-0.0213 0.8530 0.3674
-0.0973 0.8472 0.3672
-0.1725 0.8347 0.3670
-0.2462 0.8156 0.3668
-0.3178 0.7899 0.3666
-0.3868 0.7580 0.3664
-0.4527 0.7200 0.3662
-0.5148 0.6764 0.3660
-0.5728 0.6274 0.3658
-0.6262 0.5734 0.3656
-0.6745 0.5149 0.3654
-0.7174 0.4525 0.3652
-0.7545 0.3864 0.3650
-0.7856 0.3174 0.3648
-0.8104 0.2459 0.3646
-0.8287 0.1725 0.3645
-0.8405 0.0978 0.3643
-0.8456 0.0224 0.3642
-0.8439 -0.0532 0.3641
-0.8356 -0.1282 0.3640
-0.8206 -0.2022 0.3639
-0.7991 -0.2746 0.3638
-0.7713 -0.3448 0.3638
-0.7374 -0.4122 0.3637
-0.6976 -0.4764 0.3637
-0.6523 -0.5368 0.3637
-0.6019 -0.5929 0.3637
-0.5466 -0.6443 0.3638
-0.4870 -0.6906 0.3638
-0.4235 -0.7315 0.3639
-0.3566 -0.7666 0.3640
-0.2869 -0.7956 0.3641
-0.2148 -0.8183 0.3642
-0.1409 -0.8345 0.3644
-0.0659 -0.8441 0.3645
0.0097 -0.8470 0.3647
0.0853 -0.8432 0.3649
0.1603 -0.8326 0.3651
0.2341 -0.8154 0.3653
0.3061 -0.7917 0.3655
0.3757 -0.7617 0.3657
0.4425 -0.7255 0.3659
0.5057 -0.6835 0.3661
0.5650 -0.6360 0.3663
0.6199 -0.5833 0.3665
0.6699 -0.5260 0.3667
0.7145 -0.4643 0.3669
0.7535 -0.3989 0.3671
0.7865 -0.3302 0.3673
0.8132 -0.2589 0.3674
0.8335 -0.1853 0.3676
0.8470 -0.1102 0.3678
0.8538 -0.0342 0.3679
0.8537 0.0421 0.3680
0.8468 0.1182 0.3681
0.8331 0.1934 0.3682
0.8126 0.2670 0.3683
0.7857 0.3385 0.3683
0.7524 0.4073 0.3684
0.7131 0.4729 0.3684
0.6680 0.5346 0.3684
0.6176 0.5921 0.3684
0.5622 0.6448 0.3683
0.5024 0.6923 0.3683
0.4385 0.7342 0.3682
0.3711 0.7702 0.3681
0.3008 0.8000 0.3680
0.2281 0.8234 0.3679
0.1537 0.8401 0.3677
0.0780 0.8502 0.3676
0.0018 0.8533 0.3674
-0.0743 0.8497 0.3672
-0.1498 0.8393 0.3670
-0.2240 0.8221 0.3669
-0.2963 0.7984 0.3667
-0.3661 0.7683 0.3664
-0.4330 0.7322 0.3662
-0.4963 0.6902 0.3660
-0.5557 0.6428 0.3658
-0.6105 0.5903 0.3656
-0.6603 0.5332 0.3654
-0.7049 0.4718 0.3652
-0.7438 0.4068 0.3650
-0.7768 0.3387 0.3648
-0.8035 0.2678 0.3647
-0.8239 0.1950 0.3645
-0.8376 0.1206 0.3644
-0.8447 0.0454 0.3642
-0.8451 -0.0302 0.3641
-0.8388 -0.1055 0.3640
-0.8258 -0.1799 0.3639
-0.8063 -0.2528 0.3638
-0.7804 -0.3237 0.3638
-0.7483 -0.3921 0.3637
-0.7103 -0.4573 0.3637
-0.6667 -0.5188 0.3637
-0.6177 -0.5763 0.3637
-0.5639 -0.6292 0.3638
-0.5056 -0.6771 0.3638
-0.4432 -0.7197 0.3639
-0.3773 -0.7565 0.3640
-0.3083 -0.7874 0.3641
-0.2369 -0.8121 0.3642
-0.1635 -0.8303 0.3643
-0.0888 -0.8419 0.3645
-0.0133 -0.8468 0.3646
0.0623 -0.8451 0.3648
0.1376 -0.8365 0.3650
0.2118 -0.8213 0.3652
0.2844 -0.7996 0.3654
0.3548 -0.7714 0.3656
0.4225 -0.7371 0.3658
0.4869 -0.6969 0.3660
0.5475 -0.6510 0.3662
0.6037 -0.5999 0.3664
0.6552 -0.5439 0.3666
0.7015 -0.4835 0.3668
0.7423 -0.4192 0.3670
0.7771 -0.3514 0.3672
0.8058 -0.2808 0.3674
0.8280 -0.2079 0.3676
0.8436 -0.1332 0.3677
0.8525 -0.0574 0.3679
0.8545 0.0189 0.3680
0.8496 0.0952 0.3681
0.8380 0.1706 0.3682
0.8196 0.2448 0.3683
0.7946 0.3170 0.3683
0.7632 0.3867 0.3684
0.7257 0.4533 0.3684
0.6823 0.5163 0.3684
0.6335 0.5751 0.3684
0.5796 0.6293 0.3683
0.5210 0.6784 0.3683
0.4583 0.7221 0.3682
0.3919 0.7599 0.3681
0.3225 0.7916 0.3680
0.2504 0.8170 0.3679
0.1765 0.8358 0.3678
0.1011 0.8478 0.3676
0.0250 0.8531 0.3675
-0.0512 0.8515 0.3673
-0.1269 0.8431 0.3671
-0.2016 0.8280 0.3669
-0.2745 0.8063 0.3667
-0.3452 0.7781 0.3665
-0.4130 0.7438 0.3663
-0.4775 0.7036 0.3661
-0.5381 0.6578 0.3659
-0.5943 0.6068 0.3657
-0.6457 0.5510 0.3655
-0.6920 0.4909 0.3653
-0.7326 0.4269 0.3651
-0.7674 0.3597 0.3649
-0.7961 0.2896 0.3647
-0.8184 0.2173 0.3646
-0.8341 0.1433 0.3644
-0.8433 0.0683 0.3643
-0.8457 -0.0072 0.3641
-0.8414 -0.0827 0.3640
-0.8305 -0.1574 0.3639
-0.8129 -0.2309 0.3638
-0.7890 -0.3024 0.3638
-0.7587 -0.3716 0.3637
-0.7225 -0.4378 0.3637
-0.6805 -0.5005 0.3637
-0.6331 -0.5593 0.3637
-0.5807 -0.6136 0.3638
-0.5237 -0.6631 0.3638
-0.4625 -0.7073 0.3639
-0.3977 -0.7460 0.3640
-0.3296 -0.7787 0.3641
-0.2588 -0.8052 0.3642
-0.1860 -0.8254 0.3643
-0.1116 -0.8391 0.3644
-0.0363 -0.8461 0.3646
0.0394 -0.8463 0.3648
0.1148 -0.8398 0.3649
0.1894 -0.8267 0.3651
0.2626 -0.8069 0.3653
0.3337 -0.7807 0.3655
0.4023 -0.7482 0.3657
0.4677 -0.7097 0.3659
0.5295 -0.6655 0.3662
0.5871 -0.6159 0.3664
0.6401 -0.5614 0.3666
0.6880 -0.5023 0.3668
0.7305 -0.4391 0.3670
0.7672 -0.3724 0.3672
0.7977 -0.3026 0.3673
0.8219 -0.2302 0.3675
0.8396 -0.1560 0.3677
0.8505 -0.0805 0.3678
0.8546 -0.0043 0.3679
0.8518 0.0720 0.3681
0.8422 0.1478 0.3682
0.8259 0.2224 0.3682
0.8028 0.2953 0.3683
0.7734 0.3658 0.3684
0.7377 0.4334 0.3684
0.6961 0.4976 0.3684
0.6489 0.5577 0.3684
0.5965 0.6133 0.3684
0.5393 0.6640 0.3683
0.4778 0.7094 0.3682
0.4125 0.7490 0.3682
0.3439 0.7826 0.3681
0.2726 0.8100 0.3679
0.1991 0.8308 0.3678
0.1241 0.8449 0.3677
0.0482 0.8522 0.3675
-0.0280 0.8527 0.3673
-0.1040 0.8464 0.3672
-0.1790 0.8333 0.3670
-0.2526 0.8136 0.3668
-0.3240 0.7874 0.3666
-0.3928 0.7549 0.3664
-0.4583 0.7164 0.3662
-0.5201 0.6722 0.3659
-0.5777 0.6228 0.3657
-0.6306 0.5684 0.3655
-0.6785 0.5096 0.3653
-0.7209 0.4468 0.3651
-0.7575 0.3804 0.3649
-0.7880 0.3112 0.3648
-0.8123 0.2395 0.3646
-0.8300 0.1660 0.3644
-0.8412 0.0912 0.3643
-0.8457 0.0157 0.3642
-0.8434 -0.0598 0.3641
-0.8345 -0.1348 0.3640
-0.8190 -0.2087 0.3639
-0.7969 -0.2809 0.3638
-0.7686 -0.3509 0.3638
-0.7341 -0.4180 0.3637
-0.6939 -0.4819 0.3637
-0.6481 -0.5419 0.3637
-0.5972 -0.5976 0.3637
-0.5415 -0.6486 0.3638
-0.4816 -0.6945 0.3638
-0.4177 -0.7348 0.3639
-0.3506 -0.7694 0.3640
-0.2806 -0.7978 0.3641
-0.2083 -0.8200 0.3643
-0.1344 -0.8356 0.3644
-0.0593 -0.8446 0.3646
0.0163 -0.8469 0.3647
0.0919 -0.8425 0.3649
0.1668 -0.8314 0.3651
0.2405 -0.8136 0.3653
0.3123 -0.7893 0.3655
0.3817 -0.7587 0.3657
0.4482 -0.7220 0.3659
0.5111 -0.6795 0.3661
0.5701 -0.6315 0.3663
0.6245 -0.5785 0.3665
0.6740 -0.5207 0.3667
0.7182 -0.4587 0.3669
0.7567 -0.3930 0.3671
0.7891 -0.3241 0.3673
0.8153 -0.2524 0.3675
0.8349 -0.1788 0.3676
0.8479 -0.1036 0.3678
0.8541 -0.0275 0.3679
0.8534 0.0489 0.3680
0.8459 0.1249 0.3681
0.8315 0.1999 0.3682
0.8105 0.2734 0.3683
0.7830 0.3447 0.3683
0.7492 0.4132 0.3684
0.7093 0.4785 0.3684
0.6638 0.5399 0.3684
0.6129 0.5969 0.3684
0.5571 0.6492 0.3683
0.4969 0.6962 0.3683
0.4327 0.7376 0.3682
0.3650 0.7731 0.3681
0.2945 0.8023 0.3680
0.2216 0.8251 0.3679
0.1470 0.8413 0.3677
0.0713 0.8507 0.3676
-0.0049 0.8533 0.3674
-0.0810 0.8490 0.3672
-0.1564 0.8380 0.3670
-0.2304 0.8203 0.3668
-0.3025 0.7960 0.3666
-0.3722 0.7654 0.3664
-0.4387 0.7287 0.3662
-0.5017 0.6862 0.3660
-0.5607 0.6384 0.3658
-0.6151 0.5854 0.3656
-0.6645 0.5279 0.3654
-0.7086 0.4663 0.3652
-0.7470 0.4009 0.3650
-0.7794 0.3325 0.3648
-0.8056 0.2615 0.3647
-0.8253 0.1885 0.3645
-0.8385 0.1140 0.3643
-0.8450 0.0387 0.3642
-0.8448 -0.0369 0.3641
-0.8379 -0.1121 0.3640
-0.8244 -0.1864 0.3639
-0.8043 -0.2592 0.3638
-0.7778 -0.3299 0.3638
-0.7452 -0.3979 0.3637
-0.7067 -0.4628 0.3637
-0.6626 -0.5241 0.3637
-0.6132 -0.5811 0.3637
-0.5589 -0.6336 0.3638
-0.5002 -0.6811 0.3638
-0.4375 -0.7232 0.3639
-0.3713 -0.7595 0.3640
-0.3021 -0.7898 0.3641
-0.2305 -0.8139 0.3642
-0.1570 -0.8316 0.3644
-0.0822 -0.8426 0.3645
-0.0067 -0.8470 0.3647
0.0690 -0.8446 0.3648
0.1442 -0.8355 0.3650
0.2183 -0.8197 0.3652
0.2907 -0.7974 0.3654
0.3609 -0.7687 0.3656
0.4283 -0.7338 0.3658
0.4924 -0.6930 0.3660
0.5526 -0.6467 0.3662
0.6085 -0.5951 0.3664
0.6595 -0.5387 0.3666
0.7054 -0.4780 0.3668
0.7456 -0.4133 0.3670
0.7799 -0.3453 0.3672
0.8080 -0.2745 0.3674
0.8296 -0.2013 0.3676
0.8447 -0.1265 0.3677
0.8529 -0.0507 0.3679
0.8543 0.0257 0.3680
0.8489 0.1018 0.3681
0.8366 0.1772 0.3682
0.8176 0.2513 0.3683
0.7920 0.3233 0.3683
0.7601 0.3927 0.3684
0.7221 0.4590 0.3684
0.6782 0.5216 0.3684
0.6289 0.5801 0.3684
0.5746 0.6338 0.3683
0.5157 0.6825 0.3683
0.4526 0.7256 0.3682
0.3859 0.7630 0.3681
0.3162 0.7941 0.3680
0.2440 0.8189 0.3679
0.1698 0.8371 0.3678
0.0944 0.8486 0.3676
0.0183 0.8532 0.3674
-0.0579 0.8511 0.3673
-0.1336 0.8421 0.3671
-0.2081 0.8264 0.3669
-0.2808 0.8041 0.3667
-0.3513 0.7754 0.3665
-0.4189 0.7405 0.3663
-0.4830 0.6997 0.3661
-0.5432 0.6535 0.3659
-0.5990 0.6020 0.3657
-0.6500 0.5459 0.3655
-0.6958 0.4854 0.3653
-0.7359 0.4212 0.3651
-0.7702 0.3536 0.3649
-0.7983 0.2833 0.3647
-0.8200 0.2108 0.3645
-0.8352 0.1368 0.3644
-0.8438 0.0616 0.3642
-0.8456 -0.0139 0.3641
-0.8407 -0.0893 0.3640
-0.8292 -0.1639 0.3639
-0.8111 -0.2372 0.3638
-0.7865 -0.3086 0.3638
-0.7558 -0.3776 0.3637
-0.7190 -0.4435 0.3637
-0.6765 -0.5059 0.3637
-0.6287 -0.5643 0.3637
-0.5759 -0.6182 0.3638
-0.5185 -0.6672 0.3638
-0.4570 -0.7110 0.3639
-0.3918 -0.7491 0.3640
-0.3234 -0.7813 0.3641
-0.2525 -0.8073 0.3642
-0.1795 -0.8269 0.3643
-0.1050 -0.8400 0.3645
-0.0297 -0.8463 0.3646
0.0460 -0.8460 0.3648
0.1214 -0.8389 0.3650
0.1959 -0.8252 0.3652
0.2689 -0.8048 0.3653
0.3399 -0.7780 0.3655
0.4082 -0.7450 0.3658
0.4733 -0.7060 0.3660
0.5347 -0.6613 0.3662
0.5920 -0.6113 0.3664
0.6445 -0.5564 0.3666
0.6920 -0.4969 0.3668
0.7340 -0.4334 0.3670
0.7701 -0.3663 0.3672
0.8001 -0.2963 0.3674
0.8238 -0.2238 0.3675
0.8408 -0.1494 0.3677
0.8511 -0.0738 0.3678
0.8546 0.0024 0.3680
0.8513 0.0787 0.3681
0.8411 0.1544 0.3682
0.8241 0.2289 0.3682
0.8005 0.3016 0.3683
0.7705 0.3719 0.3684
0.7343 0.4392 0.3684
0.6921 0.5030 0.3684
0.6445 0.5628 0.3684
0.5916 0.6180 0.3683
0.5340 0.6683 0.3683
0.4722 0.7131 0.3682
0.4065 0.7523 0.3681
0.3377 0.7853 0.3680
0.2662 0.8121 0.3679
0.1925 0.8323 0.3678
0.1174 0.8458 0.3677
0.0415 0.8525 0.3675
-0.0348 0.8524 0.3673
-0.1107 0.8455 0.3671
-0.1856 0.8318 0.3670
-0.2590 0.8115 0.3668
-0.3302 0.7847 0.3666
-0.3987 0.7517 0.3663
-0.4639 0.7127 0.3661
-0.5254 0.6681 0.3659
-0.5826 0.6182 0.3657
-0.6351 0.5634 0.3655
-0.6824 0.5042 0.3653
-0.7243 0.4410 0.3651
-0.7604 0.3745 0.3649
-0.7904 0.3049 0.3648
-0.8141 0.2331 0.3646
-0.8313 0.1594 0.3644
-0.8419 0.0845 0.3643
-0.8458 0.0091 0.3642
-0.8429 -0.0664 0.3640
-0.8334 -0.1414 0.3639
-0.8173 -0.2151 0.3639
-0.7947 -0.2872 0.3638
-0.7658 -0.3569 0.3638
-0.7308 -0.4238 0.3637
-0.6900 -0.4873 0.3637
-0.6438 -0.5470 0.3637
-0.5925 -0.6023 0.3637
-0.5364 -0.6529 0.3638
-0.4761 -0.6982 0.3639
-0.4119 -0.7381 0.3639
-0.3445 -0.7721 0.3640
-0.2743 -0.8000 0.3641
-0.2019 -0.8216 0.3643
-0.1278 -0.8367 0.3644
-0.0526 -0.8451 0.3646
0.0230 -0.8468 0.3647
0.0986 -0.8418 0.3649
0.1734 -0.8301 0.3651
0.2469 -0.8117 0.3653
0.3185 -0.7869 0.3655
0.3877 -0.7557 0.3657
0.4539 -0.7185 0.3659
0.5165 -0.6755 0.3661
0.5751 -0.6271 0.3663
0.6291 -0.5736 0.3665
0.6781 -0.5154 0.3667
0.7218 -0.4531 0.3669
0.7598 -0.3870 0.3671
0.7917 -0.3178 0.3673
0.8173 -0.2460 0.3675
0.8363 -0.1722 0.3676
0.8487 -0.0969 0.3678
0.8543 -0.0208 0.3679
0.8530 0.0556 0.3680
0.8449 0.1315 0.3681
0.8300 0.2065 0.3682
0.8084 0.2798 0.3683
0.7803 0.3508 0.3683
0.7459 0.4191 0.3684
0.7056 0.4841 0.3684
0.6595 0.5451 0.3684
0.6082 0.6017 0.3684
0.5520 0.6535 0.3683
0.4914 0.7001 0.3683
0.4269 0.7410 0.3682
0.3589 0.7759 0.3681
0.2881 0.8046 0.3680
0.2151 0.8268 0.3678
0.1404 0.8424 0.3677
0.0646 0.8512 0.3675
-0.0116 0.8532 0.3674
-0.0877 0.8483 0.3672
-0.1629 0.8367 0.3670
-0.2369 0.8184 0.3668
-0.3088 0.7936 0.3666
-0.3782 0.7624 0.3664
-0.4445 0.7252 0.3662
-0.5071 0.6822 0.3660
-0.5657 0.6339 0.3658
-0.6196 0.5806 0.3656
-0.6686 0.5226 0.3654
-0.7122 0.4606 0.3652
-0.7501 0.3950 0.3650
-0.7820 0.3263 0.3648
-0.8076 0.2551 0.3646
-0.8268 0.1820 0.3645
-0.8394 0.1074 0.3643
-0.8453 0.0320 0.3642
-0.8445 -0.0435 0.3641
-0.8370 -0.1187 0.3640
-0.8229 -0.1929 0.3639
-0.8022 -0.2655 0.3638
-0.7752 -0.3360 0.3638
-0.7421 -0.4038 0.3637
-0.7030 -0.4684 0.3637
-0.6584 -0.5293 0.3637
-0.6086 -0.5860 0.3637
-0.5539 -0.6380 0.3638
-0.4948 -0.6850 0.3638
-0.4318 -0.7266 0.3639
-0.3653 -0.7624 0.3640
-0.2959 -0.7922 0.3641
-0.2241 -0.8157 0.3642
-0.1505 -0.8328 0.3644
-0.0756 -0.8433 0.3645
0.0000 -0.8470 0.3647
0.0757 -0.8440 0.3649
0.1508 -0.8343 0.3650
0.2247 -0.8180 0.3652
0.2970 -0.7951 0.3654
0.3670 -0.7658 0.3656
0.4341 -0.7304 0.3658
0.4979 -0.6892 0.3660
0.5577 -0.6423 0.3663
0.6132 -0.5903 0.3665
0.5506 -0.6297 0.3663
0.6050 -0.5783 0.3665
0.6545 -0.5223 0.3667
0.6989 -0.4621 0.3669
0.7377 -0.3980 0.3670
0.7707 -0.3308 0.3672
0.7975 -0.2608 0.3674
0.8180 -0.1887 0.3676
0.8319 -0.1149 0.3677
0.8391 -0.0402 0.3678
0.8396 0.0348 0.3680
0.8334 0.1096 0.3681
0.8205 0.1836 0.3682
0.8010 0.2562 0.3682
0.7751 0.3267 0.3683
0.7429 0.3946 0.3683
0.7047 0.4594 0.3683
0.6609 0.5204 0.3683
0.6118 0.5773 0.3683
0.5578 0.6296 0.3683
0.4993 0.6767 0.3682
0.4368 0.7184 0.3682
0.3708 0.7544 0.3681
0.3019 0.7842 0.3680
0.2307 0.8078 0.3678
0.1576 0.8248 0.3677
0.0833 0.8353 0.3676
0.0084 0.8390 0.3674
-0.0665 0.8360 0.3672
-0.1407 0.8263 0.3670
-0.2138 0.8101 0.3669
-0.2851 0.7873 0.3667
-0.3541 0.7583 0.3665
-0.4201 0.7233 0.3663
-0.4827 0.6825 0.3660
-0.5414 0.6364 0.3658
-0.5957 0.5852 0.3656
-0.6452 0.5294 0.3654
-0.6895 0.4694 0.3652
-0.7283 0.4058 0.3651
-0.7612 0.3390 0.3649
-0.7881 0.2696 0.3647
-0.8086 0.1981 0.3645
-0.8227 0.1251 0.3644
-0.8303 0.0511 0.3643
-0.8313 -0.0232 0.3641
-0.8257 -0.0972 0.3640
-0.8135 -0.1705 0.3639
-0.7949 -0.2424 0.3639
-0.7699 -0.3123 0.3638
-0.7389 -0.3797 0.3638
-0.7020 -0.4441 0.3638
-0.6596 -0.5050 0.3638
-0.6119 -0.5619 0.3638
-0.5594 -0.6143 0.3638
-0.5024 -0.6619 0.3639
-0.4414 -0.7042 0.3639
-0.3768 -0.7410 0.3640
-0.3093 -0.7719 0.3641
-0.2392 -0.7967 0.3642
-0.1672 -0.8151 0.3644
-0.0939 -0.8271 0.3645
-0.0197 -0.8326 0.3647
0.0547 -0.8314 0.3648
0.1288 -0.8236 0.3650
0.2019 -0.8092 0.3652
0.2735 -0.7884 0.3654
0.3429 -0.7612 0.3656
0.4097 -0.7280 0.3658
0.4733 -0.6889 0.3660
0.5332 -0.6443 0.3662
0.5889 -0.5945 0.3664
0.6400 -0.5398 0.3666
0.6860 -0.4808 0.3668
0.7265 -0.4179 0.3670
0.7613 -0.3515 0.3672
0.7900 -0.2823 0.3674
0.8124 -0.2108 0.3675
0.8283 -0.1375 0.3677
0.8376 -0.0630 0.3678
0.8402 0.0120 0.3679
0.8360 0.0870 0.3680
0.8251 0.1613 0.3681
0.8076 0.2343 0.3682
0.7836 0.3055 0.3683
0.7533 0.3743 0.3683
0.7169 0.4401 0.3683
0.6748 0.5023 0.3683
0.6273 0.5605 0.3683
0.5747 0.6142 0.3683
0.5175 0.6630 0.3683
0.4562 0.7064 0.3682
0.3912 0.7441 0.3681
0.3232 0.7758 0.3680
0.2526 0.8013 0.3679
0.1800 0.8204 0.3678
0.1060 0.8328 0.3676
0.0312 0.8386 0.3674
-0.0437 0.8376 0.3673
-0.1183 0.8300 0.3671
-0.1918 0.8157 0.3669
-0.2637 0.7949 0.3667
-0.3334 0.7678 0.3665
-0.4004 0.7346 0.3663
-0.4641 0.6955 0.3661
-0.5240 0.6509 0.3659
-0.5797 0.6012 0.3657
-0.6307 0.5468 0.3655
-0.6766 0.4881 0.3653
-0.7171 0.4255 0.3651
-0.7518 0.3596 0.3649
-0.7806 0.2910 0.3648
-0.8031 0.2200 0.3646
-0.8191 0.1474 0.3644
-0.8287 0.0737 0.3643
-0.8317 -0.0006 0.3642
-0.8281 -0.0748 0.3641
-0.8179 -0.1484 0.3640
-0.8012 -0.2207 0.3639
-0.7782 -0.2913 0.3638
-0.7490 -0.3595 0.3638
-0.7139 -0.4249 0.3638
-0.6731 -0.4869 0.3637
-0.6269 -0.5451 0.3638
-0.5758 -0.5989 0.3638
-0.5201 -0.6480 0.3638
-0.4603 -0.6920 0.3639
-0.3968 -0.7304 0.3640
-0.3301 -0.7631 0.3641
-0.2608 -0.7898 0.3642
-0.1893 -0.8102 0.3643
-0.1163 -0.8242 0.3645
-0.0423 -0.8316 0.3646
0.0321 -0.8325 0.3648
0.1064 -0.8267 0.3649
0.1798 -0.8143 0.3651
0.2519 -0.7954 0.3653
0.3221 -0.7702 0.3655
0.3897 -0.7387 0.3657
0.4544 -0.7014 0.3659
0.5154 -0.6584 0.3661
0.5725 -0.6101 0.3663
0.6250 -0.5569 0.3665
0.6726 -0.4992 0.3667
0.7148 -0.4374 0.3669
0.7514 -0.3720 0.3671
0.7820 -0.3036 0.3673
0.8063 -0.2327 0.3675
0.8242 -0.1599 0.3676
0.8355 -0.0857 0.3678
0.8401 -0.0108 0.3679
0.8380 0.0642 0.3680
0.8292 0.1388 0.3681
0.8136 0.2123 0.3682
0.7916 0.2841 0.3683
0.7632 0.3537 0.3683
0.7286 0.4204 0.3683
0.6882 0.4838 0.3683
0.6423 0.5433 0.3683
0.5912 0.5984 0.3683
0.5353 0.6487 0.3683
0.4752 0.6938 0.3682
0.4113 0.7332 0.3681
0.3441 0.7668 0.3680
0.2743 0.7942 0.3679
0.2022 0.8153 0.3678
0.1286 0.8297 0.3677
0.0540 0.8375 0.3675
-0.0210 0.8386 0.3673
-0.0957 0.8330 0.3672
-0.1696 0.8208 0.3670
-0.2420 0.8019 0.3668
-0.3125 0.7767 0.3666
-0.3803 0.7453 0.3664
-0.4451 0.7080 0.3662
-0.5062 0.6651 0.3660
-0.5632 0.6169 0.3658
-0.6157 0.5638 0.3656
-0.6632 0.5063 0.3654
-0.7054 0.4449 0.3652
-0.7419 0.3800 0.3650
-0.7725 0.3121 0.3648
-0.7969 0.2418 0.3646
-0.8149 0.1696 0.3645
-0.8265 0.0962 0.3643
-0.8315 0.0220 0.3642
-0.8299 -0.0523 0.3641
-0.8217 -0.1261 0.3640
-0.8070 -0.1989 0.3639
-0.7858 -0.2701 0.3638
-0.7585 -0.3391 0.3638
-0.7251 -0.4054 0.3638
-0.6860 -0.4685 0.3638
-0.6415 -0.5278 0.3638
-0.5919 -0.5830 0.3638
-0.5375 -0.6336 0.3638
-0.4789 -0.6791 0.3639
-0.4165 -0.7193 0.3640
-0.3507 -0.7538 0.3640
-0.2821 -0.7823 0.3642
-0.2112 -0.8047 0.3643
-0.1386 -0.8206 0.3644
-0.0648 -0.8301 0.3646
0.0095 -0.8329 0.3647
0.0839 -0.8291 0.3649
0.1576 -0.8187 0.3651
0.2302 -0.8018 0.3653
0.3010 -0.7785 0.3655
0.3695 -0.7489 0.3657
0.4351 -0.7134 0.3659
0.4973 -0.6721 0.3661
0.5556 -0.6253 0.3663
0.6095 -0.5736 0.3665
0.6586 -0.5172 0.3667
0.7026 -0.4566 0.3669
0.7409 -0.3922 0.3671
0.7733 -0.3247 0.3672
0.7996 -0.2545 0.3674
0.8195 -0.1822 0.3676
0.8328 -0.1084 0.3677
0.8394 -0.0336 0.3679
0.8394 0.0414 0.3680
0.8326 0.1162 0.3681
0.8191 0.1901 0.3682
0.7990 0.2625 0.3682
0.7725 0.3328 0.3683
0.7398 0.4005 0.3683
0.7011 0.4649 0.3683
0.6568 0.5256 0.3683
0.6072 0.5821 0.3683
0.5528 0.6339 0.3683
0.4939 0.6806 0.3682
0.4311 0.7219 0.3682
0.3649 0.7573 0.3681
0.2957 0.7866 0.3680
0.2243 0.8096 0.3678
0.1511 0.8260 0.3677
0.0767 0.8359 0.3675
0.0018 0.8390 0.3674
-0.0730 0.8354 0.3672
-0.1472 0.8252 0.3670
-0.2202 0.8083 0.3668
-0.2913 0.7850 0.3666
-0.3600 0.7555 0.3664
-0.4258 0.7199 0.3662
-0.4881 0.6787 0.3660
-0.5464 0.6320 0.3658
-0.6003 0.5804 0.3656
-0.6493 0.5243 0.3654
-0.6932 0.4640 0.3652
-0.7314 0.4000 0.3650
-0.7638 0.3330 0.3649
-0.7901 0.2634 0.3647
-0.8101 0.1917 0.3645
-0.8237 0.1186 0.3644
-0.8307 0.0446 0.3642
-0.8311 -0.0297 0.3641
-0.8249 -0.1037 0.3640
-0.8121 -0.1769 0.3639
-0.7929 -0.2486 0.3639
-0.7675 -0.3184 0.3638
-0.7359 -0.3855 0.3638
-0.6985 -0.4497 0.3638
-0.6556 -0.5102 0.3638
-0.6075 -0.5667 0.3638
-0.5545 -0.6187 0.3638
-0.4971 -0.6659 0.3639
-0.4358 -0.7077 0.3639
-0.3710 -0.7440 0.3640
-0.3032 -0.7743 0.3641
-0.2330 -0.7985 0.3642
-0.1608 -0.8165 0.3644
-0.0873 -0.8279 0.3645
-0.0131 -0.8327 0.3647
0.0613 -0.8310 0.3648
0.1353 -0.8226 0.3650
0.2083 -0.8076 0.3652
0.2797 -0.7862 0.3654
0.3489 -0.7586 0.3656
0.4155 -0.7248 0.3658
0.4788 -0.6852 0.3660
0.5383 -0.6401 0.3662
0.5936 -0.5898 0.3664
0.6442 -0.5348 0.3666
0.6898 -0.4754 0.3668
0.7298 -0.4122 0.3670
0.7641 -0.3455 0.3672
0.7923 -0.2761 0.3674
0.8141 -0.2044 0.3675
0.8294 -0.1310 0.3677
0.8381 -0.0564 0.3678
0.8401 0.0186 0.3679
0.8353 0.0936 0.3681
0.8239 0.1678 0.3681
0.8058 0.2407 0.3682
0.7812 0.3117 0.3683
0.7503 0.3802 0.3683
0.7135 0.4457 0.3683
0.6708 0.5076 0.3683
0.6228 0.5654 0.3683
0.5698 0.6187 0.3683
0.5123 0.6670 0.3682
0.4506 0.7099 0.3682
0.3853 0.7471 0.3681
0.3170 0.7783 0.3680
0.2462 0.8033 0.3679
0.1735 0.8217 0.3677
0.0994 0.8336 0.3676
0.0246 0.8388 0.3674
-0.0503 0.8372 0.3673
-0.1248 0.8290 0.3671
-0.1982 0.8141 0.3669
-0.2699 0.7928 0.3667
-0.3394 0.7651 0.3665
-0.4061 0.7314 0.3663
-0.4695 0.6918 0.3661
-0.5291 0.6468 0.3659
-0.5844 0.5966 0.3657
-0.6349 0.5418 0.3655
-0.6804 0.4827 0.3653
-0.7204 0.4198 0.3651
-0.7546 0.3537 0.3649
-0.7828 0.2848 0.3647
-0.8047 0.2137 0.3646
-0.8203 0.1409 0.3644
-0.8292 0.0671 0.3643
-0.8316 -0.0071 0.3642
-0.8274 -0.0813 0.3641
-0.8167 -0.1548 0.3640
-0.7994 -0.2270 0.3639
-0.7758 -0.2974 0.3638
-0.7461 -0.3654 0.3638
-0.7105 -0.4305 0.3638
-0.6692 -0.4922 0.3638
-0.6226 -0.5500 0.3638
-0.5711 -0.6034 0.3638
-0.5150 -0.6521 0.3638
-0.4549 -0.6956 0.3639
-0.3910 -0.7336 0.3640
-0.3241 -0.7657 0.3641
-0.2545 -0.7918 0.3642
-0.1829 -0.8117 0.3643
-0.1098 -0.8251 0.3645
-0.0357 -0.8320 0.3646
0.0387 -0.8322 0.3648
0.1129 -0.8258 0.3650
0.1862 -0.8129 0.3652
0.2582 -0.7934 0.3653
0.3281 -0.7676 0.3655
0.3956 -0.7357 0.3657
0.4599 -0.6978 0.3659
0.5206 -0.6544 0.3662
0.5773 -0.6056 0.3664
0.6294 -0.5520 0.3666
0.6765 -0.4939 0.3668
0.7183 -0.4318 0.3670
0.7543 -0.3661 0.3671
0.7844 -0.2975 0.3673
0.8081 -0.2264 0.3675
0.8255 -0.1534 0.3676
0.8362 -0.0792 0.3678
0.8402 -0.0042 0.3679
0.8375 0.0708 0.3680
0.8281 0.1453 0.3681
0.8120 0.2187 0.3682
0.7893 0.2903 0.3683
0.7604 0.3597 0.3683
0.7253 0.4261 0.3683
0.6844 0.4892 0.3683
0.6380 0.5483 0.3683
0.5864 0.6030 0.3683
0.5302 0.6529 0.3683
0.4697 0.6975 0.3682
0.4055 0.7364 0.3681
0.3381 0.7695 0.3680
0.2680 0.7964 0.3679
0.1958 0.8168 0.3678
