ply
format ascii 1.0
element vertex 2176
property float32 x
property float32 y
property float32 z
end_header
0.8966 0.5531 0.3640
0.8441 0.6313 0.3641
0.7848 0.7045 0.3644
0.7192 0.7723 0.3646
0.6478 0.8339 0.3648
0.5712 0.8890 0.3651
0.4899 0.9371 0.3653
0.4046 0.9778 0.3656
0.3159 1.0107 0.3658
0.2246 1.0356 0.3661
0.1313 1.0523 0.3664
0.0369 1.0606 0.3666
-0.0580 1.0604 0.3669
-0.1525 1.0517 0.3671
-0.2459 1.0346 0.3674
-0.3375 1.0092 0.3676
-0.4265 0.9756 0.3678
-0.5122 0.9342 0.3681
-0.5938 0.8852 0.3682
-0.6708 0.8290 0.3684
-0.7424 0.7661 0.3686
-0.8082 0.6971 0.3687
-0.8674 0.6223 0.3688
-0.9197 0.5425 0.3689
-0.9647 0.4584 0.3690
-1.0018 0.3705 0.3690
-1.0310 0.2796 0.3690
-1.0518 0.1864 0.3690
-1.0641 0.0918 0.3690
-1.0679 -0.0036 0.3689
-1.0631 -0.0989 0.3689
-1.0498 -0.1933 0.3688
-1.0280 -0.2862 0.3687
-0.9980 -0.3767 0.3685
-0.9599 -0.4640 0.3683
-0.9142 -0.5476 0.3682
-0.8612 -0.6267 0.3680
-0.8014 -0.7007 0.3678
-0.7352 -0.7689 0.3675
-0.6632 -0.8309 0.3673
-0.5860 -0.8862 0.3670
-0.5042 -0.9344 0.3668
-0.4184 -0.9749 0.3665
-0.3295 -1.0077 0.3663
-0.2381 -1.0323 0.3660
-0.1449 -1.0487 0.3657
-0.0506 -1.0567 0.3655
0.0439 -1.0562 0.3652
0.1379 -1.0474 0.3650
0.2307 -1.0302 0.3647
0.3215 -1.0049 0.3645
0.4097 -0.9716 0.3643
0.4945 -0.9306 0.3641
0.5753 -0.8823 0.3639
0.6514 -0.8270 0.3637
0.7224 -0.7652 0.3636
0.7875 -0.6974 0.3634
0.8463 -0.6242 0.3633
0.8985 -0.5460 0.3632
0.9434 -0.4635 0.3632
0.9809 -0.3774 0.3631
1.0106 -0.2883 0.3631
1.0324 -0.1970 0.3631
1.0459 -0.1040 0.3631
1.0511 -0.0102 0.3632
1.0480 0.0836 0.3632
1.0367 0.1769 0.3633
1.0171 0.2688 0.3634
0.9894 0.3587 0.3636
0.9538 0.4457 0.3637
0.9106 0.5294 0.3639
0.8602 0.6089 0.3641
0.8029 0.6836 0.3643
0.7391 0.7530 0.3645
0.6693 0.8165 0.3647
0.5942 0.8736 0.3650
0.5142 0.9237 0.3652
0.4300 0.9666 0.3655
0.3422 1.0019 0.3658
0.2516 1.0292 0.3660
0.1588 1.0483 0.3663
0.0647 1.0591 0.3666
-0.0301 1.0614 0.3668
-0.1248 1.0552 0.3671
-0.2187 1.0405 0.3673
-0.3109 1.0175 0.3676
-0.4007 0.9863 0.3678
-0.4874 0.9471 0.3680
-0.5703 0.9003 0.3682
-0.6487 0.8462 0.3684
-0.7220 0.7852 0.3685
-0.7895 0.7179 0.3687
-0.8507 0.6448 0.3688
-0.9051 0.5664 0.3689
-0.9523 0.4835 0.3690
-0.9918 0.3966 0.3690
-1.0233 0.3065 0.3690
-1.0466 0.2139 0.3690
-1.0614 0.1196 0.3690
-1.0677 0.0244 0.3690
-1.0654 -0.0710 0.3689
-1.0546 -0.1658 0.3688
-1.0353 -0.2592 0.3687
-1.0076 -0.3504 0.3686
-0.9719 -0.4388 0.3684
-0.9284 -0.5235 0.3682
-0.8775 -0.6040 0.3680
-0.8196 -0.6795 0.3678
-0.7552 -0.7495 0.3676
-0.6849 -0.8134 0.3674
-0.6091 -0.8707 0.3671
-0.5286 -0.9210 0.3669
-0.4440 -0.9638 0.3666
-0.3559 -0.9989 0.3663
-0.2651 -1.0259 0.3661
-0.1723 -1.0447 0.3658
-0.0783 -1.0552 0.3655
0.0162 -1.0572 0.3653
0.1104 -1.0508 0.3650
0.2036 -1.0361 0.3648
0.2951 -1.0131 0.3646
0.3841 -0.9821 0.3643
0.4700 -0.9434 0.3641
0.5520 -0.8972 0.3639
0.6296 -0.8439 0.3638
0.7021 -0.7840 0.3636
0.7690 -0.7179 0.3635
0.8298 -0.6462 0.3633
0.8839 -0.5694 0.3632
0.9310 -0.4881 0.3632
0.9707 -0.4030 0.3631
1.0028 -0.3147 0.3631
1.0268 -0.2239 0.3631
1.0428 -0.1314 0.3631
1.0505 -0.0378 0.3631
1.0498 0.0561 0.3632
1.0409 0.1497 0.3633
1.0237 0.2420 0.3634
0.9983 0.3326 0.3635
0.9650 0.4205 0.3637
0.9241 0.5052 0.3638
0.8757 0.5860 0.3640
0.8204 0.6622 0.3642
0.7584 0.7332 0.3644
0.6904 0.7985 0.3647
0.6168 0.8575 0.3649
0.5381 0.9098 0.3652
0.4551 0.9548 0.3654
0.3683 0.9924 0.3657
0.2784 1.0220 0.3660
0.1862 1.0436 0.3662
0.0924 1.0568 0.3665
-0.0023 1.0616 0.3667
-0.0971 1.0579 0.3670
-0.1913 1.0457 0.3673
-0.2841 1.0251 0.3675
-0.3747 0.9963 0.3677
-0.4624 0.9594 0.3679
-0.5465 0.9148 0.3681
-0.6263 0.8628 0.3683
-0.7011 0.8038 0.3685
-0.7704 0.7383 0.3686
-0.8335 0.6668 0.3688
-0.8899 0.5899 0.3689
-0.9392 0.5082 0.3689
-0.9810 0.4224 0.3690
-1.0149 0.3332 0.3690
-1.0406 0.2413 0.3690
-1.0579 0.1474 0.3690
-1.0668 0.0524 0.3690
-1.0670 -0.0430 0.3689
-1.0587 -0.1381 0.3688
-1.0418 -0.2320 0.3687
-1.0166 -0.3239 0.3686
-0.9832 -0.4132 0.3684
-0.9419 -0.4991 0.3683
-0.8932 -0.5809 0.3681
-0.8373 -0.6579 0.3679
-0.7748 -0.7296 0.3677
-0.7061 -0.7954 0.3674
-0.6319 -0.8547 0.3672
-0.5527 -0.9070 0.3669
-0.4692 -0.9521 0.3667
-0.3820 -0.9894 0.3664
-0.2920 -1.0189 0.3662
-0.1997 -1.0401 0.3659
-0.1060 -1.0530 0.3656
-0.0116 -1.0575 0.3654
0.0828 -1.0536 0.3651
0.1764 -1.0413 0.3649
0.2685 -1.0207 0.3646
0.3583 -0.9920 0.3644
0.4452 -0.9555 0.3642
0.5284 -0.9115 0.3640
0.6074 -0.8602 0.3638
0.6814 -0.8022 0.3636
0.7500 -0.7379 0.3635
0.8126 -0.6678 0.3634
0.8687 -0.5924 0.3633
0.9179 -0.5124 0.3632
0.9599 -0.4283 0.3631
0.9942 -0.3409 0.3631
1.0206 -0.2508 0.3631
1.0389 -0.1587 0.3631
1.0491 -0.0653 0.3631
1.0509 0.0286 0.3632
1.0443 0.1223 0.3633
1.0295 0.2151 0.3634
1.0066 0.3063 0.3635
0.9756 0.3951 0.3636
0.9369 0.4808 0.3638
0.8906 0.5628 0.3640
0.8373 0.6404 0.3642
0.7773 0.7130 0.3644
0.7109 0.7800 0.3646
0.6389 0.8409 0.3648
0.5617 0.8952 0.3651
0.4799 0.9424 0.3653
0.3941 0.9822 0.3656
0.3051 1.0142 0.3659
0.2135 1.0381 0.3661
0.1200 1.0538 0.3664
0.0255 1.0610 0.3667
-0.0694 1.0598 0.3669
-0.1638 1.0501 0.3672
-0.2571 1.0320 0.3674
-0.3484 1.0056 0.3677
-0.4370 0.9710 0.3679
-0.5222 0.9286 0.3681
-0.6034 0.8788 0.3683
-0.6797 0.8218 0.3684
-0.7507 0.7581 0.3686
-0.8156 0.6884 0.3687
-0.8741 0.6130 0.3688
-0.9255 0.5326 0.3689
-0.9695 0.4480 0.3690
-1.0058 0.3597 0.3690
-1.0339 0.2685 0.3690
-1.0537 0.1751 0.3690
-1.0651 0.0803 0.3690
-1.0678 -0.0151 0.3689
-1.0620 -0.1103 0.3689
-1.0476 -0.2046 0.3688
-1.0248 -0.2972 0.3686
-0.9938 -0.3873 0.3685
-0.9548 -0.4743 0.3683
-0.9082 -0.5574 0.3681
-0.8544 -0.6359 0.3679
-0.7938 -0.7092 0.3677
-0.7268 -0.7767 0.3675
-0.6542 -0.8380 0.3673
-0.5764 -0.8924 0.3670
-0.4941 -0.9396 0.3668
-0.4079 -0.9793 0.3665
-0.3186 -1.0111 0.3662
-0.2269 -1.0347 0.3660
-0.1336 -1.0501 0.3657
-0.0393 -1.0571 0.3654
0.0552 -1.0556 0.3652
0.1491 -1.0457 0.3649
0.2417 -1.0276 0.3647
0.3323 -1.0013 0.3645
0.4201 -0.9670 0.3642
0.5044 -0.9252 0.3640
0.5847 -0.8760 0.3639
0.6603 -0.8199 0.3637
0.7305 -0.7574 0.3635
0.7949 -0.6889 0.3634
0.8530 -0.6150 0.3633
0.9043 -0.5363 0.3632
0.9483 -0.4534 0.3631
0.9849 -0.3668 0.3631
1.0137 -0.2774 0.3631
1.0344 -0.1858 0.3631
1.0470 -0.0928 0.3631
1.0512 0.0010 0.3632
1.0471 0.0949 0.3632
1.0347 0.1880 0.3633
1.0141 0.2797 0.3634
0.9855 0.3693 0.3636
0.9490 0.4560 0.3637
0.9050 0.5392 0.3639
0.8537 0.6181 0.3641
0.7955 0.6922 0.3643
0.7310 0.7609 0.3645
0.6606 0.8237 0.3648
0.5848 0.8800 0.3650
0.5043 0.9293 0.3653
0.4196 0.9713 0.3655
0.3315 1.0056 0.3658
0.2406 1.0319 0.3661
0.1476 1.0500 0.3663
0.0533 1.0598 0.3666
-0.0416 1.0611 0.3669
-0.1362 1.0538 0.3671
-0.2299 1.0382 0.3674
-0.3218 1.0142 0.3676
-0.4113 0.9820 0.3678
-0.4976 0.9419 0.3680
-0.5800 0.8942 0.3682
-0.6578 0.8392 0.3684
-0.7304 0.7775 0.3685
-0.7972 0.7094 0.3687
-0.8576 0.6356 0.3688
-0.9112 0.5567 0.3689
-0.9574 0.4732 0.3690
-0.9960 0.3859 0.3690
-1.0265 0.2955 0.3690
-1.0488 0.2027 0.3690
-1.0626 0.1082 0.3690
-1.0679 0.0129 0.3690
-1.0646 -0.0824 0.3689
-1.0527 -0.1771 0.3688
-1.0324 -0.2703 0.3687
-1.0037 -0.3612 0.3685
-0.9671 -0.4492 0.3684
-0.9227 -0.5334 0.3682
-0.8709 -0.6134 0.3680
-0.8122 -0.6883 0.3678
-0.7471 -0.7576 0.3676
-0.6760 -0.8207 0.3673
-0.5997 -0.8772 0.3671
-0.5186 -0.9266 0.3668
-0.4335 -0.9685 0.3666
-0.3451 -1.0026 0.3663
-0.2540 -1.0286 0.3660
-0.1611 -1.0464 0.3658
-0.0670 -1.0559 0.3655
0.0275 -1.0569 0.3653
0.1217 -1.0495 0.3650
0.2147 -1.0338 0.3648
0.3060 -1.0098 0.3645
0.3946 -0.9779 0.3643
0.4801 -0.9382 0.3641
0.5616 -0.8911 0.3639
0.6386 -0.8371 0.3637
0.7105 -0.7764 0.3636
0.7767 -0.7096 0.3634
0.8366 -0.6372 0.3633
0.8899 -0.5598 0.3632
0.9362 -0.4781 0.3632
0.9750 -0.3925 0.3631
1.0061 -0.3039 0.3631
1.0292 -0.2129 0.3631
1.0441 -0.1202 0.3631
1.0508 -0.0265 0.3631
1.0492 0.0674 0.3632
1.0392 0.1608 0.3633
1.0210 0.2530 0.3634
0.9947 0.3433 0.3635
0.9605 0.4309 0.3637
0.9186 0.5152 0.3639
0.8694 0.5954 0.3641
0.8133 0.6710 0.3643
0.7506 0.7414 0.3645
0.6818 0.8059 0.3647
0.6076 0.8642 0.3649
0.5284 0.9156 0.3652
0.4448 0.9598 0.3655
0.3576 0.9964 0.3657
0.2675 1.0250 0.3660
0.1750 1.0456 0.3662
0.0810 1.0578 0.3665
-0.0137 1.0616 0.3668
-0.1085 1.0568 0.3670
-0.2025 1.0436 0.3673
-0.2951 1.0221 0.3675
-0.3854 0.9922 0.3677
-0.4727 0.9544 0.3680
-0.5563 0.9089 0.3682
-0.6355 0.8561 0.3683
-0.7097 0.7963 0.3685
-0.7783 0.7300 0.3686
-0.8406 0.6578 0.3688
-0.8962 0.5803 0.3689
-0.9446 0.4981 0.3689
-0.9855 0.4119 0.3690
-1.0184 0.3223 0.3690
-1.0431 0.2301 0.3690
-1.0595 0.1360 0.3690
-1.0672 0.0409 0.3690
-1.0664 -0.0545 0.3689
-1.0571 -0.1494 0.3688
-1.0392 -0.2431 0.3687
-1.0130 -0.3348 0.3686
-0.9786 -0.4237 0.3684
-0.9365 -0.5092 0.3683
-0.8868 -0.5904 0.3681
-0.8301 -0.6668 0.3679
-0.7668 -0.7378 0.3676
-0.6975 -0.8028 0.3674
-0.6226 -0.8613 0.3672
-0.5428 -0.9128 0.3669
-0.4589 -0.9570 0.3667
-0.3713 -0.9934 0.3664
-0.2810 -1.0218 0.3661
-0.1885 -1.0421 0.3659
-0.0947 -1.0540 0.3656
-0.0002 -1.0575 0.3653
0.0941 -1.0525 0.3651
0.1876 -1.0392 0.3648
0.2794 -1.0177 0.3646
0.3689 -0.9881 0.3644
0.4554 -0.9506 0.3642
0.5382 -0.9057 0.3640
0.6165 -0.8536 0.3638
0.6900 -0.7948 0.3636
0.7579 -0.7298 0.3635
0.8197 -0.6590 0.3634
0.8750 -0.5830 0.3633
0.9234 -0.5025 0.3632
0.9644 -0.4180 0.3631
0.9978 -0.3302 0.3631
1.0232 -0.2398 0.3631
1.0406 -0.1475 0.3631
1.0497 -0.0540 0.3631
1.0505 0.0399 0.3632
1.0430 0.1335 0.3633
1.0272 0.2262 0.3634
1.0033 0.3171 0.3635
0.9713 0.4055 0.3637
0.9317 0.4908 0.3638
0.8846 0.5723 0.3640
0.8304 0.6494 0.3642
0.7696 0.7213 0.3644
0.7026 0.7877 0.3646
0.6299 0.8478 0.3649
0.5521 0.9012 0.3651
0.4697 0.9476 0.3654
0.3835 0.9864 0.3656
0.2942 1.0175 0.3659
0.2023 1.0404 0.3662
0.1087 1.0551 0.3664
0.0141 1.0613 0.3667
-0.0808 1.0591 0.3670
-0.1751 1.0484 0.3672
-0.2682 1.0292 0.3674
-0.3592 1.0018 0.3677
-0.4474 0.9663 0.3679
-0.5322 0.9230 0.3681
-0.6128 0.8723 0.3683
-0.6885 0.8145 0.3685
-0.7588 0.7501 0.3686
-0.8230 0.6796 0.3687
-0.8806 0.6036 0.3688
-0.9312 0.5227 0.3689
-0.9743 0.4375 0.3690
-1.0096 0.3488 0.3690
-1.0367 0.2573 0.3690
-1.0555 0.1638 0.3690
-1.0658 0.0689 0.3690
-1.0676 -0.0265 0.3689
-1.0607 -0.1217 0.3689
-1.0453 -0.2158 0.3687
-1.0215 -0.3082 0.3686
-0.9895 -0.3980 0.3685
-0.9496 -0.4845 0.3683
-0.9021 -0.5671 0.3681
-0.8475 -0.6450 0.3679
-0.7860 -0.7176 0.3677
-0.7184 -0.7844 0.3675
-0.6451 -0.8449 0.3672
-0.5667 -0.8985 0.3670
-0.4839 -0.9448 0.3667
-0.3973 -0.9835 0.3665
-0.3077 -1.0143 0.3662
-0.2158 -1.0370 0.3659
-0.1223 -1.0514 0.3657
-0.0279 -1.0573 0.3654
0.0665 -1.0549 0.3652
0.1603 -1.0440 0.3649
0.2527 -1.0248 0.3647
0.3430 -0.9976 0.3644
0.4304 -0.9624 0.3642
0.5143 -0.9196 0.3640
0.5940 -0.8696 0.3638
0.6690 -0.8127 0.3637
0.7386 -0.7495 0.3635
0.8022 -0.6803 0.3634
0.8595 -0.6058 0.3633
0.9099 -0.5265 0.3632
0.9532 -0.4431 0.3631
0.9888 -0.3562 0.3631
1.0166 -0.2665 0.3631
1.0364 -0.1747 0.3631
1.0479 -0.0815 0.3631
1.0512 0.0123 0.3632
1.0461 0.1062 0.3632
1.0327 0.1992 0.3633
1.0111 0.2906 0.3635
0.9815 0.3799 0.3636
0.9441 0.4662 0.3638
0.8992 0.5489 0.3639
0.8470 0.6273 0.3641
0.7881 0.7008 0.3643
0.7228 0.7688 0.3646
0.6517 0.8308 0.3648
0.5754 0.8863 0.3651
0.4943 0.9347 0.3653
0.4092 0.9758 0.3656
0.3207 1.0092 0.3658
0.2295 1.0345 0.3661
0.1363 1.0517 0.3664
0.0419 1.0604 0.3666
-0.0530 1.0606 0.3669
-0.1475 1.0524 0.3671
-0.2410 1.0357 0.3674
-0.3327 1.0107 0.3676
-0.4219 0.9776 0.3678
-0.5078 0.9365 0.3680
-0.5896 0.8879 0.3682
-0.6669 0.8321 0.3684
-0.7388 0.7696 0.3686
-0.8048 0.7009 0.3687
-0.8645 0.6264 0.3688
-0.9171 0.5469 0.3689
-0.9625 0.4629 0.3690
-1.0001 0.3752 0.3690
-1.0296 0.2844 0.3690
-1.0509 0.1914 0.3690
-1.0637 0.0968 0.3690
-1.0679 0.0015 0.3690
-1.0636 -0.0939 0.3689
-1.0507 -0.1884 0.3688
-1.0294 -0.2813 0.3687
-0.9997 -0.3719 0.3685
-0.9621 -0.4595 0.3684
-0.9168 -0.5433 0.3682
-0.8642 -0.6226 0.3680
-0.8047 -0.6969 0.3678
-0.7388 -0.7655 0.3675
-0.6671 -0.8278 0.3673
-0.5902 -0.8835 0.3671
-0.5086 -0.9320 0.3668
-0.4231 -0.9730 0.3665
-0.3343 -1.0061 0.3663
-0.2430 -1.0312 0.3660
-0.1498 -1.0480 0.3657
-0.0556 -1.0565 0.3655
0.0389 -1.0565 0.3652
0.1329 -1.0481 0.3650
0.2258 -1.0313 0.3647
0.3168 -1.0064 0.3645
0.4051 -0.9735 0.3643
0.4901 -0.9329 0.3641
0.5711 -0.8850 0.3639
0.6475 -0.8301 0.3637
0.7188 -0.7687 0.3636
0.6300 -0.8178 0.3638
0.7002 -0.7579 0.3636
0.7648 -0.6922 0.3635
0.8233 -0.6209 0.3634
0.8752 -0.5448 0.3633
0.9202 -0.4644 0.3632
0.9578 -0.3804 0.3632
0.9879 -0.2934 0.3631
1.0101 -0.2040 0.3631
1.0244 -0.1130 0.3632
1.0305 -0.0211 0.3632
1.0284 0.0710 0.3633
1.0183 0.1625 0.3634
1.0000 0.2528 0.3635
0.9738 0.3412 0.3636
0.9398 0.4270 0.3638
0.8984 0.5094 0.3639
0.8497 0.5878 0.3641
0.7943 0.6617 0.3643
0.7325 0.7304 0.3645
0.6648 0.7934 0.3647
0.5917 0.8501 0.3650
0.5138 0.9001 0.3652
0.4317 0.9431 0.3655
0.3460 0.9785 0.3657
0.2575 1.0062 0.3660
0.1668 1.0259 0.3663
0.0746 1.0374 0.3665
-0.0184 1.0407 0.3668
-0.1113 1.0356 0.3670
-0.2034 1.0222 0.3673
-0.2940 1.0006 0.3675
-0.3824 0.9709 0.3677
-0.4678 0.9335 0.3679
-0.5495 0.8884 0.3681
-0.6270 0.8362 0.3683
-0.6994 0.7773 0.3685
-0.7663 0.7120 0.3686
-0.8271 0.6410 0.3687
-0.8812 0.5647 0.3688
-0.9283 0.4839 0.3689
-0.9679 0.3992 0.3689
-0.9998 0.3112 0.3690
-1.0236 0.2207 0.3690
-1.0391 0.1285 0.3690
-1.0463 0.0352 0.3689
-1.0451 -0.0584 0.3688
-1.0355 -0.1514 0.3688
-1.0175 -0.2431 0.3687
-0.9914 -0.3329 0.3685
-0.9573 -0.4199 0.3684
-0.9156 -0.5034 0.3682
-0.8666 -0.5829 0.3680
-0.8106 -0.6575 0.3678
-0.7483 -0.7268 0.3676
-0.6800 -0.7902 0.3674
-0.6063 -0.8472 0.3671
-0.5279 -0.8974 0.3669
-0.4454 -0.9403 0.3666
-0.3594 -0.9756 0.3664
-0.2707 -1.0031 0.3661
-0.1800 -1.0225 0.3658
-0.0879 -1.0337 0.3656
0.0047 -1.0367 0.3653
0.0972 -1.0315 0.3651
0.1887 -1.0180 0.3648
0.2787 -0.9965 0.3646
0.3663 -0.9670 0.3644
0.4509 -0.9299 0.3642
0.5318 -0.8855 0.3640
0.6085 -0.8341 0.3638
0.6802 -0.7761 0.3637
0.7465 -0.7120 0.3635
0.8068 -0.6423 0.3634
0.8607 -0.5676 0.3633
0.9077 -0.4884 0.3632
0.9476 -0.4054 0.3632
0.9799 -0.3191 0.3631
1.0044 -0.2304 0.3631
1.0210 -0.1398 0.3632
1.0295 -0.0481 0.3632
1.0299 0.0440 0.3633
1.0221 0.1358 0.3633
1.0062 0.2265 0.3634
0.9823 0.3156 0.3636
0.9506 0.4021 0.3637
0.9113 0.4856 0.3639
0.8647 0.5653 0.3640
0.8112 0.6406 0.3642
0.7513 0.7108 0.3645
0.6852 0.7755 0.3647
0.6137 0.8341 0.3649
0.5371 0.8862 0.3652
0.4562 0.9312 0.3654
0.3715 0.9689 0.3657
0.2837 0.9989 0.3659
0.1935 1.0210 0.3662
0.1017 1.0349 0.3664
0.0089 1.0406 0.3667
-0.0841 1.0379 0.3670
-0.1765 1.0270 0.3672
-0.2676 1.0078 0.3674
-0.3568 0.9805 0.3677
-0.4431 0.9452 0.3679
-0.5260 0.9024 0.3681
-0.6047 0.8523 0.3683
-0.6787 0.7952 0.3684
-0.7473 0.7318 0.3686
-0.8099 0.6624 0.3687
-0.8660 0.5876 0.3688
-0.9152 0.5080 0.3689
-0.9571 0.4244 0.3689
-0.9912 0.3373 0.3690
-1.0174 0.2475 0.3690
-1.0354 0.1556 0.3690
-1.0451 0.0626 0.3689
-1.0463 -0.0309 0.3689
-1.0392 -0.1242 0.3688
-1.0236 -0.2164 0.3687
-0.9999 -0.3068 0.3686
-0.9681 -0.3947 0.3684
-0.9286 -0.4793 0.3683
-0.8817 -0.5600 0.3681
-0.8277 -0.6362 0.3679
-0.7672 -0.7071 0.3677
-0.7006 -0.7723 0.3674
-0.6284 -0.8312 0.3672
-0.5514 -0.8834 0.3670
-0.4700 -0.9285 0.3667
-0.3850 -0.9660 0.3664
-0.2970 -0.9958 0.3662
-0.2068 -1.0176 0.3659
-0.1150 -1.0313 0.3657
-0.0225 -1.0367 0.3654
0.0701 -1.0339 0.3652
0.1620 -1.0228 0.3649
0.2525 -1.0036 0.3647
0.3409 -0.9765 0.3645
0.4264 -0.9416 0.3642
0.5085 -0.8993 0.3640
0.5865 -0.8499 0.3639
0.6597 -0.7938 0.3637
0.7276 -0.7314 0.3636
0.7897 -0.6633 0.3634
0.8456 -0.5900 0.3633
0.8947 -0.5121 0.3633
0.9366 -0.4301 0.3632
0.9712 -0.3447 0.3632
0.9980 -0.2566 0.3631
1.0170 -0.1665 0.3631
1.0279 -0.0751 0.3632
1.0306 0.0170 0.3632
1.0252 0.1089 0.3633
1.0117 0.2001 0.3634
0.9901 0.2897 0.3635
0.9607 0.3770 0.3637
0.9236 0.4615 0.3638
0.8791 0.5423 0.3640
0.8276 0.6190 0.3642
0.7695 0.6908 0.3644
0.7052 0.7572 0.3646
0.6352 0.8176 0.3648
0.5600 0.8716 0.3651
0.4803 0.9188 0.3653
0.3967 0.9586 0.3656
0.3097 0.9909 0.3658
0.2202 1.0153 0.3661
0.1288 1.0317 0.3664
0.0362 1.0398 0.3666
-0.0568 1.0396 0.3669
-0.1495 1.0310 0.3671
-0.2411 1.0142 0.3674
-0.3309 0.9893 0.3676
-0.4181 0.9564 0.3678
-0.5021 0.9157 0.3680
-0.5821 0.8677 0.3682
-0.6576 0.8126 0.3684
-0.7278 0.7510 0.3685
-0.7922 0.6833 0.3687
-0.8503 0.6100 0.3688
-0.9015 0.5318 0.3688
-0.9456 0.4493 0.3689
-0.9820 0.3631 0.3690
-1.0106 0.2740 0.3690
-1.0310 0.1827 0.3690
-1.0431 0.0900 0.3689
-1.0468 -0.0035 0.3689
-1.0421 -0.0969 0.3688
-1.0290 -0.1895 0.3687
-1.0077 -0.2805 0.3686
-0.9783 -0.3692 0.3685
-0.9410 -0.4549 0.3683
-0.8962 -0.5368 0.3681
-0.8443 -0.6143 0.3679
-0.7856 -0.6869 0.3677
-0.7207 -0.7538 0.3675
-0.6501 -0.8146 0.3673
-0.5744 -0.8688 0.3670
-0.4943 -0.9160 0.3668
-0.4102 -0.9558 0.3665
-0.3230 -0.9879 0.3663
-0.2334 -1.0121 0.3660
-0.1420 -1.0281 0.3657
-0.0497 -1.0360 0.3655
0.0430 -1.0356 0.3652
0.1352 -1.0269 0.3650
0.2262 -1.0101 0.3647
0.3152 -0.9852 0.3645
0.4017 -0.9526 0.3643
0.4848 -0.9124 0.3641
0.5641 -0.8651 0.3639
0.6387 -0.8109 0.3638
0.7083 -0.7503 0.3636
0.7722 -0.6839 0.3635
0.8299 -0.6120 0.3634
0.8810 -0.5354 0.3633
0.9251 -0.4545 0.3632
0.9618 -0.3701 0.3632
0.9910 -0.2827 0.3631
1.0123 -0.1931 0.3631
1.0255 -0.1020 0.3632
1.0307 -0.0100 0.3632
1.0277 0.0820 0.3633
1.0165 0.1735 0.3634
0.9972 0.2636 0.3635
0.9701 0.3517 0.3636
0.9352 0.4371 0.3638
0.8929 0.5190 0.3639
0.8434 0.5970 0.3641
0.7872 0.6703 0.3643
0.7247 0.7383 0.3645
0.6563 0.8005 0.3648
0.5826 0.8565 0.3650
0.5041 0.9057 0.3653
0.4216 0.9477 0.3655
0.3355 0.9823 0.3658
0.2467 1.0090 0.3660
0.1557 1.0277 0.3663
0.0634 1.0383 0.3665
-0.0295 1.0405 0.3668
-0.1224 1.0344 0.3671
-0.2144 1.0200 0.3673
-0.3048 0.9974 0.3675
-0.3928 0.9668 0.3677
-0.4778 0.9284 0.3680
-0.5591 0.8825 0.3681
-0.6359 0.8295 0.3683
-0.7078 0.7697 0.3685
-0.7739 0.7037 0.3686
-0.8339 0.6321 0.3687
-0.8872 0.5552 0.3688
-0.9334 0.4739 0.3689
-0.9722 0.3887 0.3689
-1.0030 0.3004 0.3690
-1.0259 0.2097 0.3690
-1.0404 0.1173 0.3690
-1.0466 0.0239 0.3689
-1.0444 -0.0696 0.3688
-1.0337 -0.1625 0.3687
-1.0148 -0.2540 0.3686
-0.9877 -0.3435 0.3685
-0.9527 -0.4301 0.3684
-0.9101 -0.5132 0.3682
-0.8602 -0.5921 0.3680
-0.8035 -0.6661 0.3678
-0.7404 -0.7348 0.3676
-0.6714 -0.7974 0.3673
-0.5971 -0.8536 0.3671
-0.5182 -0.9029 0.3669
-0.4352 -0.9449 0.3666
-0.3489 -0.9793 0.3663
-0.2599 -1.0058 0.3661
-0.1690 -1.0243 0.3658
-0.0768 -1.0345 0.3656
0.0158 -1.0365 0.3653
0.1082 -1.0303 0.3651
0.1996 -1.0158 0.3648
0.2893 -0.9933 0.3646
0.3766 -0.9630 0.3644
0.4608 -0.9250 0.3642
0.5413 -0.8797 0.3640
0.6174 -0.8275 0.3638
0.6885 -0.7687 0.3636
0.7540 -0.7039 0.3635
0.8136 -0.6336 0.3634
0.8667 -0.5583 0.3633
0.9129 -0.4786 0.3632
0.9518 -0.3952 0.3632
0.9832 -0.3086 0.3631
1.0068 -0.2196 0.3631
1.0225 -0.1288 0.3632
1.0300 -0.0371 0.3632
1.0294 0.0550 0.3633
1.0206 0.1467 0.3633
1.0037 0.2373 0.3635
0.9789 0.3261 0.3636
0.9462 0.4123 0.3637
0.9061 0.4954 0.3639
0.8586 0.5746 0.3641
0.8044 0.6493 0.3643
0.7436 0.7189 0.3645
0.6769 0.7829 0.3647
0.6047 0.8408 0.3649
0.5276 0.8920 0.3652
0.4462 0.9362 0.3654
0.3611 0.9729 0.3657
0.2730 1.0020 0.3660
0.1826 1.0231 0.3662
0.0906 1.0360 0.3665
-0.0023 1.0407 0.3667
-0.0952 1.0371 0.3670
-0.1875 1.0251 0.3672
-0.2785 1.0049 0.3675
-0.3673 0.9766 0.3677
-0.4533 0.9405 0.3679
-0.5357 0.8967 0.3681
-0.6139 0.8458 0.3683
-0.6873 0.7879 0.3684
-0.7551 0.7237 0.3686
-0.8170 0.6536 0.3687
-0.8723 0.5783 0.3688
-0.9207 0.4982 0.3689
-0.9616 0.4141 0.3689
-0.9948 0.3266 0.3690
-1.0200 0.2365 0.3690
-1.0370 0.1445 0.3690
-1.0457 0.0514 0.3689
-1.0459 -0.0422 0.3689
-1.0377 -0.1354 0.3688
-1.0212 -0.2274 0.3687
-0.9965 -0.3175 0.3685
-0.9638 -0.4050 0.3684
-0.9234 -0.4892 0.3682
-0.8756 -0.5694 0.3680
-0.8208 -0.6450 0.3678
-0.7595 -0.7152 0.3676
-0.6922 -0.7797 0.3674
-0.6194 -0.8378 0.3672
-0.5418 -0.8892 0.3669
-0.4599 -0.9334 0.3667
-0.3745 -0.9700 0.3664
-0.2862 -0.9989 0.3662
-0.1958 -1.0197 0.3659
-0.1039 -1.0324 0.3656
-0.0113 -1.0368 0.3654
0.0812 -1.0330 0.3651
0.1730 -1.0209 0.3649
0.2633 -1.0008 0.3647
0.3513 -0.9727 0.3644
0.4365 -0.9369 0.3642
0.5181 -0.8937 0.3640
0.5955 -0.8435 0.3638
0.6682 -0.7866 0.3637
0.7354 -0.7235 0.3635
0.7968 -0.6548 0.3634
0.8518 -0.5809 0.3633
0.9001 -0.5024 0.3632
0.9412 -0.4200 0.3632
0.9748 -0.3343 0.3632
1.0007 -0.2459 0.3631
1.0187 -0.1556 0.3631
1.0287 -0.0640 0.3632
1.0304 0.0280 0.3632
1.0240 0.1199 0.3633
1.0095 0.2109 0.3634
0.9870 0.3003 0.3635
0.9566 0.3874 0.3637
0.9186 0.4714 0.3638
0.8733 0.5518 0.3640
0.8210 0.6279 0.3642
0.7621 0.6991 0.3644
0.6971 0.7648 0.3646
0.6264 0.8245 0.3649
0.5507 0.8777 0.3651
0.4705 0.9239 0.3654
0.3864 0.9629 0.3656
0.2991 0.9943 0.3659
0.2093 1.0177 0.3661
0.1177 1.0331 0.3664
0.0250 1.0402 0.3667
-0.0680 1.0390 0.3669
-0.1606 1.0295 0.3672
-0.2520 1.0117 0.3674
-0.3415 0.9858 0.3676
-0.4284 0.9519 0.3678
-0.5119 0.9103 0.3680
-0.5914 0.8614 0.3682
-0.6663 0.8056 0.3684
-0.7358 0.7432 0.3685
-0.7995 0.6748 0.3687
-0.8568 0.6009 0.3688
-0.9072 0.5221 0.3689
-0.9504 0.4391 0.3689
-0.9859 0.3526 0.3690
-1.0135 0.2632 0.3690
-1.0329 0.1716 0.3690
-1.0440 0.0787 0.3689
-1.0467 -0.0148 0.3689
-1.0410 -0.1081 0.3688
-1.0269 -0.2006 0.3687
-1.0046 -0.2913 0.3686
-0.9742 -0.3797 0.3684
-0.9360 -0.4649 0.3683
-0.8903 -0.5464 0.3681
-0.8376 -0.6233 0.3679
-0.7781 -0.6952 0.3677
-0.7125 -0.7614 0.3675
-0.6413 -0.8215 0.3672
-0.5650 -0.8749 0.3670
-0.4843 -0.9212 0.3667
-0.3999 -0.9601 0.3665
-0.3124 -0.9912 0.3662
-0.2225 -1.0144 0.3660
-0.1310 -1.0295 0.3657
-0.0385 -1.0364 0.3655
0.0541 -1.0349 0.3652
0.1462 -1.0253 0.3650
0.2370 -1.0075 0.3647
0.3258 -0.9817 0.3645
0.4119 -0.9482 0.3643
0.4946 -0.9071 0.3641
0.5733 -0.8589 0.3639
0.6474 -0.8039 0.3637
0.7163 -0.7426 0.3636
0.7794 -0.6755 0.3635
0.8364 -0.6031 0.3634
0.8867 -0.5259 0.3633
0.9299 -0.4445 0.3632
0.9658 -0.3597 0.3632
0.9940 -0.2721 0.3631
1.0143 -0.1822 0.3631
1.0266 -0.0910 0.3632
1.0307 0.0010 0.3632
1.0267 0.0931 0.3633
1.0146 0.1844 0.3634
0.9944 0.2743 0.3635
0.9663 0.3621 0.3636
0.9305 0.4471 0.3638
0.8873 0.5286 0.3640
0.8370 0.6061 0.3642
0.7800 0.6787 0.3644
0.7167 0.7461 0.3646
0.6477 0.8076 0.3648
0.5734 0.8628 0.3650
0.4944 0.9111 0.3653
0.4114 0.9523 0.3655
0.3250 0.9859 0.3658
0.2358 1.0117 0.3661
0.1447 1.0294 0.3663
0.0523 1.0390 0.3666
-0.0407 1.0402 0.3668
-0.1335 1.0331 0.3671
-0.2253 1.0177 0.3673
-0.3155 0.9942 0.3676
-0.4032 0.9626 0.3678
-0.4878 0.9233 0.3680
-0.5686 0.8765 0.3682
-0.6449 0.8227 0.3683
-0.7160 0.7621 0.3685
-0.7815 0.6954 0.3686
-0.8407 0.6231 0.3687
-0.8932 0.5457 0.3688
-0.9385 0.4639 0.3689
-0.9763 0.3783 0.3690
-1.0062 0.2896 0.3690
-1.0281 0.1986 0.3690
-1.0416 0.1061 0.3689
-1.0468 0.0127 0.3689
-1.0435 -0.0808 0.3688
-1.0319 -0.1736 0.3687
-1.0120 -0.2649 0.3686
-0.9839 -0.3541 0.3685
-0.9480 -0.4403 0.3683
-0.9045 -0.5229 0.3682
-0.8537 -0.6013 0.3680
-0.7962 -0.6747 0.3678
-0.7324 -0.7426 0.3675
-0.6627 -0.8045 0.3673
-0.5879 -0.8599 0.3671
-0.5084 -0.9083 0.3668
-0.4250 -0.9495 0.3666
-0.3383 -0.9829 0.3663
-0.2491 -1.0085 0.3660
-0.1579 -1.0259 0.3658
-0.0657 -1.0352 0.3655
0.0270 -1.0362 0.3653
0.1193 -1.0290 0.3650
0.2105 -1.0136 0.3648
0.3000 -0.9901 0.3646
0.3869 -0.9588 0.3643
0.4707 -0.9199 0.3641
0.5507 -0.8738 0.3640
0.6262 -0.8207 0.3638
0.6966 -0.7613 0.3636
0.7615 -0.6958 0.3635
0.8204 -0.6248 0.3634
0.8726 -0.5490 0.3633
0.9180 -0.4688 0.3632
0.9560 -0.3849 0.3632
0.9865 -0.2980 0.3631
1.0092 -0.2088 0.3631
1.0238 -0.1179 0.3632
1.0304 -0.0260 0.3632
1.0288 0.0661 0.3633
1.0190 0.1577 0.3634
1.0012 0.2481 0.3635
0.9753 0.3366 0.3636
0.9418 0.4225 0.3637
0.9007 0.5051 0.3639
0.8525 0.5838 0.3641
0.7974 0.6579 0.3643
0.7359 0.7269 0.3645
0.6685 0.7902 0.3647
0.5957 0.8473 0.3650
0.5180 0.8977 0.3652
0.4361 0.9410 0.3655
0.3506 0.9768 0.3657
0.2622 1.0049 0.3660
0.1716 1.0251 0.3662
0.0794 1.0370 0.3665
-0.0135 1.0407 0.3668
-0.1064 1.0361 0.3670
-0.1986 1.0231 0.3673
-0.2893 1.0019 0.3675
-0.3778 0.9727 0.3677
-0.4634 0.9356 0.3679
-0.5453 0.8910 0.3681
-0.6230 0.8392 0.3683
-0.6957 0.7805 0.3685
-0.7629 0.7156 0.3686
-0.8240 0.6448 0.3687
-0.8785 0.5689 0.3688
-0.9260 0.4883 0.3689
-0.9660 0.4037 0.3689
-0.9983 0.3159 0.3690
-1.0225 0.2255 0.3690
-1.0385 0.1333 0.3690
-1.0461 0.0401 0.3689
-1.0454 -0.0534 0.3689
-1.0362 -0.1465 0.3688
-1.0187 -0.2383 0.3687
-0.9930 -0.3282 0.3685
-0.9593 -0.4154 0.3684
-0.9180 -0.4991 0.3682
-0.8693 -0.5788 0.3680
-0.8138 -0.6537 0.3678
-0.7517 -0.7233 0.3676
-0.6837 -0.7870 0.3674
-0.6103 -0.8444 0.3671
-0.5322 -0.8949 0.3669
-0.4498 -0.9382 0.3666
-0.3641 -0.9739 0.3664
-0.2755 -1.0018 0.3661
-0.1848 -1.0217 0.3659
-0.0928 -1.0334 0.3656
-0.0002 -1.0368 0.3653
0.0923 -1.0320 0.3651
0.1839 -1.0189 0.3649
0.2740 -0.9978 0.3646
0.3617 -0.9688 0.3644
0.4465 -0.9321 0.3642
0.5277 -0.8880 0.3640
0.6045 -0.8370 0.3638
0.6765 -0.7793 0.3637
0.7431 -0.7156 0.3635
0.8038 -0.6462 0.3634
0.8580 -0.5717 0.3633
0.9054 -0.4927 0.3632
0.9456 -0.4098 0.3632
0.9784 -0.3238 0.3631
1.0033 -0.2351 0.3631
1.0204 -0.1446 0.3632
1.0293 -0.0530 0.3632
1.0301 0.0391 0.3632
1.0227 0.1309 0.3633
1.0072 0.2218 0.3634
0.9837 0.3109 0.3636
0.9524 0.3976 0.3637
0.9135 0.4813 0.3639
0.8673 0.5612 0.3640
0.8142 0.6367 0.3642
0.7546 0.7073 0.3644
0.6888 0.7723 0.3647
0.6176 0.8312 0.3649
0.5413 0.8836 0.3651
0.4605 0.9290 0.3654
0.3760 0.9671 0.3656
0.2884 0.9975 0.3659
0.1983 1.0200 0.3662
0.1066 1.0344 0.3664
0.0138 1.0405 0.3667
-0.0792 1.0383 0.3669
-0.1716 1.0278 0.3672
-0.2629 1.0090 0.3674
-0.3521 0.9821 0.3676
-0.4386 0.9473 0.3679
-0.5217 0.9048 0.3681
-0.6007 0.8551 0.3682
-0.6749 0.7984 0.3684
-0.7438 0.7353 0.3686
-0.8068 0.6662 0.3687
-0.8632 0.5916 0.3688
-0.9128 0.5123 0.3689
-0.9551 0.4289 0.3689
-0.9896 0.3420 0.3690
-1.0162 0.2523 0.3690
-1.0347 0.1605 0.3690
-1.0448 0.0675 0.3689
-1.0465 -0.0260 0.3689
-1.0397 -0.1193 0.3688
-1.0247 -0.2116 0.3687
-1.0013 -0.3021 0.3686
-0.9700 -0.3901 0.3684
-0.9309 -0.4749 0.3683
-0.8843 -0.5559 0.3681
-0.8307 -0.6323 0.3679
-0.7705 -0.7035 0.3677
-0.7042 -0.7690 0.3674
-0.6324 -0.8283 0.3672
-0.5555 -0.8808 0.3670
-0.4744 -0.9263 0.3667
-0.3895 -0.9642 0.3665
-0.3017 -0.9944 0.3662
-0.2116 -1.0167 0.3659
-0.1199 -1.0308 0.3657
-0.0274 -1.0366 0.3654
0.0652 -1.0342 0.3652
0.1572 -1.0236 0.3649
0.2478 -1.0048 0.3647
0.3363 -0.9781 0.3645
0.4220 -0.9436 0.3643
0.5043 -0.9017 0.3641
0.5825 -0.8527 0.3639
0.6560 -0.7969 0.3637
0.7242 -0.7349 0.3636
0.7866 -0.6671 0.3634
0.8428 -0.5940 0.3633
0.8922 -0.5163 0.3633
0.9346 -0.4345 0.3632
0.9696 -0.3493 0.3632
0.9968 -0.2613 0.3631
1.0162 -0.1713 0.3631
1.0275 -0.0799 0.3632
1.0307 0.0121 0.3632
1.0257 0.1041 0.3633
1.0126 0.1953 0.3634
0.9914 0.2850 0.3635
0.9624 0.3725 0.3637
0.9257 0.4571 0.3638
0.8816 0.5382 0.3640
0.8305 0.6151 0.3642
0.7727 0.6871 0.3644
0.7087 0.7538 0.3646
0.6390 0.8146 0.3648
0.5641 0.8689 0.3651
0.4846 0.9164 0.3653
0.4012 0.9567 0.3656
0.3144 0.9894 0.3658
0.2250 1.0142 0.3661
0.1336 1.0310 0.3664
0.0411 1.0396 0.3666
-0.0519 1.0398 0.3669
-0.1446 1.0317 0.3671
-0.2363 1.0153 0.3674
-0.3262 0.9908 0.3676
-0.4136 0.9583 0.3678
-0.4977 0.9181 0.3680
-0.5780 0.8704 0.3682
-0.6537 0.8157 0.3684
-0.7242 0.7544 0.3685
-0.7889 0.6870 0.3686
-0.8474 0.6140 0.3688
-0.8990 0.5361 0.3688
-0.9435 0.4538 0.3689
-0.9803 0.3678 0.3690
-1.0093 0.2788 0.3690
-1.0301 0.1876 0.3690
-1.0427 0.0949 0.3689
-1.0468 0.0014 0.3689
-1.0426 -0.0920 0.3688
-1.0299 -0.1847 0.3687
-1.0090 -0.2758 0.3686
-0.9800 -0.3646 0.3685
-0.9431 -0.4504 0.3683
-0.8987 -0.5326 0.3681
-0.8472 -0.6104 0.3679
-0.7889 -0.6832 0.3677
-0.7243 -0.7504 0.3675
-0.6540 -0.8116 0.3673
-0.5786 -0.8661 0.3670
-0.4986 -0.9137 0.3668
-0.4147 -0.9539 0.3665
-0.3277 -0.9864 0.3663
-0.2382 -1.0110 0.3660
-0.1469 -1.0275 0.3658
-0.0545 -1.0358 0.3655
0.0381 -1.0358 0.3652
0.1303 -1.0276 0.3650
0.2214 -1.0112 0.3648
0.3106 -0.9867 0.3645
0.3972 -0.9545 0.3643
0.4805 -0.9147 0.3641
0.5600 -0.8677 0.3639
0.6349 -0.8139 0.3638
0.7048 -0.7537 0.3636
0.6179 -0.8021 0.3638
0.6868 -0.7434 0.3637
0.7501 -0.6789 0.3635
0.8075 -0.6090 0.3634
0.8584 -0.5344 0.3633
0.9025 -0.4555 0.3633
0.9395 -0.3731 0.3632
0.9690 -0.2877 0.3632
0.9908 -0.2001 0.3632
1.0047 -0.1108 0.3632
1.0107 -0.0207 0.3633
1.0087 0.0696 0.3633
0.9987 0.1594 0.3634
0.9808 0.2480 0.3635
0.9551 0.3347 0.3636
0.9218 0.4188 0.3638
0.8811 0.4996 0.3640
0.8334 0.5766 0.3641
0.7790 0.6490 0.3643
0.7184 0.7164 0.3645
0.6520 0.7781 0.3648
0.5803 0.8337 0.3650
0.5039 0.8828 0.3652
0.4234 0.9249 0.3655
0.3393 0.9596 0.3657
0.2525 0.9868 0.3660
0.1635 1.0061 0.3663
0.0731 1.0174 0.3665
-0.0180 1.0205 0.3668
-0.1091 1.0155 0.3670
-0.1995 1.0024 0.3672
-0.2883 0.9812 0.3675
-0.3750 0.9521 0.3677
-0.4587 0.9153 0.3679
-0.5389 0.8712 0.3681
-0.6148 0.8200 0.3683
-0.6858 0.7622 0.3684
-0.7514 0.6982 0.3685
-0.8110 0.6285 0.3687
-0.8641 0.5537 0.3688
-0.9102 0.4745 0.3688
-0.9491 0.3914 0.3689
-0.9803 0.3051 0.3689
-1.0036 0.2164 0.3689
-1.0189 0.1260 0.3689
-1.0260 0.0345 0.3689
-1.0248 -0.0572 0.3688
-1.0153 -0.1484 0.3687
-0.9977 -0.2384 0.3686
-0.9721 -0.3264 0.3685
-0.9387 -0.4117 0.3683
-0.8978 -0.4936 0.3682
-0.8498 -0.5715 0.3680
-0.7949 -0.6448 0.3678
-0.7338 -0.7127 0.3676
-0.6668 -0.7749 0.3673
-0.5946 -0.8308 0.3671
-0.5177 -0.8800 0.3669
-0.4368 -0.9221 0.3666
-0.3525 -0.9567 0.3664
-0.2655 -0.9837 0.3661
-0.1765 -1.0027 0.3659
-0.0862 -1.0138 0.3656
0.0046 -1.0167 0.3653
0.0953 -1.0116 0.3651
0.1851 -0.9984 0.3649
0.2733 -0.9773 0.3646
0.3592 -0.9484 0.3644
0.4422 -0.9121 0.3642
0.5216 -0.8685 0.3640
0.5968 -0.8181 0.3639
0.6671 -0.7612 0.3637
0.7322 -0.6984 0.3636
0.7913 -0.6300 0.3635
0.8442 -0.5567 0.3634
0.8903 -0.4791 0.3633
0.9294 -0.3976 0.3632
0.9611 -0.3130 0.3632
0.9852 -0.2260 0.3632
1.0015 -0.1371 0.3632
1.0098 -0.0472 0.3632
1.0102 0.0431 0.3633
1.0025 0.1332 0.3634
0.9869 0.2222 0.3635
0.9634 0.3095 0.3636
0.9323 0.3944 0.3637
0.8938 0.4763 0.3639
0.8481 0.5544 0.3641
0.7956 0.6283 0.3643
0.7368 0.6972 0.3645
0.6720 0.7606 0.3647
0.6018 0.8181 0.3649
0.5268 0.8691 0.3652
0.4474 0.9133 0.3654
0.3643 0.9502 0.3657
0.2782 0.9796 0.3659
0.1898 1.0012 0.3662
0.0997 1.0149 0.3664
0.0087 1.0204 0.3667
-0.0824 1.0178 0.3669
-0.1731 1.0071 0.3672
-0.2625 0.9882 0.3674
-0.3498 0.9614 0.3676
-0.4345 0.9269 0.3678
-0.5158 0.8849 0.3680
-0.5930 0.8357 0.3682
-0.6655 0.7798 0.3684
-0.7328 0.7175 0.3685
-0.7941 0.6495 0.3686
-0.8492 0.5762 0.3687
-0.8974 0.4982 0.3688
-0.9385 0.4161 0.3689
-0.9719 0.3307 0.3689
-0.9976 0.2426 0.3689
-1.0153 0.1526 0.3689
-1.0247 0.0614 0.3689
-1.0260 -0.0304 0.3688
-1.0189 -0.1218 0.3687
-1.0037 -0.2122 0.3686
-0.9805 -0.3008 0.3685
-0.9493 -0.3870 0.3684
-0.9106 -0.4700 0.3682
-0.8646 -0.5491 0.3680
-0.8117 -0.6238 0.3678
-0.7523 -0.6934 0.3676
-0.6870 -0.7573 0.3674
-0.6163 -0.8151 0.3672
-0.5407 -0.8663 0.3669
-0.4609 -0.9105 0.3667
-0.3775 -0.9473 0.3664
-0.2913 -0.9766 0.3662
-0.2028 -0.9980 0.3659
-0.1128 -1.0114 0.3657
-0.0220 -1.0167 0.3654
0.0688 -1.0140 0.3652
0.1589 -1.0031 0.3649
0.2476 -0.9843 0.3647
0.3343 -0.9577 0.3645
0.4182 -0.9235 0.3643
0.4987 -0.8820 0.3641
0.5752 -0.8336 0.3639
0.6470 -0.7785 0.3638
0.7137 -0.7174 0.3636
0.7746 -0.6506 0.3635
0.8294 -0.5787 0.3634
0.8775 -0.5022 0.3633
0.9187 -0.4218 0.3632
0.9526 -0.3381 0.3632
0.9789 -0.2517 0.3632
0.9975 -0.1633 0.3632
1.0082 -0.0737 0.3632
1.0109 0.0166 0.3633
1.0056 0.1068 0.3634
0.9923 0.1962 0.3635
0.9711 0.2841 0.3636
0.9422 0.3698 0.3637
0.9058 0.4526 0.3639
0.8622 0.5319 0.3640
0.8117 0.6071 0.3642
0.7547 0.6775 0.3644
0.6916 0.7426 0.3646
0.6230 0.8019 0.3649
0.5492 0.8548 0.3651
0.4711 0.9010 0.3653
0.3890 0.9401 0.3656
0.3037 0.9718 0.3658
0.2159 0.9957 0.3661
0.1263 1.0117 0.3664
0.0355 1.0197 0.3666
-0.0557 1.0195 0.3669
-0.1466 1.0111 0.3671
-0.2364 0.9946 0.3673
-0.3245 0.9701 0.3676
-0.4100 0.9378 0.3678
-0.4923 0.8980 0.3680
-0.5708 0.8508 0.3682
-0.6448 0.7969 0.3683
-0.7136 0.7364 0.3685
-0.7768 0.6700 0.3686
-0.8337 0.5982 0.3687
-0.8840 0.5215 0.3688
-0.9272 0.4406 0.3689
-0.9629 0.3561 0.3689
-0.9909 0.2687 0.3689
-1.0109 0.1792 0.3689
-1.0228 0.0882 0.3689
-1.0265 -0.0034 0.3688
-1.0219 -0.0950 0.3688
-1.0090 -0.1858 0.3687
-0.9881 -0.2751 0.3686
-0.9592 -0.3620 0.3684
-0.9227 -0.4460 0.3683
-0.8788 -0.5264 0.3681
-0.8279 -0.6024 0.3679
-0.7704 -0.6735 0.3677
-0.7067 -0.7392 0.3675
-0.6375 -0.7988 0.3672
-0.5633 -0.8520 0.3670
-0.4847 -0.8983 0.3668
-0.4023 -0.9373 0.3665
-0.3168 -0.9688 0.3663
-0.2289 -0.9925 0.3660
-0.1393 -1.0083 0.3657
-0.0487 -1.0160 0.3655
0.0422 -1.0156 0.3652
0.1326 -1.0071 0.3650
0.2218 -0.9906 0.3648
0.3092 -0.9663 0.3645
0.3940 -0.9343 0.3643
0.4755 -0.8949 0.3641
0.5532 -0.8485 0.3640
0.6265 -0.7953 0.3638
0.6947 -0.7359 0.3636
0.7573 -0.6708 0.3635
0.8140 -0.6003 0.3634
0.8641 -0.5251 0.3633
0.9074 -0.4458 0.3633
0.9434 -0.3630 0.3632
0.9720 -0.2773 0.3632
0.9929 -0.1894 0.3632
1.0059 -0.1000 0.3632
1.0109 -0.0099 0.3633
1.0080 0.0804 0.3633
0.9970 0.1701 0.3634
0.9781 0.2585 0.3635
0.9515 0.3449 0.3637
0.9173 0.4287 0.3638
0.8757 0.5091 0.3640
0.8272 0.5855 0.3642
0.7721 0.6574 0.3644
0.7107 0.7241 0.3646
0.6436 0.7851 0.3648
0.5713 0.8400 0.3650
0.4944 0.8882 0.3653
0.4134 0.9294 0.3655
0.3290 0.9633 0.3658
0.2419 0.9895 0.3660
0.1527 1.0079 0.3663
0.0622 1.0182 0.3665
-0.0290 1.0204 0.3668
-0.1200 1.0144 0.3670
-0.2102 1.0003 0.3673
-0.2989 0.9781 0.3675
-0.3852 0.9481 0.3677
-0.4686 0.9104 0.3679
-0.5482 0.8654 0.3681
-0.6236 0.8134 0.3683
-0.6940 0.7548 0.3684
-0.7589 0.6901 0.3686
-0.8177 0.6198 0.3687
-0.8700 0.5444 0.3688
-0.9153 0.4647 0.3688
-0.9532 0.3812 0.3689
-0.9835 0.2946 0.3689
-1.0059 0.2056 0.3689
-1.0202 0.1150 0.3689
-1.0262 0.0235 0.3689
-1.0241 -0.0682 0.3688
-1.0136 -0.1593 0.3687
-0.9951 -0.2491 0.3686
-0.9685 -0.3368 0.3685
-0.9342 -0.4218 0.3683
-0.8924 -0.5032 0.3681
-0.8435 -0.5806 0.3680
-0.7879 -0.6532 0.3678
-0.7260 -0.7205 0.3675
-0.6584 -0.7820 0.3673
-0.5856 -0.8371 0.3671
-0.5082 -0.8854 0.3668
-0.4268 -0.9266 0.3666
-0.3422 -0.9604 0.3663
-0.2549 -0.9864 0.3661
-0.1657 -1.0045 0.3658
-0.0753 -1.0146 0.3656
0.0155 -1.0166 0.3653
0.1061 -1.0104 0.3651
0.1958 -0.9963 0.3648
0.2838 -0.9742 0.3646
0.3694 -0.9445 0.3644
0.4520 -0.9072 0.3642
0.5309 -0.8628 0.3640
0.6055 -0.8116 0.3638
0.6752 -0.7540 0.3637
0.7396 -0.6904 0.3636
0.7980 -0.6215 0.3634
0.8501 -0.5476 0.3633
0.8954 -0.4694 0.3633
0.9336 -0.3876 0.3632
0.9644 -0.3027 0.3632
0.9875 -0.2154 0.3632
1.0029 -0.1264 0.3632
1.0103 -0.0364 0.3633
1.0097 0.0540 0.3633
1.0010 0.1439 0.3634
0.9845 0.2328 0.3635
0.9601 0.3198 0.3636
0.9281 0.4044 0.3638
0.8887 0.4859 0.3639
0.8422 0.5635 0.3641
0.7889 0.6368 0.3643
0.7293 0.7051 0.3645
0.6639 0.7678 0.3647
0.5931 0.8246 0.3650
0.5174 0.8748 0.3652
0.4376 0.9181 0.3654
0.3541 0.9541 0.3657
0.2677 0.9826 0.3660
0.1790 1.0033 0.3662
0.0888 1.0160 0.3665
-0.0022 1.0206 0.3667
-0.0934 1.0170 0.3670
-0.1839 1.0052 0.3672
-0.2731 0.9854 0.3674
-0.3602 0.9577 0.3677
-0.4445 0.9222 0.3679
-0.5253 0.8793 0.3681
-0.6020 0.8293 0.3682
-0.6739 0.7726 0.3684
-0.7405 0.7096 0.3685
-0.8011 0.6409 0.3686
-0.8554 0.5670 0.3687
-0.9027 0.4885 0.3688
-0.9429 0.4060 0.3689
-0.9754 0.3202 0.3689
-1.0002 0.2319 0.3689
-1.0168 0.1417 0.3689
-1.0253 0.0503 0.3689
-1.0256 -0.0414 0.3688
-1.0175 -0.1327 0.3687
-1.0014 -0.2230 0.3686
-0.9771 -0.3113 0.3685
-0.9450 -0.3972 0.3684
-0.9054 -0.4797 0.3682
-0.8586 -0.5584 0.3680
-0.8049 -0.6324 0.3678
-0.7448 -0.7014 0.3676
-0.6788 -0.7646 0.3674
-0.6074 -0.8216 0.3671
-0.5313 -0.8720 0.3669
-0.4510 -0.9153 0.3667
-0.3673 -0.9513 0.3664
-0.2807 -0.9796 0.3662
-0.1920 -1.0000 0.3659
-0.1019 -1.0125 0.3656
-0.0111 -1.0168 0.3654
0.0797 -1.0131 0.3651
0.1697 -1.0013 0.3649
0.2582 -0.9815 0.3647
0.3446 -0.9540 0.3645
0.4281 -0.9189 0.3643
0.5082 -0.8765 0.3641
0.5841 -0.8273 0.3639
0.6553 -0.7715 0.3637
0.7213 -0.7097 0.3636
0.7815 -0.6422 0.3635
0.8355 -0.5697 0.3634
0.8828 -0.4928 0.3633
0.9232 -0.4119 0.3632
0.9561 -0.3279 0.3632
0.9816 -0.2412 0.3632
0.9992 -0.1526 0.3632
1.0089 -0.0628 0.3632
1.0107 0.0275 0.3633
1.0044 0.1176 0.3634
0.9901 0.2069 0.3635
0.9680 0.2945 0.3636
0.9382 0.3799 0.3637
0.9010 0.4624 0.3639
0.8565 0.5412 0.3641
0.8052 0.6158 0.3642
0.7474 0.6856 0.3644
0.6836 0.7500 0.3647
0.6143 0.8086 0.3649
0.5401 0.8608 0.3651
0.4614 0.9061 0.3654
0.3789 0.9444 0.3656
0.2933 0.9751 0.3659
0.2052 0.9981 0.3661
0.1154 1.0131 0.3664
0.0245 1.0201 0.3666
-0.0667 1.0189 0.3669
-0.1575 1.0095 0.3671
-0.2471 0.9921 0.3674
-0.3349 0.9666 0.3676
-0.4201 0.9334 0.3678
-0.5020 0.8927 0.3680
-0.5800 0.8447 0.3682
-0.6533 0.7899 0.3683
-0.7215 0.7287 0.3685
-0.7840 0.6616 0.3686
-0.8401 0.5892 0.3687
-0.8896 0.5120 0.3688
-0.9319 0.4306 0.3689
-0.9667 0.3457 0.3689
-0.9937 0.2580 0.3689
-1.0128 0.1683 0.3689
-1.0237 0.0772 0.3689
-1.0263 -0.0145 0.3688
-1.0207 -0.1060 0.3688
-1.0069 -0.1967 0.3687
-0.9850 -0.2857 0.3685
-0.9552 -0.3723 0.3684
-0.9178 -0.4559 0.3682
-0.8730 -0.5358 0.3681
-0.8213 -0.6112 0.3679
-0.7630 -0.6817 0.3677
-0.6987 -0.7467 0.3674
-0.6289 -0.8056 0.3672
-0.5541 -0.8579 0.3670
-0.4750 -0.9034 0.3667
-0.3922 -0.9415 0.3665
-0.3063 -0.9721 0.3662
-0.2182 -0.9948 0.3660
-0.1284 -1.0096 0.3657
-0.0378 -1.0164 0.3655
0.0531 -1.0150 0.3652
0.1434 -1.0056 0.3650
0.2324 -0.9881 0.3647
0.3195 -0.9628 0.3645
0.4039 -0.9299 0.3643
0.4851 -0.8897 0.3641
0.5623 -0.8424 0.3639
0.6350 -0.7885 0.3638
0.7025 -0.7284 0.3636
0.7645 -0.6626 0.3635
0.8203 -0.5915 0.3634
0.8697 -0.5158 0.3633
0.9121 -0.4360 0.3633
0.9473 -0.3528 0.3632
0.9749 -0.2668 0.3632
0.9949 -0.1787 0.3632
1.0069 -0.0892 0.3632
1.0110 0.0010 0.3633
1.0071 0.0913 0.3633
0.9951 0.1809 0.3634
0.9753 0.2690 0.3635
0.9478 0.3552 0.3637
0.9127 0.4385 0.3638
0.8703 0.5185 0.3640
0.8209 0.5944 0.3642
0.7650 0.6657 0.3644
0.7029 0.7317 0.3646
0.6352 0.7921 0.3648
0.5623 0.8461 0.3651
0.4849 0.8935 0.3653
0.4035 0.9339 0.3656
0.3187 0.9669 0.3658
0.2313 0.9921 0.3661
0.1419 1.0095 0.3663
0.0512 1.0189 0.3666
-0.0399 1.0201 0.3668
-0.1309 1.0131 0.3671
-0.2210 0.9980 0.3673
-0.3094 0.9749 0.3675
-0.3954 0.9439 0.3677
-0.4783 0.9054 0.3679
-0.5575 0.8595 0.3681
-0.6323 0.8067 0.3683
-0.7021 0.7473 0.3684
-0.7663 0.6819 0.3686
-0.8243 0.6110 0.3687
-0.8758 0.5351 0.3688
-0.9202 0.4548 0.3688
-0.9573 0.3709 0.3689
-0.9866 0.2840 0.3689
-1.0080 0.1948 0.3689
-1.0213 0.1040 0.3689
-1.0264 0.0124 0.3688
-1.0232 -0.0792 0.3688
-1.0118 -0.1702 0.3687
-0.9923 -0.2598 0.3686
-0.9648 -0.3472 0.3684
-0.9296 -0.4318 0.3683
-0.8869 -0.5128 0.3681
-0.8372 -0.5896 0.3679
-0.7808 -0.6616 0.3677
-0.7182 -0.7282 0.3675
-0.6499 -0.7889 0.3673
-0.5765 -0.8433 0.3670
-0.4986 -0.8908 0.3668
-0.4168 -0.9311 0.3666
-0.3318 -0.9639 0.3663
-0.2443 -0.9890 0.3660
-0.1549 -1.0061 0.3658
-0.0644 -1.0152 0.3655
0.0265 -1.0162 0.3653
0.1170 -1.0092 0.3650
0.2065 -0.9940 0.3648
0.2942 -0.9711 0.3646
0.3795 -0.9404 0.3644
0.4617 -0.9022 0.3642
0.5401 -0.8570 0.3640
0.6141 -0.8050 0.3638
0.6833 -0.7466 0.3637
0.7469 -0.6824 0.3635
0.8046 -0.6128 0.3634
0.8559 -0.5384 0.3633
0.9004 -0.4598 0.3633
0.9377 -0.3775 0.3632
0.9676 -0.2923 0.3632
0.9898 -0.2048 0.3632
1.0042 -0.1156 0.3632
1.0106 -0.0255 0.3633
1.0090 0.0648 0.3633
0.9995 0.1547 0.3634
0.9819 0.2434 0.3635
0.9566 0.3302 0.3636
0.9237 0.4144 0.3638
0.8834 0.4954 0.3640
0.8361 0.5726 0.3641
0.7821 0.6453 0.3643
0.7218 0.7129 0.3645
0.6556 0.7750 0.3648
0.5842 0.8310 0.3650
0.5080 0.8804 0.3652
0.4277 0.9228 0.3655
0.3439 0.9580 0.3657
0.2572 0.9855 0.3660
0.1683 1.0053 0.3662
0.0779 1.0170 0.3665
-0.0132 1.0206 0.3667
-0.1043 1.0160 0.3670
-0.1947 1.0033 0.3672
-0.2837 0.9825 0.3675
-0.3705 0.9538 0.3677
-0.4544 0.9175 0.3679
-0.5347 0.8737 0.3681
-0.6109 0.8229 0.3682
-0.6822 0.7654 0.3684
-0.7481 0.7017 0.3685
-0.8080 0.6323 0.3687
-0.8614 0.5578 0.3688
-0.9080 0.4788 0.3688
-0.9472 0.3959 0.3689
-0.9788 0.3098 0.3689
-1.0026 0.2211 0.3689
-1.0183 0.1308 0.3689
-1.0258 0.0393 0.3689
-1.0250 -0.0524 0.3688
-1.0160 -0.1437 0.3687
-0.9989 -0.2337 0.3686
-0.9737 -0.3218 0.3685
-0.9407 -0.4073 0.3683
-0.9002 -0.4894 0.3682
-0.8525 -0.5675 0.3680
-0.7980 -0.6410 0.3678
-0.7371 -0.7093 0.3676
-0.6705 -0.7718 0.3674
-0.5985 -0.8280 0.3671
-0.5219 -0.8776 0.3669
-0.4412 -0.9200 0.3666
-0.3570 -0.9551 0.3664
-0.2701 -0.9824 0.3661
-0.1812 -1.0019 0.3659
-0.0910 -1.0134 0.3656
-0.0002 -1.0168 0.3654
0.0905 -1.0121 0.3651
0.1804 -0.9993 0.3649
0.2687 -0.9786 0.3647
0.3548 -0.9501 0.3644
0.4379 -0.9142 0.3642
0.5175 -0.8710 0.3640
0.5929 -0.8209 0.3639
0.6636 -0.7644 0.3637
0.7289 -0.7018 0.3636
0.7883 -0.6338 0.3635
0.8416 -0.5607 0.3634
0.8881 -0.4832 0.3633
0.9275 -0.4020 0.3632
0.9596 -0.3176 0.3632
0.9841 -0.2306 0.3632
1.0008 -0.1419 0.3632
1.0096 -0.0520 0.3632
1.0103 0.0384 0.3633
1.0031 0.1284 0.3634
0.9879 0.2175 0.3635
0.9649 0.3049 0.3636
0.9341 0.3900 0.3637
0.8960 0.4720 0.3639
0.8507 0.5504 0.3641
0.7986 0.6245 0.3643
0.7401 0.6937 0.3645
0.6756 0.7574 0.3647
0.6057 0.8152 0.3649
0.5308 0.8666 0.3652
0.4517 0.9111 0.3654
0.3688 0.9484 0.3657
0.2828 0.9783 0.3659
0.1945 1.0003 0.3662
0.1045 1.0144 0.3664
0.0136 1.0204 0.3667
-0.0776 1.0182 0.3669
-0.1683 1.0079 0.3672
-0.2578 0.9894 0.3674
-0.3453 0.9630 0.3676
-0.4301 0.9289 0.3678
-0.5116 0.8873 0.3680
-0.5890 0.8385 0.3682
-0.6618 0.7829 0.3684
-0.7294 0.7210 0.3685
-0.7911 0.6532 0.3686
-0.8464 0.5801 0.3687
-0.8951 0.5024 0.3688
-0.9365 0.4205 0.3689
-0.9704 0.3353 0.3689
-0.9965 0.2474 0.3689
-1.0145 0.1574 0.3689
-1.0244 0.0662 0.3689
-1.0261 -0.0255 0.3688
-1.0195 -0.1170 0.3687
-1.0047 -0.2075 0.3686
-0.9819 -0.2962 0.3685
-0.9511 -0.3825 0.3684
-0.9128 -0.4657 0.3682
-0.8672 -0.5451 0.3680
-0.8146 -0.6200 0.3678
-0.7556 -0.6898 0.3676
-0.6906 -0.7541 0.3674
-0.6201 -0.8122 0.3672
-0.5448 -0.8638 0.3669
-0.4652 -0.9083 0.3667
-0.3820 -0.9456 0.3665
-0.2959 -0.9752 0.3662
-0.2075 -0.9970 0.3659
-0.1176 -1.0109 0.3657
-0.0268 -1.0166 0.3654
0.0640 -1.0143 0.3652
0.1542 -1.0039 0.3649
0.2430 -0.9855 0.3647
0.3298 -0.9593 0.3645
0.4139 -0.9255 0.3643
0.4946 -0.8844 0.3641
0.5713 -0.8363 0.3639
0.6434 -0.7816 0.3638
0.7103 -0.7208 0.3636
0.7715 -0.6543 0.3635
0.8266 -0.5826 0.3634
0.8751 -0.5064 0.3633
0.9167 -0.4262 0.3632
0.9510 -0.3426 0.3632
0.9777 -0.2563 0.3632
0.9967 -0.1680 0.3632
1.0078 -0.0784 0.3632
1.0109 0.0119 0.3633
1.0060 0.1021 0.3634
0.9932 0.1915 0.3634
0.9724 0.2795 0.3636
0.9439 0.3653 0.3637
0.9079 0.4483 0.3639
0.8647 0.5278 0.3640
0.8146 0.6032 0.3642
0.7579 0.6739 0.3644
0.6951 0.7393 0.3646
0.6267 0.7989 0.3649
0.5533 0.8522 0.3651
0.4753 0.8988 0.3653
0.3934 0.9383 0.3656
0.3083 0.9703 0.3658
0.2206 0.9947 0.3661
0.1310 1.0111 0.3663
0.0403 1.0194 0.3666
-0.0509 1.0197 0.3668
-0.1418 1.0117 0.3671
-0.2317 0.9957 0.3673
-0.3199 0.9716 0.3676
-0.4056 0.9397 0.3678
-0.4881 0.9002 0.3680
-0.5668 0.8535 0.3681
-0.6410 0.7999 0.3683
-0.7101 0.7398 0.3685
-0.7736 0.6736 0.3686
-0.8309 0.6021 0.3687
-0.8815 0.5256 0.3688
-0.9251 0.4449 0.3689
-0.9612 0.3606 0.3689
-0.9896 0.2734 0.3689
-1.0101 0.1839 0.3689
-1.0224 0.0930 0.3689
-1.0265 0.0014 0.3688
-1.0223 -0.0902 0.3688
-1.0099 -0.1811 0.3687
-0.9894 -0.2704 0.3686
-0.9610 -0.3575 0.3684
-0.9248 -0.4417 0.3683
-0.8813 -0.5222 0.3681
-0.8307 -0.5985 0.3679
-0.7736 -0.6699 0.3677
-0.7102 -0.7359 0.3675
-0.6413 -0.7958 0.3673
-0.5674 -0.8493 0.3670
-0.4889 -0.8960 0.3668
-0.4067 -0.9354 0.3665
-0.3214 -0.9673 0.3663
-0.2336 -0.9915 0.3660
-0.1441 -1.0077 0.3658
-0.0535 -1.0158 0.3655
0.0374 -1.0158 0.3653
0.1278 -1.0078 0.3650
0.2171 -0.9917 0.3648
0.3046 -0.9678 0.3646
0.3895 -0.9362 0.3643
0.4713 -0.8972 0.3642
0.5492 -0.8511 0.3640
0.6227 -0.7983 0.3638
0.6912 -0.7392 0.3637
0.6062 -0.7869 0.3639
0.6738 -0.7293 0.3637
0.7359 -0.6660 0.3636
0.7922 -0.5975 0.3635
0.8422 -0.5243 0.3634
0.8855 -0.4469 0.3633
0.9217 -0.3661 0.3633
0.9507 -0.2823 0.3633
0.9721 -0.1963 0.3632
0.9858 -0.1088 0.3633
0.9916 -0.0203 0.3633
0.9897 0.0683 0.3634
0.9799 0.1564 0.3635
0.9623 0.2433 0.3636
0.9370 0.3284 0.3637
0.9043 0.4108 0.3638
0.8644 0.4901 0.3640
0.8176 0.5656 0.3642
0.7643 0.6367 0.3644
0.7048 0.7028 0.3646
0.6396 0.7633 0.3648
0.5693 0.8179 0.3650
0.4943 0.8660 0.3653
0.4153 0.9073 0.3655
0.3329 0.9414 0.3657
0.2477 0.9680 0.3660
0.1604 0.9869 0.3663
0.0717 0.9980 0.3665
-0.0177 1.0011 0.3667
-0.1070 0.9962 0.3670
-0.1956 0.9832 0.3672
-0.2828 0.9624 0.3674
-0.3678 0.9339 0.3677
-0.4500 0.8978 0.3679
-0.5286 0.8545 0.3680
-0.6030 0.8043 0.3682
-0.6727 0.7476 0.3684
-0.7370 0.6848 0.3685
-0.7954 0.6164 0.3686
-0.8475 0.5431 0.3687
-0.8928 0.4654 0.3688
-0.9309 0.3839 0.3688
-0.9615 0.2993 0.3689
-0.9844 0.2123 0.3689
-0.9994 0.1235 0.3688
-1.0063 0.0338 0.3688
-1.0051 -0.0561 0.3687
-0.9959 -0.1456 0.3687
-0.9786 -0.2338 0.3686
-0.9535 -0.3202 0.3684
-0.9208 -0.4038 0.3683
-0.8806 -0.4842 0.3681
-0.8335 -0.5606 0.3679
-0.7797 -0.6324 0.3677
-0.7197 -0.6991 0.3675
-0.6541 -0.7601 0.3673
-0.5832 -0.8150 0.3671
-0.5078 -0.8632 0.3668
-0.4285 -0.9045 0.3666
-0.3458 -0.9385 0.3664
-0.2604 -0.9650 0.3661
-0.1731 -0.9837 0.3659
-0.0846 -0.9945 0.3656
0.0045 -0.9974 0.3654
0.0935 -0.9924 0.3651
0.1816 -0.9795 0.3649
0.2681 -0.9588 0.3647
0.3524 -0.9305 0.3645
0.4338 -0.8948 0.3643
0.5117 -0.8521 0.3641
0.5855 -0.8026 0.3639
0.6545 -0.7468 0.3638
0.7183 -0.6852 0.3636
0.7764 -0.6181 0.3635
0.8282 -0.5462 0.3634
0.8735 -0.4700 0.3633
0.9118 -0.3901 0.3633
0.9429 -0.3071 0.3633
0.9666 -0.2217 0.3632
0.9825 -0.1346 0.3633
0.9907 -0.0463 0.3633
0.9911 0.0423 0.3634
0.9835 0.1306 0.3634
0.9682 0.2180 0.3635
0.9452 0.3036 0.3637
0.9147 0.3870 0.3638
0.8769 0.4673 0.3639
0.8321 0.5439 0.3641
0.7806 0.6163 0.3643
0.7228 0.6839 0.3645
0.6593 0.7462 0.3647
0.5904 0.8026 0.3650
0.5168 0.8526 0.3652
0.4389 0.8959 0.3654
0.3574 0.9321 0.3657
0.2729 0.9610 0.3659
0.1862 0.9822 0.3662
0.0978 0.9956 0.3664
0.0086 1.0010 0.3667
-0.0809 0.9984 0.3669
-0.1698 0.9879 0.3672
-0.2574 0.9694 0.3674
-0.3431 0.9431 0.3676
-0.4262 0.9092 0.3678
-0.5059 0.8679 0.3680
-0.5817 0.8197 0.3682
-0.6528 0.7648 0.3683
-0.7187 0.7038 0.3685
-0.7789 0.6370 0.3686
-0.8329 0.5651 0.3687
-0.8802 0.4886 0.3688
-0.9205 0.4081 0.3688
-0.9533 0.3244 0.3689
-0.9785 0.2380 0.3689
-0.9958 0.1497 0.3689
-1.0051 0.0602 0.3688
-1.0063 -0.0298 0.3688
-0.9994 -0.1195 0.3687
-0.9845 -0.2081 0.3686
-0.9617 -0.2951 0.3685
-0.9311 -0.3796 0.3683
-0.8931 -0.4610 0.3682
-0.8480 -0.5386 0.3680
-0.7961 -0.6119 0.3678
-0.7379 -0.6801 0.3676
-0.6739 -0.7428 0.3674
-0.6045 -0.7995 0.3672
-0.5304 -0.8498 0.3669
-0.4521 -0.8931 0.3667
-0.3703 -0.9293 0.3664
-0.2857 -0.9580 0.3662
-0.1989 -0.9790 0.3659
-0.1106 -0.9922 0.3657
-0.0216 -0.9974 0.3654
0.0675 -0.9947 0.3652
0.1559 -0.9841 0.3650
0.2429 -0.9656 0.3647
0.3280 -0.9395 0.3645
0.4103 -0.9060 0.3643
0.4893 -0.8653 0.3641
0.5643 -0.8178 0.3640
0.6348 -0.7638 0.3638
0.7002 -0.7038 0.3637
0.7600 -0.6383 0.3635
0.8137 -0.5678 0.3634
0.8609 -0.4928 0.3634
0.9013 -0.4139 0.3633
0.9346 -0.3317 0.3633
0.9604 -0.2470 0.3632
0.9787 -0.1603 0.3633
0.9891 -0.0723 0.3633
0.9918 0.0163 0.3633
0.9866 0.1048 0.3634
0.9735 0.1925 0.3635
0.9527 0.2787 0.3636
0.9244 0.3628 0.3638
0.8887 0.4441 0.3639
0.8459 0.5219 0.3641
0.7963 0.5956 0.3643
0.7404 0.6647 0.3645
0.6785 0.7285 0.3647
0.6111 0.7867 0.3649
0.5388 0.8386 0.3651
0.4621 0.8839 0.3654
0.3816 0.9223 0.3656
0.2980 0.9533 0.3659
0.2118 0.9768 0.3661
0.1239 0.9925 0.3664
0.0348 1.0002 0.3666
-0.0547 1.0000 0.3668
-0.1438 0.9918 0.3671
-0.2319 0.9756 0.3673
-0.3183 0.9516 0.3675
-0.4022 0.9199 0.3677
-0.4829 0.8808 0.3679
-0.5599 0.8346 0.3681
-0.6324 0.7816 0.3683
-0.7000 0.7223 0.3684
-0.7619 0.6572 0.3686
-0.8178 0.5867 0.3687
-0.8671 0.5115 0.3687
-0.9094 0.4321 0.3688
-0.9445 0.3492 0.3688
-0.9719 0.2635 0.3689
-0.9915 0.1757 0.3689
-1.0032 0.0865 0.3688
-1.0068 -0.0034 0.3688
-1.0023 -0.0932 0.3687
-0.9897 -0.1823 0.3686
-0.9692 -0.2698 0.3685
-0.9409 -0.3551 0.3684
-0.9050 -0.4375 0.3682
-0.8620 -0.5163 0.3680
-0.8120 -0.5909 0.3679
-0.7556 -0.6607 0.3677
-0.6932 -0.7251 0.3674
-0.6254 -0.7836 0.3672
-0.5526 -0.8357 0.3670
-0.4755 -0.8811 0.3667
-0.3946 -0.9194 0.3665
-0.3108 -0.9504 0.3663
-0.2245 -0.9736 0.3660
-0.1366 -0.9891 0.3658
-0.0478 -0.9967 0.3655
0.0414 -0.9963 0.3653
0.1301 -0.9880 0.3650
0.2176 -0.9718 0.3648
0.3033 -0.9480 0.3646
0.3865 -0.9166 0.3644
0.4665 -0.8780 0.3642
0.5428 -0.8324 0.3640
0.6146 -0.7803 0.3638
0.6816 -0.7220 0.3637
0.7430 -0.6581 0.3636
0.7986 -0.5889 0.3635
0.8478 -0.5152 0.3634
0.8902 -0.4374 0.3633
0.9256 -0.3561 0.3633
