ply
format ascii 1.0
element vertex 2177
property float32 x
property float32 y
property float32 z
end_header
0.9945 -0.8921 0.3536
5.4644 -4.0843 1.8055
5.8326 -3.5961 1.8134
6.1578 -3.0751 1.8216
6.4317 -2.5229 1.8284
6.6572 -1.9465 1.8356
6.8318 -1.3502 1.8430
6.9537 -0.7382 1.8506
7.0211 -0.1153 1.8584
7.0330 0.5139 1.8663
6.9885 1.1442 1.8741
6.8872 1.7706 1.8820
6.7293 2.3878 1.8897
6.5154 2.9906 1.8973
6.2466 3.5738 1.9046
5.9245 4.1321 1.9116
1.0970 0.9209 0.3791
1.0141 1.0188 0.3804
0.9221 1.1088 0.3817
0.8219 1.1902 0.3828
0.7143 1.2620 0.3838
0.6001 1.3236 0.3846
0.4805 1.3743 0.3853
0.3564 1.4136 0.3858
0.2291 1.4411 0.3862
0.0996 1.4565 0.3864
-0.0307 1.4597 0.3864
-0.1608 1.4505 0.3862
-0.2893 1.4292 0.3859
-0.4152 1.3959 0.3854
-0.5371 1.3510 0.3848
-0.6542 1.2949 0.3839
-0.7652 1.2283 0.3830
-0.8692 1.1518 0.3819
-0.9654 1.0662 0.3807
-2.5408 2.3463 0.9153
-3.1016 2.3887 1.0361
-3.8394 2.4443 1.2046
-6.3870 3.3055 1.9033
-6.6311 2.7120 1.8960
-6.8192 2.1011 1.8884
-6.9435 1.4766 1.8787
-7.0108 0.8467 1.8689
-3.1298 0.0965 0.8287
-3.1482 -0.1844 0.8346
-3.1671 -0.4717 0.8474
-3.1867 -0.7704 0.8677
-3.2074 -1.0863 0.8962
-6.2691 -2.7688 1.8137
-5.9707 -3.3026 1.8058
-1.1115 -0.7516 0.3551
-1.0362 -0.8447 0.3538
-0.9535 -0.9307 0.3526
-0.8640 -1.0089 0.3515
-0.7684 -1.0790 0.3506
-0.6674 -1.1405 0.3497
-0.5618 -1.1931 0.3490
-0.4524 -1.2364 0.3484
-0.3398 -1.2702 0.3480
-0.2249 -1.2943 0.3477
-0.1085 -1.3085 0.3475
0.0087 -1.3128 0.3475
0.1258 -1.3072 0.3476
0.2422 -1.2917 0.3478
0.3568 -1.2663 0.3482
0.4691 -1.2312 0.3487
0.5782 -1.1867 0.3493
0.6833 -1.1329 0.3501
0.7836 -1.0701 0.3510
0.7869 -1.0300 0.3516
0.8782 -0.9584 0.3526
0.9633 -0.8791 0.3537
5.2992 -4.0316 1.8061
5.6618 -3.5578 1.8138
5.9832 -3.0519 1.8219
6.2544 -2.5150 1.8286
6.4785 -1.9543 1.8355
6.6531 -1.3738 1.8427
6.7763 -0.7778 1.8502
6.8466 -0.1708 1.8577
6.8627 0.4426 1.8654
6.8238 1.0576 1.8731
6.7296 1.6690 1.8807
6.5801 2.2719 1.8883
6.3760 2.8612 1.8957
6.1184 3.4316 1.9028
1.1472 0.7857 0.3772
1.0766 0.8883 0.3786
0.9965 0.9842 0.3799
0.9077 1.0727 0.3812
0.8107 1.1527 0.3823
0.7064 1.2236 0.3832
0.5957 1.2845 0.3841
0.4795 1.3349 0.3847
0.3590 1.3742 0.3853
0.2352 1.4021 0.3856
0.1092 1.4182 0.3858
-0.0178 1.4224 0.3859
-0.1446 1.4147 0.3857
-0.2701 1.3950 0.3854
-0.3930 1.3637 0.3850
-0.5123 1.3211 0.3843
-0.6268 1.2675 0.3836
-0.7357 1.2036 0.3826
-0.8378 1.1301 0.3816
-0.9324 1.0476 0.3804
-1.0187 0.9569 0.3791
-3.0414 2.3839 1.0482
-3.7582 2.4379 1.2151
-6.2030 3.2776 1.9030
-6.4463 2.7008 1.8959
-6.6357 2.1066 1.8885
-6.7639 1.4987 1.8792
-6.8357 0.8847 1.8697
-3.7145 0.1463 1.0084
-3.1464 -0.1574 0.8545
-3.1653 -0.4439 0.8670
-3.1848 -0.7413 0.8870
-3.2054 -1.0553 0.9154
-6.1458 -2.6521 1.8157
-5.8594 -3.1761 1.8079
-1.0918 -0.7248 0.3555
-1.0191 -0.8164 0.3542
-0.9391 -0.9011 0.3530
-0.8523 -0.9784 0.3520
-0.7596 -1.0477 0.3510
-0.6615 -1.1086 0.3502
-0.5588 -1.1608 0.3495
-0.4522 -1.2041 0.3489
-0.3425 -1.2380 0.3484
-0.2305 -1.2625 0.3481
-0.1169 -1.2773 0.3479
-0.0024 -1.2825 0.3479
0.1121 -1.2779 0.3480
0.2258 -1.2636 0.3482
0.3380 -1.2397 0.3485
0.4479 -1.2063 0.3490
0.5547 -1.1636 0.3497
0.6577 -1.1118 0.3504
0.7562 -1.0513 0.3513
0.8494 -0.9824 0.3523
0.9365 -0.9055 0.3534
1.0171 -0.8211 0.3546
5.5491 -3.7143 1.8113
5.8843 -3.2185 1.8193
6.1719 -2.6911 1.8264
6.4115 -2.1376 1.8332
6.6022 -1.5631 1.8404
6.7423 -0.9716 1.8478
6.8298 -0.3676 1.8553
6.8635 0.2443 1.8629
6.8424 0.8593 1.8706
6.7660 1.4724 1.8783
6.6344 2.0786 1.8859
6.4478 2.6728 1.8933
6.2073 3.2499 1.9006
5.9142 3.8047 1.9075
1.1004 0.8558 0.3781
1.0234 0.9540 0.3795
0.9373 1.0450 0.3808
0.8428 1.1279 0.3819
0.7408 1.2017 0.3829
0.6320 1.2660 0.3838
0.5175 1.3198 0.3845
0.3983 1.3628 0.3851
0.2754 1.3944 0.3855
0.1500 1.4143 0.3858
0.0232 1.4224 0.3859
-0.1038 1.4185 0.3858
-0.2298 1.4027 0.3855
-0.3537 1.3751 0.3851
-0.4742 1.3361 0.3846
-0.5904 1.2860 0.3838
-0.7012 1.2254 0.3830
-0.8056 1.1548 0.3819
-0.9028 1.0751 0.3808
-0.9918 0.9870 0.3795
-2.8497 2.3694 1.0053
-3.5031 2.4187 1.1547
-4.3927 2.4856 1.3691
-6.3736 2.8891 1.8982
-6.5805 2.3000 1.8909
-6.7289 1.6959 1.8823
-6.8186 1.0832 1.8727
-6.8529 0.4681 1.8632
-3.1405 -0.0665 0.8521
-3.1591 -0.3505 0.8622
-3.1784 -0.6438 0.8797
-3.1986 -0.9517 0.9052
-3.2202 -1.2808 0.9400
-5.9566 -3.0100 1.8103
-1.1136 -0.6939 0.3559
-1.0434 -0.7876 0.3546
-0.9657 -0.8746 0.3534
-0.8810 -0.9543 0.3523
-0.7901 -1.0262 0.3513
-0.6937 -1.0899 0.3504
-0.5924 -1.1450 0.3497
-0.4870 -1.1911 0.3491
-0.3782 -1.2281 0.3486
-0.2669 -1.2556 0.3482
-0.1537 -1.2736 0.3480
-0.0394 -1.2819 0.3479
0.0751 -1.2804 0.3479
0.1892 -1.2693 0.3481
0.3020 -1.2485 0.3484
0.4127 -1.2181 0.3489
0.5206 -1.1784 0.3494
0.6249 -1.1295 0.3502
0.7250 -1.0718 0.3510
0.8199 -1.0055 0.3519
0.9091 -0.9312 0.3530
0.9918 -0.8492 0.3542
5.4322 -3.8674 1.8088
5.7807 -3.3819 1.8167
6.0846 -2.8645 1.8242
6.3394 -2.3188 1.8310
6.5461 -1.7506 1.8381
6.7027 -1.1641 1.8454
6.8073 -0.5636 1.8528
6.8585 0.0462 1.8604
6.8552 0.6607 1.8681
6.7967 1.2750 1.8758
6.6829 1.8840 1.8834
6.5140 2.4827 1.8909
6.2908 3.0658 1.8982
6.0144 3.6284 1.9053
1.1233 0.8228 0.3777
1.0493 0.9231 0.3791
0.9660 1.0165 0.3804
0.8741 1.1021 0.3816
0.7745 1.1789 0.3826
0.6678 1.2463 0.3835
0.5550 1.3036 0.3843
0.4372 1.3501 0.3850
0.3154 1.3854 0.3854
0.1907 1.4092 0.3857
0.0642 1.4211 0.3859
-0.0629 1.4211 0.3858
-0.1893 1.4091 0.3856
-0.3140 1.3852 0.3853
-0.4357 1.3499 0.3848
-0.5535 1.3033 0.3841
-0.6661 1.2460 0.3833
-0.7727 1.1786 0.3823
-0.8723 1.1018 0.3812
-0.9640 1.0163 0.3800
-2.6730 2.3561 0.9665
-3.2719 2.4013 1.1009
-4.0715 2.4615 1.2905
-6.2954 3.0754 1.9005
-6.5197 2.4919 1.8933
-6.6881 1.8923 1.8854
-6.7957 1.2814 1.8758
-6.8478 0.6665 1.8663
-3.1345 0.0241 0.8503
-3.1531 -0.2581 0.8581
-3.1721 -0.5478 0.8732
-3.1919 -0.8504 0.8960
-3.2131 -1.1718 0.9277
-6.0493 -2.8409 1.8128
-1.1345 -0.6623 0.3563
-1.0669 -0.7581 0.3550
-0.9915 -0.8473 0.3538
-0.9091 -0.9294 0.3526
-0.8201 -1.0039 0.3516
-0.7254 -1.0702 0.3507
-0.6256 -1.1281 0.3499
-0.5214 -1.1772 0.3492
-0.4137 -1.2172 0.3487
-0.3030 -1.2478 0.3483
-0.1904 -1.2688 0.3480
-0.0763 -1.2803 0.3479
0.0382 -1.2820 0.3479
0.1525 -1.2739 0.3480
0.2658 -1.2562 0.3483
0.3772 -1.2289 0.3487
0.4861 -1.1922 0.3492
0.5917 -1.1463 0.3499
0.6932 -1.0914 0.3507
0.7899 -1.0278 0.3516
0.8810 -0.9560 0.3526
0.9659 -0.8764 0.3538
5.3113 -4.0170 1.8064
5.6727 -3.5422 1.8141
5.9925 -3.0352 1.8221
6.2623 -2.4975 1.8288
6.4848 -1.9361 1.8358
6.6578 -1.3551 1.8430
6.7794 -0.7587 1.8504
6.8479 -0.1514 1.8580
6.8623 0.4622 1.8656
6.8217 1.0771 1.8733
6.7257 1.6884 1.8810
6.5745 2.2909 1.8885
6.3687 2.8796 1.8959
6.1093 3.4494 1.9031
1.1451 0.7890 0.3772
1.0742 0.8914 0.3786
0.9938 0.9872 0.3800
0.9047 1.0754 0.3812
0.8074 1.1551 0.3823
0.7029 1.2257 0.3833
0.5920 1.2863 0.3841
0.4758 1.3363 0.3848
0.3551 1.3753 0.3853
0.2312 1.4028 0.3856
0.1051 1.4185 0.3858
-0.0219 1.4224 0.3859
-0.1486 1.4142 0.3857
-0.2740 1.3942 0.3854
-0.3968 1.3625 0.3849
-0.5160 1.3195 0.3843
-0.6304 1.2656 0.3835
-0.7390 1.2014 0.3826
-0.8409 1.1276 0.3816
-0.9353 1.0448 0.3804
-1.0213 0.9539 0.3791
-3.0611 2.3854 1.0527
-3.7848 2.4399 1.2215
-6.2115 3.2595 1.9028
-6.4532 2.6821 1.8956
-6.6408 2.0875 1.8882
-6.7671 1.4793 1.8789
-6.8370 0.8651 1.8694
-3.2936 0.1203 0.8940
-3.1470 -0.1664 0.8548
-3.1659 -0.4532 0.8675
-3.1854 -0.7510 0.8877
-3.2061 -1.0656 0.9164
-6.1374 -2.6691 1.8154
-5.8495 -3.1923 1.8076
-1.0896 -0.7279 0.3554
-1.0167 -0.8192 0.3542
-0.9364 -0.9037 0.3530
-0.8495 -0.9807 0.3519
-0.7565 -1.0497 0.3510
-0.6583 -1.1104 0.3502
-0.5555 -1.1624 0.3494
-0.4488 -1.2053 0.3489
-0.3390 -1.2389 0.3484
-0.2269 -1.2631 0.3481
-0.1132 -1.2776 0.3479
0.0012 -1.2825 0.3479
0.1157 -1.2776 0.3480
0.2294 -1.2630 0.3482
0.3415 -1.2388 0.3486
0.4513 -1.2051 0.3491
0.5580 -1.1621 0.3497
0.6609 -1.1101 0.3504
0.7592 -1.0493 0.3513
0.8522 -0.9801 0.3523
0.9392 -0.9030 0.3534
1.0195 -0.8183 0.3546
5.5604 -3.6990 1.8115
5.8943 -3.2023 1.8196
6.1803 -2.6738 1.8266
6.4183 -2.1197 1.8335
6.6075 -1.5445 1.8406
6.7458 -0.9526 1.8480
6.8317 -0.3483 1.8555
6.8636 0.2638 1.8632
6.8408 0.8788 1.8708
6.7627 1.4918 1.8785
6.6293 2.0977 1.8861
6.4410 2.6914 1.8935
6.1988 3.2679 1.9008
5.9040 3.8219 1.9078
1.0981 0.8591 0.3782
1.0208 0.9571 0.3796
0.9344 1.0478 0.3808
0.8397 1.1303 0.3819
0.7374 1.2039 0.3830
0.6285 1.2678 0.3838
0.5138 1.3213 0.3846
0.3944 1.3639 0.3851
0.2715 1.3952 0.3855
0.1460 1.4148 0.3858
0.0192 1.4224 0.3859
-0.1078 1.4182 0.3858
-0.2338 1.4020 0.3855
-0.3575 1.3740 0.3851
-0.4780 1.3346 0.3845
-0.5940 1.2842 0.3838
-0.7047 1.2233 0.3829
-0.8088 1.1524 0.3819
-0.9057 1.0724 0.3808
-0.9945 0.9841 0.3795
-2.8679 2.3708 1.0093
-3.5271 2.4205 1.1604
-4.4265 2.4882 1.3774
-6.3811 2.8706 1.8980
-6.5862 2.2810 1.8906
-6.7326 1.6765 1.8820
-6.8205 1.0636 1.8724
-6.8531 0.4485 1.8629
-3.1411 -0.0754 0.8523
-3.1597 -0.3597 0.8626
-3.1790 -0.6533 0.8803
-3.1993 -0.9618 0.9062
-3.2209 -1.2917 0.9413
-5.9472 -3.0265 1.8101
-1.1115 -0.6970 0.3559
-1.0410 -0.7905 0.3546
-0.9631 -0.8772 0.3534
-0.8782 -0.9567 0.3523
-0.7871 -1.0283 0.3513
-0.6905 -1.0918 0.3504
-0.5891 -1.1466 0.3497
-0.4836 -1.1924 0.3490
-0.3747 -1.2291 0.3485
-0.2633 -1.2563 0.3482
-0.1500 -1.2740 0.3480
-0.0358 -1.2820 0.3479
0.0788 -1.2802 0.3479
0.1928 -1.2688 0.3481
0.3055 -1.2476 0.3484
0.4162 -1.2170 0.3489
0.5240 -1.1770 0.3495
0.6282 -1.1278 0.3502
0.7281 -1.0698 0.3510
0.8228 -1.0033 0.3520
0.9118 -0.9287 0.3530
0.9944 -0.8464 0.3542
5.4439 -3.8525 1.8090
5.7911 -3.3660 1.8169
6.0934 -2.8475 1.8244
6.3467 -2.3010 1.8312
6.5519 -1.7322 1.8383
6.7069 -1.1452 1.8456
6.8098 -0.5444 1.8531
6.8593 0.0657 1.8607
6.8542 0.6803 1.8684
6.7940 1.2945 1.8760
6.6784 1.9032 1.8837
6.5077 2.5015 1.8912
6.2828 3.0841 1.8985
6.0048 3.6459 1.9055
1.1211 0.8260 0.3777
1.0468 0.9262 0.3791
0.9632 1.0193 0.3804
0.8711 1.1046 0.3816
0.7712 1.1812 0.3826
0.6643 1.2483 0.3836
0.5514 1.3052 0.3843
0.4334 1.3514 0.3850
0.3115 1.3864 0.3854
0.1867 1.4097 0.3857
0.0602 1.4213 0.3859
-0.0669 1.4209 0.3858
-0.1933 1.4085 0.3856
-0.3179 1.3843 0.3853
-0.4396 1.3486 0.3847
-0.5571 1.3016 0.3841
-0.6696 1.2440 0.3832
-0.7760 1.1763 0.3823
-0.8753 1.0992 0.3811
-0.9668 1.0135 0.3799
-2.6898 2.3573 0.9702
-3.2937 2.4029 1.1059
-4.1015 2.4637 1.2978
-6.3033 3.0572 1.9003
-6.5259 2.4730 1.8930
-6.6924 1.8730 1.8851
-6.7982 1.2619 1.8755
-6.8486 0.6470 1.8660
-3.1351 0.0152 0.8504
-3.1536 -0.2672 0.8585
-3.1727 -0.5572 0.8738
-3.1926 -0.8603 0.8969
-3.2137 -1.1824 0.9289
-6.0404 -2.8577 1.8126
-1.1325 -0.6655 0.3563
-1.0646 -0.7610 0.3550
-0.9890 -0.8500 0.3537
-0.9063 -0.9319 0.3526
-0.8172 -1.0061 0.3516
-0.7223 -1.0722 0.3507
-0.6223 -1.1298 0.3499
-0.5180 -1.1786 0.3492
-0.4102 -1.2183 0.3487
-0.2995 -1.2486 0.3483
-0.1867 -1.2693 0.3480
-0.0727 -1.2805 0.3479
0.0418 -1.2819 0.3479
0.1561 -1.2735 0.3480
0.2693 -1.2555 0.3483
0.3807 -1.2279 0.3487
0.4895 -1.1909 0.3493
0.5950 -1.1447 0.3499
0.6963 -1.0895 0.3507
0.7929 -1.0257 0.3517
0.8838 -0.9536 0.3527
0.9685 -0.8738 0.3538
5.3234 -4.0025 1.8066
5.6835 -3.5265 1.8143
6.0018 -3.0185 1.8223
6.2701 -2.4800 1.8290
6.4911 -1.9180 1.8360
6.6625 -1.3364 1.8432
6.7824 -0.7395 1.8506
6.8492 -0.1319 1.8582
6.8618 0.4817 1.8659
6.8195 1.0966 1.8736
6.7217 1.7077 1.8812
6.5688 2.3099 1.8888
6.3612 2.8981 1.8961
6.1002 3.4671 1.9033
1.1430 0.7924 0.3773
1.0718 0.8946 0.3787
0.9911 0.9901 0.3800
0.9017 1.0780 0.3812
0.8042 1.1575 0.3823
0.6995 1.2277 0.3833
0.5884 1.2880 0.3841
0.4720 1.3377 0.3848
0.3512 1.3763 0.3853
0.2272 1.4035 0.3857
0.1011 1.4189 0.3858
-0.0259 1.4223 0.3859
-0.1526 1.4138 0.3857
-0.2780 1.3934 0.3854
-0.4007 1.3613 0.3849
-0.5197 1.3180 0.3843
-0.6339 1.2638 0.3835
-0.7424 1.1992 0.3826
-0.8441 1.1251 0.3815
-0.9382 1.0420 0.3803
-1.0239 0.9509 0.3790
-3.0811 2.3869 1.0572
-3.8117 2.4419 1.2279
-6.2200 3.2415 1.9026
-6.4600 2.6635 1.8954
-6.6459 2.0683 1.8880
-6.7701 1.4598 1.8786
-6.8384 0.8455 1.8690
-3.1292 0.1054 0.8493
-3.1476 -0.1754 0.8551
-3.1665 -0.4625 0.8680
-3.1861 -0.7607 0.8885
-3.2068 -1.0759 0.9175
-6.1289 -2.6862 1.8152
-5.8397 -3.2085 1.8074
-1.0874 -0.7309 0.3554
-1.0142 -0.8220 0.3541
-0.9338 -0.9063 0.3530
-0.8466 -0.9830 0.3519
-0.7535 -1.0518 0.3510
-0.6551 -1.1122 0.3501
-0.5521 -1.1639 0.3494
-0.4453 -1.2065 0.3488
-0.3355 -1.2398 0.3484
-0.2233 -1.2637 0.3481
-0.1096 -1.2779 0.3479
0.0049 -1.2825 0.3479
0.1193 -1.2773 0.3480
0.2330 -1.2624 0.3482
0.3450 -1.2379 0.3486
0.4548 -1.2039 0.3491
0.5614 -1.1606 0.3497
0.6641 -1.1083 0.3505
0.7623 -1.0472 0.3513
0.8551 -0.9778 0.3523
0.9419 -0.9004 0.3534
1.0219 -0.8155 0.3547
5.5716 -3.6837 1.8118
5.9042 -3.1860 1.8198
6.1886 -2.6566 1.8268
6.4251 -2.1017 1.8337
6.6127 -1.5259 1.8409
6.7494 -0.9335 1.8482
6.8335 -0.3289 1.8558
6.8637 0.2833 1.8634
6.8392 0.8983 1.8711
6.7593 1.5112 1.8788
6.6242 2.1168 1.8863
6.4341 2.7101 1.8938
6.1902 3.2858 1.9010
5.8938 3.8391 1.9080
1.0958 0.8623 0.3782
1.0182 0.9601 0.3796
0.9315 1.0505 0.3808
0.8365 1.1328 0.3820
0.7340 1.2061 0.3830
0.6249 1.2697 0.3839
0.5101 1.3229 0.3846
0.3906 1.3651 0.3852
0.2675 1.3960 0.3856
0.1420 1.4152 0.3858
0.0151 1.4225 0.3859
-0.1118 1.4178 0.3858
-0.2378 1.4012 0.3855
-0.3614 1.3729 0.3851
-0.4818 1.3332 0.3845
-0.5977 1.2824 0.3838
-0.7081 1.2211 0.3829
-0.8120 1.1500 0.3819
-0.9087 1.0698 0.3807
-0.9972 0.9811 0.3795
-2.8862 2.3722 1.0134
-3.5513 2.4223 1.1661
-6.1311 3.4235 1.9048
-6.3884 2.8522 1.8977
-6.5918 2.2620 1.8904
-6.7363 1.6571 1.8817
-6.8224 1.0441 1.8721
-6.8532 0.4290 1.8626
-3.1416 -0.0843 0.8525
-3.1603 -0.3688 0.8631
-3.1796 -0.6629 0.8810
-3.1999 -0.9719 0.9071
-6.2127 -2.5119 1.8178
-5.9378 -3.0429 1.8098
-1.1094 -0.7000 0.3558
-1.0387 -0.7933 0.3545
-0.9605 -0.8799 0.3533
-0.8754 -0.9591 0.3522
-0.7842 -1.0305 0.3512
-0.6874 -1.0936 0.3504
-0.5858 -1.1482 0.3496
-0.4802 -1.1937 0.3490
-0.3712 -1.2301 0.3485
-0.2597 -1.2570 0.3482
-0.1464 -1.2744 0.3480
-0.0321 -1.2821 0.3479
0.0824 -1.2800 0.3479
0.1964 -1.2682 0.3481
0.3091 -1.2468 0.3484
0.4196 -1.2159 0.3489
0.5274 -1.1756 0.3495
0.6314 -1.1261 0.3502
0.7312 -1.0678 0.3510
0.8258 -1.0011 0.3520
0.9146 -0.9262 0.3531
0.9969 -0.8437 0.3543
5.4556 -3.8375 1.8093
5.8014 -3.3500 1.8172
6.1022 -2.8306 1.8246
6.3540 -2.2832 1.8314
6.5576 -1.7138 1.8385
6.7109 -1.1263 1.8458
6.8122 -0.5251 1.8533
6.8599 0.0852 1.8609
6.8531 0.6999 1.8686
6.7912 1.3139 1.8763
6.6738 1.9225 1.8839
6.5014 2.5202 1.8914
6.2747 3.1023 1.8987
5.9951 3.6633 1.9058
1.1189 0.8293 0.3778
1.0442 0.9293 0.3792
0.9604 1.0222 0.3805
0.8680 1.1072 0.3816
0.7679 1.1835 0.3827
0.6608 1.2503 0.3836
0.5477 1.3069 0.3844
0.4296 1.3527 0.3850
0.3075 1.3873 0.3854
0.1827 1.4103 0.3857
0.0561 1.4214 0.3859
-0.0709 1.4206 0.3858
-0.1973 1.4079 0.3856
-0.3218 1.3833 0.3853
-0.4434 1.3472 0.3847
-0.5608 1.3000 0.3840
-0.6731 1.2420 0.3832
-0.7792 1.1740 0.3822
-0.8783 1.0966 0.3811
-0.9695 1.0106 0.3799
-2.7067 2.3586 0.9738
-3.3158 2.4046 1.1110
-4.1318 2.4660 1.3052
-6.3112 3.0389 1.9000
-6.5321 2.4542 1.8928
-6.6966 1.8537 1.8848
-6.8007 1.2424 1.8752
-6.8493 0.6274 1.8657
-3.1357 0.0063 0.8506
-3.1542 -0.2762 0.8589
-3.1733 -0.5666 0.8744
-3.1932 -0.8702 0.8978
-3.2144 -1.1931 0.9300
-6.0314 -2.8744 1.8123
-1.1305 -0.6686 0.3563
-1.0623 -0.7639 0.3549
-0.9865 -0.8527 0.3537
-0.9036 -0.9343 0.3526
-0.8143 -1.0083 0.3516
-0.7192 -1.0742 0.3506
-0.6191 -1.1315 0.3499
-0.5147 -1.1800 0.3492
-0.4067 -1.2194 0.3487
-0.2959 -1.2494 0.3483
-0.1831 -1.2699 0.3480
-0.0691 -1.2807 0.3479
0.0455 -1.2817 0.3479
0.1597 -1.2731 0.3480
0.2729 -1.2548 0.3483
0.3842 -1.2269 0.3487
0.4930 -1.1896 0.3493
0.5983 -1.1431 0.3500
0.6995 -1.0876 0.3508
0.7958 -1.0235 0.3517
0.8866 -0.9512 0.3527
0.9711 -0.8711 0.3539
5.3354 -3.9878 1.8068
5.6943 -3.5109 1.8146
6.0110 -3.0018 1.8225
6.2779 -2.4625 1.8292
6.4973 -1.8997 1.8362
6.6671 -1.3176 1.8434
6.7853 -0.7203 1.8509
6.8505 -0.1125 1.8585
6.8613 0.5013 1.8661
6.8172 1.1161 1.8738
6.7177 1.7270 1.8815
6.5630 2.3288 1.8890
6.3538 2.9164 1.8964
6.0910 3.4848 1.9035
1.1409 0.7957 0.3773
1.0694 0.8977 0.3787
0.9884 0.9930 0.3801
0.8987 1.0807 0.3813
0.8010 1.1599 0.3824
0.6961 1.2298 0.3833
0.5848 1.2898 0.3841
0.4682 1.3391 0.3848
0.3473 1.3774 0.3853
0.2232 1.4042 0.3857
0.0971 1.4191 0.3858
-0.0299 1.4222 0.3859
-0.1567 1.4133 0.3857
-0.2819 1.3925 0.3854
-0.4045 1.3601 0.3849
-0.5234 1.3164 0.3843
-0.6375 1.2619 0.3835
-0.7457 1.1970 0.3825
-0.8472 1.1226 0.3815
-0.9410 1.0392 0.3803
-1.0265 0.9479 0.3790
-3.1012 2.3884 1.0618
-3.8389 2.4439 1.2344
-6.2285 3.2235 1.9023
-6.4667 2.6448 1.8952
-6.6508 2.0492 1.8877
-6.7731 1.4403 1.8783
-6.8396 0.8260 1.8687
-3.1298 0.0965 0.8494
-3.1482 -0.1844 0.8554
-3.1671 -0.4717 0.8686
-3.1867 -0.7704 0.8893
-3.2074 -1.0863 0.9186
-6.1204 -2.7032 1.8149
-1.1507 -0.6365 0.3567
-1.0852 -0.7339 0.3554
-1.0118 -0.8248 0.3541
-0.9311 -0.9088 0.3529
-0.8437 -0.9853 0.3519
-0.7504 -1.0538 0.3509
-0.6519 -1.1140 0.3501
-0.5488 -1.1654 0.3494
-0.4419 -1.2077 0.3488
-0.3319 -1.2407 0.3484
-0.2197 -1.2643 0.3481
-0.1060 -1.2782 0.3479
0.0085 -1.2825 0.3479
0.1229 -1.2770 0.3480
0.2365 -1.2618 0.3482
0.3486 -1.2369 0.3486
0.4582 -1.2026 0.3491
0.5647 -1.1591 0.3497
0.6673 -1.1064 0.3505
0.7653 -1.0451 0.3514
0.7688 -1.0064 0.3519
0.8580 -0.9364 0.3529
0.9411 -0.8588 0.3540
1.0174 -0.7740 0.3552
5.5303 -3.4751 1.8150
5.8435 -2.9806 1.8228
6.1079 -2.4561 1.8293
6.3261 -1.9083 1.8361
6.4960 -1.3414 1.8432
6.6157 -0.7594 1.8504
6.6836 -0.1667 1.8578
6.6987 0.4321 1.8653
6.6601 1.0322 1.8728
6.5675 1.6288 1.8803
6.4211 2.2170 1.8876
6.2213 2.7917 1.8948
5.9693 3.3480 1.9018
1.1190 0.7664 0.3769
1.0501 0.8664 0.3783
0.9719 0.9599 0.3796
0.8851 1.0461 0.3808
0.7905 1.1240 0.3818
0.6887 1.1930 0.3828
0.5808 1.2524 0.3836
0.4675 1.3015 0.3843
0.3500 1.3398 0.3848
0.2293 1.3669 0.3851
0.1064 1.3826 0.3853
-0.0174 1.3867 0.3854
-0.1410 1.3792 0.3852
-0.2633 1.3600 0.3849
-0.3831 1.3296 0.3845
-0.4995 1.2880 0.3839
-0.6112 1.2359 0.3831
-0.7173 1.1737 0.3822
-0.8170 1.1020 0.3812
-0.9093 1.0216 0.3801
-0.9936 0.9333 0.3788
-3.0410 2.3836 1.0737
-3.7577 2.4375 1.2446
-6.0519 3.1977 1.9020
-6.2899 2.6352 1.8950
-6.4752 2.0556 1.8878
-6.6013 1.4627 1.8788
-6.6721 0.8635 1.8695
-3.7310 0.1469 1.0376
-3.1464 -0.1574 0.8754
-3.1653 -0.4439 0.8882
-3.1848 -0.7413 0.9086
-3.2054 -1.0553 0.9377
-6.0030 -2.5904 1.8168
-1.1296 -0.6123 0.3570
-1.0665 -0.7080 0.3557
-0.9956 -0.7976 0.3545
-0.9175 -0.8804 0.3533
-0.8328 -0.9559 0.3523
-0.7422 -1.0237 0.3514
-0.6464 -1.0833 0.3505
-0.5461 -1.1344 0.3498
-0.4419 -1.1767 0.3493
-0.3348 -1.2099 0.3488
-0.2253 -1.2338 0.3485
-0.1142 -1.2483 0.3483
-0.0024 -1.2534 0.3483
0.1095 -1.2489 0.3484
0.2206 -1.2349 0.3486
0.3303 -1.2115 0.3489
0.4377 -1.1788 0.3494
0.5421 -1.1371 0.3500
0.6427 -1.0864 0.3508
0.7389 -1.0272 0.3516
0.8299 -0.9598 0.3526
0.9150 -0.8847 0.3537
0.9936 -0.8021 0.3548
5.4204 -3.6282 1.8125
5.7472 -3.1436 1.8203
6.0275 -2.6281 1.8272
6.2609 -2.0874 1.8339
6.4466 -1.5262 1.8409
6.5826 -0.9486 1.8481
6.6674 -0.3589 1.8554
6.6997 0.2384 1.8629
6.6785 0.8387 1.8704
6.6033 1.4370 1.8779
6.4742 2.0284 1.8853
6.2915 2.6080 1.8925
6.0563 3.1708 1.8996
1.1393 0.7329 0.3764
1.0734 0.8348 0.3778
0.9981 0.9305 0.3792
0.9140 1.0191 0.3804
0.8218 1.0998 0.3815
0.7223 1.1718 0.3825
0.6162 1.2343 0.3834
0.5046 1.2868 0.3841
0.3883 1.3286 0.3846
0.2685 1.3594 0.3850
0.1462 1.3788 0.3853
0.0226 1.3867 0.3854
-0.1012 1.3829 0.3853
-0.2240 1.3675 0.3851
-0.3448 1.3406 0.3847
-0.4624 1.3026 0.3841
-0.5757 1.2538 0.3834
-0.6837 1.1948 0.3825
-0.7856 1.1261 0.3815
-0.8804 1.0485 0.3804
-0.9673 0.9626 0.3792
-2.8494 2.3691 1.0297
-3.5026 2.4183 1.1827
-4.3920 2.4852 1.4023
-6.2187 2.8189 1.8973
-6.4212 2.2443 1.8901
-6.5669 1.6551 1.8818
-6.6552 1.0572 1.8725
-6.6895 0.4569 1.8632
-3.1405 -0.0665 0.8729
-3.1591 -0.3505 0.8832
-3.1784 -0.6438 0.9011
-3.1986 -0.9517 0.9273
-3.2202 -1.2808 0.9630
-5.8185 -2.9402 1.8115
-1.0878 -0.6778 0.3561
-1.0193 -0.7694 0.3549
-0.9434 -0.8544 0.3537
-0.8608 -0.9324 0.3526
-0.7720 -1.0027 0.3516
-0.6778 -1.0650 0.3508
-0.5789 -1.1188 0.3501
-0.4759 -1.1640 0.3494
-0.3696 -1.2001 0.3490
-0.2608 -1.2271 0.3486
-0.1502 -1.2447 0.3484
-0.0385 -1.2528 0.3483
0.0734 -1.2514 0.3483
0.1849 -1.2405 0.3485
0.2951 -1.2201 0.3488
0.4033 -1.1904 0.3493
0.5087 -1.1515 0.3498
0.6107 -1.1037 0.3505
0.7084 -1.0473 0.3513
0.8011 -0.9825 0.3523
0.8882 -0.9097 0.3533
0.9689 -0.8295 0.3544
5.3064 -3.7779 1.8101
5.6462 -3.3033 1.8177
5.9423 -2.7975 1.8251
6.1906 -2.2643 1.8317
6.3920 -1.7093 1.8386
6.5443 -1.1365 1.8457
6.6458 -0.5502 1.8530
6.6951 0.0451 1.8605
6.6912 0.6449 1.8679
6.6334 1.2444 1.8754
6.5217 1.8386 1.8829
6.3563 2.4226 1.8902
6.1379 2.9913 1.8973
5.8677 3.5399 1.9042
1.0957 0.8025 0.3774
1.0234 0.9003 0.3788
0.9421 0.9913 0.3800
0.8524 1.0747 0.3812
0.7552 1.1496 0.3822
0.6511 1.2152 0.3831
0.5412 1.2710 0.3839
0.4263 1.3163 0.3845
0.3075 1.3507 0.3849
0.1859 1.3738 0.3852
0.0626 1.3854 0.3854
-0.0613 1.3854 0.3853
-0.1846 1.3737 0.3851
-0.3061 1.3505 0.3848
-0.4248 1.3161 0.3843
-0.5396 1.2707 0.3836
-0.6495 1.2149 0.3828
-0.7535 1.1493 0.3819
-0.8506 1.0745 0.3808
-0.9401 0.9912 0.3796
-1.0213 0.9003 0.3783
-3.2715 2.4009 1.1276
-4.0708 2.4611 1.3218
-6.1422 3.0006 1.8995
-6.3617 2.4315 1.8925
-6.5268 1.8467 1.8849
-6.6326 1.2507 1.8755
-6.6843 0.6506 1.8662
-3.1345 0.0241 0.8710
-3.1531 -0.2581 0.8791
-3.1721 -0.5478 0.8945
-3.1919 -0.8504 0.9179
-3.2131 -1.1718 0.9504
-5.9089 -2.7750 1.8140
-1.1082 -0.6469 0.3566
-1.0422 -0.7405 0.3553
-0.9687 -0.8277 0.3541
-0.8882 -0.9080 0.3529
-0.8013 -0.9808 0.3519
-0.7088 -1.0458 0.3510
-0.6113 -1.1024 0.3503
-0.5095 -1.1504 0.3496
-0.4043 -1.1895 0.3491
-0.2962 -1.2194 0.3487
-0.1860 -1.2400 0.3484
-0.0746 -1.2512 0.3483
0.0373 -1.2529 0.3483
0.1490 -1.2450 0.3484
0.2597 -1.2277 0.3487
0.3687 -1.2010 0.3491
0.4751 -1.1651 0.3496
0.5782 -1.1201 0.3503
0.6773 -1.0664 0.3511
0.7718 -1.0043 0.3519
0.8607 -0.9341 0.3530
0.9436 -0.8562 0.3541
1.0197 -0.7712 0.3553
5.5409 -3.4599 1.8152
5.8526 -2.9643 1.8230
6.1155 -2.4390 1.8295
6.3322 -1.8906 1.8363
6.5006 -1.3231 1.8434
6.6186 -0.7407 1.8507
6.6849 -0.1477 1.8581
6.6983 0.4511 1.8655
6.6580 1.0512 1.8730
6.5637 1.6477 1.8805
6.4155 2.2355 1.8879
6.2141 2.8097 1.8951
5.9605 3.3653 1.9020
1.1170 0.7697 0.3769
1.0477 0.8695 0.3783
0.9693 0.9628 0.3796
0.8822 1.0487 0.3808
0.7874 1.1264 0.3819
0.6854 1.1951 0.3828
0.5772 1.2541 0.3836
0.4638 1.3028 0.3843
0.3462 1.3408 0.3848
0.2254 1.3676 0.3852
0.1025 1.3829 0.3853
-0.0213 1.3867 0.3854
-0.1449 1.3787 0.3852
-0.2671 1.3592 0.3849
-0.3869 1.3284 0.3845
-0.5031 1.2865 0.3839
-0.6147 1.2341 0.3831
-0.7206 1.1715 0.3822
-0.8201 1.0996 0.3812
-0.9121 1.0189 0.3800
-0.9961 0.9304 0.3787
-3.0607 2.3850 1.0782
-3.7843 2.4395 1.2511
-6.0602 3.1801 1.9018
-6.2966 2.6170 1.8948
-6.4802 2.0370 1.8876
-6.6044 1.4437 1.8785
-6.6735 0.8444 1.8692
-3.3065 0.1208 0.9194
-3.1470 -0.1664 0.8757
-3.1659 -0.4532 0.8887
-3.1854 -0.7510 0.9094
-3.2061 -1.0656 0.9388
-5.9947 -2.6071 1.8165
-1.1277 -0.6155 0.3570
-1.0644 -0.7110 0.3557
-0.9932 -0.8003 0.3544
-0.9149 -0.8829 0.3533
-0.8300 -0.9582 0.3523
-0.7392 -1.0257 0.3513
-0.6433 -1.0851 0.3505
-0.5428 -1.1359 0.3498
-0.4386 -1.1779 0.3493
-0.3313 -1.2108 0.3488
-0.2218 -1.2344 0.3485
-0.1107 -1.2486 0.3483
0.0012 -1.2534 0.3483
0.1131 -1.2486 0.3484
0.2242 -1.2343 0.3486
0.3337 -1.2106 0.3490
0.4410 -1.1777 0.3494
0.5453 -1.1356 0.3501
0.6458 -1.0847 0.3508
0.7418 -1.0252 0.3516
0.8327 -0.9576 0.3526
0.9176 -0.8821 0.3537
0.9959 -0.7994 0.3549
5.4314 -3.6132 1.8127
5.7570 -3.1277 1.8206
6.0356 -2.6113 1.8274
6.2675 -2.0699 1.8341
6.4517 -1.5081 1.8411
6.5861 -0.9300 1.8483
6.6693 -0.3400 1.8557
6.6998 0.2575 1.8631
6.6769 0.8578 1.8706
6.6000 1.4559 1.8781
6.4692 2.0470 1.8855
6.2849 2.6262 1.8928
6.0479 3.1883 1.8998
1.1373 0.7362 0.3765
1.0711 0.8379 0.3779
0.9955 0.9334 0.3792
0.9112 1.0218 0.3804
0.8188 1.1022 0.3815
0.7190 1.1739 0.3825
0.6128 1.2362 0.3834
0.5010 1.2883 0.3841
0.3846 1.3298 0.3847
0.2646 1.3602 0.3851
0.1423 1.3792 0.3853
0.0187 1.3867 0.3854
-0.1051 1.3826 0.3853
-0.2279 1.3668 0.3850
-0.3486 1.3396 0.3846
-0.4660 1.3012 0.3841
-0.5792 1.2521 0.3834
-0.6871 1.1928 0.3825
-0.7887 1.1238 0.3815
-0.8833 1.0459 0.3804
-0.9699 0.9598 0.3792
-2.8675 2.3705 1.0338
-3.5266 2.4201 1.1885
-4.4258 2.4877 1.4108
-6.2260 2.8009 1.8971
-6.4268 2.2257 1.8899
-6.5705 1.6361 1.8816
-6.6571 1.0382 1.8722
-6.6897 0.4378 1.8629
-3.1411 -0.0754 0.8731
-3.1597 -0.3597 0.8837
-3.1790 -0.6533 0.9018
-3.1993 -0.9618 0.9283
-3.2209 -1.2917 0.9643
-1.1465 -0.5834 0.3575
-1.0857 -0.6808 0.3561
-1.0170 -0.7722 0.3548
-0.9409 -0.8570 0.3537
-0.8581 -0.9347 0.3526
-0.7691 -1.0048 0.3516
-0.6748 -1.0668 0.3508
-0.5757 -1.1204 0.3500
-0.4726 -1.1653 0.3494
-0.3662 -1.2012 0.3489
-0.2573 -1.2278 0.3486
-0.1466 -1.2451 0.3484
-0.0349 -1.2529 0.3483
0.0770 -1.2512 0.3483
0.1884 -1.2400 0.3485
0.2986 -1.2193 0.3488
0.4067 -1.1893 0.3493
0.5120 -1.1502 0.3498
0.6138 -1.1021 0.3505
0.7114 -1.0453 0.3514
0.8040 -0.9803 0.3523
0.8909 -0.9073 0.3533
0.9714 -0.8269 0.3545
5.3178 -3.7633 1.8103
5.6564 -3.2877 1.8180
5.9509 -2.7810 1.8253
6.1978 -2.2470 1.8319
6.3976 -1.6914 1.8388
6.5483 -1.1181 1.8460
6.6481 -0.5314 1.8533
6.6958 0.0641 1.8607
6.6902 0.6640 1.8682
6.6307 1.2634 1.8757
6.5173 1.8573 1.8831
6.3501 2.4409 1.8904
6.1301 3.0091 1.8976
5.8583 3.5569 1.9045
1.0935 0.8057 0.3774
1.0209 0.9033 0.3788
0.9394 0.9941 0.3801
0.8495 1.0772 0.3812
0.7520 1.1518 0.3822
0.6477 1.2171 0.3831
0.5376 1.2726 0.3839
0.4226 1.3176 0.3845
0.3037 1.3516 0.3849
0.1820 1.3744 0.3852
0.0587 1.3856 0.3854
-0.0652 1.3852 0.3853
-0.1885 1.3731 0.3851
-0.3099 1.3496 0.3848
-0.4286 1.3148 0.3843
-0.5432 1.2691 0.3836
-0.6529 1.2130 0.3828
-0.7567 1.1471 0.3818
-0.8536 1.0719 0.3808
-0.9429 0.9884 0.3796
-1.0238 0.8972 0.3783
-3.2933 2.4026 1.1328
-4.1008 2.4633 1.3293
-6.1500 2.9828 1.8993
-6.3678 2.4131 1.8922
-6.5310 1.8278 1.8846
-6.6351 1.2317 1.8752
-6.6851 0.6315 1.8659
-3.1351 0.0152 0.8712
-3.1536 -0.2672 0.8795
-3.1727 -0.5572 0.8951
-3.1926 -0.8603 0.9188
-3.2137 -1.1824 0.9516
-5.9002 -2.7914 1.8138
-1.1062 -0.6500 0.3565
-1.0400 -0.7434 0.3552
-0.9662 -0.8304 0.3540
-0.8855 -0.9104 0.3529
-0.7984 -0.9830 0.3519
-0.7058 -1.0477 0.3510
-0.6081 -1.1041 0.3503
-0.5062 -1.1518 0.3496
-0.4008 -1.1906 0.3491
-0.2927 -1.2202 0.3487
-0.1825 -1.2405 0.3484
-0.0711 -1.2514 0.3483
0.0409 -1.2528 0.3483
0.1526 -1.2446 0.3484
0.2632 -1.2270 0.3487
0.3721 -1.2000 0.3491
0.4784 -1.1638 0.3496
0.5814 -1.1185 0.3503
0.6804 -1.0646 0.3511
0.7747 -1.0022 0.3520
0.8635 -0.9317 0.3530
0.9461 -0.8536 0.3541
1.0220 -0.7684 0.3553
5.5515 -3.4446 1.8155
5.8616 -2.9480 1.8232
6.1231 -2.4219 1.8297
6.3384 -1.8728 1.8366
6.5051 -1.3048 1.8436
6.6216 -0.7220 1.8509
6.6862 -0.1288 1.8583
6.6978 0.4702 1.8658
6.6558 1.0703 1.8733
6.5598 1.6665 1.8807
6.4099 2.2540 1.8881
6.2068 2.8277 1.8953
5.9516 3.3826 1.9023
1.1150 0.7729 0.3770
1.0454 0.8725 0.3784
0.9666 0.9656 0.3797
0.8793 1.0513 0.3808
0.7842 1.1287 0.3819
0.6821 1.1971 0.3829
0.5737 1.2558 0.3837
0.4602 1.3042 0.3843
0.3424 1.3418 0.3848
0.2215 1.3683 0.3852
0.0986 1.3832 0.3853
-0.0252 1.3866 0.3854
-0.1488 1.3783 0.3852
-0.2710 1.3584 0.3849
-0.3907 1.3272 0.3845
-0.5067 1.2850 0.3838
-0.6181 1.2322 0.3831
-0.7239 1.1694 0.3822
-0.8231 1.0971 0.3811
-0.9149 1.0162 0.3800
-0.9986 0.9274 0.3787
-3.0807 2.3866 1.0829
-3.8111 2.4415 1.2577
-6.0685 3.1625 1.9016
-6.3032 2.5989 1.8946
-6.4852 2.0183 1.8873
-6.6074 1.4247 1.8782
-6.6748 0.8253 1.8689
-3.1292 0.1054 0.8700
-3.1476 -0.1754 0.8760
-3.1665 -0.4625 0.8892
-3.1861 -0.7607 0.9102
-3.2068 -1.0759 0.9399
-5.9865 -2.6237 1.8163
-1.1259 -0.6186 0.3570
-1.0622 -0.7139 0.3556
-0.9908 -0.8031 0.3544
-0.9123 -0.8854 0.3533
-0.8272 -0.9604 0.3522
-0.7363 -1.0277 0.3513
-0.6401 -1.0868 0.3505
-0.5395 -1.1373 0.3498
-0.4352 -1.1790 0.3492
-0.3279 -1.2117 0.3488
-0.2182 -1.2350 0.3485
-0.1071 -1.2489 0.3483
0.0047 -1.2534 0.3483
0.1166 -1.2483 0.3484
0.2277 -1.2337 0.3486
0.3372 -1.2097 0.3490
0.4444 -1.1765 0.3495
0.5486 -1.1341 0.3501
0.6490 -1.0829 0.3508
0.7448 -1.0232 0.3517
0.8354 -0.9553 0.3526
0.9202 -0.8796 0.3537
0.9983 -0.7967 0.3549
5.4424 -3.5983 1.8130
5.7666 -3.1117 1.8208
6.0437 -2.5944 1.8276
6.2741 -2.0523 1.8343
6.4567 -1.4899 1.8413
6.5896 -0.9114 1.8485
6.6711 -0.3211 1.8559
6.6999 0.2766 1.8633
6.6753 0.8768 1.8708
6.5967 1.4748 1.8783
6.4641 2.0656 1.8857
6.2781 2.6444 1.8930
6.0395 3.2059 1.9000
1.1354 0.7396 0.3765
1.0688 0.8410 0.3779
0.9930 0.9363 0.3793
0.9084 1.0245 0.3805
0.8157 1.1047 0.3816
0.7157 1.1761 0.3826
0.6093 1.2380 0.3834
0.4973 1.2898 0.3841
0.3808 1.3309 0.3847
0.2608 1.3610 0.3851
0.1384 1.3797 0.3853
0.0147 1.3868 0.3854
-0.1090 1.3822 0.3853
-0.2318 1.3661 0.3850
-0.3524 1.3385 0.3846
-0.4697 1.2998 0.3841
-0.5827 1.2504 0.3833
-0.6904 1.1907 0.3825
-0.7918 1.1214 0.3815
-0.8861 1.0432 0.3804
-0.9725 0.9569 0.3791
-2.8859 2.3719 1.0380
-3.5508 2.4220 1.1944
-5.9817 3.3401 1.9038
-6.2332 2.7829 1.8968
-6.4323 2.2072 1.8897
-6.5741 1.6172 1.8813
-6.6590 1.0191 1.8719
-6.6899 0.4187 1.8626
-3.1416 -0.0843 0.8733
-3.1603 -0.3688 0.8841
-3.1796 -0.6629 0.9025
-3.1999 -0.9719 0.9293
-6.0682 -2.4535 1.8188
-1.1447 -0.5866 0.3574
-1.0836 -0.6838 0.3561
-1.0147 -0.7750 0.3548
-0.9384 -0.8596 0.3536
-0.8553 -0.9370 0.3525
-0.7662 -1.0069 0.3516
-0.6717 -1.0686 0.3507
-0.5724 -1.1220 0.3500
-0.4692 -1.1666 0.3494
-0.3628 -1.2021 0.3489
-0.2538 -1.2285 0.3486
-0.1431 -1.2455 0.3484
-0.0314 -1.2530 0.3483
0.0805 -1.2510 0.3483
0.1919 -1.2395 0.3485
0.3021 -1.2185 0.3488
0.4101 -1.1882 0.3493
0.5153 -1.1488 0.3499
0.6170 -1.1004 0.3506
0.7144 -1.0434 0.3514
0.8068 -0.9781 0.3523
0.8935 -0.9049 0.3534
0.9739 -0.8242 0.3545
5.3292 -3.7487 1.8105
5.6665 -3.2721 1.8182
5.9595 -2.7644 1.8255
6.2049 -2.2296 1.8321
6.4031 -1.6734 1.8390
6.5522 -1.0996 1.8462
6.6505 -0.5126 1.8535
6.6964 0.0831 1.8609
6.6891 0.6831 1.8684
6.6280 1.2823 1.8759
6.5128 1.8761 1.8834
6.3440 2.4592 1.8907
6.1222 3.0268 1.8978
5.8488 3.5739 1.9047
1.0914 0.8089 0.3775
1.0185 0.9063 0.3788
0.9366 0.9969 0.3801
0.8465 1.0797 0.3812
0.7488 1.1540 0.3823
0.6443 1.2191 0.3832
0.5340 1.2742 0.3839
0.4188 1.3188 0.3845
0.2998 1.3525 0.3850
0.1781 1.3749 0.3852
0.0547 1.3858 0.3854
-0.0691 1.3850 0.3853
-0.1923 1.3726 0.3851
-0.3138 1.3487 0.3848
-0.4323 1.3135 0.3843
-0.5468 1.2675 0.3836
-0.6563 1.2111 0.3828
-0.7599 1.1448 0.3818
-0.8565 1.0694 0.3807
-0.9456 0.9856 0.3795
-1.0262 0.8942 0.3782
-3.3153 2.4042 1.1380
-4.1312 2.4656 1.3369
-6.1577 2.9650 1.8991
-6.3738 2.3947 1.8920
-6.5352 1.8090 1.8843
-6.6375 1.2126 1.8749
-6.6858 0.6124 1.8656
-3.1357 0.0063 0.8713
-3.1542 -0.2762 0.8798
-3.1733 -0.5666 0.8957
-3.1932 -0.8702 0.9197
-3.2144 -1.1931 0.9528
-5.8915 -2.8078 1.8135
-1.1042 -0.6531 0.3565
-1.0378 -0.7463 0.3552
-0.9638 -0.8331 0.3540
-0.8828 -0.9129 0.3529
-0.7956 -0.9852 0.3519
-0.7027 -1.0496 0.3510
-0.6050 -1.1057 0.3502
-0.5029 -1.1532 0.3496
-0.3975 -1.1917 0.3491
-0.2892 -1.2210 0.3487
-0.1790 -1.2410 0.3484
-0.0675 -1.2516 0.3483
0.0444 -1.2527 0.3483
0.1561 -1.2442 0.3484
0.2667 -1.2263 0.3487
0.3755 -1.1990 0.3491
0.4817 -1.1625 0.3497
0.5846 -1.1170 0.3503
0.6835 -1.0627 0.3511
0.7776 -1.0000 0.3520
0.8662 -0.9293 0.3530
0.9487 -0.8510 0.3541
1.0243 -0.7656 0.3554
5.5620 -3.4293 1.8157
5.8706 -2.9317 1.8234
6.1307 -2.4048 1.8300
6.3444 -1.8550 1.8368
6.5096 -1.2865 1.8439
6.6244 -0.7032 1.8511
6.6874 -0.1098 1.8585
6.6973 0.4893 1.8660
6.6536 1.0893 1.8735
6.5559 1.6854 1.8810
6.4043 2.2725 1.8883
6.1995 2.8456 1.8955
5.9426 3.3999 1.9025
1.1129 0.7762 0.3770
1.0430 0.8756 0.3784
0.9640 0.9684 0.3797
0.8764 1.0539 0.3809
0.7811 1.1310 0.3819
0.6787 1.1991 0.3829
0.5702 1.2575 0.3837
0.4565 1.3056 0.3843
0.3386 1.3428 0.3848
0.2176 1.3689 0.3852
0.0946 1.3835 0.3853
-0.0292 1.3865 0.3854
-0.1527 1.3778 0.3852
-0.2748 1.3576 0.3849
-0.3944 1.3261 0.3844
-0.5103 1.2835 0.3838
-0.6216 1.2304 0.3830
-0.7271 1.1672 0.3821
-0.8261 1.0947 0.3811
-0.9177 1.0135 0.3799
-1.0011 0.9245 0.3787
-3.1008 2.3881 1.0876
-3.8383 2.4436 1.2644
-6.0768 3.1450 1.9013
-6.3098 2.5806 1.8943
-6.4901 1.9997 1.8871
-6.6104 1.4057 1.8779
-6.6761 0.8063 1.8686
-3.1298 0.0965 0.8701
-3.1482 -0.1844 0.8763
-3.1671 -0.4717 0.8898
-3.1867 -0.7704 0.9110
-3.2074 -1.0863 0.9410
-5.9782 -2.6404 1.8160
-1.1240 -0.6217 0.3569
-1.0601 -0.7169 0.3556
-0.9884 -0.8058 0.3544
-0.9097 -0.8879 0.3532
-0.8244 -0.9627 0.3522
-0.7333 -1.0297 0.3513
-0.6370 -1.0885 0.3505
-0.5363 -1.1388 0.3498
-0.4318 -1.1802 0.3492
-0.3244 -1.2126 0.3488
-0.2147 -1.2356 0.3485
-0.1036 -1.2492 0.3483
0.0083 -1.2534 0.3483
0.1201 -1.2480 0.3484
0.2312 -1.2331 0.3486
0.3406 -1.2088 0.3490
0.4478 -1.1753 0.3495
0.5518 -1.1326 0.3501
0.6521 -1.0812 0.3508
0.7478 -1.0212 0.3517
0.7515 -0.9837 0.3522
0.8386 -0.9153 0.3532
0.9198 -0.8394 0.3543
0.9943 -0.7565 0.3555
5.4044 -3.3960 1.8161
5.7097 -2.9124 1.8237
5.9676 -2.3996 1.8300
6.1802 -1.8643 1.8367
6.3457 -1.3103 1.8436
6.4620 -0.7417 1.8507
6.5278 -0.1628 1.8579
6.5419 0.4220 1.8652
6.5035 1.0079 1.8725
6.4125 1.5904 1.8798
6.2689 2.1645 1.8870
6.0734 2.7253 1.8940
5.8269 3.2681 1.9009
1.0921 0.7480 0.3766
1.0247 0.8455 0.3780
0.9484 0.9366 0.3792
0.8636 1.0207 0.3804
0.7712 1.0967 0.3815
0.6719 1.1639 0.3824
0.5666 1.2217 0.3832
0.4561 1.2696 0.3838
0.3414 1.3069 0.3843
0.2236 1.3334 0.3847
0.1038 1.3487 0.3849
-0.0169 1.3526 0.3849
-0.1375 1.3453 0.3848
-0.2568 1.3267 0.3845
-0.3738 1.2970 0.3840
-0.4872 1.2565 0.3834
-0.5963 1.2057 0.3827
-0.6999 1.1451 0.3818
-0.7971 1.0752 0.3808
-0.8873 0.9968 0.3797
-0.9695 0.9107 0.3785
-3.0406 2.3832 1.0992
-3.7571 2.4372 1.2742
-5.9074 3.1214 1.9010
-6.1403 2.5726 1.8942
-6.3218 2.0069 1.8872
-6.4458 1.4282 1.8785
-6.5157 0.8433 1.8693
-3.7477 0.1476 1.0672
-3.1464 -0.1574 0.8964
-3.1653 -0.4439 0.9094
-3.1848 -0.7413 0.9304
-3.2054 -1.0553 0.9602
-5.8661 -2.5314 1.8178
-1.1039 -0.5984 0.3573
-1.0423 -0.6920 0.3559
-0.9730 -0.7795 0.3547
-0.8967 -0.8605 0.3536
-0.8140 -0.9344 0.3526
-0.7255 -1.0007 0.3517
-0.6319 -1.0590 0.3509
-0.5338 -1.1090 0.3502
-0.4321 -1.1504 0.3496
-0.3273 -1.1829 0.3492
-0.2202 -1.2063 0.3489
-0.1117 -1.2205 0.3487
-0.0023 -1.2255 0.3487
0.1071 -1.2211 0.3488
0.2157 -1.2074 0.3490
0.3229 -1.1845 0.3493
0.4279 -1.1525 0.3498
0.5299 -1.1116 0.3504
0.6283 -1.0621 0.3511
0.7223 -1.0042 0.3519
0.8112 -0.9382 0.3529
0.8943 -0.8647 0.3539
0.9710 -0.7840 0.3551
5.2971 -3.5456 1.8136
5.6160 -3.0718 1.8213
5.8892 -2.5678 1.8280
6.1167 -2.0393 1.8345
6.2975 -1.4909 1.8413
6.4299 -0.9266 1.8484
6.5121 -0.3505 1.8555
6.5430 0.2329 1.8628
6.5217 0.8190 1.8702
6.4477 1.4031 1.8775
6.3210 1.9804 1.8847
6.1421 2.5461 1.8918
5.9119 3.0952 1.8987
1.1119 0.7153 0.3762
1.0475 0.8147 0.3776
0.9739 0.9080 0.3789
0.8918 0.9944 0.3800
0.8018 1.0730 0.3811
0.7047 1.1432 0.3821
0.6012 1.2042 0.3829
0.4922 1.2553 0.3836
0.3788 1.2960 0.3842
0.2619 1.3260 0.3846
0.1426 1.3449 0.3848
0.0221 1.3526 0.3849
-0.0987 1.3489 0.3848
-0.2185 1.3339 0.3846
-0.3363 1.3077 0.3842
-0.4510 1.2707 0.3836
-0.5616 1.2232 0.3830
-0.6671 1.1657 0.3821
-0.7665 1.0987 0.3812
-0.8590 1.0230 0.3801
-0.9439 0.9393 0.3789
-1.0205 0.8485 0.3776
-3.5021 2.4180 1.2109
-4.3912 2.4848 1.4356
-6.0707 2.7518 1.8964
-6.2689 2.1910 1.8895
-6.4120 1.6160 1.8814
-6.4989 1.0324 1.8723
-6.5332 0.4462 1.8632
-3.1405 -0.0665 0.8937
-3.1591 -0.3505 0.9044
-3.1784 -0.6438 0.9227
-3.1986 -0.9517 0.9495
-3.2202 -1.2808 0.9860
-1.1220 -0.5670 0.3577
-1.0630 -0.6624 0.3564
-0.9962 -0.7519 0.3551
-0.9221 -0.8351 0.3540
-0.8414 -0.9113 0.3529
-0.7547 -0.9801 0.3520
-0.6626 -1.0411 0.3511
-0.5659 -1.0938 0.3504
-0.4653 -1.1380 0.3498
-0.3614 -1.1734 0.3493
-0.2550 -1.1998 0.3490
-0.1468 -1.2170 0.3488
-0.0376 -1.2249 0.3487
0.0718 -1.2235 0.3487
0.1808 -1.2128 0.3489
0.2885 -1.1929 0.3492
0.3943 -1.1638 0.3496
0.4974 -1.1258 0.3502
0.5970 -1.0790 0.3509
0.6925 -1.0237 0.3517
0.7831 -0.9604 0.3526
0.8681 -0.8892 0.3536
0.9470 -0.8108 0.3547
1.0190 -0.7255 0.3559
5.5174 -3.2279 1.8188
5.8061 -2.7334 1.8259
6.0482 -2.2123 1.8324
6.2444 -1.6699 1.8391
6.3926 -1.1102 1.8461
6.4912 -0.5374 1.8532
6.5387 0.0441 1.8605
6.5343 0.6298 1.8678
6.4773 1.2151 1.8751
6.3676 1.7951 1.8824
6.2055 2.3651 1.8895
5.9917 2.9201 1.8965
1.1307 0.6821 0.3757
1.0693 0.7832 0.3771
0.9986 0.8786 0.3784
0.9192 0.9673 0.3797
0.8317 1.0486 0.3808
0.7368 1.1215 0.3818
0.6352 1.1855 0.3827
0.5279 1.2399 0.3834
0.4158 1.2840 0.3840
0.2999 1.3175 0.3845
0.1813 1.3401 0.3848
0.0610 1.3514 0.3849
-0.0598 1.3513 0.3849
-0.1800 1.3400 0.3847
-0.2986 1.3174 0.3843
-0.4144 1.2838 0.3838
-0.5264 1.2396 0.3832
-0.6336 1.1853 0.3824
-0.7351 1.1213 0.3815
-0.8300 1.0484 0.3804
-0.9174 0.9672 0.3793
-0.9967 0.8785 0.3780
-3.2710 2.4006 1.1544
-4.0702 2.4607 1.3533
-5.9958 2.9290 1.8986
-6.2106 2.3737 1.8917
-6.3726 1.8030 1.8843
-6.4766 1.2213 1.8752
-6.5279 0.6354 1.8661
-3.1345 0.0241 0.8919
-3.1531 -0.2581 0.9001
-3.1721 -0.5478 0.9159
-3.1919 -0.8504 0.9399
-3.2131 -1.1718 0.9731
-1.1393 -0.5351 0.3581
-1.0829 -0.6322 0.3568
-1.0186 -0.7237 0.3555
-0.9468 -0.8090 0.3543
-0.8681 -0.8875 0.3532
-0.7833 -0.9588 0.3523
-0.6929 -1.0223 0.3514
-0.5976 -1.0777 0.3506
-0.4982 -1.1247 0.3500
-0.3952 -1.1629 0.3495
-0.2896 -1.1922 0.3491
-0.1819 -1.2124 0.3488
-0.0730 -1.2233 0.3487
0.0365 -1.2250 0.3487
0.1457 -1.2173 0.3488
0.2539 -1.2003 0.3491
0.3604 -1.1742 0.3495
0.4644 -1.1390 0.3500
0.5653 -1.0950 0.3506
0.6621 -1.0425 0.3514
0.7544 -0.9817 0.3523
0.8413 -0.9130 0.3532
0.9223 -0.8368 0.3543
0.9966 -0.7537 0.3555
5.4147 -3.3811 1.8163
5.7186 -2.8965 1.8239
5.9750 -2.3829 1.8303
6.1862 -1.8470 1.8369
6.3501 -1.2925 1.8438
6.4649 -0.7235 1.8509
6.5290 -0.1443 1.8581
6.5414 0.4406 1.8654
6.5015 1.0265 1.8727
6.4088 1.6088 1.8800
6.2635 2.1825 1.8872
6.0663 2.7429 1.8943
5.8182 3.2850 1.9011
1.0901 0.7512 0.3767
1.0224 0.8485 0.3780
0.9458 0.9394 0.3793
0.8608 1.0232 0.3804
0.7682 1.0989 0.3815
0.6687 1.1659 0.3824
0.5631 1.2234 0.3832
0.4525 1.2709 0.3838
0.3377 1.3079 0.3843
0.2198 1.3340 0.3847
0.1000 1.3489 0.3849
-0.0208 1.3526 0.3849
-0.1413 1.3449 0.3848
-0.2606 1.3259 0.3845
-0.3774 1.2958 0.3840
-0.4908 1.2550 0.3834
-0.5996 1.2039 0.3827
-0.7031 1.1430 0.3818
-0.8001 1.0728 0.3808
-0.8900 0.9942 0.3797
-0.9720 0.9079 0.3784
-3.0604 2.3847 1.1039
-3.7837 2.4392 1.2809
-5.9156 3.1043 1.9008
-6.1469 2.5548 1.8940
-6.3267 1.9887 1.8869
-6.4488 1.4097 1.8782
-6.5171 0.8246 1.8691
-3.3197 0.1213 0.9452
-3.1470 -0.1664 0.8967
-3.1659 -0.4532 0.9099
-3.1854 -0.7510 0.9312
-3.2061 -1.0656 0.9613
-5.8581 -2.5476 1.8176
-1.1020 -0.6014 0.3572
-1.0402 -0.6948 0.3559
-0.9707 -0.7822 0.3547
-0.8942 -0.8630 0.3536
-0.8113 -0.9366 0.3526
-0.7226 -1.0027 0.3517
-0.6289 -1.0607 0.3509
-0.5307 -1.1105 0.3502
-0.4288 -1.1516 0.3496
-0.3239 -1.1838 0.3492
-0.2168 -1.2069 0.3489
-0.1082 -1.2208 0.3487
0.0012 -1.2255 0.3487
0.1105 -1.2208 0.3488
0.2192 -1.2068 0.3490
0.3263 -1.1836 0.3493
0.4312 -1.1514 0.3498
0.5331 -1.1102 0.3504
0.6314 -1.0604 0.3511
0.7252 -1.0022 0.3520
0.8139 -0.9360 0.3529
0.8968 -0.8622 0.3540
0.9734 -0.7813 0.3551
5.3079 -3.5310 1.8139
5.6255 -3.0562 1.8215
5.8971 -2.5513 1.8282
6.1231 -2.0222 1.8347
6.3025 -1.4732 1.8416
6.4333 -0.9084 1.8486
6.5139 -0.3321 1.8558
6.5431 0.2515 1.8631
6.5201 0.8376 1.8704
6.4444 1.4216 1.8777
6.3161 1.9986 1.8849
6.1356 2.5638 1.8920
5.9038 3.1123 1.8989
1.1100 0.7185 0.3762
1.0453 0.8177 0.3776
0.9715 0.9108 0.3789
0.8891 0.9970 0.3801
0.7989 1.0754 0.3812
0.7015 1.1453 0.3821
0.5978 1.2059 0.3830
0.4887 1.2567 0.3836
0.3751 1.2971 0.3842
0.2581 1.3268 0.3846
0.1388 1.3454 0.3848
0.0182 1.3526 0.3849
-0.1025 1.3486 0.3848
-0.2223 1.3332 0.3846
-0.3400 1.3067 0.3842
-0.4546 1.2694 0.3836
-0.5650 1.2215 0.3829
-0.6703 1.1637 0.3821
-0.7695 1.0964 0.3811
-0.8618 1.0205 0.3800
-0.9465 0.9366 0.3788
-1.0227 0.8455 0.3776
-3.5261 2.4198 1.2168
-4.4250 2.4873 1.4443
-6.0778 2.7342 1.8962
-6.2743 2.1729 1.8892
-6.4155 1.5976 1.8811
-6.5008 1.0138 1.8720
-6.5335 0.4276 1.8629
-3.1411 -0.0754 0.8940
-3.1597 -0.3597 0.9048
-3.1790 -0.6533 0.9234
-3.1993 -0.9618 0.9505
-3.2209 -1.2917 0.9874
-1.1203 -0.5701 0.3576
-1.0610 -0.6653 0.3563
-0.9939 -0.7547 0.3551
-0.9196 -0.8376 0.3539
-0.8387 -0.9136 0.3529
-0.7518 -0.9822 0.3519
-0.6596 -1.0429 0.3511
-0.5628 -1.0954 0.3504
-0.4620 -1.1393 0.3498
-0.3580 -1.1744 0.3493
-0.2516 -1.2004 0.3490
-0.1434 -1.2173 0.3488
-0.0342 -1.2250 0.3487
0.0753 -1.2233 0.3487
0.1842 -1.2123 0.3489
0.2919 -1.1921 0.3492
0.3976 -1.1628 0.3496
0.5006 -1.1244 0.3502
0.6001 -1.0774 0.3509
0.6954 -1.0219 0.3517
0.7859 -0.9582 0.3526
0.8707 -0.8868 0.3536
0.9494 -0.8082 0.3547
1.0212 -0.7227 0.3560
5.5273 -3.2127 1.8190
5.8145 -2.7172 1.8261
6.0552 -2.1953 1.8326
6.2498 -1.6523 1.8393
6.3965 -1.0922 1.8463
6.4935 -0.5191 1.8534
6.5394 0.0626 1.8607
6.5333 0.6484 1.8680
6.4746 1.2336 1.8753
6.3633 1.8134 1.8826
6.1995 2.3830 1.8897
5.9841 2.9375 1.8967
1.1289 0.6854 0.3758
1.0672 0.7863 0.3772
0.9962 0.8815 0.3785
0.9166 0.9700 0.3797
0.8288 1.0510 0.3808
0.7336 1.1237 0.3818
0.6319 1.1874 0.3827
0.5244 1.2414 0.3834
0.4122 1.2853 0.3840
0.2962 1.3184 0.3845
0.1775 1.3406 0.3848
0.0572 1.3515 0.3849
-0.0636 1.3511 0.3849
-0.1838 1.3394 0.3847
-0.3023 1.3165 0.3843
-0.4180 1.2826 0.3838
-0.5299 1.2381 0.3832
-0.6370 1.1834 0.3824
-0.7382 1.1191 0.3815
-0.8329 1.0459 0.3804
-0.9200 0.9645 0.3792
-0.9991 0.8756 0.3780
-3.2928 2.4022 1.1597
-4.1002 2.4629 1.3609
-6.0034 2.9117 1.8984
-6.2166 2.3558 1.8915
-6.3767 1.7846 1.8840
-6.4791 1.2027 1.8749
-6.5286 0.6168 1.8658
-3.1351 0.0152 0.8920
-3.1536 -0.2671 0.9005
-3.1727 -0.5572 0.9165
-3.1926 -0.8603 0.9408
-3.2137 -1.1824 0.9743
-1.1377 -0.5382 0.3581
-1.0810 -0.6352 0.3567
-1.0164 -0.7265 0.3555
-0.9444 -0.8116 0.3543
-0.8655 -0.8899 0.3532
-0.7805 -0.9609 0.3522
-0.6899 -1.0242 0.3514
-0.5945 -1.0793 0.3506
-0.4949 -1.1260 0.3500
-0.3919 -1.1640 0.3495
-0.2862 -1.1930 0.3491
-0.1784 -1.2129 0.3488
-0.0695 -1.2235 0.3487
0.0400 -1.2249 0.3487
0.1492 -1.2169 0.3488
0.2574 -1.1996 0.3491
0.3638 -1.1732 0.3495
0.4677 -1.1378 0.3500
0.5684 -1.0935 0.3506
0.6652 -1.0407 0.3514
0.7573 -0.9796 0.3523
0.8440 -0.9107 0.3533
0.9247 -0.8343 0.3544
0.9988 -0.7510 0.3556
5.4250 -3.3661 1.8165
5.7274 -2.8806 1.8241
5.9824 -2.3662 1.8305
6.1922 -1.8296 1.8371
6.3545 -1.2746 1.8440
6.4677 -0.7052 1.8511
6.5302 -0.1258 1.8584
6.5410 0.4592 1.8657
6.4993 1.0451 1.8730
6.4050 1.6272 1.8803
6.2580 2.2006 1.8874
6.0592 2.7604 1.8945
5.8095 3.3019 1.9013
1.0881 0.7543 0.3767
1.0201 0.8515 0.3781
0.9432 0.9422 0.3793
0.8580 1.0257 0.3805
0.7651 1.1012 0.3815
0.6654 1.1679 0.3824
0.5597 1.2251 0.3832
0.4489 1.2723 0.3839
0.3340 1.3089 0.3843
0.2161 1.3347 0.3847
0.0961 1.3492 0.3849
-0.0246 1.3525 0.3849
-0.1452 1.3444 0.3847
-0.2643 1.3251 0.3844
-0.3811 1.2947 0.3840
-0.4943 1.2536 0.3834
-0.6030 1.2021 0.3827
-0.7062 1.1409 0.3818
-0.8031 1.0705 0.3808
-0.8928 0.9916 0.3796
-0.9745 0.9050 0.3784
-3.0803 2.3862 1.1086
-3.8105 2.4412 1.2876
-5.9238 3.0871 1.9006
-6.1534 2.5371 1.8938
-6.3316 1.9705 1.8867
-6.4518 1.3912 1.8779
-6.5184 0.8060 1.8688
-3.1292 0.1054 0.8908
-3.1476 -0.1754 0.8970
-3.1665 -0.4625 0.9105
-3.1861 -0.7607 0.9320
-3.2068 -1.0759 0.9624
-5.8501 -2.5639 1.8173
-1.1002 -0.6045 0.3572
-1.0381 -0.6977 0.3559
-0.9684 -0.7849 0.3547
-0.8917 -0.8654 0.3535
-0.8086 -0.9388 0.3525
-0.7197 -1.0046 0.3516
-0.6258 -1.0625 0.3508
-0.5275 -1.1119 0.3502
-0.4255 -1.1527 0.3496
-0.3205 -1.1846 0.3492
-0.2134 -1.2075 0.3489
-0.1047 -1.2211 0.3487
0.0046 -1.2255 0.3487
0.1140 -1.2205 0.3488
0.2226 -1.2062 0.3490
0.3297 -1.1827 0.3493
0.4345 -1.1502 0.3498
0.5363 -1.1087 0.3504
0.6344 -1.0586 0.3512
0.7281 -1.0002 0.3520
0.8166 -0.9338 0.3529
0.8994 -0.8597 0.3540
0.9757 -0.7786 0.3552
5.3186 -3.5164 1.8141
5.6349 -3.0407 1.8218
5.9050 -2.5348 1.8284
6.1296 -2.0050 1.8350
6.3074 -1.4555 1.8418
6.4366 -0.8903 1.8488
6.5156 -0.3136 1.8560
6.5432 0.2701 1.8633
6.5185 0.8562 1.8706
6.4412 1.4400 1.8779
6.3112 2.0168 1.8851
6.1290 2.5815 1.8922
5.8956 3.1295 1.8991
1.1081 0.7218 0.3763
1.0431 0.8208 0.3776
0.9690 0.9137 0.3789
0.8864 0.9996 0.3801
0.7959 1.0778 0.3812
0.6983 1.1474 0.3822
0.5944 1.2077 0.3830
0.4851 1.2582 0.3837
0.3715 1.2983 0.3842
0.2544 1.3276 0.3846
0.1350 1.3458 0.3848
0.0144 1.3527 0.3849
-0.1063 1.3483 0.3848
-0.2261 1.3326 0.3846
-0.3437 1.3057 0.3842
-0.4582 1.2680 0.3836
-0.5685 1.2198 0.3829
-0.6736 1.1617 0.3821
-0.7726 1.0942 0.3811
-0.8646 1.0179 0.3800
-0.9490 0.9338 0.3788
-1.0250 0.8425 0.3775
-3.5503 2.4216 1.2228
-5.8389 3.2603 1.9027
-6.0848 2.7166 1.8960
-6.2797 2.1549 1.8890
-6.4191 1.5791 1.8808
-6.5027 0.9952 1.8717
-6.5336 0.4090 1.8626
-3.1416 -0.0843 0.8942
-3.1603 -0.3688 0.9053
-3.1796 -0.6629 0.9241
-3.1999 -0.9719 0.9515
-5.9297 -2.3975 1.8198
-1.1185 -0.5732 0.3576
-1.0590 -0.6682 0.3563
-0.9917 -0.7574 0.3550
-0.9172 -0.8402 0.3539
-0.8361 -0.9159 0.3528
-0.7490 -0.9843 0.3519
-0.6566 -1.0447 0.3511
-0.5596 -1.0969 0.3504
-0.4588 -1.1405 0.3498
-0.3547 -1.1753 0.3493
-0.2482 -1.2011 0.3490
-0.1399 -1.2177 0.3488
-0.0307 -1.2251 0.3487
0.0788 -1.2231 0.3487
0.1877 -1.2118 0.3489
0.2953 -1.1913 0.3492
0.4009 -1.1617 0.3497
0.5038 -1.1231 0.3502
0.6032 -1.0757 0.3509
0.6984 -1.0200 0.3517
0.7887 -0.9561 0.3526
0.8733 -0.8844 0.3537
0.9518 -0.8055 0.3548
1.0234 -0.7199 0.3560
5.5372 -3.1974 1.8193
5.8229 -2.7010 1.8263
6.0621 -2.1784 1.8328
6.2552 -1.6348 1.8396
6.4004 -1.0741 1.8465
6.4957 -0.5007 1.8537
6.5400 0.0812 1.8609
6.5322 0.6671 1.8683
6.4719 1.2522 1.8756
6.3589 1.8317 1.8828
6.1934 2.4009 1.8900
5.9764 2.9548 1.8969
1.1271 0.6887 0.3758
1.0651 0.7894 0.3772
0.9938 0.8844 0.3785
0.9139 0.9727 0.3797
0.8259 1.0534 0.3809
0.7305 1.1259 0.3819
0.6286 1.1893 0.3827
0.5209 1.2430 0.3835
0.4086 1.2865 0.3840
0.2925 1.3193 0.3845
0.1737 1.3411 0.3848
0.0534 1.3517 0.3849
-0.0674 1.3509 0.3849
-0.1876 1.3389 0.3847
-0.3061 1.3156 0.3843
-0.4217 1.2813 0.3838
-0.5334 1.2365 0.3831
-0.6403 1.1815 0.3824
-0.7414 1.1169 0.3814
-0.8357 1.0434 0.3804
-0.9227 0.9617 0.3792
-1.0015 0.8727 0.3779
-3.3148 2.4039 1.1651
-4.1305 2.4652 1.3686
-6.0110 2.8943 1.8982
-6.2225 2.3378 1.8913
-6.3808 1.7663 1.8838
-6.4815 1.1841 1.8747
-6.5294 0.5981 1.8655
-3.1357 0.0063 0.8922
-3.1542 -0.2762 0.9009
-3.1733 -0.5666 0.9172
-3.1932 -0.8702 0.9417
-3.2144 -1.1931 0.9755
-1.1360 -0.5414 0.3580
-1.0791 -0.6382 0.3567
-1.0142 -0.7293 0.3554
-0.9419 -0.8142 0.3543
-0.8629 -0.8923 0.3532
-0.7777 -0.9630 0.3522
-0.6870 -1.0261 0.3513
-0.5914 -1.0810 0.3506
-0.4917 -1.1274 0.3499
-0.3886 -1.1651 0.3494
-0.2828 -1.1938 0.3491
-0.1750 -1.2134 0.3488
-0.0660 -1.2237 0.3487
0.0435 -1.2248 0.3487
0.1526 -1.2165 0.3488
0.2608 -1.1989 0.3491
0.3671 -1.1722 0.3495
0.4710 -1.1365 0.3500
0.5716 -1.0920 0.3507
0.6682 -1.0389 0.3514
0.7601 -0.9775 0.3523
0.8467 -0.9084 0.3533
0.9272 -0.8318 0.3544
1.0011 -0.7482 0.3556
5.4353 -3.3512 1.8168
5.7362 -2.8646 1.8243
5.9898 -2.3495 1.8307
6.1981 -1.8122 1.8373
6.3589 -1.2567 1.8443
6.4705 -0.6869 1.8514
6.5313 -0.1072 1.8586
6.5405 0.4779 1.8659
6.4971 1.0637 1.8732
6.4011 1.6456 1.8805
6.2525 2.2186 1.8877
6.0520 2.7780 1.8947
5.8008 3.3188 1.9015
1.0861 0.7575 0.3768
1.0178 0.8545 0.3781
0.9406 0.9450 0.3794
0.8551 1.0283 0.3805
0.7621 1.1035 0.3816
0.6621 1.1698 0.3825
0.5562 1.2267 0.3832
0.4453 1.2736 0.3839
0.3303 1.3099 0.3844
0.2123 1.3353 0.3847
0.0923 1.3495 0.3849
-0.0285 1.3524 0.3849
-0.1490 1.3440 0.3847
-0.2681 1.3243 0.3844
-0.3847 1.2936 0.3840
-0.4978 1.2521 0.3834
-0.6064 1.2003 0.3826
-0.7094 1.1388 0.3817
-0.8061 1.0681 0.3807
-0.8955 0.9890 0.3796
-0.9770 0.9022 0.3784
-3.1004 2.3878 1.1134
-3.8377 2.4432 1.2944
-5.9318 3.0699 1.9004
-6.1598 2.5193 1.8935
-6.3364 1.9523 1.8865
-6.4548 1.3726 1.8776
-6.5196 0.7874 1.8685
-3.1298 0.0965 0.8909
-3.1482 -0.1844 0.8973
-3.1671 -0.4717 0.9111
-3.1867 -0.7704 0.9328
-3.2074 -1.0863 0.9635
-5.8420 -2.5802 1.8171
-1.0983 -0.6075 0.3571
-1.0360 -0.7006 0.3558
-0.9660 -0.7875 0.3546
-0.8891 -0.8679 0.3535
-0.8058 -0.9410 0.3525
-0.7168 -1.0066 0.3516
-0.6227 -1.0642 0.3508
-0.5243 -1.1133 0.3501
-0.4222 -1.1539 0.3496
-0.3172 -1.1855 0.3492
-0.2099 -1.2081 0.3489
-0.1013 -1.2214 0.3487
0.0081 -1.2255 0.3487
0.1175 -1.2202 0.3488
0.2260 -1.2056 0.3490
0.3330 -1.1818 0.3494
