ply
format ascii 1.0
element vertex 2046
property float32 x
property float32 y
property float32 z
end_header
-21.2529 -14.0173 0.7844
-20.7208 -16.4996 0.8161
-11.0866 -10.5771 0.4721
-9.7966 -11.1811 0.4580
-20.9073 -28.6699 1.0932
-6.5187 -10.8584 0.3902
-17.7923 -36.7152 1.2570
-16.8333 -44.4728 1.4651
-0.1129 -26.9631 0.8307
2.4348 -28.4995 0.8813
12.8899 -47.6755 1.5216
16.5292 -44.7989 1.4712
15.7014 -33.1039 1.1288
16.8302 -28.5739 1.0217
20.4679 -28.5667 1.0827
16.2429 -18.8545 0.7667
10.2876 -9.9807 0.4416
10.2843 -8.3309 0.4078
10.2814 -6.9054 0.3816
10.2789 -5.6424 0.3613
10.2767 -4.4984 0.3456
10.2745 -3.4413 0.3338
10.2726 -2.4462 0.3253
11.3108 -1.6443 0.3521
10.3032 -0.5667 0.3179
11.9192 0.4109 0.3674
11.9171 1.4839 0.3700
11.9149 2.5806 0.3756
11.9126 3.7204 0.3845
11.9102 4.9253 0.3971
11.9077 6.2225 0.4139
11.9048 7.6465 0.4359
11.9016 9.2438 0.4643
15.2916 14.2391 0.6438
23.8752 26.5924 1.1011
17.5106 23.4111 0.9007
19.2856 31.2602 1.1317
16.8020 33.6276 1.1582
-6.2565 24.3053 0.7733
-9.4417 26.5766 0.8690
-10.8527 23.6156 0.8007
-23.3506 40.7654 1.4474
-21.4646 21.3350 0.9324
-21.4575 17.8166 0.8593
-21.4515 14.7876 0.8027
-21.4462 12.1126 0.7589
-21.7806 9.8501 0.7365
-22.3679 7.7943 0.7298
-24.7722 6.2170 0.7869
-17.7411 2.7989 0.5534
-40.5000 2.7200 1.2506
-20.7528 -0.4640 0.6395
-21.2761 -2.3879 0.6596
-20.7453 -4.2308 0.6523
-21.2682 -6.3605 0.6839
-21.2639 -8.4933 0.7055
-21.2593 -10.7836 0.7344
-21.2543 -13.2910 0.7723
-20.7224 -15.6960 0.8009
-31.7787 -28.8808 1.3230
-10.1433 -11.0261 0.4616
-21.1371 -27.5573 1.0700
-6.7690 -10.6802 0.3896
-20.5791 -39.9689 1.3851
-17.7053 -43.5599 1.4487
4.3207 -28.5070 0.8883
11.8211 -48.3401 1.5332
15.5939 -45.6384 1.4859
15.7057 -35.2967 1.1903
15.9118 -28.5758 1.0077
19.4397 -28.5687 1.0646
16.2448 -19.8074 0.7892
10.2886 -10.4772 0.4524
10.2851 -8.7526 0.4161
10.2822 -7.2733 0.3880
10.2796 -5.9712 0.3663
10.2772 -4.7985 0.3494
10.2751 -3.7206 0.3367
10.2731 -2.7109 0.3273
10.2712 -1.7482 0.3210
11.9219 -0.9458 0.3685
11.9198 0.1221 0.3673
11.9177 1.1916 0.3690
11.9155 2.2801 0.3738
11.9133 3.4061 0.3818
11.9109 4.5910 0.3933
11.9084 5.8601 0.4089
11.9056 7.2458 0.4294
11.9025 8.7907 0.4559
30.3712 26.9374 1.2507
24.9635 26.4850 1.1213
18.0132 22.9049 0.8978
19.9311 30.6211 1.1257
17.5102 33.0197 1.1515
14.3440 44.9711 1.4543
-5.9082 25.4951 0.8063
-10.1667 23.6144 0.7921
-17.7389 32.7848 1.1485
-28.9074 36.1307 1.4256
-20.7970 21.6978 0.9260
-21.4593 18.7145 0.8773
-21.4531 15.5684 0.8167
-21.4475 12.8083 0.7697
-20.7737 10.0076 0.7104
-22.3691 8.4076 0.7363
-22.4704 6.2216 0.7184
-33.9300 6.1987 1.0627
-41.2641 3.7773 1.2767
-41.6224 0.0779 1.2824
-21.2771 -1.8675 0.6581
-20.8601 -3.7304 0.6529
-21.2693 -5.8034 0.6793
-21.2651 -7.9021 0.6989
-21.2606 -10.1444 0.7258
-21.2557 -12.5862 0.7611
-21.2503 -15.3004 0.8068
-33.3703 -28.8830 1.3597
-10.4920 -10.8649 0.4653
-23.2727 -28.8662 1.1424
-7.1400 -10.6842 0.3959
-6.5076 -11.9206 0.4184
-18.5223 -42.5824 1.4307
-15.2663 -45.9328 1.4913
3.6163 -28.5042 0.8852
14.6201 -46.4351 1.4999
15.7106 -37.7430 1.2596
15.6755 -29.8287 1.0382
18.4449 -28.5707 1.0477
22.2908 -28.5631 1.1163
10.2896 -10.9989 0.4640
10.2860 -9.1921 0.4250
10.2829 -7.6542 0.3949
10.2803 -6.3095 0.3716
10.2779 -5.1056 0.3536
10.2757 -4.0049 0.3398
10.2736 -2.9790 0.3296
10.2717 -2.0054 0.3224
11.9225 -1.2371 0.3693
11.9204 -0.1667 0.3673
11.9183 0.9007 0.3682
11.9161 1.9823 0.3722
11.9139 3.0963 0.3793
11.9116 4.2629 0.3898
11.9091 5.5063 0.4042
11.9064 6.8568 0.4233
11.9034 8.3535 0.4480
31.1190 26.2819 1.2549
28.5157 28.8221 1.2492
9.2183 11.1547 0.4458
20.5307 29.9307 1.1183
18.2284 32.4497 1.1467
15.7077 34.9484 1.1805
-7.3271 24.2950 0.7818
-9.6880 24.0930 0.8001
-20.8010 40.7740 1.4103
-20.7992 22.7798 0.9504
-21.4612 19.6513 0.8965
-21.4547 16.3774 0.8316
-21.4490 13.5245 0.7812
-20.7749 10.6357 0.7191
-22.3704 9.0323 0.7433
-20.7662 6.2950 0.6686
-29.8642 6.2069 0.9398
-40.6210 1.0601 1.2519
-21.2782 -1.3492 0.6569
-21.2743 -3.2748 0.6632
-21.2704 -5.2537 0.6750
-21.2662 -7.3213 0.6929
-21.2619 -9.5198 0.7177
-21.2571 -11.9012 0.7506
-21.2518 -14.5330 0.7932
-35.0539 -28.8852 1.3994
-10.8428 -10.6971 0.4693
-9.5580 -11.2845 0.4556
-23.9896 -34.0811 1.2841
-6.5144 -11.2748 0.4012
-19.2963 -41.5789 1.4123
-16.2022 -45.0712 1.4756
2.9164 -28.5014 0.8827
9.3732 -48.3760 1.5182
13.6093 -47.1855 1.5130
17.2147 -44.3554 1.4659
15.6986 -31.7152 1.0903
17.4804 -28.5726 1.0320
21.1996 -28.5652 1.0960
16.2416 -18.2267 0.7522
9.2391 -8.6679 0.3903
10.2837 -8.0490 0.4023
10.2810 -6.6579 0.3774
10.2785 -5.4201 0.3580
10.2762 -4.2946 0.3431
10.2742 -3.2509 0.3320
10.2722 -2.2651 0.3241
11.9231 -1.5299 0.3704
11.9210 -0.4557 0.3675
11.9188 0.6109 0.3677
11.9167 1.6869 0.3708
11.9145 2.7902 0.3770
11.9122 3.9403 0.3866
11.9098 5.1603 0.3999
11.9071 6.4783 0.4176
11.9042 7.9309 0.4407
36.0811 29.0052 1.4263
29.6599 28.5608 1.2686
23.4747 27.0441 1.1033
21.1431 29.2774 1.1127
18.8395 31.7133 1.1365
16.3755 34.1942 1.1681
-6.6913 24.3011 0.7766
-9.4442 25.2357 0.8302
-24.2645 40.7623 1.4615
-24.6755 28.3759 1.1586
-21.4632 20.6308 0.9172
-21.4563 17.2169 0.8476
-21.4505 14.2630 0.7936
-21.4452 11.6429 0.7518
-22.3716 9.6695 0.7509
-22.3671 7.3764 0.7256
-26.6391 6.2133 0.8428
-40.3893 2.0339 1.2460
-21.2792 -0.8324 0.6561
-21.2754 -2.7493 0.6609
-20.7445 -4.5938 0.6546
-21.2674 -6.7502 0.6875
-21.2631 -8.9087 0.7103
-21.2584 -11.2346 0.7408
-21.2533 -13.7906 0.7806
-20.7213 -16.2483 0.8113
-11.1957 -10.5225 0.4734
-9.9035 -11.1339 0.4591
-20.9085 -28.2258 1.0822
-6.5206 -10.6797 0.3855
-18.1397 -36.7296 1.2621
-17.1088 -44.1998 1.4602
-0.3125 -26.7933 0.8255
2.2618 -29.0320 0.8972
12.5636 -47.8863 1.5253
16.2446 -45.0625 1.4758
15.7027 -33.7563 1.1470
16.5440 -28.5745 1.0173
20.1467 -28.5673 1.0770
16.2434 -19.1428 0.7735
10.2879 -10.1314 0.4449
10.2845 -8.4593 0.4103
10.2817 -7.0176 0.3835
10.2791 -5.7429 0.3628
10.2768 -4.5903 0.3468
10.2747 -3.5270 0.3347
10.2727 -2.5276 0.3259
10.7460 -1.6443 0.3349
10.3033 -0.6440 0.3181
11.9194 0.3218 0.3674
11.9173 1.3935 0.3697
11.9151 2.4875 0.3750
11.9128 3.6229 0.3836
11.9104 4.8214 0.3959
11.9079 6.1097 0.4123
11.9051 7.5215 0.4339
11.9019 9.1022 0.4616
15.3312 14.0635 0.6410
24.0665 26.4056 1.1008
17.6661 23.2545 0.8998
19.4813 31.0554 1.1295
17.0212 33.4388 1.1560
-6.0635 24.3072 0.7718
-9.4405 27.2168 0.8876
-10.6393 23.6152 0.7980
-22.9484 40.7668 1.4414
-21.4652 21.6571 0.9395
-21.4581 18.0898 0.8647
-21.4520 15.0258 0.8069
-21.4466 12.3252 0.7621
-21.3559 9.8510 0.7246
-22.3683 7.9824 0.7317
-24.0161 6.2185 0.7643
-17.6462 2.9194 0.5511
-40.6725 3.0373 1.2566
-20.7531 -0.3087 0.6395
-21.2764 -2.2270 0.6591
-20.7456 -4.0695 0.6513
-21.2685 -6.1877 0.6824
-21.2643 -8.3096 0.7034
-21.2597 -10.5847 0.7317
-21.2548 -13.0712 0.7688
-20.8755 -15.5679 0.8023
-32.2610 -28.8819 1.3341
-10.2507 -10.9771 0.4627
-22.4838 -28.8638 1.1272
-6.8822 -10.6815 0.3915
-20.8548 -39.7709 1.3836
-17.9620 -43.2611 1.4432
4.1027 -28.5062 0.8873
11.4847 -48.5343 1.5366
9.4903 -28.4692 0.9246
15.7072 -36.0224 1.2107
15.6925 -28.6843 1.0073
19.1293 -28.5694 1.0593
23.0695 -28.5615 1.1312
10.2889 -10.6354 0.4559
10.2854 -8.8862 0.4188
10.2805 -6.4416 0.4486
10.2781 -5.2250 0.4263
10.2759 -4.1151 0.4093
10.2738 -3.0825 0.3966
10.2719 -2.1044 0.3877
11.9228 -1.3490 0.4437
11.9206 -0.2772 0.4409
11.9185 0.7897 0.4417
11.9163 1.8690 0.4460
11.9141 2.9787 0.4541
11.9118 4.1388 0.4663
11.9093 5.3730 0.4831
11.9067 6.7107 0.5054
11.9037 8.1901 0.5343
31.4913 26.1001 1.5124
29.0188 28.7920 1.5116
9.3667 11.1226 0.5377
20.5041 29.3060 1.3225
18.4633 32.1661 1.3714
15.9501 34.6259 1.4097
-7.0828 24.2975 0.9358
-9.4462 24.1355 0.9584
-20.6757 41.4734 1.7136
-24.6738 27.5316 1.3670
-21.4619 20.0208 1.0853
-21.4553 16.6948 1.0052
-21.4495 13.8043 0.9432
-21.4444 11.2305 0.8951
-22.3709 9.2746 0.8955
-20.7667 6.5060 0.8047
-28.5460 6.2095 1.0802
-49.1786 6.1683 1.8327
-40.5278 1.4337 1.4995
-21.2786 -1.1513 0.7880
-21.2747 -3.0733 0.7948
-21.2708 -5.0451 0.8083
-21.2667 -7.1017 0.8291
-21.2623 -9.2844 0.8579
-21.2576 -11.6440 0.8962
-21.2524 -14.2461 0.9461
-10.9225 -8.8317 0.5194
-9.7885 -9.4795 0.5039
-9.4799 -10.9843 0.5365
-20.5477 -28.6239 1.3029
-6.5168 -11.0414 0.4741
-15.2356 -32.0476 1.3121
-14.1416 -38.2221 1.5070
-10.9294 -40.2805 1.5433
-7.4169 -41.8177 1.5704
-3.6919 -42.7606 1.5870
0.0878 -26.6976 0.9872
2.6496 -28.4992 1.0583
7.6820 -41.7141 1.5684
9.2682 -33.2900 1.2778
12.6368 -33.4765 1.3231
15.7001 -32.4719 1.3337
17.1189 -28.5734 1.2317
20.7924 -28.5660 1.3064
16.2423 -18.5713 0.9123
9.2570 -8.8475 0.4735
10.2840 -8.2041 0.4864
10.2812 -6.7942 0.4557
10.2787 -5.5427 0.4318
10.2765 -4.4071 0.4135
10.2744 -3.3560 0.3997
10.2724 -2.3652 0.3898
11.1703 -1.5387 0.4169
10.3030 -0.4895 0.3814
11.9191 0.5002 0.4411
11.9169 1.5744 0.4445
11.9147 2.6740 0.4515
11.9124 3.8183 0.4626
11.9100 5.0298 0.4781
11.9074 6.3361 0.4988
11.9046 7.7727 0.5257
11.9013 9.3871 0.5605
29.1680 27.5706 1.4841
23.7483 26.8523 1.3255
21.0973 28.6506 1.3156
19.1024 31.4876 1.3618
16.6606 33.9776 1.3993
-6.4502 24.3036 0.9298
-9.4429 25.9628 1.0216
-10.8397 23.1301 0.9445
-23.6518 40.5845 1.7369
-21.4639 21.0177 1.1108
-21.4570 17.5468 1.0249
-21.4510 14.5519 0.9585
-21.4457 11.9018 0.9069
-22.2198 9.8492 0.8987
-22.3675 7.6071 0.8736
-25.5742 6.2154 0.9732
-40.4678 2.4141 1.4990
-20.7525 -0.6192 0.7677
-21.2758 -2.5491 0.7923
-20.7449 -4.3925 0.7841
-21.2678 -6.5340 0.8227
-21.2635 -8.6780 0.8492
-21.2589 -10.9840 0.8848
-21.2539 -13.5128 0.9313
-11.2322 -8.6407 0.5240
-10.0943 -9.3126 0.5078
-9.4806 -10.4616 0.5220
-20.9179 -27.6981 1.2834
-6.6578 -10.6806 0.4654
-15.2545 -30.1797 1.2504
-14.9509 -37.5864 1.4957
-11.8324 -39.7708 1.5343
-8.3935 -41.4573 1.5641
-4.7163 -42.5671 1.5836
-0.9012 -43.0454 1.5920
2.1753 -31.7162 1.1755
6.6942 -42.0439 1.5742
8.4933 -33.6399 1.2829
11.6110 -33.1692 1.2995
15.4935 -34.1302 1.3860
16.1927 -28.5752 1.2145
19.7534 -28.5681 1.2843
16.2442 -19.5073 0.9387
10.2883 -10.3214 0.5389
10.2849 -8.6206 0.4962
10.2820 -7.1584 0.4633
10.2794 -5.8687 0.4377
10.2771 -4.7052 0.4179
10.2749 -3.6339 0.4030
10.2729 -2.6288 0.3921
10.2710 -1.6692 0.3848
10.3302 -0.7419 0.3830
10.2927 0.1824 0.3806
11.9175 1.2817 0.4432
11.9153 2.3725 0.4492
11.9131 3.5027 0.4592
11.9107 4.6935 0.4734
11.9082 5.9711 0.4926
11.9054 7.3682 0.5177
11.9023 8.9288 0.5502
30.6688 27.6138 1.5260
24.3662 26.2418 1.3241
17.8584 23.0608 1.0785
19.7308 30.8147 1.3530
17.3382 33.2944 1.3881
13.9897 45.0198 1.7432
-5.8997 24.6198 0.9361
-10.1634 23.1289 0.9342
-19.9425 36.2080 1.5285
-29.2304 35.9796 1.7141
-21.1019 21.6889 1.1189
-21.4588 18.4333 1.0460
-21.4526 15.3245 0.9749
-21.4471 12.5915 0.9196
-20.8478 9.8520 0.8526
-22.3687 8.2172 0.8812
-23.1370 6.2203 0.8859
-40.8671 3.4330 1.5165
-20.7535 -0.1164 0.7674
-21.2768 -2.0278 0.7903
-20.7460 -3.8703 0.7804
-21.2689 -5.9746 0.8169
-21.2647 -8.0834 0.8412
-21.2602 -10.3401 0.8742
-21.2553 -12.8015 0.9175
-21.2498 -15.5425 0.9735
-10.4011 -9.1394 0.5120
-9.4812 -9.9662 0.5086
-20.9194 -26.3479 1.2440
-7.0252 -10.6845 0.4728
-15.9157 -29.6797 1.2453
-15.2242 -35.7283 1.4360
-12.7118 -39.2245 1.5247
-9.3524 -41.0545 1.5569
-5.7305 -42.3271 1.5794
-1.9421 -42.9801 1.5909
1.9035 -42.9809 1.5908
3.8330 -28.5039 1.0635
8.1842 -36.0758 1.3679
9.1977 -28.4684 1.1062
14.4172 -33.9187 1.3628
15.6938 -29.3290 1.2300
18.7486 -28.5701 1.2636
22.6359 -28.5624 1.3476
10.2893 -10.8351 0.5525
10.2857 -9.0544 0.5067
10.2827 -7.5351 0.4714
10.2801 -6.2040 0.4440
10.2777 -5.0100 0.4228
10.2755 -3.9166 0.4066
10.2735 -2.8958 0.3947
10.2715 -1.9257 0.3864
11.9223 -1.1471 0.4429
11.9202 -0.0775 0.4408
11.9181 0.9904 0.4422
11.9159 2.0740 0.4472
11.9137 3.1915 0.4561
11.9114 4.3635 0.4691
11.9089 5.6147 0.4868
11.9062 6.9757 0.5102
11.9031 8.4868 0.5406
30.8492 26.4518 1.5026
28.2363 28.9699 1.4959
9.1775 11.2759 0.5376
9.2303 13.6745 0.6101
17.9763 32.5689 1.3756
15.1803 44.9769 1.7553
-5.9292 27.6855 1.0469
-7.5251 24.2933 0.9404
-9.5014 23.1277 0.9246
-21.0770 40.5628 1.6903
-17.6372 22.8173 1.0664
-20.7985 22.4397 1.1314
-21.4606 19.3577 1.0687
-21.4542 16.1246 0.9924
-21.4485 13.3012 0.9332
-20.7745 10.4402 0.8597
-22.3700 8.8383 0.8894
-21.1000 6.2244 0.8135
-31.0152 6.2046 1.1696
-40.8428 0.7604 1.5105
-21.2779 -1.5089 0.7888
-21.2740 -3.4378 0.7968
-21.2700 -5.4227 0.8117
-21.2659 -7.4996 0.8338
-21.2615 -9.7112 0.8643
-21.2567 -12.1106 0.9046
-21.2514 -14.7672 0.9569
-10.7090 -8.9597 0.5163
-9.5777 -9.5913 0.5012
-9.4795 -11.3630 0.5472
-19.8287 -28.6221 1.2875
-6.5123 -11.4684 0.4877
-15.2305 -33.4711 1.3598
-13.5661 -38.6433 1.5144
-10.2920 -40.6106 1.5491
-6.7326 -42.0413 1.5744
-2.9788 -42.8668 1.5889
0.8625 -43.0457 1.5920
3.1320 -28.5011 1.0602
8.1653 -40.5172 1.5283
9.8024 -33.0562 1.2749
13.3580 -33.6695 1.3394
15.6974 -31.1254 1.2890
17.7750 -28.5721 1.2443
21.5321 -28.5646 1.3227
10.2904 -11.3757 0.5672
9.3080 -8.6027 0.4687
10.2835 -7.9256 0.4801
10.2807 -6.5492 0.4507
10.2783 -5.3222 0.4280
10.2761 -4.2046 0.4105
10.2740 -3.1665 0.3975
10.2720 -2.1846 0.3883
10.3312 -1.2472 0.3848
11.9208 -0.3664 0.4410
11.9187 0.7003 0.4415
11.9165 1.7779 0.4455
11.9143 2.8843 0.4533
11.9120 4.0393 0.4651
11.9096 5.2663 0.4815
11.9069 6.5941 0.5033
11.9040 8.0598 0.5316
31.7519 25.9181 1.5156
29.3736 28.7113 1.5188
23.2704 27.2171 1.3241
21.0334 29.5889 1.3424
18.5985 31.8476 1.3637
16.1749 34.4340 1.4067
-6.8866 24.2994 0.9339
-9.4452 24.6750 0.9770
-20.6784 42.2674 1.7399
-24.6782 40.7609 1.7619
-24.6747 27.9503 1.3786
-21.4626 20.3236 1.0930
-21.4558 16.9543 1.0112
-21.4500 14.0326 0.9478
-21.4448 11.4358 0.8987
-22.3713 9.4714 0.8983
-20.7670 6.6770 0.8066
-27.5613 6.2114 1.0447
-48.8237 6.4950 1.8212
-40.4181 1.7325 1.4959
-21.2789 -0.9918 0.7877
-21.2751 -2.9112 0.7940
-21.2711 -4.8775 0.8069
-21.2670 -6.9256 0.8270
-21.2627 -9.0960 0.8551
-21.2580 -11.4384 0.8926
-21.2529 -14.0173 0.9414
-11.0180 -8.7734 0.5208
-9.8828 -9.4287 0.5051
-9.4801 -10.8199 0.5319
-20.8702 -28.6191 1.3097
-6.5187 -10.8583 0.4683
-15.2379 -31.4441 1.2920
-14.3943 -38.0291 1.5035
-11.2106 -40.1272 1.5406
-7.7201 -41.7110 1.5685
-4.0090 -42.7059 1.5861
-0.1129 -26.9619 0.9970
2.4347 -28.4983 1.0576
7.3788 -41.8206 1.5703
9.0305 -33.4010 1.2794
12.3179 -33.3852 1.3158
15.7014 -33.1039 1.3548
16.8302 -28.5739 1.2262
20.4679 -28.5667 1.2994
16.2429 -18.8545 0.9202
10.2876 -9.9807 0.5300
10.2843 -8.3309 0.4894
10.2814 -6.9054 0.4580
10.2789 -5.6424 0.4336
10.2767 -4.4984 0.4148
10.2745 -3.4413 0.4007
10.2726 -2.4462 0.3905
11.1603 -1.6224 0.4170
10.3032 -0.5667 0.3816
11.9192 0.4109 0.4410
11.9171 1.4839 0.4441
11.9149 2.5806 0.4508
11.9126 3.7204 0.4615
11.9102 4.9253 0.4766
11.9077 6.2225 0.4968
11.9048 7.6466 0.5232
11.9016 9.2438 0.5572
15.2907 14.2383 0.7726
23.9293 26.6526 1.3245
17.5106 23.4111 1.0810
19.3164 31.3102 1.3604
16.8753 33.7742 1.3961
-6.2566 24.3055 0.9280
-9.4418 26.5767 1.0429
-10.6294 23.1297 0.9413
-23.3506 40.7654 1.7372
-21.4646 21.3350 1.1191
-21.4575 17.8166 1.0313
-21.4515 14.7876 0.9634
-21.4462 12.1126 0.9108
-21.7806 9.8501 0.8839
-22.3679 7.7943 0.8759
-24.7722 6.2170 0.9444
-17.7403 2.7988 0.6641
-40.5000 2.7200 1.5009
-20.7528 -0.4640 0.7676
-21.2761 -2.3879 0.7917
-20.7453 -4.2308 0.7829
-21.2682 -6.3605 0.8208
-21.2639 -8.4933 0.8467
-21.2593 -10.7836 0.8814
-21.2543 -13.2910 0.9269
-20.7224 -15.6960 0.9612
-10.1889 -9.2598 0.5091
-9.4808 -10.3059 0.5178
-20.9191 -27.2732 1.2710
-6.7700 -10.6818 0.4676
-15.4528 -30.0126 1.2482
-15.1952 -37.3840 1.4922
-12.1064 -39.6060 1.5314
-8.6914 -41.3375 1.5619
-5.0305 -42.4979 1.5824
-1.2228 -43.0304 1.5918
2.6209 -42.9079 1.5895
4.3205 -28.5058 1.0661
8.2513 -33.7420 1.2844
9.7190 -28.4444 1.1115
15.1595 -34.0691 1.3788
15.9118 -28.5758 1.2094
19.4397 -28.5687 1.2777
16.2448 -19.8074 0.9472
10.2886 -10.4772 0.5430
10.2851 -8.7526 0.4994
10.2822 -7.2733 0.4657
10.2796 -5.9712 0.4396
10.2772 -4.7985 0.4194
10.2751 -3.7206 0.4041
10.2731 -2.7109 0.3929
10.2712 -1.7482 0.3853
11.9219 -0.9458 0.4422
11.9198 0.1221 0.4408
11.9177 1.1916 0.4429
11.9155 2.2801 0.4486
11.9133 3.4061 0.4582
11.9109 4.5910 0.4720
11.9084 5.8601 0.4908
11.9056 7.2458 0.5154
11.9025 8.7907 0.5471
30.5494 27.0955 1.5099
30.3660 32.2170 1.6370
18.0133 22.9049 1.0775
19.9304 30.6200 1.3509
17.5465 33.0881 1.3849
14.3440 44.9711 1.7454
-5.9081 25.4948 0.9677
-9.9576 23.1286 0.9311
-17.7016 32.7159 1.3755
-28.8701 36.0841 1.7088
-20.7970 21.6978 1.1113
-21.4593 18.7145 1.0529
-21.4531 15.5684 0.9801
-21.4475 12.8083 0.9237
-20.7737 10.0076 0.8526
-22.3691 8.4076 0.8836
-22.4704 6.2216 0.8621
-33.9300 6.1987 1.2754
-41.2641 3.7773 1.5322
-41.6224 0.0779 1.5391
-21.2771 -1.8675 0.7898
-20.8601 -3.7304 0.7836
-21.2693 -5.8034 0.8152
-21.2651 -7.9021 0.8388
-21.2606 -10.1444 0.8711
-21.2557 -12.5862 0.9134
-21.2503 -15.3004 0.9682
-10.4960 -9.0846 0.5133
-9.4814 -9.8183 0.5047
-20.9208 -25.9490 1.2325
-7.1410 -10.6858 0.4752
-6.5076 -11.9205 0.5022
-15.2262 -35.0049 1.4115
-12.9782 -39.0487 1.5215
-9.6447 -40.9217 1.5546
-6.0413 -42.2436 1.5779
-2.2627 -42.9503 1.5904
1.5825 -43.0060 1.5913
3.6162 -28.5030 1.0624
8.1785 -37.3425 1.4135
9.1193 -28.9641 1.1228
14.0883 -33.8457 1.3556
15.6755 -29.8287 1.2460
18.4449 -28.5707 1.2575
22.2908 -28.5631 1.3397
10.2896 -10.9989 0.5569
10.2860 -9.1921 0.5101
10.2829 -7.6542 0.4740
10.2803 -6.3095 0.4460
10.2779 -5.1056 0.4243
10.2757 -4.0049 0.4078
10.2736 -2.9790 0.3955
10.2717 -2.0054 0.3870
11.9225 -1.2371 0.4432
11.9204 -0.1667 0.4408
11.9183 0.9008 0.4420
11.9161 1.9823 0.4467
11.9139 3.0963 0.4552
11.9116 4.2629 0.4678
11.9091 5.5063 0.4852
11.9064 6.8568 0.5080
11.9034 8.3535 0.5377
31.0547 26.2276 1.5030
28.5837 28.8909 1.5028
9.2181 11.1544 0.5351
20.2660 29.5449 1.3248
18.2033 32.4051 1.3743
15.7017 34.9351 1.4163
15.5745 45.0309 1.7619
-7.3272 24.2952 0.9383
-9.4474 23.4946 0.9364
-20.8010 40.7740 1.6926
-20.7992 22.7798 1.1406
-21.4612 19.6513 1.0760
-21.4547 16.3774 0.9981
-21.4490 13.5245 0.9376
-20.7749 10.6357 0.8630
-22.3704 9.0323 0.8921
-20.7662 6.2950 0.8024
-29.8642 6.2069 1.1279
-40.6210 1.0601 1.5025
-21.2782 -1.3492 0.7884
-21.2743 -3.2748 0.7959
-21.2704 -5.2537 0.8101
-21.2662 -7.3213 0.8317
-21.2619 -9.5198 0.8614
-21.2571 -11.9012 0.9008
-21.2518 -14.5330 0.9520
-10.8043 -8.9029 0.5177
-9.6718 -9.5418 0.5024
-9.4797 -11.1920 0.5423
-20.1491 -28.6250 1.2944
-6.5144 -11.2747 0.4815
-15.2326 -32.8227 1.3380
-13.8246 -38.4572 1.5111
-10.5778 -40.4655 1.5466
-7.0389 -41.9441 1.5726
-3.2977 -42.8222 1.5881
0.5407 -43.0560 1.5922
2.9163 -28.5002 1.0593
8.0557 -41.5763 1.5659
9.5612 -33.1502 1.2757
13.0348 -33.5854 1.3321
15.6986 -31.7153 1.3085
17.4804 -28.5726 1.2386
21.1996 -28.5652 1.3153
16.2416 -18.2267 0.9027
9.2389 -8.6677 0.4684
10.2837 -8.0490 0.4829
10.2810 -6.6579 0.4529
10.2785 -5.4201 0.4297
10.2762 -4.2946 0.4118
10.2742 -3.2509 0.3985
10.2722 -2.2651 0.3890
11.1819 -1.4348 0.4169
11.9210 -0.4557 0.4411
11.9188 0.6109 0.4413
11.9167 1.6869 0.4450
11.9145 2.7902 0.4525
11.9122 3.9403 0.4639
11.9098 5.1603 0.4799
11.9071 6.4783 0.5012
11.9042 7.9309 0.5289
29.7318 28.6300 1.5262
23.5511 27.1321 1.3285
21.1682 29.3122 1.3370
18.8331 31.7025 1.3635
16.3949 34.2348 1.4036
-6.6913 24.3013 0.9320
-9.4442 25.2358 0.9963
-11.1026 23.1306 0.9487
-24.2644 40.7623 1.7541
-24.6755 28.3759 1.3905
-21.4632 20.6308 1.1008
-21.4564 17.2169 1.0172
-21.4505 14.2630 0.9525
-21.4452 11.6429 0.9023
-22.3716 9.6695 0.9012
-22.3671 7.3764 0.8709
-26.6391 6.2133 1.0115
-40.3893 2.0339 1.4954
-21.2792 -0.8324 0.7874
-21.2754 -2.7493 0.7932
-20.7445 -4.5938 0.7856
-21.2674 -6.7502 0.8251
-21.2631 -8.9087 0.8525
-21.2584 -11.2346 0.8891
-21.2533 -13.7906 0.9368
-11.1135 -8.7145 0.5222
-9.9772 -9.3772 0.5063
-9.4803 -10.6582 0.5274
-20.9164 -28.2364 1.2993
-6.5206 -10.6797 0.4627
-15.2401 -30.8584 1.2726
-14.6445 -37.8332 1.5001
-11.4895 -39.9703 1.5378
-8.0218 -41.6003 1.5666
-4.3253 -42.6467 1.5850
-0.3114 -26.6972 0.9872
2.2571 -28.9719 1.0745
7.0741 -41.9228 1.5721
8.7917 -33.5095 1.2810
12.0010 -33.2907 1.3085
15.7027 -33.7563 1.3766
16.5440 -28.5745 1.2209
20.1467 -28.5673 1.2926
16.2434 -19.1428 0.9283
10.2879 -10.1314 0.5339
10.2845 -8.4593 0.4924
10.2817 -7.0176 0.4603
10.2791 -5.7429 0.4354
10.2768 -4.5903 0.4162
10.2747 -3.5270 0.4017
10.2727 -2.5276 0.3912
10.7460 -1.6443 0.4020
11.9215 -0.7452 0.4417
11.9194 0.3218 0.4409
11.9173 1.3935 0.4437
11.9151 2.4875 0.4501
11.9128 3.6229 0.4604
11.9104 4.8214 0.4751
11.9079 6.1097 0.4949
11.9051 7.5215 0.5207
11.9019 9.1022 0.5540
15.3308 14.0631 0.7693
24.0678 26.4071 1.3212
17.6661 23.2545 1.0799
19.5151 31.1092 1.3579
17.0642 33.5231 1.3909
-6.0636 24.3073 0.9264
-9.4406 27.2169 1.0652
-10.4204 23.1294 0.9380
-22.9484 40.7668 1.7299
-21.4652 21.6571 1.1275
-21.4581 18.0898 1.0378
-21.4520 15.0258 0.9685
-21.4466 12.3252 0.9147
-21.3559 9.8510 0.8696
-22.3683 7.9824 0.8782
-24.0161 6.2185 0.9173
-17.6458 2.9193 0.6614
-40.6725 3.0373 1.5081
-20.7531 -0.3087 0.7675
-21.2764 -2.2270 0.7910
-20.7456 -4.0695 0.7817
-21.2685 -6.1877 0.8190
-21.2643 -8.3096 0.8442
-21.2597 -10.5847 0.8782
-21.2548 -13.0712 0.9227
-20.8755 -15.5679 0.9629
-10.2836 -9.2065 0.5104
-9.4810 -10.1528 0.5137
-20.9203 -26.8566 1.2588
-6.8832 -10.6830 0.4699
-15.6605 -29.8651 1.2469
-15.2215 -36.6606 1.4678
-12.3782 -39.4377 1.5284
-8.9877 -41.2135 1.5598
-5.3438 -42.4243 1.5811
-1.5442 -43.0108 1.5914
2.3008 -42.9433 1.5902
4.1025 -28.5050 1.0649
8.1910 -34.6155 1.3153
9.4823 -28.4450 1.1087
14.8272 -34.0042 1.3717
15.6925 -28.6842 1.2090
19.1293 -28.5694 1.2713
23.0695 -28.5615 1.3576
10.2889 -10.6354 0.5472
10.2854 -8.8862 0.5026
10.2805 -6.4416 0.5234
10.2781 -5.2250 0.4975
10.2759 -4.1151 0.4776
10.2738 -3.0825 0.4628
10.2719 -2.1044 0.4524
11.9228 -1.3490 0.5177
11.9206 -0.2772 0.5145
11.9185 0.7897 0.5154
11.9163 1.8690 0.5204
11.9141 2.9787 0.5299
11.9118 4.1388 0.5441
11.9093 5.3730 0.5637
11.9067 6.7107 0.5897
11.9037 8.1901 0.6234
31.4198 26.0409 1.7608
29.0887 28.8612 1.7680
9.3662 11.1220 0.6274
20.1792 28.8416 1.5188
18.3909 32.0399 1.5940
15.9490 34.6236 1.6448
12.4104 48.0338 2.1406
-7.0828 24.2977 1.0920
-9.4463 24.1356 1.1183
-20.9724 42.0687 2.0282
-28.6537 38.3808 2.0666
-24.6738 27.5317 1.5951
-21.4619 20.0208 1.2664
-21.4553 16.6948 1.1730
-21.4495 13.8043 1.1006
-21.4444 11.2305 1.0445
-22.3709 9.2746 1.0449
-20.7667 6.5060 0.9390
-28.5460 6.2095 1.2605
-45.1167 5.6588 1.9619
-40.5278 1.4337 1.7497
-21.2786 -1.1513 0.9194
-21.2747 -3.0733 0.9275
-21.2708 -5.0451 0.9432
-21.2667 -7.1017 0.9674
-21.2623 -9.2844 1.0010
-21.2576 -11.6440 1.0458
-21.2524 -14.2461 1.1039
-9.8979 -8.0032 0.5492
-9.4823 -9.1830 0.5695
-9.4801 -10.9844 0.6260
-16.7414 -23.3216 1.2387
-6.5168 -11.0414 0.5532
-13.8772 -29.1903 1.3945
-11.3019 -30.5471 1.4053
-8.5882 -31.6520 1.4150
-5.7560 -32.4533 1.4221
-2.8436 -32.9355 1.4263
0.0878 -26.6975 1.1519
2.6882 -28.9144 1.2529
5.9673 -32.4029 1.4216
8.1845 -29.3976 1.3166
10.1090 -26.7801 1.2350
13.1167 -27.1289 1.3001
16.4043 -27.3806 1.3772
19.6760 -27.0324 1.4426
16.2423 -18.5713 1.0645
9.2565 -8.8470 0.5525
10.2840 -8.2041 0.5676
10.2812 -6.7942 0.5317
10.2787 -5.5427 0.5039
10.2765 -4.4071 0.4824
10.2744 -3.3560 0.4664
10.2724 -2.3652 0.4548
10.2734 -1.4151 0.4474
10.3030 -0.4895 0.4450
11.9191 0.5002 0.5147
11.9169 1.5744 0.5186
11.9147 2.6740 0.5269
11.9124 3.8183 0.5397
11.9100 5.0298 0.5578
11.9074 6.3361 0.5820
11.9046 7.7727 0.6134
11.9013 9.3871 0.6540
29.2677 27.6648 1.7377
16.8365 19.0371 1.0965
21.0973 28.6507 1.5352
19.1294 31.5322 1.5913
16.6607 33.9778 1.6328
13.6557 48.0198 2.1540
-6.4502 24.3038 1.0849
-9.4429 25.9630 1.1920
-10.8394 23.1294 1.1021
-23.6533 40.5871 2.0269
-31.1633 36.5150 2.0713
-21.4639 21.0177 1.2962
-21.4570 17.5468 1.1959
-21.4510 14.5519 1.1184
-21.4457 11.9018 1.0583
-22.2198 9.8492 1.0487
-22.3675 7.6071 1.0194
-25.5742 6.2154 1.1356
-44.9506 6.7475 1.9612
-40.4678 2.4141 1.7492
-20.7525 -0.6192 0.8958
-21.2758 -2.5491 0.9245
-20.7449 -4.3925 0.9149
-21.2678 -6.5340 0.9600
-21.2635 -8.6780 0.9909
-21.2589 -10.9840 1.0324
-21.2539 -13.5128 1.0867
-10.4050 -8.0043 0.5664
-9.4828 -8.7485 0.5567
-9.4807 -10.4618 0.6092
-17.3176 -22.9308 1.2398
-6.6587 -10.6821 0.5431
-14.5690 -28.8235 1.3935
-12.0121 -30.1982 1.4022
-9.3365 -31.3818 1.4127
-6.5329 -32.2672 1.4205
-3.6382 -32.8370 1.4255
-0.6925 -33.0800 1.4276
2.2628 -32.9911 1.4268
5.1862 -32.5722 1.4231
8.0368 -31.8318 1.4165
9.4631 -27.0333 1.2358
12.2627 -27.0132 1.2800
15.4935 -27.3415 1.3559
18.7844 -27.1666 1.4251
16.2442 -19.5073 1.0953
10.2883 -10.3214 0.6288
10.2849 -8.6206 0.5790
10.2820 -7.1584 0.5406
10.2794 -5.8687 0.5107
10.2771 -4.7052 0.4877
10.2749 -3.6339 0.4702
10.2729 -2.6288 0.4575
10.2710 -1.6692 0.4490
10.3302 -0.7419 0.4469
10.2927 0.1824 0.4442
11.9175 1.2817 0.5172
11.9153 2.3725 0.5242
11.9131 3.5027 0.5358
11.9107 4.6935 0.5524
11.9082 5.9711 0.5748
11.9054 7.3682 0.6041
11.9023 8.9288 0.6420
35.3052 31.7884 2.0498
24.2710 26.1392 1.5390
17.8584 23.0608 1.2585
19.7634 30.8658 1.5814
17.3525 33.3219 1.6210
13.9897 45.0198 2.0341
10.4744 48.6958 2.1491
-5.8996 24.6195 1.0923
-10.1631 23.1282 1.0900
-19.9300 36.1853 1.7824
-29.1586 35.8913 1.9952
-21.1018 21.6889 1.3056
-21.4588 18.4333 1.2206
-21.4526 15.3245 1.1375
-21.4471 12.5915 1.0731
-20.8478 9.8520 0.9949
-22.3687 8.2172 1.0282
-23.1370 6.2203 1.0337
-45.2149 7.9115 1.9805
-40.8671 3.4330 1.7695
-20.7535 -0.1164 0.8955
-21.2768 -2.0278 0.9222
-20.7460 -3.8703 0.9106
-21.2689 -5.9746 0.9532
-21.2647 -8.0834 0.9816
-21.2602 -10.3401 1.0200
-21.2553 -12.8015 1.0706
-10.9452 -8.0056 0.5851
-9.4834 -8.3330 0.5447
-9.4813 -9.9663 0.5935
-18.0082 -22.6812 1.2496
-7.0262 -10.6861 0.5518
-15.2138 -28.3707 1.3890
-12.7105 -29.8291 1.3990
-10.0755 -31.0897 1.4101
-7.3030 -32.0579 1.4186
-4.4291 -32.7146 1.4244
-1.4932 -33.0468 1.4273
1.4636 -33.0479 1.4273
3.9108 -29.0821 1.2661
7.2740 -32.0634 1.4186
8.8105 -27.2699 1.2365
11.4251 -26.8793 1.2602
14.5974 -27.2801 1.3349
17.9041 -27.2834 1.4080
21.2103 -26.7636 1.4734
10.2893 -10.8351 0.6447
10.2857 -9.0544 0.5912
10.2827 -7.5351 0.5500
10.2801 -6.2040 0.5181
10.2777 -5.0100 0.4933
10.2755 -3.9166 0.4745
10.2735 -2.8958 0.4605
10.2715 -1.9257 0.4509
11.9223 -1.1471 0.5168
11.9202 -0.0775 0.5143
11.9181 0.9904 0.5160
11.9159 2.0740 0.5219
11.9137 3.1915 0.5322
11.9114 4.3635 0.5473
11.9089 5.6147 0.5681
11.9062 6.9757 0.5954
11.9031 8.4868 0.6308
30.9073 26.5016 1.7567
28.3035 29.0388 1.7496
9.1768 11.2750 0.6272
9.2303 13.6745 0.7118
17.9489 32.5194 1.6026
15.1977 45.0283 2.0505
11.5932 48.1882 2.1385
-5.9291 27.6851 1.2216
-7.5252 24.2935 1.0973
-9.5011 23.1270 1.0788
-21.0573 40.5250 1.9705
-17.6108 22.7832 1.2425
-20.7985 22.4397 1.3201
-21.4606 19.3577 1.2470
-21.4542 16.1246 1.1580
-21.4485 13.3012 1.0889
-20.7745 10.4402 1.0032
-22.3700 8.8383 1.0378
-21.1000 6.2244 0.9492
-31.0151 6.2046 1.3647
-45.2152 4.9036 1.9623
-40.8428 0.7604 1.7625
-21.2779 -1.5089 0.9204
-21.2740 -3.4378 0.9298
-21.2700 -5.4227 0.9471
-21.2659 -7.4995 0.9729
-21.2615 -9.7112 1.0085
-21.2567 -12.1106 1.0556
-21.2514 -14.7672 1.1166
-9.6387 -8.0642 0.5422
-9.4819 -9.4954 0.5790
-9.4796 -11.3632 0.6385
-16.3383 -23.5838 1.2379
-6.5123 -11.4683 0.5690
-13.3963 -29.4402 1.3956
-10.8043 -30.7762 1.4073
-8.0656 -31.8257 1.4166
-5.2155 -32.5683 1.4231
-2.2924 -32.9893 1.4268
0.6629 -33.0805 1.4276
3.6087 -32.8398 1.4254
6.5037 -32.2721 1.4204
8.2044 -27.6674 1.2451
10.6041 -26.7282 1.2407
13.7165 -27.1976 1.3143
17.0353 -27.3831 1.3914
20.2992 -26.9290 1.4550
10.2904 -11.3757 0.6618
9.3078 -8.6024 0.5468
10.2835 -7.9256 0.5602
10.2807 -6.5492 0.5259
10.2783 -5.3222 0.4994
10.2761 -4.2046 0.4791
10.2740 -3.1665 0.4639
10.2720 -2.1846 0.4531
10.3312 -1.2472 0.4490
11.9208 -0.3664 0.5146
11.9187 0.7003 0.5151
11.9165 1.7779 0.5198
11.9143 2.8843 0.5289
11.9120 4.0393 0.5427
11.9096 5.2663 0.5619
11.9069 6.5940 0.5873
11.9040 8.0598 0.6203
37.1888 30.3561 2.0713
29.4446 28.7808 1.7765
16.5195 19.3213 1.0968
20.3659 28.6500 1.5167
18.6092 31.8660 1.5922
16.1457 34.3719 1.6385
12.7897 48.0163 2.1440
-6.8867 24.2996 1.0897
-9.4453 24.6751 1.1400
-28.3585 38.5839 2.0661
-24.6747 27.9503 1.6087
-21.4626 20.3236 1.2753
-21.4558 16.9543 1.1799
-21.4500 14.0326 1.1060
-21.4448 11.4358 1.0486
-22.3713 9.4714 1.0482
-20.7670 6.6770 0.9412
-27.5613 6.2114 1.2190
-45.0684 5.9954 1.9617
-40.4181 1.7325 1.7455
-21.2789 -0.9918 0.9191
-21.2751 -2.9112 0.9265
-21.2711 -4.8775 0.9416
-21.2670 -6.9256 0.9650
-21.2627 -9.0960 0.9978
-21.2580 -11.4384 1.0416
-21.2529 -14.0173 1.0985
-10.0511 -8.0035 0.5544
-9.4825 -9.0467 0.5655
-9.4803 -10.8201 0.6207
-16.9201 -23.2024 1.2390
-6.5187 -10.8583 0.5464
-14.0918 -29.0790 1.3942
-11.5224 -30.4416 1.4044
-8.8201 -31.5709 1.4143
-5.9965 -32.3984 1.4216
-3.0892 -32.9076 1.4261
-0.1385 -33.0886 1.4277
2.4682 -28.8899 1.2510
5.7268 -32.4576 1.4221
8.1787 -30.2504 1.3521
9.9104 -26.8600 1.2353
12.8514 -27.0952 1.2939
16.1217 -27.3710 1.3706
19.3996 -27.0757 1.4371
16.2429 -18.8545 1.0737
10.2876 -9.9807 0.6184
10.2843 -8.3309 0.5710
10.2814 -6.9054 0.5344
10.2789 -5.6424 0.5059
10.2767 -4.4984 0.4840
10.2745 -3.4413 0.4675
10.2726 -2.4462 0.4556
10.2734 -1.4935 0.4479
11.9214 -0.6557 0.5151
11.9192 0.4109 0.5146
11.9171 1.4839 0.5182
11.9149 2.5806 0.5260
11.9126 3.7204 0.5385
11.9102 4.9253 0.5561
11.9077 6.2225 0.5797
11.9048 7.6465 0.6105
11.9016 9.2438 0.6502
15.2899 14.2375 0.9014
16.9780 18.9102 1.0965
17.5106 23.4111 1.2614
19.3038 31.2896 1.5863
16.8588 33.7413 1.6274
-6.2566 24.3057 1.0829
-9.4418 26.5768 1.2169
-10.6290 23.1290 1.0983
-30.8844 36.7409 2.0709
-21.4646 21.3350 1.3058
-21.4575 17.8166 1.2034
-21.4515 14.7876 1.1242
-21.4462 12.1126 1.0627
-21.7806 9.8501 1.0314
-22.3679 7.7943 1.0220
-24.7722 6.2170 1.1020
-17.7395 2.7987 0.7749
-40.5000 2.7200 1.7514
-20.7528 -0.4640 0.8956
-21.2761 -2.3879 0.9238
-20.7453 -4.2308 0.9135
-21.2682 -6.3605 0.9578
-21.2639 -8.4933 0.9879
-21.2593 -10.7836 1.0285
-21.2543 -13.2910 1.0816
-10.5681 -8.0047 0.5720
-9.4830 -8.6183 0.5529
-9.4809 -10.3061 0.6042
-17.5144 -22.8343 1.2417
-6.7709 -10.6833 0.5457
-14.7805 -28.7068 1.3931
-12.2290 -30.0864 1.4013
-9.5656 -31.2939 1.4119
-6.7713 -32.2051 1.4199
-3.8828 -32.8018 1.4252
-0.9398 -33.0723 1.4275
2.0164 -33.0112 1.4270
4.3914 -28.9740 1.2644
7.8022 -31.9057 1.4172
9.2624 -27.1081 1.2360
12.0024 -26.9738 1.2738
15.2153 -27.3248 1.3494
18.5114 -27.2045 1.4197
16.2448 -19.8074 1.1053
10.2886 -10.4772 0.6336
10.2851 -8.7526 0.5827
10.2822 -7.2733 0.5434
10.2796 -5.9712 0.5129
10.2772 -4.7985 0.4894
10.2751 -3.7206 0.4715
10.2731 -2.7109 0.4584
10.2712 -1.7482 0.4495
11.9219 -0.9458 0.5160
11.9198 0.1221 0.5143
11.9177 1.1916 0.5168
11.9155 2.2801 0.5234
11.9133 3.4061 0.5346
11.9109 4.5910 0.5508
11.9084 5.8601 0.5727
11.9056 7.2458 0.6013
11.9025 8.7907 0.6384
30.7298 27.2554 1.7723
30.2598 32.1042 1.9035
18.0133 22.9049 1.2573
19.9736 30.6863 1.5798
17.5507 33.0962 1.6164
14.3604 45.0224 2.0390
10.8121 48.4989 2.1439
-5.9081 25.4944 1.1292
-9.9573 23.1278 1.0864
-17.6854 32.6860 1.6035
-28.7855 35.9783 1.9881
-20.7970 21.6978 1.2968
-21.4593 18.7145 1.2285
-21.4531 15.5684 1.1437
-21.4475 12.8083 1.0778
-20.7737 10.0076 0.9949
-22.3691 8.4076 1.0311
-22.4704 6.2216 1.0060
-33.9300 6.1987 1.4882
-41.2641 3.7773 1.7879
-41.6224 0.0779 1.7959
-21.2771 -1.8674 0.9216
-20.8601 -3.7304 0.9143
-21.2693 -5.8034 0.9512
-21.2651 -7.9021 0.9788
-21.2606 -10.1444 1.0164
-21.2557 -12.5862 1.0658
-11.1193 -8.0060 0.5912
-9.4835 -8.2083 0.5412
-9.4815 -9.8185 0.5889
-18.2286 -22.6098 1.2531
-7.1420 -10.6873 0.5546
-6.5076 -11.9205 0.5860
-12.9236 -29.7111 1.3979
-10.3016 -30.9952 1.4093
-7.5393 -31.9886 1.4180
-4.6724 -32.6720 1.4240
-1.7402 -33.0317 1.4272
1.2166 -33.0606 1.4274
4.0368 -31.8188 1.3839
7.0370 -32.1303 1.4192
8.6078 -27.3395 1.2367
11.1699 -26.8345 1.2541
14.3239 -27.2568 1.3285
17.6348 -27.3159 1.4028
20.9279 -26.8167 1.4677
10.2896 -10.9989 0.6499
10.2860 -9.1920 0.5952
10.2829 -7.6542 0.5531
10.2803 -6.3095 0.5204
10.2779 -5.1056 0.4952
10.2757 -4.0049 0.4758
10.2736 -2.9790 0.4615
10.2717 -2.0054 0.4516
11.9225 -1.2371 0.5172
11.9204 -0.1667 0.5144
11.9183 0.9007 0.5157
11.9161 1.9823 0.5212
11.9139 3.0963 0.5311
11.9116 4.2629 0.5459
11.9091 5.5063 0.5661
11.9064 6.8568 0.5928
11.9034 8.3535 0.6274
31.0327 26.2089 1.7526
28.6521 28.9600 1.7577
9.2179 11.1541 0.6243
19.9469 29.0797 1.5215
18.2295 32.4517 1.6060
15.7140 34.9624 1.6539
15.5745 45.0309 2.0559
11.9529 48.0994 2.1385
-7.3272 24.2954 1.0949
-9.4474 23.4947 1.0926
-20.8010 40.7740 1.9750
-29.0176 38.1260 2.0673
-20.7992 22.7798 1.3309
-21.4612 19.6513 1.2555
-21.4547 16.3774 1.1646
-21.4490 13.5245 1.0941
-20.7749 10.6357 1.0070
-22.3704 9.0323 1.0409
-20.7662 6.2950 0.9363
-29.8642 6.2069 1.3161
-45.1730 5.2410 1.9621
-40.6210 1.0601 1.7533
-21.2782 -1.3492 0.9199
-21.2743 -3.2748 0.9287
-21.2704 -5.2537 0.9453
-21.2662 -7.3213 0.9704
-21.2619 -9.5198 1.0051
-21.2571 -11.9012 1.0511
-21.2518 -14.5330 1.1108
-9.7218 -8.0110 0.5435
-9.4821 -9.3546 0.5747
-9.4798 -11.1922 0.6328
-16.5187 -23.4675 1.2382
-6.5143 -11.2747 0.5618
-13.6099 -29.3261 1.3949
-11.0271 -30.6752 1.4064
-8.2994 -31.7495 1.4159
-5.4571 -32.5184 1.4227
-2.5387 -32.9667 1.4266
0.4155 -33.0856 1.4276
3.3637 -32.8725 1.4257
6.2645 -32.3319 1.4209
8.1923 -28.4042 1.2755
10.3540 -26.6782 1.2347
13.4478 -27.1681 1.3079
16.7566 -27.3895 1.3854
20.0203 -26.9762 1.4494
16.2416 -18.2267 1.0533
9.2386 -8.6675 0.5466
10.2837 -8.0490 0.5635
10.2810 -6.6579 0.5285
10.2785 -5.4201 0.5014
10.2762 -4.2946 0.4805
10.2742 -3.2509 0.4650
10.2722 -2.2651 0.4539
10.5942 -1.3594 0.4608
11.9210 -0.4557 0.5147
11.9188 0.6109 0.5149
11.9167 1.6869 0.5193
11.9145 2.7902 0.5280
11.9122 3.9403 0.5414
11.9098 5.1603 0.5600
11.9071 6.4783 0.5849
11.9042 7.9309 0.6172
37.4147 30.0772 2.0713
29.8040 28.6995 1.7852
16.6610 19.1944 1.0967
20.5521 28.4591 1.5146
18.8711 31.7664 1.5942
16.3865 34.2172 1.6369
13.1753 48.0174 2.1484
-6.6914 24.3015 1.0875
-9.4442 25.2358 1.1626
-11.1022 23.1298 1.1070
-24.6755 28.3759 1.6225
-21.4632 20.6308 1.2845
-21.4563 17.2169 1.1870
-21.4505 14.2630 1.1114
-21.4452 11.6429 1.0529
-22.3716 9.6695 1.0516
-22.3671 7.3764 1.0162
-26.6391 6.2133 1.1802
-45.0174 6.3315 1.9615
-40.3893 2.0339 1.7449
-21.2792 -0.8324 0.9188
-21.2754 -2.7493 0.9256
-20.7445 -4.5938 0.9167
-21.2674 -6.7502 0.9627
-21.2631 -8.9087 0.9947
-21.2584 -11.2346 1.0374
-21.2533 -13.7906 1.0931
-10.2073 -8.0039 0.5597
-9.4826 -8.9124 0.5615
-9.4805 -10.6584 0.6155
-17.0981 -23.0819 1.2394
-6.5211 -10.6806 0.5399
-14.3055 -28.9660 1.3939
-11.7417 -30.3341 1.4034
-9.0512 -31.4877 1.4136
-6.2363 -32.3412 1.4211
-3.3345 -32.8776 1.4258
-0.3114 -26.6972 1.1520
2.2681 -29.1128 1.2599
5.4858 -32.5102 1.4225
8.1726 -31.1500 1.3895
9.7110 -26.9384 1.2355
12.5876 -27.0597 1.2877
15.8403 -27.3591 1.3640
19.1242 -27.1174 1.4317
16.2434 -19.1428 1.0832
10.2879 -10.1314 0.6230
10.2845 -8.4593 0.5746
10.2817 -7.0176 0.5371
10.2791 -5.7429 0.5080
10.2768 -4.5903 0.4856
10.2747 -3.5270 0.4687
10.2727 -2.5276 0.4564
10.2734 -1.5720 0.4484
11.9215 -0.7452 0.5154
11.9194 0.3218 0.5145
11.9173 1.3935 0.5177
11.9151 2.4875 0.5252
11.9128 3.6229 0.5372
11.9104 4.8214 0.5544
11.9079 6.1097 0.5775
11.9051 7.5215 0.6076
11.9019 9.1022 0.6465
15.3304 14.0627 0.8976
24.1326 26.4781 1.5458
17.6661 23.2545 1.2600
19.4728 31.0419 1.5811
17.0268 33.4497 1.6195
-6.0636 24.3075 1.0809
-9.4406 27.2170 1.2430
-10.4201 23.1286 1.0945
-23.6815 42.0691 2.0830
-30.6003 36.9604 2.0703
-21.4652 21.6571 1.3156
-21.4581 18.0898 1.2109
-21.4520 15.0258 1.1300
-21.4466 12.3252 1.0673
-21.3559 9.8510 1.0147
-22.3683 7.9824 1.0247
-24.0161 6.2185 1.0704
-17.6454 2.9192 0.7717
-40.6725 3.0373 1.7598
-20.7531 -0.3087 0.8955
-21.2764 -2.2270 0.9230
-20.7456 -4.0695 0.9122
-21.2685 -6.1877 0.9557
-21.2643 -8.3096 0.9850
-21.2597 -10.5847 1.0247
-21.2548 -13.0712 1.0766
-10.7343 -8.0051 0.5778
-9.4832 -8.4899 0.5492
-9.4811 -10.1529 0.5994
-17.7347 -22.7672 1.2452
-6.8842 -10.6845 0.5484
-14.9910 -28.5883 1.3928
-12.4447 -29.9727 1.4003
-9.7939 -31.2040 1.4111
-7.0092 -32.1407 1.4193
-4.1270 -32.7643 1.4248
-1.1870 -33.0624 1.4274
1.7696 -33.0290 1.4271
4.1563 -28.8784 1.2588
7.5668 -31.9775 1.4178
9.0610 -27.1813 1.2362
11.7437 -26.9327 1.2677
14.9386 -27.3061 1.3429
18.2397 -27.2407 1.4145
21.5621 -26.6953 1.4806
10.2889 -10.6354 0.6385
10.2854 -8.8863 0.5865
10.2805 -6.4416 0.5983
10.2781 -5.2250 0.5687
10.2759 -4.1151 0.5459
10.2738 -3.0825 0.5290
10.2719 -2.1044 0.5171
11.9228 -1.3490 0.5918
11.9206 -0.2772 0.5881
11.9185 0.7897 0.5891
11.9163 1.8690 0.5949
11.9141 2.9787 0.6057
11.9118 4.1388 0.6219
11.9093 5.3730 0.6444
11.9067 6.7107 0.6741
11.9037 8.1901 0.7126
32.3346 26.7991 2.0713
29.1588 28.9309 2.0259
9.3657 11.1214 0.7171
20.8272 29.7677 1.7918
18.4652 32.1693 1.8294
15.9539 34.6341 1.8807
15.0952 42.3697 2.2183
11.2515 43.5483 2.2183
7.3759 44.7301 2.2359
3.3547 45.2435 2.2375
-0.6997 45.4288 2.2408
-4.7668 45.3114 2.2471
-8.7783 44.6258 2.2431
-7.0829 24.2979 1.2483
-9.4463 24.1357 1.2783
-18.7127 37.5358 2.0686
-22.0184 35.7616 2.0713
-25.1104 33.6347 2.0702
-24.6738 27.5316 1.8234
-21.4620 20.0208 1.4476
-21.4553 16.6948 1.3408
-21.4495 13.8043 1.2580
-21.4444 11.2305 1.1939
-22.3709 9.2746 1.1944
-20.7667 6.5060 1.0733
-28.5460 6.2095 1.4408
-38.8948 4.8785 1.9333
-37.9150 1.3413 1.8711
-21.2786 -1.1513 1.0510
-21.2747 -3.0733 1.0602
-21.2708 -5.0451 1.0782
-21.2667 -7.1017 1.1058
-21.2623 -9.2844 1.1443
-21.2576 -11.6440 1.1954
-21.2524 -14.2461 1.2619
-9.9005 -8.0053 0.6279
-9.4824 -9.1831 0.6510
-9.4802 -10.9846 0.7156
-15.2289 -21.2146 1.2880
-6.5168 -11.0414 0.6323
-12.0572 -25.3619 1.3850
-9.7533 -26.3614 1.3863
-7.3730 -27.1733 1.3886
-4.9231 -27.7571 1.3903
-2.4266 -28.1063 1.3913
0.0882 -26.8013 1.3218
2.6114 -28.0885 1.3913
5.1052 -27.7216 1.3902
7.5506 -27.1206 1.3884
8.8664 -23.4884 1.2382
11.0842 -22.9251 1.2559
13.6858 -22.8432 1.3133
16.3927 -22.5215 1.3738
16.2423 -18.5713 1.2168
9.2282 -8.8200 0.6296
10.2840 -8.2041 0.6488
10.2812 -6.7942 0.6078
10.2787 -5.5427 0.5759
10.2765 -4.4071 0.5515
10.2744 -3.3560 0.5331
10.2724 -2.3652 0.5199
10.2734 -1.4151 0.5115
11.9212 -0.5664 0.5886
11.9191 0.5002 0.5884
11.9169 1.5744 0.5928
11.9147 2.6740 0.6022
11.9124 3.8183 0.6170
11.9100 5.0298 0.6376
11.9074 6.3361 0.6652
11.9046 7.7727 0.7012
11.9013 9.3871 0.7476
29.3682 27.7598 1.9931
16.8363 19.0369 1.2534
17.2358 23.4066 1.4336
19.1353 31.5418 1.8195
16.6605 33.9773 1.8664
16.1170 41.9917 2.2183
12.3030 43.2630 2.2183
8.4548 44.5264 2.2353
4.4488 45.1417 2.2372
0.4003 45.3815 2.2383
-3.6673 45.4052 2.2467
-7.6999 44.8546 2.2446
-6.4503 24.3040 1.2402
-9.4429 25.9630 1.3626
-10.8390 23.1286 1.2598
-21.1458 36.2844 2.0713
-24.2994 34.2485 2.0711
-27.2130 31.8862 2.0675
-21.4639 21.0177 1.4816
-21.4570 17.5468 1.3671
-21.4510 14.5519 1.2784
-21.4457 11.9018 1.2097
-22.2198 9.8492 1.1987
-22.3675 7.6071 1.1652
-25.5743 6.2154 1.2980
-38.7526 5.8172 1.9327
-37.9472 2.2637 1.8749
-20.7525 -0.6192 1.0240
-21.2758 -2.5491 1.0568
-20.7449 -4.3925 1.0458
-21.2678 -6.5340 1.0973
-21.2635 -8.6780 1.1327
-21.2589 -10.9840 1.1802
-21.2539 -13.5128 1.2422
-10.4078 -8.0065 0.6476
-9.4830 -8.7486 0.6363
-9.4809 -10.4620 0.6963
-15.3566 -20.3341 1.2567
-6.6597 -10.6836 0.6209
-12.6756 -25.0777 1.3858
-10.3832 -26.1033 1.3855
-8.0256 -26.9756 1.3881
-5.5924 -27.6219 1.3899
-3.1062 -28.0352 1.3911
-0.5906 -28.2108 1.3916
1.9305 -28.1470 1.3915
4.4334 -27.8443 1.3906
6.8942 -27.3062 1.3890
8.2910 -23.6850 1.2376
10.3999 -22.9098 1.2409
12.9698 -22.8878 1.2975
15.6503 -22.6341 1.3572
16.2442 -19.5073 1.2520
10.2883 -10.3214 0.7187
10.2849 -8.6206 0.6619
10.2820 -7.1584 0.6179
10.2794 -5.8687 0.5838
10.2771 -4.7052 0.5575
10.2749 -3.6339 0.5375
10.2729 -2.6288 0.5230
10.2710 -1.6692 0.5132
10.3302 -0.7419 0.5108
10.2927 0.1824 0.5077
11.9175 1.2817 0.5912
11.9153 2.3725 0.5992
11.9131 3.5027 0.6124
11.9107 4.6935 0.6314
11.9082 5.9711 0.6570
11.9054 7.3682 0.6905
11.9023 8.9288 0.7338
31.2099 28.1010 2.0713
24.3653 26.2408 1.7661
17.7416 22.9098 1.4291
19.7176 30.7942 1.8034
17.3505 33.3181 1.8527
15.9568 38.7421 2.0665
13.3472 42.9523 2.2183
9.5096 44.2102 2.2303
5.5398 45.0122 2.2368
1.4992 45.3521 2.2380
-2.5641 45.4397 2.2447
-6.6154 45.0561 2.2460
-5.8996 24.6192 1.2486
-14.4483 42.9352 2.2342
-10.1628 23.1274 1.2459
-17.9987 32.6788 1.8400
-23.4648 34.8298 2.0713
-26.4457 32.5520 2.0685
-21.1019 21.6889 1.4925
-21.4588 18.4333 1.3952
-21.4526 15.3245 1.3003
-21.4471 12.5915 1.2266
-20.8478 9.8520 1.1372
-22.3687 8.2172 1.1753
-23.1370 6.2203 1.1816
-38.6649 6.7654 1.9359
-38.3829 3.2243 1.8997
-20.7535 -0.1164 1.0236
-21.2768 -2.0278 1.0541
-20.7460 -3.8703 1.0408
-21.2689 -5.9746 1.0896
-21.2647 -8.0834 1.1220
-21.2602 -10.3401 1.1660
-21.2553 -12.8015 1.2238
-10.9483 -8.0078 0.6690
-9.4835 -8.3331 0.6226
-9.4815 -9.9665 0.6784
-15.8816 -20.0028 1.2597
-7.0273 -10.6876 0.6308
-13.2878 -24.7792 1.3867
-11.0061 -25.8292 1.3847
-8.6727 -26.7612 1.3874
-6.2577 -27.4696 1.3895
-3.7836 -27.9465 1.3909
-1.2736 -28.1869 1.3916
1.2483 -28.1879 1.3916
3.7585 -27.9498 1.3909
6.2330 -27.4750 1.3895
8.1863 -25.3378 1.3133
9.8296 -23.1257 1.2393
12.2620 -22.9154 1.2818
14.9144 -22.7274 1.3407
17.6617 -22.2859 1.4024
10.2893 -10.8351 0.7369
10.2857 -9.0544 0.6758
10.2827 -7.5352 0.6287
10.2801 -6.2040 0.5922
10.2777 -5.0100 0.5639
10.2755 -3.9166 0.5423
10.2735 -2.8958 0.5264
10.2715 -1.9257 0.5154
11.9223 -1.1471 0.5907
11.9202 -0.0775 0.5879
11.9181 0.9904 0.5898
11.9159 2.0740 0.5965
11.9137 3.1915 0.6083
11.9114 4.3635 0.6256
11.9089 5.6147 0.6493
11.9062 6.9757 0.6806
11.9031 8.4868 0.7210
30.9320 26.5228 2.0096
28.3711 29.1082 2.0047
9.1760 11.2741 0.7169
9.2303 13.6745 0.8137
17.9888 32.5916 1.8360
16.8988 38.3633 2.0675
14.3836 42.6164 2.2183
10.5262 43.7530 2.2195
6.6270 44.8549 2.2363
2.5969 45.2975 2.2377
-1.4614 45.4437 2.2424
-5.5241 45.2190 2.2468
-5.9290 27.6847 1.3964
-7.5252 24.2936 1.2543
-9.5008 23.1263 1.2331
-19.3495 37.2383 2.0697
-22.6141 35.3879 2.0713
-17.5590 22.7161 1.4160
-20.7985 22.4397 1.5090
-21.4606 19.3577 1.4254
-21.4542 16.1246 1.3237
-21.4485 13.3012 1.2447
-20.7745 10.4402 1.1467
-22.3700 8.8383 1.1863
-21.1000 6.2244 1.0850
-31.0152 6.2046 1.5600
-38.8033 4.2083 1.9250
-37.9345 0.7062 1.8713
-21.2779 -1.5089 1.0521
-21.2740 -3.4378 1.0628
-21.2700 -5.4227 1.0826
-21.2659 -7.4996 1.1121
-21.2615 -9.7112 1.1528
-21.2567 -12.1106 1.2066
-21.2514 -14.7672 1.2763
-9.5674 -8.0045 0.6152
-9.4821 -9.4955 0.6618
-9.4798 -11.3633 0.7299
-15.2227 -21.9735 1.3184
-6.5123 -11.4683 0.6504
-11.6261 -25.5499 1.3844
-9.3138 -26.5305 1.3868
-6.9187 -27.3003 1.3890
-4.4584 -27.8405 1.3906
-1.9558 -28.1453 1.3915
0.5653 -28.2113 1.3916
3.0811 -28.0378 1.3911
5.5675 -27.6267 1.3899
8.0013 -26.9825 1.3880
9.2617 -23.3447 1.2387
11.5625 -22.9266 1.2664
14.1854 -22.8021 1.3244
16.9095 -22.4322 1.3855
10.2904 -11.3757 0.7565
9.2950 -8.5906 0.6242
10.2835 -7.9256 0.6403
10.2807 -6.5492 0.6012
10.2783 -5.3222 0.5708
10.2761 -4.2046 0.5476
10.2740 -3.1665 0.5302
10.2720 -2.1846 0.5179
10.3312 -1.2472 0.5132
11.9208 -0.3664 0.5882
11.9187 0.7003 0.5888
11.9165 1.7779 0.5942
11.9143 2.8843 0.6046
11.9120 4.0393 0.6204
11.9096 5.2663 0.6422
11.9069 6.5940 0.6713
11.9040 8.0598 0.7090
32.5341 26.5566 2.0713
30.0327 29.3556 2.0713
16.5194 19.3211 1.2537
21.0589 29.6248 1.7926
18.6491 31.9344 1.8239
16.1786 34.4420 1.8768
15.4116 42.2557 2.2183
11.5769 43.4629 2.2183
7.7095 44.6702 2.2357
3.6927 45.2150 2.2374
-0.3599 45.4174 2.2401
-4.4281 45.3483 2.2472
-8.4461 44.6994 2.2436
-6.8867 24.2998 1.2457
-9.4453 24.6751 1.3031
-18.4263 37.6639 2.0680
-21.7504 35.9252 2.0713
-24.8617 33.8262 2.0705
-24.6747 27.9503 1.8388
-21.4626 20.3236 1.4578
-21.4558 16.9543 1.3487
-21.4500 14.0326 1.2642
-21.4448 11.4358 1.1986
-22.3713 9.4714 1.1982
-20.7670 6.6770 1.0759
-27.5613 6.2114 1.3934
-38.8535 5.1687 1.9331
-37.9022 1.6247 1.8711
-21.2789 -0.9918 1.0506
-21.2751 -2.9112 1.0591
-21.2711 -4.8775 1.0763
-21.2670 -6.9256 1.1031
-21.2627 -9.0960 1.1406
-21.2580 -11.4384 1.1906
-21.2529 -14.0173 1.2556
-10.0538 -8.0057 0.6339
-9.4826 -9.0469 0.6464
-9.4804 -10.8202 0.7095
-15.2316 -20.8870 1.2750
-6.5187 -10.8583 0.6246
-12.2487 -25.2758 1.3853
-9.9485 -26.2834 1.3860
-7.5750 -27.1141 1.3885
-5.1301 -27.7172 1.3902
-2.6366 -28.0862 1.3913
-0.1181 -28.2171 1.3917
2.4014 -28.1084 1.3913
4.8982 -27.7613 1.3903
7.3485 -27.1797 1.3886
8.6893 -23.5505 1.2380
10.8720 -22.9219 1.2512
13.4640 -22.8588 1.3084
16.1629 -22.5584 1.3687
16.2429 -18.8545 1.2274
10.2876 -9.9807 0.7069
10.2843 -8.3309 0.6528
10.2814 -6.9054 0.6108
10.2789 -5.6424 0.5783
10.2767 -4.4984 0.5533
10.2745 -3.4413 0.5344
10.2726 -2.4462 0.5208
10.2734 -1.4935 0.5120
11.9214 -0.6557 0.5888
11.9192 0.4109 0.5882
11.9171 1.4839 0.5923
11.9149 2.5806 0.6013
11.9126 3.7204 0.6155
11.9102 4.9253 0.6357
11.9077 6.2225 0.6626
11.9048 7.6466 0.6978
11.9016 9.2438 0.7432
15.2890 14.2367 1.0303
16.9778 18.9100 1.2534
17.3922 23.2529 1.4321
19.2953 31.2759 1.8125
16.8823 33.7883 1.8629
15.3017 38.9935 2.0659
12.6261 43.1698 2.2183
8.7867 44.4580 2.2351
4.7860 45.1047 2.2371
0.7397 45.3735 2.2381
-3.3268 45.4191 2.2461
-7.3657 44.9197 2.2450
-6.2566 24.3058 1.2378
-9.4418 26.5769 1.3910
-10.6287 23.1282 1.2554
-20.8738 36.4415 2.0713
-24.0445 34.4320 2.0713
-26.9780 32.0937 2.0678
-21.4646 21.3350 1.4926
-21.4575 17.8166 1.3755
-21.4515 14.7876 1.2850
-21.4462 12.1126 1.2148
-21.7806 9.8501 1.1790
-22.3679 7.7943 1.1682
-24.7722 6.2170 1.2597
-17.7387 2.7985 0.8857
-38.0833 2.5577 1.8825
-20.7528 -0.4640 1.0238
-21.2761 -2.3879 1.0559
-20.7453 -4.2308 1.0442
-21.2682 -6.3605 1.0948
-21.2639 -8.4933 1.1293
-21.2593 -10.7836 1.1757
-21.2543 -13.2910 1.2363
-10.5710 -8.0069 0.6540
-9.4831 -8.6184 0.6320
-9.4811 -10.3062 0.6907
-15.5192 -20.2331 1.2576
-6.7719 -10.6848 0.6239
-12.8653 -24.9871 1.3861
-10.5763 -26.0203 1.3853
-8.2260 -26.9112 1.3879
-5.7982 -27.5767 1.3898
-3.3155 -28.0097 1.3911
-0.8015 -28.2053 1.3916
1.7202 -28.1615 1.3915
4.2254 -27.8787 1.3907
6.6907 -27.3601 1.3891
8.2004 -24.0000 1.2509
10.2193 -22.9667 1.2398
12.7504 -22.8982 1.2926
15.4224 -22.6649 1.3521
16.2448 -19.8074 1.2634
10.2886 -10.4772 0.7242
10.2851 -8.7526 0.6661
10.2822 -7.2733 0.6212
10.2796 -5.9712 0.5863
10.2772 -4.7985 0.5594
10.2751 -3.7206 0.5390
10.2731 -2.7109 0.5240
10.2712 -1.7482 0.5139
11.9219 -0.9458 0.5898
11.9198 0.1221 0.5879
11.9177 1.1916 0.5907
11.9155 2.2801 0.5983
11.9133 3.4061 0.6111
11.9109 4.5910 0.6296
11.9084 5.8601 0.6546
11.9056 7.2458 0.6874
11.9025 8.7907 0.7298
31.4191 27.8668 2.0713
28.8052 30.5610 2.0713
17.8971 22.7571 1.4279
19.9543 30.6568 1.8041
17.5405 33.0769 1.8465
16.2484 38.6275 2.0668
13.6679 42.8513 2.2183
9.8178 44.0390 2.2253
5.8757 44.9666 2.2366
1.8382 45.3382 2.2379
-2.2236 45.4442 2.2440
-6.2794 45.1127 2.2464
-5.9080 25.4941 1.2907
-14.1304 43.0527 2.2348
-9.9569 23.1271 1.2419
-17.6693 32.6562 1.8312
-23.2035 35.0042 2.0713
-26.2055 32.7537 2.0688
-20.7970 21.6978 1.4823
-21.4593 18.7145 1.4043
-21.4531 15.5684 1.3073
-21.4475 12.8083 1.2321
-20.7737 10.0076 1.1373
-22.3691 8.4076 1.1786
-22.4704 6.2216 1.1499
-33.9300 6.1987 1.7011
-38.5143 3.5256 1.9075
-37.7166 0.0706 1.8602
-21.2771 -1.8674 1.0534
-20.8601 -3.7304 1.0451
-21.2693 -5.8034 1.0873
-21.2651 -7.9021 1.1189
-21.2606 -10.1444 1.1618
-21.2557 -12.5862 1.2183
-11.1225 -8.0082 0.6760
-9.4836 -8.2084 0.6186
-9.4817 -9.8186 0.6732
-16.0425 -19.8982 1.2606
-7.1431 -10.6889 0.6341
-6.5076 -11.9205 0.6698
-11.1968 -25.7414 1.3845
-8.8713 -26.6917 1.3872
-6.4623 -27.4191 1.3893
-3.9922 -27.9156 1.3908
-1.4843 -28.1759 1.3915
1.0376 -28.1970 1.3916
3.5497 -27.9788 1.3910
6.0281 -27.5236 1.3896
8.1802 -25.9814 1.3434
9.6548 -23.1947 1.2391
12.0452 -22.9206 1.2770
14.6886 -22.7524 1.3357
17.4290 -22.3332 1.3972
10.2896 -10.9989 0.7428
10.2860 -9.1920 0.6804
10.2829 -7.6542 0.6322
10.2803 -6.3095 0.5949
10.2779 -5.1056 0.5660
10.2757 -4.0049 0.5439
10.2736 -2.9790 0.5276
10.2717 -2.0054 0.5162
11.9225 -1.2371 0.5912
11.9204 -0.1667 0.5880
11.9183 0.9007 0.5895
11.9161 1.9823 0.5958
11.9139 3.0963 0.6071
11.9116 4.2629 0.6240
11.9091 5.5063 0.6471
