ply
format ascii 1.0
element vertex 2126
property float32 x
property float32 y
property float32 z
end_header
-11.1634 5.8083 1.7949
-11.6475 4.7936 1.7965
-11.7845 3.6595 1.7601
-11.9680 2.5730 1.7461
-12.0486 1.4826 1.7315
-12.0280 0.3984 1.7166
-11.9091 -0.6703 1.7013
-11.6954 -1.7144 1.6860
-11.3913 -2.7259 1.6707
-11.0017 -3.6973 1.6555
-10.5828 -4.6442 1.6484
-10.0890 -5.5493 1.6424
-9.4851 -6.3811 1.6306
-8.8150 -7.1507 1.6190
-8.4986 -8.2549 1.6899
-7.9547 -9.2433 1.7394
-7.0611 -9.8640 1.7303
-6.1248 -10.4067 1.7224
-1.0217 -2.1556 0.3403
-0.8232 -2.2323 0.3394
-0.6195 -2.2922 0.3387
-0.4120 -2.3350 0.3382
-1.0167 -11.8896 1.7021
0.0222 -5.5204 0.7874
0.2209 -2.3593 0.3380
0.4309 -2.3326 0.3383
0.6383 -2.2885 0.3389
0.8418 -2.2274 0.3396
5.2563 -10.8626 1.7213
6.2263 -10.3870 1.7273
7.1547 -9.8266 1.7338
8.0372 -9.1885 1.7412
8.8675 -8.4756 1.7496
9.6421 -7.6937 1.7595
10.3578 -6.8477 1.7711
11.0040 -5.9376 1.7835
11.5953 -4.9776 1.7998
12.1169 -3.9638 1.8184
12.5214 -2.8899 1.8329
12.8165 -1.7734 1.8455
13.0137 -0.6273 1.8584
13.1092 0.5399 1.8714
13.0873 1.7175 1.8827
12.9280 2.8885 1.8895
12.6371 4.0362 1.8922
12.2437 5.1546 1.8948
11.7506 6.2346 1.8974
11.1614 7.2670 1.8997
10.4807 8.2432 1.9019
9.7137 9.1550 1.9039
8.8666 9.9944 1.9057
7.9461 10.7544 1.9073
6.9599 11.4284 1.9086
5.9160 12.0105 1.9097
4.8230 12.4958 1.9105
3.6901 12.8800 1.9111
1.3896 7.2373 1.0512
0.6872 6.8244 0.9783
0.1476 13.3802 1.9086
-1.0464 13.3378 1.9083
-2.2316 13.1881 1.9078
-3.3979 12.9315 1.9071
-3.2935 9.1277 1.3841
-5.6560 12.1521 1.9119
-6.8290 11.7917 1.9436
-7.8538 11.1354 1.9436
-8.8159 10.3904 1.9436
-9.7076 9.5625 1.9436
-10.5220 8.6583 1.9436
-10.3702 7.0825 1.7912
-10.9773 6.1385 1.7939
-11.4979 5.1422 1.7965
-11.6993 4.0232 1.7646
-11.9177 2.9403 1.7509
-12.0328 1.8501 1.7365
-12.0461 0.7627 1.7216
-11.9600 -0.3122 1.7065
-11.7777 -1.3655 1.6912
-11.5036 -2.3889 1.6758
-11.1423 -3.3746 1.6606
-10.6990 -4.3157 1.6455
-10.2717 -5.2532 1.6456
-9.6975 -6.1079 1.6347
-9.0476 -6.8981 1.6228
-8.4924 -7.7658 1.6414
-8.2454 -9.0169 1.7428
-7.3675 -9.6633 1.7332
-6.4449 -10.2325 1.7249
-1.0873 -2.1260 0.3406
-0.8908 -2.2083 0.3396
-0.6887 -2.2739 0.3389
-0.4823 -2.3225 0.3383
-1.3746 -11.8559 1.7024
-0.1439 -5.5144 0.7868
0.1497 -2.3644 0.3379
0.3603 -2.3435 0.3382
0.5688 -2.3053 0.3387
0.7737 -2.2499 0.3394
0.9739 -2.1775 0.3402
5.9040 -10.5579 1.7254
6.8464 -10.0244 1.7315
7.7452 -9.4122 1.7386
8.5937 -8.7242 1.7467
9.3861 -7.9637 1.7558
10.1239 -7.1403 1.7671
10.7942 -6.2514 1.7792
11.4009 -5.3063 1.7937
11.9504 -4.3119 1.8121
12.4005 -3.2584 1.8288
12.7277 -2.1537 1.8412
12.9584 -1.0166 1.8540
13.0885 0.1445 1.8670
13.1080 1.3201 1.8791
13.0026 2.4966 1.8885
12.7468 3.6520 1.8913
12.3877 4.7813 1.8940
11.9278 5.8753 1.8965
11.3706 6.9247 1.8989
10.7201 7.9208 1.9012
9.9816 8.8552 1.9032
9.1608 9.7199 1.9051
8.2642 10.5074 1.9067
7.2993 11.2111 1.9082
6.2739 11.8248 1.9093
5.1965 12.3432 1.9102
4.0760 12.7620 1.9109
2.9198 13.0685 1.9100
0.8860 6.7510 0.9712
0.5506 13.3704 1.9087
-0.6443 13.3640 1.9084
-1.8335 13.2506 1.9080
-3.0073 13.0299 1.9074
-2.9837 9.1209 1.3688
-5.2700 12.2765 1.9056
-6.4708 11.9920 1.9436
-7.5148 11.3669 1.9436
-8.4989 10.6512 1.9436
-9.4152 9.8505 1.9436
-10.2565 8.9713 1.9436
-11.0159 8.0206 1.9436
-10.7813 6.4627 1.7929
-11.3337 5.4842 1.7959
-11.6371 4.3981 1.7745
-11.8556 3.3069 1.7556
-12.0055 2.2179 1.7414
-12.0528 1.1285 1.7267
-11.9999 0.0483 1.7116
-11.8497 -1.0133 1.6963
-11.6060 -2.0477 1.6810
-11.2735 -3.0469 1.6657
-10.8573 -4.0038 1.6506
-10.4462 -4.9514 1.6489
-9.9026 -5.8281 1.6389
-9.2735 -6.6384 1.6267
-8.5845 -7.3877 1.6154
-8.5046 -8.7556 1.7410
-7.6688 -9.4538 1.7363
-6.7606 -10.0493 1.7276
-1.1521 -2.0945 0.3410
-0.9577 -2.1824 0.3399
-0.7574 -2.2537 0.3391
-0.5523 -2.3081 0.3385
-0.3438 -2.3453 0.3381
-0.3100 -5.5084 0.7869
0.0784 -2.3675 0.3379
0.2895 -2.3525 0.3381
0.4988 -2.3201 0.3385
0.7051 -2.2705 0.3391
0.9070 -2.2038 0.3399
5.5774 -10.7195 1.7236
6.5332 -10.2132 1.7293
7.4474 -9.6273 1.7361
8.3136 -8.9645 1.7439
9.1255 -8.2280 1.7526
9.8824 -7.4255 1.7631
10.5761 -6.5582 1.7750
11.1984 -5.6284 1.7877
11.7743 -4.6538 1.8059
12.2682 -3.6219 1.8245
12.6280 -2.5302 1.8370
12.8917 -1.4032 1.8497
13.0561 -0.2492 1.8626
13.1169 0.9229 1.8756
13.0560 2.1012 1.8862
12.8447 3.2648 1.8904
12.5202 4.4040 1.8931
12.0940 5.5109 1.8957
11.5691 6.5763 1.8981
10.9496 7.5914 1.9004
10.2401 8.5475 1.9026
9.4464 9.4365 1.9045
8.5746 10.2509 1.9062
7.6319 10.9836 1.9077
6.6259 11.6282 1.9090
5.5651 12.1794 1.9100
4.4581 12.6322 1.9107
3.3135 12.9798 1.9108
1.0820 6.6785 0.9650
0.9531 13.3483 1.9088
-0.2415 13.3779 1.9085
-1.4337 13.3009 1.9082
-2.6139 13.1162 1.9076
-2.8826 9.8012 1.4572
-4.8983 12.4308 1.9058
-6.0769 12.1222 1.9341
-7.1691 11.5881 1.9436
-8.1742 10.9023 1.9436
-9.1143 10.1296 1.9436
-9.9816 9.2762 1.9436
-10.7693 8.3487 1.9436
-10.5758 6.7806 1.7919
-11.1571 5.8198 1.7949
-11.6425 4.8057 1.7965
-11.7817 3.6722 1.7602
-11.9665 2.5857 1.7462
-12.0482 1.4953 1.7317
-12.0288 0.4109 1.7167
-11.9110 -0.6579 1.7015
-11.6984 -1.7024 1.6862
-11.3953 -2.7143 1.6708
-11.0067 -3.6862 1.6556
-10.5848 -4.6320 1.6480
-10.0954 -5.5392 1.6425
-9.4926 -6.3717 1.6307
-8.8232 -7.1421 1.6191
-8.4984 -8.2376 1.6882
-7.9648 -9.2357 1.7395
-7.0717 -9.8572 1.7304
-6.1359 -10.4009 1.7224
-1.0240 -2.1546 0.3403
-0.8256 -2.2315 0.3394
-0.6219 -2.2916 0.3387
-0.4144 -2.3346 0.3382
-1.0290 -11.8886 1.7021
0.0165 -5.5202 0.7874
0.2184 -2.3595 0.3380
0.4285 -2.3330 0.3383
0.6359 -2.2891 0.3389
0.8395 -2.2282 0.3396
5.2447 -10.8676 1.7212
6.2152 -10.3930 1.7273
7.1441 -9.8336 1.7337
8.0272 -9.1964 1.7411
8.8582 -8.4844 1.7495
9.6334 -7.7031 1.7593
10.3498 -6.8579 1.7709
10.9969 -5.9486 1.7833
11.5887 -4.9890 1.7996
12.1113 -3.9759 1.8182
12.5174 -2.9027 1.8328
12.8136 -1.7866 1.8454
13.0119 -0.6409 1.8582
13.1087 0.5262 1.8713
13.0882 1.7038 1.8826
12.9308 2.8750 1.8894
12.6411 4.0229 1.8922
12.2489 5.1418 1.8948
11.7569 6.2222 1.8973
11.1688 7.2553 1.8997
10.4891 8.2322 1.9019
9.7231 9.1447 1.9039
8.8768 9.9851 1.9057
7.9572 10.7460 1.9072
6.9717 11.4210 1.9086
5.9284 12.0043 1.9097
4.8360 12.4907 1.9105
3.7035 12.8761 1.9111
1.4059 7.2813 1.0578
0.6942 6.8219 0.9781
0.1616 13.3801 1.9086
-1.0325 13.3390 1.9083
-2.2178 13.1905 1.9078
-3.3845 12.9351 1.9071
-3.2827 9.1274 1.3835
-5.6428 12.1569 1.9117
-6.8168 11.7988 1.9436
-7.8422 11.1436 1.9436
-8.8050 10.3996 1.9436
-9.6977 9.5726 1.9436
-10.5130 8.6693 1.9436
-10.3628 7.0933 1.7912
-10.9706 6.1497 1.7939
-11.4925 5.1542 1.7965
-11.6961 4.0358 1.7648
-11.9157 2.9531 1.7510
-12.0321 1.8628 1.7366
-12.0465 0.7753 1.7218
-11.9615 -0.2998 1.7067
-11.7804 -1.3535 1.6914
-11.5073 -2.3772 1.6760
-11.1470 -3.3634 1.6607
-10.7046 -4.3051 1.6457
-10.2779 -5.2429 1.6457
-9.7047 -6.0983 1.6348
-9.0555 -6.8892 1.6229
-8.4922 -7.7494 1.6398
-8.2553 -9.0089 1.7429
-7.3780 -9.6562 1.7333
-6.4559 -10.2264 1.7250
-1.0895 -2.1249 0.3406
-0.8931 -2.2075 0.3397
-0.6911 -2.2733 0.3389
-0.4847 -2.3221 0.3383
-1.3869 -11.8546 1.7024
-0.1497 -5.5142 0.7868
0.1472 -2.3646 0.3379
0.3579 -2.3439 0.3382
0.5664 -2.3058 0.3387
0.7714 -2.2506 0.3393
0.9716 -2.1785 0.3402
5.8927 -10.5636 1.7253
6.8357 -10.0311 1.7314
7.7350 -9.4198 1.7385
8.5842 -8.7326 1.7466
9.3772 -7.9729 1.7556
10.1157 -7.1503 1.7669
10.7868 -6.2621 1.7791
11.3940 -5.3175 1.7935
11.9445 -4.3239 1.8119
12.3961 -3.2710 1.8286
12.7245 -2.1667 1.8411
12.9563 -1.0300 1.8539
13.0876 0.1308 1.8669
13.1085 1.3063 1.8790
13.0050 2.4830 1.8885
12.7504 3.6386 1.8913
12.3925 4.7683 1.8939
11.9337 5.8628 1.8965
11.3776 6.9128 1.8989
10.7282 7.9096 1.9012
9.9907 8.8447 1.9032
9.1708 9.7102 1.9051
8.2751 10.4987 1.9067
7.3109 11.2034 1.9081
6.2862 11.8182 1.9093
5.2093 12.3378 1.9102
4.0893 12.7577 1.9109
2.9335 13.0656 1.9100
0.8928 6.7485 0.9710
0.5645 13.3698 1.9087
-0.6304 13.3647 1.9084
-1.8198 13.2526 1.9080
-2.9938 13.0331 1.9074
-2.9732 9.1207 1.3683
-5.2566 12.2806 1.9054
-6.4584 11.9987 1.9436
-7.5030 11.3747 1.9436
-8.4878 10.6601 1.9436
-9.4050 9.8603 1.9436
-10.2471 8.9820 1.9436
-11.0075 8.0321 1.9436
-10.7744 6.4738 1.7929
-11.3278 5.4958 1.7959
-11.6412 4.4135 1.7758
-11.8533 3.3195 1.7557
-12.0043 2.2307 1.7415
-12.0529 1.1411 1.7269
-12.0011 0.0608 1.7118
-11.8520 -1.0010 1.6965
-11.6094 -2.0358 1.6812
-11.2779 -3.0355 1.6659
-10.8626 -3.9929 1.6507
-10.4521 -4.9408 1.6490
-9.9095 -5.8183 1.6391
-9.2812 -6.6293 1.6268
-8.5928 -7.3794 1.6156
-8.5043 -8.7372 1.7391
-7.6791 -9.4464 1.7364
-6.7715 -10.0429 1.7277
-1.1543 -2.0934 0.3410
-0.9600 -2.1815 0.3400
-0.7598 -2.2530 0.3391
-0.5547 -2.3075 0.3385
-0.3462 -2.3449 0.3381
-0.3158 -5.5082 0.7870
0.0760 -2.3676 0.3379
0.2870 -2.3528 0.3381
0.4964 -2.3206 0.3385
0.7027 -2.2712 0.3391
0.9047 -2.2047 0.3399
5.5660 -10.7249 1.7235
6.5223 -10.2196 1.7292
7.4370 -9.6346 1.7360
8.3038 -8.9726 1.7438
9.1164 -8.2370 1.7525
9.8739 -7.4352 1.7630
10.5684 -6.5686 1.7749
11.1915 -5.6396 1.7875
11.7680 -4.6655 1.8056
12.2629 -3.6343 1.8243
12.6243 -2.5432 1.8369
12.8891 -1.4165 1.8495
13.0548 -0.2628 1.8624
13.1170 0.9092 1.8754
13.0573 2.0875 1.8861
12.8479 3.2514 1.8903
12.5246 4.3908 1.8930
12.0995 5.4982 1.8956
11.5758 6.5642 1.8981
10.9573 7.5799 1.9004
10.2489 8.5368 1.9025
9.4561 9.4266 1.9045
8.5852 10.2419 1.9062
7.6433 10.9755 1.9077
6.6380 11.6212 1.9090
5.5777 12.1735 1.9100
4.4712 12.6275 1.9107
3.3270 12.9765 1.9108
1.0887 6.6761 0.9648
0.9670 13.3473 1.9088
-0.2275 13.3782 1.9085
-1.4199 13.3024 1.9082
-2.6002 13.1190 1.9076
-2.8818 9.8363 1.4620
-4.8854 12.4360 1.9058
-6.0594 12.1186 1.9326
-7.1570 11.5956 1.9436
-8.1629 10.9109 1.9436
-9.1037 10.1391 1.9436
-9.9720 9.2866 1.9436
-10.7607 8.3599 1.9436
-10.5685 6.7915 1.7919
-11.1509 5.8313 1.7949
-11.6375 4.8178 1.7965
-11.7790 3.6847 1.7604
-11.9649 2.5984 1.7464
-12.0479 1.5080 1.7319
-12.0296 0.4235 1.7169
-11.9129 -0.6456 1.7017
-11.7014 -1.6904 1.6864
-11.3993 -2.7027 1.6710
-11.0117 -3.6752 1.6558
-10.5868 -4.6198 1.6476
-10.1019 -5.5290 1.6426
-9.5000 -6.3624 1.6309
-8.8313 -7.1334 1.6193
-8.4981 -8.2202 1.6864
-7.9750 -9.2280 1.7397
-7.0824 -9.8504 1.7305
-6.1470 -10.3950 1.7225
-1.0263 -2.1536 0.3403
-0.8279 -2.2307 0.3394
-0.6243 -2.2910 0.3387
-0.4168 -2.3342 0.3382
-1.0415 -11.8876 1.7021
0.0107 -5.5200 0.7873
0.2160 -2.3597 0.3380
0.4261 -2.3334 0.3383
0.6335 -2.2897 0.3389
0.8371 -2.2290 0.3396
5.2331 -10.8725 1.7211
6.2041 -10.3991 1.7272
7.1336 -9.8406 1.7336
8.0172 -9.2042 1.7410
8.8488 -8.4931 1.7494
9.6246 -7.7126 1.7592
10.3419 -6.8681 1.7708
10.9898 -5.9596 1.7832
11.5821 -5.0005 1.7994
12.1057 -3.9880 1.8180
12.5134 -2.9155 1.8327
12.8107 -1.7998 1.8452
13.0102 -0.6543 1.8581
13.1082 0.5125 1.8711
13.0891 1.6900 1.8825
12.9336 2.8615 1.8894
12.6451 4.0097 1.8921
12.2540 5.1290 1.8948
11.7632 6.2099 1.8973
11.1762 7.2436 1.8997
10.4975 8.2212 1.9018
9.7325 9.1345 1.9039
8.8871 9.9757 1.9056
7.9683 10.7376 1.9072
6.9835 11.4137 1.9086
5.9409 11.9980 1.9096
4.8490 12.4856 1.9105
3.7169 12.8722 1.9110
1.4224 7.3258 1.0644
0.7011 6.8193 0.9778
0.1755 13.3799 1.9086
-1.0187 13.3400 1.9083
-2.2041 13.1928 1.9078
-3.3710 12.9387 1.9071
-3.2718 9.1272 1.3830
-5.6297 12.1617 1.9115
-6.8045 11.8059 1.9436
-7.8306 11.1518 1.9436
-8.7942 10.4087 1.9436
-9.6877 9.5827 1.9436
-10.5040 8.6803 1.9436
-10.3554 7.1042 1.7912
-10.9640 6.1610 1.7939
-11.4871 5.1661 1.7965
-11.6929 4.0483 1.7649
-11.9138 2.9657 1.7512
-12.0313 1.8755 1.7368
-12.0469 0.7880 1.7220
-11.9631 -0.2874 1.7068
-11.7831 -1.3413 1.6915
-11.5110 -2.3655 1.6762
-11.1516 -3.3522 1.6609
-10.7102 -4.2944 1.6459
-10.2841 -5.2326 1.6458
-9.7119 -6.0887 1.6350
-9.0634 -6.8803 1.6231
-8.4920 -7.7330 1.6382
-8.2653 -9.0010 1.7430
-7.3885 -9.6491 1.7334
-6.4669 -10.2202 1.7251
-1.0918 -2.1239 0.3406
-0.8954 -2.2066 0.3397
-0.6935 -2.2726 0.3389
-0.4872 -2.3216 0.3384
-1.3993 -11.8532 1.7024
-0.1554 -5.5140 0.7868
0.1448 -2.3647 0.3379
0.3554 -2.3442 0.3382
0.5639 -2.3064 0.3387
0.7690 -2.2514 0.3393
0.9693 -2.1794 0.3402
5.8815 -10.5693 1.7253
6.8250 -10.0378 1.7313
7.7247 -9.4274 1.7384
8.5746 -8.7410 1.7465
9.3683 -7.9822 1.7555
10.1075 -7.1603 1.7668
9.9474 -6.5615 1.7747
10.5637 -5.6859 1.7866
11.1139 -4.7572 1.8004
11.6075 -3.7838 1.8182
12.0037 -2.7573 1.8342
12.2820 -1.6865 1.8463
12.4661 -0.5880 1.8586
12.5528 0.5301 1.8711
12.5279 1.6574 1.8820
12.3760 2.7787 1.8890
12.0956 3.8771 1.8916
11.7171 4.9473 1.8941
11.2432 5.9804 1.8965
10.6776 6.9678 1.8988
10.0244 7.9013 1.9009
9.2889 8.7729 1.9028
8.4768 9.5752 1.9045
7.5948 10.3013 1.9060
6.6499 10.9450 1.9073
1.1673 2.3760 0.3942
4.6034 11.9640 1.9091
3.5188 12.3304 1.9096
1.3732 7.1926 1.0905
0.6803 6.8267 1.0217
0.1280 12.8063 1.9073
-1.0148 12.7640 1.9069
-2.1489 12.6197 1.9065
-3.2650 12.3732 1.9058
-0.9038 2.4966 0.3954
-5.4059 11.5832 1.9037
-6.5523 11.2868 1.9436
-7.5331 10.6572 1.9436
-8.4538 9.9427 1.9436
-9.3071 9.1489 1.9436
-10.0862 8.2821 1.9436
-9.9392 6.7730 1.7912
-10.5184 5.8675 1.7937
-11.0160 4.9130 1.7963
-11.1752 3.8300 1.7593
-11.3877 2.7970 1.7463
-11.5007 1.7561 1.7326
-11.5166 0.7171 1.7185
-11.4376 -0.3105 1.7040
-11.2667 -1.3182 1.6894
-11.0077 -2.2979 1.6747
-10.6651 -3.2422 1.6601
-10.3180 -4.1745 1.6576
-9.8472 -5.0490 1.6480
-9.3035 -5.8733 1.6385
-8.6814 -6.6332 1.6271
-8.4794 -7.7701 1.7128
-7.9131 -8.6716 1.7483
-7.0705 -9.2939 1.7391
-6.1846 -9.8419 1.7311
-1.0422 -2.0432 0.3416
-0.8535 -2.1223 0.3407
-0.6594 -2.1853 0.3399
-0.4611 -2.2320 0.3394
-0.2599 -2.2620 0.3391
-0.0570 -2.2753 0.3390
0.1462 -2.2717 0.3390
0.3486 -2.2514 0.3393
0.5488 -2.2143 0.3398
0.7456 -2.1608 0.3404
0.9377 -2.0908 0.3413
5.6827 -10.1374 1.7308
6.5868 -9.6227 1.7367
7.4483 -9.0323 1.7435
8.2612 -8.3691 1.7513
9.0195 -7.6365 1.7600
9.7241 -6.8432 1.7708
10.3638 -5.9877 1.7825
10.9323 -5.0744 1.7949
11.4502 -4.1180 1.8122
11.8887 -3.1107 1.8302
12.1985 -2.0511 1.8422
12.4148 -0.9610 1.8544
12.5346 0.1514 1.8669
12.5493 1.2770 1.8786
12.4481 2.4035 1.8881
12.2012 3.5094 1.8908
11.8555 4.5901 1.8933
11.4135 5.6367 1.8958
10.8783 6.6405 1.8981
10.2541 7.5930 1.9002
9.5458 8.4864 1.9022
8.7588 9.3128 1.9040
7.8996 10.0653 1.9055
6.9751 10.7375 1.9069
5.9929 11.3236 1.9080
4.9611 11.8185 1.9089
3.8882 12.2179 1.9095
2.7826 12.5151 1.9093
0.8791 6.7532 1.0142
0.5137 12.7973 1.9074
-0.6299 12.7896 1.9070
-1.7680 12.6799 1.9066
-2.8912 12.4676 1.9060
-0.8289 2.5249 0.3958
-5.0556 11.7434 1.9041
-6.1302 11.3326 1.9188
-7.2087 10.8793 1.9436
-8.1505 10.1928 1.9436
-9.0273 9.4250 1.9436
-9.8321 8.5821 1.9436
-10.5586 7.6708 1.9436
-10.3314 6.1784 1.7928
-10.8580 5.2401 1.7955
-11.1766 4.2108 1.7787
-11.3274 3.1468 1.7508
-11.4736 2.1073 1.7373
-11.5220 1.0667 1.7233
-11.4747 0.0342 1.7089
-11.3344 -0.9811 1.6943
-11.1046 -1.9711 1.6796
-10.7897 -2.9282 1.6650
-10.4601 -3.8697 1.6610
-10.0140 -4.7593 1.6512
-9.4962 -5.6023 1.6420
-8.8977 -6.3834 1.6308
-8.4737 -7.3077 1.6664
-8.1864 -8.4456 1.7517
-7.3598 -9.0922 1.7421
-6.4878 -9.6655 1.7337
-1.1044 -2.0129 0.3419
-0.9178 -2.0974 0.3410
-0.7254 -2.1659 0.3402
-0.5283 -2.2181 0.3396
-0.3280 -2.2537 0.3392
-0.1255 -2.2727 0.3390
0.0777 -2.2748 0.3390
0.2805 -2.2601 0.3392
0.4816 -2.2287 0.3396
0.6797 -2.1807 0.3402
0.8735 -2.1162 0.3410
5.3693 -10.2935 1.7290
6.2864 -9.8049 1.7346
7.1629 -9.2397 1.7411
7.9929 -8.6007 1.7486
8.7703 -7.8911 1.7570
9.4934 -7.1178 1.7671
10.1557 -6.2829 1.7785
10.7489 -5.3885 1.7907
11.2834 -4.4462 1.8062
11.7504 -3.4558 1.8241
12.1044 -2.4122 1.8381
12.3525 -1.3315 1.8503
12.5052 -0.2257 1.8627
12.5592 0.8968 1.8752
12.4965 2.0246 1.8853
12.2956 3.1388 1.8899
11.9830 4.2290 1.8925
11.5731 5.2881 1.8949
11.0690 6.3073 1.8973
10.4743 7.2781 1.8995
9.7937 8.1922 1.9015
9.0326 9.0420 1.9034
8.1970 9.8202 1.9050
7.2937 10.5202 1.9064
6.3301 11.1359 1.9076
1.0988 2.4115 0.3947
4.2540 12.0941 1.9093
3.1589 12.4283 1.9098
1.0752 6.6807 1.0077
0.8989 12.7765 1.9075
-0.2444 12.8038 1.9072
-1.3854 12.7284 1.9068
-2.5147 12.5506 1.9063
-2.8832 9.7660 1.5165
-0.9751 2.4670 0.3951
-5.7570 11.4541 1.9092
-6.8778 11.0914 1.9436
-7.8398 10.4337 1.9436
-8.7394 9.6927 1.9436
-9.5692 8.8744 1.9436
-10.3227 7.9853 1.9436
-10.1353 6.4833 1.7918
-10.6899 5.5619 1.7946
-11.1555 4.5911 1.7965
-11.2559 3.4954 1.7553
-11.4353 2.4585 1.7419
-11.5165 1.4171 1.7280
-11.5012 0.3809 1.7138
-11.3919 -0.6412 1.6992
-11.1919 -1.6406 1.6846
-10.9051 -2.6096 1.6699
-10.5666 -3.5511 1.6601
-10.1727 -4.4642 1.6544
-9.6786 -5.3235 1.6450
-9.1075 -6.1270 1.6347
-8.4783 -6.8775 1.6258
-8.4538 -8.2115 1.7552
-7.6439 -8.8822 1.7452
-6.7866 -9.4805 1.7364
-1.1658 -1.9809 0.3423
-0.9815 -2.0707 0.3413
-0.7909 -2.1446 0.3404
-0.5952 -2.2023 0.3398
-0.3958 -2.2436 0.3393
-0.1940 -2.2682 0.3390
0.0092 -2.2760 0.3390
0.2122 -2.2670 0.3391
0.4141 -2.2412 0.3394
0.6133 -2.1987 0.3399
0.8087 -2.1398 0.3407
5.0520 -10.4406 1.7273
5.9814 -9.9783 1.7326
6.8723 -9.4387 1.7388
7.7186 -8.8243 1.7460
8.5144 -8.1381 1.7541
9.2554 -7.3852 1.7634
9.9398 -6.5713 1.7746
10.5570 -5.6964 1.7865
11.1076 -4.7682 1.8002
11.6023 -3.7955 1.8180
11.9999 -2.7696 1.8341
12.2793 -1.6991 1.8461
12.4645 -0.6009 1.8585
12.5523 0.5170 1.8710
12.5288 1.6442 1.8819
12.3787 2.7658 1.8890
12.0994 3.8644 1.8916
11.7220 4.9350 1.8941
11.2493 5.9686 1.8965
10.6847 6.9566 1.8988
10.0325 7.8908 1.9009
9.2979 8.7631 1.9028
8.4867 9.5662 1.9045
7.6054 10.2933 1.9060
6.6613 10.9380 1.9073
1.1697 2.3747 0.3942
4.6159 11.9592 1.9091
3.5316 12.3267 1.9096
1.3894 7.2361 1.0973
0.6872 6.8241 1.0214
0.1413 12.8062 1.9073
-1.0015 12.7651 1.9069
-2.1358 12.6220 1.9065
-3.2521 12.3766 1.9058
-0.9012 2.4976 0.3954
-5.3938 11.5889 1.9037
-6.5406 11.2936 1.9436
-7.5220 10.6650 1.9436
-8.4435 9.9515 1.9436
-9.2976 9.1586 1.9436
-10.0775 8.2926 1.9436
-9.9321 6.7834 1.7912
-10.5121 5.8783 1.7937
-11.0108 4.9243 1.7963
-11.1720 3.8419 1.7594
-11.3858 2.8091 1.7465
-11.5000 1.7682 1.7328
-11.5170 0.7292 1.7186
-11.4391 -0.2986 1.7042
-11.2692 -1.3066 1.6895
-11.0112 -2.2867 1.6748
-10.6695 -3.2315 1.6602
-10.3230 -4.1641 1.6577
-9.8531 -5.0391 1.6481
-9.3104 -5.8641 1.6387
-8.6890 -6.6247 1.6272
-8.4792 -7.7537 1.7111
-7.9226 -8.6640 1.7484
-7.0806 -9.2870 1.7392
-6.1951 -9.8360 1.7312
-1.0444 -2.0422 0.3416
-0.8558 -2.1215 0.3407
-0.6617 -2.1847 0.3400
-0.4634 -2.2315 0.3394
-0.2622 -2.2617 0.3391
-0.0594 -2.2752 0.3390
0.1438 -2.2719 0.3390
0.3462 -2.2517 0.3393
0.5465 -2.2149 0.3397
0.7433 -2.1615 0.3404
0.9355 -2.0918 0.3413
5.6720 -10.1430 1.7307
6.5765 -9.6292 1.7366
7.4386 -9.0396 1.7434
8.2521 -8.3773 1.7512
9.0110 -7.6454 1.7599
9.7163 -6.8528 1.7707
10.3567 -5.9980 1.7824
10.9261 -5.0853 1.7948
11.4445 -4.1294 1.8120
11.8841 -3.1227 1.8299
12.1954 -2.0636 1.8420
12.4128 -0.9738 1.8543
12.5338 0.1384 1.8667
12.5498 1.2638 1.8785
12.4504 2.3905 1.8881
12.2046 3.4966 1.8907
11.8601 4.5777 1.8933
11.4192 5.6247 1.8957
10.8851 6.6290 1.8980
10.2619 7.5823 1.9002
9.5545 8.4763 1.9022
8.7684 9.3036 1.9039
7.9100 10.0570 1.9055
6.9862 10.7302 1.9069
6.0046 11.3173 1.9080
1.0293 2.4448 0.3950
3.9009 12.2138 1.9095
2.7956 12.5124 1.9094
0.8859 6.7507 1.0140
0.5270 12.7968 1.9074
-0.6166 12.7903 1.9070
-1.7548 12.6817 1.9066
-2.8783 12.4706 1.9060
-0.8263 2.5258 0.3958
-5.0434 11.7487 1.9041
-6.1162 11.3348 1.9181
-7.1974 10.8868 1.9436
-8.1399 10.2013 1.9436
-9.0175 9.4344 1.9436
-9.8232 8.5924 1.9436
-10.5506 7.6818 1.9436
-10.3248 6.1890 1.7927
-10.8523 5.2513 1.7955
-11.1802 4.2254 1.7800
-11.3251 3.1589 1.7510
-11.4724 2.1194 1.7375
-11.5220 1.0788 1.7234
-11.4758 0.0462 1.7091
-11.3366 -0.9694 1.6945
-11.1078 -1.9598 1.6798
-10.7938 -2.9172 1.6652
-10.4648 -3.8590 1.6611
-10.0196 -4.7492 1.6513
-9.5027 -5.5927 1.6421
-8.9051 -6.3747 1.6310
-8.4735 -7.2922 1.6649
-8.1957 -8.4376 1.7518
-7.3697 -9.0851 1.7422
-6.4982 -9.6593 1.7337
-1.1066 -2.0118 0.3419
-0.9200 -2.0965 0.3410
-0.7277 -2.1652 0.3402
-0.5307 -2.2176 0.3396
-0.3303 -2.2534 0.3392
-0.1279 -2.2726 0.3390
0.0754 -2.2749 0.3390
0.2782 -2.2604 0.3392
0.4793 -2.2292 0.3396
0.6774 -2.1813 0.3402
0.8713 -2.1171 0.3409
5.3584 -10.2987 1.7289
6.2759 -9.8110 1.7345
7.1530 -9.2467 1.7410
7.9835 -8.6086 1.7485
8.7615 -7.8998 1.7569
9.4853 -7.1272 1.7669
10.1484 -6.2930 1.7784
10.7424 -5.3992 1.7905
11.2775 -4.4575 1.8060
11.7454 -3.4676 1.8238
12.1010 -2.4246 1.8380
12.3501 -1.3442 1.8501
12.5040 -0.2387 1.8625
12.5593 0.8837 1.8750
12.4979 2.0114 1.8852
12.2986 3.1260 1.8898
11.9872 4.2165 1.8924
11.5785 5.2760 1.8949
11.0754 6.2957 1.8973
10.4817 7.2671 1.8995
9.8021 8.1819 1.9015
9.0419 9.0325 1.9034
8.2071 9.8116 1.9050
7.3046 10.5125 1.9064
6.3416 11.1292 1.9076
1.1013 2.4103 0.3946
4.2666 12.0896 1.9093
3.1718 12.4250 1.9097
1.0819 6.6782 1.0075
0.9122 12.7756 1.9075
-0.2311 12.8041 1.9072
-1.3722 12.7298 1.9068
-2.5017 12.5532 1.9063
-2.8825 9.8009 1.5214
-0.9726 2.4681 0.3951
-5.7446 11.4591 1.9090
-6.8662 11.0986 1.9436
-7.8289 10.4418 1.9436
-8.7293 9.7017 1.9436
-9.5600 8.8843 1.9436
-10.3144 7.9961 1.9436
-10.1284 6.4938 1.7918
-10.6839 5.5729 1.7946
-11.1507 4.6027 1.7965
-11.2532 3.5074 1.7554
-11.4337 2.4706 1.7421
-11.5161 1.4293 1.7282
-11.5019 0.3929 1.7139
-11.3937 -0.6294 1.6994
-11.1947 -1.6291 1.6847
-10.9090 -2.5985 1.6701
-10.5682 -3.5393 1.6598
-10.1780 -4.4540 1.6545
-9.6847 -5.3138 1.6451
-9.1146 -6.1180 1.6348
-8.4793 -6.8637 1.6246
-8.4630 -8.2032 1.7553
-7.6536 -8.8748 1.7453
-6.7968 -9.4740 1.7365
-1.1679 -1.9798 0.3423
-0.9837 -2.0697 0.3413
-0.7931 -2.1438 0.3404
-0.5975 -2.2018 0.3398
-0.3982 -2.2432 0.3393
-0.1963 -2.2680 0.3390
0.0068 -2.2760 0.3390
0.2099 -2.2672 0.3391
0.4117 -2.2416 0.3394
0.6110 -2.1993 0.3399
0.8065 -2.1406 0.3407
5.0410 -10.4455 1.7273
5.9708 -9.9842 1.7325
6.8621 -9.4454 1.7387
7.7090 -8.8318 1.7459
8.5054 -8.1465 1.7540
9.2471 -7.3943 1.7633
9.9322 -6.5812 1.7744
10.5502 -5.7069 1.7863
11.1014 -4.7792 1.8000
11.5970 -3.8071 1.8178
11.9962 -2.7819 1.8340
12.2766 -1.7118 1.8460
12.4629 -0.6138 1.8583
12.5519 0.5039 1.8708
12.5298 1.6311 1.8818
12.3813 2.7529 1.8889
12.1032 3.8518 1.8916
11.7270 4.9227 1.8941
11.2553 5.9568 1.8965
10.6918 6.9454 1.8988
10.0406 7.8802 1.9008
9.3069 8.7533 1.9028
8.4966 9.5573 1.9045
7.6161 10.2853 1.9060
6.6726 10.9310 1.9073
1.1721 2.3734 0.3942
4.6283 11.9543 1.9091
3.5444 12.3230 1.9096
1.4056 7.2800 1.1042
0.6941 6.8216 1.0212
0.1547 12.8061 1.9073
-0.9882 12.7662 1.9069
-2.1226 12.6242 1.9065
-3.2393 12.3800 1.9058
-0.8986 2.4986 0.3954
-5.3818 11.5946 1.9037
-6.5288 11.3004 1.9436
-7.5109 10.6729 1.9436
-8.4331 9.9603 1.9436
-9.2880 9.1682 1.9436
-10.0689 8.3031 1.9436
-9.9250 6.7937 1.7912
-10.5058 5.8892 1.7936
-11.0055 4.9357 1.7963
-11.1688 3.8538 1.7596
-11.3839 2.8212 1.7466
-11.4992 1.7803 1.7329
-11.5174 0.7412 1.7188
-11.4405 -0.2867 1.7043
-11.2717 -1.2950 1.6897
-11.0147 -2.2754 1.6750
-10.6740 -3.2207 1.6604
-10.3281 -4.1536 1.6578
-9.8590 -5.0292 1.6483
-9.3173 -5.8549 1.6388
-8.6966 -6.6162 1.6273
-8.4790 -7.7373 1.7095
-7.9322 -8.6563 1.7485
-7.0907 -9.2802 1.7393
-6.2057 -9.8300 1.7313
-1.0466 -2.0411 0.3416
-0.8580 -2.1206 0.3407
-0.6640 -2.1841 0.3400
-0.4657 -2.2311 0.3394
-0.2646 -2.2615 0.3391
-0.0618 -2.2752 0.3390
0.1415 -2.2720 0.3390
0.3439 -2.2521 0.3393
0.5442 -2.2154 0.3397
0.7410 -2.1622 0.3404
0.9333 -2.0927 0.3412
5.6612 -10.1485 1.7306
6.5662 -9.6356 1.7365
7.4288 -9.0469 1.7434
8.2429 -8.3854 1.7511
9.0025 -7.6544 1.7598
9.7084 -6.8624 1.7706
10.3497 -6.0083 1.7822
10.9199 -5.0963 1.7946
11.4389 -4.1409 1.8117
11.8795 -3.1347 1.8297
12.1923 -2.0761 1.8419
12.4108 -0.9867 1.8541
12.5330 0.1253 1.8666
12.5503 1.2507 1.8783
12.4527 2.3775 1.8880
12.2081 3.4838 1.8907
11.8647 4.5653 1.8933
11.4249 5.6128 1.8957
10.8918 6.6176 1.8980
10.2697 7.5715 1.9002
9.5632 8.4663 1.9021
8.7780 9.2943 1.9039
7.9204 10.0487 1.9055
6.9973 10.7228 1.9068
6.0163 11.3109 1.9080
1.0318 2.4437 0.3950
3.9136 12.2097 1.9095
2.8087 12.5096 1.9094
0.8927 6.7482 1.0137
0.5403 12.7963 1.9074
-0.6033 12.7909 1.9070
-1.7416 12.6836 1.9066
-2.8653 12.4737 1.9060
-0.8237 2.5268 0.3958
-5.0312 11.7540 1.9041
-6.1022 11.3370 1.9174
-7.1861 10.8942 1.9436
-8.1293 10.2097 1.9436
-9.0077 9.4438 1.9436
-9.8142 8.6026 1.9436
-10.5426 7.6928 1.9436
-10.3182 6.1997 1.7927
-10.8467 5.2624 1.7954
-11.1838 4.2400 1.7812
-11.3228 3.1709 1.7511
-11.4713 2.1316 1.7376
-11.5220 1.0909 1.7236
-11.4769 0.0581 1.7092
-11.3387 -0.9577 1.6946
-11.1110 -1.9484 1.6800
-10.7979 -2.9063 1.6653
-10.4696 -3.8484 1.6612
-10.0252 -4.7391 1.6514
-9.5091 -5.5832 1.6422
-8.9125 -6.3659 1.6311
-8.4733 -7.2767 1.6634
-8.2051 -8.4297 1.7519
-7.3796 -9.0780 1.7423
-6.5086 -9.6530 1.7338
-1.1087 -2.0108 0.3420
-0.9223 -2.0956 0.3410
-0.7299 -2.1645 0.3402
-0.5330 -2.2171 0.3396
-0.3327 -2.2531 0.3392
-0.1303 -2.2724 0.3390
0.0730 -2.2749 0.3390
0.2758 -2.2607 0.3392
0.4769 -2.2296 0.3396
0.6751 -2.1820 0.3401
0.8691 -2.1179 0.3409
5.3476 -10.3039 1.7289
6.2655 -9.8172 1.7344
7.1430 -9.2538 1.7409
7.9741 -8.6164 1.7484
8.7528 -7.9084 1.7568
9.4772 -7.1365 1.7668
10.1411 -6.3030 1.7782
10.7359 -5.4100 1.7904
11.2716 -4.4686 1.8057
11.7405 -3.4795 1.8236
12.0975 -2.4370 1.8378
12.3477 -1.3570 1.8500
12.5027 -0.2517 1.8624
12.5593 0.8705 1.8749
12.4991 1.9983 1.8851
12.3017 3.1131 1.8898
11.9914 4.2039 1.8924
11.5838 5.2638 1.8949
11.0818 6.2841 1.8972
10.4891 7.2561 1.8995
9.8105 8.1716 1.9015
9.0512 9.0230 1.9033
8.2173 9.8030 1.9050
7.3155 10.5048 1.9064
6.3532 11.1225 1.9076
1.1038 2.4090 0.3946
4.2792 12.0851 1.9093
3.1847 12.4216 1.9097
1.0886 6.6758 1.0073
0.9255 12.7747 1.9075
-0.2178 12.8043 1.9072
-1.3589 12.7313 1.9068
-2.4886 12.5558 1.9063
-2.8817 9.8361 1.5264
-0.9700 2.4692 0.3951
-5.7321 11.4641 1.9088
-6.8547 11.1058 1.9436
-7.8181 10.4500 1.9436
-8.7191 9.7109 1.9436
-9.5507 8.8943 1.9436
-10.3061 8.0068 1.9436
-10.1214 6.5042 1.7917
-10.6779 5.5840 1.7945
-11.1459 4.6143 1.7965
-11.2505 3.5194 1.7556
-11.4322 2.4827 1.7422
-11.5157 1.4413 1.7284
-11.5026 0.4049 1.7141
-11.3955 -0.6176 1.6996
-11.1975 -1.6176 1.6849
-10.9128 -2.5874 1.6702
-10.5698 -3.5277 1.6595
-10.1833 -4.4437 1.6547
-9.6909 -5.3041 1.6453
-9.1217 -6.1091 1.6350
-8.4821 -6.8513 1.6238
-8.4721 -8.1950 1.7554
-7.6634 -8.8674 1.7454
-6.8071 -9.4674 1.7366
-1.1701 -1.9786 0.3423
-0.9858 -2.0688 0.3413
-0.7954 -2.1431 0.3404
-0.5998 -2.2012 0.3398
-0.4005 -2.2428 0.3393
-0.1987 -2.2678 0.3390
0.0044 -2.2760 0.3390
0.2075 -2.2674 0.3391
0.4094 -2.2420 0.3394
0.6087 -2.1999 0.3399
0.8042 -2.1413 0.3406
0.9947 -2.0666 0.3416
5.9601 -9.9900 1.7324
6.8520 -9.4521 1.7386
7.6995 -8.8394 1.7458
8.4964 -8.1548 1.7539
9.2387 -7.4034 1.7632
9.9246 -6.5910 1.7743
10.5434 -5.7175 1.7862
11.0951 -4.7903 1.7998
11.5917 -3.8187 1.8176
11.9923 -2.7941 1.8338
12.2738 -1.7244 1.8459
12.4613 -0.6267 1.8582
12.5514 0.4907 1.8707
12.5307 1.6179 1.8816
12.3840 2.7399 1.8889
12.1070 3.8391 1.8915
11.7319 4.9104 1.8941
11.2614 5.9450 1.8965
10.6988 6.9342 1.8987
10.0487 7.8697 1.9008
9.3159 8.7435 1.9027
8.5064 9.5484 1.9045
7.6267 10.2773 1.9060
6.6839 10.9240 1.9072
1.1746 2.3721 0.3942
4.6407 11.9494 1.9091
3.5572 12.3193 1.9096
1.4221 7.3245 1.1112
0.7010 6.8190 1.0209
0.1680 12.8059 1.9073
-0.9749 12.7672 1.9069
-2.1095 12.6264 1.9065
-3.2264 12.3835 1.9058
-0.8961 2.4997 0.3955
-5.3698 11.6003 1.9037
-6.5165 11.3061 1.9434
-7.4998 10.6807 1.9436
-8.4227 9.9690 1.9436
-9.2785 9.1779 1.9436
-10.0602 8.3136 1.9436
-9.9393 6.8187 1.7951
-10.4995 5.9000 1.7936
-11.0001 4.9471 1.7963
-11.1656 3.8657 1.7597
-11.3819 2.8333 1.7468
-11.4984 1.7925 1.7331
-11.5177 0.7533 1.7190
-11.4420 -0.2749 1.7045
-11.2742 -1.2834 1.6899
-11.0182 -2.2642 1.6752
-10.6784 -3.2099 1.6606
-10.3331 -4.1432 1.6580
-9.8648 -5.0192 1.6484
-9.3242 -5.8457 1.6390
-8.7041 -6.6076 1.6275
-8.4788 -7.7210 1.7078
-7.9417 -8.6486 1.7487
-7.1008 -9.2733 1.7394
-6.2162 -9.8240 1.7313
-1.0487 -2.0401 0.3416
-0.8602 -2.1198 0.3407
-0.6662 -2.1834 0.3400
-0.4681 -2.2306 0.3394
-0.2669 -2.2612 0.3391
-0.0641 -2.2751 0.3390
0.1391 -2.2721 0.3390
0.3415 -2.2524 0.3393
0.5418 -2.2159 0.3397
0.7388 -2.1629 0.3404
0.9311 -2.0936 0.3412
5.6504 -10.1540 1.7306
6.5559 -9.6420 1.7364
7.4190 -9.0542 1.7433
8.2337 -8.3935 1.7510
8.9940 -7.6632 1.7597
9.7006 -6.8720 1.7704
9.5609 -6.3065 1.7779
10.1506 -5.4635 1.7894
10.6696 -4.5671 1.8016
11.1338 -3.6294 1.8178
11.5219 -2.6466 1.8351
11.7870 -1.6185 1.8468
11.9605 -0.5641 1.8587
12.0403 0.5084 1.8707
12.0143 1.5894 1.8812
11.8707 2.6652 1.8885
11.6010 3.7186 1.8911
11.2374 4.7447 1.8935
10.7824 5.7353 1.8958
10.2394 6.6819 1.8979
9.6126 7.5767 1.8999
8.9069 8.4121 1.9018
8.1280 9.1811 1.9034
7.2820 9.8770 1.9048
6.3759 10.4940 1.9061
1.1164 2.2724 0.3930
0.9118 2.3697 0.3941
0.6984 2.4472 0.3950
1.3730 7.1914 1.1365
0.6803 6.8264 1.0649
0.1227 12.2786 1.9061
-0.9729 12.2378 1.9056
-2.0603 12.0993 1.9052
-0.6493 2.4606 0.3950
-0.8643 2.3874 0.3941
-5.1833 11.1062 1.9025
-6.1795 10.6445 1.9106
-7.2273 10.2245 1.9436
-8.1106 9.5390 1.9436
-8.9292 8.7774 1.9436
-9.6767 7.9458 1.9436
-9.6960 6.6073 1.8213
-10.0887 5.6278 1.7932
-10.5642 4.7114 1.7956
-10.6977 3.6663 1.7554
-10.9003 2.6773 1.7423
-11.0122 1.6814 1.7292
-11.0313 0.6869 1.7157
-10.9595 -0.2975 1.7019
-10.7996 -1.2635 1.6878
-10.5552 -2.2034 1.6738
-10.2889 -3.1279 1.6693
-9.9109 -4.0098 1.6596
-9.4609 -4.8509 1.6504
-8.9431 -5.6458 1.6417
-8.4503 -6.4566 1.6508
-8.3759 -7.6753 1.7635
-7.6145 -8.3444 1.7535
-6.8051 -8.9449 1.7447
-1.1776 -1.8740 0.3436
-1.0026 -1.9655 0.3425
-0.8212 -2.0419 0.3416
-0.6344 -2.1027 0.3409
-0.4437 -2.1477 0.3404
-0.2501 -2.1766 0.3401
-0.0549 -2.1894 0.3400
0.1407 -2.1860 0.3400
0.3354 -2.1664 0.3403
0.5280 -2.1306 0.3407
0.7173 -2.0789 0.3414
0.9021 -2.0115 0.3422
5.4675 -9.7535 1.7357
6.3365 -9.2571 1.7414
7.1642 -8.6878 1.7480
7.9447 -8.0485 1.7555
8.6723 -7.3426 1.7639
9.3470 -6.5778 1.7742
9.9594 -5.7540 1.7855
10.5028 -4.8750 1.7974
10.9843 -3.9504 1.8120
11.4004 -2.9829 1.8293
11.7079 -1.9686 1.8429
11.9123 -0.9221 1.8547
12.0240 0.1452 1.8666
12.0358 1.2247 1.8779
11.9401 2.3054 1.8877
11.7025 3.3660 1.8902
11.3704 4.4023 1.8927
10.9458 5.4057 1.8950
10.4321 6.3681 1.8972
9.8331 7.2812 1.8993
9.1534 8.1375 1.9012
8.3985 8.9296 1.9029
7.5743 9.6509 1.9044
6.6877 10.2951 1.9057
1.1830 2.2353 0.3926
0.9819 2.3391 0.3938
0.7712 2.4233 0.3948
2.6684 12.0019 1.9085
0.8791 6.7529 1.0571
0.4925 12.2700 1.9062
-0.6039 12.2626 1.9058
-1.6951 12.1570 1.9054
-0.5752 2.4806 0.3953
-0.7926 2.4144 0.3945
-4.8474 11.2597 1.9029
-5.8433 10.8022 1.9064
-6.9160 10.4375 1.9436
-7.8196 9.7790 1.9436
-8.6608 9.0424 1.9436
-9.4330 8.2337 1.9436
-10.1299 7.3593 1.9436
-9.9099 5.9262 1.7924
-10.4131 5.0254 1.7948
-10.7539 4.0515 1.7839
-10.8414 3.0118 1.7466
-10.9849 2.0176 1.7337
-11.0351 1.0216 1.7203
-10.9937 0.0328 1.7065
-10.8632 -0.9403 1.6926
-10.6468 -1.8899 1.6785
-10.3993 -2.8222 1.6727
-10.0466 -3.7167 1.6628
-9.6204 -4.5722 1.6534
-9.1250 -5.3832 1.6446
-8.5572 -6.1391 1.6348
-8.4607 -7.2966 1.7343
-7.8769 -8.1263 1.7568
-7.0830 -8.7503 1.7475
-6.2450 -9.3038 1.7394
-1.0624 -1.9364 0.3428
-0.8830 -2.0178 0.3419
-0.6979 -2.0839 0.3411
-0.5084 -2.1343 0.3406
-0.3156 -2.1687 0.3402
-0.1208 -2.1869 0.3400
0.0748 -2.1890 0.3400
0.2699 -2.1748 0.3402
0.4634 -2.1445 0.3406
0.6539 -2.0981 0.3411
0.8404 -2.0359 0.3419
5.1662 -9.9040 1.7340
6.0478 -9.4327 1.7393
6.8901 -8.8877 1.7457
7.6872 -8.2717 1.7529
8.4332 -7.5878 1.7610
9.1260 -6.8424 1.7706
9.7603 -6.0382 1.7816
10.3276 -5.1773 1.7933
10.8258 -4.2659 1.8062
11.2693 -3.3143 1.8234
11.6186 -2.3154 1.8390
11.8536 -1.2777 1.8507
11.9969 -0.2165 1.8626
12.0457 0.8601 1.8746
11.9833 1.9414 1.8844
11.7933 3.0106 1.8894
11.4928 4.0560 1.8919
11.0991 5.0715 1.8942
10.6151 6.0487 1.8965
10.0443 6.9793 1.8986
9.3913 7.8556 1.9006
8.6611 8.6701 1.9023
7.8596 9.4160 1.9039
6.9932 10.0868 1.9053
6.0691 10.6769 1.9064
1.0509 2.3062 0.3934
0.8432 2.3972 0.3945
3.0286 11.9155 1.9084
1.0751 6.6804 1.0503
0.8618 12.2500 1.9063
-0.2344 12.2762 1.9060
-1.3283 12.2034 1.9055
-0.5005 2.4981 0.3955
-0.7201 2.4390 0.3948
-0.9325 2.3592 0.3938
-5.5028 10.9485 1.9021
-6.5779 10.6079 1.9375
-7.5215 10.0100 1.9436
-8.3845 9.2991 1.9436
-9.1807 8.5141 1.9436
-9.9036 7.6611 1.9436
-9.7221 6.2190 1.7915
-10.2526 5.3344 1.7940
-10.7007 4.4039 1.7962
-10.7718 3.3450 1.7509
-10.9470 2.3535 1.7381
-11.0286 1.3571 1.7249
-11.0178 0.3649 1.7112
-10.9170 -0.6144 1.6973
-10.7291 -1.5728 1.6833
-10.5140 -2.5160 1.6781
-10.1740 -3.4192 1.6661
-9.7721 -4.2884 1.6565
-9.2995 -5.1150 1.6475
-8.7581 -5.8920 1.6385
-8.4554 -6.8590 1.6901
-8.1336 -7.9005 1.7601
-7.3560 -8.5476 1.7505
-6.5322 -9.1252 1.7420
-1.1214 -1.9055 0.3432
-0.9442 -1.9921 0.3422
-0.7609 -2.0634 0.3414
-0.5727 -2.1191 0.3407
-0.3809 -2.1589 0.3403
-0.1866 -2.1826 0.3400
0.0088 -2.1901 0.3400
0.2042 -2.1814 0.3401
0.3984 -2.1565 0.3404
0.5901 -2.1155 0.3409
0.7781 -2.0587 0.3416
0.9611 -1.9862 0.3425
5.7546 -9.6000 1.7374
6.6108 -9.0796 1.7434
7.4238 -8.4872 1.7503
8.1877 -7.8258 1.7581
8.8980 -7.0999 1.7670
9.5536 -6.3160 1.7778
10.1441 -5.4737 1.7893
10.6640 -4.5778 1.8014
11.1288 -3.6406 1.8176
11.5179 -2.6583 1.8349
11.7844 -1.6306 1.8467
11.9590 -0.5765 1.8585
12.0399 0.4959 1.8705
12.0153 1.5768 1.8811
11.8732 2.6528 1.8885
11.6047 3.7064 1.8910
11.2422 4.7330 1.8935
10.7882 5.7240 1.8958
10.2462 6.6712 1.8979
9.6204 7.5666 1.8999
8.9156 8.4028 1.9018
8.1374 9.1725 1.9034
7.2922 9.8694 1.9048
6.3868 10.4873 1.9061
1.1187 2.2712 0.3930
0.9143 2.3687 0.3941
0.7009 2.4464 0.3950
1.3891 7.2348 1.1436
0.6872 6.8238 1.0646
0.1355 12.2785 1.9061
-0.9602 12.2388 1.9057
-2.0477 12.1015 1.9052
-0.6467 2.4613 0.3950
-0.8618 2.3884 0.3941
-5.1717 11.1117 1.9025
-6.1680 10.6502 1.9105
-7.2166 10.2320 1.9436
-8.1006 9.5475 1.9436
-8.9201 8.7867 1.9436
-9.6684 7.9559 1.9436
-9.7333 6.6476 1.8296
-10.0826 5.6382 1.7932
-10.5591 4.7224 1.7955
-10.6979 3.6789 1.7561
-10.8984 2.6889 1.7425
-11.0115 1.6931 1.7294
-11.0316 0.6984 1.7158
-10.9608 -0.2861 1.7020
-10.8020 -1.2524 1.6880
-10.5585 -2.1927 1.6739
-10.2928 -3.1174 1.6694
-9.9157 -3.9998 1.6597
-9.4665 -4.8414 1.6505
-8.9495 -5.6368 1.6418
-8.4501 -6.4425 1.6494
-8.3845 -7.6670 1.7636
-7.6237 -8.3370 1.7536
-6.8148 -8.9383 1.7448
-1.1796 -1.8729 0.3436
-1.0047 -1.9646 0.3425
-0.8233 -2.0411 0.3416
-0.6367 -2.1021 0.3409
-0.4459 -2.1472 0.3404
-0.2523 -2.1764 0.3401
-0.0571 -2.1894 0.3400
0.1384 -2.1862 0.3400
0.3331 -2.1667 0.3403
0.5258 -2.1311 0.3407
0.7152 -2.0796 0.3414
0.9000 -2.0123 0.3422
5.4571 -9.7588 1.7356
6.3266 -9.2633 1.7413
7.1548 -8.6948 1.7479
7.9359 -8.0564 1.7554
8.6641 -7.3512 1.7638
9.3395 -6.5871 1.7741
9.9526 -5.7640 1.7853
10.4969 -4.8856 1.7973
10.9790 -3.9614 1.8118
11.3961 -2.9944 1.8290
11.7050 -1.9806 1.8428
11.9104 -0.9344 1.8545
12.0233 0.1327 1.8665
12.0363 1.2121 1.8778
11.9422 2.2930 1.8876
11.7059 3.3537 1.8902
11.3748 4.3903 1.8927
10.9513 5.3942 1.8950
10.4386 6.3571 1.8972
9.8405 7.2709 1.8993
9.1617 8.1279 1.9012
8.4077 8.9208 1.9029
7.5843 9.6429 1.9044
6.6984 10.2881 1.9057
1.1853 2.2340 0.3926
0.9843 2.3380 0.3938
0.7737 2.4225 0.3948
2.6809 11.9991 1.9085
0.8859 6.7504 1.0568
0.5053 12.2694 1.9062
-0.5912 12.2633 1.9058
-1.6824 12.1588 1.9054
-0.5727 2.4812 0.3953
-0.7901 2.4153 0.3945
-4.8357 11.2648 1.9029
-5.8316 10.8073 1.9062
-6.9052 10.4447 1.9436
-7.8094 9.7871 1.9436
-8.6514 9.0514 1.9436
-9.4244 8.2435 1.9436
-10.1222 7.3699 1.9436
-9.9035 5.9365 1.7923
-10.4077 5.0361 1.7948
-10.7570 4.0655 1.7851
-10.8392 3.0234 1.7468
-10.9838 2.0292 1.7339
-11.0351 1.0332 1.7205
-10.9947 0.0442 1.7067
-10.8652 -0.9291 1.6927
-10.6498 -1.8790 1.6787
-10.4030 -2.8116 1.6728
-10.0512 -3.7065 1.6629
-9.6258 -4.5625 1.6535
-9.1312 -5.3741 1.6447
-8.5643 -6.1307 1.6349
-8.4606 -7.2811 1.7327
-7.8859 -8.1186 1.7569
-7.0926 -8.7434 1.7476
-6.2550 -9.2977 1.7395
-1.0645 -1.9353 0.3429
-0.8851 -2.0170 0.3419
-0.7001 -2.0832 0.3412
-0.5106 -2.1338 0.3406
-0.3179 -2.1684 0.3402
-0.1231 -2.1868 0.3400
0.0725 -2.1891 0.3400
0.2677 -2.1751 0.3402
0.4611 -2.1449 0.3406
0.6517 -2.0988 0.3411
0.8382 -2.0368 0.3419
5.1557 -9.9091 1.7339
6.0377 -9.4387 1.7393
6.8805 -8.8945 1.7456
7.6781 -8.2793 1.7528
8.4248 -7.5962 1.7609
9.1182 -6.8514 1.7705
9.7533 -6.0479 1.7814
10.3214 -5.1876 1.7932
10.8202 -4.2767 1.8060
11.2646 -3.3256 1.8232
11.6154 -2.3273 1.8389
11.8514 -1.2899 1.8505
11.9958 -0.2290 1.8624
12.0456 0.8475 1.8745
11.9846 1.9288 1.8843
11.7962 2.9983 1.8893
11.4969 4.0440 1.8918
11.1042 5.0599 1.8942
10.6212 6.0375 1.8965
10.0515 6.9687 1.8986
9.3993 7.8457 1.9005
8.6700 8.6610 1.9023
7.8693 9.4077 1.9039
7.0037 10.0795 1.9053
6.0802 10.6705 1.9064
1.0532 2.3051 0.3934
0.8457 2.3962 0.3944
3.0410 11.9123 1.9084
1.0819 6.6779 1.0501
0.8746 12.2491 1.9063
-0.2216 12.2765 1.9060
-1.3156 12.2048 1.9055
-0.4979 2.4987 0.3955
-0.7176 2.4398 0.3948
-0.9301 2.3603 0.3938
-5.4915 10.9543 1.9021
-6.5653 10.6125 1.9371
-7.5111 10.0179 1.9436
-8.3748 9.3078 1.9436
-9.1718 8.5236 1.9436
-9.8956 7.6714 1.9436
-9.7154 6.2290 1.7915
-10.2469 5.3450 1.7940
-10.6960 4.4150 1.7962
-10.7692 3.3566 1.7510
-10.9455 2.3651 1.7383
-11.0281 1.3687 1.7250
-11.0184 0.3764 1.7114
-10.9186 -0.6031 1.6975
-10.7318 -1.5617 1.6834
-10.5194 -2.5057 1.6786
-10.1782 -3.4088 1.6662
-9.7772 -4.2785 1.6567
-9.3054 -5.1057 1.6476
-8.7650 -5.8833 1.6387
-8.4552 -6.8442 1.6886
-8.1424 -7.8925 1.7603
-7.3653 -8.5405 1.7506
-6.5420 -9.1188 1.7421
-1.1235 -1.9044 0.3432
-0.9463 -1.9911 0.3422
-0.7631 -2.0626 0.3414
-0.5749 -2.1185 0.3407
-0.3831 -2.1585 0.3403
-0.1889 -2.1824 0.3400
0.0065 -2.1901 0.3400
0.2020 -2.1816 0.3401
0.3962 -2.1569 0.3404
0.5879 -2.1161 0.3409
0.7759 -2.0594 0.3416
0.9590 -1.9871 0.3425
5.7444 -9.6056 1.7374
6.6010 -9.0861 1.7433
7.4146 -8.4945 1.7503
8.1791 -7.8339 1.7581
8.8900 -7.1087 1.7669
9.5463 -6.3255 1.7777
10.1376 -5.4838 1.7891
10.6584 -4.5885 1.8013
11.1237 -3.6517 1.8174
11.5138 -2.6700 1.8347
11.7819 -1.6428 1.8466
11.9575 -0.5889 1.8584
12.0395 0.4833 1.8704
12.0162 1.5642 1.8810
11.8758 2.6404 1.8885
11.6084 3.6943 1.8910
11.2469 4.7212 1.8934
10.7940 5.7126 1.8957
10.2530 6.6604 1.8979
9.6281 7.5565 1.8999
8.9242 8.3934 1.9017
8.1469 9.1640 1.9034
7.3024 9.8617 1.9048
6.3976 10.4805 1.9060
1.1210 2.2699 0.3930
0.9167 2.3677 0.3941
0.7034 2.4456 0.3950
1.4054 7.2787 1.1507
0.6941 6.8212 1.0643
0.1483 12.2783 1.9061
-0.9475 12.2399 1.9057
-2.0351 12.1037 1.9052
-0.6442 2.4620 0.3950
-0.8593 2.3894 0.3942
-5.1602 11.1172 1.9025
-6.1565 10.6559 1.9103
-7.2060 10.2396 1.9436
-8.0907 9.5559 1.9436
-8.9109 8.7960 1.9436
-9.6601 7.9659 1.9436
-9.7775 6.6927 1.8393
-10.0766 5.6486 1.7932
-10.5540 4.7333 1.7955
-10.6981 3.6914 1.7567
-10.8966 2.7005 1.7426
-11.0107 1.7047 1.7295
-11.0319 0.7100 1.7160
-10.9622 -0.2748 1.7022
-10.8043 -1.2413 1.6882
-10.5618 -2.1819 1.6741
-10.2968 -3.1069 1.6695
-9.9206 -3.9897 1.6598
-9.4721 -4.8319 1.6506
-8.9559 -5.6279 1.6419
-8.4499 -6.4285 1.6481
-8.3930 -7.6588 1.7637
-7.6328 -8.3296 1.7538
-6.8245 -8.9317 1.7448
-1.1816 -1.8717 0.3436
-1.0068 -1.9636 0.3425
-0.8255 -2.0403 0.3416
-0.6388 -2.1014 0.3409
-0.4482 -2.1468 0.3404
-0.2546 -2.1761 0.3401
-0.0594 -2.1893 0.3400
0.1361 -2.1863 0.3400
0.3309 -2.1670 0.3403
0.5236 -2.1317 0.3407
0.7130 -2.0803 0.3414
0.8979 -2.0132 0.3422
5.4468 -9.7642 1.7356
6.3167 -9.2695 1.7412
7.1454 -8.7019 1.7478
7.9271 -8.0642 1.7553
8.6560 -7.3598 1.7637
9.3320 -6.5964 1.7739
9.9458 -5.7739 1.7852
10.4910 -4.8961 1.7971
10.9736 -3.9724 1.8116
11.3917 -3.0059 1.8288
11.7021 -1.9926 1.8426
11.9086 -0.9467 1.8544
12.0225 0.1202 1.8663
12.0368 1.1995 1.8777
11.9439 2.2804 1.8875
11.7092 3.3415 1.8902
11.3792 4.3784 1.8926
10.9568 5.3828 1.8950
10.4450 6.3462 1.8972
9.8480 7.2606 1.8992
9.1701 8.1182 1.9011
8.4169 8.9119 1.9028
7.5943 9.6349 1.9044
6.7090 10.2810 1.9057
5.7683 10.8447 1.9067
0.9867 2.3369 0.3938
0.7762 2.4216 0.3947
2.6934 11.9962 1.9085
0.8927 6.7478 1.0566
0.5180 12.2689 1.9062
-0.5785 12.2639 1.9058
-1.6698 12.1605 1.9054
-0.5701 2.4819 0.3953
-0.7876 2.4162 0.3945
-4.8240 11.2699 1.9029
-5.8198 10.8124 1.9061
-6.8943 10.4519 1.9436
-7.7992 9.7952 1.9436
-8.6420 9.0604 1.9436
-9.4158 8.2533 1.9436
-10.1145 7.3804 1.9436
-9.8971 5.9467 1.7923
-10.4023 5.0469 1.7947
-10.7602 4.0795 1.7863
-10.8369 3.0349 1.7469
-10.9827 2.0408 1.7340
-11.0350 1.0448 1.7206
-10.9957 0.0557 1.7069
-10.8672 -0.9179 1.6929
-10.6528 -1.8681 1.6788
-10.4067 -2.8010 1.6729
-10.0557 -3.6963 1.6630
-9.6312 -4.5528 1.6537
-9.1373 -5.3649 1.6448
-8.5713 -6.1222 1.6351
-8.4604 -7.2657 1.7311
-7.8948 -8.1109 1.7570
-7.1021 -8.7365 1.7477
-6.2650 -9.2917 1.7396
-1.0665 -1.9343 0.3429
-0.8873 -2.0161 0.3419
-0.7023 -2.0826 0.3412
-0.5128 -2.1333 0.3406
-0.3201 -2.1681 0.3402
-0.1253 -2.1867 0.3400
0.0702 -2.1891 0.3400
0.2654 -2.1753 0.3402
0.4589 -2.1454 0.3406
0.6495 -2.0994 0.3411
0.8361 -2.0376 0.3419
5.1452 -9.9141 1.7339
6.0277 -9.4446 1.7392
6.8709 -8.9013 1.7455
7.6691 -8.2869 1.7527
8.4164 -7.6045 1.7608
9.1105 -6.8604 1.7703
9.7463 -6.0576 1.7813
10.3152 -5.1980 1.7930
10.8146 -4.2875 1.8058
11.2599 -3.3370 1.8230
11.6121 -2.3392 1.8387
11.8491 -1.3022 1.8504
11.9946 -0.2414 1.8623
12.0456 0.8349 1.8743
11.9859 1.9162 1.8842
11.7992 2.9860 1.8893
11.5009 4.0320 1.8918
11.1094 5.0483 1.8942
10.6274 6.0264 1.8965
10.0586 6.9582 1.8986
9.4074 7.8359 1.9005
8.6789 8.6519 1.9023
7.8790 9.3994 1.9039
7.0141 10.0721 1.9052
6.0913 10.6641 1.9064
1.0556 2.3039 0.3934
0.8481 2.3953 0.3944
3.0533 11.9091 1.9084
1.0886 6.6754 1.0499
0.8874 12.2482 1.9063
-0.2088 12.2767 1.9060
-1.3029 12.2062 1.9055
-0.4954 2.4993 0.3955
-0.7150 2.4406 0.3948
-0.9276 2.3613 0.3938
-5.4801 10.9601 1.9021
-6.5515 10.6145 1.9363
-7.5006 10.0257 1.9436
-8.3651 9.3166 1.9436
-9.1629 8.5332 1.9436
-9.8877 7.6817 1.9436
-9.7088 6.2390 1.7914
-10.2411 5.3556 1.7940
-10.6913 4.4261 1.7962
-10.7666 3.3680 1.7511
-10.9440 2.3767 1.7384
-11.0277 1.3803 1.7252
-11.0191 0.3879 1.7115
-10.9203 -0.5918 1.6976
-10.7345 -1.5507 1.6836
-10.5224 -2.4948 1.6787
-10.1825 -3.3984 1.6663
-9.7823 -4.2687 1.6568
-9.3113 -5.0963 1.6477
-8.7718 -5.8747 1.6388
-8.4551 -6.8295 1.6871
-8.1512 -7.8846 1.7604
-7.3747 -8.5333 1.7507
-6.5519 -9.1125 1.7422
-1.1255 -1.9033 0.3432
-0.9484 -1.9902 0.3422
-0.7652 -2.0619 0.3414
-0.5772 -2.1180 0.3408
-0.3854 -2.1581 0.3403
-0.1912 -2.1822 0.3400
0.0043 -2.1901 0.3400
0.1997 -2.1818 0.3401
0.3939 -2.1573 0.3404
0.5857 -2.1167 0.3409
0.7737 -2.0602 0.3416
0.9569 -1.9880 0.3425
5.7341 -9.6113 1.7373
6.5913 -9.0926 1.7433
7.4054 -8.5018 1.7502
8.1705 -7.8420 1.7580
8.8820 -7.1175 1.7668
9.5391 -6.3350 1.7775
10.1311 -5.4939 1.7890
10.6527 -4.5993 1.8011
11.1187 -3.6629 1.8172
11.5098 -2.6817 1.8345
11.7793 -1.6549 1.8464
11.9560 -0.6013 1.8583
12.0391 0.4707 1.8702
12.0171 1.5516 1.8809
11.8783 2.6281 1.8885
11.6120 3.6822 1.8910
11.2517 4.7094 1.8934
10.7998 5.7013 1.8957
10.2598 6.6496 1.8979
9.6359 7.5464 1.8999
8.9329 8.3840 1.9017
8.1563 9.1554 1.9034
7.3126 9.8540 1.9048
6.4085 10.4738 1.9060
1.1233 2.2687 0.3930
0.9191 2.3667 0.3941
0.7059 2.4448 0.3950
1.4219 7.3232 1.1580
0.7010 6.8187 1.0640
0.1610 12.2782 1.9061
-0.9347 12.2409 1.9057
-2.0225 12.1058 1.9052
-0.6416 2.4628 0.3951
-0.8569 2.3903 0.3942
-5.1487 11.1226 1.9026
-6.1450 10.6616 1.9102
-7.1953 10.2470 1.9436
-8.0807 9.5643 1.9436
-8.9017 8.8053 1.9436
-9.6518 7.9760 1.9436
-9.8224 6.7385 1.8490
-10.0705 5.6590 1.7931
-10.5490 4.7442 1.7955
-10.6983 3.7040 1.7574
-10.8947 2.7120 1.7428
-11.0099 1.7163 1.7297
-11.0322 0.7216 1.7162
-10.9635 -0.2634 1.7023
-10.8067 -1.2302 1.6883
-10.5651 -2.1711 1.6743
-10.3007 -3.0964 1.6696
-9.9254 -3.9797 1.6599
-9.4778 -4.8223 1.6507
-8.9624 -5.6188 1.6420
-8.4497 -6.4145 1.6468
-8.4016 -7.6506 1.7639
-7.6420 -8.3222 1.7539
-6.8341 -8.9251 1.7449
-5.9838 -9.4568 1.7372
-1.0089 -1.9626 0.3425
-0.8276 -2.0395 0.3417
-0.6410 -2.1008 0.3410
-0.4504 -2.1464 0.3404
-0.2569 -2.1759 0.3401
-0.0617 -2.1893 0.3400
0.1339 -2.1864 0.3400
0.3286 -2.1674 0.3403
0.5214 -2.1322 0.3407
0.7108 -2.0810 0.3414
0.8957 -2.0141 0.3422
5.4364 -9.7695 1.7355
6.3068 -9.2757 1.7411
7.1360 -8.7089 1.7477
7.9183 -8.0720 1.7552
8.6478 -7.3683 1.7636
9.3245 -6.6056 1.7738
9.2026 -6.0702 1.7809
9.7678 -5.2575 1.7920
10.2647 -4.3937 1.8037
10.6964 -3.4868 1.8174
11.0651 -2.5417 1.8340
11.3295 -1.5557 1.8474
11.4934 -0.5421 1.8587
11.5672 0.4885 1.8703
11.5403 1.5267 1.8805
11.4041 2.5605 1.8881
11.1445 3.5722 1.8905
10.7946 4.5578 1.8929
10.3570 5.5090 1.8951
9.8350 6.4180 1.8971
9.2326 7.2772 1.8991
8.5545 8.0793 1.9008
7.8061 8.8175 1.9024
6.9934 9.4856 1.9038
6.1230 10.0778 1.9049
1.0697 2.1773 0.3919
0.8735 2.2703 0.3930
0.6690 2.3442 0.3938
0.4579 2.3983 0.3944
0.2423 2.4319 0.3948
0.0244 2.4445 0.3949
-0.1937 2.4362 0.3948
-0.4099 2.4069 0.3944
-0.6220 2.3571 0.3938
-0.8280 2.2872 0.3930
-4.9779 10.6662 1.9015
-5.9162 10.1909 1.9036
-6.9402 9.8186 1.9423
-7.7935 9.1661 1.9436
-8.5802 8.4343 1.9436
-9.2984 7.6353 1.9436
-9.6523 6.5775 1.8869
-9.6910 5.4060 1.7926
-10.1466 4.5252 1.7947
-10.2469 3.5119 1.7498
-10.4521 2.5672 1.7387
-10.5627 1.6128 1.7261
-10.5844 0.6591 1.7131
-10.5189 -0.2856 1.6999
-10.3943 -1.2161 1.6906
-10.1834 -2.1258 1.6805
-9.8955 -3.0083 1.6708
-9.5341 -3.8574 1.6614
-9.1031 -4.6675 1.6526
-8.6066 -5.4334 1.6442
-8.4380 -6.4472 1.7155
-8.0691 -7.3941 1.7680
-7.3371 -8.0405 1.7584
-6.5584 -8.6207 1.7498
-1.1343 -1.8051 0.3444
-0.9659 -1.8934 0.3434
-0.7911 -1.9672 0.3425
-0.6113 -2.0259 0.3418
-0.4275 -2.0694 0.3413
-0.2410 -2.0974 0.3410
-0.0529 -2.1097 0.3409
0.1356 -2.1064 0.3410
0.3232 -2.0874 0.3412
0.5088 -2.0529 0.3417
0.6911 -2.0029 0.3423
0.8690 -1.9378 0.3431
5.2676 -9.3969 1.7402
6.1041 -8.9175 1.7457
6.9005 -8.3680 1.7521
7.6511 -7.7510 1.7594
8.3503 -7.0699 1.7675
8.9975 -6.3318 1.7773
9.5846 -5.5375 1.7882
10.1051 -4.6904 1.7997
10.5541 -3.7957 1.8119
10.9498 -2.8650 1.8284
11.2544 -1.8923 1.8436
11.4481 -0.8862 1.8549
11.5525 0.1395 1.8664
11.5617 1.1765 1.8774
11.4678 2.2142 1.8868
11.2422 3.2336 1.8897
10.9225 4.2289 1.8921
10.5142 5.1926 1.8943
10.0203 6.1167 1.8965
9.4445 6.9935 1.8984
8.7913 7.8156 1.9003
8.0660 8.5761 1.9019
7.2742 9.2685 1.9033
6.4226 9.8869 1.9046
1.1335 2.1418 0.3915
0.9407 2.2410 0.3926
0.7388 2.3215 0.3935
0.5297 2.3823 0.3942
0.3154 2.4229 0.3947
0.0980 2.4426 0.3949
-0.1202 2.4414 0.3949
-0.3373 2.4191 0.3946
-0.5510 2.3762 0.3940
-0.7593 2.3130 0.3933
-0.9602 2.2303 0.3923
-5.5979 10.3485 1.9006
-6.5623 9.9039 1.9192
-7.5139 9.3967 1.9436
-8.3222 8.6889 1.9436
-9.0642 7.9118 1.9436
-9.7339 7.0717 1.9436
-9.5197 5.6930 1.7919
-10.0020 4.8270 1.7941
-10.1998 3.8427 1.7608
-10.3925 2.8871 1.7424
-10.5354 1.9350 1.7304
-10.5869 0.9801 1.7176
-10.5506 0.0315 1.7044
-10.4609 -0.9055 1.6962
-10.2633 -1.8218 1.6839
-10.0009 -2.7141 1.6740
-9.6639 -3.5752 1.6645
-9.2559 -4.3990 1.6555
-8.7811 -5.1803 1.6470
-8.4329 -6.0500 1.6766
-8.3044 -7.1618 1.7715
-7.5895 -7.8297 1.7615
-6.8259 -8.4326 1.7526
-6.0192 -8.9675 1.7447
-1.0234 -1.8653 0.3437
-0.8507 -1.9440 0.3428
-0.6724 -2.0078 0.3420
-0.4898 -2.0564 0.3415
-0.3041 -2.0896 0.3411
-0.1164 -2.1073 0.3409
0.0721 -2.1093 0.3409
0.2601 -2.0956 0.3411
0.4465 -2.0663 0.3415
0.6301 -2.0215 0.3420
0.8096 -1.9614 0.3428
0.9840 -1.8863 0.3437
5.8262 -9.0872 1.7438
6.6368 -8.5610 1.7499
7.4034 -7.9664 1.7568
8.1206 -7.3065 1.7647
8.7854 -6.5870 1.7738
9.3938 -5.8115 1.7844
9.9373 -4.9817 1.7957
10.4108 -4.1024 1.8077
10.8253 -3.1837 1.8228
11.1674 -2.2254 1.8395
11.3926 -1.2280 1.8511
11.5274 -0.2080 1.8625
11.5714 0.8262 1.8740
11.5097 1.8647 1.8836
11.3296 2.8922 1.8889
11.0404 3.8964 1.8913
10.6616 4.8716 1.8936
10.1962 5.8100 1.8958
9.6475 6.7036 1.8978
9.0199 7.5449 1.8997
8.3183 8.3269 1.9014
7.5482 9.0430 1.9029
6.7160 9.6870 1.9042
5.8284 10.2534 1.9053
1.0068 2.2096 0.3923
0.8078 2.2965 0.3933
0.6009 2.3640 0.3940
0.3881 2.4115 0.3946
0.1716 2.4383 0.3949
-0.0467 2.4441 0.3949
-0.2644 2.4290 0.3947
-0.4795 2.3929 0.3942
-0.6898 2.3365 0.3936
-0.8934 2.2603 0.3926
-5.2849 10.5148 1.9011
-6.2234 10.0362 1.9077
-7.2275 9.6188 1.9436
-8.0568 8.9356 1.9436
-8.8218 8.1813 1.9436
-9.5165 7.3616 1.9436
-9.3406 5.9750 1.7912
-9.8481 5.1240 1.7933
-10.2207 4.2064 1.7854
-10.3252 3.2064 1.7465
-10.4980 2.2570 1.7346
-10.5795 1.3018 1.7219
-10.5725 0.3501 1.7089
-10.4968 -0.5908 1.6984
-10.3343 -1.5149 1.6873
-10.0979 -2.4164 1.6773
-9.7857 -3.2887 1.6677
-9.4012 -4.1257 1.6585
-8.9484 -4.9219 1.6498
-8.4388 -5.6772 1.6430
-8.4428 -6.8488 1.7562
