ply
format ascii 1.0
element vertex 2176
property float32 x
property float32 y
property float32 z
end_header
0.7493 -1.1248 0.3666
0.8466 -1.0534 0.3666
0.9370 -0.9735 0.3665
1.0200 -0.8859 0.3665
5.1209 -3.7013 1.7139
5.4694 -3.2528 1.7261
5.7655 -2.7653 1.7345
6.0097 -2.2476 1.7404
6.1987 -1.7060 1.7439
6.3332 -1.1475 1.7459
4.7450 -0.4279 1.2923
6.4375 -0.0039 1.7462
6.2213 0.8023 1.7431
6.1181 1.3526 1.7411
5.9636 1.8899 1.7384
5.7575 2.4086 1.7342
5.4998 2.9021 1.7280
5.1913 3.3632 1.7188
1.0360 0.8110 0.3656
0.9594 0.9001 0.3655
0.8752 0.9820 0.3655
0.7840 1.0560 0.3655
0.6866 1.1216 0.3654
0.5838 1.1783 0.3654
0.4764 1.2256 0.3654
0.3651 1.2632 0.3654
0.2510 1.2907 0.3654
0.1348 1.3079 0.3654
0.0176 1.3147 0.3654
-0.0997 1.3111 0.3654
-0.2163 1.2970 0.3654
-0.3311 1.2726 0.3654
-0.4433 1.2380 0.3654
-0.5520 1.1936 0.3654
-0.6564 1.1397 0.3655
-0.7555 1.0767 0.3655
-0.8486 1.0052 0.3655
-0.9350 0.9256 0.3656
-1.0140 0.8386 0.3656
-5.5169 3.7879 1.8596
-5.8328 3.2807 1.8596
-6.1022 2.7473 1.8596
-6.2013 2.1499 1.8238
-6.2088 1.5484 1.7781
-6.2137 0.9714 1.7476
-6.2159 0.4093 1.7310
-6.2157 -0.1465 1.7277
-6.2131 -0.7044 1.7375
-6.2080 -1.2727 1.7609
-6.2001 -1.8605 1.7988
-6.1892 -2.4781 1.8526
-5.9660 -3.0318 1.8596
-5.6718 -3.5519 1.8596
-1.0509 -0.7969 0.3665
-0.9757 -0.8876 0.3665
-0.8928 -0.9712 0.3666
-0.8026 -1.0470 0.3666
-0.7061 -1.1146 0.3666
-0.6039 -1.1732 0.3667
-0.4969 -1.2225 0.3667
-0.3859 -1.2620 0.3667
-0.2718 -1.2914 0.3667
-0.1555 -1.3105 0.3667
-0.0380 -1.3192 0.3667
0.0798 -1.3173 0.3667
0.1970 -1.3049 0.3667
0.3126 -1.2821 0.3667
0.4257 -1.2490 0.3667
0.5354 -1.2060 0.3667
0.6408 -1.1533 0.3666
0.7410 -1.0914 0.3666
0.8354 -1.0209 0.3665
0.9230 -0.9422 0.3665
1.0032 -0.8560 0.3665
1.0754 -0.7630 0.3664
5.3545 -3.1210 1.7222
5.6403 -2.6444 1.7310
5.8763 -2.1390 1.7377
6.0556 -1.6095 1.7411
6.1831 -1.0643 1.7434
4.7772 -0.3884 1.3319
6.2772 0.0514 1.7444
6.2447 0.6108 1.7436
6.1595 1.1643 1.7419
6.0225 1.7067 1.7394
5.8340 2.2324 1.7358
5.5950 2.7358 1.7306
5.3038 3.2090 1.7226
1.0605 0.7788 0.3656
0.9867 0.8702 0.3656
0.9050 0.9546 0.3655
0.8162 1.0314 0.3655
0.7208 1.1000 0.3655
0.6198 1.1598 0.3654
0.5138 1.2104 0.3654
0.4038 1.2514 0.3654
0.2905 1.2824 0.3654
0.1750 1.3031 0.3654
0.0580 1.3135 0.3654
-0.0594 1.3135 0.3654
-0.1763 1.3030 0.3654
-0.2918 1.2821 0.3654
-0.4051 1.2510 0.3654
-0.5151 1.2100 0.3654
-0.6210 1.1593 0.3655
-0.7220 1.0994 0.3655
-0.8173 1.0307 0.3655
-0.9061 0.9538 0.3656
-0.9877 0.8693 0.3656
-1.0614 0.7779 0.3657
-5.7292 3.4585 1.8596
-6.0148 2.9337 1.8596
-6.1979 2.3646 1.8434
-6.2066 1.7522 1.7921
-6.2123 1.1679 1.7565
-6.2154 0.6017 1.7352
-6.2161 0.0447 1.7274
-6.2143 -0.5115 1.7327
-6.2100 -1.0753 1.7513
-6.2031 -1.6553 1.7840
-6.1933 -2.2614 1.8321
-6.0564 -2.8469 1.8596
-5.7783 -3.3758 1.8596
-1.0748 -0.7642 0.3665
-1.0025 -0.8571 0.3665
-0.9222 -0.9432 0.3666
-0.8344 -1.0218 0.3666
-0.7400 -1.0923 0.3666
-0.6397 -1.1540 0.3667
-0.5342 -1.2066 0.3667
-0.4245 -1.2495 0.3667
-0.3114 -1.2824 0.3667
-0.1957 -1.3051 0.3667
-0.0785 -1.3174 0.3667
0.0393 -1.3191 0.3667
0.1568 -1.3103 0.3667
0.2731 -1.2911 0.3667
0.3871 -1.2615 0.3667
0.4981 -1.2219 0.3667
0.6050 -1.1725 0.3666
0.7072 -1.1138 0.3666
0.8036 -1.0461 0.3666
0.8936 -0.9702 0.3665
0.9765 -0.8865 0.3665
1.0515 -0.7957 0.3664
5.2420 -3.2754 1.7176
5.5480 -2.8124 1.7284
5.8005 -2.3158 1.7355
5.9997 -1.7938 1.7401
6.1452 -1.2534 1.7428
4.8176 -0.5413 1.3471
5.0145 -0.1132 1.3938
6.2619 0.4186 1.7439
6.1948 0.9748 1.7426
6.0754 1.5216 1.7404
5.9047 2.0537 1.7372
5.6834 2.5656 1.7327
5.4091 3.0495 1.7255
1.0840 0.7459 0.3656
1.0130 0.8395 0.3656
0.9340 0.9264 0.3655
0.8475 1.0059 0.3655
0.7543 1.0774 0.3655
0.6552 1.1403 0.3654
0.5508 1.1941 0.3654
0.4421 1.2384 0.3654
0.3298 1.2728 0.3654
0.2150 1.2971 0.3654
0.0984 1.3111 0.3654
-0.0189 1.3147 0.3654
-0.1361 1.3078 0.3654
-0.2523 1.2905 0.3654
-0.3664 1.2629 0.3654
-0.4776 1.2252 0.3654
-0.5850 1.1778 0.3654
-0.6878 1.1211 0.3655
-0.7852 1.0553 0.3655
-0.8763 0.9812 0.3656
-0.9604 0.8992 0.3656
-1.0369 0.8101 0.3656
-5.6201 3.6330 1.8596
-5.9218 3.1172 1.8596
-6.1762 2.5765 1.8596
-6.2039 1.9593 1.8079
-6.2106 1.3665 1.7671
-6.2146 0.7952 1.7410
-6.2161 0.2359 1.7286
-6.2152 -0.3196 1.7293
-6.2118 -0.8798 1.7433
-6.2058 -1.4532 1.7711
-6.1971 -2.0491 1.8137
-6.1411 -2.6593 1.8596
-5.8794 -3.1965 1.8596
-5.5708 -3.7082 1.8596
-1.0283 -0.8259 0.3665
-0.9507 -0.9144 0.3665
-0.8654 -0.9957 0.3666
-0.7732 -1.0690 0.3666
-0.6749 -1.1338 0.3666
-0.5711 -1.1896 0.3667
-0.4627 -1.2358 0.3667
-0.3506 -1.2722 0.3667
-0.2358 -1.2985 0.3667
-0.1190 -1.3144 0.3667
-0.0013 -1.3197 0.3667
0.1164 -1.3146 0.3667
0.2332 -1.2989 0.3667
0.3482 -1.2729 0.3667
0.4603 -1.2367 0.3667
0.5687 -1.1906 0.3666
0.6726 -1.1350 0.3666
0.7711 -1.0704 0.3666
0.8634 -0.9972 0.3665
0.9488 -0.9161 0.3665
1.0266 -0.8277 0.3664
5.1280 -3.4278 1.7140
5.4501 -2.9769 1.7257
5.7190 -2.4897 1.7332
5.9378 -1.9761 1.7390
6.1009 -1.4411 1.7420
5.3449 -0.7676 1.5005
4.8207 -0.2573 1.3415
6.2728 0.2259 1.7442
6.2238 0.7841 1.7431
6.1223 1.3347 1.7412
5.9694 1.8725 1.7385
5.7650 2.3919 1.7344
5.5091 2.8864 1.7283
5.2025 3.3488 1.7192
1.0384 0.8080 0.3656
0.9620 0.8973 0.3656
0.8781 0.9794 0.3655
0.7871 1.0537 0.3655
0.6899 1.1196 0.3654
0.5873 1.1766 0.3654
0.4799 1.2242 0.3654
0.3688 1.2621 0.3654
0.2548 1.2899 0.3654
0.1387 1.3075 0.3654
0.0215 1.3146 0.3654
-0.0959 1.3113 0.3654
-0.2125 1.2976 0.3654
-0.3274 1.2735 0.3654
-0.4397 1.2393 0.3654
-0.5485 1.1952 0.3654
-0.6530 1.1416 0.3655
-0.7523 1.0789 0.3655
-0.8457 1.0076 0.3655
-0.9323 0.9283 0.3656
-1.0115 0.8415 0.3656
-5.5058 3.8041 1.8596
-5.8231 3.2978 1.8596
-6.0941 2.7652 1.8596
-6.2010 2.1702 1.8256
-6.2086 1.5677 1.7794
-6.2135 0.9901 1.7484
-6.2159 0.4276 1.7313
-6.2158 -0.1283 1.7276
-6.2132 -0.6859 1.7370
-6.2082 -1.2537 1.7599
-6.2004 -1.8408 1.7973
-6.1897 -2.4572 1.8505
-5.9749 -3.0142 1.8596
-5.6822 -3.5352 1.8596
-1.0532 -0.7938 0.3665
-0.9783 -0.8847 0.3665
-0.8956 -0.9686 0.3666
-0.8057 -1.0447 0.3666
-0.7094 -1.1125 0.3666
-0.6074 -1.1714 0.3667
-0.5005 -1.2210 0.3667
-0.3896 -1.2608 0.3667
-0.2756 -1.2906 0.3667
-0.1593 -1.3101 0.3667
-0.0419 -1.3191 0.3667
0.0760 -1.3175 0.3667
0.1932 -1.3055 0.3667
0.3089 -1.2830 0.3667
0.4221 -1.2502 0.3667
0.5319 -1.2075 0.3667
0.6374 -1.1552 0.3666
0.7378 -1.0936 0.3666
0.8324 -1.0233 0.3665
0.9202 -0.9449 0.3665
1.0007 -0.8589 0.3665
1.0732 -0.7661 0.3664
5.3440 -3.1359 1.7218
5.6317 -2.6606 1.7308
5.8693 -2.1560 1.7375
6.0505 -1.6271 1.7410
6.1798 -1.0824 1.7434
4.7729 -0.4022 1.3310
6.2774 0.0330 1.7444
6.2467 0.5925 1.7436
6.1631 1.1463 1.7420
6.0278 1.6891 1.7395
5.8409 2.2155 1.7359
5.6037 2.7198 1.7309
5.3141 3.1939 1.7229
1.0628 0.7757 0.3656
0.9892 0.8673 0.3656
0.9078 0.9520 0.3655
0.8192 1.0290 0.3655
0.7241 1.0979 0.3655
0.6232 1.1580 0.3654
0.5174 1.2089 0.3654
0.4074 1.2502 0.3654
0.2943 1.2815 0.3654
0.1788 1.3026 0.3654
0.0619 1.3134 0.3654
-0.0555 1.3137 0.3654
-0.1725 1.3035 0.3654
-0.2881 1.2830 0.3654
-0.4014 1.2522 0.3654
-0.5115 1.2115 0.3654
-0.6176 1.1611 0.3655
-0.7188 1.1015 0.3655
-0.8143 1.0331 0.3655
-0.9033 0.9565 0.3656
-0.9851 0.8722 0.3656
-1.0591 0.7810 0.3657
-5.7190 3.4753 1.8596
-6.0062 2.9513 1.8596
-6.1976 2.3853 1.8453
-6.2063 1.7718 1.7935
-6.2122 1.1868 1.7574
-6.2154 0.6201 1.7357
-6.2161 0.0629 1.7274
-6.2144 -0.4932 1.7323
-6.2102 -1.0566 1.7505
-6.2034 -1.6359 1.7827
-6.1937 -2.2410 1.8303
-6.0647 -2.8291 1.8596
-5.7882 -3.3588 1.8596
-1.0771 -0.7610 0.3665
-1.0050 -0.8542 0.3665
-0.9249 -0.9405 0.3666
-0.8374 -1.0194 0.3666
-0.7432 -1.0901 0.3666
-0.6431 -1.1522 0.3667
-0.5378 -1.2050 0.3667
-0.4282 -1.2482 0.3667
-0.3151 -1.2815 0.3667
-0.1996 -1.3045 0.3667
-0.0824 -1.3172 0.3667
0.0354 -1.3193 0.3667
0.1530 -1.3108 0.3667
0.2693 -1.2919 0.3667
0.3834 -1.2627 0.3667
0.4945 -1.2233 0.3667
0.6016 -1.1743 0.3666
0.7039 -1.1158 0.3666
0.8005 -1.0485 0.3666
0.8908 -0.9728 0.3665
0.9739 -0.8893 0.3665
1.0492 -0.7988 0.3664
5.2310 -3.2899 1.7172
5.5389 -2.8282 1.7282
5.7930 -2.3325 1.7353
5.9941 -1.8113 1.7400
6.1412 -1.2714 1.7427
4.8257 -0.5565 1.3498
4.9824 -0.1271 1.3850
6.2632 0.4003 1.7440
6.1978 0.9566 1.7426
6.0801 1.5038 1.7404
5.9111 2.0365 1.7373
5.6914 2.5492 1.7329
5.4189 3.0341 1.7258
1.0862 0.7427 0.3656
1.0154 0.8365 0.3656
0.9367 0.9236 0.3655
0.8505 1.0034 0.3655
0.7575 1.0752 0.3655
0.6585 1.1383 0.3654
0.5543 1.1925 0.3654
0.4457 1.2371 0.3654
0.3336 1.2719 0.3654
0.2188 1.2965 0.3654
0.1022 1.3108 0.3654
-0.0151 1.3147 0.3654
-0.1323 1.3082 0.3654
-0.2485 1.2912 0.3654
-0.3627 1.2639 0.3654
-0.4740 1.2266 0.3654
-0.5816 1.1795 0.3654
-0.6845 1.1231 0.3655
-0.7821 1.0576 0.3655
-0.8734 0.9838 0.3656
-0.9578 0.9020 0.3656
-1.0346 0.8131 0.3656
-5.6094 3.6495 1.8596
-5.9126 3.1345 1.8596
-6.1687 2.5946 1.8596
-6.2037 1.9792 1.8095
-6.2105 1.3856 1.7682
-6.2145 0.8137 1.7416
-6.2161 0.2542 1.7288
-6.2153 -0.3014 1.7291
-6.2119 -0.8613 1.7427
-6.2060 -1.4341 1.7700
-6.1974 -2.0291 1.8121
-6.1488 -2.6413 1.8596
-5.8887 -3.1793 1.8596
-5.5816 -3.6919 1.8596
-1.0308 -0.8228 0.3665
-0.9534 -0.9116 0.3665
-0.8683 -0.9931 0.3666
-0.7764 -1.0667 0.3666
-0.6782 -1.1318 0.3666
-0.5746 -1.1879 0.3667
-0.4663 -1.2345 0.3667
-0.3544 -1.2712 0.3667
-0.2396 -1.2978 0.3667
-0.1228 -1.3140 0.3667
-0.0051 -1.3197 0.3667
0.1126 -1.3149 0.3667
0.2294 -1.2996 0.3667
0.3444 -1.2739 0.3667
0.4567 -1.2380 0.3667
0.5652 -1.1922 0.3666
0.6693 -1.1370 0.3666
0.7679 -1.0726 0.3666
0.8605 -0.9998 0.3665
0.9461 -0.9189 0.3665
1.0242 -0.8307 0.3664
5.1176 -3.4427 1.7139
5.4405 -2.9924 1.7254
5.7109 -2.5061 1.7330
5.9316 -1.9934 1.7388
6.0964 -1.4589 1.7419
5.3567 -0.7853 1.5044
4.8148 -0.2711 1.3400
6.2735 0.2076 1.7442
6.2263 0.7659 1.7432
6.1265 1.3168 1.7413
5.9753 1.8551 1.7386
5.7725 2.3752 1.7345
5.5184 2.8706 1.7285
5.2136 3.3344 1.7197
1.0407 0.8049 0.3656
0.9647 0.8944 0.3656
0.8809 0.9768 0.3655
0.7902 1.0514 0.3655
0.6932 1.1176 0.3654
0.5907 1.1749 0.3654
0.4835 1.2228 0.3654
0.3725 1.2610 0.3654
0.2585 1.2892 0.3654
0.1425 1.3071 0.3654
0.0253 1.3146 0.3654
-0.0920 1.3116 0.3654
-0.2087 1.2982 0.3654
-0.3236 1.2745 0.3654
-0.4361 1.2406 0.3654
-0.5450 1.1968 0.3654
-0.6497 1.1435 0.3655
-0.7492 1.0811 0.3655
-0.8427 1.0101 0.3655
-0.9296 0.9310 0.3656
-1.0090 0.8445 0.3656
-1.0805 0.7512 0.3657
-5.8134 3.3149 1.8596
-6.0860 2.7831 1.8596
-6.2007 2.1905 1.8274
-6.2084 1.5870 1.7807
-6.2134 1.0087 1.7492
-6.2159 0.4460 1.7317
-6.2158 -0.1100 1.7275
-6.2134 -0.6675 1.7365
-6.2084 -1.2348 1.7590
-6.2007 -1.8211 1.7958
-6.1901 -2.4364 1.8485
-5.9837 -2.9967 1.8596
-5.6925 -3.5185 1.8596
-1.0555 -0.7907 0.3665
-0.9809 -0.8818 0.3665
-0.8984 -0.9659 0.3666
-0.8088 -1.0423 0.3666
-0.7126 -1.1104 0.3666
-0.6108 -1.1696 0.3667
-0.5040 -1.2195 0.3667
-0.3933 -1.2597 0.3667
-0.2794 -1.2898 0.3667
-0.1632 -1.3096 0.3667
-0.0457 -1.3189 0.3667
0.0721 -1.3178 0.3667
0.1894 -1.3060 0.3667
0.3051 -1.2839 0.3667
0.4184 -1.2515 0.3667
0.5283 -1.2091 0.3667
0.6340 -1.1570 0.3666
0.7346 -1.0958 0.3666
0.8294 -1.0258 0.3665
0.9174 -0.9476 0.3665
0.9982 -0.8619 0.3665
1.0709 -0.7693 0.3664
5.3334 -3.1508 1.7213
5.6231 -2.6767 1.7305
5.8623 -2.1729 1.7373
6.0454 -1.6448 1.7409
6.1764 -1.1005 1.7433
4.7686 -0.4159 1.3301
6.2775 0.0146 1.7444
6.2485 0.5742 1.7436
6.1667 1.1283 1.7420
6.0330 1.6715 1.7396
5.8479 2.1985 1.7360
5.6125 2.7037 1.7311
5.3243 3.1788 1.7231
1.0650 0.7726 0.3656
0.9918 0.8644 0.3656
0.9106 0.9493 0.3655
0.8222 1.0266 0.3655
0.7273 1.0958 0.3655
0.6266 1.1562 0.3654
0.5209 1.2074 0.3654
0.4111 1.2490 0.3654
0.2980 1.2806 0.3654
0.1826 1.3021 0.3654
0.0657 1.3132 0.3654
-0.0517 1.3138 0.3654
-0.1686 1.3040 0.3654
-0.2843 1.2838 0.3654
-0.3977 1.2534 0.3654
-0.5080 1.2130 0.3654
-0.6142 1.1629 0.3655
-0.7155 1.1036 0.3655
-0.8112 1.0355 0.3655
-0.9005 0.9591 0.3656
-0.9825 0.8751 0.3656
-1.0568 0.7841 0.3657
-5.7088 3.4920 1.8596
-5.9975 2.9689 1.8596
-6.1973 2.4061 1.8473
-6.2061 1.7914 1.7949
-6.2120 1.2056 1.7584
-6.2153 0.6385 1.7362
-6.2161 0.0811 1.7275
-6.2145 -0.4749 1.7319
-6.2104 -1.0379 1.7497
-6.2037 -1.6165 1.7814
-6.1941 -2.2206 1.8285
-6.0730 -2.8113 1.8596
-5.7980 -3.3418 1.8596
-1.0793 -0.7579 0.3665
-1.0075 -0.8512 0.3665
-0.9277 -0.9378 0.3665
-0.8404 -1.0169 0.3666
-0.7464 -1.0879 0.3666
-0.6464 -1.1503 0.3667
-0.5413 -1.2034 0.3667
-0.4318 -1.2470 0.3667
-0.3189 -1.2806 0.3667
-0.2034 -1.3040 0.3667
-0.0863 -1.3169 0.3667
0.0316 -1.3193 0.3667
0.1491 -1.3112 0.3667
0.2655 -1.2927 0.3667
0.3797 -1.2638 0.3667
0.4909 -1.2248 0.3667
0.5982 -1.1760 0.3666
0.7006 -1.1179 0.3666
0.7975 -1.0508 0.3666
0.8879 -0.9754 0.3665
0.9713 -0.8922 0.3665
1.0468 -0.8019 0.3664
5.2200 -3.3044 1.7167
5.5297 -2.8440 1.7279
5.7854 -2.3492 1.7351
5.9883 -1.8288 1.7399
6.1372 -1.2893 1.7426
4.8338 -0.5718 1.3526
4.9508 -0.1408 1.3763
6.2645 0.3819 1.7440
6.2008 0.9385 1.7427
6.0848 1.4860 1.7405
5.9175 2.0193 1.7374
5.6994 2.5327 1.7331
5.4286 3.0187 1.7260
1.0883 0.7395 0.3656
1.0179 0.8335 0.3656
0.9394 0.9209 0.3655
0.8534 1.0009 0.3655
0.7606 1.0729 0.3655
0.6618 1.1364 0.3654
0.5578 1.1908 0.3654
0.4493 1.2358 0.3654
0.3373 1.2709 0.3654
0.2226 1.2959 0.3654
0.1061 1.3105 0.3654
-0.0112 1.3148 0.3654
-0.1285 1.3086 0.3654
-0.2447 1.2919 0.3654
-0.3590 1.2650 0.3654
-0.4704 1.2280 0.3654
-0.5781 1.1812 0.3654
-0.6812 1.1251 0.3655
-0.7790 1.0599 0.3655
-0.8705 0.9863 0.3656
-0.9551 0.9048 0.3656
-1.0322 0.8161 0.3656
-5.5987 3.6659 1.8596
-5.9034 3.1519 1.8596
-6.1610 2.6127 1.8596
-6.2034 1.9992 1.8111
-6.2103 1.4047 1.7693
-6.2145 0.8322 1.7423
-6.2161 0.2725 1.7290
-6.2153 -0.2831 1.7289
-6.2121 -0.8427 1.7420
-6.2063 -1.4150 1.7688
-6.1977 -2.0091 1.8104
-6.1565 -2.6233 1.8596
-5.8980 -3.1620 1.8596
-5.5924 -3.6755 1.8596
-1.0332 -0.8198 0.3665
-0.9560 -0.9088 0.3665
-0.8712 -0.9906 0.3666
-0.7795 -1.0644 0.3666
-0.6815 -1.1298 0.3666
-0.5780 -1.1862 0.3667
-0.4699 -1.2331 0.3667
-0.3581 -1.2702 0.3667
-0.2434 -1.2971 0.3667
-0.1267 -1.3136 0.3667
-0.0090 -1.3197 0.3667
0.1087 -1.3152 0.3667
0.2256 -1.3002 0.3667
0.3407 -1.2749 0.3667
0.4530 -1.2393 0.3667
0.5617 -1.1939 0.3666
0.6659 -1.1389 0.3666
0.7648 -1.0749 0.3666
0.8575 -1.0023 0.3665
0.9434 -0.9217 0.3665
1.0217 -0.8337 0.3664
1.0919 -0.7392 0.3664
5.4309 -3.0078 1.7251
5.7028 -2.5226 1.7328
5.9253 -2.0107 1.7387
6.0918 -1.4767 1.7418
5.3896 -0.8063 1.5143
4.8101 -0.2850 1.3390
6.2742 0.1892 1.7442
6.2287 0.7476 1.7432
6.1306 1.2989 1.7414
5.9810 1.8377 1.7387
5.7799 2.3585 1.7347
5.5276 2.8549 1.7288
5.2247 3.3199 1.7201
1.0431 0.8019 0.3656
0.9673 0.8916 0.3656
0.8838 0.9742 0.3655
0.7933 1.0491 0.3655
0.6965 1.1156 0.3654
0.5942 1.1732 0.3654
0.4871 1.2214 0.3654
0.3762 1.2599 0.3654
0.2623 1.2884 0.3654
0.1463 1.3067 0.3654
0.0292 1.3145 0.3654
-0.0882 1.3119 0.3654
-0.2049 1.2988 0.3654
-0.3199 1.2754 0.3654
-0.4324 1.2419 0.3654
-0.5415 1.1984 0.3654
-0.6463 1.1454 0.3655
-0.7460 1.0833 0.3655
-0.8397 1.0126 0.3655
-0.9268 0.9337 0.3656
-1.0065 0.8475 0.3656
-1.0783 0.7544 0.3657
-5.8037 3.3319 1.8596
-6.0778 2.8009 1.8596
-6.2003 2.2109 1.8292
-6.2082 1.6064 1.7819
-6.2133 1.0274 1.7500
-6.2158 0.4643 1.7320
-6.2159 -0.0918 1.7274
-6.2135 -0.6491 1.7360
-6.2086 -1.2160 1.7580
-6.2010 -1.8014 1.7944
-6.1905 -2.4156 1.8465
-5.9924 -2.9791 1.8596
-5.7028 -3.5018 1.8596
-1.0578 -0.7876 0.3665
-0.9835 -0.8789 0.3665
-0.9013 -0.9633 0.3666
-0.8118 -1.0399 0.3666
-0.7159 -1.1083 0.3666
-0.6142 -1.1678 0.3667
-0.5076 -1.2180 0.3667
-0.3970 -1.2585 0.3667
-0.2831 -1.2890 0.3667
-0.1670 -1.3091 0.3667
-0.0496 -1.3188 0.3667
0.0682 -1.3180 0.3667
0.1855 -1.3066 0.3667
0.3013 -1.2848 0.3667
0.4147 -1.2527 0.3667
0.5248 -1.2106 0.3667
0.6306 -1.1589 0.3666
0.7314 -1.0979 0.3666
0.8263 -1.0282 0.3666
0.9147 -0.9503 0.3665
0.9957 -0.8648 0.3665
1.0687 -0.7724 0.3664
5.3228 -3.1656 1.7209
5.6144 -2.6928 1.7303
5.8552 -2.1898 1.7371
6.0402 -1.6624 1.7408
6.1730 -1.1185 1.7433
4.7717 -0.4303 1.3313
6.2776 -0.0038 1.7444
6.0673 0.7825 1.7406
5.9664 1.3190 1.7386
5.8146 1.8427 1.7355
5.6127 2.3480 1.7311
5.3591 2.8278 1.7241
1.0786 0.6987 0.3657
1.0118 0.7921 0.3656
0.9370 0.8791 0.3656
0.8548 0.9590 0.3655
0.7657 1.0314 0.3655
0.6706 1.0955 0.3655
0.5702 1.1508 0.3654
0.4652 1.1970 0.3654
0.3566 1.2337 0.3654
0.2451 1.2606 0.3654
0.1317 1.2774 0.3654
0.0172 1.2840 0.3654
-0.0974 1.2805 0.3654
-0.2112 1.2667 0.3654
-0.3234 1.2429 0.3654
-0.4330 1.2091 0.3654
-0.5392 1.1658 0.3655
-0.6411 1.1131 0.3655
-0.7379 1.0516 0.3655
-0.8288 0.9817 0.3656
-0.9132 0.9040 0.3656
-0.9903 0.8190 0.3656
-1.0596 0.7275 0.3657
-5.6965 3.2041 1.8596
-5.9596 2.6832 1.8596
-6.1752 2.1409 1.8596
-6.2014 1.5465 1.8185
-6.2063 0.9703 1.7873
-6.2086 0.4089 1.7703
-6.2085 -0.1463 1.7670
-6.2058 -0.7035 1.7770
-6.2006 -1.2711 1.8009
-6.1926 -1.8582 1.8395
-6.0675 -2.4294 1.8596
-5.8266 -2.9609 1.8596
-1.0915 -0.6835 0.3664
-1.0263 -0.7783 0.3665
-0.9529 -0.8668 0.3665
-0.8719 -0.9485 0.3666
-0.7839 -1.0225 0.3666
-0.6896 -1.0885 0.3666
-0.5898 -1.1457 0.3666
-0.4853 -1.1939 0.3667
-0.3769 -1.2324 0.3667
-0.2654 -1.2612 0.3667
-0.1519 -1.2799 0.3667
-0.0371 -1.2883 0.3667
0.0780 -1.2865 0.3667
0.1924 -1.2744 0.3667
0.3053 -1.2521 0.3667
0.4158 -1.2198 0.3667
0.5229 -1.1777 0.3666
0.6258 -1.1263 0.3666
0.7237 -1.0659 0.3666
0.8158 -0.9970 0.3665
0.9014 -0.9202 0.3665
0.9798 -0.8360 0.3664
1.0503 -0.7451 0.3664
5.2122 -3.0381 1.7165
5.4957 -2.5766 1.7270
5.7251 -2.0839 1.7335
5.9041 -1.5692 1.7382
6.0284 -1.0376 1.7404
4.8464 -0.3941 1.3835
6.1218 0.0501 1.7419
6.0901 0.5957 1.7411
6.0070 1.1355 1.7394
5.8725 1.6642 1.7367
5.6885 2.1767 1.7330
5.4516 2.6657 1.7266
1.0996 0.6653 0.3657
1.0357 0.7606 0.3656
0.9636 0.8499 0.3656
0.8839 0.9323 0.3655
0.7971 1.0074 0.3655
0.7040 1.0744 0.3655
0.6053 1.1328 0.3654
0.5018 1.1822 0.3654
0.3944 1.2222 0.3654
0.2838 1.2525 0.3654
0.1709 1.2727 0.3654
0.0567 1.2829 0.3654
-0.0580 1.2829 0.3654
-0.1722 1.2726 0.3654
-0.2850 1.2522 0.3654
-0.3956 1.2219 0.3654
-0.5031 1.1818 0.3654
-0.6065 1.1323 0.3655
-0.7052 1.0738 0.3655
-0.7982 1.0067 0.3655
-0.8849 0.9316 0.3656
-0.9646 0.8490 0.3656
-1.0366 0.7597 0.3657
-5.5953 3.3777 1.8596
-5.8743 2.8651 1.8596
-6.1065 2.3297 1.8596
-6.1990 1.7501 1.8327
-6.2049 1.1665 1.7964
-6.2081 0.6010 1.7746
-6.2088 0.0446 1.7666
-6.2070 -0.5109 1.7720
-6.2027 -1.0740 1.7911
-6.1956 -1.6533 1.8245
-6.1393 -2.2417 1.8596
-5.9149 -2.7804 1.8596
-5.6433 -3.2969 1.8596
-1.0497 -0.7463 0.3665
-0.9791 -0.8371 0.3665
-0.9006 -0.9212 0.3665
-0.8149 -0.9979 0.3666
-0.7227 -1.0667 0.3666
-0.6247 -1.1270 0.3666
-0.5217 -1.1784 0.3667
-0.4146 -1.2203 0.3667
-0.3041 -1.2524 0.3667
-0.1911 -1.2746 0.3667
-0.0767 -1.2866 0.3667
0.0384 -1.2883 0.3667
0.1531 -1.2797 0.3667
0.2667 -1.2609 0.3667
0.3781 -1.2320 0.3667
0.4864 -1.1933 0.3666
0.5909 -1.1451 0.3666
0.6906 -1.0877 0.3666
0.7848 -1.0217 0.3665
0.8727 -0.9475 0.3665
0.9536 -0.8657 0.3665
1.0269 -0.7771 0.3664
1.0920 -0.6823 0.3664
5.4059 -2.7404 1.7244
5.6515 -2.2563 1.7314
5.8491 -1.7488 1.7370
5.9913 -1.2220 1.7398
4.9064 -0.5513 1.4048
5.3186 -0.1200 1.5137
6.1069 0.4083 1.7414
6.0415 0.9507 1.7401
5.9245 1.4837 1.7377
5.7573 2.0024 1.7343
5.5387 2.5003 1.7290
5.2709 2.9716 1.7216
1.0587 0.7284 0.3656
0.9894 0.8199 0.3656
0.9122 0.9048 0.3655
0.8277 0.9824 0.3655
0.7367 1.0522 0.3655
0.6399 1.1137 0.3654
0.5380 1.1662 0.3654
0.4318 1.2095 0.3654
0.3221 1.2431 0.3654
0.2100 1.2669 0.3654
0.0961 1.2806 0.3654
-0.0185 1.2840 0.3654
-0.1330 1.2773 0.3654
-0.2464 1.2604 0.3654
-0.3578 1.2334 0.3654
-0.4665 1.1967 0.3654
-0.5714 1.1504 0.3655
-0.6718 1.0949 0.3655
-0.7669 1.0307 0.3655
-0.8558 0.9583 0.3656
-0.9380 0.8782 0.3656
-1.0127 0.7912 0.3657
-1.0794 0.6978 0.3657
-5.7834 3.0444 1.8596
-6.0319 2.5164 1.8596
-6.1963 1.9569 1.8488
-6.2032 1.3649 1.8072
-6.2073 0.7942 1.7805
-6.2089 0.2357 1.7678
-6.2079 -0.3193 1.7686
-6.2044 -0.8788 1.7829
-6.1984 -1.4515 1.8113
-6.1894 -2.0466 1.8548
-5.9976 -2.5972 1.8596
-5.7420 -3.1219 1.8596
-1.0721 -0.7136 0.3664
-1.0043 -0.8065 0.3665
-0.9284 -0.8930 0.3665
-0.8452 -0.9724 0.3666
-0.7551 -1.0440 0.3666
-0.6591 -1.1073 0.3666
-0.5577 -1.1617 0.3667
-0.4519 -1.2069 0.3667
-0.3424 -1.2425 0.3667
-0.2302 -1.2681 0.3667
-0.1162 -1.2836 0.3667
-0.0012 -1.2888 0.3667
0.1137 -1.2838 0.3667
0.2278 -1.2685 0.3667
0.3400 -1.2431 0.3667
0.4495 -1.2077 0.3667
0.5554 -1.1627 0.3666
0.6569 -1.1084 0.3666
0.7530 -1.0453 0.3666
0.8432 -0.9739 0.3665
0.9266 -0.8947 0.3665
1.0026 -0.8084 0.3664
1.0706 -0.7156 0.3664
5.3066 -2.8984 1.7204
5.5722 -2.4258 1.7292
5.7866 -1.9258 1.7352
5.9482 -1.4050 1.7390
5.3223 -0.7643 1.5298
4.9025 -0.2616 1.3969
6.1175 0.2204 1.7417
6.0698 0.7647 1.7407
5.9705 1.3016 1.7387
5.8204 1.8258 1.7356
5.6202 2.3318 1.7313
5.3681 2.8125 1.7243
1.0806 0.6956 0.3657
1.0141 0.7891 0.3656
0.9396 0.8763 0.3656
0.8576 0.9565 0.3655
0.7688 1.0291 0.3655
0.6738 1.0935 0.3655
0.5736 1.1492 0.3654
0.4688 1.1957 0.3654
0.3602 1.2327 0.3654
0.2488 1.2599 0.3654
0.1354 1.2770 0.3654
0.0210 1.2840 0.3654
-0.0936 1.2808 0.3654
-0.2075 1.2673 0.3654
-0.3197 1.2438 0.3654
-0.4294 1.2104 0.3654
-0.5357 1.1674 0.3654
-0.6378 1.1150 0.3655
-0.7348 1.0538 0.3655
-0.8259 0.9841 0.3656
-0.9105 0.9066 0.3656
-0.9879 0.8219 0.3656
-1.0574 0.7306 0.3657
-5.6871 3.2208 1.8596
-5.9517 2.7006 1.8596
-6.1689 2.1590 1.8596
-6.2012 1.5658 1.8198
-6.2062 0.9889 1.7881
-6.2086 0.4271 1.7707
-6.2085 -0.1281 1.7669
-6.2059 -0.6851 1.7765
-6.2008 -1.2523 1.7999
-6.1929 -1.8385 1.8380
-6.0746 -2.4115 1.8596
-5.8353 -2.9438 1.8596
-5.5494 -3.4526 1.8596
-1.0286 -0.7752 0.3665
-0.9554 -0.8640 0.3665
-0.8746 -0.9459 0.3666
-0.7869 -1.0202 0.3666
-0.6928 -1.0865 0.3666
-0.5931 -1.1440 0.3666
-0.4888 -1.1924 0.3667
-0.3805 -1.2313 0.3667
-0.2691 -1.2604 0.3667
-0.1556 -1.2794 0.3667
-0.0409 -1.2882 0.3667
0.0742 -1.2867 0.3667
0.1887 -1.2749 0.3667
0.3016 -1.2530 0.3667
0.4122 -1.2210 0.3667
0.5194 -1.1793 0.3666
0.6225 -1.1282 0.3666
0.7206 -1.0680 0.3666
0.8129 -0.9994 0.3665
0.8987 -0.9228 0.3665
0.9773 -0.8388 0.3664
1.0481 -0.7482 0.3664
5.2020 -3.0526 1.7161
5.4874 -2.5924 1.7268
5.7183 -2.1005 1.7333
5.8992 -1.5864 1.7381
6.0251 -1.0553 1.7404
4.8408 -0.4079 1.3822
6.1219 0.0322 1.7419
6.0920 0.5779 1.7411
6.0106 1.1179 1.7395
5.8777 1.6471 1.7368
5.6953 2.1602 1.7331
5.4601 2.6500 1.7268
1.1015 0.6621 0.3657
1.0380 0.7576 0.3656
0.9661 0.8470 0.3656
0.8866 0.9298 0.3655
0.8001 1.0050 0.3655
0.7072 1.0723 0.3655
0.6087 1.1310 0.3654
0.5053 1.1807 0.3654
0.3979 1.2210 0.3654
0.2874 1.2516 0.3654
0.1746 1.2722 0.3654
0.0605 1.2827 0.3654
-0.0542 1.2830 0.3654
-0.1684 1.2731 0.3654
-0.2813 1.2531 0.3654
-0.3920 1.2230 0.3654
-0.4996 1.1833 0.3654
-0.6032 1.1341 0.3655
-0.7020 1.0758 0.3655
-0.7953 1.0090 0.3655
-0.8822 0.9342 0.3656
-0.9621 0.8518 0.3656
-1.0344 0.7627 0.3657
-5.5854 3.3941 1.8596
-5.8659 2.8823 1.8596
-6.0996 2.3476 1.8596
-6.1988 1.7696 1.8342
-6.2048 1.1853 1.7973
-6.2081 0.6194 1.7751
-6.2088 0.0628 1.7667
-6.2071 -0.4926 1.7716
-6.2028 -1.0553 1.7902
-6.1959 -1.6339 1.8232
-6.1459 -2.2236 1.8596
-5.9230 -2.7630 1.8596
-5.6529 -3.2804 1.8596
-1.0519 -0.7432 0.3665
-0.9815 -0.8342 0.3665
-0.9033 -0.9185 0.3665
-0.8178 -0.9955 0.3666
-0.7258 -1.0646 0.3666
-0.6280 -1.1252 0.3666
-0.5252 -1.1768 0.3667
-0.4181 -1.2190 0.3667
-0.3077 -1.2515 0.3667
-0.1949 -1.2740 0.3667
-0.0805 -1.2863 0.3667
0.0346 -1.2884 0.3667
0.1494 -1.2801 0.3667
0.2630 -1.2617 0.3667
0.3745 -1.2331 0.3667
0.4829 -1.1947 0.3666
0.5875 -1.1468 0.3666
0.6874 -1.0897 0.3666
0.7818 -1.0240 0.3665
0.8699 -0.9500 0.3665
0.9511 -0.8685 0.3665
1.0246 -0.7801 0.3664
1.0900 -0.6855 0.3664
5.3967 -2.7556 1.7241
5.6442 -2.2726 1.7312
5.8434 -1.7658 1.7368
5.9875 -1.2395 1.7397
4.9148 -0.5668 1.4077
5.3133 -0.1355 1.5122
6.1081 0.3904 1.7415
6.0444 0.9330 1.7402
5.9291 1.4665 1.7378
5.7635 1.9857 1.7345
5.5467 2.4843 1.7292
5.2804 2.9566 1.7219
1.0608 0.7253 0.3656
0.9918 0.8170 0.3656
0.9148 0.9021 0.3655
0.8306 0.9800 0.3655
0.7398 1.0501 0.3655
0.6432 1.1118 0.3654
0.5414 1.1647 0.3654
0.4353 1.2082 0.3654
0.3258 1.2422 0.3654
0.2137 1.2663 0.3654
0.0999 1.2803 0.3654
-0.0147 1.2841 0.3654
-0.1292 1.2777 0.3654
-0.2427 1.2611 0.3654
-0.3542 1.2345 0.3654
-0.4630 1.1980 0.3654
-0.5680 1.1520 0.3655
-0.6686 1.0969 0.3655
-0.7638 1.0330 0.3655
-0.8530 0.9608 0.3656
-0.9354 0.8810 0.3656
-1.0104 0.7941 0.3657
-1.0774 0.7009 0.3657
-5.7745 3.0613 1.8596
-6.0245 2.5340 1.8596
-6.1961 1.9768 1.8505
-6.2030 1.3839 1.8083
-6.2072 0.8127 1.7812
-6.2088 0.2539 1.7680
-6.2080 -0.3010 1.7684
-6.2046 -0.8603 1.7822
-6.1986 -1.4323 1.8101
-6.1898 -2.0266 1.8531
-6.0052 -2.5796 1.8596
-5.7511 -3.1050 1.8596
-1.0742 -0.7105 0.3664
-1.0066 -0.8036 0.3665
-0.9311 -0.8903 0.3665
-0.8480 -0.9699 0.3666
-0.7582 -1.0418 0.3666
-0.6623 -1.1053 0.3666
-0.5611 -1.1601 0.3667
-0.4554 -1.2056 0.3667
-0.3461 -1.2415 0.3667
-0.2340 -1.2674 0.3667
-0.1200 -1.2832 0.3667
-0.0050 -1.2888 0.3667
0.1100 -1.2841 0.3667
0.2241 -1.2692 0.3667
0.3364 -1.2441 0.3667
0.4460 -1.2090 0.3667
0.5520 -1.1643 0.3666
0.6536 -1.1104 0.3666
0.7500 -1.0475 0.3666
0.8403 -0.9764 0.3665
0.9240 -0.8974 0.3665
1.0002 -0.8113 0.3664
1.0685 -0.7188 0.3664
5.2968 -2.9133 1.7200
5.5644 -2.4418 1.7289
5.7804 -1.9426 1.7350
5.9438 -1.4224 1.7389
5.3275 -0.7810 1.5320
4.8964 -0.2757 1.3954
6.1181 0.2024 1.7417
6.0722 0.7469 1.7407
5.9746 1.2842 1.7388
5.8261 1.8088 1.7357
5.6277 2.3156 1.7315
5.3771 2.7972 1.7245
1.0827 0.6924 0.3657
1.0164 0.7861 0.3656
0.9422 0.8736 0.3656
0.8604 0.9540 0.3655
0.7718 1.0269 0.3655
0.6771 1.0915 0.3655
0.5769 1.1475 0.3654
0.4723 1.1943 0.3654
0.3638 1.2316 0.3654
0.2525 1.2591 0.3654
0.1392 1.2766 0.3654
0.0247 1.2839 0.3654
-0.0899 1.2810 0.3654
-0.2038 1.2679 0.3654
-0.3161 1.2448 0.3654
-0.4259 1.2117 0.3654
-0.5323 1.1689 0.3654
-0.6345 1.1169 0.3655
-0.7317 1.0559 0.3655
-0.8230 0.9865 0.3656
-0.9079 0.9093 0.3656
-0.9855 0.8248 0.3656
-1.0553 0.7337 0.3657
-5.6776 3.2374 1.8596
-5.9438 2.7181 1.8596
-6.1625 2.1770 1.8596
-6.2010 1.5851 1.8211
-6.2061 1.0075 1.7889
-6.2086 0.4454 1.7710
-6.2086 -0.1099 1.7668
-6.2061 -0.6667 1.7759
-6.2010 -1.2334 1.7989
-6.1932 -1.8189 1.8365
-6.0816 -2.3938 1.8596
-5.8439 -2.9267 1.8596
-5.5595 -3.4363 1.8596
-1.0308 -0.7722 0.3665
-0.9580 -0.8612 0.3665
-0.8774 -0.9433 0.3666
-0.7898 -1.0179 0.3666
-0.6960 -1.0844 0.3666
-0.5965 -1.1423 0.3666
-0.4923 -1.1910 0.3667
-0.3841 -1.2302 0.3667
-0.2728 -1.2596 0.3667
-0.1594 -1.2790 0.3667
-0.0447 -1.2881 0.3667
0.0704 -1.2869 0.3667
0.1849 -1.2755 0.3667
0.2980 -1.2538 0.3667
0.4086 -1.2222 0.3667
0.5160 -1.1808 0.3666
0.6192 -1.1300 0.3666
0.7174 -1.0701 0.3666
0.8100 -1.0018 0.3665
0.8960 -0.9254 0.3665
0.9748 -0.8417 0.3665
1.0459 -0.7513 0.3664
5.1917 -3.0671 1.7157
5.4790 -2.6081 1.7265
5.7115 -2.1170 1.7331
5.8942 -1.6036 1.7380
6.0218 -1.0729 1.7403
4.8378 -0.4219 1.3817
6.1220 0.0142 1.7419
6.0938 0.5600 1.7411
6.0141 1.1004 1.7396
5.8829 1.6299 1.7369
5.7020 2.1437 1.7332
5.4686 2.6344 1.7271
5.1858 3.0961 1.7185
1.0402 0.7545 0.3656
0.9686 0.8442 0.3656
0.8893 0.9271 0.3655
0.8030 1.0027 0.3655
0.7103 1.0702 0.3655
0.6120 1.1292 0.3654
0.5088 1.1792 0.3654
0.4015 1.2199 0.3654
0.2911 1.2508 0.3654
0.1784 1.2717 0.3654
0.0642 1.2826 0.3654
-0.0505 1.2832 0.3654
-0.1647 1.2736 0.3654
-0.2777 1.2539 0.3654
-0.3884 1.2242 0.3654
-0.4961 1.1847 0.3654
-0.5999 1.1358 0.3655
-0.6988 1.0779 0.3655
-0.7923 1.0113 0.3655
-0.8794 0.9367 0.3656
-0.9596 0.8547 0.3656
-1.0322 0.7658 0.3657
-5.5754 3.4105 1.8596
-5.8574 2.8995 1.8596
-6.0927 2.3655 1.8596
-6.1985 1.7892 1.8356
-6.2046 1.2042 1.7983
-6.2080 0.6378 1.7756
-6.2088 0.0810 1.7667
-6.2072 -0.4743 1.7712
-6.2030 -1.0366 1.7894
-6.1962 -1.6146 1.8218
-6.1524 -2.2056 1.8596
-5.9311 -2.7457 1.8596
-5.6625 -3.2638 1.8596
-1.0540 -0.7401 0.3664
-0.9839 -0.8313 0.3665
-0.9060 -0.9159 0.3665
-0.8207 -0.9931 0.3666
-0.7289 -1.0625 0.3666
-0.6313 -1.1234 0.3666
-0.5286 -1.1753 0.3667
-0.4217 -1.2178 0.3667
-0.3114 -1.2506 0.3667
-0.1986 -1.2734 0.3667
-0.0842 -1.2861 0.3667
0.0308 -1.2885 0.3667
0.1456 -1.2806 0.3667
0.2593 -1.2624 0.3667
0.3708 -1.2342 0.3667
0.4794 -1.1961 0.3666
0.5842 -1.1485 0.3666
0.6842 -1.0917 0.3666
0.7788 -1.0262 0.3666
0.8671 -0.9526 0.3665
0.9485 -0.8713 0.3665
1.0224 -0.7831 0.3664
1.0880 -0.6887 0.3664
5.3874 -2.7708 1.7237
5.6368 -2.2888 1.7310
5.8376 -1.7827 1.7367
5.9836 -1.2570 1.7396
4.9233 -0.5824 1.4106
5.3186 -0.1512 1.5139
6.1094 0.3725 1.7415
6.0473 0.9153 1.7402
5.9337 1.4491 1.7379
5.7698 1.9689 1.7346
5.5546 2.4684 1.7295
5.2898 2.9415 1.7221
1.0629 0.7222 0.3656
0.9941 0.8141 0.3656
0.9175 0.8994 0.3656
0.8335 0.9776 0.3655
0.7429 1.0479 0.3655
0.6464 1.1099 0.3654
0.5448 1.1631 0.3654
0.4388 1.2070 0.3654
0.3294 1.2412 0.3654
0.2174 1.2656 0.3654
0.1036 1.2800 0.3654
-0.0110 1.2841 0.3654
-0.1255 1.2780 0.3654
-0.2390 1.2618 0.3654
-0.3506 1.2355 0.3654
-0.4594 1.1994 0.3654
-0.5646 1.1537 0.3655
-0.6654 1.0988 0.3655
-0.7608 1.0352 0.3655
-0.8502 0.9633 0.3656
-0.9328 0.8837 0.3656
-1.0081 0.7971 0.3657
-1.0753 0.7041 0.3657
-5.7655 3.0782 1.8596
-6.0171 2.5517 1.8596
-6.1958 1.9967 1.8521
-6.2028 1.4030 1.8094
-6.2071 0.8312 1.7818
-6.2088 0.2721 1.7683
-6.2080 -0.2828 1.7682
-6.2048 -0.8417 1.7816
-6.1989 -1.4133 1.8090
-6.1901 -2.0066 1.8515
-6.0127 -2.5619 1.8596
-5.7602 -3.0881 1.8596
-1.0762 -0.7073 0.3664
-1.0090 -0.8006 0.3665
-0.9337 -0.8875 0.3665
-0.8509 -0.9674 0.3666
-0.7612 -1.0395 0.3666
-0.6655 -1.1034 0.3666
-0.5645 -1.1584 0.3667
-0.4589 -1.2042 0.3667
-0.3497 -1.2404 0.3667
-0.2377 -1.2667 0.3667
-0.1237 -1.2829 0.3667
-0.0088 -1.2888 0.3667
0.1062 -1.2844 0.3667
0.2203 -1.2698 0.3667
0.3327 -1.2450 0.3667
0.4424 -1.2103 0.3667
0.5486 -1.1660 0.3666
0.6504 -1.1123 0.3666
0.7469 -1.0497 0.3666
0.8375 -0.9788 0.3665
0.9213 -0.9001 0.3665
0.9978 -0.8142 0.3664
1.0663 -0.7219 0.3664
5.2870 -2.9281 1.7196
5.5565 -2.4578 1.7287
5.7740 -1.9593 1.7349
5.9393 -1.4398 1.7388
5.3345 -0.7980 1.5347
4.8904 -0.2897 1.3939
6.1188 0.1845 1.7417
6.0745 0.7291 1.7407
5.9787 1.2667 1.7388
5.8318 1.7919 1.7358
5.6351 2.2994 1.7317
5.3861 2.7818 1.7248
1.0847 0.6892 0.3657
1.0188 0.7832 0.3656
0.9447 0.8708 0.3656
0.8632 0.9515 0.3655
0.7748 1.0246 0.3655
0.6802 1.0895 0.3655
0.5803 1.1458 0.3654
0.4758 1.1929 0.3654
0.3674 1.2305 0.3654
0.2562 1.2584 0.3654
0.1429 1.2762 0.3654
0.0285 1.2838 0.3654
-0.0861 1.2813 0.3654
-0.2001 1.2685 0.3654
-0.3124 1.2457 0.3654
-0.4223 1.2129 0.3654
-0.5289 1.1705 0.3654
-0.6312 1.1187 0.3655
-0.7286 1.0581 0.3655
-0.8201 0.9889 0.3655
-0.9052 0.9120 0.3656
-0.9831 0.8277 0.3656
-1.0531 0.7368 0.3657
-5.6681 3.2541 1.8596
-5.9358 2.7355 1.8596
-6.1561 2.1951 1.8596
-6.2007 1.6044 1.8224
-6.2059 1.0262 1.7897
-6.2085 0.4637 1.7714
-6.2086 -0.0917 1.7667
-6.2062 -0.6483 1.7754
-6.2012 -1.2145 1.7979
-6.1935 -1.7992 1.8350
-6.0886 -2.3759 1.8596
-5.8524 -2.9096 1.8596
-5.5696 -3.4200 1.8596
-1.0331 -0.7692 0.3665
-0.9605 -0.8584 0.3665
-0.8802 -0.9407 0.3665
-0.7928 -1.0156 0.3666
-0.6991 -1.0824 0.3666
-0.5998 -1.1405 0.3666
-0.4957 -1.1895 0.3667
-0.3877 -1.2291 0.3667
-0.2765 -1.2588 0.3667
-0.1631 -1.2785 0.3667
-0.0484 -1.2879 0.3667
0.0667 -1.2871 0.3667
0.1812 -1.2760 0.3667
0.2943 -1.2547 0.3667
0.4050 -1.2234 0.3667
0.5125 -1.1823 0.3666
0.6159 -1.1318 0.3666
0.7143 -1.0722 0.3666
0.8070 -1.0042 0.3665
0.8933 -0.9281 0.3665
0.9724 -0.8446 0.3665
1.0437 -0.7544 0.3664
5.1815 -3.0815 1.7153
5.4706 -2.6238 1.7263
5.7046 -2.1335 1.7329
5.8892 -1.6208 1.7379
6.0184 -1.0905 1.7403
4.8456 -0.4369 1.3843
5.4216 -0.0033 1.5426
5.9189 0.7633 1.7378
5.8203 1.2867 1.7358
5.6720 1.7975 1.7326
5.4716 2.2890 1.7271
5.2234 2.7562 1.7198
1.0539 0.6828 0.3657
0.9887 0.7739 0.3656
0.9156 0.8590 0.3656
0.8352 0.9371 0.3655
0.7482 1.0078 0.3655
0.6553 1.0704 0.3655
0.5572 1.1245 0.3654
0.4546 1.1697 0.3654
0.3484 1.2055 0.3654
0.2395 1.2317 0.3654
0.1287 1.2482 0.3654
0.0168 1.2547 0.3654
-0.0952 1.2512 0.3654
-0.2064 1.2378 0.3654
-0.3160 1.2145 0.3654
-0.4231 1.1815 0.3654
-0.5268 1.1391 0.3655
-0.6264 1.0877 0.3655
-0.7210 1.0276 0.3655
-0.8099 0.9592 0.3656
-0.8923 0.8833 0.3656
-0.9676 0.8003 0.3657
-1.0353 0.7109 0.3657
-5.5660 3.1307 1.8596
-5.8231 2.6217 1.8596
-6.0337 2.0918 1.8596
-6.1939 1.5447 1.8589
-6.1990 0.9691 1.8270
-6.2014 0.4084 1.8097
-6.2012 -0.1461 1.8063
-6.1985 -0.7027 1.8165
-6.1931 -1.2696 1.8409
-6.1166 -1.8354 1.8596
-5.9285 -2.3737 1.8596
-5.6931 -2.8931 1.8596
-1.0665 -0.6678 0.3664
-1.0028 -0.7604 0.3665
-0.9310 -0.8469 0.3665
-0.8519 -0.9267 0.3665
-0.7659 -0.9991 0.3666
-0.6738 -1.0635 0.3666
-0.5763 -1.1195 0.3666
-0.4741 -1.1665 0.3667
-0.3682 -1.2042 0.3667
-0.2593 -1.2322 0.3667
-0.1484 -1.2505 0.3667
-0.0362 -1.2587 0.3667
0.0762 -1.2570 0.3667
0.1880 -1.2451 0.3667
0.2983 -1.2233 0.3667
0.4062 -1.1918 0.3666
0.5109 -1.1507 0.3666
0.6114 -1.1005 0.3666
0.7071 -1.0415 0.3666
0.7971 -0.9741 0.3665
0.8807 -0.8990 0.3665
0.9573 -0.8168 0.3664
1.0262 -0.7281 0.3664
1.0869 -0.6335 0.3663
5.3560 -2.5112 1.7226
5.5809 -2.0315 1.7295
5.7564 -1.5300 1.7344
5.8806 -1.0122 1.7376
4.9296 -0.4008 1.4402
5.9719 0.0489 1.7390
5.9412 0.5811 1.7383
5.8598 1.1077 1.7366
5.7288 1.6235 1.7339
5.5460 2.1222 1.7292
5.3149 2.5988 1.7228
1.0744 0.6501 0.3657
1.0120 0.7432 0.3656
0.9416 0.8304 0.3656
0.8637 0.9110 0.3655
0.7789 0.9843 0.3655
0.6879 1.0498 0.3655
0.5915 1.1069 0.3655
0.4904 1.1552 0.3654
0.3853 1.1942 0.3654
0.2773 1.2238 0.3654
0.1670 1.2436 0.3654
0.0554 1.2536 0.3654
-0.0566 1.2535 0.3654
-0.1682 1.2435 0.3654
-0.2785 1.2236 0.3654
-0.3866 1.1939 0.3654
-0.4915 1.1548 0.3655
-0.5926 1.1064 0.3655
-0.6890 1.0492 0.3655
-0.7800 0.9837 0.3656
-0.8647 0.9103 0.3656
-0.9425 0.8296 0.3656
-1.0129 0.7423 0.3657
-1.0752 0.6491 0.3657
-5.7397 2.7995 1.8596
-5.9666 2.2764 1.8596
-6.1458 1.7351 1.8596
-6.1975 1.1651 1.8363
-6.2008 0.6003 1.8141
-6.2015 0.0446 1.8059
-6.1997 -0.5103 1.8114
-6.1953 -1.0727 1.8309
-6.1702 -1.6465 1.8596
-5.9987 -2.1903 1.8596
-5.7794 -2.7167 1.8596
-1.0864 -0.6347 0.3664
-1.0256 -0.7292 0.3664
-0.9566 -0.8179 0.3665
-0.8799 -0.9000 0.3665
-0.7962 -0.9750 0.3666
-0.7061 -1.0423 0.3666
-0.6104 -1.1012 0.3666
-0.5098 -1.1513 0.3666
-0.4050 -1.1923 0.3667
-0.2971 -1.2237 0.3667
-0.1868 -1.2453 0.3667
-0.0749 -1.2570 0.3667
0.0375 -1.2587 0.3667
0.1496 -1.2503 0.3667
0.2606 -1.2319 0.3667
0.3694 -1.2037 0.3667
0.4753 -1.1659 0.3666
0.5773 -1.1188 0.3666
0.6748 -1.0627 0.3666
0.7668 -0.9982 0.3665
0.8527 -0.9257 0.3665
0.9318 -0.8459 0.3665
1.0034 -0.7593 0.3664
1.0670 -0.6667 0.3664
5.2648 -2.6688 1.7188
5.5094 -2.1995 1.7274
5.7016 -1.7047 1.7329
5.8445 -1.1921 1.7369
4.9990 -0.5617 1.4648
5.2975 -0.1196 1.5430
5.9575 0.3983 1.7387
5.8935 0.9274 1.7373
5.7794 1.4474 1.7349
5.6147 1.9528 1.7310
5.3996 2.4375 1.7251
1.0940 0.6168 0.3657
1.0344 0.7118 0.3656
0.9667 0.8011 0.3656
0.8913 0.8841 0.3656
0.8088 0.9599 0.3655
0.7199 1.0282 0.3655
0.6253 1.0882 0.3655
0.5257 1.1396 0.3654
0.4219 1.1818 0.3654
0.3148 1.2147 0.3654
0.2052 1.2379 0.3654
0.0939 1.2513 0.3654
-0.0181 1.2547 0.3654
-0.1299 1.2481 0.3654
-0.2407 1.2316 0.3654
-0.3497 1.2052 0.3654
-0.4558 1.1693 0.3654
-0.5583 1.1241 0.3655
-0.6564 1.0699 0.3655
-0.7493 1.0071 0.3655
-0.8363 0.9364 0.3656
-0.9166 0.8582 0.3656
-0.9896 0.7731 0.3657
-1.0547 0.6818 0.3657
-5.6510 2.9746 1.8596
-5.8938 2.4587 1.8596
-6.0896 1.9232 1.8596
-6.1958 1.3633 1.8473
-6.2000 0.7933 1.8201
-6.2016 0.2354 1.8072
-6.2006 -0.3189 1.8080
-6.1971 -0.8777 1.8226
-6.1909 -1.4497 1.8515
-6.0632 -2.0048 1.8596
-5.8602 -2.5377 1.8596
-5.6105 -3.0503 1.8596
-1.0475 -0.6973 0.3664
-0.9813 -0.7880 0.3665
-0.9072 -0.8725 0.3665
-0.8258 -0.9501 0.3666
-0.7378 -1.0200 0.3666
-0.6439 -1.0819 0.3666
-0.5449 -1.1351 0.3666
-0.4415 -1.1792 0.3667
-0.3346 -1.2140 0.3667
-0.2250 -1.2390 0.3667
-0.1135 -1.2541 0.3667
-0.0012 -1.2593 0.3667
0.1111 -1.2543 0.3667
0.2226 -1.2394 0.3667
0.3322 -1.2145 0.3667
0.4392 -1.1800 0.3666
0.5427 -1.1360 0.3666
0.6418 -1.0830 0.3666
0.7358 -1.0214 0.3665
0.8239 -0.9516 0.3665
0.9053 -0.8742 0.3665
0.9796 -0.7898 0.3664
1.0460 -0.6992 0.3664
5.1684 -2.8230 1.7149
5.4323 -2.3649 1.7253
5.6408 -1.8773 1.7312
5.8010 -1.3703 1.7357
5.3106 -0.7627 1.5623
4.9874 -0.2662 1.4544
5.9678 0.2150 1.7389
5.9212 0.7460 1.7379
5.8243 1.2697 1.7358
5.6778 1.7810 1.7328
5.4789 2.2732 1.7273
5.2326 2.7415 1.7202
1.0559 0.6797 0.3657
0.9909 0.7710 0.3656
0.9181 0.8563 0.3656
0.8380 0.9347 0.3655
0.7512 1.0056 0.3655
0.6584 1.0685 0.3655
0.5605 1.1229 0.3654
0.4580 1.1683 0.3654
0.3520 1.2045 0.3654
0.2431 1.2310 0.3654
0.1323 1.2478 0.3654
0.0205 1.2546 0.3654
-0.0915 1.2515 0.3654
-0.2028 1.2384 0.3654
-0.3124 1.2154 0.3654
-0.4196 1.1827 0.3654
-0.5235 1.1407 0.3655
-0.6232 1.0895 0.3655
-0.7180 1.0297 0.3655
-0.8070 0.9616 0.3656
-0.8897 0.8859 0.3656
-0.9653 0.8031 0.3656
-1.0332 0.7139 0.3657
-5.5568 3.1470 1.8596
-5.8154 2.6388 1.8596
-6.0276 2.1095 1.8596
-6.1917 1.5634 1.8596
-6.1988 0.9877 1.8278
-6.2013 0.4266 1.8101
-6.2012 -0.1280 1.8062
-6.1986 -0.6843 1.8160
-6.1934 -1.2508 1.8399
-6.1220 -1.8175 1.8596
-5.9354 -2.3563 1.8596
-5.7016 -2.8764 1.8596
-1.0684 -0.6647 0.3664
-1.0050 -0.7575 0.3665
-0.9335 -0.8442 0.3665
-0.8546 -0.9242 0.3665
-0.7688 -0.9968 0.3666
-0.6769 -1.0615 0.3666
-0.5795 -1.1178 0.3666
-0.4775 -1.1651 0.3667
-0.3717 -1.2031 0.3667
-0.2629 -1.2315 0.3667
-0.1520 -1.2501 0.3667
-0.0399 -1.2586 0.3667
0.0725 -1.2572 0.3667
0.1843 -1.2457 0.3667
0.2947 -1.2242 0.3667
0.4027 -1.1930 0.3666
0.5075 -1.1522 0.3666
0.6082 -1.1023 0.3666
0.7040 -1.0435 0.3666
0.7942 -0.9765 0.3665
0.8781 -0.9016 0.3665
0.9549 -0.8196 0.3664
1.0241 -0.7311 0.3664
1.0850 -0.6367 0.3663
5.3476 -2.5263 1.7222
5.5744 -2.0476 1.7293
5.7515 -1.5467 1.7343
5.8774 -1.0294 1.7375
4.9237 -0.4149 1.4388
5.9720 0.0314 1.7391
5.9430 0.5637 1.7383
5.8633 1.0906 1.7366
5.7339 1.6068 1.7340
5.5528 2.1062 1.7293
5.3232 2.5836 1.7230
1.0763 0.6469 0.3657
1.0142 0.7402 0.3656
0.9440 0.8277 0.3656
0.8663 0.9085 0.3655
0.7818 0.9820 0.3655
0.6910 1.0478 0.3655
0.5947 1.1051 0.3655
0.4937 1.1537 0.3654
0.3888 1.1931 0.3654
0.2809 1.2230 0.3654
0.1706 1.2431 0.3654
0.0591 1.2534 0.3654
-0.0530 1.2537 0.3654
-0.1646 1.2440 0.3654
-0.2749 1.2244 0.3654
-0.3831 1.1950 0.3654
-0.4882 1.1562 0.3655
-0.5894 1.1081 0.3655
-0.6859 1.0512 0.3655
-0.7771 0.9859 0.3655
-0.8620 0.9128 0.3656
-0.9401 0.8324 0.3656
-1.0107 0.7453 0.3657
-1.0733 0.6522 0.3657
-5.7315 2.8163 1.8596
-5.9599 2.2939 1.8596
-6.1407 1.7531 1.8596
-6.1974 1.1839 1.8373
-6.2007 0.6187 1.8146
-6.2015 0.0628 1.8060
-6.1998 -0.4921 1.8110
-6.1955 -1.0541 1.8300
-6.1750 -1.6284 1.8596
-6.0051 -2.1728 1.8596
-5.7873 -2.6997 1.8596
-1.0883 -0.6315 0.3664
-1.0277 -0.7262 0.3664
-0.9590 -0.8151 0.3665
-0.8826 -0.8975 0.3665
-0.7991 -0.9727 0.3666
-0.7092 -1.0402 0.3666
-0.6136 -1.0994 0.3666
-0.5131 -1.1498 0.3666
-0.4085 -1.1911 0.3667
-0.3007 -1.2228 0.3667
-0.1904 -1.2448 0.3667
-0.0786 -1.2568 0.3667
0.0338 -1.2588 0.3667
0.1460 -1.2508 0.3667
0.2569 -1.2327 0.3667
0.3659 -1.2048 0.3667
0.4718 -1.1673 0.3666
0.5740 -1.1205 0.3666
0.6716 -1.0647 0.3666
0.7639 -1.0005 0.3665
0.8500 -0.9282 0.3665
0.9293 -0.8486 0.3665
1.0011 -0.7622 0.3664
1.0650 -0.6698 0.3664
5.2559 -2.6837 1.7185
5.5023 -2.2154 1.7272
5.6960 -1.7212 1.7327
5.8407 -1.2092 1.7368
5.0355 -0.5807 1.4760
5.2921 -0.1350 1.5415
5.9587 0.3808 1.7387
5.8964 0.9101 1.7373
5.7840 1.4306 1.7350
5.6210 1.9365 1.7312
5.4074 2.4220 1.7253
1.0958 0.6135 0.3657
1.0365 0.7087 0.3656
0.9691 0.7983 0.3656
0.8939 0.8814 0.3656
0.8116 0.9576 0.3655
0.7229 1.0261 0.3655
0.6284 1.0864 0.3655
0.5290 1.1380 0.3654
0.4254 1.1806 0.3654
0.3183 1.2138 0.3654
0.2088 1.2373 0.3654
0.0976 1.2510 0.3654
-0.0144 1.2547 0.3654
-0.1263 1.2485 0.3654
-0.2371 1.2323 0.3654
-0.3461 1.2062 0.3654
-0.4524 1.1706 0.3654
-0.5550 1.1257 0.3655
-0.6533 1.0718 0.3655
-0.7464 1.0093 0.3655
-0.8335 0.9388 0.3656
-0.9140 0.8608 0.3656
-0.9873 0.7760 0.3657
-1.0527 0.6849 0.3657
-5.6422 2.9912 1.8596
-5.8865 2.4760 1.8596
-6.0839 1.9411 1.8596
-6.1956 1.3823 1.8485
-6.1999 0.8118 1.8208
-6.2016 0.2536 1.8074
-6.2007 -0.3007 1.8077
-6.1973 -0.8592 1.8219
-6.1912 -1.4306 1.8503
-6.0691 -1.9871 1.8596
-5.8676 -2.5205 1.8596
-5.6194 -3.0339 1.8596
-1.0495 -0.6942 0.3664
-0.9836 -0.7852 0.3665
-0.9097 -0.8699 0.3665
-0.8286 -0.9476 0.3666
-0.7408 -1.0179 0.3666
-0.6471 -1.0800 0.3666
-0.5482 -1.1335 0.3666
-0.4450 -1.1779 0.3667
-0.3381 -1.2130 0.3667
-0.2286 -1.2383 0.3667
-0.1172 -1.2538 0.3667
-0.0049 -1.2593 0.3667
0.1074 -1.2547 0.3667
0.2189 -1.2400 0.3667
0.3286 -1.2155 0.3667
0.4357 -1.1813 0.3666
0.5393 -1.1376 0.3666
0.6386 -1.0849 0.3666
0.7328 -1.0235 0.3666
0.8211 -0.9540 0.3665
0.9028 -0.8768 0.3665
0.9773 -0.7927 0.3664
1.0440 -0.7023 0.3664
5.1589 -2.8375 1.7145
5.4247 -2.3805 1.7250
5.6347 -1.8936 1.7310
5.7966 -1.3871 1.7356
5.3175 -0.7796 1.5650
4.9812 -0.2805 1.4528
5.9685 0.1975 1.7389
5.9236 0.7286 1.7379
5.8283 1.2527 1.7359
5.6835 1.7646 1.7329
5.4862 2.2574 1.7275
5.2417 2.7267 1.7205
1.0579 0.6766 0.3657
0.9932 0.7681 0.3656
0.9206 0.8536 0.3656
0.8407 0.9322 0.3655
0.7541 1.0034 0.3655
0.6616 1.0666 0.3655
0.5637 1.1212 0.3654
0.4615 1.1670 0.3654
0.3555 1.2034 0.3654
0.2467 1.2303 0.3654
0.1360 1.2474 0.3654
0.0242 1.2546 0.3654
-0.0878 1.2517 0.3654
-0.1991 1.2389 0.3654
-0.3089 1.2163 0.3654
-0.4162 1.1840 0.3654
-0.5201 1.1422 0.3655
-0.6200 1.0913 0.3655
-0.7149 1.0318 0.3655
-0.8042 0.9640 0.3656
-0.8871 0.8885 0.3656
-0.9629 0.8059 0.3656
-1.0311 0.7169 0.3657
-5.5476 3.1633 1.8596
-5.8076 2.6558 1.8596
-6.0214 2.1272 1.8596
-6.1871 1.5816 1.8596
-6.1987 1.0063 1.8287
-6.2013 0.4449 1.8104
-6.2013 -0.1098 1.8061
-6.1987 -0.6659 1.8154
-6.1936 -1.2319 1.8389
-6.1273 -1.7995 1.8596
-5.9423 -2.3389 1.8596
-5.7100 -2.8597 1.8596
-1.0703 -0.6616 0.3664
-1.0072 -0.7545 0.3665
-0.9360 -0.8414 0.3665
-0.8573 -0.9217 0.3665
-0.7717 -0.9946 0.3666
-0.6800 -1.0595 0.3666
-0.5828 -1.1161 0.3666
-0.4810 -1.1637 0.3667
-0.3753 -1.2020 0.3667
-0.2666 -1.2307 0.3667
-0.1557 -1.2496 0.3667
-0.0436 -1.2585 0.3667
0.0688 -1.2574 0.3667
0.1807 -1.2462 0.3667
0.2911 -1.2251 0.3667
0.3992 -1.1942 0.3666
0.5041 -1.1537 0.3666
0.6050 -1.1041 0.3666
0.7010 -1.0456 0.3666
0.7914 -0.9788 0.3665
0.8754 -0.9042 0.3665
0.9525 -0.8224 0.3664
1.0219 -0.7341 0.3664
1.0832 -0.6399 0.3663
5.3390 -2.5415 1.7219
5.5677 -2.0637 1.7291
5.7464 -1.5634 1.7342
5.8741 -1.0466 1.7375
4.9275 -0.4298 1.4403
5.9721 0.0139 1.7391
5.9448 0.5463 1.7384
5.8667 1.0734 1.7367
5.7389 1.5900 1.7341
5.5595 2.0901 1.7295
5.3314 2.5683 1.7232
1.0782 0.6438 0.3657
1.0164 0.7373 0.3656
0.9465 0.8249 0.3656
0.8690 0.9059 0.3655
0.7846 0.9797 0.3655
0.6941 1.0457 0.3655
0.5980 1.1034 0.3655
0.4971 1.1523 0.3654
0.3923 1.1920 0.3654
0.2844 1.2222 0.3654
0.1743 1.2426 0.3654
0.0627 1.2532 0.3654
-0.0493 1.2538 0.3654
-0.1609 1.2445 0.3654
-0.2713 1.2252 0.3654
-0.3795 1.1962 0.3654
-0.4848 1.1576 0.3655
-0.5861 1.1098 0.3655
-0.6829 1.0532 0.3655
-0.7742 0.9882 0.3655
-0.8593 0.9153 0.3656
-0.9377 0.8351 0.3656
-1.0085 0.7482 0.3657
-1.0714 0.6554 0.3657
-5.7232 2.8331 1.8596
-5.9531 2.3113 1.8596
-6.1356 1.7711 1.8596
-6.1972 1.2027 1.8383
-6.2007 0.6370 1.8151
-6.2016 0.0809 1.8060
-6.1999 -0.4738 1.8106
-6.1957 -1.0354 1.8292
-6.1797 -1.6102 1.8596
-6.0114 -2.1551 1.8596
-5.7952 -2.6828 1.8596
-1.0901 -0.6283 0.3664
-1.0299 -0.7232 0.3664
-0.9614 -0.8122 0.3665
-0.8852 -0.8949 0.3665
-0.8019 -0.9703 0.3666
-0.7122 -1.0381 0.3666
-0.6168 -1.0976 0.3666
-0.5165 -1.1483 0.3666
-0.4120 -1.1899 0.3667
-0.3043 -1.2219 0.3667
-0.1941 -1.2442 0.3667
-0.0823 -1.2566 0.3667
0.0301 -1.2589 0.3667
0.1423 -1.2512 0.3667
0.2533 -1.2335 0.3667
0.3623 -1.2059 0.3667
0.4684 -1.1687 0.3666
0.5708 -1.1222 0.3666
0.6685 -1.0667 0.3666
0.7609 -1.0027 0.3665
0.8473 -0.9307 0.3665
0.9268 -0.8513 0.3665
0.9989 -0.7652 0.3664
1.0630 -0.6729 0.3664
5.2468 -2.6985 1.7181
5.4951 -2.2313 1.7270
5.6904 -1.7378 1.7326
5.8368 -1.2262 1.7367
5.3194 -0.6293 1.5598
5.2971 -0.1506 1.5431
5.9599 0.3634 1.7387
5.8993 0.8929 1.7374
5.7884 1.4137 1.7351
5.6272 1.9202 1.7314
5.4151 2.4064 1.7255
1.0976 0.6103 0.3657
1.0386 0.7057 0.3656
0.9714 0.7954 0.3656
0.8965 0.8788 0.3656
0.8144 0.9552 0.3655
0.7259 1.0239 0.3655
0.6316 1.0845 0.3655
0.5323 1.1365 0.3654
0.4288 1.1794 0.3654
0.3219 1.2129 0.3654
0.2124 1.2367 0.3654
0.1012 1.2507 0.3654
-0.0107 1.2548 0.3654
-0.1226 1.2488 0.3654
-0.2335 1.2329 0.3654
-0.3426 1.2072 0.3654
-0.4489 1.1719 0.3654
-0.5517 1.1273 0.3655
-0.6501 1.0737 0.3655
-0.7434 1.0115 0.3655
-0.8307 0.9413 0.3656
-0.9115 0.8635 0.3656
-0.9850 0.7789 0.3657
-1.0507 0.6880 0.3657
-5.6334 3.0077 1.8596
-5.8793 2.4932 1.8596
-6.0782 1.9589 1.8596
-6.1954 1.4013 1.8496
-6.1998 0.8302 1.8215
-6.2015 0.2718 1.8076
-6.2008 -0.2824 1.8075
-6.1974 -0.8407 1.8212
-6.1914 -1.4116 1.8492
-6.0749 -1.9693 1.8596
-5.8750 -2.5033 1.8596
-5.6283 -3.0174 1.8596
-1.0516 -0.6911 0.3664
-0.9859 -0.7823 0.3665
-0.9122 -0.8672 0.3665
-0.8313 -0.9452 0.3666
-0.7438 -1.0157 0.3666
-0.6503 -1.0781 0.3666
-0.5515 -1.1319 0.3666
-0.4484 -1.1766 0.3667
-0.3417 -1.2120 0.3667
-0.2322 -1.2377 0.3667
-0.1209 -1.2534 0.3667
-0.0086 -1.2592 0.3667
0.1038 -1.2550 0.3667
0.2153 -1.2407 0.3667
0.3251 -1.2165 0.3667
0.4323 -1.1826 0.3666
0.5360 -1.1392 0.3666
0.6354 -1.0868 0.3666
0.7298 -1.0257 0.3666
0.8183 -0.9564 0.3665
0.9002 -0.8795 0.3665
0.9750 -0.7956 0.3664
1.0419 -0.7053 0.3664
5.1499 -2.8522 1.7142
5.4170 -2.3961 1.7248
5.6286 -1.9100 1.7308
5.7920 -1.4041 1.7355
5.3245 -0.7965 1.5677
4.9749 -0.2947 1.4512
5.9691 0.1800 1.7390
5.9259 0.7113 1.7380
5.8322 1.2357 1.7360
5.6891 1.7480 1.7331
5.4934 2.2416 1.7277
5.2507 2.7119 1.7209
1.0599 0.6735 0.3657
0.9954 0.7652 0.3656
0.9231 0.8509 0.3656
0.8434 0.9297 0.3655
0.7571 1.0012 0.3655
0.6647 1.0646 0.3655
0.5670 1.1196 0.3654
0.4649 1.1656 0.3654
0.3590 1.2024 0.3654
0.2503 1.2296 0.3654
0.1397 1.2470 0.3654
0.0279 1.2545 0.3654
-0.0841 1.2520 0.3654
-0.1955 1.2395 0.3654
-0.3053 1.2172 0.3654
-0.4127 1.1852 0.3654
-0.5168 1.1437 0.3655
-0.6168 1.0931 0.3655
-0.7119 1.0339 0.3655
-0.8014 0.9663 0.3656
-0.8845 0.8911 0.3656
-0.9606 0.8087 0.3656
-1.0290 0.7199 0.3657
-5.5383 3.1795 1.8596
-5.7998 2.6728 1.8596
-6.0151 2.1448 1.8596
-6.1825 1.5997 1.8596
-6.1986 1.0250 1.8295
-6.2012 0.4632 1.8108
-6.2013 -0.0916 1.8060
-6.1989 -0.6475 1.8149
-6.1938 -1.2131 1.8379
-6.1325 -1.7815 1.8596
-5.9492 -2.3215 1.8596
-5.7184 -2.8429 1.8596
-1.0723 -0.6584 0.3664
-1.0094 -0.7516 0.3665
-0.9384 -0.8387 0.3665
-0.8600 -0.9192 0.3665
-0.7746 -0.9923 0.3666
-0.6831 -1.0575 0.3666
-0.5861 -1.1143 0.3666
-0.4844 -1.1622 0.3667
-0.3788 -1.2009 0.3667
-0.2702 -1.2299 0.3667
-0.1594 -1.2491 0.3667
-0.0473 -1.2584 0.3667
0.0651 -1.2576 0.3667
0.1770 -1.2467 0.3667
0.2875 -1.2259 0.3667
0.3957 -1.1953 0.3666
0.5007 -1.1552 0.3666
0.6017 -1.1058 0.3666
0.6979 -1.0476 0.3666
0.7885 -0.9811 0.3665
0.8728 -0.9068 0.3665
0.9501 -0.8252 0.3664
1.0198 -0.7371 0.3664
1.0813 -0.6431 0.3663
5.3305 -2.5566 1.7215
5.5611 -2.0798 1.7289
5.7413 -1.5801 1.7340
5.8708 -1.0638 1.7374
4.9356 -0.4451 1.4431
5.4173 -0.0033 1.5775
5.7767 0.7450 1.7351
5.6796 1.2556 1.7327
5.5320 1.7532 1.7287
5.3370 2.2327 1.7233
1.0858 0.5729 0.3657
1.0302 0.6674 0.3657
0.9665 0.7566 0.3656
0.8950 0.8397 0.3656
0.8165 0.9161 0.3655
0.7314 0.9852 0.3655
0.6406 1.0464 0.3655
0.5447 1.0993 0.3655
0.4444 1.1434 0.3654
0.3406 1.1785 0.3654
0.2341 1.2041 0.3654
0.1258 1.2202 0.3654
0.0164 1.2265 0.3654
-0.0930 1.2231 0.3654
-0.2018 1.2100 0.3654
-0.3089 1.1872 0.3654
-0.4136 1.1550 0.3655
-0.5150 1.1136 0.3655
-0.6123 1.0633 0.3655
-0.7048 1.0045 0.3655
-0.7917 0.9377 0.3656
-0.8723 0.8635 0.3656
-0.9459 0.7823 0.3657
-1.0121 0.6949 0.3657
-1.0702 0.6019 0.3658
-5.6922 2.5628 1.8596
-5.8982 2.0448 1.8596
-6.0570 1.5106 1.8596
-6.1676 0.9642 1.8596
-6.1940 0.4079 1.8491
-6.1939 -0.1460 1.8456
-6.1912 -0.7019 1.8561
-6.1154 -1.2536 1.8596
-5.9792 -1.7942 1.8596
-5.7953 -2.3204 1.8596
-5.5652 -2.8281 1.8596
-1.0425 -0.6528 0.3664
-0.9802 -0.7433 0.3664
-0.9101 -0.8279 0.3665
-0.8327 -0.9058 0.3665
-0.7486 -0.9766 0.3666
-0.6586 -1.0396 0.3666
-0.5633 -1.0943 0.3666
-0.4635 -1.1402 0.3666
-0.3599 -1.1771 0.3667
-0.2535 -1.2045 0.3667
-0.1450 -1.2223 0.3667
-0.0354 -1.2304 0.3667
0.0745 -1.2287 0.3667
0.1838 -1.2171 0.3667
0.2916 -1.1958 0.3667
