ply
format ascii 1.0
element vertex 1974
property float32 x
property float32 y
property float32 z
end_header
-2.8519 -4.1713 -6.6062
22.9376 1.4890 -30.0515
21.3142 3.3138 -28.2007
19.6207 4.8774 -26.4325
18.4026 6.3664 -25.4584
17.0998 7.6871 -24.5112
15.8812 8.9226 -23.8155
14.7208 10.0991 -23.3394
13.5461 11.1963 -22.9764
15.4801 15.3177 -28.4718
13.9180 16.4819 -28.2033
-4.8250 4.5134 -8.6378
-2.9866 -4.1483 -6.6828
23.6375 0.9584 -30.9288
21.7761 2.8456 -28.7118
20.0069 4.4603 -26.7989
18.7726 5.9878 -25.7613
17.4444 7.3378 -24.7421
16.0908 8.5329 -23.8118
15.0316 9.7839 -23.4484
13.8005 10.8531 -22.9537
15.8855 14.9727 -28.5398
14.4007 16.2361 -28.3734
24.0218 0.3898 -31.4100
22.2552 2.3597 -29.2593
20.5737 4.0646 -27.4177
19.0800 5.5789 -25.9895
17.7956 6.9817 -24.9923
16.5348 8.2600 -24.1647
15.3456 9.4656 -23.5724
14.1029 10.5466 -23.0235
16.2932 14.6259 -28.6250
14.8026 15.8941 -28.3960
22.6673 1.8478 -29.7333
21.0096 3.6227 -27.8730
19.3555 5.1524 -26.1864
18.1542 6.6181 -25.2626
16.8693 7.9209 -24.3649
15.6631 9.1437 -23.7118
14.5110 10.3118 -23.2738
-3.0275 -4.1286 -6.6086
23.8350 0.7581 -30.7826
21.9461 2.6732 -28.5381
20.1559 4.3092 -26.6059
18.7760 5.8088 -25.3701
17.4813 7.1745 -24.3919
16.2066 8.4138 -23.5712
15.0357 9.6008 -23.0279
13.9089 10.7433 -22.6862
16.0317 14.8484 -28.2067
14.5450 16.1133 -28.0202
22.4319 2.1807 -29.0923
20.7286 3.9075 -27.2284
19.2191 5.4379 -25.7826
17.9236 6.8520 -24.7693
16.6543 8.1388 -23.9277
15.4592 9.3504 -23.3215
14.2120 10.4360 -22.7601
16.4402 14.5008 -28.2970
14.9473 15.7711 -28.0484
-2.8317 -4.2118 -6.5513
22.7725 1.6564 -29.4732
21.1697 3.4603 -27.6892
19.6134 5.0381 -26.1395
18.2851 6.4855 -25.0437
16.9908 7.7977 -24.1317
15.7781 9.0271 -23.4647
14.5411 10.1432 -22.8856
14.9322 12.5389 -25.1695
15.2617 15.3386 -27.9307
-4.9169 4.5281 -8.6283
-2.9411 -4.1529 -6.5689
23.2954 1.1263 -30.1056
21.4710 2.9759 -27.9805
19.8753 4.5937 -26.3320
18.6548 6.1106 -25.3392
17.3333 7.4505 -24.3537
16.1012 8.6996 -23.6237
14.8249 9.8146 -22.9501
13.7040 10.9510 -22.6439
15.7554 15.0834 -28.1550
14.2720 16.3457 -28.0105
-3.0933 -4.1503 -6.6817
24.0140 0.5767 -31.0070
22.0997 2.5174 -28.7115
20.4370 4.2031 -26.9329
18.8210 5.6626 -25.3705
17.5559 7.0459 -24.4186
16.4288 8.3674 -23.7990
15.1356 9.4996 -23.0669
14.0058 10.6450 -22.7083
16.1623 14.7372 -28.2337
14.6738 16.0038 -28.0274
-2.7832 -4.2911 -6.6022
22.5915 2.0188 -29.2781
20.8683 3.7658 -27.3726
19.3443 5.3110 -25.8942
18.0385 6.7355 -24.8549
16.7615 8.0301 -23.9911
15.5610 9.2472 -23.3657
14.3095 10.3371 -22.7867
16.5717 14.3889 -28.3296
15.0764 15.6612 -28.0610
-5.0116 4.4646 -8.6639
-2.8646 -4.1899 -6.5517
22.9859 1.4921 -29.7333
21.3142 3.3138 -27.8436
19.6872 4.8940 -26.1864
18.4026 6.3664 -25.1360
17.0998 7.6871 -24.2008
15.8812 8.9226 -23.5139
14.6196 10.0297 -22.8856
13.5461 11.1963 -22.6855
15.4801 15.3177 -28.1113
13.9180 16.4819 -27.8462
-2.9813 -4.1409 -6.5864
23.6375 0.9584 -30.5371
21.7761 2.8456 -28.3482
20.0069 4.4603 -26.4595
18.7726 5.9877 -25.4351
17.4443 7.3378 -24.4288
16.0908 8.5329 -23.5103
14.9241 9.7140 -22.9859
13.8005 10.8531 -22.6630
15.8855 14.9727 -28.1784
14.4007 16.2361 -28.0141
24.0218 0.3898 -31.0122
22.2552 2.3598 -28.8888
20.5737 4.0646 -27.0705
19.0800 5.5789 -25.6604
17.7956 6.9817 -24.6758
16.5348 8.2600 -23.8587
15.3456 9.4656 -23.2739
14.1029 10.5466 -22.7319
16.2932 14.6259 -28.2626
14.8027 15.8941 -28.0364
-2.8061 -4.2535 -6.5777
22.7533 1.8548 -29.4681
21.0096 3.6227 -27.5200
19.4705 5.1830 -26.0084
18.1542 6.6181 -24.9427
16.8693 7.9209 -24.0564
15.6631 9.1437 -23.4115
14.4072 10.2380 -22.8147
-3.0396 -4.1451 -6.5513
23.6639 0.7527 -30.1758
21.9461 2.6732 -28.1779
20.1559 4.3092 -26.2700
18.7760 5.8088 -25.0499
17.4813 7.1745 -24.0840
16.2066 8.4138 -23.2737
15.0358 9.6008 -22.7372
14.0091 10.8206 -22.5611
16.0317 14.8484 -27.8506
14.5450 16.1133 -27.6665
-2.7749 -4.3521 -6.5785
22.4319 2.1807 -28.7251
20.7286 3.9075 -26.8847
19.2191 5.4379 -25.4571
17.9236 6.8520 -24.4567
16.6543 8.1388 -23.6256
15.3642 9.2929 -22.8856
14.3143 10.5112 -22.6346
16.4402 14.5008 -27.9398
14.9473 15.7711 -27.6944
-5.0964 4.4695 -8.6397
-2.8705 -4.2694 -6.5571
22.7725 1.6564 -29.1011
21.1697 3.4603 -27.3397
19.6134 5.0381 -25.8096
18.2850 6.4855 -24.7275
16.9908 7.7977 -23.8271
15.6653 8.9625 -23.0028
14.5686 10.1624 -22.6394
14.9322 12.5389 -24.8517
15.2617 15.3386 -27.5781
-2.9721 -4.1966 -6.5543
23.3015 1.1266 -29.7333
21.4710 2.9759 -27.6272
20.0181 4.6267 -26.1864
18.6548 6.1106 -25.0194
17.3333 7.4505 -24.0463
16.1011 8.6996 -23.3254
14.8249 9.8146 -22.6604
13.8027 11.0299 -22.5191
15.7554 15.0834 -27.7996
14.2720 16.3457 -27.6569
-3.0859 -4.1403 -6.5814
24.0140 0.5767 -30.6156
22.0997 2.5174 -28.3491
20.3138 4.1778 -26.4325
18.8210 5.6626 -25.0502
17.5559 7.0459 -24.1104
16.4288 8.3674 -23.4985
15.1356 9.4996 -22.7757
14.1067 10.7217 -22.5832
16.1623 14.7372 -27.8773
14.6738 16.0038 -27.6736
-2.7974 -4.3129 -6.5520
22.5915 2.0188 -28.9085
20.8683 3.7658 -27.0271
19.3443 5.3110 -25.5673
18.0385 6.7355 -24.5412
16.7615 8.0301 -23.6883
15.4497 9.1811 -22.9058
14.3988 10.4016 -22.6394
16.5717 14.3889 -27.9720
15.0764 15.6612 -27.7068
-5.0481 4.4972 -8.6169
-2.9036 -4.2470 -6.5571
23.1035 1.4998 -29.5083
21.3142 3.3138 -27.4921
19.7421 4.9076 -25.9279
18.4026 6.3664 -24.8187
17.0998 7.6871 -23.8953
15.7676 8.8588 -23.0511
14.6472 10.0487 -22.6394
13.5461 11.1964 -22.3991
15.4801 15.3177 -27.7564
13.9180 16.4819 -27.4947
-3.0040 -4.1725 -6.5529
23.5026 0.9529 -29.9795
21.7761 2.8456 -27.9904
20.0068 4.4603 -26.1255
18.7726 5.9878 -25.1141
17.4443 7.3379 -24.1204
16.0908 8.5329 -23.2135
14.9242 9.7139 -22.6958
13.8999 10.9313 -22.5381
15.8855 14.9727 -27.8227
14.4007 16.2361 -27.6605
-3.1524 -4.1615 -6.6540
24.0218 0.3898 -30.6207
22.2552 2.3598 -28.5241
20.4260 4.0354 -26.5368
19.0800 5.5789 -25.3364
17.7956 6.9817 -24.3643
16.5348 8.2600 -23.5575
15.2359 9.3979 -22.8158
14.2045 10.6225 -22.6066
16.2932 14.6259 -27.9058
14.8026 15.8941 -27.6825
-2.8319 -4.2926 -6.5544
22.7533 1.8548 -29.0961
21.0096 3.6227 -27.1727
19.4705 5.1830 -25.6801
18.1542 6.6181 -24.6278
16.8693 7.9209 -23.7527
15.5511 9.0783 -22.9507
14.4793 10.2892 -22.6394
-3.0799 -4.2001 -6.5547
23.6639 0.7526 -29.7960
21.9461 2.6731 -27.8233
20.3017 4.3403 -26.1270
18.7760 5.8088 -24.7346
17.4813 7.1745 -23.7809
16.2066 8.4138 -22.9808
15.1441 9.6700 -22.6127
14.0091 10.8206 -22.2772
16.0317 14.8484 -27.5001
14.5450 16.1133 -27.3183
-3.2305 -4.1881 -6.6566
-2.7990 -4.3899 -6.5521
22.4319 2.1807 -28.3635
20.5798 3.8795 -26.3557
19.2191 5.4379 -25.1367
17.9236 6.8520 -24.1489
16.6543 8.1388 -23.3283
15.3926 9.3101 -22.6394
14.3143 10.5112 -22.3497
16.4402 14.5008 -27.5882
14.9473 15.7711 -27.3458
-5.1378 4.5058 -8.6002
-2.9096 -4.3276 -6.5628
22.7725 1.6564 -28.7348
21.1697 3.4603 -26.9956
19.6134 5.0381 -25.4848
18.2851 6.4855 -24.4163
16.9908 7.7977 -23.5272
15.6653 8.9625 -22.7133
14.6217 10.1995 -22.4360
14.9322 12.5389 -24.5390
15.2617 15.3386 -27.2310
-3.0118 -4.2528 -6.5584
23.4638 1.1344 -29.5637
21.4710 2.9759 -27.2795
20.0190 4.6269 -25.8581
18.6548 6.1106 -24.7045
17.3333 7.4505 -23.7437
15.9989 8.6443 -22.8856
14.8249 9.8146 -22.3752
13.8027 11.0299 -22.2356
15.7554 15.0834 -27.4498
14.2720 16.3457 -27.3088
-3.1114 -4.1746 -6.5524
23.8416 0.5725 -30.0132
22.0997 2.5174 -27.9923
20.3811 4.1916 -26.1864
18.8210 5.6626 -24.7350
17.5559 7.0459 -23.8070
16.3113 8.3076 -23.0369
15.2368 9.5630 -22.6394
14.1067 10.7217 -22.2989
16.1623 14.7372 -27.5265
14.6738 16.0038 -27.3253
-2.8348 -4.3705 -6.5559
22.5915 2.0188 -28.5447
20.7185 3.7388 -26.4954
19.3443 5.3110 -25.2456
18.0385 6.7355 -24.2323
16.7615 8.0301 -23.3902
15.4647 9.1900 -22.6394
14.4125 10.4116 -22.3759
16.5717 14.3889 -27.6200
15.0764 15.6612 -27.3581
-5.1078 4.5503 -8.6090
-2.9430 -4.3046 -6.5624
23.1035 1.4998 -29.1369
21.3142 3.3138 -27.1461
19.7421 4.9076 -25.6016
18.4026 6.3664 -24.5063
17.0998 7.6871 -23.5946
15.7676 8.8588 -22.7609
14.7207 10.0991 -22.4667
13.5461 11.1963 -22.1172
15.4801 15.3177 -27.4071
13.9180 16.4819 -27.1486
-3.0442 -4.2283 -6.5570
23.6067 0.9571 -29.7333
21.7761 2.8456 -27.6381
20.0069 4.4603 -25.7967
18.7726 5.9878 -24.7980
17.4443 7.3378 -23.8168
16.0897 8.5323 -22.9198
15.0317 9.7839 -22.5715
13.8999 10.9313 -22.2544
15.8855 14.9727 -27.4725
14.4007 16.2361 -27.3123
-3.1544 -4.1642 -6.5745
-2.7856 -4.4541 -6.6114
24.0218 0.3898 -30.2353
22.2552 2.3597 -28.1652
20.4260 4.0354 -26.2029
19.0800 5.5789 -25.0176
17.7956 6.9817 -24.0577
16.5348 8.2600 -23.2610
15.3108 9.4441 -22.6394
14.2045 10.6225 -22.3221
16.2932 14.6259 -27.5546
14.8027 15.8941 -27.3341
-5.1895 4.4716 -8.6210
-2.8704 -4.3509 -6.5598
22.7533 1.8548 -28.7299
20.8587 3.5966 -26.6380
19.4705 5.1830 -25.3569
18.1543 6.6181 -24.3179
16.8693 7.9209 -23.4538
15.5511 9.0783 -22.6618
14.5110 10.3118 -22.4034
-3.1204 -4.2553 -6.5575
23.8350 0.7581 -29.6349
21.9461 2.6732 -27.4741
20.3017 4.3403 -25.7991
18.7760 5.8088 -24.4242
17.4813 7.1745 -23.4825
16.2066 8.4138 -22.6924
15.1440 9.6700 -22.3289
14.0091 10.8206 -21.9976
16.0317 14.8484 -27.1550
14.5450 16.1133 -26.9754
-3.2301 -4.1876 -6.5722
-2.8356 -4.4472 -6.5544
22.4319 2.1807 -28.0076
20.7074 3.9035 -26.1864
19.2191 5.4379 -24.8212
17.9236 6.8520 -23.8458
16.5459 8.0858 -22.8856
15.4593 9.3504 -22.4520
14.3143 10.5112 -22.0692
16.4402 14.5008 -27.2419
14.9473 15.7711 -27.0026
-5.2029 4.5628 -8.5998
-2.9469 -4.3831 -6.5636
22.7725 1.6564 -28.3742
21.0177 3.4354 -26.4654
19.6134 5.0381 -25.1649
18.2851 6.4855 -24.1099
16.8693 7.7419 -23.0658
15.7781 9.0271 -22.5898
14.6217 10.1995 -22.1545
14.9322 12.5389 -24.2310
15.2617 15.3386 -26.8892
-3.0520 -4.3094 -6.5623
23.4638 1.1344 -29.1927
21.4710 2.9759 -26.9372
20.0190 4.6269 -25.5335
18.6548 6.1106 -24.3944
17.3333 7.4505 -23.4457
16.0279 8.6600 -22.6394
14.8249 9.8146 -22.0944
13.8027 11.0299 -21.9566
15.7554 15.0834 -27.1053
14.2720 16.3457 -26.9661
-3.1523 -4.2294 -6.5552
23.9194 0.5744 -29.7333
22.0997 2.5174 -27.6410
20.4370 4.2031 -25.9287
18.8210 5.6626 -24.4245
17.5559 7.0459 -23.5082
16.3113 8.3076 -22.7478
15.2446 9.5680 -22.3668
14.1067 10.7217 -22.0191
16.1623 14.7372 -27.1810
14.6738 16.0038 -26.9824
-5.2767 4.4757 -8.5985
-2.8717 -4.4275 -6.5580
22.5915 2.0188 -28.1865
20.7372 3.7421 -26.1864
19.3443 5.3110 -24.9287
18.0385 6.7355 -23.9282
16.6417 7.9727 -22.9315
15.5610 9.2472 -22.4945
14.4125 10.4116 -22.0951
16.5717 14.3889 -27.2733
15.0764 15.6612 -27.0147
-2.9818 -4.3613 -6.5654
23.1035 1.4998 -28.7712
21.1612 3.2900 -26.6130
19.7421 4.9076 -25.2803
18.4026 6.3664 -24.1988
17.0998 7.6871 -23.2985
15.8812 8.9226 -22.6372
14.7208 10.0991 -22.1847
13.5461 11.1963 -21.8396
15.4801 15.3177 -27.0631
13.9180 16.4819 -26.8079
-3.0844 -4.2840 -6.5601
23.6375 0.9584 -29.3985
21.7761 2.8456 -27.2912
20.0069 4.4603 -25.4729
18.7726 5.9878 -24.4868
17.4443 7.3378 -23.5179
16.0908 8.5329 -22.6337
15.0317 9.7839 -22.2883
13.8999 10.9313 -21.9752
15.8855 14.9727 -27.1277
14.4007 16.2361 -26.9696
-3.1840 -4.2032 -6.5529
-2.8043 -4.4839 -6.5722
24.0218 0.3898 -29.8559
22.2552 2.3598 -27.8117
20.5737 4.0646 -26.0611
19.0800 5.5789 -24.7036
17.7956 6.9817 -23.7558
16.4166 8.2009 -22.8048
15.3456 9.4656 -22.4061
14.2045 10.6225 -22.0420
16.2932 14.6259 -27.2088
14.8027 15.8941 -26.9910
-5.2333 4.5093 -8.5847
-2.9073 -4.4069 -6.5609
22.7533 1.8548 -28.3694
20.8587 3.5967 -26.3037
19.4705 5.1830 -25.0387
18.1542 6.6181 -24.0127
16.7486 7.8642 -22.9938
15.6631 9.1437 -22.5386
14.5110 10.3118 -22.1223
-3.1616 -4.3114 -6.5608
23.8350 0.7581 -29.2640
21.9461 2.6732 -27.1302
20.3017 4.3403 -25.4762
18.7760 5.8088 -24.1185
17.4813 7.1745 -23.1886
16.2066 8.4138 -22.4083
15.1441 9.6700 -22.0495
14.0091 10.8206 -21.7223
16.0317 14.8484 -26.8151
14.4608 16.0200 -26.4835
-5.3657 4.4798 -8.5777
-3.2616 -4.2284 -6.5531
-2.8708 -4.5024 -6.5527
22.4319 2.1807 -27.6570
20.7286 3.9075 -25.8851
19.2191 5.4379 -24.5106
17.9236 6.8520 -23.5473
16.5754 8.1002 -22.6394
15.4592 9.3504 -22.1710
14.3143 10.5112 -21.7930
16.4402 14.5008 -26.9010
14.8607 15.6797 -26.5102
-2.9826 -4.4362 -6.5599
22.7725 1.6564 -28.0191
21.0597 3.4423 -26.1864
19.6134 5.0381 -24.8499
18.2850 6.4855 -23.8081
16.8693 7.7419 -22.7771
15.7781 9.0271 -22.3071
14.6217 10.1995 -21.8772
14.9322 12.5389 -23.9277
15.2617 15.3386 -26.5527
-3.0923 -4.3663 -6.5658
23.4638 1.1344 -28.8273
21.4710 2.9759 -26.6000
20.0190 4.6269 -25.2139
18.6548 6.1106 -24.0891
17.2093 7.3972 -22.9867
16.1012 8.6996 -22.4582
14.8249 9.8146 -21.8179
13.8027 11.0299 -21.6818
15.6642 14.9961 -26.6110
14.1893 16.2510 -26.4743
-3.1938 -4.2851 -6.5584
24.0140 0.5767 -29.4773
22.0997 2.5174 -27.2950
20.4370 4.2031 -25.6041
18.8210 5.6626 -24.1188
17.5559 7.0459 -23.2139
16.4288 8.3674 -22.6248
15.2446 9.5680 -22.0868
14.1067 10.7217 -21.7435
16.1623 14.7372 -26.8408
14.5888 15.9111 -26.4904
-5.3248 4.5165 -8.5683
-3.3080 -4.2203 -6.5803
-2.9070 -4.4819 -6.5556
22.5915 2.0188 -27.8337
20.8684 3.7658 -26.0222
19.3443 5.3110 -24.6167
18.0385 6.7355 -23.6287
16.6417 7.9727 -22.6444
15.5610 9.2472 -22.2130
14.4125 10.4116 -21.8185
16.5717 14.3889 -26.9320
14.9890 15.5705 -26.5221
-3.0180 -4.4142 -6.5619
23.1035 1.4998 -28.4111
21.1612 3.2900 -26.2799
19.7421 4.9076 -24.9639
18.4026 6.3664 -23.8959
17.0097 7.6466 -22.8856
15.8812 8.9226 -22.3538
14.7207 10.0991 -21.9070
13.5461 11.1963 -21.5663
15.3905 15.2290 -26.5696
13.9180 16.4819 -26.4724
-3.1251 -4.3407 -6.5636
23.6375 0.9584 -29.0306
21.7761 2.8455 -26.9497
20.0069 4.4603 -25.1541
18.7726 5.9878 -24.1803
17.3196 7.2854 -23.0575
16.0908 8.5329 -22.3504
15.0317 9.7839 -22.0093
13.8999 10.9313 -21.7001
15.7935 14.8860 -26.6331
14.3173 16.1421 -26.4778
-3.2259 -4.2585 -6.5559
24.0218 0.3898 -29.4822
22.2552 2.3597 -27.4636
20.5737 4.0646 -25.7349
19.0800 5.5789 -24.3944
17.7956 6.9817 -23.4584
16.5040 8.2446 -22.6394
15.3456 9.4656 -22.1257
14.2045 10.6225 -21.7661
16.2932 14.6259 -26.8682
14.7169 15.8021 -26.4988
-5.3010 4.5676 -8.5868
-2.9428 -4.4607 -6.5578
22.7533 1.8548 -28.0143
21.0096 3.6226 -26.1623
19.4705 5.1830 -24.7253
18.1542 6.6181 -23.7121
16.7487 7.8642 -22.7060
15.6631 9.1437 -22.2565
14.5110 10.3118 -21.8454
-3.2037 -4.3690 -6.5654
23.8350 0.7581 -28.8986
21.7886 2.6539 -26.5991
20.3017 4.3403 -25.1581
18.7761 5.8088 -23.8174
17.4710 7.1702 -22.8856
16.2066 8.4138 -22.1286
15.1441 9.6700 -21.7742
14.0091 10.8206 -21.4511
15.9388 14.7624 -26.3269
14.4793 16.0405 -26.1864
-5.4173 4.5229 -8.5521
-3.3074 -4.2879 -6.5624
22.4319 2.1807 -27.3117
20.7286 3.9075 -25.5619
19.2191 5.4379 -24.2046
17.7954 6.8030 -23.0871
16.6543 8.1388 -22.4632
15.4592 9.3504 -21.8942
14.3143 10.5112 -21.5209
16.3582 14.4284 -26.4325
14.8647 15.6840 -26.1864
-3.0190 -4.4903 -6.5570
22.7725 1.6564 -27.6693
21.1697 3.4603 -25.9945
19.6134 5.0381 -24.5397
18.2850 6.4855 -23.5109
16.9793 7.7924 -22.6394
15.7781 9.0271 -22.0286
14.6217 10.1995 -21.6040
14.9322 12.5389 -23.6290
15.2617 15.3386 -26.2212
-3.1294 -4.4188 -6.5616
23.4638 1.1344 -28.4674
21.4710 2.9759 -26.2679
20.0190 4.6269 -24.8991
18.6548 6.1106 -23.7883
17.2093 7.3972 -22.6997
16.1012 8.6996 -22.1778
14.8249 9.8146 -21.5455
13.8027 11.0299 -21.4111
15.6642 14.9961 -26.2788
14.2124 16.2774 -26.1864
-5.5301 4.4641 -8.6125
-3.2364 -4.3422 -6.5629
24.0140 0.5767 -29.1092
22.0997 2.5174 -26.9543
20.4370 4.2032 -25.2845
18.8210 5.6626 -23.8177
17.5559 7.0459 -22.9241
16.4288 8.3674 -22.3424
15.2446 9.5680 -21.8111
14.1067 10.7217 -21.4720
16.0687 14.6519 -26.3522
14.6037 15.9273 -26.1864
-3.3417 -4.2633 -6.5643
-2.9424 -4.5364 -6.5525
22.5915 2.0188 -27.4862
20.8684 3.7658 -25.6973
19.3443 5.3110 -24.3094
18.0385 6.7355 -23.3337
16.7615 8.0301 -22.5228
15.5610 9.2472 -21.9356
14.4125 10.4116 -21.5461
16.4758 14.3055 -26.4417
14.9891 15.5705 -26.1910
-3.0546 -4.4677 -6.5585
23.1035 1.4998 -28.0564
21.3142 3.3138 -26.1395
19.7421 4.9076 -24.6522
18.4026 6.3664 -23.5976
17.0394 7.6600 -22.6394
15.8812 8.9226 -22.0748
14.7208 10.0991 -21.6335
13.5461 11.1963 -21.2970
15.3905 15.2290 -26.2379
13.9180 16.4819 -26.1419
-3.1648 -4.3957 -6.5638
23.6375 0.9584 -28.6681
21.6282 2.8262 -26.4325
20.0069 4.4603 -24.8401
18.7726 5.9877 -23.8784
17.3196 7.2854 -22.7697
16.0908 8.5329 -22.0714
15.0316 9.7839 -21.7345
13.8999 10.9313 -21.4292
15.7935 14.8860 -26.3006
14.3387 16.1663 -26.1864
-5.4635 4.4810 -8.5629
-3.2689 -4.3153 -6.5604
24.0218 0.3898 -29.1141
22.2552 2.3597 -27.1207
20.5737 4.0646 -25.4136
19.0800 5.5789 -24.0898
17.6684 6.9318 -22.9999
16.5348 8.2600 -22.3984
15.3456 9.4656 -21.8494
14.2045 10.6225 -21.4943
16.1988 14.5412 -26.3791
14.7272 15.8132 -26.1864
-2.9786 -4.5149 -6.5546
22.7533 1.8548 -27.6645
21.0096 3.6227 -25.8357
19.4705 5.1830 -24.4166
18.1543 6.6181 -23.4161
16.8693 7.9209 -22.5840
15.6631 9.1437 -21.9786
14.5110 10.3118 -21.5726
-5.6159 4.4616 -8.5836
-3.2426 -4.4220 -6.5622
23.8350 0.7581 -28.5387
21.7886 2.6540 -26.2678
20.3017 4.3403 -24.8447
18.7760 5.8088 -23.5207
17.4813 7.1745 -22.6138
16.2066 8.4138 -21.8530
15.1440 9.6700 -21.5030
14.0091 10.8206 -21.1839
16.0317 14.8484 -26.1505
14.5450 16.1133 -25.9776
-3.3547 -4.3492 -6.5733
22.4319 2.1807 -26.9715
20.7286 3.9075 -25.2435
19.2191 5.4379 -23.9031
17.7954 6.8030 -22.7995
16.6543 8.1388 -22.1834
15.4592 9.3504 -21.6215
14.3143 10.5112 -21.2529
16.4102 14.4743 -26.1864
14.9473 15.7711 -26.0038
-3.0554 -4.5444 -6.5534
22.7725 1.6564 -27.3247
21.1697 3.4603 -25.6708
19.6134 5.0381 -24.2341
18.1543 6.4391 -23.0520
16.9908 7.7977 -22.3726
15.7781 9.0271 -21.7542
14.6217 10.1995 -21.3350
14.7645 12.3981 -23.0726
15.2617 15.3386 -25.8946
-3.1669 -4.4717 -6.5575
23.4638 1.1344 -28.1128
21.4710 2.9759 -25.9407
20.0190 4.6269 -24.5890
18.6548 6.1106 -23.4921
17.3333 7.4505 -22.5784
16.1012 8.6996 -21.9016
14.8249 9.8146 -21.2771
13.8027 11.0299 -21.1444
15.7554 15.0834 -26.1026
14.2720 16.3457 -25.9686
-5.5572 4.4861 -8.5470
-3.2791 -4.3995 -6.5665
24.0140 0.5767 -28.7467
21.9453 2.4998 -26.4325
20.4370 4.2031 -24.9695
18.8210 5.6626 -23.5211
17.5559 7.0459 -22.6386
16.4288 8.3674 -22.0641
15.2446 9.5680 -21.5394
14.1067 10.7217 -21.2046
16.1623 14.7372 -26.1756
14.6738 16.0038 -25.9843
-3.3899 -4.3248 -6.5761
22.5915 2.0188 -27.1438
20.8683 3.7658 -25.3773
19.3443 5.3110 -24.0066
17.9152 6.6894 -22.8856
16.7615 8.0301 -22.2423
15.5610 9.2472 -21.6624
14.4125 10.4116 -21.2777
16.5224 14.3461 -26.1864
15.0764 15.6612 -26.0154
-3.0912 -4.5214 -6.5546
23.1035 1.4998 -27.7070
21.3142 3.3138 -25.8139
19.7421 4.9076 -24.3451
18.4026 6.3664 -23.3036
17.0998 7.6871 -22.4367
15.8812 8.9226 -21.7998
14.7208 10.0991 -21.3641
13.5461 11.1963 -21.0317
15.4801 15.3177 -26.0620
13.9180 16.4819 -25.8163
-3.2027 -4.4484 -6.5597
23.6375 0.9584 -28.3110
21.6971 2.8352 -26.1864
20.0069 4.4603 -24.5307
18.7726 5.9878 -23.5810
17.4377 7.3351 -22.6394
16.0908 8.5329 -21.7965
15.0316 9.7839 -21.4638
13.8999 10.9313 -21.1623
15.8855 14.9727 -26.1243
14.4007 16.2361 -25.9720
-5.5158 4.5239 -8.5372
-3.3150 -4.3762 -6.5701
24.0218 0.3898 -28.7515
22.0954 2.3428 -26.5906
20.5737 4.0646 -25.0971
19.0800 5.5789 -23.7898
17.6684 6.9318 -22.7134
16.5348 8.2600 -22.1194
15.3456 9.4656 -21.5773
14.2045 10.6225 -21.2266
16.2833 14.6170 -26.1864
14.8027 15.8941 -25.9926
-3.0148 -4.5698 -6.5518
22.7533 1.8548 -27.3199
21.0096 3.6227 -25.5139
19.4705 5.1830 -24.1125
18.0244 6.5708 -22.9591
16.8693 7.9209 -22.3027
15.6631 9.1437 -21.7049
14.5110 10.3118 -21.3039
-5.6520 4.4903 -8.5314
-3.2831 -4.4771 -6.5615
23.8350 0.7581 -28.1840
21.9461 2.6732 -26.1290
20.3017 4.3403 -24.5360
18.7760 5.8088 -23.2284
17.4813 7.1745 -22.3328
16.2066 8.4138 -21.5814
15.1440 9.6700 -21.2357
14.0091 10.8206 -20.9206
16.0317 14.8484 -25.8255
14.5450 16.1133 -25.6548
-3.3991 -4.4067 -6.5775
22.2708 2.1650 -26.4451
20.7286 3.9075 -24.9298
19.2191 5.4379 -23.6060
17.8928 6.8402 -22.6394
16.6543 8.1388 -21.9077
15.4592 9.3504 -21.3528
14.3143 10.5112 -20.9888
16.4402 14.5008 -25.9082
14.9473 15.7711 -25.6806
22.7725 1.6564 -26.9851
21.1697 3.4603 -25.3517
19.6134 5.0381 -23.9329
18.1543 6.4391 -22.7655
16.9908 7.7977 -22.0945
15.7781 9.0271 -21.4838
14.6217 10.1995 -21.0698
14.7645 12.3981 -22.7858
15.2617 15.3386 -25.5728
-3.2048 -4.5252 -6.5535
23.4638 1.1344 -27.7634
21.4710 2.9759 -25.6183
20.0190 4.6269 -24.2834
18.5214 6.0669 -23.0342
17.3333 7.4505 -22.2978
16.1012 8.6996 -21.6294
14.8249 9.8146 -21.0127
13.8027 11.0299 -20.8816
15.7554 15.0834 -25.7782
14.2720 16.3457 -25.6458
-5.6119 4.5302 -8.5239
-3.3213 -4.4561 -6.5684
24.0140 0.5767 -28.3894
22.0145 2.5077 -26.1864
20.4370 4.2031 -24.6592
18.8210 5.6626 -23.2287
17.5559 7.0459 -22.3573
16.4288 8.3674 -21.7899
15.2446 9.5680 -21.2717
14.1067 10.7217 -20.9411
16.1623 14.7372 -25.8503
14.6738 16.0038 -25.6614
-3.4407 -4.3895 -6.5916
22.4293 2.0043 -26.6140
20.8683 3.7658 -25.0619
19.3443 5.3110 -23.7083
17.9455 6.7007 -22.6394
16.7615 8.0301 -21.9658
15.5610 9.2472 -21.3932
14.4125 10.4116 -21.0133
16.5717 14.3889 -25.9381
15.0764 15.6612 -25.6921
23.1035 1.4998 -27.3626
21.3142 3.3138 -25.4931
19.7421 4.9076 -24.0426
18.2999 6.3308 -22.8856
17.0998 7.6871 -22.1578
15.8812 8.9226 -21.5289
14.7207 10.0991 -21.0986
13.5461 11.1963 -20.7704
15.4801 15.3177 -25.7382
13.9180 16.4819 -25.4954
-5.7170 4.4611 -8.5703
-3.2409 -4.5015 -6.5555
23.6375 0.9584 -27.9592
21.7761 2.8456 -25.9551
20.0069 4.4603 -24.2258
18.7726 5.9878 -23.2879
17.4443 7.3378 -22.3665
16.0908 8.5329 -21.5256
15.0316 9.7839 -21.1971
13.8999 10.9313 -20.8993
15.8855 14.9727 -25.7996
14.4007 16.2361 -25.6492
-3.3589 -4.4341 -6.5743
24.0218 0.3898 -28.3942
22.0955 2.3428 -26.2602
20.5737 4.0646 -24.7852
19.0800 5.5789 -23.4941
17.7956 6.9817 -22.5927
16.5348 8.2600 -21.8445
15.3456 9.4656 -21.3091
14.2045 10.6225 -20.9628
16.2932 14.6259 -25.8767
14.8027 15.8941 -25.6696
-3.4820 -4.3717 -6.6054
22.7533 1.8548 -26.9804
21.0096 3.6227 -25.1968
19.4705 5.1830 -23.8128
18.0244 6.5708 -22.6738
16.8693 7.9209 -22.0256
15.6631 9.1437 -21.4351
14.5110 10.3118 -21.0392
-5.7096 4.5361 -8.5115
23.8350 0.7581 -27.8344
21.9461 2.6732 -25.8049
20.3017 4.3403 -24.2317
18.7760 5.8088 -22.9403
17.4813 7.1745 -22.0558
16.2066 8.4138 -21.3137
15.1440 9.6700 -20.9724
14.0091 10.8206 -20.6612
16.0317 14.8484 -25.5052
14.5450 16.1133 -25.3366
22.3298 2.1707 -26.1864
20.7286 3.9075 -24.6206
19.2191 5.4379 -23.3133
17.9236 6.8520 -22.3971
16.6543 8.1388 -21.6360
15.4592 9.3504 -21.0880
14.3143 10.5112 -20.7285
16.4402 14.5008 -25.5869
14.9473 15.7711 -25.3621
-3.5567 -4.3863 -6.5914
22.7725 1.6564 -26.6504
21.1697 3.4603 -25.0373
19.6134 5.0381 -23.6361
18.2804 6.4839 -22.6394
16.9908 7.7977 -21.8205
15.7781 9.0271 -21.2174
14.6217 10.1995 -20.8085
14.8538 12.4731 -22.6394
15.2617 15.3386 -25.2556
-5.8118 4.4627 -8.5527
23.4638 1.1344 -27.4191
21.4710 2.9759 -25.3007
20.0190 4.6269 -23.9823
18.5214 6.0669 -22.7485
17.3333 7.4505 -22.0213
16.1012 8.6996 -21.3611
14.8249 9.8146 -20.7521
13.8027 11.0299 -20.6226
15.7554 15.0834 -25.4585
14.2720 16.3457 -25.3278
24.0140 0.5767 -28.0373
22.0997 2.5174 -25.9617
20.4370 4.2031 -24.3534
18.8210 5.6626 -22.9407
17.5559 7.0459 -22.0800
16.4288 8.3674 -21.5196
15.2446 9.5680 -21.0079
14.1067 10.7217 -20.6813
16.1623 14.7372 -25.5297
14.6738 16.0038 -25.3431
22.4293 2.0043 -26.2840
20.8683 3.7658 -24.7511
19.3443 5.3110 -23.4142
18.0385 6.7355 -22.4745
16.7615 8.0301 -21.6934
15.5610 9.2472 -21.1279
14.4125 10.4116 -20.7527
16.5717 14.3889 -25.6164
15.0764 15.6612 -25.3735
-3.6043 -4.3750 -6.6163
23.1035 1.4998 -27.0233
21.3142 3.3138 -25.1769
19.7421 4.9076 -23.7444
18.3303 6.3414 -22.6394
17.0998 7.6871 -21.8830
15.8812 8.9226 -21.2619
14.7208 10.0991 -20.8369
13.5461 11.1963 -20.5128
15.4801 15.3177 -25.4190
13.9180 16.4819 -25.1792
-5.7528 4.4891 -8.5171
23.6375 0.9584 -27.6125
21.7761 2.8455 -25.6332
20.0069 4.4603 -23.9254
18.6409 5.9458 -22.8378
17.4443 7.3378 -22.0891
16.0908 8.5329 -21.2586
15.0316 9.7839 -20.9342
13.8999 10.9313 -20.6401
15.8855 14.9727 -25.4796
14.4007 16.2361 -25.3311
24.0218 0.3898 -28.0420
22.2552 2.3597 -26.1220
20.5737 4.0646 -24.4778
18.9430 5.5388 -23.0362
17.7956 6.9817 -22.3125
16.5348 8.2600 -21.5736
15.3456 9.4656 -21.0448
14.2045 10.6225 -20.7028
16.2932 14.6259 -25.5558
14.8026 15.8941 -25.3512
-3.5177 -4.4165 -6.5903
22.5899 1.8415 -26.4545
21.0096 3.6227 -24.8843
19.4705 5.1830 -23.5175
18.1543 6.6181 -22.5538
16.8693 7.9209 -21.7524
15.6631 9.1437 -21.1693
14.5110 10.3118 -20.7783
23.8350 0.7581 -27.4899
21.9461 2.6732 -25.4855
20.3017 4.3403 -23.9317
18.7761 5.8088 -22.6563
17.4813 7.1745 -21.7828
16.2066 8.4138 -21.0499
15.1440 9.6700 -20.7128
14.0091 10.8206 -20.4054
16.0317 14.8484 -25.1895
14.5450 16.1133 -25.0229
22.4319 2.1807 -25.9804
20.7286 3.9075 -24.3159
19.1030 5.4050 -22.8856
17.9236 6.8520 -22.1198
16.6543 8.1388 -21.3682
15.4592 9.3504 -20.8269
14.3143 10.5112 -20.4719
16.4402 14.5008 -25.2702
14.9473 15.7711 -25.0482
22.7725 1.6564 -26.3205
21.1697 3.4603 -24.7274
19.6134 5.0381 -23.3435
18.2851 6.4855 -22.3648
16.9908 7.7977 -21.5504
15.7781 9.0271 -20.9547
14.6217 10.1995 -20.5509
14.9322 12.5389 -22.4771
15.2617 15.3386 -24.9430
-5.8496 4.4918 -8.5018
23.4638 1.1344 -27.0797
21.4710 2.9759 -24.9874
20.0190 4.6269 -23.6854
18.6548 6.1106 -22.6288
17.3333 7.4505 -21.7487
16.1012 8.6996 -21.0967
14.8249 9.8146 -20.4952
13.8027 11.0299 -20.3674
15.7554 15.0834 -25.1434
14.2720 16.3457 -25.0143
24.0140 0.5767 -27.6903
22.0997 2.5174 -25.6403
20.4370 4.2031 -24.0519
18.8210 5.6626 -22.6567
17.5559 7.0459 -21.8067
16.4288 8.3674 -21.2532
15.2446 9.5680 -20.7479
14.1067 10.7217 -20.4253
16.1623 14.7372 -25.2136
14.6738 16.0038 -25.0294
22.5915 2.0188 -26.1463
20.8683 3.7658 -24.4447
19.2054 5.2729 -22.9584
18.0385 6.7355 -22.1963
16.7615 8.0301 -21.4249
15.5610 9.2472 -20.8664
14.4125 10.4116 -20.4958
16.5717 14.3889 -25.2993
15.0764 15.6612 -25.0594
-3.6305 -4.4068 -6.5818
22.9376 1.4890 -26.4971
21.3142 3.3138 -24.8653
19.7421 4.9076 -23.4505
18.4026 6.3663 -22.4473
17.0998 7.6871 -21.6121
15.8812 8.9226 -20.9987
14.7207 10.0991 -20.5790
13.5461 11.1963 -20.2589
15.4801 15.3177 -25.1043
13.9180 16.4819 -24.8675
-5.8099 4.5336 -8.4952
23.6375 0.9584 -27.2706
21.7761 2.8455 -25.3159
20.0069 4.4603 -23.6292
18.7106 5.9680 -22.6394
17.4444 7.3378 -21.8157
16.0908 8.5329 -20.9955
15.0317 9.7839 -20.6750
13.8999 10.9313 -20.3846
15.8855 14.9727 -25.1642
14.4007 16.2361 -25.0175
24.0218 0.3898 -27.6949
22.2552 2.3597 -25.7987
20.5737 4.0646 -24.1748
18.9430 5.5388 -22.7510
17.7956 6.9817 -22.0363
16.5348 8.2600 -21.3066
15.3456 9.4656 -20.7843
14.2045 10.6225 -20.4466
16.2932 14.6259 -25.2394
14.8027 15.8941 -25.0374
22.6412 1.8457 -26.1864
21.0096 3.6226 -24.5763
19.3307 5.1458 -23.0596
18.1543 6.6181 -22.2746
16.8693 7.9209 -21.4831
15.6631 9.1437 -20.9072
14.5110 10.3117 -20.5211
23.8350 0.7581 -27.1502
21.9461 2.6732 -25.1706
20.3017 4.3403 -23.6360
18.7760 5.8088 -22.3764
17.4813 7.1745 -21.5136
16.2066 8.4138 -20.7898
15.1440 9.6700 -20.4568
14.0091 10.8206 -20.1533
16.0317 14.8484 -24.8782
14.5450 16.1133 -24.7137
22.4319 2.1807 -25.6594
20.7286 3.9075 -24.0154
19.1339 5.4138 -22.6394
17.9236 6.8520 -21.8465
16.6543 8.1388 -21.1042
15.4592 9.3504 -20.5695
14.3143 10.5112 -20.2189
16.4402 14.5008 -24.9579
14.9473 15.7711 -24.7387
22.7725 1.6564 -25.9952
21.1697 3.4603 -24.4218
19.4726 5.0019 -22.8895
18.2851 6.4855 -22.0884
16.9908 7.7977 -21.2841
15.7781 9.0271 -20.6958
14.6217 10.1995 -20.2970
14.9322 12.5389 -22.1994
15.2617 15.3386 -24.6348
-5.9087 4.5371 -8.4816
-3.7495 -4.4011 -6.5826
23.2954 1.1263 -26.5531
21.4710 2.9759 -24.6787
20.0190 4.6269 -23.3927
18.6548 6.1106 -22.3491
17.3333 7.4505 -21.4799
16.1012 8.6996 -20.8360
14.8249 9.8146 -20.2420
13.8027 11.0299 -20.1157
15.7554 15.0834 -24.8327
14.2720 16.3456 -24.7052
24.0140 0.5767 -27.3481
22.0997 2.5174 -25.3235
20.4370 4.2031 -23.7547
18.8210 5.6626 -22.3767
17.5559 7.0459 -21.5372
16.4288 8.3674 -20.9906
15.2446 9.5680 -20.4915
14.1067 10.7217 -20.1730
16.1623 14.7372 -24.9021
14.6738 16.0038 -24.7201
22.5915 2.0188 -25.8232
20.8683 3.7658 -24.1426
19.2054 5.2729 -22.6747
18.0385 6.7355 -21.9220
16.7615 8.0301 -21.1601
15.5610 9.2472 -20.6085
14.4126 10.4116 -20.2426
16.5717 14.3889 -24.9867
15.0764 15.6612 -24.7497
-6.0137 4.4619 -8.5254
22.9522 1.4899 -26.1864
21.3142 3.3138 -24.5580
19.6004 4.8724 -22.9944
18.4026 6.3664 -22.1699
17.0998 7.6871 -21.3451
15.8812 8.9226 -20.7392
14.7208 10.0991 -20.3247
13.5461 11.1963 -20.0085
15.4801 15.3177 -24.7941
13.9180 16.4819 -24.5603
-3.8034 -4.3946 -6.6169
23.6375 0.9584 -26.9337
21.7761 2.8455 -25.0031
20.0069 4.4603 -23.3372
18.7726 5.9878 -22.4337
17.4443 7.3378 -21.5461
16.0908 8.5329 -20.7360
15.0317 9.7839 -20.4196
13.8999 10.9313 -20.1327
15.8855 14.9727 -24.8533
14.4007 16.2361 -24.7084
24.0218 0.3898 -27.3527
22.2552 2.3597 -25.4799
20.5737 4.0646 -23.8761
19.0800 5.5789 -22.6324
17.7956 6.9817 -21.7640
16.5348 8.2600 -21.0433
15.3456 9.4656 -20.5275
14.2045 10.6225 -20.1939
16.2932 14.6259 -24.9275
14.8027 15.8941 -24.7280
22.7533 1.8548 -25.9908
21.0096 3.6226 -24.2726
19.3307 5.1458 -22.7747
18.1543 6.6181 -21.9994
16.8693 7.9209 -21.2177
15.6631 9.1437 -20.6489
14.5110 10.3117 -20.2675
-3.8767 -4.4011 -6.5950
23.6639 0.7527 -26.6227
21.9461 2.6732 -24.8600
20.3017 4.3403 -23.3444
18.7760 5.8088 -22.1003
17.4813 7.1745 -21.2482
16.2066 8.4138 -20.5333
15.1440 9.6700 -20.2044
14.0091 10.8206 -19.9046
16.0317 14.8484 -24.5713
14.5450 16.1133 -24.4088
22.4319 2.1807 -25.3428
20.7286 3.9075 -23.7191
19.2191 5.4379 -22.4596
17.9236 6.8520 -21.5770
16.6543 8.1388 -20.8438
15.4592 9.3504 -20.3158
14.3143 10.5112 -19.9694
16.4402 14.5008 -24.6500
14.9473 15.7711 -24.4334
-6.1130 4.4622 -8.5103
22.7725 1.6564 -25.6745
21.1697 3.4603 -24.1205
19.5004 5.0091 -22.6394
18.2851 6.4855 -21.8159
16.9908 7.7977 -21.0215
15.7781 9.0271 -20.4405
14.6217 10.1995 -20.0466
14.9322 12.5389 -21.9255
15.2617 15.3386 -24.3308
23.2954 1.1263 -26.2254
21.4710 2.9759 -24.3742
19.8753 4.5937 -22.9382
18.6548 6.1106 -22.0734
17.3333 7.4505 -21.2149
16.1011 8.6996 -20.5789
14.8249 9.8146 -19.9922
13.8027 11.0299 -19.8675
15.7554 15.0834 -24.5263
14.2720 16.3457 -24.4004
24.0140 0.5767 -27.0107
22.0997 2.5174 -25.0111
20.4370 4.2031 -23.4617
18.8210 5.6626 -22.1006
17.5559 7.0459 -21.2715
16.4288 8.3674 -20.7316
15.2446 9.5680 -20.2387
14.1067 10.7217 -19.9241
16.1623 14.7372 -24.5948
14.6738 16.0038 -24.4151
22.5915 2.0188 -25.5046
20.8683 3.7658 -23.8447
19.3443 5.3110 -22.5569
18.0385 6.7355 -21.6516
16.7615 8.0301 -20.8991
15.5610 9.2472 -20.3543
14.4125 10.4116 -19.9928
16.5717 14.3889 -24.6784
15.0764 15.6612 -24.4444
-6.0515 4.4899 -8.4731
23.1035 1.4998 -26.0338
21.3142 3.3138 -24.2550
19.6004 4.8724 -22.7107
18.4026 6.3664 -21.8963
17.0998 7.6871 -21.0817
15.8812 8.9226 -20.4833
14.7207 10.0991 -20.0739
13.5461 11.1963 -19.7616
15.4801 15.3177 -24.4882
13.9180 16.4819 -24.2572
-3.8257 -4.4203 -6.5736
23.4875 0.9523 -26.4325
21.7761 2.8456 -24.6946
20.0069 4.4603 -23.0493
18.7726 5.9877 -22.1569
17.4444 7.3378 -21.2803
16.0908 8.5329 -20.4802
15.0316 9.7839 -20.1676
13.8999 10.9313 -19.8843
15.8855 14.9727 -24.5466
14.4007 16.2361 -24.4035
24.0218 0.3898 -27.0152
22.2552 2.3597 -25.1655
20.5737 4.0646 -23.5815
19.0800 5.5789 -22.3531
17.7956 6.9817 -21.4955
16.5348 8.2600 -20.7836
15.3456 9.4656 -20.2742
14.2045 10.6225 -19.9448
16.2932 14.6259 -24.6200
14.8027 15.8941 -24.4229
22.7533 1.8548 -25.6701
21.0096 3.6226 -23.9731
19.4559 5.1791 -22.6394
18.1543 6.6181 -21.7280
16.8693 7.9209 -20.9559
15.6631 9.1437 -20.3941
14.5110 10.3118 -20.0174
-3.9077 -4.4363 -6.5658
23.6639 0.7526 -26.2947
21.9461 2.6732 -24.5538
20.1559 4.3092 -22.8913
18.7760 5.8088 -21.8280
17.4813 7.1745 -20.9864
16.2066 8.4138 -20.2803
15.1440 9.6700 -19.9555
13.9089 10.7432 -19.5188
16.0317 14.8484 -24.2686
14.5450 16.1133 -24.1081
22.4319 2.1807 -25.0306
20.7286 3.9075 -23.4269
19.2191 5.4379 -22.1829
17.9236 6.8520 -21.3112
16.6543 8.1388 -20.5870
15.4592 9.3504 -20.0655
14.3143 10.5112 -19.7234
16.4402 14.5007 -24.3463
14.9473 15.7711 -24.1324
-6.1514 4.4902 -8.4583
22.7725 1.6564 -25.3582
21.1697 3.4603 -23.8234
19.6134 5.0381 -22.4901
18.2851 6.4855 -21.5472
16.9908 7.7977 -20.7625
15.7781 9.0271 -20.1887
14.6217 10.1995 -19.7996
14.9322 12.5389 -21.6554
15.2617 15.3386 -24.0311
23.4638 1.1344 -26.0897
21.4710 2.9759 -24.0739
19.8753 4.5937 -22.6557
18.6548 6.1106 -21.8015
17.3333 7.4504 -20.9536
16.1012 8.6996 -20.3254
14.8249 9.8146 -19.7459
13.7040 10.9510 -19.4824
15.7554 15.0834 -24.2242
14.2720 16.3457 -24.0998
-3.9488 -4.4132 -6.5770
23.8416 0.5725 -26.4864
22.0997 2.5174 -24.7030
20.2903 4.1730 -23.0063
18.8210 5.6626 -21.8284
17.5559 7.0459 -21.0094
16.4288 8.3674 -20.4762
15.2446 9.5680 -19.9893
14.0058 10.6450 -19.5379
16.1623 14.7372 -24.2918
14.6738 16.0038 -24.1144
22.5915 2.0188 -25.1904
20.8683 3.7658 -23.5510
19.3443 5.3110 -22.2790
18.0385 6.7355 -21.3848
16.7615 8.0301 -20.6416
15.5610 9.2472 -20.1035
14.4125 10.4116 -19.7465
16.5717 14.3889 -24.3744
15.0764 15.6612 -24.1432
-6.1098 4.5331 -8.4493
23.1035 1.4998 -25.7130
21.3142 3.3138 -23.9562
19.7421 4.9076 -22.5931
18.4026 6.3664 -21.6266
17.0998 7.6871 -20.8220
15.8812 8.9226 -20.2310
14.7208 10.0991 -19.8266
13.5461 11.1963 -19.5182
15.4801 15.3177 -24.1865
13.9180 16.4819 -23.9584
23.5590 0.9552 -26.1864
21.7761 2.8456 -24.3904
20.0069 4.4603 -22.7653
18.7726 5.9878 -21.8840
17.4444 7.3378 -21.0182
16.0908 8.5329 -20.2279
15.0317 9.7839 -19.9192
13.8005 10.8531 -19.4989
15.8855 14.9727 -24.2442
14.4007 16.2361 -24.1029
24.0218 0.3898 -26.6824
22.2552 2.3597 -24.8555
20.5737 4.0646 -23.2910
19.0800 5.5789 -22.0778
17.7956 6.9817 -21.2307
16.5348 8.2600 -20.5276
15.3456 9.4656 -20.0245
14.2045 10.6225 -19.6991
16.2932 14.6259 -24.3167
14.8027 15.8941 -24.1221
-6.2221 4.4591 -8.5017
22.7533 1.8548 -25.3539
21.0096 3.6226 -23.6778
19.4705 5.1830 -22.3772
18.1543 6.6181 -21.4603
16.8693 7.9209 -20.6977
15.6631 9.1437 -20.1429
14.5110 10.3118 -19.7708
23.8350 0.7581 -26.1590
21.9461 2.6732 -24.2516
20.1824 4.3149 -22.6394
18.7760 5.8088 -21.5595
17.4813 7.1745 -20.7282
16.2066 8.4138 -20.0308
15.1440 9.6700 -19.7100
13.9089 10.7432 -19.2787
16.0317 14.8484 -23.9700
14.5450 16.1133 -23.8115
-4.0828 -4.4140 -6.5956
22.4319 2.1807 -24.7226
20.5798 3.8795 -22.9725
19.2191 5.4379 -21.9100
17.9236 6.8520 -21.0489
16.6543 8.1388 -20.3337
15.4592 9.3504 -19.8186
14.2120 10.4360 -19.3414
16.4402 14.5008 -24.0467
14.9473 15.7711 -23.8355
-6.2100 4.5329 -8.4337
22.7725 1.6564 -25.0462
21.1697 3.4603 -23.5302
19.6134 5.0381 -22.2133
18.2851 6.4855 -21.2820
16.9908 7.7977 -20.5070
15.7781 9.0271 -19.9402
14.5172 10.1266 -19.4161
14.9322 12.5389 -21.3889
15.2617 15.3386 -23.7354
-0.7221 -4.2283 -4.7054
23.4638 1.1344 -25.7687
21.4710 2.9759 -23.7777
20.0190 4.6269 -22.5387
18.6548 6.1106 -21.5332
17.3333 7.4505 -20.6957
16.1012 8.6996 -20.0753
14.8249 9.8146 -19.5030
13.7040 10.9510 -19.2427
15.7554 15.0834 -23.9261
14.2720 16.3457 -23.8032
-3.9921 -4.4615 -6.5672
23.8652 0.5731 -26.1864
22.0997 2.5174 -24.3990
20.2903 4.1730 -22.7232
18.8210 5.6626 -21.5598
17.5559 7.0459 -20.7509
16.4288 8.3674 -20.2243
15.2446 9.5680 -19.7434
14.0356 10.6677 -19.3386
16.1623 14.7372 -23.9930
14.6738 16.0038 -23.8176
-6.3407 4.4698 -8.5100
22.5915 2.0188 -24.8805
20.8684 3.7658 -23.2612
19.3443 5.3110 -22.0049
18.0385 6.7355 -21.1217
16.7615 8.0301 -20.3876
15.5610 9.2472 -19.8561
14.3095 10.3371 -19.3641
16.5717 14.3889 -24.0744
15.0764 15.6612 -23.8462
23.1035 1.4998 -25.3967
21.3142 3.3138 -23.6614
19.7421 4.9076 -22.3152
18.4026 6.3664 -21.3605
17.0998 7.6871 -20.5658
15.8812 8.9226 -19.9821
14.6155 10.0269 -19.4426
13.5461 11.1963 -19.2780
15.4801 15.3177 -23.8889
13.9180 16.4819 -23.6636
23.6375 0.9584 -25.9504
21.7761 2.8455 -24.0903
20.0069 4.4603 -22.4852
18.7726 5.9878 -21.6147
17.4444 7.3378 -20.7595
16.0908 8.5329 -19.9790
14.9242 9.7140 -19.5334
13.8005 10.8532 -19.2590
15.8855 14.9727 -23.9459
14.4007 16.2361 -23.8063
-4.0265 -4.4301 -6.5668
24.0218 0.3898 -26.3541
22.2552 2.3597 -24.5497
20.4674 4.0436 -22.8856
19.0800 5.5789 -21.8061
17.7956 6.9817 -20.9695
16.5348 8.2600 -20.2750
15.3456 9.4656 -19.7781
14.1183 10.5581 -19.3386
16.2932 14.6259 -24.0175
14.8027 15.8941 -23.8253
-6.2563 4.4836 -8.4432
22.7533 1.8548 -25.0419
21.0096 3.6226 -23.3865
19.4705 5.1830 -22.1019
18.1543 6.6181 -21.1963
16.8693 7.9209 -20.4431
15.6631 9.1437 -19.8950
14.4072 10.2380 -19.3879
23.8350 0.7581 -25.8375
21.9461 2.6731 -23.9536
20.3017 4.3403 -22.4932
18.7761 5.8088 -21.2945
17.4813 7.1745 -20.4735
16.2066 8.4138 -19.7846
15.0436 9.6058 -19.3386
13.9459 10.7718 -19.0924
16.0317 14.8484 -23.6754
14.5450 16.1133 -23.5189
-4.1111 -4.4446 -6.5597
22.4319 2.1807 -24.4187
20.5798 3.8795 -22.6902
19.2191 5.4379 -21.6407
17.9236 6.8520 -20.7902
16.6543 8.1388 -20.0838
15.3487 9.2835 -19.4351
14.2120 10.4360 -19.1038
16.4402 14.5008 -23.7512
14.9473 15.7711 -23.5426
-1.3931 -4.1527 -4.7457
22.7725 1.6564 -24.7384
21.0178 3.4354 -23.0742
19.6134 5.0381 -21.9403
18.2851 6.4855 -21.0205
16.9908 7.7977 -20.2550
15.7781 9.0271 -19.6952
14.5172 10.1266 -19.1775
14.9322 12.5389 -21.1261
15.2617 15.3386 -23.4437
23.4638 1.1344 -25.4520
21.4710 2.9759 -23.4855
20.0190 4.6269 -22.2617
18.6548 6.1106 -21.2686
17.3333 7.4505 -20.4414
16.1012 8.6996 -19.8286
14.8249 9.8146 -19.2633
13.7661 11.0006 -19.0924
15.7554 15.0834 -23.6320
14.2720 16.3457 -23.5107
24.0140 0.5767 -26.0259
22.0997 2.5174 -24.0991
20.4370 4.2031 -22.6062
18.8210 5.6626 -21.2948
17.5559 7.0459 -20.4959
16.4288 8.3674 -19.9757
15.1356 9.4995 -19.3613
14.0294 10.6629 -19.0924
16.1623 14.7372 -23.6981
14.6738 16.0038 -23.5249
-6.3556 4.4803 -8.4251
-4.1579 -4.4255 -6.5791
22.5915 2.0188 -24.5747
20.7185 3.7388 -22.8104
19.3443 5.3110 -21.7344
18.0385 6.7355 -20.8621
16.7615 8.0301 -20.1371
15.4497 9.1811 -19.4719
14.3095 10.3371 -19.1261
16.5717 14.3889 -23.7786
15.0764 15.6612 -23.5531
23.1035 1.4998 -25.0845
21.3142 3.3138 -23.3707
19.7421 4.9076 -22.0409
18.4026 6.3664 -21.0980
17.0998 7.6871 -20.3131
15.8812 8.9226 -19.7365
14.6155 10.0269 -19.2037
13.5461 11.1964 -19.0412
15.4801 15.3177 -23.5953
13.9180 16.4819 -23.3728
23.6375 0.9584 -25.6315
21.7761 2.8455 -23.7942
20.0069 4.4603 -22.2089
18.7726 5.9878 -21.3491
17.4444 7.3378 -20.5044
16.0908 8.5329 -19.7335
14.9591 9.7367 -19.3386
13.8514 10.8931 -19.0924
15.8855 14.9727 -23.6517
14.4007 16.2361 -23.5137
24.0218 0.3898 -26.0302
22.2552 2.3598 -24.2480
20.4991 4.0499 -22.6394
19.0800 5.5789 -21.5381
17.7956 6.9817 -20.7117
16.5348 8.2600 -20.0259
15.2359 9.3979 -19.3953
14.1120 10.5534 -19.0924
16.2932 14.6259 -23.7223
14.8027 15.8941 -23.5324
-6.3129 4.5242 -8.4149
-1.3699 -4.2049 -4.7916
22.7533 1.8548 -24.7342
20.8587 3.5966 -22.9332
19.4705 5.1830 -21.8303
18.1542 6.6181 -20.9358
16.8693 7.9209 -20.1918
15.5511 9.0783 -19.5100
14.4073 10.2380 -19.1497
23.8350 0.7581 -25.5203
21.9461 2.6731 -23.6595
20.3017 4.3403 -22.2171
18.7761 5.8088 -21.0331
17.4813 7.1745 -20.2221
16.2066 8.4138 -19.5417
15.0367 9.6014 -19.0924
14.0091 10.8206 -18.9434
16.0317 14.8484 -23.3847
14.5450 16.1133 -23.2301
-6.4580 4.4776 -8.4098
22.4319 2.1807 -24.1189
20.7286 3.9075 -22.5737
19.2191 5.4379 -21.3750
17.9236 6.8520 -20.5350
16.6543 8.1388 -19.8372
15.3487 9.2835 -19.1964
14.3143 10.5112 -19.0051
16.4402 14.5008 -23.4596
14.9473 15.7711 -23.2535
-1.3957 -4.1605 -4.6963
22.7725 1.6564 -24.4347
21.0178 3.4354 -22.7909
19.6134 5.0381 -21.6710
18.2851 6.4855 -20.7624
16.9908 7.7977 -20.0064
15.6850 8.9738 -19.3386
14.6217 10.1995 -19.0785
14.9322 12.5389 -20.8667
15.2617 15.3386 -23.1559
-1.5092 -4.1606 -4.7364
23.4638 1.1344 -25.1395
21.4710 2.9759 -23.1972
20.0190 4.6269 -21.9884
18.6548 6.1106 -21.0074
17.3333 7.4505 -20.1904
15.9860 8.6374 -19.4451
14.8249 9.8146 -19.0268
13.8027 11.0299 -18.9081
15.7554 15.0834 -23.3419
14.1893 16.2510 -23.0876
24.0140 0.5767 -25.7063
22.0997 2.5174 -23.8033
20.4370 4.2031 -22.3287
18.8210 5.6626 -21.0334
17.5559 7.0459 -20.2443
16.4288 8.3674 -19.7305
15.1356 9.4995 -19.1236
14.1067 10.7217 -18.9619
16.1623 14.7372 -23.4071
14.6738 16.0038 -23.2361
-6.4130 4.5207 -8.3967
-4.1918 -4.4617 -6.5514
22.5915 2.0188 -24.2730
20.8188 3.7569 -22.6394
19.3443 5.3110 -21.4676
18.0385 6.7355 -20.6060
16.7615 8.0301 -19.8898
15.4497 9.1811 -19.2328
14.4125 10.4116 -19.0273
16.5717 14.3889 -23.4867
15.0764 15.6612 -23.2639
-1.4312 -4.1585 -4.7064
23.1035 1.4998 -24.7766
21.1612 3.2900 -22.9180
19.7421 4.9076 -21.7703
18.4026 6.3664 -20.8390
17.0998 7.6871 -20.0637
15.7676 8.8588 -19.3548
14.7114 10.0927 -19.0924
13.5461 11.1963 -18.8073
15.4801 15.3177 -23.3056
13.9180 16.4819 -23.0858
23.6375 0.9584 -25.3168
21.7761 2.8455 -23.5021
20.0069 4.4603 -21.9362
18.7726 5.9878 -21.0870
17.4444 7.3378 -20.2527
16.0897 8.5323 -19.4899
14.9523 9.7323 -19.0924
13.8999 10.9313 -18.9241
15.8855 14.9727 -23.3613
14.3173 16.1421 -23.0906
24.0218 0.3898 -25.7106
22.2552 2.3597 -23.9502
20.5737 4.0646 -22.4427
19.0800 5.5789 -21.2737
17.7956 6.9817 -20.4575
16.5348 8.2600 -19.7800
15.2359 9.3979 -19.1572
14.2045 10.6225 -18.9816
16.2932 14.6259 -23.4310
14.8027 15.8941 -23.2435
-6.3931 4.5816 -8.4171
-4.2341 -4.4369 -6.5633
-1.3686 -4.2009 -4.7282
22.7533 1.8548 -24.4305
20.8587 3.5966 -22.6517
19.4705 5.1830 -21.5622
18.1543 6.6181 -20.6787
16.8693 7.9209 -19.9439
15.5511 9.0783 -19.2705
14.5110 10.3117 -19.0508
-1.5893 -4.1654 -4.7126
23.8350 0.7581 -25.2072
21.9461 2.6732 -23.3693
20.3017 4.3403 -21.9445
18.7760 5.8088 -20.7750
17.4813 7.1745 -19.9740
16.2373 8.4298 -19.3386
15.1441 9.6700 -18.9928
14.0091 10.8206 -18.7110
15.9389 14.7624 -22.9641
14.4608 16.0200 -22.8122
-6.5140 4.5164 -8.3786
22.4319 2.1807 -23.8231
20.7286 3.9075 -22.2968
19.2191 5.4379 -21.1128
17.9236 6.8520 -20.2831
16.5352 8.0806 -19.4538
15.4551 9.3479 -19.0924
14.3143 10.5112 -18.7719
16.3450 14.4168 -23.0376
14.8607 15.6797 -22.8352
-4.3203 -4.4489 -6.5551
-1.4059 -4.1908 -4.6724
22.7725 1.6564 -24.1349
21.1373 3.4550 -22.6394
19.6134 5.0381 -21.4051
18.2851 6.4855 -20.5077
16.9908 7.7977 -19.7609
15.6777 8.9696 -19.0924
14.6217 10.1995 -18.8444
14.9322 12.5389 -20.6107
15.2709 15.3478 -22.8856
-1.5128 -4.1704 -4.6894
23.4638 1.1344 -24.8311
21.4710 2.9759 -22.9126
20.0190 4.6269 -21.7187
18.6548 6.1106 -20.7497
17.3333 7.4505 -19.9427
15.9860 8.6374 -19.2066
14.8249 9.8146 -18.7933
13.8027 11.0299 -18.6761
15.6642 14.9961 -22.9220
14.1893 16.2510 -22.8043
-1.6290 -4.1718 -4.7340
24.0140 0.5767 -25.3909
22.0997 2.5174 -23.5113
20.4370 4.2031 -22.0548
18.8210 5.6626 -20.7754
17.5559 7.0459 -19.9959
16.3113 8.3076 -19.3491
15.2446 9.5680 -19.0250
14.1067 10.7217 -18.7293
16.0687 14.6519 -22.9861
14.5888 15.9111 -22.8181
-6.4911 4.5758 -8.3948
22.5915 2.0188 -23.9752
20.8683 3.7658 -22.4149
19.3443 5.3110 -21.2042
18.0385 6.7355 -20.3532
16.6417 7.9727 -19.5054
15.5274 9.2273 -19.0924
14.4125 10.4116 -18.7939
16.4758 14.3055 -23.0642
15.0153 15.5979 -22.8856
-4.3863 -4.4470 -6.6025
-1.4394 -4.1823 -4.6753
23.1035 1.4998 -24.4726
21.1636 3.2904 -22.6394
19.7421 4.9076 -21.5032
18.4026 6.3664 -20.5833
17.0998 7.6871 -19.8175
15.7676 8.8588 -19.1173
14.7208 10.0991 -18.8702
13.5461 11.1963 -18.5766
15.3905 15.2290 -22.8864
13.9180 16.4819 -22.8026
-1.5488 -4.1681 -4.7002
23.6375 0.9584 -25.0062
21.6197 2.8251 -23.0471
20.0069 4.4603 -21.6671
18.7726 5.9878 -20.8283
17.4444 7.3378 -20.0042
16.0897 8.5323 -19.2508
15.0316 9.7839 -18.9583
13.8999 10.9313 -18.6919
15.7935 14.8860 -22.9410
14.3173 16.1421 -22.8073
-6.5714 4.4718 -8.4020
24.0218 0.3898 -25.3952
22.2552 2.3597 -23.6564
20.5737 4.0646 -22.1674
19.0800 5.5789 -21.0127
17.7956 6.9817 -20.2065
16.4166 8.2009 -19.3976
15.3456 9.4656 -19.0585
14.2045 10.6225 -18.7488
16.1988 14.5412 -23.0096
14.7169 15.8021 -22.8254
-4.2788 -4.4838 -6.5513
-1.3683 -4.2001 -4.6693
22.7533 1.8548 -24.1308
21.0096 3.6227 -22.5356
19.4705 5.1830 -21.2977
18.1543 6.6181 -20.4250
16.8693 7.9209 -19.6992
15.5988 9.1061 -19.0924
14.5110 10.3118 -18.8171
-1.5956 -4.1820 -4.6734
23.8350 0.7581 -24.8982
21.7886 2.6540 -22.9171
20.3017 4.3403 -21.6755
18.7761 5.8088 -20.5204
17.4813 7.1745 -19.7292
16.2066 8.4138 -19.0653
15.1441 9.6700 -18.7600
14.0091 10.8206 -18.4816
15.9389 14.7624 -22.6825
14.5293 16.0960 -22.6394
-6.5896 4.5688 -8.3719
-1.7098 -4.1740 -4.7094
22.4319 2.1807 -23.5310
20.7286 3.9075 -22.0234
19.2191 5.4379 -20.8540
17.9236 6.8520 -20.0344
16.5352 8.0806 -19.2153
15.4593 9.3504 -18.8634
14.3143 10.5112 -18.5418
16.3450 14.4168 -22.7552
14.9161 15.7382 -22.6394
-4.3688 -4.4988 -6.5474
-1.4235 -4.2432 -4.6728
22.7725 1.6564 -23.8391
21.1697 3.4603 -22.3962
19.6134 5.0381 -21.1427
18.2851 6.4855 -20.2563
16.8693 7.7419 -19.3791
15.7781 9.0271 -18.9792
14.6217 10.1995 -18.6134
14.9322 12.5389 -20.3581
15.2617 15.3386 -22.5914
-1.5238 -4.2009 -4.6657
23.4638 1.1344 -24.5267
21.4710 2.9759 -22.6317
20.0190 4.6269 -21.4524
18.6548 6.1106 -20.4954
17.3333 7.4505 -19.6983
16.0882 8.6926 -19.0924
14.8249 9.8146 -18.5630
13.8027 11.0299 -18.4472
15.6642 14.9961 -22.6410
14.2615 16.3337 -22.6394
-6.6779 4.4686 -8.3892
-1.6320 -4.1796 -4.6847
24.0140 0.5767 -25.0797
21.9410 2.4994 -23.0563
20.4370 4.2031 -21.7844
18.8210 5.6626 -20.5207
17.5559 7.0459 -19.7508
16.3113 8.3076 -19.1119
15.2446 9.5680 -18.7918
14.1067 10.7217 -18.4997
16.0687 14.6519 -22.7043
14.6542 15.9824 -22.6394
-1.7531 -4.1863 -4.7386
22.5915 2.0188 -23.6813
20.8684 3.7658 -22.1401
19.3443 5.3110 -20.9443
18.0385 6.7355 -20.1037
16.6417 7.9727 -19.2662
15.5610 9.2472 -18.8991
14.4125 10.4116 -18.5635
16.4757 14.3055 -22.7814
15.0382 15.6216 -22.6394
-4.4018 -4.4627 -6.5446
-1.4528 -4.2214 -4.6611
23.1035 1.4998 -24.1726
21.3142 3.3138 -22.5210
19.7421 4.9076 -21.2396
18.4026 6.3664 -20.3310
16.9776 7.6322 -19.4346
15.8812 8.9226 -19.0190
14.7208 10.0991 -18.6388
13.5461 11.1963 -18.3489
15.4133 15.2516 -22.6394
13.9180 16.4819 -22.5231
-1.5575 -4.1917 -4.6688
23.6375 0.9584 -24.6996
21.6197 2.8251 -22.7646
20.0069 4.4603 -21.4015
18.7726 5.9877 -20.5729
17.4444 7.3378 -19.7590
16.0908 8.5329 -19.0161
15.0317 9.7839 -18.7258
13.8999 10.9313 -18.4628
15.7935 14.8860 -22.6598
14.3883 16.2221 -22.6394
-6.6213 4.5058 -8.3620
-1.6686 -4.1770 -4.6962
24.0218 0.3898 -25.0839
22.2552 2.3597 -23.3664
20.5737 4.0646 -21.8957
19.0800 5.5789 -20.7551
17.7956 6.9817 -19.9588
16.4166 8.2009 -19.1598
15.3456 9.4656 -18.8248
14.2045 10.6225 -18.5189
16.1988 14.5412 -22.7275
14.7781 15.8678 -22.6394
22.7533 1.8548 -23.8350
21.0096 3.6227 -22.2593
19.4705 5.1830 -21.0366
18.1543 6.6181 -20.1746
16.7660 7.8723 -19.3386
15.6631 9.1437 -18.9361
14.5110 10.3117 -18.5864
-6.7860 4.4649 -8.3772
-1.6095 -4.2186 -4.6565
23.8350 0.7581 -24.5931
21.7916 2.6543 -22.6394
20.3017 4.3403 -21.4099
18.7761 5.8088 -20.2689
17.4441 7.1592 -19.4459
16.2066 8.4138 -18.8317
15.1441 9.6700 -18.5301
14.0091 10.8206 -18.2552
16.0317 14.8484 -22.5351
14.5450 16.1133 -22.3861
-1.7166 -4.1906 -4.6703
22.2708 2.1650 -23.0758
20.7286 3.9075 -21.7536
19.2191 5.4379 -20.5984
17.9236 6.8520 -19.7889
16.6333 8.1285 -19.0924
15.4592 9.3504 -18.6323
14.3143 10.5112 -18.3146
16.4402 14.5008 -22.6073
14.9473 15.7711 -22.4087
-1.8331 -4.1822 -4.7091
22.7725 1.6564 -23.5470
21.1697 3.4603 -22.1217
19.6134 5.0381 -20.8837
18.2851 6.4855 -20.0081
16.8693 7.7419 -19.1416
15.7781 9.0271 -18.7466
14.6217 10.1995 -18.3854
14.9322 12.5389 -20.1086
15.2617 15.3386 -22.3146
-4.5405 -4.4538 -6.5592
-1.5426 -4.2527 -4.6654
23.4638 1.1344 -24.2262
21.4710 2.9759 -22.3544
20.0190 4.6269 -21.1896
18.6548 6.1106 -20.2442
17.2279 7.4051 -19.3386
16.1012 8.6996 -18.8736
14.8249 9.8146 -18.3355
13.8027 11.0299 -18.2211
15.7554 15.0834 -22.4939
14.2720 16.3456 -22.3784
-6.7245 4.4998 -8.3443
-1.6435 -4.2090 -4.6598
24.0140 0.5767 -24.7724
21.9411 2.4993 -22.7738
20.4370 4.2032 -21.5174
18.8210 5.6626 -20.2692
17.5559 7.0459 -19.5088
16.4288 8.3674 -19.0137
15.2447 9.5680 -18.5615
14.1067 10.7217 -18.2730
16.1623 14.7372 -22.5567
14.6738 16.0038 -22.3919
-1.7537 -4.1879 -4.6823
22.5915 2.0188 -23.3911
20.8684 3.7658 -21.8688
19.3443 5.3110 -20.6877
18.0385 6.7355 -19.8574
16.6961 7.9988 -19.0924
15.5610 9.2472 -18.6676
14.4125 10.4116 -18.3361
16.5717 14.3889 -22.6334
15.0764 15.6612 -22.4187
