ply
format ascii 1.0
element vertex 624
property float32 x
property float32 y
property float32 z
end_header
1.5582 -16.6268 -8.5738
1.5791 -16.8501 -8.5576
1.6026 -17.1006 -8.5524
4.8497 -16.8444 -8.4603
6.6055 -16.8419 -8.1885
8.4804 -16.8106 -7.8330
8.5234 -16.8960 -7.7364
4.3994 -46.9438 -8.8138
4.3994 -46.9438 -8.5135
4.3994 -46.9438 -8.2139
4.3993 -46.9436 -7.9150
4.3993 -46.9434 -7.6166
4.3993 -46.9432 -7.3189
4.3993 -46.9430 -7.0217
4.3993 -46.9427 -6.7250
4.3992 -46.9425 -6.4289
4.3992 -46.9423 -6.1333
16.3367 -26.0194 -3.9966
4.3992 -46.9421 -5.8382
16.3367 -26.0194 -3.8043
4.4659 -47.6540 -5.6276
16.3367 -26.0194 -3.6123
4.6008 -49.0935 -5.4899
16.3367 -26.0194 -3.4206
16.3367 -26.0194 -3.2291
16.3367 -26.0194 -3.0379
16.3367 -26.0194 -2.8469
8.8703 -46.9097 -4.1274
16.3367 -26.0194 -2.6561
8.8693 -46.9048 -3.8309
16.3210 -25.9945 -2.4632
8.8684 -46.8998 -3.5347
16.3367 -26.0195 -2.2752
16.3367 -26.0194 -2.0850
16.3367 -26.0194 -1.8949
16.2566 -25.8919 -1.6967
16.2566 -25.8919 -1.5078
4.5766 -48.8353 -2.1163
16.2566 -25.8919 -1.3191
4.3986 -46.9358 -1.7431
16.2566 -25.8919 -1.1305
4.3982 -46.9310 -1.4523
16.2566 -25.8919 -0.9419
4.3977 -46.9261 -1.1616
16.2566 -25.8919 -0.7535
4.3972 -46.9212 -0.8710
16.2566 -25.8919 -0.5650
4.3968 -46.9164 -0.5806
16.2566 -25.8919 -0.3767
4.3963 -46.9115 -0.2902
16.9228 -26.9530 -0.1960
4.3959 -46.9067 -0.0000
16.9228 -26.9530 -0.0000
4.3954 -46.9018 0.2902
16.9228 -26.9530 0.1960
4.3950 -46.8969 0.5803
16.9228 -26.9530 0.3921
4.3945 -46.8921 0.8705
12.6895 -32.3541 0.6423
16.9228 -26.9530 0.5882
12.6898 -32.3548 0.8565
16.9228 -26.9530 0.7843
12.8392 -44.5947 1.4298
12.6104 -32.1525 1.0641
16.9228 -26.9530 0.9805
-0.0000 -40.4698 1.4964
3.7702 -40.2299 1.4941
7.7727 -41.1055 1.5469
12.8703 -44.7024 1.7201
12.6105 -32.1527 1.2771
16.9228 -26.9530 1.1768
-0.0000 -40.4698 1.7461
3.7702 -40.2299 1.7434
7.7727 -41.1055 1.8050
12.3564 -42.9178 1.9270
12.6106 -32.1529 1.4902
21.6506 -42.9179 2.0740
16.9228 -26.9530 1.3731
-0.0000 -39.0440 1.9256
3.6439 -38.8831 1.9261
7.2451 -38.3153 1.9232
11.2682 -39.1379 2.0087
12.6107 -32.1531 1.7034
18.9406 -37.5459 2.0740
16.9228 -26.9530 1.5696
-0.0000 -37.3132 2.0708
3.4684 -37.0094 2.0629
2.8578 -15.1131 0.8536
4.2467 -14.7500 0.8518
13.6457 -34.7920 2.0740
15.5956 -30.9152 1.9216
16.9228 -26.9530 1.7662
-0.0000 -33.6269 2.0740
3.1376 -33.4802 2.0740
2.5444 -13.4561 0.8446
3.7819 -13.1358 0.8431
12.2781 -31.3052 2.0740
14.0715 -27.8941 1.9270
16.5670 -26.3862 1.9216
-0.0000 -30.5618 2.0740
2.8516 -30.4285 2.0740
2.5052 -13.2486 0.9150
3.4086 -11.8392 0.8361
10.3512 -26.3922 1.9239
12.7875 -25.3486 1.9267
15.0943 -24.0406 1.9264
-0.0000 -12.1571 0.9003
2.4212 -25.8356 1.9216
2.5052 -13.2486 0.9985
3.3999 -11.8088 0.9100
9.4903 -24.1970 1.9248
11.7176 -23.2279 1.9266
13.8311 -22.0289 1.9262
-0.0000 -11.7519 0.9431
2.2343 -23.8408 1.9216
2.5052 -13.2486 1.0821
3.3998 -11.8084 0.9861
8.7562 -22.3253 1.9245
10.8124 -21.4334 1.9265
12.7624 -20.3267 1.9261
-0.0000 -11.7519 1.0160
2.2281 -23.7748 2.0644
2.5052 -13.2486 1.1657
3.3996 -11.8080 1.0623
8.1255 -20.7174 1.9239
8.6360 -17.1192 1.6577
11.8466 -18.8679 1.9261
-0.0000 -11.7519 1.0890
2.0884 -22.2848 2.0740
2.5052 -13.2486 1.2494
3.3995 -11.8076 1.1386
7.5783 -19.3222 1.9233
8.6132 -17.0739 1.7720
11.0526 -17.6036 1.9261
-0.0000 -11.7519 1.1620
1.9571 -20.8838 2.0740
2.5052 -13.2486 1.3332
3.3994 -11.8072 1.2149
7.0992 -18.1005 1.9225
8.5416 -16.9321 1.8752
10.3625 -16.5043 1.9270
-0.0000 -11.7519 1.2352
1.8412 -19.6471 2.0740
2.5052 -13.2486 1.4172
3.3993 -11.8068 1.2913
6.6761 -17.0220 1.9218
8.2540 -16.3619 1.9261
9.7489 -15.5272 1.9270
-0.0000 -11.7519 1.3084
1.7382 -18.5473 2.0740
2.5052 -13.2486 1.5012
3.3992 -11.8064 1.3679
6.3859 -16.2821 1.9472
7.7877 -15.4376 1.9251
9.2032 -14.6580 1.9270
-0.0000 -11.7519 1.3818
1.6459 -17.5628 2.0740
2.5052 -13.2486 1.5853
3.3991 -11.8060 1.4445
6.3617 -16.2202 2.0486
7.3705 -14.6106 1.9241
8.7147 -13.8799 1.9270
-0.0000 -11.7519 1.4552
1.5628 -16.6764 2.0740
2.5052 -13.2486 1.6696
3.3989 -11.8056 1.5212
6.1157 -15.5931 2.0740
6.9951 -13.8663 1.9231
8.2731 -13.1766 1.9266
-0.0000 -11.7519 1.5288
1.4877 -15.8740 2.0740
2.5052 -13.2486 1.7540
3.3988 -11.8052 1.5981
5.8214 -14.8428 2.0740
6.6554 -13.1930 1.9222
7.8707 -12.5356 1.9255
-0.0000 -11.7519 1.6024
1.4193 -15.1441 2.0740
2.8261 -14.9457 2.0740
3.3987 -11.8047 1.6750
5.5538 -14.1603 2.0740
6.3474 -12.5825 1.9216
7.5050 -11.9532 1.9245
-0.0000 -11.7519 1.6762
1.3568 -14.4774 2.0740
2.7017 -14.2876 2.0740
3.3986 -11.8043 1.7521
0.9196 -2.3447 0.3592
6.2491 -12.3876 1.9790
7.1713 -11.4217 1.9236
-0.0000 -11.7519 1.7502
1.2995 -13.8659 2.0740
0.4481 -2.3697 0.3592
0.6675 -2.3185 0.3593
0.8815 -2.2474 0.3595
6.2338 -12.3572 2.0612
6.8655 -10.9346 1.9228
0.0000 -2.3147 0.3593
0.2160 -2.3048 0.3593
0.4302 -2.2752 0.3594
0.6409 -2.2260 0.3596
0.8463 -2.1577 0.3598
1.0447 -2.0708 0.3600
6.5841 -10.4866 1.9221
0.0000 -2.2259 0.3596
0.2077 -2.2163 0.3596
0.4137 -2.1878 0.3597
0.6163 -2.1405 0.3598
0.8137 -2.0748 0.3600
1.0045 -1.9912 0.3603
6.3253 -10.0744 1.9216
0.0000 -2.1434 0.3598
0.2000 -2.1342 0.3598
0.3984 -2.1067 0.3599
0.5934 -2.0611 0.3601
0.7836 -1.9978 0.3602
0.9672 -1.9173 0.3605
6.2428 -9.9429 1.9708
0.0000 -2.0667 0.3600
0.1928 -2.0578 0.3601
0.3841 -2.0313 0.3601
0.5722 -1.9873 0.3603
0.7555 -1.9262 0.3605
0.9325 -1.8485 0.3607
6.2297 -9.9221 2.0410
0.0000 -1.9951 0.3602
0.1862 -1.9865 0.3603
0.3708 -1.9609 0.3603
0.5523 -1.9184 0.3605
0.7293 -1.8594 0.3606
0.9001 -1.7844 0.3609
1.0635 -1.6938 0.3611
0.0000 -1.9282 0.3604
0.1799 -1.9199 0.3605
0.3584 -1.8951 0.3605
0.5338 -1.8540 0.3607
0.7048 -1.7970 0.3608
0.8699 -1.7244 0.3610
1.0277 -1.6369 0.3613
0.0000 -1.8654 0.3606
0.1741 -1.8574 0.3606
0.3467 -1.8335 0.3607
0.5164 -1.7937 0.3608
0.6818 -1.7385 0.3610
0.8416 -1.6682 0.3612
0.9942 -1.5835 0.3615
0.0000 -1.8065 0.3608
0.1686 -1.7988 0.3608
0.3357 -1.7756 0.3609
0.5001 -1.7370 0.3610
0.6603 -1.6835 0.3612
0.8149 -1.6155 0.3614
0.9628 -1.5334 0.3616
0.0000 -1.7511 0.3609
0.1634 -1.7436 0.3610
0.3254 -1.7211 0.3610
0.4848 -1.6837 0.3612
0.6400 -1.6318 0.3613
0.7899 -1.5658 0.3615
0.9332 -1.4862 0.3617
0.0000 -1.6989 0.3611
0.1585 -1.6915 0.3611
0.3157 -1.6697 0.3612
0.4703 -1.6334 0.3613
0.6209 -1.5831 0.3614
0.7663 -1.5190 0.3616
0.9053 -1.4418 0.3619
0.0000 -1.6495 0.3612
0.1539 -1.6424 0.3613
0.3065 -1.6212 0.3613
0.4566 -1.5859 0.3614
0.6028 -1.5370 0.3616
0.7440 -1.4748 0.3618
0.8789 -1.3998 0.3620
0.0000 -1.6028 0.3614
0.1496 -1.5959 0.3614
0.2979 -1.5753 0.3615
0.4437 -1.5410 0.3616
0.5858 -1.4935 0.3617
0.7229 -1.4330 0.3619
0.8540 -1.3601 0.3621
0.0000 -1.5586 0.3615
0.1454 -1.5519 0.3615
0.2896 -1.5318 0.3616
0.4314 -1.4985 0.3617
0.5696 -1.4522 0.3618
0.7029 -1.3934 0.3620
0.8304 -1.3225 0.3622
0.0000 -1.5166 0.3616
0.1415 -1.5101 0.3617
0.2818 -1.4905 0.3617
0.4198 -1.4581 0.3618
0.5542 -1.4131 0.3619
0.6840 -1.3558 0.3621
0.8080 -1.2868 0.3623
0.0000 -1.4767 0.3617
0.1378 -1.4703 0.3618
0.2744 -1.4513 0.3618
0.4088 -1.4197 0.3619
0.5396 -1.3759 0.3620
0.6660 -1.3201 0.3622
0.7867 -1.2529 0.3624
0.0000 -1.4387 0.3619
0.1343 -1.4325 0.3619
0.2674 -1.4140 0.3619
0.3982 -1.3832 0.3620
0.5258 -1.3405 0.3621
0.6488 -1.2862 0.3623
0.7664 -1.2206 0.3625
-0.0000 -1.4026 0.3620
0.1309 -1.3965 0.3620
0.2607 -1.3784 0.3620
0.3882 -1.3484 0.3621
0.5125 -1.3068 0.3622
0.6325 -1.2538 0.3624
0.7471 -1.1899 0.3626
0.0000 -1.3681 0.3621
0.1277 -1.3622 0.3621
0.2542 -1.3445 0.3621
0.3787 -1.3152 0.3622
0.4999 -1.2746 0.3623
0.6169 -1.2229 0.3625
0.7287 -1.1606 0.3627
0.0000 -1.3351 0.3622
0.1246 -1.3294 0.3622
0.2481 -1.3121 0.3622
0.3696 -1.2836 0.3623
0.4879 -1.2439 0.3624
0.6020 -1.1934 0.3626
0.7111 -1.1326 0.3628
0.0000 -1.3036 0.3622
0.1216 -1.2980 0.3623
0.2423 -1.2812 0.3623
0.3608 -1.2533 0.3624
0.4763 -1.2145 0.3625
0.5878 -1.1652 0.3627
0.6943 -1.1058 0.3628
0.0000 -1.2735 0.3623
0.1188 -1.2680 0.3624
0.2367 -1.2515 0.3624
0.3525 -1.2243 0.3625
0.4653 -1.1864 0.3626
0.5742 -1.1383 0.3627
0.6782 -1.0802 0.3629
0.0000 -1.2446 0.3624
0.1161 -1.2392 0.3624
0.2313 -1.2231 0.3625
0.3445 -1.1965 0.3626
0.4548 -1.1595 0.3627
0.5612 -1.1124 0.3628
0.6628 -1.0557 0.3630
0.0000 -1.2169 0.3625
0.1136 -1.2116 0.3625
0.2261 -1.1959 0.3626
0.3368 -1.1699 0.3626
0.4446 -1.1337 0.3627
0.5487 -1.0876 0.3629
0.6481 -1.0322 0.3630
0.0000 -1.1903 0.3626
0.1111 -1.1852 0.3626
0.2212 -1.1698 0.3626
0.3295 -1.1443 0.3627
0.4349 -1.1089 0.3628
0.5367 -1.0638 0.3630
0.6339 -1.0096 0.3631
0.0000 -1.1648 0.3627
0.1087 -1.1597 0.3627
0.2164 -1.1447 0.3627
0.3224 -1.1197 0.3628
0.4256 -1.0851 0.3629
0.5251 -1.0410 0.3630
0.6202 -0.9879 0.3632
0.0000 -1.1402 0.3627
0.1064 -1.1353 0.3627
0.2119 -1.1205 0.3628
0.3156 -1.0961 0.3629
0.4166 -1.0622 0.3630
0.5141 -1.0190 0.3631
0.6071 -0.9670 0.3632
0.0000 -1.1166 0.3628
0.1042 -1.1117 0.3628
0.2075 -1.0973 0.3629
0.3090 -1.0734 0.3629
0.4079 -1.0401 0.3630
0.5034 -0.9979 0.3631
0.5945 -0.9469 0.3633
0.0000 -1.0938 0.3629
0.1021 -1.0891 0.3629
0.2033 -1.0749 0.3629
0.3027 -1.0515 0.3630
0.3996 -1.0189 0.3631
0.4931 -0.9775 0.3632
0.5824 -0.9276 0.3633
0.0000 -1.0718 0.3629
0.1000 -1.0672 0.3629
0.1992 -1.0533 0.3630
0.2967 -1.0304 0.3630
0.3916 -0.9984 0.3631
0.4832 -0.9579 0.3633
0.5707 -0.9090 0.3634
0.0000 -1.0507 0.3630
0.0980 -1.0461 0.3630
0.1952 -1.0325 0.3630
0.2908 -1.0100 0.3631
0.3839 -0.9787 0.3632
0.4737 -0.9389 0.3633
0.5594 -0.8910 0.3635
0.0000 -1.0302 0.3630
0.0961 -1.0258 0.3631
0.1914 -1.0125 0.3631
0.2851 -0.9904 0.3632
0.3764 -0.9597 0.3633
0.4644 -0.9207 0.3634
0.5485 -0.8736 0.3635
0.0000 -1.0105 0.3631
0.0943 -1.0061 0.3631
0.1878 -0.9931 0.3632
0.2797 -0.9714 0.3632
0.3692 -0.9413 0.3633
0.4555 -0.9030 0.3634
0.5380 -0.8569 0.3636
0.0000 -0.9914 0.3632
0.0925 -0.9871 0.3632
0.1842 -0.9743 0.3632
0.2744 -0.9530 0.3633
0.3622 -0.9235 0.3634
0.4469 -0.8859 0.3635
0.5278 -0.8407 0.3636
0.0000 -0.9730 0.3632
0.0908 -0.9688 0.3632
0.1808 -0.9562 0.3633
0.2693 -0.9353 0.3633
0.3555 -0.9063 0.3634
0.4386 -0.8694 0.3635
0.5180 -0.8250 0.3636
0.0000 -0.9551 0.3633
0.0891 -0.9510 0.3633
0.1775 -0.9386 0.3633
0.2643 -0.9181 0.3634
0.3489 -0.8896 0.3635
0.4305 -0.8535 0.3636
0.5085 -0.8098 0.3637
0.0000 -0.9378 0.3633
0.0875 -0.9338 0.3633
0.1743 -0.9216 0.3634
0.2595 -0.9015 0.3634
0.3426 -0.8735 0.3635
0.4227 -0.8380 0.3636
0.4993 -0.7952 0.3637
0.0000 -0.9211 0.3634
0.0859 -0.9171 0.3634
0.1712 -0.9051 0.3634
0.2549 -0.8854 0.3635
0.3365 -0.8579 0.3635
0.4152 -0.8230 0.3637
0.4903 -0.7809 0.3638
0.0000 -0.9048 0.3634
0.0844 -0.9009 0.3634
0.1681 -0.8892 0.3635
0.2504 -0.8697 0.3635
0.3305 -0.8428 0.3636
0.4078 -0.8085 0.3637
0.4817 -0.7671 0.3638
0.0000 -0.8890 0.3635
0.0830 -0.8852 0.3635
0.1652 -0.8737 0.3635
0.2460 -0.8546 0.3636
0.3248 -0.8281 0.3636
0.4007 -0.7944 0.3637
0.4733 -0.7538 0.3639
0.0000 -0.8738 0.3635
0.0815 -0.8700 0.3635
0.1624 -0.8586 0.3635
0.2418 -0.8399 0.3636
0.3192 -0.8138 0.3637
0.3938 -0.7807 0.3638
0.4651 -0.7408 0.3639
0.0000 -0.8589 0.3635
0.0801 -0.8552 0.3636
0.1596 -0.8440 0.3636
0.2377 -0.8256 0.3636
0.3138 -0.8000 0.3637
0.3871 -0.7674 0.3638
0.4572 -0.7282 0.3639
0.0000 -0.8445 0.3636
0.0788 -0.8408 0.3636
0.1569 -0.8299 0.3636
0.2337 -0.8117 0.3637
0.3085 -0.7865 0.3638
0.3806 -0.7545 0.3638
0.4495 -0.7159 0.3640
0.0000 -0.8304 0.3636
0.0775 -0.8268 0.3636
0.1543 -0.8161 0.3637
0.2298 -0.7982 0.3637
0.3034 -0.7735 0.3638
0.3743 -0.7420 0.3639
0.4420 -0.7040 0.3640
0.0000 -0.8168 0.3637
0.0762 -0.8133 0.3637
0.1518 -0.8027 0.3637
0.2260 -0.7851 0.3638
0.2984 -0.7608 0.3638
0.3681 -0.7298 0.3639
0.4348 -0.6925 0.3640
0.0000 -0.8035 0.3637
0.0750 -0.8000 0.3637
0.1493 -0.7896 0.3637
0.2224 -0.7724 0.3638
0.2935 -0.7484 0.3639
0.3622 -0.7179 0.3640
0.4277 -0.6812 0.3641
0.0000 -0.7906 0.3637
0.0738 -0.7872 0.3637
0.1469 -0.7769 0.3638
0.2188 -0.7599 0.3638
0.2888 -0.7364 0.3639
0.3563 -0.7064 0.3640
0.4208 -0.6702 0.3641
0.0000 -0.7780 0.3638
0.0726 -0.7747 0.3638
0.1446 -0.7646 0.3638
0.2153 -0.7478 0.3639
0.2842 -0.7246 0.3639
0.3507 -0.6951 0.3640
0.4141 -0.6596 0.3641
0.0000 -0.7658 0.3638
0.0715 -0.7625 0.3638
0.1423 -0.7525 0.3639
0.2119 -0.7361 0.3639
0.2797 -0.7132 0.3640
0.3451 -0.6842 0.3641
0.4076 -0.6492 0.3642
0.0000 -0.7538 0.3638
0.0703 -0.7506 0.3639
0.1401 -0.7408 0.3639
0.2086 -0.7246 0.3639
0.2754 -0.7021 0.3640
0.3397 -0.6735 0.3641
0.4012 -0.6390 0.3642
0.0000 -0.7422 0.3639
0.0693 -0.7390 0.3639
0.1379 -0.7293 0.3639
0.2054 -0.7134 0.3640
0.2711 -0.6912 0.3640
0.3345 -0.6631 0.3641
0.3950 -0.6291 0.3642
0.0000 -0.7308 0.3639
0.0682 -0.7277 0.3639
0.1358 -0.7182 0.3639
0.2022 -0.7025 0.3640
0.2670 -0.6807 0.3641
0.3294 -0.6529 0.3641
0.3890 -0.6195 0.3642
0.0000 -0.7198 0.3639
0.0672 -0.7166 0.3640
0.1337 -0.7073 0.3640
0.1992 -0.6918 0.3640
0.2629 -0.6703 0.3641
0.3244 -0.6430 0.3642
0.3831 -0.6101 0.3643
0.0000 -0.7089 0.3640
0.0662 -0.7059 0.3640
0.1317 -0.6967 0.3640
0.1962 -0.6814 0.3641
0.2590 -0.6603 0.3641
0.3195 -0.6333 0.3642
0.3773 -0.6009 0.3643
0.0000 -0.6984 0.3640
0.0652 -0.6953 0.3640
0.1298 -0.6863 0.3640
0.1933 -0.6713 0.3641
0.2551 -0.6504 0.3641
0.3147 -0.6239 0.3642
0.3717 -0.5920 0.3643
0.0000 -0.6881 0.3640
0.0642 -0.6851 0.3640
0.1279 -0.6761 0.3641
0.1904 -0.6613 0.3641
0.2513 -0.6408 0.3642
0.3101 -0.6147 0.3643
0.3662 -0.5832 0.3643
0.0000 -0.6780 0.3641
0.0633 -0.6750 0.3641
0.1260 -0.6662 0.3641
0.1876 -0.6517 0.3641
0.2476 -0.6314 0.3642
0.3055 -0.6057 0.3643
0.3608 -0.5747 0.3644
0.0000 -0.6681 0.3641
0.0623 -0.6652 0.3641
0.1241 -0.6566 0.3641
0.1849 -0.6422 0.3642
0.2440 -0.6222 0.3642
0.3011 -0.5969 0.3643
0.3556 -0.5663 0.3644
0.0000 -0.6585 0.3641
0.0614 -0.6556 0.3641
0.1224 -0.6471 0.3642
0.1822 -0.6329 0.3642
0.2405 -0.6132 0.3643
0.2968 -0.5883 0.3643
0.3504 -0.5581 0.3644
0.0000 -0.6491 0.3641
0.0606 -0.6462 0.3642
0.1206 -0.6378 0.3642
0.1796 -0.6239 0.3642
0.2371 -0.6045 0.3643
0.2925 -0.5798 0.3644
0.3454 -0.5501 0.3644
0.0000 -0.6398 0.3642
0.0597 -0.6371 0.3642
0.1189 -0.6288 0.3642
0.1771 -0.6150 0.3643
0.2337 -0.5959 0.3643
0.2883 -0.5716 0.3644
0.3405 -0.5423 0.3645
0.0000 -0.6308 0.3642
0.0589 -0.6281 0.3642
0.1172 -0.6199 0.3642
0.1746 -0.6063 0.3643
0.2304 -0.5875 0.3643
0.2843 -0.5635 0.3644
0.3357 -0.5347 0.3645
