ply
format ascii 1.0
element vertex 1914
property float32 x
property float32 y
property float32 z
end_header
25.7273 19.1072 -18.7662
25.1397 22.4127 -19.7227
25.3996 27.0811 -21.7422
23.6704 30.2452 -22.4906
-12.8233 29.6888 -18.9379
-15.2764 28.1614 -18.7612
-18.4696 27.8040 -19.5468
-5.7230 4.1481 -4.1391
-14.6907 8.7637 -10.0172
-14.6873 7.0688 -9.5451
-14.6840 5.5145 -9.1852
-14.6815 4.0622 -8.9204
-14.6787 2.6805 -8.7379
-14.6761 1.3438 -8.6302
-14.6736 0.0292 -8.5927
-14.6710 -1.2844 -8.6241
-14.6683 -2.6183 -8.7254
-14.6656 -3.9950 -8.9010
-14.6628 -5.4400 -9.1583
-14.6598 -6.9838 -9.5090
-14.6565 -8.6644 -9.9703
-14.6528 -10.5319 -10.5671
-17.9156 -15.4778 -13.8642
-16.4193 -16.9683 -13.8269
-14.9191 -18.4626 -13.9002
0.5434 -15.5760 -9.1268
36.9527 -14.5386 -23.2538
30.6406 2.2018 -17.9892
30.6351 4.9769 -18.1749
24.3971 6.2390 -14.7465
22.4548 7.9350 -13.9462
22.4502 10.2688 -14.4567
22.5077 12.8365 -15.1732
25.1862 17.5142 -17.9644
25.8147 21.6085 -19.7140
25.1712 25.2141 -20.8634
23.6740 28.3805 -21.6425
-12.7837 32.3304 -20.3588
-14.3911 28.6240 -18.7612
-17.2467 27.8064 -19.1610
-20.9385 27.8609 -20.4090
-5.5608 4.3013 -4.1168
-14.6919 9.3975 -10.2129
-14.6885 7.6421 -9.6960
-14.6853 6.0438 -9.2994
-14.6824 4.5597 -9.0030
-14.6797 3.1564 -8.7928
-14.6770 1.8068 -8.6596
-14.6744 0.4869 -8.5980
-14.6719 -0.8247 -8.6053
-14.5891 -2.1372 -8.6344
-14.5864 -3.4889 -8.7826
-14.6638 -4.9260 -9.0586
-14.6609 -6.4315 -9.3751
-14.6577 -8.0593 -9.7953
-14.6542 -9.8549 -10.3414
-18.4415 -14.9540 -13.9035
-16.9408 -16.4488 -13.8274
-15.4447 -17.9390 -13.8620
1.4406 -15.4444 -9.0834
36.9554 -15.8872 -23.5558
30.6425 1.2434 -17.9588
30.6371 4.0015 -18.0932
27.9904 6.2352 -16.7927
22.7043 7.2353 -13.9543
22.4518 9.4348 -14.2613
22.4470 11.8903 -14.8751
22.5033 14.6293 -15.7176
25.2030 19.7937 -18.7662
26.1428 24.6035 -21.0225
24.1963 27.2337 -21.3330
-12.7814 31.1652 -19.4476
-14.9628 28.8456 -18.7612
-17.7373 27.8054 -19.0417
-21.4946 27.8595 -20.3156
-5.5771 4.2021 -4.0316
-14.6110 9.0872 -9.9341
-14.6880 7.4072 -9.4974
-14.6849 5.8274 -9.1215
-14.6820 4.3566 -8.8420
-14.6793 2.9625 -8.6460
-14.5963 1.6095 -8.4782
-14.5937 0.2994 -8.4274
-14.5911 -1.0055 -8.4442
-14.6689 -2.3389 -8.5761
-14.6662 -3.7048 -8.7335
-14.6634 -5.1334 -8.9697
-14.6604 -6.6538 -9.2952
-14.6572 -8.3024 -9.7256
-14.6536 -10.1263 -10.2838
-18.2276 -15.1670 -13.6904
-16.7291 -16.6597 -13.6309
-15.2317 -18.1513 -13.6805
0.2564 -15.6815 -9.0549
1.6461 -15.5201 -9.0108
36.9543 -15.3355 -23.0998
30.6417 1.6321 -17.7161
30.6363 4.3963 -17.8691
26.3974 6.2321 -15.6595
22.6183 7.5246 -13.7624
22.4512 9.7706 -14.1365
22.4463 12.2563 -14.7654
22.5022 15.0372 -15.6255
25.3066 20.3983 -18.7662
25.4873 24.6022 -20.4521
23.8720 27.5635 -21.0525
-12.7813 34.1614 -21.0584
-13.9920 29.1638 -18.6753
-16.5424 27.8078 -18.6809
-20.0986 27.8008 -19.8061
-14.6163 11.7446 -10.8255
-14.6927 9.7861 -10.1922
-14.6892 7.9916 -9.6546
-14.6056 6.3298 -9.1904
-14.6830 4.8598 -8.9295
-14.6802 3.4422 -8.7055
-14.6776 2.0834 -8.5590
-14.5946 0.7551 -8.4375
-14.5920 -0.5493 -8.4307
-14.5894 -1.8620 -8.4915
-14.6672 -3.2222 -8.6700
-14.6644 -4.6259 -8.8777
-14.6615 -6.1105 -9.1706
-14.6584 -7.7097 -9.5622
-14.6184 -9.4425 -10.0475
-14.6511 -11.4372 -10.7310
-17.2509 -16.1400 -13.6393
-15.7558 -17.6292 -13.6508
-0.2324 -15.6721 -9.0493
1.1570 -15.5036 -8.9759
36.9570 -16.7054 -23.4157
38.6571 -13.4669 -23.6342
30.6436 0.6754 -17.6964
30.6382 3.4258 -17.7992
30.6327 6.2308 -18.0479
23.4354 6.9929 -14.1200
22.4528 8.9496 -13.9550
22.4481 11.3636 -14.5264
22.5047 14.0443 -15.3156
25.9302 19.5995 -18.7662
25.1123 22.7715 -19.5718
24.9726 27.0803 -21.2679
23.6693 30.7753 -22.4155
-12.7032 37.4723 -22.8440
-13.0001 29.4139 -18.5668
-15.7350 28.4318 -18.7612
-18.8093 27.8033 -19.3805
-14.6137 10.4053 -10.3574
-14.6903 8.5962 -9.8269
-14.6870 6.9166 -9.3728
-14.6840 5.3736 -9.0276
-14.6812 3.9290 -8.7745
-14.6785 2.5526 -8.6018
-14.5955 1.2123 -8.4557
-14.5929 -0.0941 -8.4254
-14.5904 -1.4015 -8.4625
-14.6681 -2.7462 -8.6158
-14.6654 -4.1282 -8.7961
-14.6625 -5.5811 -9.0579
-14.6595 -7.1360 -9.4132
-14.6220 -8.8113 -9.8563
-14.6525 -10.7204 -10.4820
-17.7738 -15.6191 -13.6609
-16.2781 -17.1089 -13.6344
-14.7763 -18.6049 -13.7171
0.6721 -15.5099 -8.9630
36.9832 -14.1915 -22.8703
30.6401 2.4618 -17.7471
30.6346 5.2425 -17.9440
24.1160 6.3845 -14.4032
22.4544 8.1486 -13.7913
22.4498 10.4985 -14.3086
22.5071 13.0891 -15.0321
25.1858 17.8310 -17.8164
25.5385 21.7465 -19.3660
25.1701 25.6423 -20.7449
23.6731 28.8711 -21.5558
-12.7821 31.5454 -19.6510
-14.8410 28.9084 -18.7612
-17.5729 27.8058 -18.9909
-21.3080 27.8600 -20.2502
-5.5655 4.2303 -4.0361
-14.6916 9.2235 -10.0152
-14.6882 7.4851 -9.5179
-14.6851 5.8993 -9.1369
-14.6822 4.4241 -8.8532
-14.6794 3.0271 -8.6535
-14.5964 1.6719 -8.4823
-14.5938 0.3610 -8.4283
-14.5913 -0.9437 -8.4419
-14.6690 -2.2755 -8.5704
-14.6663 -3.6391 -8.7244
-14.6635 -5.0641 -8.9566
-14.5804 -6.5434 -9.2268
-14.6574 -8.2210 -9.7026
-14.6538 -10.0353 -10.2541
-18.2988 -15.0961 -13.6960
-16.7997 -16.5894 -13.6313
-15.3028 -18.0805 -13.6757
0.1903 -15.6804 -9.0537
1.5800 -15.5209 -9.0073
36.9547 -15.5187 -23.1407
30.6420 1.5025 -17.7124
30.6365 4.2646 -17.8586
26.9088 6.2331 -15.9472
22.6499 7.4291 -13.7624
22.4514 9.6582 -14.1108
22.4466 12.1337 -14.7318
22.5026 14.9005 -15.5819
25.3925 20.2913 -18.7662
25.7038 24.6026 -20.5424
23.9700 27.4419 -21.0366
-12.7458 34.5094 -21.2395
-13.8410 29.1641 -18.6379
-16.4956 27.9973 -18.7612
-19.9209 27.8012 -19.7463
-14.6165 11.8466 -10.8625
-14.6928 9.8759 -10.2211
-14.6893 8.0722 -9.6770
-14.6058 6.4032 -9.2074
-14.6832 4.9287 -8.9422
-14.6804 3.5077 -8.7143
-14.6777 2.1466 -8.5643
-14.5947 0.8168 -8.4395
-14.5922 -0.4876 -8.4295
-14.5896 -1.7995 -8.4871
-14.6673 -3.1575 -8.6621
-14.6645 -4.5580 -8.8661
-14.6616 -6.0381 -9.1546
-14.6585 -7.6310 -9.5412
-14.6551 -9.3788 -10.0455
-14.6512 -11.3383 -10.6960
-17.3215 -16.0696 -13.6414
-15.8266 -17.5587 -13.6478
-0.2985 -15.6706 -9.0490
1.0911 -15.5023 -8.9724
36.9574 -16.8937 -23.4609
38.1412 -13.4679 -23.3534
30.6438 0.5460 -17.6950
30.6384 3.2950 -17.7911
30.6329 6.0964 -18.0328
23.8039 6.9936 -14.3241
22.4530 8.8401 -13.9318
22.4483 11.2450 -14.4957
22.5050 13.9130 -15.2758
26.0127 19.4899 -18.7662
25.1127 22.5795 -19.4977
25.1853 27.0807 -21.3515
23.6699 30.5087 -22.2938
-12.9040 29.5328 -18.6073
-15.6148 28.4979 -18.7612
-18.6390 27.8037 -19.3258
-14.6942 10.5564 -10.4460
-14.6905 8.6797 -9.8514
-14.6872 6.9925 -9.3916
-14.6842 5.4440 -9.0418
-14.6813 3.9955 -8.7846
-14.6786 2.6165 -8.6083
-14.5956 1.2743 -8.4588
-14.5931 -0.0325 -8.4253
-14.5905 -1.3394 -8.4592
-14.6682 -2.6822 -8.6091
-14.6655 -4.0615 -8.7858
-14.6627 -5.5104 -9.0436
-14.6596 -7.0597 -9.3940
-14.6563 -8.7479 -9.8545
-14.6526 -10.6258 -10.4500
-17.8447 -15.5485 -13.6649
-16.3488 -17.0386 -13.6332
-14.8477 -18.5337 -13.7107
0.6069 -15.5167 -8.9654
36.9524 -14.3588 -22.8885
30.6403 2.3317 -17.7414
30.6349 5.1096 -17.9314
24.2560 6.3121 -14.4706
22.4546 8.0416 -13.7705
22.4500 10.3835 -14.2807
22.5074 12.9624 -14.9956
25.1860 17.6721 -17.7636
25.6730 21.6749 -19.3985
25.1706 25.4272 -20.6567
23.6736 28.6246 -21.4461
-12.7829 31.9338 -19.8592
-14.7189 28.9708 -18.7612
-17.4093 27.8061 -18.9408
-21.1227 27.8604 -20.1856
-5.5539 4.2585 -4.0406
-14.6917 9.3103 -10.0420
-14.6883 7.5635 -9.5386
-14.6852 5.9714 -9.1526
-14.6823 4.4918 -8.8647
-14.6796 3.0917 -8.6612
-14.5965 1.7343 -8.4866
-14.5940 0.4226 -8.4293
-14.5914 -0.8819 -8.4397
-14.6691 -2.2122 -8.5650
-14.6665 -3.5735 -8.7154
-14.6637 -4.9950 -8.9438
-14.5806 -6.4697 -9.2096
-14.6575 -8.1400 -9.6799
-14.6540 -9.9448 -10.2248
-14.5698 -11.9167 -10.8672
-16.8703 -16.5191 -13.6319
-15.3738 -18.0097 -13.6712
0.1241 -15.6792 -9.0527
1.5139 -15.5214 -9.0038
36.9550 -15.7026 -23.1822
30.6422 1.3729 -17.7090
30.6368 4.1329 -17.8484
27.4391 6.2342 -16.2457
22.6811 7.3334 -13.7624
22.4516 9.5463 -14.0855
22.4468 12.0117 -14.6985
22.5029 14.7645 -15.5389
25.4778 20.1840 -18.7662
25.9224 24.6030 -20.6339
24.0698 27.3226 -21.0229
-12.6980 34.8316 -21.4047
-13.6908 29.1644 -18.6010
-16.3773 28.0667 -18.7612
-19.7441 27.8015 -19.6871
-14.6930 9.9662 -10.2504
-14.6895 8.1532 -9.6997
-14.6059 6.4768 -9.2246
-14.6775 4.9958 -8.9514
-14.6805 3.5732 -8.7232
-14.6778 2.2099 -8.5698
-14.5949 0.8786 -8.4416
-14.5923 -0.4260 -8.4284
-14.5897 -1.7370 -8.4828
-14.6674 -3.0928 -8.6544
-14.6647 -4.4903 -8.8547
-14.6618 -5.9659 -9.1389
-14.5785 -7.5113 -9.4684
-14.6553 -9.2921 -10.0186
-14.6514 -11.2399 -10.6614
-17.3922 -15.9992 -13.6438
-15.8973 -17.4882 -13.6450
-0.3646 -15.6703 -9.0497
1.0253 -15.5008 -8.9689
36.9577 -17.0828 -23.5067
37.7437 -13.5069 -23.1446
30.9040 0.4202 -17.8441
30.6387 3.1643 -17.7834
30.6332 5.9622 -18.0180
23.9030 6.9133 -14.3660
22.4532 8.7309 -13.9090
22.4485 11.1268 -14.4654
22.5054 13.7822 -15.2364
26.0946 19.3800 -18.7662
25.1397 22.4127 -19.4451
25.1044 26.7665 -21.1871
23.6704 30.2452 -22.1740
-12.8233 29.6888 -18.6713
-15.4945 28.5635 -18.7612
-18.4696 27.8040 -19.2716
-5.7222 4.1475 -4.0803
-14.6907 8.7637 -9.8762
-14.6873 7.0688 -9.4107
-14.6843 5.5146 -9.0561
-14.6815 4.0622 -8.7948
-14.6787 2.6805 -8.6149
-14.5958 1.3364 -8.4621
-14.5932 0.0290 -8.4254
-14.5906 -1.2774 -8.4561
-14.6683 -2.6183 -8.6026
-14.6656 -3.9950 -8.7757
-14.6628 -5.4400 -9.0294
-14.6598 -6.9838 -9.3752
-14.6565 -8.6644 -9.8300
-14.6528 -10.5319 -10.4184
-17.9156 -15.4778 -13.6691
-16.4193 -16.9683 -13.6323
-14.9191 -18.4626 -13.7046
0.5425 -15.5492 -8.9828
14.3598 -5.6497 -8.9092
30.6406 2.2018 -17.7360
30.6351 4.9769 -17.9191
24.3971 6.2390 -14.5390
22.4751 7.9422 -13.7624
22.4502 10.2688 -14.2532
22.4452 12.8007 -14.9181
25.1862 17.5142 -17.7115
25.8147 21.6085 -19.4365
25.1712 25.2141 -20.5697
23.6740 28.3805 -21.3379
-12.7837 32.3304 -20.0722
-14.5966 29.0326 -18.7612
-17.2466 27.8064 -18.8913
-20.9385 27.8609 -20.1217
-5.5605 4.3010 -4.0586
-14.6603 9.3773 -10.0475
-14.6885 7.6421 -9.5595
-14.6853 6.0438 -9.1685
-14.6824 4.5597 -8.8763
-14.6797 3.1564 -8.6690
-14.5967 1.7969 -8.4910
-14.5941 0.4842 -8.4305
-14.5915 -0.8201 -8.4377
-14.5891 -2.1372 -8.5129
-14.5864 -3.4889 -8.6590
-14.6638 -4.9260 -8.9311
-14.5807 -6.3963 -9.1925
-14.6577 -8.0593 -9.6575
-14.6542 -9.8549 -10.1958
-14.5700 -11.8147 -10.8301
-16.9408 -16.4488 -13.6327
-15.4448 -17.9390 -13.6669
0.0579 -15.6780 -9.0518
1.4478 -15.5216 -9.0003
36.9554 -15.8872 -23.2243
30.6425 1.2434 -17.7060
30.6371 4.0015 -17.8385
27.9904 6.2352 -16.5564
22.7118 7.2377 -13.7624
22.4518 9.4348 -14.0606
22.4470 11.8903 -14.6657
22.5033 14.6293 -15.4964
25.5628 20.0763 -18.7662
26.1428 24.6034 -20.7266
24.2106 27.2498 -21.0452
23.6670 31.9807 -22.9702
-12.7814 31.1652 -19.1720
-15.1267 29.1616 -18.6979
-17.7373 27.8054 -18.7717
-21.4946 27.8595 -20.0276
-5.5769 4.2020 -3.9743
-14.6110 9.0872 -9.7933
-14.6880 7.4072 -9.3628
-14.6849 5.8274 -8.9922
-14.6820 4.3566 -8.7166
-14.5989 2.9463 -8.4767
-14.5963 1.6095 -8.3581
-14.5937 0.2994 -8.3080
-14.5911 -1.0055 -8.3245
-14.5887 -2.3262 -8.4083
-14.6662 -3.7048 -8.6097
-14.6634 -5.1334 -8.8426
-14.6604 -6.6538 -9.1634
-14.6572 -8.3024 -9.5877
-14.5734 -10.0709 -10.0826
-14.5887 -12.1391 -10.8020
-16.7291 -16.6597 -13.4377
-15.2317 -18.1513 -13.4866
-1.1460 -15.6794 -8.9480
1.6700 -15.7454 -9.0120
36.9543 -15.3355 -22.7723
30.6417 1.6321 -17.4649
30.6363 4.3964 -17.6158
26.3974 6.2321 -15.4375
22.9436 7.6328 -13.7624
22.4512 9.7706 -13.9361
22.4463 12.2563 -14.5561
22.5022 15.0372 -15.4040
25.6705 20.6916 -18.7662
25.1094 24.2374 -19.8633
23.8720 27.5635 -20.7540
23.6653 32.8398 -23.0389
-12.7813 34.1614 -20.7599
-14.0580 29.3015 -18.4975
-16.5424 27.8079 -18.4161
-20.0986 27.8008 -19.5253
-14.6163 11.7446 -10.6720
-14.6924 9.7859 -10.0475
-14.6892 7.9916 -9.5178
-14.6260 6.3386 -9.0727
-14.6830 4.8598 -8.8029
-14.6802 3.4422 -8.5821
-14.5972 2.0720 -8.3915
-14.5946 0.7551 -8.3179
-14.5920 -0.5493 -8.3112
-14.5894 -1.8620 -8.3712
-14.6672 -3.2222 -8.5471
-14.6644 -4.6259 -8.7519
-14.6615 -6.1105 -9.0406
-14.6584 -7.7097 -9.4266
-14.6549 -9.4661 -9.9298
-14.6511 -11.4372 -10.5789
-17.2509 -16.1400 -13.4459
-15.7558 -17.6292 -13.4573
-1.6381 -15.6732 -8.9692
1.1749 -15.7441 -8.9859
36.9570 -16.7054 -23.0838
38.6571 -13.4669 -23.2992
30.6436 0.6754 -17.4455
30.6382 3.4258 -17.5469
30.6327 6.2308 -17.7921
23.4354 6.9929 -13.9198
22.4613 8.9530 -13.7624
22.4481 11.3636 -14.3205
22.5047 14.0443 -15.0985
26.3031 19.8813 -18.7662
25.1123 22.7715 -19.2944
25.0508 27.1650 -21.0320
23.6693 30.7753 -22.0977
-12.7032 37.4723 -22.5202
-13.0001 29.4139 -18.3036
-15.9612 28.8406 -18.7612
-18.8092 27.8033 -19.1058
-14.6137 10.4053 -10.2106
-14.6903 8.5962 -9.6876
-14.6067 6.8788 -9.1894
-14.6840 5.3736 -8.8997
-14.6812 3.9290 -8.6501
-14.5981 2.5387 -8.4335
-14.5955 1.2123 -8.3359
-14.5929 -0.0941 -8.3060
-14.5904 -1.4015 -8.3426
-14.5879 -2.7311 -8.4472
-14.6654 -4.1282 -8.6714
-14.6625 -5.5811 -8.9295
-14.5793 -7.0969 -9.2290
-14.6220 -8.8113 -9.7166
-14.6525 -10.7204 -10.3335
-17.7738 -15.6191 -13.4673
-16.2781 -17.1089 -13.4411
-14.7763 -18.6049 -13.5227
0.6809 -15.7113 -8.9508
36.9597 -18.1148 -23.4270
35.7224 -13.7076 -21.7775
30.6401 2.4616 -17.4955
30.6346 5.2425 -17.6897
24.1160 6.3845 -14.1989
22.7295 8.2485 -13.7624
22.4498 10.4985 -14.1058
22.4447 13.0528 -14.7780
25.1858 17.8310 -17.5638
25.5385 21.7465 -19.0915
25.1701 25.6423 -20.4509
23.6731 28.8711 -21.2502
-12.7821 31.5454 -19.3725
-14.9711 29.1619 -18.6574
-17.5729 27.8058 -18.7217
-21.2610 27.7985 -19.9191
-5.5653 4.2301 -3.9787
-14.6916 9.2235 -9.8733
-14.6882 7.4851 -9.3829
-14.6851 5.8993 -9.0074
-14.6822 4.4241 -8.7277
-14.5991 3.0105 -8.4841
-14.5964 1.6719 -8.3621
-14.5938 0.3610 -8.3088
-14.5913 -0.9437 -8.3222
-14.5889 -2.2631 -8.4028
-14.6663 -3.6391 -8.6007
-14.6635 -5.0641 -8.8297
-14.6606 -6.5794 -9.1461
-14.6574 -8.2210 -9.5651
-14.5736 -9.9804 -10.0535
-14.6398 -12.0775 -10.8020
-16.7997 -16.5894 -13.4381
-15.3027 -18.0805 -13.4819
-1.2123 -15.6761 -8.9489
1.6029 -15.7461 -9.0085
36.9547 -15.5187 -22.8127
30.6420 1.5026 -17.4613
30.6365 4.2646 -17.6054
26.9088 6.2331 -15.7211
22.9756 7.5359 -13.7624
22.4514 9.6582 -13.9108
22.4466 12.1337 -14.5229
22.5026 14.9005 -15.3611
25.7576 20.5831 -18.7662
25.1098 24.0340 -19.7832
23.9701 27.4419 -20.7384
23.6659 32.5501 -22.9055
-12.7822 34.6079 -20.9982
-13.9342 29.3604 -18.4974
-16.5362 28.0662 -18.5408
-19.9209 27.8012 -19.4664
-14.6968 11.9117 -10.7674
-14.6510 9.8478 -10.0475
-14.6893 8.0722 -9.5399
-14.6058 6.4032 -9.0769
-14.6832 4.9287 -8.8154
-14.6804 3.5077 -8.5908
-14.5973 2.1349 -8.3967
-14.5947 0.8168 -8.3198
-14.5922 -0.4876 -8.3100
-14.5896 -1.7995 -8.3668
-14.5871 -3.1402 -8.4927
-14.6645 -4.5580 -8.7404
-14.6616 -6.0381 -9.0249
-14.6585 -7.6310 -9.4059
-14.6551 -9.3788 -9.9031
-14.6512 -11.3383 -10.5444
-17.3215 -16.0696 -13.4481
-15.8266 -17.5587 -13.4543
-1.7055 -15.6781 -8.9761
1.1069 -15.7266 -8.9732
36.9574 -16.8937 -23.1283
38.1412 -13.4679 -23.0223
30.6438 0.5461 -17.4442
30.6384 3.2950 -17.5389
30.6329 6.0964 -17.7772
23.8039 6.9937 -14.1210
22.4989 8.8581 -13.7624
22.4483 11.2450 -14.2902
22.5050 13.9130 -15.0592
26.3867 19.7702 -18.7662
25.1127 22.5795 -19.2213
25.1040 26.9933 -20.9809
23.6699 30.5087 -21.9778
-12.7042 38.0020 -22.8061
-12.9040 29.5328 -18.3435
-15.8394 28.9077 -18.7612
-18.6390 27.8037 -19.0518
-14.6942 10.5564 -10.2979
-14.6905 8.6797 -9.7117
-14.6068 6.9543 -9.2079
-14.6842 5.4440 -8.9136
-14.6813 3.9955 -8.6600
-14.5983 2.6022 -8.4398
-14.5956 1.2743 -8.3389
-14.5931 -0.0325 -8.3059
-14.5905 -1.3394 -8.3393
-14.5881 -2.6675 -8.4407
-14.6655 -4.0615 -8.6613
-14.6627 -5.5104 -8.9154
-14.5795 -7.0211 -9.2102
-14.6563 -8.7479 -9.7148
-14.6526 -10.6259 -10.3019
-17.8447 -15.5485 -13.4712
-16.3488 -17.0386 -13.4400
-14.8477 -18.5337 -13.5164
0.6143 -15.7079 -8.9472
36.9601 -18.3086 -23.4760
14.5512 -5.6542 -8.8854
30.6403 2.3318 -17.4899
30.6349 5.1096 -17.6772
24.2559 6.3121 -14.2655
22.7641 8.1525 -13.7624
22.4500 10.3835 -14.0783
22.4450 12.9265 -14.7421
25.1860 17.6721 -17.5118
25.6730 21.6749 -19.1235
25.1706 25.4272 -20.3639
23.7650 28.7351 -21.2237
-12.7829 31.9338 -19.5777
-14.8162 29.1622 -18.6175
-17.4093 27.8061 -18.6723
-21.0760 27.7989 -19.8555
-5.5537 4.2584 -3.9832
-14.6917 9.3103 -9.8997
-14.6883 7.5635 -9.4033
-14.6852 5.9714 -9.0229
-14.6823 4.4918 -8.7390
-14.5992 3.0748 -8.4916
-14.5965 1.7343 -8.3663
-14.5940 0.4226 -8.3099
-14.5914 -0.8819 -8.3201
-14.5890 -2.2001 -8.3974
-14.6665 -3.5735 -8.5919
-14.6637 -4.9950 -8.8170
-14.6607 -6.5053 -9.1290
-14.6575 -8.1400 -9.5427
-14.6070 -9.9129 -10.0475
-14.6500 -11.9823 -10.7721
-16.8703 -16.5191 -13.4387
-15.3738 -18.0097 -13.4774
-1.2786 -15.6727 -8.9500
1.5359 -15.7466 -9.0049
36.9550 -15.7026 -22.8536
30.6422 1.3729 -17.4580
30.6368 4.1329 -17.5954
27.4391 6.2342 -16.0154
23.0072 7.4389 -13.7624
22.4516 9.5463 -13.8859
22.4468 12.0117 -14.4902
22.5029 14.7645 -15.3186
25.8442 20.4743 -18.7662
25.1102 23.8322 -19.7041
24.0698 27.3226 -20.7248
23.6664 32.2637 -22.7741
-12.7830 35.0649 -21.2426
-13.8102 29.4189 -18.4974
-16.5368 28.3399 -18.6754
-19.7441 27.8015 -19.4081
-14.6935 12.0121 -10.8020
-14.6127 9.9117 -10.0498
-14.6895 8.1531 -9.5622
-14.6863 6.5124 -9.1439
-14.6775 4.9958 -8.8246
-14.6805 3.5732 -8.5996
-14.5975 2.1978 -8.4020
-14.5949 0.8786 -8.3219
-14.5923 -0.4260 -8.3090
-14.5897 -1.7370 -8.3626
-14.5872 -3.0759 -8.4851
-14.6647 -4.4903 -8.7291
-14.6618 -5.9659 -9.0094
-14.5785 -7.5113 -9.3342
-14.6553 -9.2921 -9.8766
-14.6514 -11.2399 -10.5103
-17.3922 -15.9992 -13.4504
-15.8973 -17.4882 -13.4516
1.0402 -15.7250 -8.9697
36.9577 -17.0828 -23.1735
37.7437 -13.5069 -22.8165
30.9040 0.4202 -17.5911
30.6387 3.1643 -17.5313
30.6332 5.9622 -17.7626
23.9030 6.9133 -14.1624
22.5361 8.7631 -13.7624
22.4485 11.1268 -14.2603
22.5054 13.7822 -15.0204
26.4694 19.6583 -18.7659
25.1397 22.4127 -19.1694
25.1671 26.8333 -20.9389
23.6704 30.2452 -21.8597
-12.8233 29.6888 -18.4067
-15.7173 28.9742 -18.7612
-18.4696 27.8040 -18.9985
-5.7214 4.1470 -4.0219
-14.6907 8.7637 -9.7362
-14.6070 7.0301 -9.2266
-14.6843 5.5146 -8.9277
-14.6815 4.0622 -8.6701
-14.5984 2.6658 -8.4463
-14.5958 1.3364 -8.3422
-14.5932 0.0290 -8.3059
-14.5906 -1.2774 -8.3362
-14.5882 -2.6040 -8.4343
-14.6656 -3.9950 -8.6513
-14.6628 -5.4400 -8.9014
-14.5796 -6.9456 -9.1917
-14.6565 -8.6644 -9.6906
-14.6528 -10.5319 -10.2707
-17.9156 -15.4778 -13.4753
-16.4193 -16.9683 -13.4390
-14.9191 -18.4626 -13.5103
-0.8565 -15.7171 -8.9589
0.5479 -15.7042 -8.9437
36.9605 -18.5036 -23.5257
14.5154 -5.7109 -8.8781
30.6406 2.2019 -17.4846
30.6351 4.9769 -17.6651
24.3971 6.2390 -14.3329
22.7983 8.0564 -13.7624
22.4502 10.2688 -14.0511
22.4452 12.8009 -14.7066
25.1227 17.4699 -17.4164
25.8147 21.6085 -19.1609
25.1712 25.2141 -20.2781
23.7655 28.4901 -21.1166
-12.7837 32.3304 -19.7877
-14.6619 29.1625 -18.5780
-17.2466 27.8064 -18.6235
-20.8922 27.7993 -19.7926
-5.5601 4.3007 -4.0009
-14.6919 9.3975 -9.9264
-14.6885 7.6421 -9.4240
-14.6853 6.0438 -9.0386
-14.6824 4.5597 -8.7504
-14.6797 3.1564 -8.5461
-14.5967 1.7969 -8.3706
-14.5941 0.4842 -8.3110
-14.5915 -0.8201 -8.3181
-14.5891 -2.1372 -8.3922
-14.5864 -3.4889 -8.5363
-14.6638 -4.9260 -8.8045
-14.6609 -6.4315 -9.1121
-14.6577 -8.0594 -9.5206
-14.6487 -9.8513 -10.0475
-14.6502 -11.8797 -10.7353
-16.9408 -16.4488 -13.4395
-15.4448 -17.9390 -13.4731
-1.3449 -15.6693 -8.9512
1.4688 -15.7467 -9.0014
36.9554 -15.8872 -22.8951
30.6425 1.2433 -17.4550
30.6371 4.0014 -17.5857
27.9904 6.2352 -16.3217
23.0384 7.3418 -13.7624
22.4518 9.4347 -13.8613
22.4470 11.8903 -14.4578
22.5033 14.6293 -15.2767
25.9304 20.3649 -18.7662
25.1106 23.6320 -19.6260
24.2106 27.2498 -20.7469
23.6670 31.9807 -22.6446
-12.7814 31.1652 -18.8982
-15.1814 29.2670 -18.4976
-17.7373 27.8054 -18.5037
-21.4472 27.7982 -19.6982
-5.5767 4.2018 -3.9174
-14.6110 9.0872 -9.6535
-14.6182 7.3720 -9.1852
-14.6849 5.8274 -8.8638
-14.6820 4.3566 -8.5922
-14.5989 2.9463 -8.3557
-14.5963 1.6095 -8.2387
-14.5937 0.2994 -8.1894
-14.5911 -1.0055 -8.2056
-14.5887 -2.3262 -8.2882
-14.5860 -3.6846 -8.4404
-14.6634 -5.1334 -8.7163
-14.6604 -6.6538 -9.0326
-14.6572 -8.3024 -9.4508
-14.6536 -10.1263 -9.9933
-14.6496 -12.1898 -10.6922
-16.7291 -16.6597 -13.2458
-15.2317 -18.1513 -13.2940
1.6927 -15.9594 -9.0041
36.9622 -19.3686 -23.4118
35.6939 -14.8125 -21.6816
30.6417 1.6321 -17.2156
30.6363 4.3963 -17.3642
26.3974 6.2321 -15.2171
23.2759 7.7433 -13.7624
22.4925 9.7886 -13.7624
22.4463 12.2563 -14.3483
22.5022 15.0372 -15.1841
26.0424 20.9913 -18.7662
25.1094 24.2374 -19.5797
23.8720 27.5635 -20.4577
23.6653 32.8398 -22.7099
-12.7813 34.1614 -20.4634
-14.1250 29.4411 -18.3202
-16.5424 27.8078 -18.1532
-20.0986 27.8008 -19.2465
-14.6163 11.7446 -10.5196
-14.6927 9.7861 -9.9042
-14.6892 7.9916 -9.3819
-14.6260 6.3386 -8.9432
-14.6830 4.8598 -8.6772
-14.5999 3.4234 -8.4133
-14.5972 2.0720 -8.2717
-14.5946 0.7551 -8.1991
-14.5920 -0.5493 -8.1925
-14.5894 -1.8620 -8.2516
-14.5870 -3.2046 -8.3790
-14.6644 -4.6259 -8.6269
-14.6615 -6.1105 -8.9115
-14.6584 -7.7097 -9.2920
-14.6549 -9.4661 -9.7881
-14.6511 -11.4372 -10.4278
-17.2509 -16.1400 -13.2540
-15.7558 -17.6292 -13.2651
1.1908 -15.9574 -8.9776
36.9570 -16.7054 -22.7542
38.6571 -13.4669 -22.9665
30.6436 0.6754 -17.1964
30.6382 3.4257 -17.2963
30.6327 6.2308 -17.5380
23.5060 7.0140 -13.7624
22.7867 9.0827 -13.7624
22.4481 11.3636 -14.1160
22.4429 14.0057 -14.8420
26.4687 20.0065 -18.6148
25.1123 22.7715 -19.0189
25.0508 27.1650 -20.7317
23.6693 30.7753 -21.7822
-12.7032 37.4723 -22.1986
-13.0001 29.4139 -18.0423
-16.1378 29.1596 -18.6979
-18.8092 27.8033 -18.8330
-25.8792 31.7354 -22.9743
-14.6254 12.5219 -10.8020
-14.6137 10.4053 -10.0648
-14.6903 8.5962 -9.5492
-14.6870 6.9166 -9.1080
-14.6840 5.3736 -8.7726
-14.6008 3.9075 -8.4799
-14.5981 2.5387 -8.3130
-14.5955 1.2123 -8.2168
-14.5929 -0.0941 -8.1874
-14.5904 -1.4015 -8.2234
-14.5879 -2.7311 -8.3266
-14.6654 -4.1282 -8.5476
-14.6625 -5.5811 -8.8020
-14.6595 -7.1360 -9.1472
-14.6220 -8.8113 -9.5779
-14.6525 -10.7204 -10.1859
-14.5681 -12.8020 -10.8807
-16.2781 -17.1089 -13.2492
-14.7763 -18.6049 -13.3296
-2.1324 -15.6623 -8.8682
36.9597 -18.1148 -23.0925
14.7563 -5.6624 -8.8674
30.6401 2.4618 -17.2457
30.6346 5.2426 -17.4371
24.1160 6.3845 -13.9962
23.0588 8.3680 -13.7624
22.4498 10.4986 -13.9044
22.4447 13.0528 -14.5670
25.1221 17.7858 -17.2692
25.5385 21.7465 -18.8188
25.1701 25.6422 -20.1589
23.7645 28.9826 -21.0277
-12.7821 31.5454 -19.0959
-15.0355 29.2873 -18.4701
-17.5939 27.8393 -18.4767
-21.2610 27.7985 -19.6347
-5.5651 4.2300 -3.9218
-14.6916 9.2235 -9.7323
-14.6078 7.4442 -9.1984
-14.6851 5.8993 -8.8788
-14.6822 4.4241 -8.6031
-14.5991 3.0105 -8.3630
-14.5964 1.6719 -8.2427
-14.5938 0.3610 -8.1902
-14.5913 -0.9437 -8.2034
-14.5889 -2.2631 -8.2828
-14.5862 -3.6192 -8.4315
-14.6635 -5.0641 -8.7036
-14.6606 -6.5794 -9.0155
-14.6574 -8.2210 -9.4285
-14.6538 -10.0353 -9.9644
-14.6498 -12.0857 -10.6550
-16.7997 -16.5894 -13.2462
-15.3027 -18.0805 -13.2894
1.6247 -15.9601 -9.0005
36.9626 -19.5680 -23.4642
35.6943 -14.9894 -21.7200
30.6420 1.5025 -17.2120
30.6365 4.2646 -17.3540
26.9089 6.2331 -15.4966
23.3084 7.6451 -13.7624
22.5336 9.6936 -13.7624
22.4466 12.1337 -14.3156
22.5026 14.9005 -15.1417
26.1307 20.8813 -18.7662
25.1098 24.0340 -19.5007
23.9700 27.4419 -20.4423
23.6659 32.5501 -22.5785
-12.7822 34.6079 -20.6984
-13.9726 29.4414 -18.2836
-16.5362 28.0662 -18.2761
-19.9209 27.8012 -19.1884
-14.6968 11.9117 -10.6137
-14.6928 9.8759 -9.9323
-14.6893 8.0722 -9.4036
-14.6058 6.4032 -8.9473
-14.6832 4.9287 -8.6895
-14.6000 3.4885 -8.4217
-14.5973 2.1349 -8.2768
-14.5947 0.8168 -8.2010
-14.5922 -0.4876 -8.1913
-14.5896 -1.7995 -8.2473
-14.5871 -3.1402 -8.3714
-14.6645 -4.5580 -8.6156
-14.6616 -6.0381 -8.8960
-14.5783 -7.5892 -9.2209
-14.6551 -9.3788 -9.7617
-14.6512 -11.3382 -10.3938
-17.3215 -16.0696 -13.2560
-15.8266 -17.5587 -13.2622
-1.7109 -15.7278 -8.8760
1.1231 -15.9559 -8.9740
36.9574 -16.8937 -22.7981
36.5957 -12.9222 -21.7740
30.6438 0.5460 -17.1951
30.6384 3.2950 -17.2885
30.6329 6.0964 -17.5233
23.8039 6.9937 -13.9194
22.8248 8.9865 -13.7624
22.4483 11.2450 -14.0862
22.4431 13.8747 -14.8034
26.4690 19.8318 -18.5560
25.1127 22.5795 -18.9468
25.1666 27.0606 -20.7329
23.6699 30.5087 -21.6640
-12.7042 38.0020 -22.4804
-12.9040 29.5328 -18.0816
-15.9776 29.1599 -18.6547
-18.6390 27.8037 -18.7798
-25.6573 31.7358 -22.8960
-14.6180 12.6229 -10.8358
-14.6138 10.4986 -10.0954
-14.6905 8.6797 -9.5731
-14.6872 6.9925 -9.1263
-14.6842 5.4440 -8.7863
-14.6010 3.9737 -8.4896
-14.5983 2.6022 -8.3193
-14.5956 1.2743 -8.2199
-14.5931 -0.0325 -8.1873
-14.5905 -1.3394 -8.2202
-14.5881 -2.6675 -8.3202
-14.5853 -4.0393 -8.4909
-14.6627 -5.5104 -8.7881
-14.6596 -7.0597 -9.1286
-14.6563 -8.7479 -9.5761
-14.5725 -10.5677 -10.0992
-14.5683 -12.6937 -10.8407
-16.3488 -17.0386 -13.2480
-14.8477 -18.5337 -13.3234
-2.1991 -15.6576 -8.8707
36.9601 -18.3086 -23.1408
35.7535 -13.8929 -21.5203
30.6403 2.3317 -17.2401
30.6349 5.1096 -17.4248
24.2559 6.3121 -14.0618
23.0939 8.2706 -13.7624
22.4500 10.3835 -13.8773
22.4450 12.9265 -14.5316
25.1224 17.6274 -17.2181
25.6730 21.6749 -18.8504
25.1706 25.4272 -20.0731
23.8371 28.8223 -20.9841
-12.7829 31.9338 -19.2982
-14.8799 29.2876 -18.4306
-17.4490 27.8695 -18.4477
-21.0760 27.7989 -19.5720
-5.5535 4.2583 -3.9262
-14.6917 9.3103 -9.7583
-14.6080 7.5221 -9.2184
-14.6852 5.9714 -8.8940
-14.6823 4.4918 -8.6142
-14.5992 3.0748 -8.3704
-14.5965 1.7343 -8.2468
-14.5940 0.4226 -8.1912
-14.5914 -0.8819 -8.2013
-14.5890 -2.2001 -8.2775
-14.5863 -3.5540 -8.4229
-14.6637 -4.9950 -8.6911
-14.6607 -6.5053 -8.9986
-14.6575 -8.1400 -9.4064
-14.6540 -9.9448 -9.9359
-14.6500 -11.9823 -10.6183
-16.8703 -16.5191 -13.2468
-15.3738 -18.0097 -13.2849
1.5567 -15.9604 -8.9969
36.9630 -19.7683 -23.5171
35.6946 -15.1671 -21.7589
30.6422 1.3729 -17.2087
30.6368 4.1329 -17.3441
27.4391 6.2342 -15.7867
23.3405 7.5466 -13.7624
22.5743 9.5985 -13.7624
22.4468 12.0117 -14.2833
22.5029 14.7645 -15.0999
26.2186 20.7709 -18.7662
25.1102 23.8321 -19.4227
24.0698 27.3226 -20.4289
23.6664 32.2637 -22.4489
-12.7830 35.0649 -20.9392
-13.8209 29.4417 -18.2474
-16.5368 28.3399 -18.4087
-19.7441 27.8015 -19.1310
-14.6970 12.0150 -10.6503
-14.6930 9.9662 -9.9608
-14.6895 8.1532 -9.4257
-14.6863 6.5124 -9.0133
-14.6775 4.9958 -8.6986
-14.6001 3.5537 -8.4304
-14.5975 2.1978 -8.2820
-14.5949 0.8786 -8.2031
-14.5923 -0.4260 -8.1903
-14.5897 -1.7370 -8.2432
-14.5872 -3.0759 -8.3640
-14.6647 -4.4903 -8.6045
-14.6618 -5.9659 -8.8807
-14.5785 -7.5113 -9.2009
-14.6553 -9.2921 -9.7356
-14.6514 -11.2398 -10.3602
-17.3922 -15.9992 -13.2584
-15.8973 -17.4882 -13.2596
-1.7762 -15.7108 -8.8705
1.0553 -15.9542 -8.9705
36.9577 -17.0828 -22.8426
36.2836 -12.9844 -21.6207
30.9040 0.4202 -17.3400
30.6387 3.1643 -17.2809
30.6332 5.9626 -17.5089
23.9030 6.9133 -13.9603
22.8625 8.8901 -13.7624
22.4485 11.1268 -14.0567
22.4434 13.7443 -14.7651
26.4760 19.6633 -18.5026
25.1397 22.4127 -18.8957
25.1671 26.8333 -20.6399
23.6704 30.2452 -21.5475
-12.8233 29.6888 -18.1438
-15.8182 29.1602 -18.6121
-18.4696 27.8040 -18.7272
-25.4370 31.7363 -22.8187
-14.6182 12.7311 -10.8757
-5.7207 4.1464 -3.9639
-14.6907 8.7637 -9.5972
-14.6873 7.0688 -9.1449
-14.6843 5.5146 -8.8003
-14.6815 4.0622 -8.5463
-14.5984 2.6658 -8.3257
-14.5958 1.3364 -8.2230
-14.5932 0.0290 -8.1873
-14.5906 -1.2774 -8.2172
-14.5882 -2.6040 -8.3139
-14.5855 -3.9732 -8.4812
-14.6628 -5.4400 -8.7743
-14.6598 -6.9838 -9.1103
-14.6565 -8.6644 -9.5522
-14.5726 -10.4743 -10.0686
-14.5694 -12.5869 -10.8020
-16.4193 -16.9683 -13.2471
-14.9191 -18.4626 -13.3174
-2.2676 -15.6650 -8.8803
36.9605 -18.5036 -23.1897
35.7539 -14.0669 -21.5560
30.6406 2.2017 -17.2349
30.6351 4.9769 -17.4128
24.3971 6.2390 -14.1282
23.1286 8.1731 -13.7624
22.4502 10.2688 -13.8505
22.4452 12.8009 -14.4967
25.1227 17.4700 -17.1677
25.8147 21.6085 -18.8874
25.1712 25.2141 -19.9886
23.9795 28.7467 -21.0026
-12.7837 32.3304 -19.5051
-14.7249 29.2879 -18.3915
-17.2860 27.8699 -18.3995
-20.8922 27.7993 -19.5100
-5.5598 4.3005 -3.9435
-14.6919 9.3975 -9.7847
-14.6885 7.6421 -9.2894
-14.6853 6.0438 -8.9095
-14.6824 4.5597 -8.6255
-14.5993 3.1392 -8.3780
-14.5967 1.7969 -8.2511
-14.5941 0.4842 -8.1923
-14.5915 -0.8201 -8.1993
-14.5891 -2.1372 -8.2724
-14.5864 -3.4889 -8.4144
-14.6638 -4.9260 -8.6788
-14.6609 -6.4315 -8.9820
-14.6577 -8.0594 -9.3846
-14.6542 -9.8549 -9.9078
-14.6502 -11.8797 -10.5820
-16.9408 -16.4488 -13.2476
-15.4448 -17.9390 -13.2807
1.4888 -15.9605 -8.9933
36.9634 -19.9697 -23.5708
35.6950 -15.3453 -21.7984
30.6425 1.2434 -17.2058
30.6371 4.0013 -17.3346
27.9904 6.2352 -16.0886
23.3721 7.4481 -13.7624
22.6146 9.5032 -13.7624
22.4470 11.8903 -14.2514
22.5033 14.6293 -15.0586
26.3060 20.6600 -18.7662
25.1106 23.6320 -19.3458
24.2106 27.2498 -20.4506
23.6670 31.9807 -22.3212
-12.7814 31.1652 -18.6263
-14.4277 27.8140 -17.3263
-17.7777 27.8687 -18.2790
-21.4473 27.7982 -19.4148
-5.5765 4.2017 -3.8610
-14.6110 9.0872 -9.5146
-14.6880 7.4072 -9.0963
-14.6849 5.8274 -8.7363
-14.6017 4.3328 -8.4222
-14.5989 2.9463 -8.2355
-14.5963 1.6095 -8.1202
-14.5937 0.2994 -8.0715
-14.5911 -1.0055 -8.0876
-14.5887 -2.3262 -8.1690
-14.5860 -3.6846 -8.3190
-14.6634 -5.1334 -8.5909
-14.6604 -6.6538 -8.9026
-14.6572 -8.3024 -9.3149
-14.6536 -10.1263 -9.8495
-14.6496 -12.1898 -10.5384
-16.7291 -16.6597 -13.0553
-15.2317 -18.1513 -13.1028
-2.5655 -15.6704 -8.7806
36.9622 -19.3686 -23.0750
35.7558 -14.8382 -21.4067
30.6417 1.6321 -16.9679
30.6363 4.3963 -17.1144
26.3974 6.2321 -14.9981
23.6157 7.8564 -13.7624
22.8208 9.9314 -13.7624
22.4463 12.2563 -14.1418
22.5022 15.0372 -14.9656
26.5501 21.4005 -18.8568
25.1094 24.2374 -19.2980
23.8720 27.5635 -20.1634
22.4094 31.0969 -21.1953
-12.7813 34.1614 -20.1690
-14.1250 29.4411 -18.0567
-16.5424 27.8078 -17.8920
-20.0986 27.8008 -18.9696
-14.6163 11.7446 -10.3683
-14.6927 9.7861 -9.7617
-14.6088 7.9479 -9.1963
-14.6260 6.3386 -8.8145
-14.6830 4.8598 -8.5524
-14.5999 3.4234 -8.2922
-14.5972 2.0720 -8.1527
-14.5946 0.7551 -8.0811
-14.5920 -0.5493 -8.0746
-14.5894 -1.8620 -8.1329
-14.5870 -3.2046 -8.2585
-14.5842 -4.6006 -8.4563
-14.6615 -6.1105 -8.7833
-14.6584 -7.7097 -9.1584
-14.6549 -9.4661 -9.6472
-14.6511 -11.4372 -10.2778
-17.2509 -16.1400 -13.0633
-15.7558 -17.6292 -13.0743
36.9651 -20.8640 -23.4717
35.6965 -16.1356 -21.6619
37.0907 -12.9212 -21.7189
30.6436 0.6754 -16.9490
30.6382 3.4258 -17.0475
30.6327 6.2308 -17.2857
23.8074 7.1039 -13.7383
23.1193 9.2153 -13.7624
22.4481 11.3636 -13.9129
22.4429 14.0057 -14.6285
26.5940 20.1012 -18.4338
25.1352 22.7923 -18.7624
25.0508 27.1650 -20.4335
23.6693 30.7753 -21.4688
-12.7032 37.4723 -21.8793
-13.0001 29.4139 -17.7827
-16.1979 29.2682 -18.4976
-18.8092 27.8033 -18.5620
-25.8792 31.7354 -22.6438
-14.6982 12.5842 -10.6996
-14.6137 10.4053 -9.9200
-14.6903 8.5962 -9.4118
-14.6870 6.9166 -8.9770
-14.6840 5.3736 -8.6464
-14.6008 3.9075 -8.3579
-14.5981 2.5387 -8.1934
-14.5955 1.2123 -8.0986
-14.5929 -0.0941 -8.0696
-14.5904 -1.4015 -8.1051
-14.5879 -2.7311 -8.2068
-14.5852 -4.1056 -8.3786
-14.6625 -5.5811 -8.6754
-14.6595 -7.1360 -9.0156
-14.6220 -8.8113 -9.4401
-14.6525 -10.7204 -10.0394
-14.6106 -12.8394 -10.7555
-16.2781 -17.1089 -13.0586
-14.7763 -18.6049 -13.1378
36.9597 -18.1148 -22.7603
35.7794 -13.7295 -21.1915
30.6401 2.4618 -16.9976
30.6346 5.2425 -17.1862
24.1160 6.3845 -13.7948
23.3953 8.4901 -13.7624
22.4498 10.4986 -13.7044
22.4447 13.0528 -14.3574
25.1221 17.7858 -17.0208
25.8335 21.9977 -18.7624
25.1068 25.5777 -19.8189
23.8897 29.1353 -20.8344
-12.7821 31.5454 -18.8212
-14.2994 27.8535 -17.3132
-17.6129 27.8691 -18.2304
-21.2610 27.7985 -19.3522
-5.5649 4.2299 -3.8653
-14.6916 9.2235 -9.5923
-14.6882 7.4851 -9.1159
-14.6851 5.8993 -8.7511
-14.6018 4.3999 -8.4329
-14.5991 3.0105 -8.2427
-14.5964 1.6719 -8.1241
-14.5938 0.3610 -8.0724
-14.5913 -0.9437 -8.0853
-14.5889 -2.2631 -8.1636
-14.5862 -3.6192 -8.3103
-14.6635 -5.0641 -8.5784
-14.6606 -6.5794 -8.8858
-14.6574 -8.2210 -9.2929
-14.6538 -10.0353 -9.8211
-14.6498 -12.0857 -10.5017
-16.7997 -16.5894 -13.0556
-15.3028 -18.0805 -13.0982
-2.6325 -15.6648 -8.7836
36.9626 -19.5680 -23.1266
35.7563 -15.0154 -21.4447
30.6420 1.5025 -16.9644
30.6365 4.2645 -17.1044
26.9088 6.2331 -15.2737
23.6486 7.7567 -13.7624
22.8625 9.8351 -13.7624
22.4466 12.1337 -14.1096
22.4412 14.8598 -14.8832
26.5606 21.2248 -18.8006
25.1098 24.0340 -19.2202
23.9700 27.4419 -20.1482
22.4813 30.9209 -21.1398
-12.7822 34.6078 -20.4006
-13.9726 29.4414 -18.0205
-16.5362 28.0662 -18.0132
-19.9209 27.8012 -18.9124
-14.6968 11.9117 -10.4610
-14.6928 9.8759 -9.7895
-14.6090 8.0280 -9.2177
-14.6058 6.4032 -8.8185
-14.6832 4.9287 -8.5645
-14.6000 3.4885 -8.3006
-14.5973 2.1349 -8.1577
-14.5947 0.8168 -8.0830
-14.5922 -0.4876 -8.0735
-14.5896 -1.7995 -8.1287
-14.5871 -3.1402 -8.2510
-14.5844 -4.5331 -8.4452
-14.6616 -6.0381 -8.7680
-14.6585 -7.6310 -9.1383
-14.6551 -9.3788 -9.6212
-14.6512 -11.3383 -10.2443
-17.3215 -16.0696 -13.0653
-15.8266 -17.5587 -13.0714
36.9655 -21.0703 -23.5282
35.6969 -16.3175 -21.7037
36.7692 -12.9835 -21.5625
30.6438 0.5460 -16.9477
30.6384 3.2950 -17.0398
30.6329 6.0964 -17.2712
23.8076 6.9948 -13.7213
23.1580 9.1176 -13.7624
22.4483 11.2450 -13.8835
22.4431 13.8747 -14.5904
25.1200 18.8211 -17.3569
25.2312 22.6861 -18.7624
25.1666 27.0606 -20.4346
23.6699 30.5087 -21.3523
-12.7042 38.0020 -22.1570
-12.9040 29.5328 -17.8214
-16.0463 29.2853 -18.4654
-18.6390 27.8037 -18.5096
-25.6573 31.7358 -22.5667
-14.6984 12.6922 -10.7386
-14.6942 10.5564 -10.0048
-14.6905 8.6797 -9.4353
-14.6872 6.9925 -8.9950
-14.6842 5.4440 -8.6599
-14.6010 3.9737 -8.3675
-14.5983 2.6022 -8.1996
-14.5956 1.2743 -8.1016
-14.5931 -0.0325 -8.0695
-14.5905 -1.3394 -8.1020
-14.5881 -2.6675 -8.2005
-14.5853 -4.0393 -8.3688
-14.6627 -5.5104 -8.6616
-14.6596 -7.0597 -8.9973
-14.6563 -8.7480 -9.4383
-14.6526 -10.6258 -10.0087
-14.6485 -12.7635 -10.7436
-16.3488 -17.0386 -13.0575
-14.8477 -18.5337 -13.1317
36.9601 -18.3086 -22.8079
35.7535 -13.8929 -21.2107
30.6403 2.3317 -16.9921
30.6349 5.1096 -17.1741
24.2559 6.3121 -13.8595
23.4310 8.3913 -13.7624
22.4500 10.3835 -13.6776
22.4450 12.9265 -14.3225
25.1224 17.6274 -16.9704
25.9260 21.8885 -18.7624
25.1072 25.3631 -19.7345
23.8371 28.8222 -20.6822
-12.7829 31.9338 -19.0206
-14.1713 27.8929 -17.3004
-17.4490 27.8695 -18.1823
-21.0760 27.7989 -19.2904
-5.5533 4.2581 -3.8696
-14.6917 9.3103 -9.6180
-14.6883 7.5635 -9.1357
-14.6852 5.9714 -8.7661
-14.6019 4.4673 -8.4438
-14.5992 3.0748 -8.2500
-14.5965 1.7343 -8.1282
-14.5940 0.4226 -8.0734
-14.5914 -0.8819 -8.0833
-14.5890 -2.2001 -8.1584
-14.5863 -3.5540 -8.3017
-14.6637 -4.9950 -8.5661
-14.6607 -6.5053 -8.8691
-14.5773 -8.0954 -9.2204
-14.6540 -9.9449 -9.7930
-14.6500 -11.9823 -10.4655
-16.8703 -16.5191 -13.0562
-15.3738 -18.0097 -13.0938
-2.6996 -15.6592 -8.7868
36.9630 -19.7683 -23.1788
35.7567 -15.1935 -21.4832
30.6422 1.3729 -16.9612
30.6368 4.1329 -17.0946
27.4391 6.2342 -15.5596
23.6812 7.6568 -13.7624
22.9038 9.7386 -13.7624
22.4468 12.0117 -14.0778
22.4415 14.7242 -14.8420
26.4668 20.9675 -18.6714
25.1102 23.8322 -19.1433
24.0698 27.3226 -20.1350
22.6817 30.9213 -21.2053
-12.7830 35.0649 -20.6380
-13.8209 29.4417 -17.9849
-16.5368 28.3399 -18.1439
-19.7441 27.8015 -18.8557
-14.6970 12.0150 -10.4971
-14.6930 9.9662 -9.8175
-14.6895 8.1532 -9.2901
-14.6863 6.5124 -8.8837
-14.6775 4.9958 -8.5734
-14.6001 3.5537 -8.3091
-14.5975 2.1978 -8.1629
-14.5949 0.8786 -8.0851
-14.5923 -0.4260 -8.0725
-14.5897 -1.7370 -8.1246
-14.5872 -3.0759 -8.2436
-14.5845 -4.4657 -8.4343
-14.6618 -5.9659 -8.7530
-14.5785 -7.5113 -9.0685
-14.6553 -9.2921 -9.5955
-14.6514 -11.2399 -10.2112
-17.3922 -15.9992 -13.0676
-15.8973 -17.4882 -13.0688
36.9659 -21.2777 -23.5854
35.6972 -16.5002 -21.7461
36.3520 -13.0089 -21.3499
31.3938 0.4269 -17.3614
30.6387 3.1643 -17.0323
30.6332 5.9622 -17.2570
23.9030 6.9133 -13.7593
23.1962 9.0198 -13.7624
22.4485 11.1268 -13.8545
22.4434 13.7443 -14.5527
25.1203 18.6564 -17.3026
25.3267 22.5794 -18.7624
25.1671 26.8333 -20.3430
23.6782 30.2552 -21.2445
-12.8233 29.6888 -17.8828
-15.8862 29.2856 -18.4232
-18.4883 27.8324 -18.4766
-25.4370 31.7363 -22.4904
-14.6986 12.8011 -10.7781
-5.7199 4.1459 -3.9064
-14.6907 8.7637 -9.4591
-14.6873 7.0688 -9.0133
-14.6843 5.5146 -8.6737
-14.6011 4.0399 -8.3773
-14.5984 2.6658 -8.2059
-14.5958 1.3364 -8.1047
-14.5932 0.0290 -8.0696
-14.5906 -1.2774 -8.0990
-14.5882 -2.6040 -8.1943
-14.5855 -3.9732 -8.3592
-14.6628 -5.4400 -8.6481
-14.6598 -6.9838 -8.9792
-14.6565 -8.6644 -9.4148
-14.6528 -10.5319 -9.9784
-14.6487 -12.6554 -10.7045
-16.4193 -16.9683 -13.0565
-14.9191 -18.4626 -13.1258
36.9605 -18.5036 -22.8561
35.7539 -14.0670 -21.2459
30.6406 2.2018 -16.9869
30.6351 4.9769 -17.1623
24.3971 6.2390 -13.9250
23.4662 8.2924 -13.7624
22.4502 10.2688 -13.6513
22.4452 12.8009 -14.2881
25.1227 17.4700 -16.9207
26.0182 21.7789 -18.7624
25.1076 25.1504 -19.6513
24.0424 28.8220 -20.7547
23.6627 34.1522 -22.9751
-12.7837 32.3304 -19.2245
-14.0434 27.9323 -17.2879
-17.2861 27.8699 -18.1348
-20.8922 27.7993 -19.2293
-5.5595 4.3002 -3.8865
-14.6919 9.3975 -9.6439
-14.6885 7.6421 -9.1558
-14.6853 6.0438 -8.7813
-14.6021 4.5348 -8.4549
-14.5993 3.1392 -8.2575
-14.5967 1.7969 -8.1324
-14.5941 0.4842 -8.0745
-14.5915 -0.8201 -8.0814
-14.5891 -2.1372 -8.1534
-14.5864 -3.4889 -8.2933
-14.6638 -4.9260 -8.5539
-14.6609 -6.4315 -8.8527
-14.5775 -8.0153 -9.1990
-14.6542 -9.8550 -9.7652
-14.6502 -11.8797 -10.4298
-16.9408 -16.4488 -13.0570
-15.4448 -17.9390 -13.0897
-2.7666 -15.6536 -8.7901
36.9634 -19.9697 -23.2317
35.7572 -15.3721 -21.5223
30.6425 1.2434 -16.9582
30.6371 4.0015 -17.0852
27.9904 6.2352 -15.8572
23.7132 7.5568 -13.7624
22.9447 9.6419 -13.7624
22.4470 11.8903 -14.0463
22.4417 14.5893 -14.8014
26.4672 20.7865 -18.6096
25.1106 23.6320 -19.0675
24.2106 27.2498 -20.1564
23.6670 31.9807 -22.0001
-12.7814 31.1652 -18.3563
-14.4277 27.8140 -17.0751
-17.7777 27.8687 -18.0140
-21.4472 27.7982 -19.1333
-14.6995 13.2885 -10.7986
-5.5764 4.2016 -3.8049
-14.6110 9.0872 -9.3767
-14.6880 7.4072 -8.9645
-14.6849 5.8274 -8.6096
-14.6017 4.3328 -8.3001
-14.5989 2.9463 -8.1161
-14.5963 1.6095 -8.0025
-14.5937 0.2994 -7.9545
-14.5911 -1.0055 -7.9703
-14.5887 -2.3262 -8.0506
-14.5860 -3.6846 -8.1984
-14.5832 -5.1053 -8.4201
-14.6604 -6.6538 -8.7736
-14.6572 -8.3024 -9.1798
-14.6536 -10.1263 -9.7067
-14.6496 -12.1898 -10.3856
-16.6144 -16.5455 -12.7778
-15.1273 -18.0268 -12.8243
36.9622 -19.3686 -22.7405
35.7558 -14.8381 -21.0964
30.6417 1.6321 -16.7219
30.6363 4.3964 -16.8663
26.3974 6.2321 -14.7808
23.8058 7.9196 -13.6721
22.9468 9.9862 -13.6377
22.4463 12.2563 -13.9368
22.4409 14.9963 -14.7085
26.5501 21.4005 -18.5833
25.1094 24.2374 -19.0182
23.8720 27.5635 -19.8711
22.4730 31.1853 -20.9474
-12.7813 34.1614 -19.8766
-13.6107 28.3691 -17.1470
-16.5424 27.8078 -17.6326
-20.0986 27.8008 -18.6946
-27.5776 31.7440 -22.9152
-14.6163 11.7446 -10.2180
-14.6927 9.7861 -9.6202
-14.6892 7.9916 -9.1129
-14.6260 6.3386 -8.6868
-14.6027 4.8332 -8.3823
-14.5999 3.4234 -8.1720
-14.5972 2.0720 -8.0345
-14.5946 0.7551 -7.9640
-14.5920 -0.5493 -7.9576
-14.5894 -1.8620 -8.0150
-14.5870 -3.2046 -8.1388
-14.5842 -4.6006 -8.3337
-14.6615 -6.1105 -8.6559
-14.6584 -7.7097 -9.0256
-14.6549 -9.4661 -9.5074
-14.5709 -11.3746 -10.0734
-14.5664 -13.6284 -10.8706
-15.6478 -17.5083 -12.7964
-3.0699 -15.6702 -8.7018
36.9651 -20.8640 -23.1314
35.7591 -16.1639 -21.3853
37.2725 -12.9846 -21.5089
30.6436 0.6754 -16.7033
30.6382 3.4258 -16.8004
30.6327 6.2308 -17.0351
23.8074 7.1039 -13.5392
23.4594 9.3508 -13.7624
22.4481 11.3636 -13.7112
22.4429 14.0057 -14.4164
25.1197 18.9869 -17.1595
25.5049 23.1276 -18.7624
25.0508 27.1650 -20.1373
23.7608 30.8942 -21.2393
-12.7032 37.4723 -21.5621
-13.0001 29.4139 -17.5249
-15.3909 27.8100 -17.3212
-18.8517 27.8661 -18.3342
-25.8792 31.7354 -22.3155
-14.6982 12.5842 -10.5444
-14.6137 10.4053 -9.7762
-14.6100 8.5492 -9.2247
-14.6870 6.9166 -8.8468
-14.6037 5.3442 -8.4744
-14.6008 3.9075 -8.2367
-14.5981 2.5387 -8.0747
-14.5955 1.2123 -7.9812
-14.5929 -0.0941 -7.9526
-14.5904 -1.4015 -7.9876
-14.5879 -2.7311 -8.0878
-14.5852 -4.1056 -8.2571
-14.6625 -5.5811 -8.5496
-14.6595 -7.1360 -8.8849
-14.6220 -8.8113 -9.3032
-14.6525 -10.7204 -9.8938
-14.6106 -12.8394 -10.5996
-16.1665 -16.9916 -12.7811
-14.6750 -18.4773 -12.8586
35.6992 -17.4969 -21.6653
35.7794 -13.7295 -20.8843
30.6401 2.4618 -16.7512
30.6346 5.2425 -16.9371
24.1161 6.3845 -13.5949
23.7395 8.6150 -13.7624
22.4498 10.4986 -13.5057
22.4447 13.0528 -14.1493
25.1221 17.7858 -16.7740
26.2135 22.3213 -18.7624
25.1068 25.5777 -19.5315
22.9601 28.0016 -19.7334
23.6615 34.7737 -22.9209
-12.7821 31.5454 -18.5483
-14.2994 27.8535 -17.0622
-17.6129 27.8691 -17.9661
-21.2610 27.7985 -19.0717
-14.6480 13.3546 -10.8020
-5.5648 4.2297 -3.8091
-14.6916 9.2235 -9.4532
-14.6882 7.4851 -8.9837
-14.6851 5.8992 -8.6242
-14.6018 4.3999 -8.3107
-14.5991 3.0105 -8.1232
-14.5964 1.6719 -8.0063
-14.5938 0.3610 -7.9554
-14.5913 -0.9437 -7.9681
-14.5889 -2.2631 -8.0453
-14.5862 -3.6192 -8.1898
-14.5834 -5.0364 -8.4078
-14.6606 -6.5794 -8.7570
-14.6574 -8.2210 -9.1581
-14.6538 -10.0353 -9.6787
-14.6498 -12.0857 -10.3495
-16.6845 -16.4756 -12.7781
-15.1978 -17.9565 -12.8198
36.9626 -19.5680 -22.7913
35.7563 -15.0155 -21.1338
30.6420 1.5025 -16.7184
30.6365 4.2646 -16.8564
26.9088 6.2331 -15.0523
23.8060 7.8083 -13.6531
23.1988 9.9798 -13.7624
22.4466 12.1337 -13.9051
22.4412 14.8599 -14.6674
26.5606 21.2248 -18.5279
25.1098 24.0340 -18.9416
23.9701 27.4419 -19.8561
22.4813 30.9209 -20.8333
-12.7822 34.6078 -20.1048
-13.5429 28.5358 -17.2131
-16.5362 28.0662 -17.7520
-19.9209 27.8012 -18.6382
-27.3336 31.7326 -22.8235
-14.6968 11.9117 -10.3093
-14.6928 9.8759 -9.6475
-14.6893 8.0722 -9.1340
-14.6058 6.4032 -8.6907
-14.6028 4.9017 -8.3942
-14.6000 3.4885 -8.1802
-14.5973 2.1349 -8.0395
-14.5947 0.8168 -7.9659
-14.5922 -0.4876 -7.9564
-14.5896 -1.7995 -8.0108
-14.5871 -3.1402 -8.1314
-14.5844 -4.5331 -8.3228
-14.6616 -6.0381 -8.6409
-14.6585 -7.6310 -9.0058
-14.6551 -9.3788 -9.4817
-14.5812 -11.2840 -10.0475
-14.5667 -13.5138 -10.8281
-15.7181 -17.4383 -12.7936
-3.1372 -15.6636 -8.7054
36.9655 -21.0703 -23.1871
35.7596 -16.3462 -21.4267
36.7692 -12.9835 -21.2499
30.6438 0.5461 -16.7021
30.6384 3.2950 -16.7927
30.6329 6.0964 -17.0208
23.8076 6.9948 -13.5224
23.4986 9.2517 -13.7624
22.4483 11.2450 -13.6822
22.4431 13.8747 -14.3789
25.1200 18.8211 -17.1053
25.6023 23.0198 -18.7624
25.1666 27.0606 -20.1384
23.7613 30.6265 -21.1240
-12.7042 38.0020 -21.8358
-12.9040 29.5328 -17.5631
-15.2381 27.8103 -17.2812
-18.6811 27.8665 -18.2825
-25.6573 31.7358 -22.2395
-14.6984 12.6922 -10.5829
-14.6942 10.5564 -9.8598
-14.6905 8.6797 -9.2985
-14.6872 6.9925 -8.8646
-14.6038 5.4142 -8.4877
-14.6010 3.9737 -8.2462
-14.5983 2.6022 -8.0807
-14.5956 1.2743 -7.9842
-14.5931 -0.0325 -7.9525
-14.5905 -1.3394 -7.9845
-14.5881 -2.6675 -8.0816
-14.5853 -4.0393 -8.2475
-14.5825 -5.4803 -8.4894
-14.6596 -7.0597 -8.8669
-14.6563 -8.7479 -9.3015
-14.6526 -10.6258 -9.8636
-14.6485 -12.7635 -10.5878
-16.2367 -16.9217 -12.7799
-14.7459 -18.4066 -12.8526
35.6995 -17.6842 -21.7106
35.7535 -13.8929 -20.9032
30.6403 2.3317 -16.7458
30.6349 5.1096 -16.9251
24.2560 6.3121 -13.6586
23.7756 8.5147 -13.7624
22.4500 10.3835 -13.4793
22.4450 12.9265 -14.1149
25.1224 17.6274 -16.7244
26.3074 22.2105 -18.7624
25.1072 25.3631 -19.4484
23.0977 27.9283 -19.7502
23.6621 34.4610 -22.7804
-12.7829 31.9338 -18.7448
-14.1713 27.8929 -17.0496
-17.4490 27.8695 -17.9187
-21.0760 27.7989 -19.0107
-14.6196 13.4423 -10.8228
-5.5531 4.2580 -3.8134
-14.6917 9.3103 -9.4785
-14.6883 7.5635 -9.0033
-14.6852 5.9714 -8.6390
-14.6019 4.4673 -8.3214
-14.5992 3.0748 -8.1304
-14.5965 1.7343 -8.0104
-14.5940 0.4226 -7.9563
-14.5914 -0.8819 -7.9661
-14.5890 -2.2001 -8.0402
-14.5863 -3.5540 -8.1814
-14.5835 -4.9677 -8.3957
-14.6607 -6.5053 -8.7406
-14.6575 -8.1400 -9.1367
-14.6540 -9.9449 -9.6510
-14.6500 -11.9823 -10.3138
-16.7546 -16.4058 -12.7787
-15.2684 -17.8862 -12.8155
36.9630 -19.7683 -22.8428
35.7567 -15.1935 -21.1718
30.6422 1.3729 -16.7153
30.6368 4.1329 -16.8468
27.4391 6.2342 -15.3340
23.8063 7.6972 -13.6345
23.2407 9.8818 -13.7624
22.4468 12.0117 -13.8737
22.4415 14.7242 -14.6269
26.5161 21.0066 -18.4350
25.1102 23.8322 -18.8658
24.0698 27.3226 -19.8432
22.6817 30.9213 -20.8979
-12.7830 35.0649 -20.3388
-13.5435 28.8507 -17.3684
-16.5368 28.3399 -17.8809
-19.7441 27.8015 -18.5824
-27.1016 31.7330 -22.7414
-14.6970 12.0150 -10.3449
-14.6930 9.9662 -9.6752
-14.6895 8.1531 -9.1554
-14.6863 6.5124 -8.7549
-14.6029 4.9704 -8.4062
-14.6001 3.5537 -8.1886
-14.5975 2.1978 -8.0446
-14.5949 0.8786 -7.9679
-14.5923 -0.4260 -7.9555
-14.5897 -1.7370 -8.0068
-14.5872 -3.0759 -8.1241
-14.5845 -4.4657 -8.3121
-14.6618 -5.9659 -8.6261
-14.5785 -7.5113 -8.9371
-14.6553 -9.2921 -9.4564
-14.6287 -11.2224 -10.0475
-14.5883 -13.4198 -10.8020
-15.7883 -17.3683 -12.7910
-3.2046 -15.6565 -8.7089
36.9659 -21.2777 -23.2434
35.7600 -16.5292 -21.4686
36.3520 -13.0089 -21.0404
31.8557 0.4332 -17.3614
30.6387 3.1643 -16.7854
30.6332 5.9622 -17.0069
23.9030 6.9133 -13.5599
23.5375 9.1525 -13.7624
22.4485 11.1268 -13.6536
22.4434 13.7443 -14.3418
25.1203 18.6564 -17.0518
25.6992 22.9115 -18.7624
25.1671 26.8333 -20.0481
22.4536 28.6903 -19.8537
-12.8233 29.6888 -17.6236
-15.0861 27.8106 -17.2417
-18.5114 27.8669 -18.2313
-25.4370 31.7363 -22.1644
-14.6986 12.8011 -10.6219
-5.7192 4.1454 -3.8492
-14.6907 8.7637 -9.3220
-14.6873 7.0688 -8.8826
-14.6843 5.5146 -8.5479
-14.6011 4.0399 -8.2558
-14.5984 2.6658 -8.0870
-14.5958 1.3364 -7.9872
-14.5932 0.0290 -7.9526
-14.5906 -1.2774 -7.9816
-14.5882 -2.6040 -8.0755
-14.5855 -3.9732 -8.2380
-14.5826 -5.4103 -8.4761
-14.6598 -6.9838 -8.8491
-14.5763 -8.6170 -9.2276
-14.6528 -10.5319 -9.8337
-14.6487 -12.6554 -10.5493
-16.3067 -16.8519 -12.7790
-14.8168 -18.3360 -12.8468
35.6999 -17.8725 -21.7565
35.7539 -14.0670 -20.9379
30.6406 2.2018 -16.7407
30.6351 4.9769 -16.9135
24.3971 6.2390 -13.7231
23.8048 8.4120 -13.7586
22.4910 10.2877 -13.4778
22.4452 12.8009 -14.0810
25.1227 17.4700 -16.6754
26.4010 22.0992 -18.7624
25.1076 25.1505 -19.3664
23.2967 27.9282 -19.8195
23.6627 34.1522 -22.6420
-12.7837 32.3304 -18.9458
-14.0433 27.9323 -17.0373
-17.2860 27.8699 -17.8719
-20.8922 27.7993 -18.9505
-14.6199 13.5567 -10.8652
-5.5591 4.2999 -3.8299
-14.6919 9.3975 -9.5041
-14.6885 7.6421 -9.0231
-14.6853 6.0438 -8.6540
-14.6021 4.5348 -8.3323
-14.5993 3.1392 -8.1377
-14.5967 1.7969 -8.0145
-14.5941 0.4842 -7.9574
-14.5915 -0.8201 -7.9642
-14.5891 -2.1372 -8.0352
-14.5864 -3.4889 -8.1731
-14.5837 -4.8991 -8.3838
-14.6609 -6.4315 -8.7244
-14.6577 -8.0594 -9.1155
-14.6542 -9.8549 -9.6237
-14.6502 -11.8797 -10.2786
-16.8247 -16.3360 -12.7795
-15.3389 -17.8160 -12.8115
36.9634 -19.9697 -22.8950
35.7572 -15.3721 -21.2103
41.0771 -13.4622 -23.5565
30.6425 1.2434 -16.7124
30.6371 4.0015 -16.8375
27.9904 6.2352 -15.6273
23.8065 7.5865 -13.6162
23.2822 9.7837 -13.7624
22.4470 11.8903 -13.8427
22.4417 14.5894 -14.5868
26.7018 20.9708 -18.5024
25.1106 23.6320 -18.7910
24.2106 27.2498 -19.8643
22.8832 30.9217 -20.9632
-12.7814 31.1652 -18.0881
-14.4277 27.8140 -16.8256
-17.7777 27.8687 -17.7508
-21.4473 27.7982 -18.8538
-14.6995 13.2885 -10.6408
-5.5762 4.2014 -3.7492
-14.6110 9.0872 -9.2396
-14.6880 7.4072 -8.8335
-14.6046 5.7955 -8.4374
-14.6017 4.3328 -8.1788
-14.5989 2.9463 -7.9975
-14.5963 1.6095 -7.8855
-14.5937 0.2994 -7.8383
-14.5911 -1.0055 -7.8539
-14.5887 -2.3262 -7.9329
-14.5860 -3.6846 -8.0786
-14.5832 -5.1053 -8.2970
-14.6604 -6.6538 -8.6454
-14.6572 -8.3024 -9.0457
-14.6536 -10.1263 -9.5649
-14.6496 -12.1898 -10.2338
-16.6144 -16.5454 -12.5911
-15.1273 -18.0268 -12.6369
35.7015 -18.7080 -21.6440
35.7558 -14.8381 -20.7881
30.6417 1.6321 -16.4776
30.6363 4.3964 -16.6199
26.3974 6.2321 -14.5648
23.8058 7.9196 -13.4723
22.9468 9.9862 -13.4384
22.4463 12.2563 -13.7332
22.4409 14.9963 -14.4936
25.1225 20.2498 -17.3273
25.1390 24.2659 -18.7624
23.8720 27.5635 -19.5807
22.4730 31.1853 -20.6413
-12.7813 34.1614 -19.5862
-13.6107 28.3691 -16.8965
-16.5424 27.8078 -17.3749
-20.1435 27.8629 -18.4626
