ply
format ascii 1.0
element vertex 2176
property float32 x
property float32 y
property float32 z
end_header
-1.7985 -0.7221 0.3623
-9.3234 -4.7496 1.9560
-8.8261 -5.5401 1.9480
-7.5919 -5.7703 1.7826
-7.0318 -6.4113 1.7788
-6.4158 -6.9962 1.7745
-5.7498 -7.5200 1.7696
-5.0387 -7.9762 1.7636
-4.2911 -8.3638 1.7572
-3.5141 -8.6802 1.7505
-2.1160 -6.9561 1.3592
-1.1353 -5.4350 1.0379
-1.0756 -9.1866 1.7290
-0.2503 -9.2061 1.7216
0.5699 -9.1518 1.7141
1.3804 -9.0381 1.7091
2.1595 -8.7888 1.6918
2.8977 -8.4514 1.6701
3.6363 -8.1499 1.6682
4.3439 -7.7832 1.6662
5.4763 -8.0319 1.8172
6.1713 -7.5111 1.8172
1.2623 -1.2833 0.3365
1.3775 -1.1704 0.3379
1.4836 -1.0478 0.3395
1.5797 -0.9161 0.3414
1.6651 -0.7761 0.3434
1.7389 -0.6284 0.3456
1.8006 -0.4740 0.3481
1.8494 -0.3137 0.3507
1.8847 -0.1486 0.3534
1.9059 0.0204 0.3563
1.9125 0.1920 0.3593
1.9041 0.3651 0.3624
1.8803 0.5383 0.3656
1.8410 0.7102 0.3689
8.7978 4.3322 1.8332
8.3752 5.0996 1.8330
7.8878 5.8277 1.8333
7.3393 6.5111 1.8340
6.7334 7.1450 1.8353
6.0744 7.7246 1.8370
5.3670 8.2455 1.8391
4.6161 8.7038 1.8417
3.8271 9.0959 1.8447
3.0055 9.4186 1.8481
2.1568 9.6668 1.8515
1.2873 9.8352 1.8542
0.4050 9.9259 1.8570
-0.4833 9.9379 1.8599
-1.3701 9.8676 1.8623
-2.2480 9.7174 1.8645
-3.1107 9.4914 1.8671
-3.9614 9.2130 1.8747
-4.7911 8.8657 1.8838
-5.5900 8.4431 1.8929
-6.3510 7.9477 1.9018
-7.0671 7.3827 1.9105
-7.7316 6.7520 1.9188
-1.7172 1.2481 0.3968
-1.8105 1.0831 0.3944
-1.8872 0.9110 0.3917
-1.9467 0.7336 0.3889
-1.9890 0.5526 0.3859
-2.0140 0.3699 0.3828
-2.0219 0.1871 0.3796
-2.0131 0.0058 0.3763
-1.9881 -0.1724 0.3730
-1.9474 -0.3460 0.3697
-1.8919 -0.5139 0.3665
-1.8223 -0.6747 0.3633
-9.4604 -4.4997 1.9583
-8.9841 -5.3043 1.9503
-8.0486 -5.7789 1.8522
-7.2084 -6.2219 1.7800
-6.6088 -6.8244 1.7759
-5.9574 -7.3673 1.7711
-5.2592 -7.8445 1.7655
-4.5220 -8.2533 1.7592
-3.7532 -8.5916 1.7526
-1.9385 -5.8011 1.1434
-2.1485 -9.0489 1.7386
-1.3267 -9.1658 1.7312
-0.5012 -9.2080 1.7238
0.3213 -9.1761 1.7164
1.1362 -9.0888 1.7122
1.9275 -8.8803 1.6987
2.6719 -8.5432 1.6733
3.4147 -8.2489 1.6689
4.1322 -7.9014 1.6668
4.8260 -7.5090 1.6686
5.9648 -7.6761 1.8172
6.6261 -7.1131 1.8172
1.3434 -1.2058 0.3374
1.4523 -1.0860 0.3390
1.5516 -0.9571 0.3408
1.6403 -0.8195 0.3428
1.7177 -0.6741 0.3449
1.7832 -0.5217 0.3473
1.8360 -0.3631 0.3498
1.8754 -0.1993 0.3525
1.9009 -0.0313 0.3554
1.9120 0.1396 0.3584
1.9082 0.3124 0.3615
1.8892 0.4857 0.3646
1.8546 0.6581 0.3679
1.8044 0.8284 0.3712
8.5108 4.8700 1.8330
8.0428 5.6106 1.8331
7.5125 6.3082 1.8337
6.9236 6.9576 1.8348
6.2803 7.5542 1.8364
5.5871 8.0935 1.8384
4.8489 8.5712 1.8409
4.0709 8.9838 1.8437
3.2586 9.3279 1.8470
2.4178 9.6005 1.8507
1.5536 9.7921 1.8534
0.6744 9.9066 1.8561
-0.2128 9.9426 1.8590
-1.1009 9.8976 1.8616
-1.9822 9.7714 1.8638
-2.8497 9.5665 1.8659
-3.7041 9.3041 1.8720
-4.5416 8.9795 1.8810
-5.3506 8.5795 1.8901
-6.1239 8.1060 1.8991
-6.8544 7.5618 1.9078
-7.5353 6.9506 1.9163
-1.6856 1.2966 0.3975
-1.7839 1.1342 0.3952
-1.8657 0.9640 0.3926
-1.9304 0.7880 0.3898
-1.9780 0.6080 0.3868
-2.0082 0.4256 0.3837
-2.0213 0.2426 0.3806
-2.0175 0.0607 0.3773
-1.9974 -0.1185 0.3740
-1.9614 -0.2937 0.3707
-1.9103 -0.4635 0.3675
-1.8449 -0.6266 0.3642
-1.7662 -0.7819 0.3611
-9.1369 -5.0646 1.9528
-8.6191 -5.8400 1.9462
-7.3797 -6.0275 1.7812
-6.7970 -6.6472 1.7772
-6.1607 -7.2087 1.7726
-5.4762 -7.7066 1.7673
-4.7500 -8.1363 1.7612
-3.9901 -8.4963 1.7546
-2.0860 -5.7202 1.1382
-1.9328 -7.2563 1.4037
-1.5775 -9.1382 1.7335
-0.7524 -9.2031 1.7261
0.0717 -9.1936 1.7186
0.8886 -9.1164 1.7122
1.6901 -8.9546 1.7035
2.4526 -8.6624 1.6829
3.1903 -8.3418 1.6695
3.9172 -8.0138 1.6674
4.6112 -7.6229 1.6654
5.7538 -7.8354 1.8172
6.4302 -7.2906 1.8172
1.3084 -1.2403 0.3370
1.4202 -1.1235 0.3385
1.5224 -0.9973 0.3402
1.6144 -0.8622 0.3421
1.6954 -0.7191 0.3443
1.7646 -0.5687 0.3466
1.8213 -0.4119 0.3491
1.8649 -0.2496 0.3517
1.8947 -0.0828 0.3545
1.9102 0.0873 0.3575
1.9110 0.2597 0.3605
1.8966 0.4330 0.3637
1.8668 0.6058 0.3669
1.8214 0.7769 0.3701
8.6403 4.6369 1.8330
8.1920 5.3896 1.8330
7.6802 6.1008 1.8335
7.1087 6.7654 1.8345
6.4815 7.3786 1.8359
5.8030 7.9357 1.8377
5.0780 8.4326 1.8401
4.3115 8.8654 1.8428
3.5091 9.2306 1.8460
2.6764 9.5253 1.8495
1.8185 9.7419 1.8525
0.9431 9.8800 1.8553
0.0576 9.9400 1.8581
-0.8310 9.9203 1.8609
-1.7151 9.8182 1.8631
-2.5876 9.6371 1.8653
-3.4455 9.3898 1.8697
-4.2894 9.0862 1.8783
-5.1078 8.7092 1.8874
-5.8928 8.2577 1.8964
-6.6371 7.7347 1.9052
-7.3337 7.1434 1.9138
-1.6525 1.3442 0.3982
-1.7557 1.1845 0.3959
-1.8426 1.0165 0.3934
-1.9125 0.8421 0.3906
-1.9654 0.6631 0.3877
-2.0009 0.4812 0.3847
-2.0191 0.2983 0.3815
-2.0205 0.1159 0.3783
-2.0052 -0.0644 0.3750
-1.9740 -0.2409 0.3717
-1.9274 -0.4125 0.3685
-1.8663 -0.5777 0.3652
-1.7915 -0.7355 0.3620
-9.2829 -4.8203 1.9553
-8.7810 -5.6075 1.9476
-7.5455 -5.8282 1.7823
-6.9803 -6.4646 1.7785
-6.3597 -7.0443 1.7741
-5.6895 -7.5624 1.7691
-4.9749 -8.0128 1.7631
-4.2245 -8.3942 1.7567
-3.4452 -8.7043 1.7499
-2.0671 -6.9903 1.3626
-1.0928 -5.4427 1.0377
-1.0037 -9.1912 1.7284
-0.1785 -9.2043 1.7209
0.6409 -9.1436 1.7134
1.4498 -9.0210 1.7080
2.2252 -8.7616 1.6898
2.9634 -8.4286 1.6701
3.6993 -8.1204 1.6681
4.4038 -7.7483 1.6660
5.5386 -7.9890 1.8172
6.2296 -7.4628 1.8172
1.2727 -1.2738 0.3366
1.3871 -1.1601 0.3380
1.4924 -1.0366 0.3397
1.5876 -0.9042 0.3415
1.6720 -0.7635 0.3436
1.7448 -0.6152 0.3458
1.8054 -0.4603 0.3483
1.8530 -0.2995 0.3509
1.8871 -0.1340 0.3536
1.9070 0.0353 0.3565
1.9123 0.2071 0.3596
1.9026 0.3802 0.3627
1.8775 0.5533 0.3659
1.8368 0.7251 0.3692
8.7636 4.4005 1.8331
8.3352 5.1647 1.8330
7.8424 5.8891 1.8333
7.2887 6.5684 1.8341
6.6780 7.1977 1.8354
6.0146 7.7724 1.8371
5.3032 8.2880 1.8393
4.5488 8.7407 1.8419
3.7567 9.1269 1.8450
2.9326 9.4433 1.8484
2.0818 9.6846 1.8517
1.2109 9.8462 1.8544
0.3278 9.9301 1.8573
-0.5607 9.9351 1.8602
-1.4470 9.8577 1.8625
-2.3238 9.7005 1.8646
-3.1856 9.4700 1.8677
-4.0347 9.1858 1.8755
-4.8620 8.8319 1.8846
-5.6579 8.4028 1.8936
-6.4153 7.9012 1.9025
-7.1272 7.3303 1.9112
-1.6180 1.3909 0.3989
-1.7260 1.2340 0.3966
-1.8179 1.0684 0.3942
-1.8931 0.8958 0.3915
-1.9511 0.7179 0.3886
-1.9919 0.5368 0.3856
-2.0154 0.3539 0.3825
-2.0218 0.1712 0.3793
-2.0116 -0.0098 0.3760
-1.9851 -0.1877 0.3727
-1.9431 -0.3609 0.3694
-1.8864 -0.5282 0.3662
-1.8157 -0.6884 0.3630
-9.4219 -4.5717 1.9576
-8.9392 -5.3721 1.9495
-7.8739 -5.7470 1.8222
-7.1584 -6.2767 1.7797
-6.5540 -6.8742 1.7755
-5.8984 -7.4117 1.7707
-5.1964 -7.8829 1.7649
-4.4562 -8.2856 1.7586
-3.6850 -8.6177 1.7520
-1.9192 -5.8958 1.1590
-2.0773 -9.0621 1.7379
-1.2549 -9.1725 1.7306
-0.4293 -9.2082 1.7232
0.3925 -9.1698 1.7157
1.2068 -9.0785 1.7120
1.9942 -8.8547 1.6967
2.7357 -8.5140 1.6717
3.4784 -8.2211 1.6687
4.1931 -7.8681 1.6666
4.8733 -7.4543 1.6648
6.0243 -7.6294 1.8172
6.6813 -7.0613 1.8172
1.3533 -1.1957 0.3376
1.4614 -1.0752 0.3391
1.5597 -0.9454 0.3409
1.6475 -0.8071 0.3429
1.7239 -0.6611 0.3451
1.7883 -0.5081 0.3475
1.8399 -0.3490 0.3501
1.8782 -0.1848 0.3528
1.9025 -0.0166 0.3556
1.9123 0.1546 0.3586
1.9072 0.3275 0.3617
1.8868 0.5007 0.3649
1.8509 0.6731 0.3682
8.8807 4.1609 1.8333
8.4726 4.9361 1.8330
7.9990 5.6732 1.8332
7.4634 6.3667 1.8338
6.8696 7.0118 1.8350
6.2218 7.6035 1.8366
5.5245 8.1376 1.8386
4.7826 8.6098 1.8411
4.0014 9.0166 1.8440
3.1864 9.3545 1.8473
2.3433 9.6202 1.8509
1.4775 9.8052 1.8536
0.5974 9.9129 1.8564
-0.2902 9.9420 1.8593
-1.1780 9.8898 1.8618
-2.0584 9.7567 1.8640
-2.9244 9.5450 1.8661
-3.7779 9.2785 1.8727
-4.6133 8.9476 1.8818
-5.4195 8.5412 1.8909
-6.1893 8.0614 1.8999
-6.9158 7.5111 1.9086
-7.5920 6.8943 1.9170
-1.6948 1.2828 0.3973
-1.7917 1.1196 0.3949
-1.8720 0.9489 0.3923
-1.9353 0.7725 0.3895
-1.9813 0.5921 0.3866
-2.0101 0.4096 0.3835
-2.0217 0.2267 0.3803
-2.0164 0.0450 0.3770
-1.9949 -0.1340 0.3737
-1.9575 -0.3088 0.3704
-1.9052 -0.4780 0.3672
-1.8386 -0.6404 0.3639
-1.7587 -0.7950 0.3608
-9.0939 -5.1337 1.9521
-8.5103 -5.8635 1.9319
-7.3312 -6.0837 1.7808
-6.7436 -6.6985 1.7768
-6.1030 -7.2547 1.7722
-5.4145 -7.7467 1.7668
-4.6851 -8.1704 1.7606
-3.9225 -8.5242 1.7541
-2.0364 -5.7222 1.1354
-2.3258 -9.0136 1.7401
-1.5057 -9.1468 1.7328
-0.6804 -9.2052 1.7254
0.1432 -9.1893 1.7180
0.9596 -9.1092 1.7122
1.7583 -8.9340 1.7021
2.5159 -8.6288 1.6802
3.2548 -8.3158 1.6693
3.9791 -7.9822 1.6673
4.6699 -7.5859 1.6652
5.8147 -7.7904 1.8172
6.4868 -7.2403 1.8172
1.3185 -1.2305 0.3371
1.4295 -1.1129 0.3386
1.5309 -0.9858 0.3404
1.6219 -0.8501 0.3423
1.7019 -0.7063 0.3444
1.7700 -0.5553 0.3468
1.8256 -0.3980 0.3493
1.8680 -0.2352 0.3519
1.8966 -0.0681 0.3548
1.9109 0.1023 0.3577
1.9103 0.2748 0.3608
1.8946 0.4480 0.3639
1.8635 0.6208 0.3672
1.8167 0.7917 0.3704
8.6039 4.7040 1.8330
8.1498 5.4532 1.8331
7.6327 6.1606 1.8336
7.0562 6.8209 1.8346
6.4244 7.4294 1.8360
5.7416 7.9814 1.8379
5.0128 8.4729 1.8403
4.2430 8.8999 1.8431
3.4376 9.2592 1.8463
2.6026 9.5476 1.8499
1.7428 9.7570 1.8528
0.8663 9.8884 1.8555
-0.0198 9.9415 1.8584
-0.9083 9.9145 1.8611
-1.7917 9.8056 1.8633
-2.6628 9.6176 1.8655
-3.5196 9.3655 1.8703
-4.3618 9.0564 1.8790
-5.1776 8.6728 1.8882
-5.9594 8.2150 1.8972
-6.6997 7.6858 1.9060
-7.3920 7.0888 1.9145
-1.6621 1.3307 0.3980
-1.7639 1.1701 0.3957
-1.8493 1.0015 0.3931
-1.9178 0.8267 0.3904
-1.9691 0.6473 0.3875
-2.0031 0.4653 0.3844
-2.0199 0.2823 0.3813
-2.0198 0.1001 0.3780
-2.0031 -0.0799 0.3747
-1.9705 -0.2561 0.3715
-1.9226 -0.4271 0.3682
-1.8603 -0.5918 0.3649
-1.7844 -0.7489 0.3617
-9.2418 -4.8907 1.9546
-8.7353 -5.6746 1.9472
-7.4986 -5.8858 1.7820
-6.9283 -6.5174 1.7781
-6.3032 -7.0920 1.7736
-5.6288 -7.6043 1.7686
-4.9108 -8.0488 1.7625
-4.1576 -8.4241 1.7561
-3.3761 -8.7279 1.7493
-2.0185 -7.0268 1.3667
-1.0502 -5.4505 1.0376
-0.9317 -9.1953 1.7277
-0.1068 -9.2019 1.7203
0.7118 -9.1349 1.7128
1.5190 -9.0034 1.7068
2.2908 -8.7339 1.6879
3.0287 -8.4045 1.6700
3.7620 -8.0905 1.6679
4.4636 -7.7130 1.6658
5.6007 -7.9456 1.8172
6.2875 -7.4140 1.8172
1.2830 -1.2643 0.3367
1.3967 -1.1497 0.3382
1.5011 -1.0254 0.3398
1.5954 -0.8923 0.3417
1.6788 -0.7509 0.3438
1.7506 -0.6020 0.3460
1.8101 -0.4465 0.3485
1.8565 -0.2853 0.3511
1.8894 -0.1194 0.3539
1.9081 0.0502 0.3568
1.9121 0.2221 0.3598
1.9010 0.3953 0.3630
1.8746 0.5684 0.3662
1.8326 0.7400 0.3694
8.7290 4.4685 1.8331
8.2948 5.2295 1.8330
7.7966 5.9501 1.8334
7.2377 6.6253 1.8342
6.6222 7.2500 1.8355
5.9545 7.8197 1.8373
5.2391 8.3300 1.8395
4.4812 8.7770 1.8422
3.6861 9.1572 1.8453
2.8595 9.4675 1.8487
2.0065 9.7017 1.8519
1.1343 9.8566 1.8547
0.2504 9.9337 1.8575
-0.6382 9.9318 1.8604
-1.5239 9.8471 1.8627
-2.3995 9.6831 1.8648
-3.2602 9.4478 1.8683
-4.1079 9.1580 1.8763
-4.9327 8.7974 1.8854
-5.7255 8.3620 1.8944
-6.4793 7.8542 1.9033
-7.1868 7.2774 1.9119
-1.6280 1.3776 0.3987
-1.7347 1.2199 0.3964
-1.8251 1.0536 0.3939
-1.8988 0.8804 0.3912
-1.9554 0.7023 0.3884
-1.9946 0.5209 0.3854
-2.0166 0.3380 0.3822
-2.0216 0.1553 0.3790
-2.0099 -0.0255 0.3757
-1.9821 -0.2030 0.3725
-1.9388 -0.3757 0.3692
-1.8808 -0.5424 0.3659
-1.8089 -0.7019 0.3627
-9.3828 -4.6433 1.9570
-8.8937 -5.4394 1.9488
-7.7108 -5.7204 1.7947
-7.1079 -6.3310 1.7793
-6.4988 -6.9235 1.7751
-5.8390 -7.4555 1.7702
-5.1333 -7.9207 1.7644
-4.3901 -8.3174 1.7581
-3.6165 -8.6432 1.7514
-2.1897 -6.9090 1.3548
-1.2102 -5.4751 1.0482
-1.1829 -9.1786 1.7300
-0.3575 -9.2078 1.7225
0.4638 -9.1630 1.7151
1.2766 -9.0627 1.7108
2.0608 -8.8286 1.6947
2.8007 -8.4889 1.6710
3.5420 -8.1929 1.6685
4.2538 -7.8344 1.6665
4.9311 -7.4161 1.6648
6.0836 -7.5823 1.8172
6.7360 -7.0090 1.8172
1.3630 -1.1856 0.3377
1.4703 -1.0642 0.3393
1.5678 -0.9337 0.3411
1.6546 -0.7947 0.3431
1.7300 -0.6480 0.3453
1.7933 -0.4944 0.3477
1.8438 -0.3349 0.3503
1.8809 -0.1703 0.3530
1.9039 -0.0017 0.3559
1.9125 0.1696 0.3589
1.9060 0.3426 0.3620
1.8843 0.5158 0.3652
1.7837 0.6722 0.3685
1.7314 0.8359 0.3717
8.1456 4.8732 1.8350
7.6791 5.5816 1.8352
7.1530 6.2470 1.8359
6.5710 6.8648 1.8370
5.9373 7.4304 1.8387
5.2563 7.9395 1.8407
4.5327 8.3882 1.8432
3.7719 8.7729 1.8460
2.9789 9.0901 1.8492
2.1586 9.3323 1.8517
1.3189 9.5012 1.8543
0.4663 9.5950 1.8570
-0.3924 9.6120 1.8597
-1.2502 9.5497 1.8619
-2.1000 9.4108 1.8640
-2.9349 9.1963 1.8661
-3.7587 8.9330 1.8735
-4.5625 8.6022 1.8824
-5.3368 8.1987 1.8911
-6.0748 7.7247 1.8997
-6.7698 7.1833 1.9081
-1.5402 1.3663 0.3980
-1.6473 1.2170 0.3959
-1.7390 1.0588 0.3936
-1.8148 0.8936 0.3910
-1.8742 0.7230 0.3883
-1.9169 0.5487 0.3855
-1.9431 0.3725 0.3825
-1.9527 0.1960 0.3794
-1.9461 0.0208 0.3762
-1.9238 -0.1517 0.3731
-1.8864 -0.3201 0.3699
-1.8345 -0.4830 0.3667
-1.7689 -0.6393 0.3636
-1.6905 -0.7880 0.3606
-8.7130 -5.0531 1.9471
-8.2007 -5.7919 1.9408
-7.0081 -5.9544 1.7777
-6.4342 -6.5415 1.7738
-5.8099 -7.0715 1.7692
-5.1404 -7.5398 1.7641
-4.4319 -7.9414 1.7581
-3.6920 -8.2753 1.7517
-1.9735 -5.7565 1.1764
-2.1452 -8.7319 1.7382
-1.3518 -8.8525 1.7312
-0.5540 -8.9008 1.7240
0.2416 -8.8774 1.7168
1.0306 -8.8000 1.7128
1.7984 -8.6084 1.7001
2.5246 -8.2985 1.6768
3.2403 -8.0035 1.6692
3.9370 -7.6730 1.6672
4.6006 -7.2823 1.6652
5.7098 -7.4673 1.8172
6.3535 -6.9279 1.8172
1.2928 -1.1786 0.3382
1.3990 -1.0632 0.3397
1.4958 -0.9388 0.3414
1.5824 -0.8060 0.3433
1.6581 -0.6656 0.3454
1.7222 -0.5184 0.3477
1.7740 -0.3652 0.3501
1.8129 -0.2069 0.3527
1.8383 -0.0446 0.3555
1.8498 0.1206 0.3584
1.8469 0.2876 0.3613
1.8292 0.4551 0.3644
1.7966 0.6218 0.3675
1.7489 0.7864 0.3707
8.2751 4.6501 1.8350
7.8275 5.3703 1.8351
7.3192 6.0494 1.8356
6.7538 6.6822 1.8366
6.1354 7.2641 1.8381
5.4682 7.7908 1.8400
4.7571 8.2582 1.8424
4.0070 8.6628 1.8451
3.2233 9.0012 1.8483
2.4106 9.2663 1.8509
1.5761 9.4577 1.8535
0.7268 9.5744 1.8562
-0.1309 9.6154 1.8590
-0.9897 9.5768 1.8612
-1.8427 9.4611 1.8633
-2.6827 9.2692 1.8654
-3.5094 9.0189 1.8708
-4.3208 8.7107 1.8797
-5.1047 8.3290 1.8885
-5.8545 7.8762 1.8971
-6.5633 7.3549 1.9056
-7.2245 6.7688 1.9138
-1.6163 1.2634 0.3966
-1.7128 1.1078 0.3943
-1.7934 0.9445 0.3918
-1.8578 0.7753 0.3892
-1.9057 0.6020 0.3863
-1.9369 0.4262 0.3834
-1.9515 0.2497 0.3803
-1.9498 0.0739 0.3772
-1.9323 -0.0996 0.3740
-1.8994 -0.2693 0.3708
-1.8518 -0.4340 0.3677
-1.7903 -0.5925 0.3645
-1.7157 -0.7436 0.3615
-8.8582 -4.8203 1.9495
-8.3612 -5.5708 1.9423
-7.1807 -5.7723 1.7810
-6.6145 -6.3687 1.7750
-6.0049 -6.9166 1.7707
-5.3488 -7.4044 1.7658
-4.6511 -7.8262 1.7599
-3.9201 -8.1810 1.7537
-2.1424 -5.7357 1.1836
-2.0066 -7.3044 1.4644
-0.9944 -5.5042 1.0813
-0.7969 -8.8937 1.7262
0.0001 -8.8921 1.7190
0.7909 -8.8248 1.7128
1.5679 -8.6778 1.7047
2.3096 -8.4065 1.6853
3.0226 -8.0916 1.6698
3.7282 -7.7801 1.6678
4.4025 -7.4074 1.6658
5.5047 -7.6198 1.8172
6.1628 -7.0981 1.8172
1.2587 -1.2119 0.3378
1.3676 -1.0993 0.3392
1.4674 -0.9776 0.3408
1.5571 -0.8473 0.3427
1.6362 -0.7091 0.3447
1.7039 -0.5639 0.3470
1.7596 -0.4124 0.3494
1.8025 -0.2556 0.3519
1.8321 -0.0944 0.3546
1.8478 0.0701 0.3575
1.8493 0.2366 0.3604
1.8362 0.4041 0.3635
1.8081 0.5713 0.3666
1.7650 0.7367 0.3697
8.3976 4.4228 1.8348
7.9703 5.1553 1.8350
7.4801 5.8474 1.8354
6.9317 6.4948 1.8363
6.3289 7.0927 1.8376
5.6761 7.6366 1.8394
4.9778 8.1225 1.8416
4.2391 8.5466 1.8442
3.4650 8.9054 1.8473
2.6605 9.1935 1.8502
1.8319 9.4072 1.8527
0.9864 9.5469 1.8554
0.1306 9.6110 1.8581
-0.7287 9.5968 1.8605
-1.5842 9.5044 1.8627
-2.4289 9.3356 1.8648
-3.2594 9.1012 1.8688
-4.0764 8.8123 1.8770
-4.8695 8.4528 1.8858
-5.6304 8.0214 1.8945
-6.3523 7.5206 1.9031
-7.0287 6.9538 1.9114
-1.5839 1.3090 0.3972
-1.6850 1.1560 0.3950
-1.7706 0.9949 0.3926
-1.8400 0.8273 0.3900
-1.8929 0.6551 0.3872
-1.9291 0.4799 0.3843
-1.9488 0.3034 0.3813
-1.9520 0.1272 0.3782
-1.9392 -0.0471 0.3750
-1.9109 -0.2182 0.3718
-1.8678 -0.3845 0.3686
-1.8104 -0.5450 0.3655
-1.7397 -0.6985 0.3624
-8.9968 -4.5832 1.9519
-8.5168 -5.3459 1.9439
-7.4430 -5.6570 1.8073
-6.7898 -6.1907 1.7763
-6.1956 -6.7560 1.7721
-5.5530 -7.2625 1.7673
-4.8673 -7.7049 1.7618
-4.1456 -8.0803 1.7556
-3.3954 -8.3870 1.7492
-2.1428 -7.0442 1.4234
-1.1353 -5.4349 1.0733
-1.0397 -8.8800 1.7284
-0.2420 -8.9001 1.7212
0.5510 -8.8489 1.7139
1.3347 -8.7389 1.7089
2.0883 -8.4994 1.6919
2.8023 -8.1731 1.6703
3.5166 -7.8815 1.6684
4.2009 -7.5271 1.6664
4.8514 -7.1153 1.6648
5.9675 -7.2631 1.8172
1.2239 -1.2442 0.3374
1.3354 -1.1346 0.3387
1.4380 -1.0156 0.3403
1.5309 -0.8878 0.3421
1.6133 -0.7520 0.3441
1.6846 -0.6088 0.3463
1.7440 -0.4591 0.3486
1.7908 -0.3038 0.3511
1.8245 -0.1438 0.3538
1.8445 0.0197 0.3566
1.8504 0.1858 0.3595
1.8418 0.3532 0.3625
1.8183 0.5205 0.3656
1.7797 0.6866 0.3688
8.5138 4.1924 1.8346
8.1074 4.9366 1.8350
7.6356 5.6413 1.8352
7.1045 6.3028 1.8360
6.5178 6.9163 1.8372
5.8798 7.4771 1.8388
5.1948 7.9810 1.8409
4.4678 8.4243 1.8434
3.7040 8.8033 1.8463
2.9084 9.1140 1.8494
2.0861 9.3500 1.8519
1.2451 9.5123 1.8546
0.3917 9.5996 1.8573
-0.4673 9.6097 1.8599
-1.3247 9.5407 1.8620
-2.1734 9.3950 1.8642
-3.0076 9.1768 1.8669
-3.8299 8.9071 1.8743
-4.6312 8.5699 1.8831
-5.4027 8.1601 1.8919
-6.1372 7.6801 1.9005
-6.8281 7.1330 1.9089
-1.5501 1.3537 0.3978
-1.6559 1.2035 0.3957
-1.7463 1.0447 0.3934
-1.8206 0.8789 0.3908
-1.8785 0.7079 0.3881
-1.9199 0.5334 0.3852
-1.9446 0.3571 0.3822
-1.9528 0.1807 0.3791
-1.9448 0.0056 0.3760
-1.9212 -0.1666 0.3728
-1.8824 -0.3345 0.3696
-1.8293 -0.4969 0.3664
-1.7626 -0.6526 0.3633
-1.6831 -0.8005 0.3603
-8.6703 -5.1190 1.9464
-8.0267 -5.7632 1.9102
-6.9602 -6.0077 1.7774
-6.3818 -6.5900 1.7734
-5.7533 -7.1149 1.7688
-5.0801 -7.5774 1.7636
-4.3686 -7.9732 1.7575
-3.6263 -8.3011 1.7512
-1.9385 -5.8011 1.1824
-2.0764 -8.7453 1.7376
-1.2824 -8.8595 1.7305
-0.4845 -8.9016 1.7234
0.3106 -8.8720 1.7161
1.0991 -8.7917 1.7128
1.8638 -8.5867 1.6986
2.5850 -8.2654 1.6742
3.3022 -7.9772 1.6690
3.9962 -7.6414 1.6670
4.6567 -7.2455 1.6650
5.7678 -7.4226 1.8172
1.1883 -1.2756 0.3370
1.3024 -1.1689 0.3383
1.4078 -1.0527 0.3398
1.5037 -0.9276 0.3415
1.5894 -0.7941 0.3435
1.6641 -0.6531 0.3456
1.7272 -0.5053 0.3479
1.7779 -0.3516 0.3503
1.8157 -0.1929 0.3530
1.8399 -0.0303 0.3557
1.8501 0.1351 0.3586
1.8460 0.3022 0.3616
1.8270 0.4697 0.3647
1.7931 0.6363 0.3678
1.7440 0.8006 0.3710
8.2387 4.7143 1.8350
7.7856 5.4312 1.8351
7.2722 6.1064 1.8357
6.7020 6.7350 1.8368
6.0791 7.3122 1.8383
5.4079 7.8339 1.8402
4.6932 8.2960 1.8426
3.9400 8.6950 1.8454
3.1536 9.0274 1.8486
2.3386 9.2859 1.8512
1.5026 9.4708 1.8537
0.6522 9.5810 1.8564
-0.2058 9.6154 1.8592
-1.0644 9.5698 1.8614
-1.9165 9.4474 1.8635
-2.7551 9.2490 1.8656
-3.5811 8.9950 1.8716
-4.3903 8.6803 1.8805
-5.1715 8.2924 1.8892
-5.9180 7.8334 1.8979
-6.6229 7.3064 1.9063
-7.2797 6.7148 1.9145
-1.6253 1.2502 0.3964
-1.7204 1.0938 0.3941
-1.7997 0.9300 0.3916
-1.8627 0.7604 0.3889
-1.9091 0.5868 0.3861
-1.9388 0.4109 0.3831
-1.9520 0.2343 0.3801
-1.9489 0.0587 0.3769
-1.9300 -0.1145 0.3738
-1.8958 -0.2839 0.3706
-1.8470 -0.4481 0.3674
-1.7843 -0.6060 0.3643
-1.7086 -0.7564 0.3612
-8.8173 -4.8874 1.9489
-8.3159 -5.6346 1.9419
-7.1255 -5.8199 1.7785
-6.5634 -6.4187 1.7747
-5.9494 -6.9615 1.7703
-5.2895 -7.4439 1.7653
-4.5886 -7.8598 1.7594
-3.8550 -8.2086 1.7531
-2.0860 -5.7202 1.1770
-2.3163 -8.6962 1.7397
-0.9741 -5.6430 1.1070
-0.7273 -8.8964 1.7256
0.0693 -8.8885 1.7183
0.8596 -8.8183 1.7128
1.6342 -8.6585 1.7034
2.3724 -8.3789 1.6835
3.0852 -8.0670 1.6696
3.7883 -7.7500 1.6676
4.4596 -7.3721 1.6656
5.5639 -7.5767 1.8172
6.2179 -7.0499 1.8172
1.2685 -1.2024 0.3379
1.3767 -1.0891 0.3393
1.4756 -0.9666 0.3410
1.5645 -0.8356 0.3429
1.6426 -0.6967 0.3449
1.7093 -0.5509 0.3472
1.7638 -0.3989 0.3496
1.8056 -0.2417 0.3522
1.8340 -0.0802 0.3549
1.8485 0.0845 0.3577
1.8488 0.2512 0.3607
1.8343 0.4187 0.3637
1.8050 0.5858 0.3668
1.7605 0.7509 0.3700
8.3633 4.4882 1.8348
7.9300 5.2172 1.8350
7.4346 5.9057 1.8355
6.8812 6.5489 1.8364
6.2739 7.1423 1.8378
5.6170 7.6813 1.8396
4.9150 8.1620 1.8418
4.1729 8.5805 1.8445
3.3961 8.9335 1.8476
2.5892 9.2150 1.8504
1.7588 9.4224 1.8529
0.9121 9.5555 1.8556
0.0557 9.6130 1.8584
-0.8035 9.5918 1.8607
-1.6583 9.4928 1.8629
-2.5017 9.3174 1.8650
-3.3312 9.0781 1.8694
-4.1466 8.7839 1.8778
-4.9372 8.4181 1.8866
-5.6949 7.9804 1.8953
-6.4132 7.4738 1.9038
-7.0853 6.9014 1.9121
-1.5933 1.2960 0.3970
-1.6931 1.1423 0.3948
-1.7773 0.9805 0.3924
-1.8453 0.8125 0.3898
-1.8967 0.6399 0.3870
-1.9315 0.4645 0.3840
-1.9497 0.2880 0.3810
-1.9515 0.1119 0.3779
-1.9374 -0.0622 0.3747
-1.9078 -0.2329 0.3715
-1.8633 -0.3988 0.3684
-1.8048 -0.5587 0.3652
-1.7329 -0.7115 0.3621
-8.9578 -4.6515 1.9512
-8.4719 -5.4102 1.9432
-7.3026 -5.6406 1.7838
-6.7401 -6.2422 1.7759
-6.1414 -6.8025 1.7717
-5.4949 -7.3038 1.7669
-4.8057 -7.7402 1.7612
-4.0813 -8.1098 1.7551
-3.3289 -8.4104 1.7486
-2.0945 -7.0831 1.4279
-1.0927 -5.4426 1.0731
-0.9702 -8.8846 1.7277
-0.1726 -8.8985 1.7205
0.6197 -8.8411 1.7133
1.4018 -8.7225 1.7078
2.1520 -8.4734 1.6900
2.8656 -8.1503 1.6701
3.5775 -7.8531 1.6682
4.2590 -7.4934 1.6662
5.3558 -7.7252 1.8172
6.0239 -7.2164 1.8172
1.2339 -1.2350 0.3375
1.3447 -1.1246 0.3389
1.4465 -1.0048 0.3405
1.5385 -0.8763 0.3423
1.6200 -0.7398 0.3443
1.6902 -0.5960 0.3465
1.7485 -0.4458 0.3488
1.7943 -0.2900 0.3514
1.8268 -0.1297 0.3540
1.8456 0.0341 0.3568
1.8502 0.2004 0.3598
1.8403 0.3678 0.3628
1.8155 0.5351 0.3659
1.7757 0.7010 0.3690
8.4812 4.2587 1.8346
8.0687 4.9995 1.8350
7.5916 5.7007 1.8353
7.0555 6.3583 1.8361
6.4642 6.9673 1.8373
5.8219 7.5233 1.8390
5.1331 8.0221 1.8411
4.4027 8.4599 1.8436
3.6358 8.8332 1.8466
2.8376 9.1375 1.8496
2.0135 9.3671 1.8522
1.1711 9.5229 1.8548
0.3170 9.6036 1.8575
-0.5422 9.6067 1.8601
-1.3990 9.5310 1.8622
-2.2467 9.3788 1.8643
-3.0799 9.1560 1.8675
-3.9006 8.8807 1.8751
-4.6998 8.5371 1.8839
-5.4682 8.1210 1.8926
-6.1992 7.6351 1.9012
-6.8861 7.0823 1.9096
-1.5599 1.3410 0.3977
-1.6644 1.1900 0.3955
-1.7534 1.0305 0.3932
-1.8263 0.8642 0.3906
-1.8828 0.6928 0.3878
-1.9227 0.5181 0.3849
-1.9459 0.3417 0.3819
-1.9527 0.1653 0.3788
-1.9434 -0.0095 0.3757
-1.9184 -0.1814 0.3725
-1.8784 -0.3489 0.3693
-1.8240 -0.5107 0.3662
-1.7562 -0.6658 0.3631
-9.0915 -4.4114 1.9535
-8.6270 -5.1844 1.9457
-7.8529 -5.7316 1.8794
-6.9120 -6.0606 1.7771
-6.3289 -6.6381 1.7730
-5.6963 -7.1578 1.7684
-5.0195 -7.6145 1.7631
-4.3050 -8.0045 1.7570
-3.5604 -8.3263 1.7506
-1.9192 -5.8958 1.1986
-2.0076 -8.7581 1.7370
-1.2129 -8.8661 1.7299
-0.4151 -8.9019 1.7227
0.3795 -8.8660 1.7155
1.1668 -8.7774 1.7117
1.9284 -8.5623 1.6967
2.6457 -8.2341 1.6719
3.3639 -7.9504 1.6688
4.0551 -7.6092 1.6668
4.7124 -7.2083 1.6648
5.8254 -7.3775 1.8172
1.1985 -1.2667 0.3371
1.3119 -1.1592 0.3384
1.4165 -1.0422 0.3400
1.5116 -0.9163 0.3417
1.5964 -0.7821 0.3436
1.6701 -0.6405 0.3458
1.7321 -0.4921 0.3481
1.7817 -0.3379 0.3506
1.8183 -0.1789 0.3532
1.8414 -0.0160 0.3560
1.8504 0.1496 0.3589
1.8449 0.3168 0.3619
1.8246 0.4842 0.3649
1.7894 0.6507 0.3681
1.7390 0.8148 0.3712
8.2017 4.7783 1.8350
7.7432 5.4918 1.8351
7.2247 6.1631 1.8358
6.6498 6.7873 1.8369
6.0225 7.3600 1.8384
5.3473 7.8766 1.8404
4.6290 8.3333 1.8428
3.8727 8.7266 1.8456
3.0838 9.0532 1.8489
2.2665 9.3049 1.8514
1.4290 9.4834 1.8540
0.5777 9.5871 1.8567
-0.2807 9.6144 1.8594
-1.1390 9.5622 1.8616
-1.9902 9.4331 1.8637
-2.8273 9.2281 1.8658
-3.6525 8.9706 1.8724
-4.4595 8.6494 1.8812
-5.2380 8.2552 1.8900
-5.9811 7.7902 1.8986
-6.6821 7.2574 1.9071
-7.3344 6.6603 1.9152
-1.6342 1.2369 0.3962
-1.7280 1.0798 0.3939
-1.8058 0.9154 0.3914
-1.8674 0.7454 0.3887
-1.9123 0.5715 0.3858
-1.9406 0.3955 0.3829
-1.9524 0.2189 0.3798
-1.9479 0.0434 0.3766
-1.9276 -0.1295 0.3735
-1.8921 -0.2984 0.3703
-1.8420 -0.4621 0.3671
-1.7782 -0.6194 0.3640
-1.7014 -0.7691 0.3610
-8.7759 -4.9542 1.9482
-8.2701 -5.6980 1.9415
-7.0787 -5.8741 1.7782
-6.5119 -6.4683 1.7743
-5.8937 -7.0060 1.7699
-5.2300 -7.4827 1.7648
-4.5259 -7.8929 1.7589
-3.7898 -8.2358 1.7526
-2.0364 -5.7222 1.1742
-2.2477 -8.7109 1.7391
-1.4554 -8.8409 1.7321
-0.6578 -8.8986 1.7249
0.1385 -8.8845 1.7177
0.9282 -8.8114 1.7128
1.7002 -8.6388 1.7020
2.4337 -8.3471 1.6808
3.1476 -8.0419 1.6695
3.8481 -7.7195 1.6674
4.5163 -7.3364 1.6654
5.6227 -7.5332 1.8172
6.2726 -7.0013 1.8172
1.2783 -1.1929 0.3380
1.3857 -1.0788 0.3395
1.4837 -0.9555 0.3412
1.5717 -0.8238 0.3430
1.6489 -0.6843 0.3451
1.7145 -0.5379 0.3474
1.7680 -0.3854 0.3498
1.8086 -0.2277 0.3524
1.8358 -0.0659 0.3551
1.8491 0.0990 0.3580
1.8481 0.2658 0.3609
1.8324 0.4333 0.3640
1.8017 0.6002 0.3671
1.7560 0.7652 0.3703
8.3284 4.5534 1.8349
7.8892 5.2789 1.8350
7.3886 5.9636 1.8355
6.8304 6.6027 1.8365
6.2186 7.1915 1.8379
5.5576 7.7256 1.8398
4.8519 8.2009 1.8420
4.1066 8.6139 1.8447
3.3270 8.9610 1.8478
2.5176 9.2360 1.8506
1.6856 9.4369 1.8532
0.8378 9.5635 1.8559
-0.0191 9.6144 1.8586
-0.8783 9.5862 1.8609
-1.7323 9.4805 1.8631
-2.5745 9.2985 1.8652
-3.4027 9.0545 1.8699
-4.2167 8.7549 1.8785
-5.0046 8.3827 1.8873
-5.7592 7.9390 1.8960
-6.4737 7.4265 1.9045
-7.1415 6.8485 1.9128
-1.6026 1.2830 0.3969
-1.7011 1.1285 0.3946
-1.7839 0.9661 0.3922
-1.8504 0.7976 0.3895
-1.9004 0.6247 0.3867
-1.9338 0.4492 0.3838
-1.9505 0.2726 0.3807
-1.9509 0.0966 0.3776
-1.9354 -0.0772 0.3744
-1.9045 -0.2475 0.3713
-1.8588 -0.4130 0.3681
-1.7990 -0.5723 0.3650
-1.7261 -0.7244 0.3619
-8.9182 -4.7195 1.9506
-8.4279 -5.4749 1.9428
-7.2401 -5.6829 1.7793
-6.6900 -6.2932 1.7756
-6.0869 -6.8486 1.7713
-5.4365 -7.3445 1.7664
-4.7439 -7.7751 1.7607
-4.0168 -8.1387 1.7545
-3.2622 -8.4333 1.7480
-2.0475 -7.1277 1.4336
-1.0502 -5.4503 1.0730
-0.9006 -8.8887 1.7271
-0.1033 -8.8963 1.7199
0.6883 -8.8328 1.7127
1.4687 -8.7056 1.7067
2.2155 -8.4469 1.6881
2.9289 -8.1275 1.6701
3.6382 -7.8241 1.6680
4.3168 -7.4592 1.6660
5.4158 -7.6833 1.8172
6.0799 -7.1692 1.8172
1.2439 -1.2258 0.3376
1.3540 -1.1145 0.3390
1.4549 -0.9939 0.3406
1.5461 -0.8647 0.3424
1.6266 -0.7275 0.3445
1.6958 -0.5831 0.3467
1.7530 -0.4324 0.3490
1.7976 -0.2762 0.3516
1.8290 -0.1155 0.3543
1.8466 0.0485 0.3571
1.8500 0.2149 0.3600
1.8387 0.3824 0.3631
1.8126 0.5496 0.3662
1.7715 0.7153 0.3693
8.4480 4.3247 1.8347
8.0296 5.0622 1.8350
7.5472 5.7598 1.8353
7.0061 6.4133 1.8362
6.4102 7.0179 1.8374
5.7637 7.5691 1.8391
5.0710 8.0627 1.8413
4.3372 8.4950 1.8439
3.5675 8.8625 1.8469
2.7667 9.1604 1.8498
1.9407 9.3836 1.8524
1.0970 9.5330 1.8550
0.2422 9.6070 1.8578
-0.6171 9.6032 1.8603
-1.4734 9.5208 1.8624
-2.3199 9.3619 1.8645
-3.1521 9.1345 1.8680
-3.9713 8.8537 1.8758
-4.7680 8.5037 1.8847
-5.5335 8.0814 1.8934
-6.2609 7.5895 1.9020
-6.9436 7.0311 1.9103
-1.5696 1.3282 0.3975
-1.6728 1.1764 0.3953
-1.7604 1.0162 0.3929
-1.8319 0.8494 0.3904
-1.8869 0.6777 0.3876
-1.9254 0.5028 0.3847
-1.9472 0.3264 0.3817
-1.9525 0.1500 0.3786
-1.9418 -0.0246 0.3754
-1.9155 -0.1962 0.3722
-1.8742 -0.3632 0.3691
-1.8186 -0.5245 0.3659
-1.7496 -0.6790 0.3628
-9.0539 -4.4805 1.9529
-8.5832 -5.2495 1.9450
-7.6846 -5.7010 1.8497
-6.8633 -6.1131 1.7768
-6.2757 -6.6857 1.7726
-5.6390 -7.2001 1.7680
-4.9586 -7.6511 1.7625
-4.2412 -8.0353 1.7564
-3.4943 -8.3511 1.7500
-2.2157 -6.9910 1.4177
-1.2102 -5.4749 1.0839
-1.1434 -8.8721 1.7293
-0.3456 -8.9016 1.7221
0.4484 -8.8596 1.7149
1.2343 -8.7623 1.7106
1.9928 -8.5374 1.6948
2.7087 -8.2100 1.6713
3.4253 -7.9231 1.6687
4.1138 -7.5766 1.6666
4.7683 -7.1712 1.6648
5.8827 -7.3319 1.8172
1.2087 -1.2577 0.3372
1.3214 -1.1494 0.3386
1.4252 -1.0316 0.3401
1.5194 -0.9049 0.3419
1.6032 -0.7701 0.3438
1.6760 -0.6278 0.3460
1.7369 -0.4789 0.3483
1.7854 -0.3243 0.3508
1.8209 -0.1648 0.3534
1.8427 -0.0017 0.3562
1.8505 0.1641 0.3591
1.8437 0.3314 0.3621
1.8222 0.4988 0.3652
1.7261 0.6505 0.3684
1.6750 0.8087 0.3715
7.8901 4.7204 1.8362
7.4406 5.4082 1.8370
6.9308 6.0529 1.8377
6.3667 6.6514 1.8388
5.7526 7.1992 1.8404
5.0925 7.6922 1.8424
4.3914 8.1265 1.8448
3.6537 8.4982 1.8474
2.8843 8.8013 1.8497
2.0899 9.0354 1.8521
1.2769 9.1985 1.8547
0.4515 9.2889 1.8573
-0.3798 9.3034 1.8596
-1.2100 9.2428 1.8617
-2.0324 9.1080 1.8637
-2.8406 8.9008 1.8659
-3.6377 8.6452 1.8732
-4.4149 8.3240 1.8818
-5.1634 7.9323 1.8902
-5.8766 7.4726 1.8986
-6.5479 6.9478 1.9067
-1.4867 1.3188 0.3969
-1.5903 1.1749 0.3949
-1.6792 1.0224 0.3926
-1.7528 0.8630 0.3902
-1.8105 0.6984 0.3876
-1.8523 0.5302 0.3848
-1.8781 0.3601 0.3819
-1.8879 0.1895 0.3789
-1.8821 0.0201 0.3759
-1.8610 -0.1468 0.3728
-1.8253 -0.3097 0.3697
-1.7756 -0.4675 0.3667
-1.7126 -0.6189 0.3637
-1.6371 -0.7631 0.3607
-8.4181 -4.8821 1.9435
-7.9247 -5.5969 1.9376
-6.7742 -5.7557 1.7753
-6.2200 -6.3237 1.7715
-5.6169 -6.8367 1.7671
-4.9705 -7.2906 1.7622
-4.2860 -7.6800 1.7565
-3.5709 -8.0039 1.7504
-1.9735 -5.7565 1.2153
-2.0754 -8.4477 1.7373
-1.3080 -8.5655 1.7305
-0.5361 -8.6134 1.7235
0.2338 -8.5919 1.7165
0.9979 -8.5208 1.7133
1.7408 -8.3327 1.7001
2.4447 -8.0362 1.6775
3.1367 -7.7475 1.6693
3.8111 -7.4278 1.6673
4.4536 -7.0497 1.6653
5.5269 -7.2281 1.8172
1.1431 -1.2464 0.3378
1.2544 -1.1436 0.3390
1.3573 -1.0315 0.3405
1.4509 -0.9107 0.3421
1.5347 -0.7818 0.3440
1.6078 -0.6455 0.3460
1.6697 -0.5026 0.3482
1.7195 -0.3540 0.3506
1.7568 -0.2005 0.3531
1.7811 -0.0432 0.3558
1.7917 0.1168 0.3586
1.7884 0.2785 0.3615
1.7709 0.4406 0.3644
1.7388 0.6018 0.3675
1.6921 0.7609 0.3705
8.0144 4.5035 1.8360
7.5843 5.2034 1.8369
7.0918 5.8614 1.8375
6.5439 6.4745 1.8385
5.9445 7.0381 1.8399
5.2979 7.5482 1.8417
4.6088 8.0008 1.8440
3.8819 8.3923 1.8467
3.1213 8.7163 1.8490
2.3339 8.9716 1.8514
1.5259 9.1565 1.8539
0.7036 9.2692 1.8565
-0.1267 9.3071 1.8589
-0.9579 9.2691 1.8610
-1.7834 9.1568 1.8631
-2.5963 8.9708 1.8651
-3.3963 8.7280 1.8704
-4.1812 8.4293 1.8792
-4.9391 8.0588 1.8877
-5.6637 7.6195 1.8960
-6.3484 7.1142 1.9042
-1.4523 1.3607 0.3975
-1.5603 1.2197 0.3955
-1.6538 1.0696 0.3933
-1.7320 0.9122 0.3909
-1.7947 0.7490 0.3884
-1.8413 0.5817 0.3856
-1.8719 0.4120 0.3828
-1.8866 0.2414 0.3798
-1.8855 0.0714 0.3768
-1.8690 -0.0963 0.3738
-1.8377 -0.2606 0.3707
-1.7921 -0.4201 0.3676
-1.7331 -0.5736 0.3646
-1.6613 -0.7201 0.3616
-8.5580 -4.6570 1.9458
-8.0779 -5.3820 1.9385
-6.9323 -5.5727 1.7763
-6.3941 -6.1565 1.7727
-5.8053 -6.6866 1.7685
-5.1714 -7.1589 1.7638
-4.4979 -7.5684 1.7583
-3.7914 -7.9124 1.7523
-2.1424 -5.7357 1.2228
-1.9874 -7.2344 1.4983
-0.9906 -5.4836 1.1129
-0.7711 -8.6062 1.7256
0.0001 -8.6057 1.7187
0.7658 -8.5448 1.7133
1.5176 -8.3991 1.7046
2.2361 -8.1389 1.6857
2.9259 -7.8327 1.6699
3.6090 -7.5314 1.6679
4.2618 -7.1707 1.6659
5.3283 -7.3757 1.8172
5.9654 -6.8707 1.8172
1.2214 -1.1759 0.3386
1.3269 -1.0666 0.3400
1.4235 -0.9483 0.3416
1.5103 -0.8218 0.3434
1.5867 -0.6877 0.3454
1.6521 -0.5467 0.3475
1.7056 -0.3997 0.3499
1.7468 -0.2477 0.3524
1.7751 -0.0914 0.3550
1.7899 0.0679 0.3577
1.7909 0.2292 0.3606
1.7777 0.3913 0.3635
1.7501 0.5529 0.3665
1.7079 0.7128 0.3696
8.1329 4.2834 1.8357
7.7217 4.9944 1.8366
7.2477 5.6658 1.8373
6.7162 6.2930 1.8381
6.1321 6.8721 1.8394
5.4994 7.3989 1.8411
4.8227 7.8694 1.8433
4.1068 8.2798 1.8458
3.3559 8.6249 1.8483
2.5760 8.9013 1.8506
1.7736 9.1078 1.8531
0.9549 9.2426 1.8557
0.1264 9.3039 1.8583
-0.7053 9.2886 1.8604
-1.5332 9.1989 1.8625
-2.3507 9.0352 1.8645
-3.1545 8.8082 1.8685
-3.9450 8.5280 1.8766
-4.7117 8.1789 1.8851
-5.4471 7.7603 1.8935
-6.1447 7.2747 1.9018
-6.7980 6.7255 1.9098
-1.5289 1.2636 0.3961
-1.6269 1.1161 0.3940
-1.7099 0.9607 0.3917
-1.7773 0.7991 0.3892
-1.8288 0.6329 0.3865
-1.8643 0.4638 0.3837
-1.8838 0.2933 0.3808
-1.8874 0.1230 0.3777
-1.8756 -0.0456 0.3747
-1.8488 -0.2111 0.3716
-1.8075 -0.3721 0.3685
-1.7525 -0.5276 0.3655
-1.6845 -0.6763 0.3625
-1.6044 -0.8173 0.3596
-8.2290 -5.1653 1.9404
-7.4238 -5.6425 1.8623
-6.5635 -5.9843 1.7739
-5.9895 -6.5313 1.7698
-5.3687 -7.0216 1.7652
-4.7067 -7.4508 1.7601
-4.0094 -7.8147 1.7541
-3.2842 -8.1123 1.7479
-2.1722 -7.1410 1.4907
-1.1340 -5.4286 1.1076
-1.0060 -8.5925 1.7278
-0.2342 -8.6132 1.7208
0.5333 -8.5648 1.7138
1.2918 -8.4581 1.7088
2.0216 -8.2278 1.6921
2.7130 -7.9127 1.6706
3.4041 -7.6295 1.6685
4.0667 -7.2866 1.6665
4.6959 -6.8874 1.6648
5.7763 -7.0304 1.8172
1.1876 -1.2073 0.3382
1.2957 -1.1008 0.3395
1.3951 -0.9852 0.3411
1.4850 -0.8612 0.3428
1.5646 -0.7293 0.3448
1.6334 -0.5903 0.3469
1.6906 -0.4451 0.3491
1.7356 -0.2944 0.3516
1.7679 -0.1394 0.3542
1.7869 0.0191 0.3569
1.7921 0.1800 0.3597
1.7833 0.3419 0.3626
1.7600 0.5039 0.3656
1.7223 0.6644 0.3687
1.6699 0.8223 0.3717
7.8534 4.7819 1.8363
7.3984 5.4661 1.8371
6.8837 6.1070 1.8378
6.3152 6.7012 1.8390
5.6968 7.2444 1.8406
5.0330 7.7324 1.8426
4.3285 8.1615 1.8450
3.5878 8.5273 1.8476
2.8160 8.8245 1.8499
2.0198 9.0525 1.8524
1.2054 9.2093 1.8549
0.3792 9.2933 1.8575
-0.4523 9.3011 1.8597
-1.2821 9.2340 1.8618
-2.1035 9.0927 1.8639
-2.9109 8.8817 1.8666
-3.7065 8.6202 1.8740
-4.4814 8.2926 1.8825
-5.2270 7.8949 1.8910
-5.9368 7.4294 1.8993
-6.6042 6.8992 1.9074
-1.4962 1.3067 0.3967
-1.5986 1.1619 0.3947
-1.6862 1.0088 0.3924
-1.7584 0.8489 0.3900
-1.8148 0.6839 0.3873
-1.8552 0.5155 0.3845
-1.8796 0.3452 0.3817
-1.8880 0.1747 0.3787
-1.8808 0.0054 0.3756
-1.8585 -0.1611 0.3726
-1.8215 -0.3237 0.3695
-1.7706 -0.4809 0.3664
-1.7065 -0.6318 0.3634
-1.6300 -0.7753 0.3605
-8.3769 -4.9458 1.9428
-7.8797 -5.6576 1.9373
-6.7280 -5.8073 1.7750
-6.1693 -6.3706 1.7711
-5.5622 -6.8786 1.7667
-4.9124 -7.3272 1.7618
-4.2248 -7.7109 1.7560
-3.5074 -8.0289 1.7498
-1.9385 -5.8011 1.2215
-2.0089 -8.4607 1.7367
-1.2408 -8.5724 1.7299
-0.4689 -8.6143 1.7229
0.3006 -8.5867 1.7159
1.0637 -8.5089 1.7126
1.8040 -8.3113 1.6985
2.5034 -8.0045 1.6750
3.1966 -7.7220 1.6691
3.8684 -7.3971 1.6671
4.5079 -7.0141 1.6652
5.5830 -7.1848 1.8172
1.1531 -1.2378 0.3379
1.2637 -1.1342 0.3391
1.3658 -1.0213 0.3406
1.4586 -0.8998 0.3423
1.5415 -0.7702 0.3441
1.6137 -0.6333 0.3462
1.6745 -0.4899 0.3484
1.7233 -0.3408 0.3508
1.7595 -0.1870 0.3534
1.7825 -0.0294 0.3560
1.7920 0.1308 0.3588
1.7875 0.2926 0.3617
1.7686 0.4547 0.3647
1.7353 0.6158 0.3677
1.6874 0.7746 0.3708
7.9794 4.5659 1.8360
7.5438 5.2625 1.8370
7.0462 5.9167 1.8375
6.4936 6.5256 1.8386
5.8900 7.0848 1.8400
5.2395 7.5900 1.8419
4.5469 8.0374 1.8442
3.8170 8.4234 1.8469
3.0537 8.7413 1.8492
2.2642 8.9906 1.8516
1.4547 9.1692 1.8541
0.6315 9.2755 1.8567
-0.1992 9.3068 1.8591
-1.0302 9.2623 1.8612
-1.8548 9.1435 1.8633
-2.6664 8.9512 1.8653
-3.4656 8.7050 1.8712
-4.2484 8.3998 1.8799
-5.0036 8.0232 1.8884
-5.7250 7.5780 1.8968
-6.4060 7.0671 1.9049
-1.4623 1.3488 0.3973
-1.5690 1.2069 0.3953
-1.6612 1.0561 0.3931
-1.7381 0.8981 0.3907
-1.7994 0.7345 0.3881
-1.8446 0.5670 0.3854
-1.8738 0.3971 0.3825
-1.8871 0.2265 0.3796
-1.8846 0.0567 0.3766
-1.8669 -0.1108 0.3735
-1.8343 -0.2747 0.3704
-1.7875 -0.4337 0.3674
-1.7273 -0.5866 0.3643
-1.6545 -0.7325 0.3614
-8.5186 -4.7219 1.9452
-8.0346 -5.4440 1.9383
-6.8876 -5.6256 1.7761
-6.3447 -6.2049 1.7723
-5.7517 -6.7302 1.7681
-5.1143 -7.1972 1.7633
-4.4375 -7.6010 1.7578
-3.7285 -7.9392 1.7517
-2.0860 -5.7202 1.2160
-1.9380 -7.2761 1.5038
-0.9562 -5.5392 1.1226
-0.7038 -8.6089 1.7250
0.0671 -8.6024 1.7181
0.8323 -8.5385 1.7133
1.5817 -8.3807 1.7033
2.2969 -8.1125 1.6839
2.9865 -7.8089 1.6697
3.6672 -7.5023 1.6677
4.3171 -7.1366 1.6658
5.3856 -7.3340 1.8172
1.1179 -1.2675 0.3375
1.2309 -1.1668 0.3387
1.3357 -1.0566 0.3401
1.4314 -0.9376 0.3417
1.5174 -0.8104 0.3436
1.5929 -0.6757 0.3456
1.6572 -0.5341 0.3477
1.7097 -0.3867 0.3501
1.7498 -0.2342 0.3526
1.7769 -0.0777 0.3552
1.7906 0.0819 0.3580
1.7904 0.2433 0.3608
1.7759 0.4054 0.3638
1.7470 0.5669 0.3668
1.7035 0.7266 0.3699
8.0996 4.3467 1.8358
7.6829 5.0547 1.8367
7.2036 5.7222 1.8373
6.6674 6.3454 1.8382
6.0788 6.9201 1.8395
5.4421 7.4422 1.8413
4.7618 7.9076 1.8435
4.0427 8.3127 1.8461
3.2890 8.6517 1.8485
2.5069 8.9221 1.8509
1.7028 9.1224 1.8533
0.8831 9.2509 1.8559
0.0539 9.3055 1.8585
-0.7777 9.2837 1.8606
-1.6050 9.1875 1.8627
-2.4212 9.0174 1.8647
-3.2239 8.7858 1.8690
-4.0129 8.5004 1.8773
-4.7771 8.1452 1.8858
-5.5095 7.7206 1.8942
-6.2035 7.2294 1.9025
-6.8526 6.6748 1.9105
-1.5380 1.2511 0.3960
-1.6347 1.1029 0.3938
-1.7164 0.9469 0.3915
-1.7824 0.7848 0.3889
-1.8325 0.6183 0.3863
-1.8666 0.4489 0.3834
-1.8847 0.2784 0.3805
-1.8870 0.1082 0.3775
-1.8739 -0.0602 0.3744
-1.8457 -0.2253 0.3714
-1.8032 -0.3859 0.3683
-1.7470 -0.5408 0.3652
-1.6780 -0.6889 0.3623
-8.6540 -4.4938 1.9474
-8.1856 -5.2273 1.9397
-7.2687 -5.6144 1.8343
-6.5155 -6.0341 1.7735
-5.9371 -6.5763 1.7694
-5.3126 -7.0615 1.7648
-4.6473 -7.4851 1.7596
-3.9472 -7.8433 1.7536
-3.2199 -8.1351 1.7473
-2.1234 -7.1807 1.4955
-1.0911 -5.4346 1.1070
-0.9388 -8.5971 1.7272
-0.1670 -8.6117 1.7202
0.5998 -8.5581 1.7133
1.3568 -8.4425 1.7077
2.0833 -8.2029 1.6902
2.7738 -7.8892 1.6701
3.4631 -7.6020 1.6683
4.1229 -7.2539 1.6663
4.7494 -6.8506 1.6648
5.8309 -6.9852 1.8172
1.1973 -1.1984 0.3383
1.3047 -1.0911 0.3397
1.4033 -0.9747 0.3412
1.4923 -0.8500 0.3430
1.5711 -0.7174 0.3449
1.6389 -0.5779 0.3471
1.6950 -0.4321 0.3493
1.7390 -0.2811 0.3518
1.7701 -0.1257 0.3544
1.7879 0.0331 0.3571
1.7919 0.1940 0.3600
1.7818 0.3561 0.3629
1.7573 0.5179 0.3659
1.7183 0.6783 0.3689
1.6646 0.8359 0.3720
7.8163 4.8431 1.8364
7.3558 5.5237 1.8371
6.8363 6.1607 1.8379
6.2632 6.7507 1.8391
5.6407 7.2892 1.8407
4.9731 7.7722 1.8428
4.2653 8.1960 1.8452
3.5217 8.5559 1.8478
2.7475 8.8471 1.8501
1.9495 9.0690 1.8526
1.1338 9.2195 1.8551
0.3069 9.2971 1.8578
-0.5248 9.2982 1.8599
-1.3541 9.2247 1.8620
-2.1744 9.0769 1.8641
-2.9809 8.8615 1.8672
-3.7750 8.5945 1.8747
-4.5476 8.2607 1.8832
-5.2904 7.8570 1.8917
-5.9967 7.3857 1.9000
-6.6602 6.8500 1.9081
-1.5057 1.2944 0.3966
-1.6069 1.1489 0.3945
-1.6931 0.9951 0.3922
-1.7640 0.8347 0.3897
-1.8190 0.6693 0.3871
-1.8580 0.5007 0.3843
-1.8809 0.3303 0.3814
-1.8880 0.1599 0.3784
-1.8795 -0.0092 0.3754
-1.8558 -0.1755 0.3723
-1.8176 -0.3376 0.3692
-1.7655 -0.4943 0.3662
-1.7003 -0.6446 0.3632
-1.6228 -0.7874 0.3602
-8.3352 -5.0091 1.9421
-7.8319 -5.7163 1.9364
-6.6814 -5.8585 1.7747
-6.1183 -6.4172 1.7707
-5.5072 -6.9201 1.7663
-4.8539 -7.3632 1.7613
-4.1634 -7.7412 1.7554
-3.4437 -8.0535 1.7493
-1.9192 -5.8958 1.2383
-1.2616 -5.5039 1.1277
-1.1736 -8.5788 1.7293
-0.4017 -8.6146 1.7223
0.3673 -8.5811 1.7153
1.1292 -8.4950 1.7115
1.8666 -8.2879 1.6967
2.5617 -7.9726 1.6724
3.2563 -7.6961 1.6689
3.9255 -7.3660 1.6669
4.5619 -6.9780 1.6650
5.6388 -7.1412 1.8172
1.1631 -1.2292 0.3380
1.2729 -1.1247 0.3392
1.3743 -1.0111 0.3407
1.4663 -0.8888 0.3424
1.5482 -0.7585 0.3443
1.6194 -0.6210 0.3464
1.6792 -0.4771 0.3486
1.7269 -0.3275 0.3510
1.7620 -0.1734 0.3536
1.7839 -0.0155 0.3563
1.7922 0.1449 0.3591
1.7864 0.3067 0.3620
1.7663 0.4688 0.3650
1.7317 0.6297 0.3680
1.6825 0.7883 0.3711
7.9439 4.6281 1.8361
7.5027 5.3212 1.8370
7.0002 5.9716 1.8376
6.4430 6.5764 1.8387
5.8351 7.1310 1.8402
5.1808 7.6313 1.8421
4.4847 8.0735 1.8444
3.7517 8.4538 1.8471
2.9859 8.7657 1.8494
2.1944 9.0090 1.8518
1.3835 9.1814 1.8543
0.5593 9.2813 1.8570
-0.2717 9.3058 1.8593
-1.1024 9.2549 1.8614
-1.9261 9.1297 1.8635
-2.7362 8.9309 1.8655
-3.5348 8.6814 1.8720
-4.3154 8.3698 1.8806
-5.0679 7.9871 1.8891
-5.7860 7.5361 1.8975
-6.4632 7.0196 1.9056
-1.4721 1.3368 0.3971
-1.5776 1.1941 0.3952
-1.6685 1.0426 0.3929
-1.7441 0.8841 0.3905
-1.8039 0.7201 0.3879
-1.8478 0.5522 0.3852
-1.8756 0.3822 0.3823
-1.8875 0.2117 0.3793
-1.8837 0.0420 0.3763
-1.8646 -0.1253 0.3732
-1.8308 -0.2888 0.3701
-1.7828 -0.4473 0.3671
-1.7215 -0.5996 0.3641
-1.6476 -0.7448 0.3611
-8.4787 -4.7864 1.9445
-7.9909 -5.5056 1.9380
-6.8424 -5.6781 1.7758
-6.2950 -6.2528 1.7720
-5.6979 -6.7732 1.7677
-5.0568 -7.2350 1.7629
-4.3769 -7.6331 1.7573
-3.6654 -7.9655 1.7512
-2.0364 -5.7222 1.2130
-2.1745 -8.4273 1.7382
-0.9350 -5.6797 1.1496
-0.6365 -8.6111 1.7244
0.1340 -8.5986 1.7175
0.8988 -8.5318 1.7133
1.6457 -8.3618 1.7020
2.3566 -8.0826 1.6814
3.0469 -7.7846 1.6695
3.7251 -7.4727 1.6675
4.3720 -7.1020 1.6656
5.4426 -7.2918 1.8172
1.1280 -1.2591 0.3376
1.2404 -1.1575 0.3388
1.3444 -1.0466 0.3403
1.4393 -0.9269 0.3419
1.5244 -0.7990 0.3437
1.5990 -0.6636 0.3457
1.6623 -0.5215 0.3479
1.7137 -0.3736 0.3503
1.7527 -0.2207 0.3528
1.7787 -0.0639 0.3555
1.7911 0.0959 0.3582
1.7897 0.2574 0.3611
1.7740 0.4195 0.3641
1.7438 0.5809 0.3671
1.6990 0.7404 0.3701
8.0658 4.4098 1.8359
7.6437 5.1146 1.8368
7.1591 5.7783 1.8374
6.6181 6.3974 1.8383
6.0252 6.9678 1.8397
5.3845 7.4850 1.8415
4.7006 7.9453 1.8437
3.9784 8.3450 1.8463
3.2219 8.6780 1.8487
2.4376 8.9424 1.8511
1.6319 9.1365 1.8536
0.8111 9.2586 1.8562
-0.0185 9.3066 1.8586
-0.8500 9.2783 1.8608
-1.6766 9.1756 1.8628
-2.4916 8.9991 1.8649
-3.2931 8.7629 1.8696
-4.0805 8.4723 1.8781
-4.8423 8.1109 1.8866
-5.5716 7.6804 1.8950
-6.2619 7.1835 1.9032
-6.9068 6.6236 1.9112
-1.5471 1.2385 0.3958
-1.6425 1.0896 0.3936
-1.7227 0.9330 0.3913
-1.7874 0.7705 0.3887
-1.8362 0.6036 0.3860
-1.8689 0.4341 0.3832
-1.8856 0.2635 0.3802
-1.8865 0.0935 0.3772
-1.8720 -0.0747 0.3742
-1.8426 -0.2395 0.3711
-1.7989 -0.3997 0.3680
-1.7415 -0.5540 0.3650
-1.6714 -0.7014 0.3620
-8.6159 -4.5595 1.9468
-8.1415 -5.2888 1.9389
-7.1181 -5.5871 1.8072
-6.4671 -6.0835 1.7732
-5.8845 -6.6209 1.7690
-5.2562 -7.1009 1.7644
-4.5875 -7.5189 1.7590
-3.8848 -7.8714 1.7531
-3.1554 -8.1573 1.7468
-2.0839 -7.2544 1.5074
-1.0488 -5.4429 1.1070
-0.8715 -8.6011 1.7266
-0.0999 -8.6097 1.7196
0.6665 -8.5531 1.7133
1.4215 -8.4257 1.7065
2.1449 -8.1776 1.6884
2.8351 -7.8674 1.6701
3.5218 -7.5740 1.6681
4.1788 -7.2209 1.6662
5.2423 -7.4371 1.8172
5.8851 -6.9396 1.8172
1.2070 -1.1894 0.3384
1.3137 -1.0813 0.3398
1.4114 -0.9642 0.3414
1.4996 -0.8387 0.3431
1.5774 -0.7055 0.3451
1.6442 -0.5654 0.3472
1.6994 -0.4192 0.3496
1.7422 -0.2677 0.3520
1.7722 -0.1120 0.3546
1.7888 0.0470 0.3574
1.7916 0.2081 0.3602
1.7803 0.3702 0.3631
1.7545 0.5320 0.3661
1.7142 0.6922 0.3692
1.6593 0.8494 0.3723
7.7787 4.9040 1.8365
7.3128 5.5809 1.8372
6.7884 6.2140 1.8380
6.2109 6.7997 1.8392
5.5843 7.3335 1.8409
4.9130 7.8115 1.8430
4.2019 8.2300 1.8455
3.4553 8.5839 1.8480
2.6788 8.8693 1.8503
1.8790 9.0850 1.8528
1.0621 9.2292 1.8554
0.2345 9.3004 1.8580
-0.5972 9.2948 1.8601
-1.4260 9.2147 1.8622
-2.2452 9.0606 1.8642
-3.0507 8.8406 1.8677
-3.8433 8.5682 1.8754
-4.6136 8.2283 1.8840
-5.3535 7.8186 1.8924
-6.0564 7.3415 1.9007
-6.7158 6.8004 1.9088
-1.5151 1.2821 0.3964
-1.6150 1.1358 0.3943
-1.6999 0.9813 0.3920
-1.7694 0.8204 0.3895
-1.8230 0.6547 0.3869
-1.8606 0.4859 0.3840
-1.8822 0.3155 0.3811
-1.8879 0.1451 0.3781
-1.8780 -0.0238 0.3751
-1.8531 -0.1898 0.3720
-1.8136 -0.3515 0.3689
-1.7604 -0.5077 0.3659
-1.6940 -0.6574 0.3629
-1.6154 -0.7994 0.3600
-8.2930 -5.0720 1.9414
-7.6644 -5.6860 1.9059
-6.6344 -5.9092 1.7743
-6.0669 -6.4633 1.7704
-5.4519 -6.9612 1.7659
-4.7950 -7.3987 1.7608
-4.1018 -7.7711 1.7549
-3.3798 -8.0775 1.7487
-2.2459 -7.0864 1.4846
-1.2047 -5.4499 1.1147
-1.1064 -8.5847 1.7287
-0.3344 -8.6144 1.7217
0.4340 -8.5749 1.7147
1.1946 -8.4806 1.7104
1.9290 -8.2641 1.6948
2.6224 -7.9482 1.6715
3.3158 -7.6697 1.6688
3.9824 -7.3344 1.6668
4.6156 -6.9416 1.6648
5.6942 -7.0970 1.8172
1.1729 -1.2205 0.3381
1.2821 -1.1152 0.3394
1.3827 -1.0008 0.3409
1.4738 -0.8777 0.3426
1.5549 -0.7468 0.3445
1.6251 -0.6087 0.3466
1.6839 -0.4643 0.3488
1.7305 -0.3143 0.3513
1.7644 -0.1597 0.3538
1.7852 -0.0016 0.3565
1.7922 0.1589 0.3593
1.7852 0.3209 0.3622
1.7639 0.4829 0.3652
1.6721 0.6301 0.3683
1.6221 0.7831 0.3713
7.6483 4.5757 1.8371
7.2132 5.2428 1.8381
6.7207 5.8694 1.8392
6.1743 6.4504 1.8405
5.5785 6.9814 1.8420
4.9383 7.4592 1.8439
4.2573 7.8784 1.8459
3.5411 8.2362 1.8480
2.7952 8.5297 1.8502
2.0254 8.7562 1.8525
1.2374 8.9139 1.8550
0.4374 9.0003 1.8574
-0.3680 9.0134 1.8594
-1.1723 8.9543 1.8615
-1.9689 8.8234 1.8635
-2.7519 8.6231 1.8658
-3.5234 8.3735 1.8726
-4.2763 8.0625 1.8812
-5.0005 7.6820 1.8894
-5.6904 7.2358 1.8975
-6.3396 6.7268 1.9053
-1.4366 1.2744 0.3958
-1.5370 1.1355 0.3939
-1.6233 0.9883 0.3917
-1.6947 0.8344 0.3894
-1.7510 0.6754 0.3868
-1.7918 0.5129 0.3842
-1.8171 0.3484 0.3814
-1.8271 0.1834 0.3785
-1.8219 0.0195 0.3756
-1.8020 -0.1421 0.3726
-1.7679 -0.3000 0.3696
-1.7202 -0.4529 0.3667
-1.6596 -0.5998 0.3637
-1.5869 -0.7397 0.3609
-8.1418 -4.7219 1.9401
-7.6677 -5.4154 1.9350
-6.5550 -5.5694 1.7730
-6.0191 -6.1194 1.7693
-5.4359 -6.6164 1.7651
-4.8108 -7.0563 1.7604
-4.1491 -7.4348 1.7550
-3.4573 -7.7491 1.7491
-1.9735 -5.7565 1.2544
-2.0098 -8.1807 1.7364
-1.2668 -8.2958 1.7298
-0.5193 -8.3433 1.7231
0.2265 -8.3235 1.7163
0.9668 -8.2557 1.7133
1.6867 -8.0735 1.7001
2.3697 -7.7893 1.6782
3.0391 -7.5064 1.6693
3.6926 -7.1969 1.6673
4.3153 -6.8307 1.6654
5.3550 -7.0032 1.8172
1.1102 -1.2105 0.3386
1.2181 -1.1106 0.3398
1.3179 -1.0016 0.3412
1.4086 -0.8841 0.3428
1.4897 -0.7588 0.3446
1.5604 -0.6264 0.3466
1.6201 -0.4877 0.3488
1.6682 -0.3434 0.3511
1.7040 -0.1945 0.3535
1.7271 -0.0419 0.3561
1.7370 0.1132 0.3588
1.7334 0.2699 0.3616
1.7160 0.4269 0.3645
1.6845 0.5830 0.3674
1.6388 0.7369 0.3704
7.7688 4.3655 1.8369
7.3518 5.0439 1.8378
6.8764 5.6834 1.8389
6.3461 6.2788 1.8402
5.7647 6.8253 1.8415
5.1376 7.3197 1.8433
4.4684 7.7572 1.8453
3.7624 8.1340 1.8473
3.0250 8.4473 1.8495
2.2618 8.6945 1.8518
1.4787 8.8733 1.8542
0.6818 8.9820 1.8568
-0.1227 9.0170 1.8588
-0.9281 8.9799 1.8609
-1.7277 8.8708 1.8629
-2.5152 8.6903 1.8648
-3.2899 8.4545 1.8700
-4.0500 8.1649 1.8787
-4.7835 7.8049 1.8869
-5.4845 7.3784 1.8950
-6.1467 6.8881 1.9030
-1.4033 1.3148 0.3964
-1.5079 1.1787 0.3945
-1.5986 1.0339 0.3924
-1.6746 0.8819 0.3901
-1.7355 0.7243 0.3876
-1.7810 0.5626 0.3850
-1.8111 0.3986 0.3822
-1.8257 0.2336 0.3794
-1.8251 0.0692 0.3765
-1.8096 -0.0933 0.3735
-1.7798 -0.2524 0.3705
-1.7361 -0.4069 0.3676
-1.6793 -0.5558 0.3646
-1.6102 -0.6979 0.3617
-1.5296 -0.8323 0.3589
-7.8158 -5.2074 1.9359
-6.8845 -5.5342 1.8207
-6.1874 -5.9575 1.7705
-5.6181 -6.4710 1.7664
-5.0051 -6.9287 1.7618
-4.3541 -7.3265 1.7567
-3.6706 -7.6603 1.7509
-2.1424 -5.7357 1.2621
-1.9799 -7.2070 1.5406
-0.9880 -5.4692 1.1456
-0.7469 -8.3360 1.7252
0.0001 -8.3366 1.7184
0.7422 -8.2813 1.7138
1.4703 -8.1372 1.7045
2.1670 -7.8872 1.6860
2.8349 -7.5889 1.6699
3.4968 -7.2972 1.6679
4.1294 -6.9480 1.6660
5.1625 -7.1462 1.8172
1.0758 -1.2391 0.3382
1.1861 -1.1420 0.3394
1.2884 -1.0357 0.3407
1.3820 -0.9207 0.3423
1.4661 -0.7978 0.3440
1.5401 -0.6674 0.3460
1.6032 -0.5305 0.3481
1.6548 -0.3878 0.3503
1.6944 -0.2402 0.3528
1.7215 -0.0887 0.3553
1.7354 0.0658 0.3580
1.7360 0.2221 0.3607
1.7227 0.3792 0.3636
1.6955 0.5357 0.3665
1.6542 0.6904 0.3695
1.5988 0.8420 0.3725
7.4850 4.8414 1.8375
7.0270 5.4932 1.8385
6.5131 6.1026 1.8398
5.9467 6.6643 1.8411
5.3330 7.1750 1.8427
4.6762 7.6303 1.8447
3.9808 8.0259 1.8467
3.2524 8.3589 1.8488
2.4964 8.6264 1.8511
1.7188 8.8262 1.8535
0.9254 8.9564 1.8560
0.1224 9.0140 1.8582
-0.6833 8.9988 1.8602
-1.4854 8.9116 1.8623
-2.2772 8.7527 1.8642
-3.0559 8.5329 1.8682
-3.8211 8.2603 1.8760
-4.5634 7.9216 1.8844
-5.2750 7.5151 1.8926
-5.9497 7.0439 1.9006
-6.5814 6.5112 1.9083
-1.4775 1.2211 0.3951
-1.5725 1.0788 0.3931
-1.6530 0.9288 0.3908
-1.7186 0.7727 0.3884
-1.7688 0.6122 0.3858
-1.8036 0.4487 0.3831
-1.8229 0.2838 0.3803
-1.8269 0.1190 0.3774
-1.8159 -0.0441 0.3744
-1.7903 -0.2044 0.3714
-1.7508 -0.3605 0.3685
-1.6980 -0.5112 0.3655
-1.6325 -0.6554 0.3626
-1.5553 -0.7923 0.3598
-7.9594 -4.9960 1.9371
-7.4047 -5.6280 1.9171
-6.3512 -5.7907 1.7716
-5.7962 -6.3205 1.7677
-5.1959 -6.7955 1.7633
-4.5560 -7.2122 1.7584
-3.8815 -7.5655 1.7527
-3.1798 -7.8545 1.7467
-2.3219 -7.6331 1.6446
-1.1314 -5.4163 1.1405
-0.9744 -8.3224 1.7272
-0.2269 -8.3435 1.7205
0.5167 -8.2985 1.7139
1.2515 -8.1942 1.7086
1.9589 -7.9724 1.6922
2.6290 -7.6678 1.6709
3.2983 -7.3922 1.6685
3.9403 -7.0601 1.6666
4.5498 -6.6731 1.6648
5.5966 -6.8116 1.8172
1.1534 -1.1725 0.3390
1.2582 -1.0690 0.3403
1.3545 -0.9566 0.3418
1.4416 -0.8360 0.3435
1.5187 -0.7078 0.3454
1.5851 -0.5728 0.3474
1.6403 -0.4318 0.3496
1.6837 -0.2856 0.3520
1.7146 -0.1352 0.3545
1.7326 0.0185 0.3572
1.7373 0.1744 0.3599
1.7282 0.3314 0.3627
1.7053 0.4882 0.3656
1.6683 0.6436 0.3686
1.6171 0.7963 0.3716
7.6127 4.6354 1.8372
7.1724 5.2991 1.8382
6.6752 5.9220 1.8394
6.1243 6.4987 1.8406
5.5245 7.0252 1.8422
4.8805 7.4980 1.8441
4.1962 7.9120 1.8461
3.4772 8.2644 1.8482
2.7290 8.5521 1.8504
1.9573 8.7727 1.8528
1.1681 8.9243 1.8552
0.3674 9.0043 1.8576
-0.4382 9.0111 1.8596
-1.2421 8.9458 1.8617
-2.0377 8.8086 1.8636
-2.8200 8.6044 1.8664
-3.5900 8.3492 1.8733
-4.3406 8.0320 1.8819
-5.0621 7.6457 1.8901
-5.7487 7.1939 1.8982
-6.3941 6.6796 1.9060
-1.4459 1.2627 0.3957
-1.5451 1.1230 0.3937
-1.6301 0.9752 0.3915
-1.7002 0.8208 0.3892
-1.7551 0.6614 0.3866
-1.7946 0.4986 0.3839
-1.8186 0.3340 0.3811
-1.8272 0.1691 0.3783
-1.8208 0.0053 0.3753
