ply
format ascii 1.0
element vertex 2176
property float32 x
property float32 y
property float32 z
end_header
-0.2531 1.1019 0.3828
-0.3500 1.0737 0.3824
-0.4438 1.0366 0.3818
-0.5335 0.9911 0.3811
-0.6184 0.9375 0.3803
-0.6979 0.8764 0.3793
-0.7711 0.8085 0.3783
-0.8376 0.7342 0.3771
-0.8968 0.6544 0.3759
-0.9484 0.5698 0.3746
-0.9918 0.4812 0.3732
-1.0268 0.3893 0.3718
-1.0533 0.2950 0.3704
-1.0712 0.1991 0.3689
-1.0803 0.1023 0.3674
-1.0807 0.0055 0.3659
-1.0725 -0.0906 0.3644
-1.0559 -0.1851 0.3630
-1.0312 -0.2775 0.3616
-0.9985 -0.3670 0.3602
-0.9582 -0.4529 0.3589
-0.9108 -0.5347 0.3576
-0.8566 -0.6118 0.3564
-0.7962 -0.6837 0.3553
-0.7299 -0.7498 0.3543
-0.6584 -0.8098 0.3534
-0.5822 -0.8633 0.3526
-0.5018 -0.9100 0.3519
-0.4179 -0.9495 0.3512
-0.3311 -0.9816 0.3508
-0.2419 -1.0061 0.3504
-0.1511 -1.0230 0.3501
-0.0592 -1.0320 0.3500
0.0331 -1.0331 0.3500
0.1251 -1.0263 0.3501
0.2163 -1.0117 0.3503
0.3060 -0.9894 0.3507
0.3936 -0.9594 0.3511
0.4784 -0.9220 0.3517
0.5598 -0.8773 0.3524
0.6373 -0.8258 0.3532
0.7102 -0.7676 0.3541
0.7780 -0.7031 0.3551
0.8402 -0.6328 0.3562
0.8962 -0.5572 0.3573
0.9456 -0.4766 0.3586
0.9880 -0.3918 0.3599
1.0229 -0.3032 0.3612
1.0499 -0.2116 0.3626
1.0689 -0.1176 0.3641
1.0794 -0.0218 0.3656
1.0815 0.0748 0.3671
1.0748 0.1717 0.3685
1.0595 0.2680 0.3700
1.0354 0.3628 0.3715
1.0027 0.4555 0.3729
0.9616 0.5452 0.3743
0.9124 0.6310 0.3756
0.8553 0.7122 0.3769
0.7908 0.7881 0.3780
0.7194 0.8579 0.3791
0.6416 0.9210 0.3801
0.5581 0.9768 0.3809
0.4697 1.0247 0.3817
0.3770 1.0642 0.3823
0.2809 1.0949 0.3827
0.1823 1.1165 0.3831
0.0820 1.1289 0.3832
-0.0191 1.1318 0.3833
-0.1199 1.1253 0.3832
-0.2197 1.1094 0.3829
-0.3175 1.0843 0.3825
-0.4124 1.0502 0.3820
-0.5035 1.0075 0.3814
-0.5902 0.9566 0.3806
-0.6716 0.8980 0.3797
-0.7470 0.8322 0.3787
-0.8159 0.7601 0.3775
-0.8776 0.6821 0.3763
-0.9318 0.5990 0.3751
-0.9780 0.5117 0.3737
-1.0159 0.4208 0.3723
-1.0453 0.3272 0.3709
-1.0661 0.2317 0.3694
-1.0782 0.1352 0.3679
-1.0815 0.0383 0.3664
-1.0763 -0.0581 0.3649
-1.0625 -0.1533 0.3635
-1.0405 -0.2465 0.3620
-1.0104 -0.3370 0.3607
-0.9727 -0.4242 0.3593
-0.9277 -0.5075 0.3580
-0.8757 -0.5862 0.3568
-0.8174 -0.6599 0.3557
-0.7530 -0.7281 0.3546
-0.6832 -0.7902 0.3537
-0.6085 -0.8459 0.3528
-0.5295 -0.8949 0.3521
-0.4467 -0.9369 0.3514
-0.3608 -0.9715 0.3509
-0.2724 -0.9987 0.3505
-0.1821 -1.0181 0.3502
-0.0905 -1.0298 0.3500
0.0018 -1.0336 0.3500
0.0940 -1.0295 0.3500
0.1855 -1.0176 0.3502
0.2758 -0.9978 0.3505
0.3642 -0.9704 0.3509
0.4500 -0.9355 0.3515
0.5326 -0.8933 0.3521
0.6115 -0.8440 0.3529
0.6860 -0.7880 0.3538
0.7556 -0.7256 0.3547
0.8198 -0.6573 0.3558
0.8780 -0.5834 0.3569
0.9297 -0.5045 0.3581
0.9744 -0.4210 0.3594
1.0119 -0.3337 0.3608
1.0416 -0.2430 0.3622
1.0634 -0.1497 0.3636
1.0768 -0.0545 0.3651
1.0817 0.0420 0.3665
1.0780 0.1389 0.3680
1.0656 0.2354 0.3695
1.0445 0.3309 0.3710
1.0148 0.4244 0.3724
0.9765 0.5151 0.3738
0.9300 0.6023 0.3752
0.8755 0.6852 0.3764
0.8135 0.7630 0.3776
0.7443 0.8350 0.3787
0.6686 0.9004 0.3797
0.5870 0.9587 0.3806
0.5002 1.0093 0.3814
0.4088 1.0517 0.3821
0.3138 1.0855 0.3826
0.2159 1.1102 0.3830
0.1161 1.1258 0.3832
0.0152 1.1319 0.3833
-0.0858 1.1286 0.3832
-0.1860 1.1159 0.3830
-0.2846 1.0938 0.3827
-0.3805 1.0627 0.3822
-0.4731 1.0229 0.3816
-0.5613 0.9747 0.3809
-0.6446 0.9187 0.3800
-0.7221 0.8553 0.3790
-0.7933 0.7852 0.3779
-0.8575 0.7091 0.3768
-0.9143 0.6277 0.3755
-0.9632 0.5417 0.3742
-1.0040 0.4520 0.3728
-1.0363 0.3592 0.3714
-1.0600 0.2643 0.3699
-1.0751 0.1680 0.3684
-1.0814 0.0711 0.3669
-1.0790 -0.0255 0.3654
-1.0681 -0.1212 0.3640
-1.0489 -0.2151 0.3625
-1.0215 -0.3066 0.3611
-0.9864 -0.3950 0.3598
-0.9438 -0.4797 0.3585
-0.8941 -0.5601 0.3572
-0.8379 -0.6355 0.3561
-0.7755 -0.7056 0.3550
-0.7075 -0.7698 0.3540
-0.6344 -0.8278 0.3531
-0.5567 -0.8791 0.3523
-0.4752 -0.9235 0.3516
-0.3903 -0.9606 0.3511
-0.3026 -0.9903 0.3506
-0.2129 -1.0124 0.3503
-0.1216 -1.0267 0.3501
-0.0296 -1.0332 0.3500
0.0627 -1.0318 0.3500
0.1546 -1.0225 0.3501
0.2454 -1.0054 0.3504
0.3344 -0.9806 0.3508
0.4212 -0.9482 0.3513
0.5050 -0.9084 0.3519
0.5852 -0.8615 0.3526
0.6613 -0.8077 0.3535
0.7326 -0.7475 0.3544
0.7987 -0.6811 0.3554
0.8589 -0.6091 0.3565
0.9129 -0.5318 0.3577
0.9600 -0.4498 0.3590
1.0000 -0.3637 0.3603
1.0324 -0.2741 0.3617
1.0569 -0.1816 0.3631
1.0732 -0.0869 0.3646
1.0810 0.0092 0.3660
1.0803 0.1060 0.3675
1.0708 0.2028 0.3690
1.0527 0.2987 0.3705
1.0258 0.3929 0.3719
0.9904 0.4847 0.3734
0.9467 0.5732 0.3747
0.8949 0.6576 0.3760
0.8353 0.7372 0.3772
0.7685 0.8112 0.3784
0.6950 0.8790 0.3794
0.6153 0.9398 0.3804
0.5302 0.9931 0.3812
0.4403 1.0383 0.3819
0.3464 1.0750 0.3824
0.2494 1.1028 0.3828
0.1501 1.1215 0.3831
0.0495 1.1309 0.3833
-0.0516 1.1308 0.3833
-0.1522 1.1212 0.3831
-0.2514 1.1023 0.3828
-0.3483 1.0743 0.3824
-0.4421 1.0374 0.3818
-0.5319 0.9920 0.3811
-0.6170 0.9385 0.3803
-0.6965 0.8776 0.3794
-0.7699 0.8097 0.3783
-0.8365 0.7356 0.3772
-0.8959 0.6559 0.3759
-0.9475 0.5714 0.3746
-0.9911 0.4828 0.3733
-1.0263 0.3910 0.3719
-1.0530 0.2967 0.3704
-1.0709 0.2008 0.3689
-1.0802 0.1040 0.3674
-1.0808 0.0072 0.3660
-1.0728 -0.0889 0.3645
-1.0563 -0.1835 0.3630
-1.0317 -0.2759 0.3616
-0.9991 -0.3654 0.3602
-0.9590 -0.4514 0.3589
-0.9117 -0.5333 0.3576
-0.8576 -0.6105 0.3565
-0.7973 -0.6825 0.3553
-0.7311 -0.7487 0.3543
-0.6597 -0.8088 0.3534
-0.5836 -0.8624 0.3526
-0.5033 -0.9092 0.3519
-0.4194 -0.9488 0.3513
-0.3326 -0.9811 0.3508
-0.2435 -1.0058 0.3504
-0.1527 -1.0227 0.3501
-0.0609 -1.0319 0.3500
0.0314 -1.0331 0.3500
0.1235 -1.0265 0.3501
0.2147 -1.0121 0.3503
0.3045 -0.9898 0.3506
0.3921 -0.9600 0.3511
0.4769 -0.9227 0.3517
0.5584 -0.8782 0.3524
0.6360 -0.8267 0.3532
0.7090 -0.7686 0.3541
0.7769 -0.7043 0.3551
0.8392 -0.6341 0.3561
0.8953 -0.5585 0.3573
0.9448 -0.4781 0.3585
0.9873 -0.3933 0.3598
1.0223 -0.3048 0.3612
1.0495 -0.2133 0.3626
1.0686 -0.1193 0.3641
1.0793 -0.0235 0.3655
1.0815 0.0731 0.3670
1.0750 0.1700 0.3685
1.0598 0.2663 0.3700
1.0359 0.3612 0.3715
1.0034 0.4539 0.3729
0.9624 0.5436 0.3743
0.9133 0.6295 0.3756
0.8564 0.7108 0.3768
0.7920 0.7868 0.3780
0.7207 0.8568 0.3791
0.6430 0.9200 0.3800
0.5596 0.9759 0.3809
0.4713 1.0239 0.3816
0.3786 1.0635 0.3822
0.2826 1.0944 0.3827
0.1840 1.1162 0.3831
0.0837 1.1288 0.3832
-0.0173 1.1319 0.3833
-0.1182 1.1255 0.3832
-0.2179 1.1098 0.3829
-0.3158 1.0848 0.3826
-0.4107 1.0509 0.3820
-0.5020 1.0083 0.3814
-0.5887 0.9575 0.3806
-0.6702 0.8991 0.3797
-0.7457 0.8335 0.3787
-0.8147 0.7614 0.3776
-0.8766 0.6835 0.3764
-0.9309 0.6005 0.3751
-0.9772 0.5132 0.3737
-1.0153 0.4224 0.3723
-1.0449 0.3289 0.3709
-1.0658 0.2334 0.3694
-1.0780 0.1369 0.3679
-1.0815 0.0400 0.3665
-1.0764 -0.0564 0.3650
-1.0628 -0.1516 0.3635
-1.0409 -0.2448 0.3621
-1.0110 -0.3354 0.3607
-0.9734 -0.4227 0.3593
-0.9285 -0.5061 0.3581
-0.8767 -0.5849 0.3568
-0.8184 -0.6587 0.3557
-0.7542 -0.7269 0.3547
-0.6845 -0.7891 0.3537
-0.6099 -0.8450 0.3529
-0.5309 -0.8941 0.3521
-0.4482 -0.9362 0.3515
-0.3624 -0.9710 0.3509
-0.2740 -0.9983 0.3505
-0.1837 -1.0178 0.3502
-0.0921 -1.0296 0.3500
0.0001 -1.0336 0.3500
0.0923 -1.0296 0.3500
0.1839 -1.0178 0.3502
0.2742 -0.9982 0.3505
0.3626 -0.9710 0.3509
0.4485 -0.9362 0.3515
0.5312 -0.8941 0.3521
0.6101 -0.8449 0.3529
0.6847 -0.7891 0.3537
0.7545 -0.7268 0.3547
0.8187 -0.6585 0.3558
0.8770 -0.5848 0.3569
0.9288 -0.5059 0.3581
0.9737 -0.4225 0.3594
1.0113 -0.3352 0.3607
1.0412 -0.2446 0.3621
1.0630 -0.1514 0.3636
1.0766 -0.0562 0.3650
1.0817 0.0403 0.3665
1.0782 0.1372 0.3680
1.0659 0.2337 0.3695
1.0450 0.3292 0.3710
1.0154 0.4227 0.3724
0.9773 0.5136 0.3738
0.9309 0.6008 0.3751
0.8765 0.6838 0.3764
0.8146 0.7617 0.3776
0.7456 0.8337 0.3787
0.6700 0.8993 0.3797
0.5885 0.9578 0.3806
0.5018 1.0085 0.3814
0.4105 1.0510 0.3821
0.3155 1.0849 0.3826
0.2177 1.1099 0.3830
0.1179 1.1256 0.3832
0.0170 1.1319 0.3833
-0.0840 1.1287 0.3832
-0.1843 1.1162 0.3830
-0.2829 1.0943 0.3827
-0.3789 1.0634 0.3822
-0.4715 1.0237 0.3816
-0.5598 0.9756 0.3809
-0.6432 0.9197 0.3800
-0.7208 0.8565 0.3790
-0.7921 0.7865 0.3780
-0.8564 0.7105 0.3768
-0.9133 0.6292 0.3755
-0.9624 0.5433 0.3742
-1.0033 0.4536 0.3728
-1.0358 0.3609 0.3714
-1.0597 0.2660 0.3699
-1.0749 0.1697 0.3685
-1.0813 0.0728 0.3670
-1.0791 -0.0238 0.3655
-1.0684 -0.1195 0.3640
-1.0493 -0.2135 0.3626
-1.0221 -0.3050 0.3611
-0.9870 -0.3935 0.3598
-0.9446 -0.4783 0.3585
-0.8950 -0.5587 0.3572
-0.8389 -0.6342 0.3561
-0.7766 -0.7044 0.3550
-0.7087 -0.7687 0.3540
-0.6357 -0.8268 0.3531
-0.5582 -0.8782 0.3523
-0.4767 -0.9227 0.3517
-0.3918 -0.9600 0.3511
-0.3042 -0.9899 0.3506
-0.2145 -1.0121 0.3503
-0.1233 -1.0265 0.3501
-0.0312 -1.0331 0.3500
0.0611 -1.0319 0.3500
0.1530 -1.0227 0.3501
0.2438 -1.0057 0.3504
0.3329 -0.9811 0.3508
0.4197 -0.9488 0.3513
0.5035 -0.9092 0.3519
0.5838 -0.8624 0.3526
0.6600 -0.8088 0.3534
0.7314 -0.7486 0.3544
0.7975 -0.6823 0.3554
0.8579 -0.6104 0.3565
0.9120 -0.5332 0.3577
0.9593 -0.4513 0.3590
0.9994 -0.3653 0.3603
1.0319 -0.2757 0.3617
1.0565 -0.1833 0.3631
1.0730 -0.0886 0.3645
1.0810 0.0075 0.3660
1.0804 0.1043 0.3675
1.0711 0.2011 0.3690
1.0531 0.2970 0.3705
1.0264 0.3913 0.3719
0.9911 0.4831 0.3733
0.9475 0.5717 0.3747
0.8958 0.6562 0.3760
0.8364 0.7359 0.3772
0.7698 0.8100 0.3784
0.6964 0.8778 0.3794
0.6168 0.9388 0.3803
0.5317 0.9922 0.3812
0.4419 1.0376 0.3819
0.3481 1.0744 0.3824
0.2511 1.1024 0.3828
0.1519 1.1213 0.3831
0.0513 1.1308 0.3833
-0.0498 1.1309 0.3833
-0.1504 1.1215 0.3831
-0.2497 1.1027 0.3828
-0.3466 1.0749 0.3824
-0.4405 1.0381 0.3818
-0.5304 0.9929 0.3811
-0.6155 0.9395 0.3803
-0.6951 0.8787 0.3794
-0.7686 0.8110 0.3783
-0.8354 0.7369 0.3772
-0.8949 0.6573 0.3760
-0.9467 0.5729 0.3747
-0.9904 0.4844 0.3733
-1.0257 0.3926 0.3719
-1.0526 0.2984 0.3704
-1.0707 0.2025 0.3690
-1.0801 0.1057 0.3675
-1.0808 0.0089 0.3660
-1.0730 -0.0872 0.3645
-1.0567 -0.1818 0.3630
-1.0322 -0.2743 0.3616
-0.9998 -0.3639 0.3602
-0.9598 -0.4500 0.3589
-0.9126 -0.5319 0.3577
-0.8587 -0.6092 0.3565
-0.7984 -0.6812 0.3554
-0.7323 -0.7476 0.3543
-0.6610 -0.8078 0.3534
-0.5849 -0.8616 0.3526
-0.5047 -0.9084 0.3519
-0.4209 -0.9482 0.3513
-0.3342 -0.9806 0.3508
-0.2451 -1.0054 0.3504
-0.1543 -1.0225 0.3501
-0.0625 -1.0318 0.3500
0.0298 -1.0332 0.3500
0.1219 -1.0267 0.3501
0.2131 -1.0124 0.3503
0.3029 -0.9903 0.3506
0.3905 -0.9606 0.3511
0.4754 -0.9234 0.3517
0.5570 -0.8790 0.3524
0.6346 -0.8277 0.3532
0.7077 -0.7697 0.3540
0.7757 -0.7055 0.3550
0.8381 -0.6354 0.3561
0.8944 -0.5599 0.3573
0.9440 -0.4796 0.3585
0.9866 -0.3949 0.3598
1.0218 -0.3064 0.3612
1.0491 -0.2149 0.3626
1.0683 -0.1209 0.3640
1.0792 -0.0253 0.3655
1.0815 0.0714 0.3670
1.0752 0.1683 0.3685
1.0601 0.2646 0.3700
1.0364 0.3595 0.3714
1.0040 0.4523 0.3729
0.9632 0.5420 0.3742
0.9143 0.6280 0.3756
0.8574 0.7094 0.3768
0.7932 0.7855 0.3780
0.7220 0.8556 0.3791
0.6444 0.9189 0.3800
0.5612 0.9749 0.3809
0.4729 1.0231 0.3816
0.3803 1.0629 0.3822
0.2843 1.0939 0.3827
0.1858 1.1159 0.3830
0.0855 1.1286 0.3832
-0.0155 1.1319 0.3833
-0.1164 1.1257 0.3832
-0.2162 1.1101 0.3829
-0.3141 1.0853 0.3826
-0.4091 1.0515 0.3820
-0.5004 1.0091 0.3814
-0.5872 0.9585 0.3806
-0.6688 0.9002 0.3797
-0.7444 0.8347 0.3787
-0.8135 0.7627 0.3776
-0.8755 0.6849 0.3764
-0.9300 0.6020 0.3751
-0.9765 0.5148 0.3738
-1.0147 0.4241 0.3724
-1.0444 0.3306 0.3709
-1.0655 0.2351 0.3695
-1.0779 0.1386 0.3680
-1.0816 0.0417 0.3665
-1.0766 -0.0547 0.3650
-1.0631 -0.1499 0.3635
-1.0414 -0.2432 0.3621
-1.0116 -0.3339 0.3607
-0.9742 -0.4212 0.3594
-0.9294 -0.5046 0.3581
-0.8777 -0.5835 0.3569
-0.8195 -0.6574 0.3557
-0.7554 -0.7257 0.3547
-0.6858 -0.7881 0.3537
-0.6112 -0.8441 0.3529
-0.5324 -0.8933 0.3521
-0.4497 -0.9355 0.3515
-0.3639 -0.9704 0.3509
-0.2756 -0.9978 0.3505
-0.1853 -1.0176 0.3502
-0.0937 -1.0295 0.3500
-0.0015 -1.0336 0.3500
0.0907 -1.0298 0.3500
0.1823 -1.0181 0.3502
0.2726 -0.9986 0.3505
0.3611 -0.9715 0.3509
0.4470 -0.9368 0.3515
0.5298 -0.8949 0.3521
0.6088 -0.8459 0.3529
0.6835 -0.7901 0.3537
0.7533 -0.7280 0.3547
0.8176 -0.6598 0.3557
0.8760 -0.5861 0.3569
0.9279 -0.5073 0.3581
0.9730 -0.4240 0.3594
1.0107 -0.3368 0.3607
1.0407 -0.2463 0.3621
1.0627 -0.1530 0.3635
1.0765 -0.0579 0.3650
1.0817 0.0386 0.3665
1.0783 0.1354 0.3680
1.0662 0.2320 0.3695
1.0454 0.3275 0.3709
1.0160 0.4211 0.3724
0.9780 0.5120 0.3738
0.9318 0.5993 0.3751
0.8776 0.6824 0.3764
0.8158 0.7603 0.3776
0.7469 0.8325 0.3787
0.6714 0.8982 0.3797
0.5900 0.9568 0.3806
0.5033 1.0077 0.3814
0.4121 1.0504 0.3820
0.3172 1.0844 0.3826
0.2194 1.1095 0.3830
0.1197 1.1254 0.3832
0.0188 1.1318 0.3833
-0.0822 1.1289 0.3832
-0.1825 1.1165 0.3830
-0.2811 1.0948 0.3827
-0.3772 1.0640 0.3822
-0.4699 1.0245 0.3816
-0.5583 0.9766 0.3809
-0.6417 0.9208 0.3800
-0.7195 0.8577 0.3790
-0.7909 0.7878 0.3780
-0.8553 0.7119 0.3768
-0.9124 0.6307 0.3756
-0.9616 0.5448 0.3742
-1.0027 0.4552 0.3728
-1.0353 0.3625 0.3714
-1.0593 0.2677 0.3700
-1.0747 0.1714 0.3685
-1.0813 0.0746 0.3670
-1.0792 -0.0221 0.3655
-1.0686 -0.1178 0.3640
-1.0497 -0.2118 0.3626
-1.0226 -0.3034 0.3612
-0.9877 -0.3920 0.3598
-0.9454 -0.4768 0.3585
-0.8960 -0.5573 0.3573
-0.8399 -0.6329 0.3561
-0.7778 -0.7032 0.3550
-0.7100 -0.7676 0.3540
-0.6370 -0.8258 0.3531
-0.5596 -0.8774 0.3524
-0.4781 -0.9220 0.3517
-0.3933 -0.9594 0.3511
-0.3058 -0.9894 0.3506
-0.2161 -1.0117 0.3503
-0.1249 -1.0263 0.3501
-0.0328 -1.0331 0.3500
0.0595 -1.0320 0.3500
0.1514 -1.0229 0.3501
0.2422 -1.0061 0.3504
0.3313 -0.9816 0.3508
0.4182 -0.9494 0.3513
0.5021 -0.9099 0.3519
0.5824 -0.8633 0.3526
0.6587 -0.8098 0.3534
0.7302 -0.7497 0.3544
0.7964 -0.6836 0.3554
0.8569 -0.6117 0.3565
0.9111 -0.5346 0.3577
0.9585 -0.4528 0.3589
0.9987 -0.3668 0.3603
1.0314 -0.2773 0.3616
1.0562 -0.1849 0.3631
1.0727 -0.0903 0.3645
1.0809 0.0058 0.3660
1.0804 0.1026 0.3675
1.0713 0.1994 0.3690
1.0535 0.2953 0.3704
1.0269 0.3896 0.3719
0.9918 0.4815 0.3733
0.9484 0.5701 0.3747
0.8968 0.6547 0.3760
0.2097 1.0875 0.3826
0.1120 1.1025 0.3828
0.0132 1.1083 0.3829
-0.0858 1.1049 0.3829
-0.1839 1.0923 0.3827
-0.2803 1.0706 0.3823
-0.3743 1.0400 0.3819
-0.4648 1.0009 0.3813
-0.5512 0.9536 0.3805
-0.6327 0.8986 0.3797
-0.7085 0.8365 0.3787
-0.7781 0.7678 0.3777
-0.8410 0.6932 0.3765
-0.8965 0.6134 0.3753
-0.9444 0.5292 0.3740
-0.9842 0.4412 0.3726
-1.0158 0.3503 0.3712
-1.0390 0.2573 0.3698
-1.0537 0.1630 0.3683
-1.0598 0.0680 0.3669
-1.0574 -0.0267 0.3654
-1.0467 -0.1204 0.3640
-1.0278 -0.2125 0.3626
-1.0009 -0.3022 0.3612
-0.9664 -0.3888 0.3599
-0.9245 -0.4718 0.3586
-0.8758 -0.5505 0.3574
-0.8206 -0.6245 0.3562
-0.7593 -0.6931 0.3552
-0.6926 -0.7560 0.3542
-0.6209 -0.8128 0.3533
-0.5447 -0.8630 0.3526
-0.4646 -0.9065 0.3519
-0.3813 -0.9428 0.3514
-0.2953 -0.9718 0.3509
-0.2072 -0.9934 0.3506
-0.1177 -1.0073 0.3504
-0.0274 -1.0135 0.3503
0.0631 -1.0120 0.3503
0.1532 -1.0027 0.3504
0.2422 -0.9858 0.3507
0.3296 -0.9613 0.3511
0.4146 -0.9294 0.3516
0.4967 -0.8902 0.3522
0.5753 -0.8441 0.3529
0.6498 -0.7912 0.3537
0.7197 -0.7320 0.3546
0.7843 -0.6667 0.3556
0.8432 -0.5959 0.3567
0.8960 -0.5200 0.3579
0.9420 -0.4395 0.3591
0.9810 -0.3550 0.3604
1.0126 -0.2671 0.3618
1.0364 -0.1764 0.3632
1.0521 -0.0836 0.3646
1.0595 0.0107 0.3661
1.0586 0.1056 0.3675
1.0491 0.2004 0.3690
1.0310 0.2943 0.3704
1.0045 0.3866 0.3718
0.9696 0.4764 0.3732
0.9265 0.5630 0.3746
0.8756 0.6456 0.3758
0.8171 0.7234 0.3770
0.7515 0.7958 0.3781
0.6793 0.8620 0.3792
0.6012 0.9213 0.3801
0.5177 0.9733 0.3809
0.4295 1.0174 0.3815
0.3375 1.0532 0.3821
0.2425 1.0803 0.3825
0.1453 1.0984 0.3828
0.0467 1.1074 0.3829
-0.0522 1.1071 0.3829
-0.1507 1.0976 0.3828
-0.2479 1.0790 0.3825
-0.3427 1.0514 0.3820
-0.4345 1.0151 0.3815
-0.5224 0.9706 0.3808
-0.6056 0.9181 0.3800
-0.6835 0.8584 0.3791
-0.7552 0.7918 0.3780
-0.8204 0.7191 0.3769
-0.8785 0.6410 0.3757
-0.9290 0.5582 0.3744
-0.9716 0.4714 0.3731
-1.0061 0.3814 0.3717
-1.0321 0.2891 0.3703
-1.0497 0.1951 0.3688
-1.0587 0.1002 0.3674
-1.0592 0.0054 0.3659
-1.0513 -0.0888 0.3645
-1.0351 -0.1815 0.3630
-1.0109 -0.2721 0.3617
-0.9789 -0.3598 0.3603
-0.9395 -0.4441 0.3590
-0.8931 -0.5243 0.3578
-0.8400 -0.5999 0.3566
-0.7808 -0.6704 0.3555
-0.7158 -0.7354 0.3545
-0.6457 -0.7942 0.3536
-0.5710 -0.8467 0.3528
-0.4922 -0.8925 0.3521
-0.4099 -0.9313 0.3515
-0.3248 -0.9628 0.3510
-0.2373 -0.9869 0.3507
-0.1482 -1.0034 0.3504
-0.0581 -1.0123 0.3503
0.0324 -1.0134 0.3503
0.1228 -1.0068 0.3504
0.2122 -0.9924 0.3506
0.3002 -0.9705 0.3509
0.3861 -0.9410 0.3514
0.4692 -0.9043 0.3520
0.5491 -0.8605 0.3526
0.6250 -0.8099 0.3534
0.6965 -0.7528 0.3543
0.7630 -0.6895 0.3553
0.8239 -0.6205 0.3563
0.8788 -0.5463 0.3575
0.9272 -0.4673 0.3587
0.9686 -0.3841 0.3600
1.0027 -0.2973 0.3613
1.0292 -0.2074 0.3627
1.0477 -0.1152 0.3641
1.0579 -0.0214 0.3656
1.0599 0.0733 0.3670
1.0533 0.1683 0.3685
1.0381 0.2626 0.3699
1.0145 0.3555 0.3714
0.9824 0.4463 0.3728
0.9421 0.5340 0.3741
0.8937 0.6181 0.3754
0.8377 0.6976 0.3766
0.7745 0.7719 0.3778
0.7045 0.8402 0.3788
0.6283 0.9020 0.3798
0.5466 0.9565 0.3806
0.4599 1.0034 0.3813
0.3691 1.0420 0.3819
0.2750 1.0721 0.3824
0.1785 1.0933 0.3827
0.0803 1.1054 0.3829
-0.0187 1.1082 0.3829
-0.1174 1.1019 0.3828
-0.2151 1.0863 0.3826
-0.3109 1.0617 0.3822
-0.4038 1.0284 0.3817
-0.4931 0.9866 0.3810
-0.5780 0.9368 0.3803
-0.6577 0.8794 0.3794
-0.7316 0.8151 0.3784
-0.7991 0.7444 0.3773
-0.8596 0.6681 0.3761
-0.9128 0.5868 0.3749
-0.9581 0.5013 0.3736
-0.9953 0.4123 0.3722
-1.0242 0.3206 0.3708
-1.0447 0.2271 0.3693
-1.0566 0.1325 0.3679
-1.0600 0.0375 0.3664
-1.0549 -0.0570 0.3650
-1.0415 -0.1502 0.3635
-1.0200 -0.2416 0.3621
-0.9906 -0.3304 0.3608
-0.9537 -0.4159 0.3594
-0.9096 -0.4976 0.3582
-0.8587 -0.5748 0.3570
-0.8015 -0.6471 0.3559
-0.7385 -0.7140 0.3549
-0.6700 -0.7750 0.3539
-0.5968 -0.8297 0.3531
-0.5193 -0.8778 0.3523
-0.4382 -0.9190 0.3517
-0.3539 -0.9530 0.3512
-0.2672 -0.9796 0.3508
-0.1786 -0.9987 0.3505
-0.0887 -1.0101 0.3503
0.0017 -1.0139 0.3503
0.0922 -1.0099 0.3503
0.1820 -0.9981 0.3505
0.2705 -0.9788 0.3508
0.3572 -0.9519 0.3512
0.4414 -0.9176 0.3518
0.5224 -0.8761 0.3524
0.5997 -0.8278 0.3531
0.6728 -0.7728 0.3540
0.7410 -0.7116 0.3549
0.8039 -0.6446 0.3560
0.8609 -0.5721 0.3571
0.9115 -0.4946 0.3583
0.9554 -0.4128 0.3595
0.9920 -0.3271 0.3609
1.0211 -0.2382 0.3622
1.0423 -0.1467 0.3636
1.0554 -0.0534 0.3651
1.0602 0.0411 0.3665
1.0565 0.1361 0.3680
1.0442 0.2307 0.3695
1.0234 0.3242 0.3709
0.9942 0.4158 0.3723
0.9566 0.5047 0.3737
0.9110 0.5900 0.3750
0.8576 0.6712 0.3762
0.7967 0.7473 0.3774
0.7290 0.8178 0.3785
0.6548 0.8818 0.3795
0.5749 0.9389 0.3803
0.4898 0.9884 0.3811
0.4003 1.0299 0.3817
0.3073 1.0629 0.3822
0.2114 1.0871 0.3826
0.1137 1.1023 0.3828
0.0149 1.1083 0.3829
-0.0840 1.1051 0.3829
-0.1822 1.0926 0.3827
-0.2787 1.0711 0.3823
-0.3726 1.0407 0.3819
-0.4633 1.0017 0.3813
-0.5497 0.9545 0.3805
-0.6313 0.8997 0.3797
-0.7072 0.8377 0.3787
-0.7770 0.7691 0.3777
-0.8399 0.6946 0.3765
-0.8956 0.6149 0.3753
-0.9436 0.5307 0.3740
-0.9836 0.4428 0.3727
-1.0154 0.3520 0.3713
-1.0387 0.2590 0.3698
-1.0535 0.1646 0.3684
-1.0598 0.0697 0.3669
-1.0575 -0.0250 0.3655
-1.0469 -0.1188 0.3640
-1.0282 -0.2109 0.3626
-1.0014 -0.3006 0.3612
-0.9670 -0.3873 0.3599
-0.9253 -0.4704 0.3586
-0.8767 -0.5492 0.3574
-0.8216 -0.6232 0.3563
-0.7605 -0.6919 0.3552
-0.6938 -0.7550 0.3542
-0.6222 -0.8118 0.3534
-0.5461 -0.8622 0.3526
-0.4661 -0.9058 0.3519
-0.3828 -0.9422 0.3514
-0.2969 -0.9714 0.3509
-0.2088 -0.9931 0.3506
-0.1193 -1.0071 0.3504
-0.0290 -1.0135 0.3503
0.0615 -1.0121 0.3503
0.1516 -1.0030 0.3504
0.2407 -0.9862 0.3507
0.3281 -0.9618 0.3511
0.4131 -0.9300 0.3516
0.4953 -0.8910 0.3522
0.5740 -0.8449 0.3529
0.6485 -0.7922 0.3537
0.7185 -0.7331 0.3546
0.7832 -0.6679 0.3556
0.8422 -0.5972 0.3567
0.8951 -0.5214 0.3579
0.9413 -0.4410 0.3591
0.9804 -0.3566 0.3604
1.0121 -0.2687 0.3618
1.0360 -0.1780 0.3632
1.0519 -0.0852 0.3646
1.0595 0.0090 0.3660
1.0587 0.1039 0.3675
1.0493 0.1987 0.3690
1.0314 0.2927 0.3704
1.0051 0.3850 0.3718
0.9703 0.4749 0.3732
0.9274 0.5615 0.3745
0.8765 0.6442 0.3758
0.8182 0.7221 0.3770
0.7527 0.7946 0.3781
0.6807 0.8608 0.3791
0.6026 0.9203 0.3801
0.5192 0.9725 0.3809
0.4311 1.0167 0.3815
0.3392 1.0526 0.3821
0.2442 1.0799 0.3825
0.1470 1.0982 0.3828
0.0485 1.1073 0.3829
-0.0505 1.1072 0.3829
-0.1490 1.0979 0.3828
-0.2462 1.0794 0.3825
-0.3411 1.0519 0.3821
-0.4329 1.0158 0.3815
-0.5209 0.9714 0.3808
-0.6042 0.9191 0.3800
-0.6821 0.8595 0.3791
-0.7540 0.7930 0.3781
-0.8193 0.7205 0.3769
-0.8775 0.6425 0.3757
-0.9282 0.5597 0.3745
-0.9710 0.4730 0.3731
-1.0055 0.3831 0.3717
-1.0317 0.2907 0.3703
-1.0494 0.1967 0.3689
-1.0586 0.1019 0.3674
-1.0592 0.0071 0.3660
-1.0515 -0.0871 0.3645
-1.0354 -0.1799 0.3631
-1.0114 -0.2705 0.3617
-0.9795 -0.3583 0.3603
-0.9403 -0.4426 0.3590
-0.8940 -0.5229 0.3578
-0.8410 -0.5986 0.3566
-0.7819 -0.6692 0.3556
-0.7170 -0.7343 0.3546
-0.6470 -0.7933 0.3536
-0.5723 -0.8459 0.3528
-0.4936 -0.8918 0.3521
-0.4114 -0.9307 0.3515
-0.3263 -0.9623 0.3511
-0.2389 -0.9866 0.3507
-0.1498 -1.0032 0.3504
-0.0597 -1.0122 0.3503
0.0308 -1.0134 0.3503
0.1212 -1.0069 0.3504
0.2106 -0.9927 0.3506
0.2986 -0.9709 0.3509
0.3846 -0.9416 0.3514
0.4678 -0.9050 0.3520
0.5477 -0.8613 0.3526
0.6237 -0.8108 0.3534
0.6953 -0.7538 0.3543
0.7619 -0.6907 0.3553
0.8229 -0.6218 0.3563
0.8779 -0.5477 0.3575
0.9264 -0.4688 0.3587
0.9679 -0.3856 0.3600
1.0022 -0.2988 0.3613
1.0288 -0.2091 0.3627
1.0474 -0.1169 0.3641
1.0578 -0.0231 0.3655
1.0599 0.0717 0.3670
1.0535 0.1666 0.3685
1.0385 0.2609 0.3699
1.0150 0.3539 0.3713
0.9830 0.4447 0.3727
0.9428 0.5325 0.3741
0.8946 0.6166 0.3754
0.8388 0.6963 0.3766
0.7757 0.7706 0.3778
0.7058 0.8391 0.3788
0.6297 0.9010 0.3798
0.5480 0.9557 0.3806
0.4615 1.0026 0.3813
0.3708 1.0414 0.3819
0.2767 1.0716 0.3824
0.1802 1.0930 0.3827
0.0820 1.1052 0.3829
-0.0169 1.1083 0.3829
-0.1157 1.1021 0.3828
-0.2134 1.0867 0.3826
-0.3092 1.0622 0.3822
-0.4022 1.0290 0.3817
-0.4915 0.9874 0.3811
-0.5765 0.9377 0.3803
-0.6563 0.8805 0.3794
-0.7304 0.8163 0.3784
-0.7980 0.7457 0.3773
-0.8586 0.6695 0.3762
-0.9119 0.5883 0.3749
-0.9574 0.5028 0.3736
-0.9947 0.4139 0.3722
-1.0238 0.3223 0.3708
-1.0444 0.2288 0.3694
-1.0564 0.1341 0.3679
-1.0600 0.0392 0.3664
-1.0550 -0.0553 0.3650
-1.0418 -0.1486 0.3636
-1.0204 -0.2400 0.3621
-0.9912 -0.3288 0.3608
-0.9544 -0.4144 0.3595
-0.9104 -0.4962 0.3582
-0.8597 -0.5735 0.3570
-0.8026 -0.6459 0.3559
-0.7396 -0.7129 0.3549
-0.6713 -0.7739 0.3539
-0.5982 -0.8288 0.3531
-0.5207 -0.8770 0.3524
-0.4396 -0.9183 0.3517
-0.3554 -0.9524 0.3512
-0.2688 -0.9792 0.3508
-0.1802 -0.9984 0.3505
-0.0903 -1.0100 0.3503
0.0001 -1.0139 0.3503
0.0906 -1.0100 0.3503
0.1804 -0.9984 0.3505
0.2690 -0.9792 0.3508
0.3557 -0.9524 0.3512
0.4399 -0.9182 0.3518
0.5210 -0.8769 0.3524
0.5984 -0.8287 0.3531
0.6716 -0.7739 0.3540
0.7399 -0.7128 0.3549
0.8028 -0.6458 0.3560
0.8599 -0.5734 0.3571
0.9107 -0.4960 0.3583
0.9546 -0.4143 0.3595
0.9914 -0.3287 0.3608
1.0206 -0.2398 0.3622
1.0420 -0.1484 0.3636
1.0552 -0.0550 0.3651
1.0601 0.0395 0.3665
1.0566 0.1344 0.3680
1.0445 0.2290 0.3694
1.0239 0.3226 0.3709
0.9948 0.4142 0.3723
0.9574 0.5031 0.3736
0.9119 0.5886 0.3750
0.8586 0.6698 0.3762
0.7979 0.7460 0.3774
0.7302 0.8166 0.3785
0.6562 0.8807 0.3794
0.5763 0.9379 0.3803
0.4913 0.9876 0.3811
0.4020 1.0292 0.3817
0.3090 1.0624 0.3822
0.2132 1.0868 0.3826
0.1154 1.1021 0.3828
0.0167 1.1083 0.3829
-0.0823 1.1052 0.3829
-0.1804 1.0929 0.3827
-0.2770 1.0715 0.3824
-0.3710 1.0413 0.3819
-0.4617 1.0024 0.3813
-0.5482 0.9554 0.3806
-0.6299 0.9007 0.3797
-0.7059 0.8388 0.3788
-0.7758 0.7704 0.3777
-0.8389 0.6960 0.3766
-0.8947 0.6163 0.3753
-0.9428 0.5322 0.3740
-0.9830 0.4444 0.3727
-1.0149 0.3536 0.3713
-1.0384 0.2606 0.3699
-1.0533 0.1663 0.3684
-1.0597 0.0714 0.3669
-1.0577 -0.0233 0.3655
-1.0472 -0.1171 0.3640
-1.0286 -0.2093 0.3626
-1.0020 -0.2990 0.3612
-0.9677 -0.3858 0.3599
-0.9261 -0.4689 0.3586
-0.8776 -0.5478 0.3574
-0.8226 -0.6219 0.3563
-0.7616 -0.6908 0.3552
-0.6950 -0.7539 0.3543
-0.6235 -0.8109 0.3534
-0.5474 -0.8614 0.3526
-0.4675 -0.9051 0.3519
-0.3843 -0.9417 0.3514
-0.2984 -0.9709 0.3509
-0.2104 -0.9928 0.3506
-0.1209 -1.0069 0.3504
-0.0306 -1.0134 0.3503
0.0599 -1.0122 0.3503
0.1501 -1.0032 0.3504
0.2391 -0.9865 0.3507
0.3265 -0.9623 0.3511
0.4116 -0.9306 0.3516
0.4939 -0.8917 0.3522
0.5726 -0.8458 0.3529
0.6473 -0.7932 0.3537
0.7173 -0.7342 0.3546
0.7821 -0.6691 0.3556
0.8413 -0.5985 0.3567
0.8942 -0.5228 0.3579
0.9405 -0.4425 0.3591
0.9798 -0.3581 0.3604
1.0116 -0.2703 0.3617
1.0357 -0.1796 0.3631
1.0517 -0.0869 0.3646
1.0594 0.0073 0.3660
1.0588 0.1022 0.3675
1.0496 0.1970 0.3689
1.0318 0.2910 0.3704
1.0056 0.3834 0.3718
0.9710 0.4733 0.3732
0.9282 0.5600 0.3745
0.8775 0.6428 0.3758
0.8193 0.7208 0.3770
0.7539 0.7933 0.3781
0.6820 0.8597 0.3791
0.6040 0.9194 0.3800
0.5207 0.9716 0.3808
0.4327 1.0160 0.3815
0.3409 1.0521 0.3821
0.2459 1.0795 0.3825
0.1487 1.0979 0.3828
0.0502 1.1072 0.3829
-0.0487 1.1073 0.3829
-0.1473 1.0981 0.3828
-0.2445 1.0798 0.3825
-0.3394 1.0525 0.3821
-0.4313 1.0165 0.3815
-0.5194 0.9723 0.3808
-0.6028 0.9201 0.3800
-0.6808 0.8606 0.3791
-0.7528 0.7943 0.3781
-0.8182 0.7218 0.3770
-0.8766 0.6439 0.3758
-0.9274 0.5612 0.3745
-0.9703 0.4745 0.3731
-1.0050 0.3847 0.3718
-1.0313 0.2924 0.3703
-1.0492 0.1984 0.3689
-1.0585 0.1036 0.3674
-1.0593 0.0087 0.3660
-1.0517 -0.0855 0.3645
-1.0358 -0.1782 0.3631
-1.0119 -0.2689 0.3617
-0.9802 -0.3567 0.3604
-0.9410 -0.4412 0.3591
-0.8948 -0.5216 0.3578
-0.8420 -0.5974 0.3567
-0.7829 -0.6680 0.3556
-0.7182 -0.7332 0.3546
-0.6483 -0.7923 0.3537
-0.5737 -0.8450 0.3529
-0.4950 -0.8910 0.3521
-0.4129 -0.9301 0.3515
-0.3278 -0.9618 0.3511
-0.2404 -0.9862 0.3507
-0.1514 -1.0030 0.3504
-0.0613 -1.0121 0.3503
0.0292 -1.0135 0.3503
0.1196 -1.0071 0.3504
0.2091 -0.9931 0.3506
0.2971 -0.9714 0.3509
0.3831 -0.9422 0.3514
0.4663 -0.9057 0.3519
0.5463 -0.8622 0.3526
0.6224 -0.8118 0.3534
0.6941 -0.7549 0.3543
0.7607 -0.6918 0.3552
0.8219 -0.6231 0.3563
0.8770 -0.5490 0.3574
0.9256 -0.4702 0.3587
0.9673 -0.3871 0.3599
1.0017 -0.3004 0.3613
1.0284 -0.2107 0.3627
1.0472 -0.1185 0.3641
1.0577 -0.0248 0.3655
1.0599 0.0700 0.3670
1.0536 0.1649 0.3684
1.0388 0.2593 0.3699
1.0154 0.3523 0.3713
0.9837 0.4431 0.3727
0.9436 0.5310 0.3741
0.8956 0.6152 0.3754
0.8399 0.6949 0.3766
0.7769 0.7694 0.3777
0.7071 0.8379 0.3788
0.6311 0.8999 0.3797
0.5495 0.9547 0.3806
0.4630 1.0019 0.3813
0.3724 1.0408 0.3819
0.2784 1.0712 0.3824
0.1819 1.0927 0.3827
0.0837 1.1051 0.3829
-0.0152 1.1083 0.3829
-0.1140 1.1022 0.3828
-0.2117 1.0870 0.3826
-0.3075 1.0627 0.3822
-0.4006 1.0297 0.3817
-0.4900 0.9882 0.3811
-0.5750 0.9387 0.3803
-0.6550 0.8816 0.3794
-0.7291 0.8175 0.3784
-0.7968 0.7470 0.3773
-0.8576 0.6709 0.3762
-0.9110 0.5897 0.3749
-0.9566 0.5043 0.3736
-0.9941 0.4155 0.3722
-1.0233 0.3239 0.3708
-1.0441 0.2304 0.3694
-1.0563 0.1358 0.3679
-1.0600 0.0409 0.3665
-1.0552 -0.0536 0.3650
-1.0421 -0.1470 0.3636
-1.0209 -0.2384 0.3622
-0.9918 -0.3273 0.3608
-0.9551 -0.4130 0.3595
-0.9113 -0.4948 0.3582
-0.8606 -0.5722 0.3570
-0.8036 -0.6447 0.3559
-0.7408 -0.7117 0.3549
-0.6725 -0.7729 0.3540
-0.5995 -0.8279 0.3531
-0.5221 -0.8762 0.3524
-0.4411 -0.9176 0.3517
-0.3570 -0.9519 0.3512
-0.2703 -0.9788 0.3508
-0.1817 -0.9982 0.3505
-0.0919 -1.0099 0.3503
-0.0015 -1.0139 0.3503
0.0890 -1.0101 0.3503
0.1788 -0.9987 0.3505
0.2674 -0.9796 0.3508
0.3542 -0.9529 0.3512
0.4384 -0.9189 0.3517
0.5196 -0.8777 0.3524
0.5971 -0.8296 0.3531
0.6703 -0.7749 0.3540
0.7387 -0.7139 0.3549
0.8018 -0.6470 0.3559
0.8590 -0.5747 0.3571
0.9098 -0.4974 0.3582
0.9539 -0.4158 0.3595
0.9908 -0.3302 0.3608
1.0202 -0.2414 0.3622
1.0417 -0.1500 0.3636
1.0551 -0.0567 0.3650
1.0601 0.0378 0.3665
1.0567 0.1327 0.3679
1.0448 0.2274 0.3694
1.0243 0.3209 0.3708
0.9954 0.4126 0.3722
0.9581 0.5016 0.3736
0.9127 0.5871 0.3749
0.8596 0.6684 0.3762
0.7990 0.7447 0.3774
0.7315 0.8154 0.3784
0.6576 0.8797 0.3794
0.5778 0.9370 0.3803
0.4929 0.9868 0.3811
0.4036 1.0285 0.3817
0.3106 1.0619 0.3822
0.2149 1.0864 0.3826
0.1172 1.1019 0.3828
0.0184 1.1082 0.3829
-0.0805 1.1053 0.3829
-0.1787 1.0932 0.3827
-0.2753 1.0720 0.3824
-0.3694 1.0419 0.3819
-0.4601 1.0032 0.3813
-0.5467 0.9563 0.3806
-0.6285 0.9017 0.3797
-0.7046 0.8400 0.3788
-0.7746 0.7716 0.3777
-0.8378 0.6973 0.3766
-0.8937 0.6178 0.3754
-0.9420 0.5337 0.3741
-0.9823 0.4460 0.3727
-1.0144 0.3552 0.3713
-1.0380 0.2623 0.3699
-1.0531 0.1680 0.3684
-1.0597 0.0731 0.3670
-1.0578 -0.0217 0.3655
-1.0475 -0.1155 0.3641
-1.0290 -0.2077 0.3626
-1.0025 -0.2975 0.3613
-0.9684 -0.3843 0.3599
-0.9269 -0.4675 0.3587
-0.8785 -0.5465 0.3574
-0.8237 -0.6207 0.3563
-0.7627 -0.6896 0.3552
-0.6963 -0.7528 0.3543
-0.6248 -0.8099 0.3534
-0.5488 -0.8605 0.3526
-0.4690 -0.9043 0.3519
-0.3858 -0.9411 0.3514
-0.2999 -0.9705 0.3509
-0.2120 -0.9924 0.3506
-0.1225 -1.0068 0.3504
-0.0322 -1.0134 0.3503
0.0583 -1.0123 0.3503
0.1485 -1.0034 0.3504
0.2376 -0.9869 0.3507
0.3250 -0.9628 0.3511
0.4102 -0.9313 0.3516
0.4924 -0.8925 0.3522
0.5712 -0.8467 0.3529
0.6460 -0.7942 0.3537
0.7161 -0.7353 0.3546
0.7810 -0.6703 0.3556
0.8403 -0.5998 0.3567
0.8933 -0.5242 0.3578
0.9398 -0.4439 0.3591
0.9791 -0.3596 0.3604
1.0111 -0.2719 0.3617
1.0353 -0.1813 0.3631
1.0515 -0.0885 0.3645
1.0594 0.0056 0.3660
1.0588 0.1005 0.3674
1.0498 0.1954 0.3689
1.0322 0.2894 0.3704
1.0061 0.3817 0.3718
0.9717 0.4717 0.3732
0.9290 0.5585 0.3745
0.8785 0.6413 0.3758
0.2054 1.0652 0.3823
0.1097 1.0799 0.3825
0.0129 1.0856 0.3826
-0.0840 1.0823 0.3825
-0.1801 1.0699 0.3823
-0.2746 1.0487 0.3820
-0.3666 1.0188 0.3815
-0.4553 0.9805 0.3809
-0.5400 0.9342 0.3802
-0.6198 0.8804 0.3794
-0.6941 0.8195 0.3785
-0.7624 0.7523 0.3774
-0.8240 0.6792 0.3763
-0.8785 0.6011 0.3751
-0.9255 0.5186 0.3738
-0.9646 0.4324 0.3725
-0.9956 0.3434 0.3711
-1.0184 0.2522 0.3697
-1.0329 0.1597 0.3683
-1.0390 0.0667 0.3669
-1.0367 -0.0261 0.3654
-1.0263 -0.1181 0.3640
-1.0078 -0.2084 0.3626
-0.9815 -0.2963 0.3613
-0.9477 -0.3813 0.3600
-0.9068 -0.4627 0.3587
-0.8590 -0.5400 0.3575
-0.8049 -0.6125 0.3564
-0.7449 -0.6799 0.3554
-0.6794 -0.7417 0.3544
-0.6091 -0.7974 0.3536
-0.5344 -0.8467 0.3528
-0.4559 -0.8894 0.3522
-0.3741 -0.9251 0.3516
-0.2898 -0.9536 0.3512
-0.2034 -0.9747 0.3509
-0.1155 -0.9884 0.3507
-0.0269 -0.9945 0.3506
0.0619 -0.9930 0.3506
0.1503 -0.9839 0.3507
0.2377 -0.9673 0.3510
0.3234 -0.9432 0.3514
0.4068 -0.9119 0.3518
0.4873 -0.8734 0.3524
0.5644 -0.8281 0.3531
0.6375 -0.7762 0.3539
0.7060 -0.7180 0.3548
0.7693 -0.6540 0.3558
0.8271 -0.5845 0.3569
0.8788 -0.5101 0.3580
0.9239 -0.4311 0.3593
0.9621 -0.3482 0.3605
0.9929 -0.2619 0.3619
1.0162 -0.1730 0.3632
1.0315 -0.0819 0.3646
1.0388 0.0105 0.3661
1.0377 0.1035 0.3675
1.0283 0.1964 0.3689
1.0106 0.2885 0.3703
0.9845 0.3789 0.3717
0.9502 0.4669 0.3731
0.9079 0.5517 0.3744
0.8579 0.6326 0.3756
0.8006 0.7088 0.3768
0.7363 0.7797 0.3779
0.6655 0.8445 0.3789
0.5889 0.9026 0.3798
0.5071 0.9535 0.3806
0.4208 0.9966 0.3812
0.3306 1.0317 0.3818
0.2375 1.0582 0.3822
0.1423 1.0759 0.3824
0.0458 1.0847 0.3826
-0.0512 1.0844 0.3826
-0.1477 1.0751 0.3824
-0.2428 1.0569 0.3821
-0.3357 1.0299 0.3817
-0.4257 0.9944 0.3812
-0.5118 0.9508 0.3805
-0.5933 0.8994 0.3797
-0.6696 0.8409 0.3788
-0.7400 0.7758 0.3778
-0.8039 0.7046 0.3767
-0.8608 0.6281 0.3755
-0.9104 0.5470 0.3743
-0.9522 0.4620 0.3730
-0.9860 0.3738 0.3716
-1.0116 0.2833 0.3702
-1.0289 0.1912 0.3688
-1.0378 0.0983 0.3674
-1.0384 0.0053 0.3659
-1.0307 -0.0870 0.3645
-1.0149 -0.1780 0.3631
-0.9913 -0.2668 0.3617
-0.9600 -0.3528 0.3604
-0.9214 -0.4355 0.3591
-0.8759 -0.5143 0.3579
-0.8239 -0.5885 0.3568
-0.7659 -0.6577 0.3557
-0.7022 -0.7214 0.3548
-0.6335 -0.7792 0.3539
-0.5602 -0.8307 0.3531
-0.4829 -0.8757 0.3524
-0.4022 -0.9137 0.3518
-0.3186 -0.9447 0.3513
-0.2329 -0.9684 0.3510
-0.1454 -0.9846 0.3507
-0.0570 -0.9933 0.3506
0.0318 -0.9943 0.3506
0.1204 -0.9878 0.3507
0.2082 -0.9738 0.3509
0.2945 -0.9522 0.3512
0.3788 -0.9233 0.3517
0.4604 -0.8872 0.3522
0.5387 -0.8442 0.3529
0.6132 -0.7945 0.3537
0.6833 -0.7385 0.3545
0.7485 -0.6764 0.3555
0.8082 -0.6087 0.3565
0.8620 -0.5358 0.3576
0.9093 -0.4583 0.3588
0.9499 -0.3767 0.3601
0.9833 -0.2915 0.3614
1.0092 -0.2034 0.3628
1.0272 -0.1130 0.3642
1.0372 -0.0210 0.3656
1.0390 0.0719 0.3670
1.0325 0.1649 0.3684
1.0175 0.2574 0.3699
0.9943 0.3484 0.3713
0.9628 0.4374 0.3726
0.9232 0.5233 0.3740
0.8758 0.6057 0.3752
0.8208 0.6835 0.3764
0.7588 0.7563 0.3775
0.6902 0.8232 0.3786
0.6155 0.8836 0.3795
0.5354 0.9371 0.3803
0.4505 0.9829 0.3810
0.3616 1.0207 0.3816
0.2694 1.0501 0.3820
0.1748 1.0709 0.3824
0.0786 1.0827 0.3825
-0.0183 1.0855 0.3826
-0.1150 1.0793 0.3825
-0.2107 1.0641 0.3822
-0.3045 1.0400 0.3819
-0.3955 1.0074 0.3814
-0.4830 0.9664 0.3807
-0.5662 0.9177 0.3800
-0.6443 0.8615 0.3791
-0.7168 0.7986 0.3781
-0.7829 0.7294 0.3771
-0.8423 0.6546 0.3759
-0.8944 0.5750 0.3747
-0.9389 0.4912 0.3734
-0.9755 0.4040 0.3721
-1.0039 0.3142 0.3707
-1.0240 0.2226 0.3693
-1.0358 0.1298 0.3678
-1.0391 0.0368 0.3664
-1.0342 -0.0558 0.3650
-1.0212 -0.1473 0.3636
-1.0002 -0.2369 0.3622
-0.9714 -0.3240 0.3609
-0.9353 -0.4079 0.3596
-0.8921 -0.4880 0.3583
-0.8423 -0.5638 0.3572
-0.7862 -0.6348 0.3561
-0.7244 -0.7004 0.3551
-0.6573 -0.7603 0.3542
-0.5855 -0.8140 0.3533
-0.5095 -0.8612 0.3526
-0.4299 -0.9016 0.3520
-0.3473 -0.9350 0.3515
-0.2622 -0.9612 0.3511
-0.1752 -0.9799 0.3508
-0.0871 -0.9912 0.3506
0.0017 -0.9948 0.3506
0.0904 -0.9909 0.3506
0.1786 -0.9794 0.3508
0.2655 -0.9603 0.3511
0.3505 -0.9339 0.3515
0.4330 -0.9003 0.3520
0.5125 -0.8596 0.3527
0.5884 -0.8121 0.3534
0.6600 -0.7582 0.3542
0.7269 -0.6981 0.3551
0.7886 -0.6323 0.3562
0.8444 -0.5611 0.3573
0.8940 -0.4851 0.3584
0.9369 -0.4048 0.3597
0.9728 -0.3208 0.3610
1.0013 -0.2336 0.3623
1.0220 -0.1439 0.3637
1.0347 -0.0523 0.3651
1.0393 0.0403 0.3665
1.0356 0.1334 0.3680
1.0235 0.2261 0.3694
1.0031 0.3178 0.3708
0.9744 0.4075 0.3722
0.9375 0.4945 0.3735
0.8927 0.5782 0.3748
0.8403 0.6577 0.3760
0.7806 0.7322 0.3772
0.7142 0.8012 0.3782
0.6415 0.8639 0.3792
0.5632 0.9198 0.3800
0.4798 0.9682 0.3808
0.3922 1.0088 0.3814
0.3010 1.0411 0.3819
0.2071 1.0648 0.3823
0.1114 1.0797 0.3825
0.0146 1.0856 0.3826
-0.0823 1.0824 0.3825
-0.1784 1.0702 0.3823
-0.2730 1.0491 0.3820
-0.3650 1.0194 0.3815
-0.4538 0.9812 0.3810
-0.5385 0.9351 0.3802
-0.6184 0.8814 0.3794
-0.6929 0.8207 0.3785
-0.7612 0.7535 0.3774
-0.8230 0.6806 0.3763
-0.8776 0.6025 0.3751
-0.9247 0.5201 0.3738
-0.9640 0.4340 0.3725
-0.9952 0.3450 0.3712
-1.0181 0.2538 0.3697
-1.0327 0.1614 0.3683
-1.0389 0.0683 0.3669
-1.0368 -0.0245 0.3655
-1.0265 -0.1165 0.3641
-1.0082 -0.2068 0.3627
-0.9820 -0.2948 0.3613
-0.9484 -0.3798 0.3600
-0.9075 -0.4613 0.3587
-0.8599 -0.5386 0.3576
-0.8059 -0.6113 0.3564
-0.7460 -0.6788 0.3554
-0.6806 -0.7406 0.3545
-0.6104 -0.7965 0.3536
-0.5357 -0.8459 0.3528
-0.4573 -0.8887 0.3522
-0.3756 -0.9245 0.3516
-0.2913 -0.9531 0.3512
-0.2049 -0.9744 0.3509
-0.1171 -0.9882 0.3507
-0.0285 -0.9944 0.3506
0.0604 -0.9931 0.3506
0.1488 -0.9841 0.3507
0.2362 -0.9676 0.3510
0.3219 -0.9437 0.3514
0.4053 -0.9125 0.3518
0.4859 -0.8742 0.3524
0.5631 -0.8290 0.3531
0.6362 -0.7772 0.3539
0.7048 -0.7191 0.3548
0.7683 -0.6552 0.3558
0.8261 -0.5858 0.3569
0.8779 -0.5114 0.3580
0.9232 -0.4325 0.3592
0.9615 -0.3497 0.3605
0.9925 -0.2635 0.3618
1.0158 -0.1746 0.3632
1.0313 -0.0836 0.3646
1.0387 0.0088 0.3660
1.0378 0.1018 0.3675
1.0286 0.1948 0.3689
1.0110 0.2868 0.3703
0.9850 0.3773 0.3717
0.9509 0.4654 0.3731
0.9088 0.5502 0.3744
0.8589 0.6312 0.3756
0.8017 0.7075 0.3768
0.7375 0.7785 0.3779
0.6668 0.8434 0.3789
0.5903 0.9016 0.3798
0.5086 0.9526 0.3805
0.4223 0.9959 0.3812
0.3323 1.0311 0.3817
0.2392 1.0578 0.3822
0.1440 1.0757 0.3824
0.0475 1.0846 0.3826
-0.0495 1.0845 0.3826
-0.1460 1.0754 0.3824
-0.2411 1.0573 0.3821
-0.3341 1.0304 0.3817
-0.4241 0.9951 0.3812
-0.5103 0.9516 0.3805
-0.5919 0.9004 0.3797
-0.6683 0.8420 0.3788
-0.7388 0.7770 0.3778
-0.8028 0.7059 0.3767
-0.8599 0.6295 0.3755
-0.9096 0.5485 0.3743
-0.9515 0.4635 0.3730
-0.9855 0.3754 0.3716
-1.0113 0.2849 0.3702
-1.0287 0.1928 0.3688
-1.0378 0.0999 0.3674
-1.0385 0.0069 0.3659
-1.0309 -0.0854 0.3645
-1.0153 -0.1764 0.3631
-0.9918 -0.2652 0.3618
-0.9606 -0.3513 0.3604
-0.9222 -0.4341 0.3592
-0.8768 -0.5129 0.3580
-0.8249 -0.5872 0.3568
-0.7669 -0.6565 0.3557
-0.7034 -0.7203 0.3548
-0.6347 -0.7782 0.3539
-0.5615 -0.8299 0.3531
-0.4843 -0.8749 0.3524
-0.4036 -0.9131 0.3518
-0.3201 -0.9442 0.3513
-0.2344 -0.9680 0.3510
-0.1470 -0.9844 0.3507
-0.0586 -0.9932 0.3506
0.0303 -0.9944 0.3506
0.1189 -0.9880 0.3507
0.2067 -0.9741 0.3509
0.2930 -0.9526 0.3512
0.3773 -0.9239 0.3517
0.4590 -0.8879 0.3522
0.5373 -0.8450 0.3529
0.6119 -0.7955 0.3536
0.6821 -0.7395 0.3545
0.7473 -0.6775 0.3555
0.8072 -0.6099 0.3565
0.8611 -0.5372 0.3576
0.9086 -0.4597 0.3588
0.9493 -0.3782 0.3601
0.9828 -0.2931 0.3614
1.0088 -0.2050 0.3627
1.0270 -0.1146 0.3641
1.0371 -0.0226 0.3656
1.0390 0.0703 0.3670
1.0326 0.1633 0.3684
1.0179 0.2558 0.3698
0.9948 0.3468 0.3712
0.9634 0.4358 0.3726
0.9239 0.5219 0.3739
0.8767 0.6042 0.3752
0.8219 0.6822 0.3764
0.7600 0.7550 0.3775
0.6915 0.8221 0.3785
0.6169 0.8826 0.3795
0.5369 0.9362 0.3803
0.4521 0.9822 0.3810
0.3632 1.0201 0.3816
0.2711 1.0497 0.3820
0.1765 1.0706 0.3824
0.0803 1.0826 0.3825
-0.0166 1.0855 0.3826
-0.1133 1.0795 0.3825
-0.2090 1.0644 0.3822
-0.3029 1.0405 0.3819
-0.3940 1.0080 0.3814
-0.4815 0.9672 0.3807
-0.5648 0.9186 0.3800
-0.6430 0.8626 0.3791
-0.7156 0.7998 0.3782
-0.7818 0.7307 0.3771
-0.8413 0.6560 0.3759
-0.8936 0.5764 0.3747
-0.9382 0.4927 0.3734
-0.9749 0.4056 0.3721
-1.0034 0.3159 0.3707
-1.0237 0.2242 0.3693
-1.0356 0.1315 0.3679
-1.0392 0.0384 0.3664
-1.0344 -0.0542 0.3650
-1.0215 -0.1457 0.3636
-1.0006 -0.2354 0.3622
-0.9720 -0.3225 0.3609
-0.9360 -0.4064 0.3596
-0.8929 -0.4866 0.3584
-0.8432 -0.5625 0.3572
-0.7873 -0.6336 0.3561
-0.7255 -0.6993 0.3551
-0.6586 -0.7592 0.3542
-0.5868 -0.8131 0.3533
-0.5109 -0.8604 0.3526
-0.4313 -0.9010 0.3520
-0.3487 -0.9345 0.3515
-0.2637 -0.9608 0.3511
-0.1768 -0.9797 0.3508
-0.0886 -0.9910 0.3506
0.0001 -0.9948 0.3506
0.0889 -0.9910 0.3506
0.1770 -0.9796 0.3508
0.2639 -0.9607 0.3511
0.3490 -0.9345 0.3515
0.4316 -0.9009 0.3520
0.5111 -0.8604 0.3526
0.5871 -0.8130 0.3534
0.6588 -0.7592 0.3542
0.7258 -0.6992 0.3551
0.7875 -0.6335 0.3561
0.8435 -0.5624 0.3572
0.8932 -0.4865 0.3584
0.9362 -0.4063 0.3596
0.9722 -0.3223 0.3609
1.0008 -0.2352 0.3623
1.0217 -0.1455 0.3637
1.0346 -0.0540 0.3651
1.0393 0.0387 0.3665
1.0358 0.1318 0.3679
1.0238 0.2245 0.3694
1.0035 0.3161 0.3708
0.9749 0.4059 0.3721
0.9382 0.4930 0.3735
0.8936 0.5767 0.3748
0.8413 0.6563 0.3760
0.7818 0.7310 0.3771
0.7154 0.8000 0.3782
0.6429 0.8628 0.3792
0.5646 0.9188 0.3800
0.4813 0.9674 0.3808
0.3937 1.0082 0.3814
0.3026 1.0406 0.3819
0.2088 1.0645 0.3823
0.1131 1.0795 0.3825
0.0163 1.0856 0.3826
-0.0806 1.0825 0.3825
-0.1767 1.0705 0.3823
-0.2713 1.0496 0.3820
-0.3634 1.0200 0.3816
-0.4523 0.9820 0.3810
-0.5371 0.9360 0.3803
-0.6171 0.8824 0.3794
-0.6916 0.8218 0.3785
-0.7601 0.7548 0.3775
-0.8219 0.6819 0.3763
-0.8767 0.6039 0.3751
-0.9239 0.5216 0.3739
-0.9633 0.4355 0.3725
-0.9947 0.3465 0.3712
-1.0178 0.2555 0.3698
-1.0325 0.1630 0.3684
-1.0389 0.0700 0.3669
-1.0369 -0.0229 0.3655
-1.0268 -0.1148 0.3641
-1.0086 -0.2052 0.3627
-0.9826 -0.2933 0.3613
-0.9490 -0.3784 0.3600
-0.9083 -0.4599 0.3588
-0.8608 -0.5373 0.3576
-0.8069 -0.6100 0.3565
-0.7471 -0.6776 0.3554
-0.6818 -0.7396 0.3545
-0.6117 -0.7955 0.3536
-0.5371 -0.8451 0.3529
-0.4587 -0.8880 0.3522
-0.3771 -0.9239 0.3516
-0.2928 -0.9527 0.3512
-0.2064 -0.9741 0.3509
-0.1186 -0.9880 0.3507
-0.0300 -0.9944 0.3506
0.0588 -0.9932 0.3506
0.1472 -0.9843 0.3507
0.2346 -0.9680 0.3510
0.3204 -0.9442 0.3513
0.4039 -0.9131 0.3518
0.4845 -0.8749 0.3524
0.5618 -0.8298 0.3531
0.6350 -0.7781 0.3539
0.7036 -0.7202 0.3548
0.7672 -0.6564 0.3558
0.8252 -0.5871 0.3569
0.8770 -0.5128 0.3580
0.9224 -0.4339 0.3592
0.9608 -0.3512 0.3605
0.9920 -0.2650 0.3618
1.0155 -0.1761 0.3632
1.0311 -0.0852 0.3646
1.0386 0.0072 0.3660
1.0379 0.1002 0.3674
1.0288 0.1931 0.3689
1.0114 0.2852 0.3703
0.9856 0.3757 0.3717
0.9516 0.4638 0.3730
0.9096 0.5488 0.3743
0.8598 0.6298 0.3756
0.8027 0.7062 0.3768
0.7387 0.7773 0.3779
0.6681 0.8423 0.3789
0.5917 0.9006 0.3797
0.5101 0.9518 0.3805
0.4239 0.9953 0.3812
0.3339 1.0306 0.3817
0.2409 1.0574 0.3821
0.1457 1.0754 0.3824
0.0492 1.0845 0.3826
-0.0477 1.0846 0.3826
-0.1443 1.0756 0.3824
-0.2395 1.0577 0.3821
-0.3325 1.0310 0.3817
-0.4225 0.9958 0.3812
-0.5088 0.9524 0.3805
-0.5905 0.9014 0.3797
-0.6670 0.8431 0.3788
-0.7376 0.7782 0.3778
-0.8017 0.7072 0.3767
-0.8589 0.6309 0.3756
-0.9088 0.5499 0.3743
-0.9509 0.4651 0.3730
-0.9850 0.3770 0.3716
-1.0109 0.2866 0.3703
-1.0285 0.1945 0.3688
-1.0377 0.1016 0.3674
-1.0385 0.0086 0.3660
-1.0311 -0.0838 0.3646
-1.0156 -0.1748 0.3632
-0.9922 -0.2637 0.3618
-0.9612 -0.3499 0.3605
-0.9229 -0.4327 0.3592
-0.8777 -0.5115 0.3580
-0.8259 -0.5859 0.3568
-0.7680 -0.6553 0.3558
-0.7046 -0.7192 0.3548
-0.6360 -0.7772 0.3539
-0.5628 -0.8290 0.3531
-0.4857 -0.8742 0.3524
-0.4051 -0.9125 0.3518
-0.3216 -0.9437 0.3513
-0.2359 -0.9677 0.3510
-0.1485 -0.9841 0.3507
-0.0601 -0.9931 0.3506
0.0287 -0.9944 0.3506
0.1173 -0.9882 0.3507
0.2051 -0.9744 0.3509
0.2915 -0.9531 0.3512
0.3758 -0.9245 0.3517
0.4575 -0.8886 0.3522
0.5360 -0.8459 0.3529
0.6106 -0.7964 0.3536
0.6809 -0.7405 0.3545
0.7462 -0.6787 0.3554
0.8062 -0.6112 0.3565
0.8602 -0.5385 0.3576
0.9078 -0.4612 0.3588
0.9486 -0.3797 0.3601
0.9823 -0.2946 0.3614
1.0084 -0.2066 0.3627
1.0267 -0.1162 0.3641
1.0370 -0.0243 0.3655
1.0391 0.0686 0.3670
1.0328 0.1617 0.3684
1.0182 0.2541 0.3698
0.9952 0.3452 0.3712
0.9640 0.4343 0.3726
0.9247 0.5204 0.3739
0.8776 0.6028 0.3752
0.8229 0.6809 0.3764
0.7612 0.7538 0.3775
0.6928 0.8209 0.3785
0.6183 0.8816 0.3795
0.5383 0.9353 0.3803
0.4536 0.9814 0.3810
0.3648 1.0195 0.3816
0.2727 1.0492 0.3820
0.1782 1.0703 0.3823
0.0820 1.0824 0.3825
-0.0149 1.0856 0.3826
-0.1116 1.0797 0.3825
-0.2074 1.0647 0.3823
-0.3012 1.0410 0.3819
-0.3924 1.0087 0.3814
-0.4800 0.9680 0.3808
-0.5633 0.9195 0.3800
-0.6417 0.8637 0.3791
-0.7143 0.8009 0.3782
-0.7807 0.7319 0.3771
-0.8403 0.6574 0.3760
-0.8927 0.5779 0.3747
-0.9375 0.4942 0.3735
-0.9743 0.4072 0.3721
-1.0030 0.3175 0.3707
-1.0234 0.2259 0.3693
-1.0355 0.1331 0.3679
-1.0392 0.0401 0.3665
-1.0346 -0.0526 0.3650
-1.0218 -0.1441 0.3636
-1.0010 -0.2338 0.3622
-0.9726 -0.3210 0.3609
-0.9367 -0.4050 0.3596
-0.8938 -0.4853 0.3584
-0.8442 -0.5612 0.3572
-0.7883 -0.6324 0.3561
-0.7267 -0.6982 0.3551
-0.6598 -0.7582 0.3542
-0.5881 -0.8122 0.3534
-0.5123 -0.8596 0.3526
-0.4328 -0.9003 0.3520
-0.3502 -0.9340 0.3515
-0.2652 -0.9604 0.3511
-0.1783 -0.9794 0.3508
-0.0902 -0.9909 0.3506
-0.0015 -0.9948 0.3506
0.0873 -0.9912 0.3506
0.1755 -0.9799 0.3508
0.2624 -0.9611 0.3511
0.3475 -0.9350 0.3515
0.4302 -0.9016 0.3520
0.5098 -0.8611 0.3526
0.5858 -0.8139 0.3534
0.6576 -0.7602 0.3542
0.7246 -0.7003 0.3551
0.7865 -0.6347 0.3561
0.8425 -0.5637 0.3572
0.8924 -0.4879 0.3584
0.9355 -0.4077 0.3596
0.9717 -0.3238 0.3609
1.0004 -0.2367 0.3623
1.0214 -0.1471 0.3636
1.0344 -0.0556 0.3650
1.0393 0.0370 0.3665
1.0359 0.1301 0.3679
1.0241 0.2229 0.3693
1.0040 0.3145 0.3707
0.9755 0.4043 0.3721
0.9389 0.4915 0.3735
0.8944 0.5753 0.3747
0.8423 0.6549 0.3760
0.7829 0.7297 0.3771
0.7167 0.7988 0.3782
0.6442 0.8618 0.3792
0.5660 0.9179 0.3800
0.4828 0.9666 0.3808
0.3953 1.0075 0.3814
0.3043 1.0401 0.3819
0.2105 1.0641 0.3823
0.1148 1.0793 0.3825
0.0180 1.0855 0.3826
-0.0789 1.0827 0.3825
-0.1751 1.0708 0.3823
-0.2696 1.0500 0.3820
-0.3618 1.0206 0.3816
-0.4507 0.9827 0.3810
-0.5356 0.9368 0.3803
-0.6157 0.8834 0.3794
-0.6903 0.8229 0.3785
-0.7589 0.7560 0.3775
-0.8209 0.6833 0.3764
-0.8758 0.6054 0.3752
-0.9232 0.5230 0.3739
-0.9627 0.4371 0.3726
-0.9942 0.3481 0.3712
-1.0174 0.2571 0.3698
-1.0323 0.1647 0.3684
-1.0388 0.0716 0.3669
-1.0370 -0.0212 0.3655
-1.0270 -0.1132 0.3641
-1.0090 -0.2036 0.3627
-0.9831 -0.2917 0.3614
-0.9497 -0.3769 0.3600
-0.9091 -0.4585 0.3588
-0.8617 -0.5360 0.3576
-0.8079 -0.6088 0.3565
-0.7482 -0.6765 0.3554
-0.6830 -0.7385 0.3545
-0.6129 -0.7946 0.3536
-0.5384 -0.8443 0.3529
-0.4601 -0.8873 0.3522
-0.3785 -0.9233 0.3517
-0.2943 -0.9522 0.3512
-0.2080 -0.9738 0.3509
-0.1202 -0.9878 0.3507
-0.0316 -0.9943 0.3506
0.0572 -0.9933 0.3506
0.1457 -0.9846 0.3507
0.2331 -0.9683 0.3510
0.3189 -0.9447 0.3513
0.4024 -0.9137 0.3518
0.4831 -0.8756 0.3524
0.5604 -0.8307 0.3531
0.6337 -0.7791 0.3539
0.7025 -0.7213 0.3548
0.7661 -0.6576 0.3558
0.8242 -0.5884 0.3568
0.8762 -0.5141 0.3580
0.9217 -0.4354 0.3592
0.9602 -0.3527 0.3605
0.9915 -0.2666 0.3618
1.0151 -0.1777 0.3632
1.0309 -0.0868 0.3646
1.0386 0.0055 0.3660
1.0380 0.0985 0.3674
1.0290 0.1915 0.3688
1.0117 0.2836 0.3703
0.9861 0.3741 0.3717
0.9522 0.4623 0.3730
0.9104 0.5473 0.3743
0.8608 0.6284 0.3756
0.2013 1.0437 0.3819
0.1074 1.0581 0.3822
0.0126 1.0637 0.3822
-0.0823 1.0604 0.3822
-0.1765 1.0483 0.3820
-0.2691 1.0276 0.3817
-0.3592 0.9983 0.3812
-0.4462 0.9608 0.3806
-0.5291 0.9155 0.3799
-0.6074 0.8628 0.3791
-0.6803 0.8032 0.3782
-0.7472 0.7373 0.3772
-0.8076 0.6658 0.3761
-0.8611 0.5892 0.3749
-0.9072 0.5083 0.3737
-0.9456 0.4239 0.3724
-0.9761 0.3366 0.3710
-0.9986 0.2473 0.3696
-1.0128 0.1566 0.3683
-1.0188 0.0654 0.3668
-1.0167 -0.0256 0.3654
-1.0065 -0.1158 0.3641
-0.9885 -0.2044 0.3627
-0.9628 -0.2907 0.3614
-0.9297 -0.3741 0.3601
-0.8896 -0.4539 0.3589
-0.8428 -0.5298 0.3577
-0.7897 -0.6010 0.3566
-0.7309 -0.6671 0.3556
-0.6667 -0.7278 0.3547
-0.5977 -0.7825 0.3538
-0.5244 -0.8309 0.3531
-0.4474 -0.8728 0.3524
-0.3672 -0.9079 0.3519
-0.2844 -0.9359 0.3515
-0.1996 -0.9566 0.3511
-0.1134 -0.9701 0.3509
-0.0264 -0.9761 0.3508
0.0608 -0.9746 0.3509
0.1476 -0.9657 0.3510
0.2333 -0.9493 0.3513
0.3174 -0.9257 0.3516
0.3992 -0.8949 0.3521
0.4783 -0.8571 0.3527
0.5539 -0.8126 0.3534
0.6256 -0.7617 0.3542
0.6927 -0.7046 0.3550
0.7549 -0.6417 0.3560
0.8115 -0.5735 0.3571
0.8622 -0.5004 0.3582
0.9064 -0.4229 0.3594
0.9438 -0.3416 0.3606
0.9740 -0.2569 0.3619
0.9967 -0.1696 0.3633
1.0117 -0.0804 0.3647
1.0187 0.0103 0.3661
1.0176 0.1015 0.3675
1.0083 0.1926 0.3689
0.9908 0.2828 0.3703
0.9652 0.3714 0.3716
0.9315 0.4577 0.3729
0.8900 0.5408 0.3742
0.8409 0.6201 0.3754
0.7847 0.6947 0.3766
0.7216 0.7641 0.3777
0.6522 0.8276 0.3786
0.5771 0.8845 0.3795
0.4969 0.9343 0.3803
0.4123 0.9766 0.3809
0.3240 1.0109 0.3814
0.2328 1.0368 0.3818
0.1394 1.0542 0.3821
0.0448 1.0628 0.3822
-0.0501 1.0625 0.3822
-0.1447 1.0534 0.3821
-0.2379 1.0356 0.3818
-0.3290 1.0091 0.3814
-0.4171 0.9744 0.3809
-0.5015 0.9317 0.3802
-0.5814 0.8814 0.3794
-0.6562 0.8241 0.3785
-0.7252 0.7603 0.3776
-0.7879 0.6906 0.3765
-0.8438 0.6157 0.3753
-0.8924 0.5362 0.3741
-0.9335 0.4529 0.3728
-0.9667 0.3665 0.3715
-0.9919 0.2778 0.3701
-1.0089 0.1875 0.3687
-1.0177 0.0964 0.3673
-1.0183 0.0052 0.3659
-1.0109 -0.0854 0.3645
-0.9955 -0.1745 0.3632
-0.9723 -0.2617 0.3618
-0.9417 -0.3461 0.3605
-0.9040 -0.4273 0.3593
-0.8594 -0.5045 0.3581
-0.8084 -0.5774 0.3570
-0.7515 -0.6453 0.3559
-0.6891 -0.7079 0.3550
-0.6216 -0.7646 0.3541
-0.5497 -0.8152 0.3533
-0.4739 -0.8594 0.3526
-0.3947 -0.8968 0.3521
-0.3127 -0.9272 0.3516
-0.2285 -0.9504 0.3512
-0.1427 -0.9663 0.3510
-0.0559 -0.9749 0.3509
0.0312 -0.9759 0.3509
0.1182 -0.9695 0.3510
0.2044 -0.9557 0.3512
0.2891 -0.9345 0.3515
0.3717 -0.9061 0.3519
0.4518 -0.8707 0.3525
0.5287 -0.8285 0.3531
0.6017 -0.7797 0.3539
0.6705 -0.7246 0.3547
0.7344 -0.6637 0.3557
0.7930 -0.5972 0.3567
0.8457 -0.5257 0.3578
0.8921 -0.4497 0.3590
0.9319 -0.3695 0.3602
0.9645 -0.2860 0.3615
0.9898 -0.1995 0.3628
1.0075 -0.1108 0.3642
1.0172 -0.0206 0.3656
1.0189 0.0705 0.3670
1.0124 0.1617 0.3684
0.9977 0.2524 0.3698
0.9748 0.3416 0.3712
0.9438 0.4287 0.3725
0.9050 0.5130 0.3738
0.8584 0.5937 0.3750
0.8045 0.6700 0.3762
0.7437 0.7412 0.3773
0.6764 0.8068 0.3783
0.6032 0.8660 0.3792
0.5247 0.9183 0.3800
0.4415 0.9631 0.3807
0.3543 1.0002 0.3813
0.2640 1.0290 0.3817
0.1713 1.0493 0.3820
0.0770 1.0609 0.3822
-0.0179 1.0636 0.3822
-0.1127 1.0575 0.3821
-0.2065 1.0426 0.3819
-0.2984 1.0190 0.3815
-0.3876 0.9871 0.3811
-0.4733 0.9470 0.3804
-0.5548 0.8993 0.3797
-0.6314 0.8443 0.3788
-0.7025 0.7827 0.3779
-0.7674 0.7149 0.3769
-0.8256 0.6417 0.3757
-0.8767 0.5636 0.3745
-0.9204 0.4815 0.3733
-0.9563 0.3961 0.3719
-0.9842 0.3081 0.3706
-1.0040 0.2182 0.3692
-1.0156 0.1273 0.3678
-1.0190 0.0361 0.3664
-1.0143 -0.0548 0.3650
-1.0016 -0.1445 0.3636
