ply
format ascii 1.0
element vertex 2177
property float32 x
property float32 y
property float32 z
end_header
6.8727 -5.9475 1.7570
7.3762 -5.3106 1.7570
7.8364 -4.6406 1.7606
8.2328 -3.9293 1.7635
8.5616 -3.1831 1.7658
8.8195 -2.4086 1.7674
4.5642 -0.8175 0.8964
4.4696 -0.3938 0.8674
4.6349 0.0068 0.8960
9.1022 0.8289 1.7669
8.9826 1.6361 1.7650
8.7883 2.4277 1.7625
8.5214 3.1965 1.7594
8.1847 3.9357 1.7556
7.7817 4.6389 1.7513
7.3164 5.3001 1.7465
6.7936 5.9138 1.7412
6.2182 6.4750 1.7355
5.4480 6.7951 1.6837
1.0455 1.5735 0.3652
0.9008 1.6603 0.3652
0.7490 1.7339 0.3651
0.5912 1.7937 0.3651
0.4288 1.8392 0.3651
0.2630 1.8701 0.3651
0.0950 1.8860 0.3651
-0.0736 1.8870 0.3651
-0.2417 1.8730 0.3651
-0.4079 1.8440 0.3651
-0.5709 1.8004 0.3651
-0.7293 1.7424 0.3652
-0.8820 1.6706 0.3652
-1.0277 1.5854 0.3652
-5.9317 7.5728 1.8596
-6.2201 6.6259 1.7568
-6.5968 5.8754 1.7077
-7.1003 5.2674 1.7091
-7.5473 4.6161 1.7103
-7.9339 3.9265 1.7113
-8.2568 3.2045 1.7122
-8.5115 2.4554 1.7125
-8.6967 1.6862 1.7125
-8.8125 0.9034 1.7125
-8.8579 0.1134 1.7125
-8.8327 -0.6775 1.7125
-8.7370 -1.4629 1.7125
-8.5716 -2.2368 1.7125
-8.3373 -2.9925 1.7124
-8.0332 -3.7227 1.7116
-7.6646 -4.4222 1.7106
-7.2345 -5.0851 1.7095
-6.7460 -5.7053 1.7080
-6.5257 -6.6041 1.7948
-6.1239 -7.4187 1.8596
-1.0727 -1.5656 0.3669
-0.9289 -1.6552 0.3669
-0.7775 -1.7317 0.3670
-0.6199 -1.7943 0.3670
-0.4574 -1.8426 0.3670
-0.2912 -1.8761 0.3670
-0.1226 -1.8946 0.3670
0.0470 -1.8980 0.3670
0.2161 -1.8862 0.3670
0.3836 -1.8593 0.3670
0.5479 -1.8175 0.3670
0.7078 -1.7612 0.3669
0.8621 -1.6908 0.3669
1.0094 -1.6069 0.3668
5.4163 -7.1217 1.7297
6.0749 -6.6591 1.7425
6.6893 -6.1311 1.7541
7.2196 -5.5173 1.7566
7.6961 -4.8593 1.7595
8.1134 -4.1605 1.7626
8.4642 -3.4247 1.7651
8.7450 -2.6585 1.7669
8.9531 -1.8688 1.7681
4.4916 -0.5253 0.8742
4.5433 -0.1230 0.8786
9.1245 0.5690 1.7673
8.4961 -2.4236 1.7645
4.8172 -0.9191 0.9794
4.5174 -0.4495 0.9066
4.6671 -0.0459 0.9321
8.8064 0.7018 1.7643
8.7002 1.4834 1.7626
8.5218 2.2509 1.7603
8.2731 2.9973 1.7573
7.9565 3.7161 1.7538
7.5755 4.4009 1.7497
7.1337 5.0460 1.7451
6.6356 5.6460 1.7400
6.0861 6.1960 1.7345
5.4875 6.6882 1.7278
1.0292 1.5117 0.3652
0.8901 1.5973 0.3652
0.7440 1.6702 0.3652
0.5919 1.7298 0.3651
0.4352 1.7756 0.3651
0.2750 1.8073 0.3651
0.1126 1.8246 0.3651
-0.0507 1.8274 0.3651
-0.2135 1.8156 0.3651
-0.3747 1.7894 0.3651
-0.5329 1.7490 0.3651
-0.6869 1.6946 0.3652
-0.8355 1.6267 0.3652
-0.9774 1.5459 0.3653
-5.6586 7.3945 1.8596
-6.2062 6.7624 1.8331
-6.3188 5.7570 1.7072
-6.8118 5.1736 1.7083
-7.2513 4.5482 1.7095
-7.6328 3.8853 1.7105
-7.9530 3.1903 1.7113
-8.2092 2.4689 1.7120
-8.3991 1.7270 1.7125
-8.5197 0.9706 1.7125
-8.5724 0.2065 1.7125
-8.5566 -0.5592 1.7125
-8.4726 -1.3205 1.7125
-8.3201 -2.0711 1.7123
-8.0994 -2.8043 1.7118
-7.8133 -3.5143 1.7110
-7.4645 -4.1952 1.7101
-7.0559 -4.8415 1.7090
-6.5906 -5.4476 1.7077
-6.4328 -6.3647 1.8073
-6.0082 -7.1135 1.8596
-1.0553 -1.5035 0.3668
-0.9170 -1.5918 0.3669
-0.7714 -1.6675 0.3669
-0.6196 -1.7298 0.3670
-0.4628 -1.7783 0.3670
-0.3023 -1.8125 0.3670
-0.1393 -1.8323 0.3670
0.0247 -1.8374 0.3670
0.1886 -1.8278 0.3670
0.3509 -1.8036 0.3670
0.5104 -1.7650 0.3669
0.6658 -1.7123 0.3669
0.8159 -1.6459 0.3669
0.9594 -1.5663 0.3668
5.1522 -6.9355 1.7255
5.7798 -6.4810 1.7343
6.3881 -5.9891 1.7488
6.9272 -5.4187 1.7564
7.3838 -4.7795 1.7566
7.7945 -4.1087 1.7597
8.1415 -3.4016 1.7622
8.4213 -2.6643 1.7640
8.6313 -1.9035 1.7652
4.5827 -0.5884 0.9227
4.5959 -0.1764 0.9185
8.8248 0.4504 1.7647
8.7421 1.2351 1.7632
8.5866 2.0078 1.7611
8.3600 2.7616 1.7583
8.0648 3.4899 1.7550
7.7039 4.1863 1.7511
7.2811 4.8447 1.7466
6.8005 5.4596 1.7417
6.2668 6.0261 1.7363
5.6885 6.5433 1.7316
1.0720 1.4818 0.3652
0.9353 1.5713 0.3652
0.7913 1.6484 0.3652
0.6410 1.7123 0.3651
0.4856 1.7625 0.3651
0.3264 1.7988 0.3651
0.1646 1.8207 0.3651
0.0015 1.8281 0.3651
-0.1617 1.8210 0.3651
-0.3235 1.7994 0.3651
-0.4828 1.7634 0.3651
-0.6383 1.7135 0.3652
-0.7887 1.6498 0.3652
-0.9329 1.5730 0.3653
-1.0697 1.4837 0.3653
-6.0976 7.0370 1.8596
-6.2247 6.0050 1.7273
-6.6599 5.3645 1.7079
-7.1171 4.7522 1.7091
-7.5174 4.1008 1.7102
-7.8576 3.4154 1.7111
-8.1345 2.7018 1.7118
-8.3459 1.9658 1.7124
-8.4886 1.2133 1.7125
-8.5630 0.4510 1.7125
-8.5691 -0.3149 1.7125
-8.5068 -1.0783 1.7125
-8.3766 -1.8331 1.7125
-8.1770 -2.5724 1.7120
-7.9116 -3.2905 1.7113
-7.5826 -3.9813 1.7104
-7.1927 -4.6392 1.7093
-6.7452 -5.2588 1.7081
-6.3166 -5.9028 1.7266
-6.2087 -6.9392 1.8596
-1.0977 -1.4727 0.3668
-0.9620 -1.5650 0.3669
-0.8186 -1.6447 0.3669
-0.6687 -1.7114 0.3669
-0.5133 -1.7643 0.3670
-0.3539 -1.8032 0.3670
-0.1915 -1.8276 0.3670
-0.0277 -1.8374 0.3670
0.1364 -1.8325 0.3670
0.2993 -1.8130 0.3670
0.4599 -1.7789 0.3669
0.6167 -1.7306 0.3669
0.7686 -1.6685 0.3669
0.9143 -1.5931 0.3668
1.0527 -1.5050 0.3668
5.5740 -6.6211 1.7285
6.2020 -6.1563 1.7452
6.7646 -5.6098 1.7551
7.2399 -4.9850 1.7555
7.6701 -4.3271 1.7588
8.0379 -3.6310 1.7615
8.3395 -2.9026 1.7635
8.5720 -2.1485 1.7649
4.6368 -0.7304 0.9374
4.5455 -0.3045 0.9098
4.8420 0.1088 0.9673
8.7764 0.9855 1.7638
8.6440 1.7628 1.7619
8.4399 2.5234 1.7593
8.1663 3.2606 1.7561
7.8261 3.9678 1.7524
7.4226 4.6389 1.7481
6.9600 5.2683 1.7433
6.4427 5.8508 1.7381
5.8813 6.3875 1.7341
5.2500 6.8375 1.7216
0.9798 1.5441 0.3652
0.8380 1.6252 0.3652
0.6896 1.6933 0.3651
0.5357 1.7480 0.3651
0.3776 1.7887 0.3651
0.2165 1.8152 0.3651
0.0536 1.8273 0.3651
-0.1096 1.8248 0.3651
-0.2721 1.8078 0.3651
-0.4323 1.7764 0.3651
-0.5891 1.7309 0.3652
-0.7413 1.6716 0.3652
-0.8876 1.5990 0.3652
-1.0269 1.5136 0.3653
-5.8944 7.2080 1.8596
-6.2164 6.3492 1.7746
-6.5025 5.5509 1.7075
-6.9771 4.9523 1.7087
-7.3960 4.3127 1.7099
-7.7557 3.6376 1.7108
-8.0531 2.9324 1.7116
-8.2857 2.2029 1.7122
-8.4505 1.4550 1.7125
-8.5466 0.6951 1.7125
-8.5746 -0.0704 1.7125
-8.5341 -0.8352 1.7125
-8.4255 -1.5934 1.7125
-8.2480 -2.3384 1.7122
-8.0034 -3.0639 1.7115
-7.6944 -3.7640 1.7107
-7.3236 -4.4330 1.7097
-6.8942 -5.0655 1.7085
-6.4095 -5.6559 1.7072
-6.4041 -6.7592 1.8596
-5.7755 -7.3039 1.8596
-1.0063 -1.5368 0.3669
-0.8652 -1.6207 0.3669
-0.7172 -1.6915 0.3669
-0.5634 -1.7489 0.3670
-0.4051 -1.7923 0.3670
-0.2436 -1.8214 0.3670
-0.0801 -1.8359 0.3670
0.0840 -1.8357 0.3670
0.2475 -1.8208 0.3670
0.4090 -1.7913 0.3670
0.5671 -1.7476 0.3669
0.7207 -1.6898 0.3669
0.8686 -1.6186 0.3669
1.0094 -1.5344 0.3668
5.3774 -6.7705 1.7267
6.0082 -6.3142 1.7407
6.5916 -5.7916 1.7524
7.0966 -5.1908 1.7560
7.5394 -4.5416 1.7578
7.9275 -3.8570 1.7607
8.2505 -3.1383 1.7629
8.5054 -2.3917 1.7645
4.7902 -0.8953 0.9732
4.5091 -0.4315 0.9046
4.6868 -0.0284 0.9360
8.8034 0.7349 1.7643
8.6942 1.5161 1.7625
8.5128 2.2828 1.7602
8.2611 3.0282 1.7572
7.9418 3.7456 1.7536
7.5581 4.4289 1.7495
7.1138 5.0722 1.7449
6.6135 5.6702 1.7398
6.0619 6.2180 1.7343
5.4606 6.7068 1.7273
1.0235 1.5155 0.3652
0.8841 1.6006 0.3652
0.7377 1.6730 0.3652
0.5854 1.7320 0.3651
0.4285 1.7773 0.3651
0.2682 1.8083 0.3651
0.1057 1.8250 0.3651
-0.0575 1.8272 0.3651
-0.2204 1.8148 0.3651
-0.3814 1.7880 0.3651
-0.5395 1.7470 0.3651
-0.6933 1.6920 0.3652
-0.8416 1.6236 0.3652
-0.9833 1.5422 0.3653
-5.6864 7.3732 1.8596
-6.2074 6.7129 1.8260
-6.3404 5.7332 1.7072
-6.8314 5.1481 1.7083
-7.2685 4.5210 1.7095
-7.6475 3.8567 1.7105
-7.9651 3.1605 1.7114
-8.2186 2.4381 1.7121
-8.4056 1.6954 1.7125
-8.5233 0.9386 1.7125
-8.5731 0.1743 1.7125
-8.5544 -0.5914 1.7125
-8.4675 -1.3524 1.7125
-8.3122 -2.1024 1.7123
-8.0886 -2.8347 1.7117
-7.7999 -3.5436 1.7110
-7.4485 -4.2232 1.7100
-7.0374 -4.8678 1.7089
-6.5698 -5.4721 1.7076
-6.4552 -6.4352 1.8204
-5.9814 -7.1361 1.8596
-1.0496 -1.5074 0.3668
-0.9111 -1.5953 0.3669
-0.7651 -1.6704 0.3669
-0.6131 -1.7321 0.3670
-0.4561 -1.7800 0.3670
-0.2955 -1.8137 0.3670
-0.1324 -1.8328 0.3670
0.0316 -1.8373 0.3670
0.1955 -1.8271 0.3670
0.3577 -1.8023 0.3670
0.5171 -1.7631 0.3669
0.6723 -1.7098 0.3669
0.8221 -1.6428 0.3669
0.9653 -1.5627 0.3668
5.1787 -6.9167 1.7256
5.8067 -6.4620 1.7350
6.4123 -5.9666 1.7493
6.9473 -5.3924 1.7564
7.4024 -4.7520 1.7568
7.8105 -4.0796 1.7598
8.1547 -3.3711 1.7623
8.4316 -2.6327 1.7641
8.6385 -1.8710 1.7652
4.5739 -0.5698 0.9205
4.6027 -0.1593 0.9198
8.8228 0.4836 1.7647
8.7370 1.2679 1.7632
8.5784 2.0400 1.7610
8.3489 2.7929 1.7582
8.0509 3.5199 1.7548
7.6874 4.2148 1.7509
7.2620 4.8715 1.7464
6.7791 5.4845 1.7415
6.2433 6.0488 1.7361
5.6624 6.5630 1.7311
1.0664 1.4858 0.3652
0.9294 1.5748 0.3652
0.7851 1.6513 0.3652
0.6346 1.7147 0.3651
0.4790 1.7643 0.3651
0.3196 1.8000 0.3651
0.1578 1.8213 0.3651
-0.0054 1.8281 0.3651
-0.1685 1.8204 0.3651
-0.3303 1.7981 0.3651
-0.4895 1.7616 0.3651
-0.6447 1.7110 0.3652
-0.7949 1.6469 0.3652
-0.9388 1.5695 0.3653
-1.0753 1.4797 0.3653
-6.1241 7.0139 1.8596
-6.2264 5.9616 1.7216
-6.6802 5.3396 1.7079
-7.1351 4.7256 1.7092
-7.5330 4.0726 1.7102
-7.8705 3.3859 1.7111
-8.1447 2.6712 1.7119
-8.3533 1.9344 1.7124
-8.4931 1.1813 1.7125
-8.5646 0.4188 1.7125
-8.5678 -0.3472 1.7125
-8.5027 -1.1103 1.7125
-8.3695 -1.8646 1.7125
-8.1672 -2.6031 1.7119
-7.8990 -3.3201 1.7112
-7.5673 -4.0097 1.7103
-7.1750 -4.6661 1.7093
-6.7251 -5.2839 1.7081
-6.3271 -5.9574 1.7356
-6.1825 -6.9625 1.8596
-1.0922 -1.4768 0.3668
-0.9562 -1.5686 0.3669
-0.8125 -1.6478 0.3669
-0.6622 -1.7139 0.3669
-0.5067 -1.7662 0.3670
-0.3471 -1.8045 0.3670
-0.1847 -1.8283 0.3670
-0.0208 -1.8375 0.3670
0.1433 -1.8320 0.3670
0.3061 -1.8118 0.3670
0.4666 -1.7772 0.3669
0.6232 -1.7283 0.3669
0.7749 -1.6656 0.3669
0.9203 -1.5896 0.3668
1.0584 -1.5010 0.3668
5.6013 -6.6030 1.7293
6.2268 -6.1346 1.7457
6.7870 -5.5854 1.7554
7.2592 -4.9582 1.7557
7.6869 -4.2986 1.7589
8.0519 -3.6009 1.7616
8.3507 -2.8713 1.7636
8.5802 -2.1164 1.7649
4.6312 -0.7117 0.9358
4.4821 -0.2833 0.8969
4.8633 0.1276 0.9716
8.7723 1.0185 1.7637
8.6369 1.7952 1.7618
8.4298 2.5550 1.7592
8.1533 3.2910 1.7560
7.8103 3.9968 1.7522
7.4043 4.6663 1.7479
6.9392 5.2938 1.7431
6.4198 5.8742 1.7378
5.8571 6.4095 1.7340
1.1084 1.4548 0.3653
0.9740 1.5477 0.3652
0.8319 1.6283 0.3652
0.6832 1.6959 0.3651
0.5292 1.7500 0.3651
0.3709 1.7901 0.3651
0.2096 1.8160 0.3651
0.0468 1.8275 0.3651
-0.1165 1.8244 0.3651
-0.2789 1.8068 0.3651
-0.4390 1.7748 0.3651
-0.5957 1.7287 0.3652
-0.7476 1.6688 0.3652
-0.8936 1.5956 0.3652
-1.0326 1.5097 0.3653
-5.9215 7.1858 1.8596
-6.2176 6.3028 1.7681
-6.5236 5.5266 1.7075
-6.9959 4.9261 1.7088
-7.4124 4.2850 1.7099
-7.7695 3.6085 1.7109
-8.0642 2.9021 1.7116
-8.2940 2.1717 1.7123
-8.4559 1.4231 1.7125
-8.5492 0.6629 1.7125
-8.5742 -0.1026 1.7125
-8.5309 -0.8673 1.7125
-8.4195 -1.6251 1.7125
-8.2390 -2.3694 1.7121
-7.9917 -3.0939 1.7115
-7.6800 -3.7928 1.7106
-7.3067 -4.4605 1.7097
-6.8749 -5.0912 1.7085
-6.3882 -5.6800 1.7072
-6.3786 -6.7833 1.8596
-5.7480 -7.3255 1.8596
-1.0005 -1.5406 0.3669
-0.8591 -1.6239 0.3669
-0.7108 -1.6942 0.3669
-0.5569 -1.7510 0.3670
-0.3984 -1.7938 0.3670
-0.2367 -1.8223 0.3670
-0.0732 -1.8361 0.3670
0.0909 -1.8353 0.3670
0.2543 -1.8198 0.3670
0.4157 -1.7898 0.3670
0.5737 -1.7454 0.3669
0.7271 -1.6871 0.3669
0.8746 -1.6153 0.3669
1.0152 -1.5306 0.3668
5.4032 -6.7508 1.7269
6.0344 -6.2942 1.7414
6.6147 -5.7679 1.7527
7.1158 -5.1639 1.7559
7.5570 -4.5136 1.7579
7.9424 -3.8274 1.7608
8.2627 -3.1074 1.7630
8.5146 -2.3598 1.7646
4.7636 -0.8718 0.9672
4.5042 -0.4140 0.9033
4.7066 -0.0108 0.9400
8.8003 0.7680 1.7642
8.6880 1.5487 1.7625
8.5036 2.3146 1.7601
8.2490 3.0590 1.7571
7.9269 3.7751 1.7535
7.5406 4.4568 1.7493
7.0939 5.0984 1.7447
6.5913 5.6943 1.7396
6.0385 6.2408 1.7343
5.4337 6.7252 1.7267
1.0178 1.5194 0.3652
0.8781 1.6040 0.3652
0.7314 1.6758 0.3652
0.5789 1.7342 0.3651
0.4218 1.7789 0.3651
0.2614 1.8093 0.3651
0.0989 1.8254 0.3651
-0.0644 1.8270 0.3651
-0.2272 1.8140 0.3651
-0.3882 1.7866 0.3651
-0.5461 1.7449 0.3652
-0.6997 1.6894 0.3652
-0.8477 1.6204 0.3652
-0.9891 1.5385 0.3653
-5.7141 7.3518 1.8596
-6.2087 6.6637 1.8190
-6.3620 5.7093 1.7072
-6.8510 5.1225 1.7084
-7.2857 4.4938 1.7096
-7.6621 3.8280 1.7106
-7.9771 3.1305 1.7114
-8.2278 2.4072 1.7121
-8.4119 1.6638 1.7125
-8.5268 0.9065 1.7125
-8.5737 0.1421 1.7125
-8.5521 -0.6236 1.7125
-8.4624 -1.3842 1.7125
-8.3041 -2.1336 1.7123
-8.0778 -2.8650 1.7117
-7.7864 -3.5728 1.7109
-7.4324 -4.2510 1.7100
-7.0189 -4.8941 1.7089
-6.5490 -5.4966 1.7075
-6.4813 -6.5099 1.8346
-5.9546 -7.1585 1.8596
-1.0440 -1.5114 0.3668
-0.9051 -1.5987 0.3669
-0.7589 -1.6732 0.3669
-0.6066 -1.7344 0.3670
-0.4494 -1.7817 0.3670
-0.2886 -1.8148 0.3670
-0.1255 -1.8333 0.3670
0.0385 -1.8372 0.3670
0.2023 -1.8264 0.3670
0.3645 -1.8009 0.3670
0.5237 -1.7611 0.3669
0.6787 -1.7072 0.3669
0.8282 -1.6397 0.3669
0.9711 -1.5590 0.3668
5.2051 -6.8978 1.7258
5.8335 -6.4429 1.7358
6.4364 -5.9440 1.7497
6.9673 -5.3661 1.7563
7.4208 -4.7245 1.7569
7.8263 -4.0505 1.7599
8.1677 -3.3406 1.7624
8.4417 -2.6011 1.7641
8.6457 -1.8386 1.7653
4.5651 -0.5513 0.9183
4.6096 -0.1422 0.9210
8.8207 0.5168 1.7646
8.7317 1.3007 1.7631
8.5702 2.0721 1.7609
8.3378 2.8241 1.7581
8.0369 3.5499 1.7547
7.6707 4.2433 1.7507
7.2428 4.8982 1.7462
6.7575 5.5093 1.7412
6.2196 6.0714 1.7358
5.6362 6.5826 1.7307
1.0608 1.4898 0.3652
0.9235 1.5783 0.3652
0.7789 1.6543 0.3652
0.6281 1.7170 0.3651
0.4724 1.7661 0.3651
0.3129 1.8012 0.3651
0.1509 1.8219 0.3651
-0.0123 1.8281 0.3651
-0.1754 1.8197 0.3651
-0.3370 1.7969 0.3651
-0.4961 1.7598 0.3651
-0.6512 1.7086 0.3652
-0.8011 1.6439 0.3652
-0.9447 1.5660 0.3653
-5.5020 7.5118 1.8596
-6.1504 6.9908 1.8596
-6.2312 5.9214 1.7167
-6.7005 5.3146 1.7080
-7.1530 4.6988 1.7092
-7.5484 4.0443 1.7103
-7.8834 3.3563 1.7112
-8.1549 2.6406 1.7119
-8.3607 1.9030 1.7124
-8.4975 1.1494 1.7125
-8.5661 0.3865 1.7125
-8.5665 -0.3794 1.7125
-8.4984 -1.1423 1.7125
-8.3624 -1.8960 1.7125
-8.1572 -2.6338 1.7119
-7.8863 -3.3498 1.7112
-7.5520 -4.0381 1.7103
-7.1572 -4.6929 1.7093
-6.7050 -5.3090 1.7080
-6.3389 -6.0136 1.7450
-6.1563 -6.9857 1.8596
-1.0866 -1.4809 0.3668
-0.9503 -1.5722 0.3669
-0.8063 -1.6509 0.3669
-0.6558 -1.7164 0.3669
-0.5000 -1.7681 0.3670
-0.3403 -1.8058 0.3670
-0.1778 -1.8290 0.3670
-0.0139 -1.8375 0.3670
0.1501 -1.8314 0.3670
0.3130 -1.8106 0.3670
0.4733 -1.7754 0.3669
0.6297 -1.7259 0.3669
0.7812 -1.6627 0.3669
0.9263 -1.5862 0.3668
1.0640 -1.4970 0.3668
5.6286 -6.5848 1.7300
6.2515 -6.1128 1.7462
6.8093 -5.5610 1.7558
7.2784 -4.9312 1.7558
7.7036 -4.2699 1.7590
8.0659 -3.5708 1.7616
8.3617 -2.8400 1.7636
8.5883 -2.0841 1.7650
4.6256 -0.6930 0.9341
4.4828 -0.2664 0.8968
4.8848 0.1466 0.9760
8.7681 1.0514 1.7636
8.6296 1.8276 1.7617
8.4195 2.5865 1.7590
8.1402 3.3214 1.7558
7.7945 4.0258 1.7520
7.3859 4.6936 1.7477
6.9184 5.3192 1.7429
6.3968 5.8975 1.7376
5.8327 6.4312 1.7339
1.1029 1.4590 0.3653
0.9682 1.5514 0.3652
0.8258 1.6314 0.3652
0.6769 1.6984 0.3651
0.5226 1.7520 0.3651
0.3641 1.7915 0.3651
0.2028 1.8168 0.3651
0.0399 1.8277 0.3651
-0.1234 1.8240 0.3651
-0.2856 1.8057 0.3651
-0.4457 1.7731 0.3651
-0.6022 1.7264 0.3652
-0.7539 1.6660 0.3652
-0.8996 1.5922 0.3652
-1.0383 1.5058 0.3653
-5.9485 7.1634 1.8596
-6.2187 6.2567 1.7618
-6.5445 5.5022 1.7076
-7.0146 4.8999 1.7088
-7.4286 4.2572 1.7099
-7.7832 3.5793 1.7109
-8.0752 2.8718 1.7117
-8.3022 2.1405 1.7123
-8.4612 1.3913 1.7125
-8.5516 0.6308 1.7125
-8.5738 -0.1349 1.7125
-8.5276 -0.8994 1.7125
-8.4133 -1.6568 1.7125
-8.2300 -2.4003 1.7121
-7.9798 -3.1239 1.7114
-7.6655 -3.8216 1.7106
-7.2896 -4.4878 1.7096
-6.8554 -5.1169 1.7084
-6.3668 -5.7040 1.7072
-6.3530 -6.8072 1.8596
-5.7204 -7.3471 1.8596
-0.9947 -1.5444 0.3669
-0.8530 -1.6271 0.3669
-0.7045 -1.6969 0.3669
-0.5503 -1.7531 0.3670
-0.3917 -1.7953 0.3670
-0.2299 -1.8232 0.3670
-0.0663 -1.8364 0.3670
0.0978 -1.8350 0.3670
0.2612 -1.8189 0.3670
0.4224 -1.7882 0.3670
0.5803 -1.7432 0.3669
0.7334 -1.6843 0.3669
0.8807 -1.6120 0.3669
1.0209 -1.5268 0.3668
5.4290 -6.7310 1.7270
6.0606 -6.2742 1.7422
6.6377 -5.7442 1.7531
7.1350 -5.1370 1.7558
7.5745 -4.4855 1.7581
7.9572 -3.7977 1.7609
8.2747 -3.0764 1.7631
8.5237 -2.3278 1.7646
4.7373 -0.8486 0.9612
4.5103 -0.3974 0.9043
4.7267 0.0069 0.9440
8.7970 0.8011 1.7641
8.6817 1.5813 1.7624
8.4942 2.3465 1.7599
8.2368 3.0897 1.7569
7.9119 3.8045 1.7533
7.5229 4.4847 1.7491
7.0738 5.1244 1.7445
6.5689 5.7183 1.7393
6.0149 6.2633 1.7343
5.4060 6.7427 1.7260
1.0121 1.5232 0.3652
0.8720 1.6072 0.3652
0.7251 1.6785 0.3652
0.5723 1.7364 0.3651
0.4151 1.7804 0.3651
0.2546 1.8103 0.3651
0.0920 1.8258 0.3651
-0.0713 1.8267 0.3651
-0.2340 1.8131 0.3651
-0.3949 1.7851 0.3651
-0.5526 1.7429 0.3652
-0.7060 1.6868 0.3652
-0.8538 1.6172 0.3652
-0.9949 1.5348 0.3653
-5.7417 7.3302 1.8596
-6.2099 6.6150 1.8120
-6.3908 5.6915 1.7092
-6.8704 5.0969 1.7085
-7.3027 4.4665 1.7096
-7.6766 3.7992 1.7106
-7.9889 3.1006 1.7114
-8.2369 2.3762 1.7121
-8.4181 1.6321 1.7125
-8.5302 0.8744 1.7125
-8.5742 0.1098 1.7125
-8.5497 -0.6558 1.7125
-8.4571 -1.4161 1.7125
-8.2959 -2.1648 1.7123
-8.0668 -2.8954 1.7117
-7.7727 -3.6020 1.7109
-7.4162 -4.2789 1.7099
-7.0002 -4.9204 1.7088
-6.5280 -5.5210 1.7075
-6.5077 -6.5859 1.8491
-5.9276 -7.1809 1.8596
-1.0383 -1.5153 0.3669
-0.8990 -1.6021 0.3669
-0.7526 -1.6761 0.3669
-0.6000 -1.7367 0.3670
-0.4427 -1.7834 0.3670
-0.2818 -1.8158 0.3670
-0.1186 -1.8338 0.3670
0.0455 -1.8370 0.3670
0.2092 -1.8256 0.3670
0.3712 -1.7996 0.3670
0.5303 -1.7591 0.3669
0.6851 -1.7046 0.3669
0.8344 -1.6365 0.3669
0.9770 -1.5554 0.3668
5.2315 -6.8787 1.7259
5.8602 -6.4237 1.7365
6.4604 -5.9213 1.7502
6.9872 -5.3397 1.7563
7.4391 -4.6970 1.7570
7.8420 -4.0213 1.7600
8.1806 -3.3100 1.7624
8.4518 -2.5694 1.7642
8.6527 -1.8061 1.7653
4.5564 -0.5329 0.9162
4.6166 -0.1250 0.9223
8.8184 0.5500 1.7646
8.2197 -2.3448 1.7619
4.8415 -0.9237 1.0160
4.5674 -0.4545 0.9461
4.6852 -0.0460 0.9658
8.5199 0.6790 1.7618
8.4175 1.4352 1.7601
8.2453 2.1778 1.7579
8.0050 2.9002 1.7550
7.6992 3.5959 1.7516
7.3310 4.2589 1.7476
6.9041 4.8836 1.7432
6.4227 5.4648 1.7383
5.8976 6.0041 1.7348
5.3021 6.4623 1.7230
0.9973 1.4648 0.3653
0.8625 1.5477 0.3652
0.7209 1.6184 0.3652
0.5735 1.6761 0.3652
0.4217 1.7205 0.3651
0.2664 1.7512 0.3651
0.1091 1.7680 0.3651
-0.0491 1.7707 0.3651
-0.2069 1.7593 0.3651
-0.3631 1.7339 0.3652
-0.5164 1.6947 0.3652
-0.6656 1.6420 0.3652
-0.8096 1.5762 0.3652
-0.9471 1.4979 0.3653
-5.4825 7.1644 1.8596
-6.1000 6.6467 1.8596
-6.2227 5.6695 1.7352
-6.5977 5.0109 1.7077
-7.0231 4.4051 1.7089
-7.3925 3.7630 1.7098
-7.7025 3.0899 1.7107
-7.9506 2.3911 1.7113
-8.1346 1.6726 1.7118
-8.2529 0.9403 1.7122
-8.3046 0.2001 1.7123
-8.2891 -0.5417 1.7123
-8.2067 -1.2791 1.7120
-8.0580 -2.0058 1.7116
-7.8442 -2.7160 1.7111
-7.5673 -3.4036 1.7103
-7.2296 -4.0632 1.7094
-6.8340 -4.6892 1.7084
-6.3899 -5.2817 1.7088
-6.4130 -6.3452 1.8596
-5.8212 -6.8921 1.8596
-1.0224 -1.4566 0.3668
-0.8884 -1.5422 0.3669
-0.7474 -1.6155 0.3669
-0.6003 -1.6758 0.3669
-0.4484 -1.7228 0.3669
-0.2928 -1.7560 0.3670
-0.1350 -1.7752 0.3670
0.0240 -1.7801 0.3670
0.1827 -1.7708 0.3670
0.3400 -1.7474 0.3669
0.4945 -1.7100 0.3669
0.6451 -1.6589 0.3669
0.7904 -1.5945 0.3668
0.9295 -1.5175 0.3668
1.0610 -1.4283 0.3668
5.5823 -6.2595 1.7288
6.1745 -5.7888 1.7446
6.7019 -5.2425 1.7539
7.1469 -4.6262 1.7549
7.5416 -3.9754 1.7573
7.8770 -3.2911 1.7597
8.1475 -2.5776 1.7615
8.3504 -1.8415 1.7626
4.6082 -0.5917 0.9577
4.6264 -0.1775 0.9543
8.5377 0.4358 1.7621
8.4579 1.1949 1.7607
8.3077 1.9426 1.7586
8.0890 2.6721 1.7560
7.8038 3.3770 1.7527
7.4552 4.0511 1.7489
7.0466 4.6886 1.7446
6.5820 5.2842 1.7399
6.0675 5.8344 1.7351
5.5006 6.3271 1.7281
1.0387 1.4358 0.3653
0.9063 1.5225 0.3652
0.7668 1.5972 0.3652
0.6211 1.6591 0.3652
0.4706 1.7078 0.3651
0.3163 1.7429 0.3651
0.1595 1.7642 0.3651
0.0014 1.7714 0.3651
-0.1566 1.7645 0.3651
-0.3135 1.7435 0.3651
-0.4678 1.7087 0.3652
-0.6185 1.6603 0.3652
-0.7642 1.5986 0.3652
-0.9039 1.5242 0.3653
-1.0365 1.4377 0.3653
-5.9079 6.8179 1.8596
-6.2149 5.9956 1.7800
-6.4505 5.1959 1.7073
-6.8932 4.6028 1.7085
-7.2809 3.9717 1.7096
-7.6101 3.3079 1.7104
-7.8783 2.6167 1.7111
-8.0829 1.9038 1.7117
-8.2224 1.1752 1.7121
-8.2954 0.4369 1.7123
-8.3014 -0.3051 1.7123
-8.2403 -1.0445 1.7121
-8.1126 -1.7753 1.7118
-7.9194 -2.4914 1.7113
-7.6625 -3.1869 1.7106
-7.3439 -3.8560 1.7097
-6.9664 -4.4933 1.7087
-6.5332 -5.0935 1.7076
-6.3041 -5.8912 1.7785
-6.0155 -6.7233 1.8596
-1.0635 -1.4268 0.3668
-0.9320 -1.5162 0.3668
-0.7931 -1.5934 0.3669
-0.6478 -1.6580 0.3669
-0.4973 -1.7093 0.3669
-0.3428 -1.7469 0.3670
-0.1856 -1.7706 0.3670
-0.0268 -1.7801 0.3670
0.1321 -1.7753 0.3670
0.2900 -1.7564 0.3669
0.4455 -1.7234 0.3669
0.5975 -1.6767 0.3669
0.7447 -1.6165 0.3669
0.8858 -1.5434 0.3668
1.0199 -1.4580 0.3668
5.3788 -6.3892 1.7215
5.9920 -5.9479 1.7403
6.5402 -5.4237 1.7514
7.0137 -4.8293 1.7553
7.4214 -4.1868 1.7564
7.7768 -3.5130 1.7590
8.0683 -2.8082 1.7610
8.2931 -2.0786 1.7623
4.6504 -0.7325 0.9704
4.5886 -0.3074 0.9479
4.8615 0.1093 1.0023
8.4911 0.9534 1.7612
8.3632 1.7055 1.7594
8.1662 2.4415 1.7569
7.9019 3.1550 1.7538
7.5732 3.8396 1.7502
7.1833 4.4894 1.7461
6.7362 5.0989 1.7414
6.2361 5.6632 1.7364
5.6908 6.1806 1.7318
1.0792 1.4056 0.3653
0.9494 1.4961 0.3652
0.8120 1.5747 0.3652
0.6682 1.6408 0.3652
0.5191 1.6937 0.3652
0.3659 1.7332 0.3651
0.2098 1.7589 0.3651
0.0520 1.7706 0.3651
-0.1062 1.7682 0.3651
-0.2636 1.7517 0.3651
-0.4189 1.7213 0.3652
-0.5709 1.6772 0.3652
-0.7183 1.6197 0.3652
-0.8601 1.5493 0.3653
-0.9950 1.4666 0.3653
-5.7110 6.9837 1.8596
-6.2064 6.3390 1.8286
-6.2991 5.3773 1.7072
-6.7577 4.7965 1.7082
-7.1633 4.1770 1.7092
-7.5115 3.5230 1.7102
-7.7994 2.8400 1.7109
-8.0246 2.1335 1.7115
-8.1850 1.4092 1.7120
-8.2793 0.6733 1.7122
-8.3068 -0.0681 1.7123
-8.2670 -0.8091 1.7122
-8.1605 -1.5433 1.7119
-7.9881 -2.2647 1.7115
-7.7513 -2.9674 1.7108
-7.4522 -3.6455 1.7100
-7.0932 -4.2936 1.7091
-6.6774 -4.9062 1.7080
-6.2517 -5.5167 1.7186
-6.2048 -6.5489 1.8596
-5.5958 -7.0766 1.8596
-0.9749 -1.4889 0.3668
-0.8382 -1.5701 0.3669
-0.6948 -1.6388 0.3669
-0.5459 -1.6944 0.3669
-0.3925 -1.7364 0.3669
-0.2360 -1.7646 0.3670
-0.0776 -1.7786 0.3670
0.0814 -1.7784 0.3670
0.2398 -1.7640 0.3669
0.3962 -1.7355 0.3669
0.5494 -1.6931 0.3669
0.6983 -1.6371 0.3669
0.8415 -1.5681 0.3668
0.9779 -1.4866 0.3668
5.1895 -6.5340 1.7200
5.8021 -6.0977 1.7350
6.3719 -5.5985 1.7484
6.8747 -5.0286 1.7557
7.2950 -4.3944 1.7554
7.6701 -3.7318 1.7582
7.9824 -3.0363 1.7604
8.2287 -2.3139 1.7619
4.8143 -0.8998 1.0095
4.5621 -0.4366 0.9447
4.7051 -0.0285 0.9699
8.5170 0.7110 1.7617
8.4116 1.4668 1.7600
8.2365 2.2087 1.7577
7.9934 2.9300 1.7549
7.6850 3.6245 1.7514
7.3142 4.2860 1.7474
6.8849 4.9090 1.7430
6.4013 5.4882 1.7380
5.8749 6.0261 1.7348
5.2755 6.4794 1.7223
0.9917 1.4685 0.3653
0.8566 1.5510 0.3652
0.7148 1.6211 0.3652
0.5672 1.6783 0.3652
0.4152 1.7221 0.3651
0.2598 1.7522 0.3651
0.1025 1.7684 0.3651
-0.0558 1.7705 0.3651
-0.2135 1.7585 0.3651
-0.3696 1.7325 0.3652
-0.5228 1.6927 0.3652
-0.6718 1.6395 0.3652
-0.8155 1.5732 0.3652
-0.9527 1.4943 0.3653
-5.5095 7.1438 1.8596
-6.1249 6.6237 1.8596
-6.2237 5.6277 1.7296
-6.6167 4.9862 1.7078
-7.0398 4.3788 1.7089
-7.4067 3.7353 1.7099
-7.7142 3.0609 1.7107
-7.9596 2.3613 1.7114
-8.1409 1.6420 1.7119
-8.2565 0.9092 1.7122
-8.3053 0.1688 1.7123
-8.2870 -0.5729 1.7123
-8.2018 -1.3099 1.7120
-8.0503 -2.0361 1.7116
-7.8338 -2.7454 1.7111
-7.5543 -3.4320 1.7103
-7.2141 -4.0902 1.7094
-6.8161 -4.7148 1.7083
-6.3639 -5.3005 1.7072
-6.3891 -6.3693 1.8596
-5.7953 -6.9140 1.8596
-1.0169 -1.4604 0.3668
-0.8826 -1.5455 0.3669
-0.7413 -1.6183 0.3669
-0.5940 -1.6781 0.3669
-0.4419 -1.7245 0.3669
-0.2862 -1.7571 0.3670
-0.1283 -1.7757 0.3670
0.0307 -1.7800 0.3670
0.1894 -1.7701 0.3670
0.3465 -1.7461 0.3669
0.5009 -1.7081 0.3669
0.6513 -1.6564 0.3669
0.7964 -1.5915 0.3668
0.9352 -1.5140 0.3668
1.0664 -1.4243 0.3668
5.6081 -6.2411 1.7295
6.1978 -5.7670 1.7450
6.7228 -5.2182 1.7542
7.1641 -4.5991 1.7548
7.5570 -3.9473 1.7574
7.8897 -3.2616 1.7598
8.1574 -2.5471 1.7615
8.3574 -1.8101 1.7626
4.6028 -0.5734 0.9561
4.6314 -0.1603 0.9552
8.5358 0.4679 1.7621
8.4529 1.2267 1.7606
8.2999 1.9737 1.7585
8.0783 2.7023 1.7558
7.7904 3.4060 1.7526
7.4391 4.0787 1.7488
7.0281 4.7146 1.7444
6.5613 5.3083 1.7397
6.0454 5.8570 1.7350
5.4752 6.3459 1.7276
1.0333 1.4397 0.3653
0.9006 1.5259 0.3652
0.7607 1.6001 0.3652
0.6149 1.6614 0.3652
0.4641 1.7096 0.3651
0.3097 1.7441 0.3651
0.1529 1.7647 0.3651
-0.0052 1.7714 0.3651
-0.1633 1.7639 0.3651
-0.3200 1.7423 0.3651
-0.4743 1.7069 0.3652
-0.6247 1.6579 0.3652
-0.7703 1.5957 0.3652
-0.9097 1.5208 0.3653
-1.0419 1.4337 0.3653
-5.9335 6.7957 1.8596
-6.2160 5.9516 1.7739
-6.4702 5.1717 1.7074
-6.9107 4.5769 1.7086
-7.2959 3.9444 1.7096
-7.6227 3.2793 1.7105
-7.8882 2.5871 1.7112
-8.0901 1.8735 1.7117
-8.2268 1.1443 1.7121
-8.2970 0.4057 1.7123
-8.3001 -0.3363 1.7123
-8.2362 -1.0755 1.7121
-8.1058 -1.8058 1.7118
-7.9099 -2.5211 1.7113
-7.6503 -3.2156 1.7106
-7.3292 -3.8835 1.7097
-6.9493 -4.5193 1.7087
-6.5138 -5.1179 1.7075
-6.3146 -5.9456 1.7878
-5.9901 -6.7458 1.8596
-1.0581 -1.4308 0.3668
-0.9263 -1.5197 0.3669
-0.7871 -1.5964 0.3669
-0.6416 -1.6604 0.3669
-0.4909 -1.7111 0.3669
-0.3362 -1.7482 0.3670
-0.1789 -1.7713 0.3670
-0.0201 -1.7802 0.3670
0.1388 -1.7748 0.3670
0.2966 -1.7553 0.3669
0.4520 -1.7217 0.3669
0.6038 -1.6744 0.3669
0.7507 -1.6137 0.3669
0.8916 -1.5401 0.3668
1.0254 -1.4542 0.3668
5.4063 -6.3732 1.7227
6.0168 -5.9277 1.7410
6.5618 -5.4001 1.7517
7.0316 -4.8027 1.7552
7.4376 -4.1592 1.7565
7.7904 -3.4839 1.7591
8.0792 -2.7780 1.7610
8.3010 -2.0475 1.7623
4.6448 -0.7138 0.9687
4.5935 -0.2903 0.9487
4.8830 0.1281 1.0069
8.4871 0.9853 1.7612
8.3563 1.7369 1.7593
8.1564 2.4721 1.7568
7.8893 3.1844 1.7537
7.5580 3.8677 1.7500
7.1656 4.5159 1.7459
6.7162 5.1236 1.7412
6.2140 5.6859 1.7362
5.6662 6.2005 1.7314
1.0739 1.4096 0.3653
0.9438 1.4997 0.3652
0.8061 1.5777 0.3652
0.6620 1.6433 0.3652
0.5127 1.6957 0.3651
0.3594 1.7346 0.3651
0.2031 1.7597 0.3651
0.0453 1.7708 0.3651
-0.1129 1.7678 0.3651
-0.2702 1.7507 0.3651
-0.4254 1.7197 0.3652
-0.5772 1.6750 0.3652
-0.7244 1.6170 0.3652
-0.8659 1.5461 0.3653
-1.0005 1.4628 0.3653
-5.7372 6.9622 1.8596
-6.2076 6.2927 1.8220
-6.3193 5.3536 1.7072
-6.7759 4.7712 1.7082
-7.1791 4.1501 1.7093
-7.5249 3.4948 1.7102
-7.8102 2.8107 1.7110
-8.0326 2.1033 1.7116
-8.1903 1.3784 1.7120
-8.2818 0.6422 1.7122
-8.3064 -0.0994 1.7123
-8.2639 -0.8401 1.7122
-8.1546 -1.5740 1.7119
-7.9794 -2.2947 1.7114
-7.7400 -2.9965 1.7108
-7.4382 -3.6734 1.7100
-7.0768 -4.3201 1.7090
-6.6587 -4.9312 1.7079
-6.2528 -5.5596 1.7247
-6.1801 -6.5722 1.8596
-5.5691 -7.0976 1.8596
-0.9693 -1.4926 0.3668
-0.8323 -1.5733 0.3669
-0.6887 -1.6414 0.3669
-0.5395 -1.6964 0.3669
-0.3860 -1.7379 0.3669
-0.2294 -1.7654 0.3670
-0.0709 -1.7789 0.3670
0.0881 -1.7781 0.3670
0.2464 -1.7631 0.3669
0.4027 -1.7340 0.3669
0.5558 -1.6910 0.3669
0.7044 -1.6345 0.3669
0.8474 -1.5649 0.3668
0.9835 -1.4829 0.3668
5.2143 -6.5148 1.7200
5.8274 -6.0783 1.7357
6.3945 -5.5759 1.7488
6.8934 -5.0025 1.7556
7.3120 -4.3673 1.7556
7.6846 -3.7032 1.7583
7.9941 -3.0064 1.7605
8.2376 -2.2830 1.7620
4.7874 -0.8761 1.0032
4.5569 -0.4188 0.9432
4.7251 -0.0109 0.9740
8.5140 0.7430 1.7616
8.4057 1.4984 1.7599
8.2276 2.2395 1.7576
7.9817 2.9598 1.7547
7.6706 3.6531 1.7513
7.2973 4.3131 1.7473
6.8656 4.9343 1.7428
6.3798 5.5116 1.7378
5.8511 6.0471 1.7344
5.2488 6.4964 1.7216
0.9862 1.4722 0.3653
0.8508 1.5542 0.3652
0.7087 1.6237 0.3652
0.5609 1.6804 0.3652
0.4087 1.7236 0.3651
0.2533 1.7532 0.3651
0.0958 1.7688 0.3651
-0.0624 1.7703 0.3651
-0.2201 1.7577 0.3651
-0.3761 1.7311 0.3652
-0.5291 1.6908 0.3652
-0.6780 1.6369 0.3652
-0.8214 1.5701 0.3652
-0.9584 1.4907 0.3653
-5.5363 7.1230 1.8596
-6.1498 6.6006 1.8596
-6.2247 5.5861 1.7240
-6.6356 4.9614 1.7078
-7.0564 4.3524 1.7090
-7.4209 3.7075 1.7099
-7.7258 3.0319 1.7107
-7.9686 2.3313 1.7114
-8.1471 1.6114 1.7119
-8.2599 0.8781 1.7122
-8.3059 0.1376 1.7123
-8.2848 -0.6041 1.7122
-8.1967 -1.3408 1.7120
-8.0424 -2.0664 1.7116
-7.8233 -2.7748 1.7110
-7.5412 -3.4603 1.7103
-7.1985 -4.1172 1.7094
-6.7981 -4.7402 1.7083
-6.3439 -5.3244 1.7072
-6.3651 -6.3932 1.8596
-5.7692 -6.9357 1.8596
-1.0114 -1.4642 0.3668
-0.8768 -1.5488 0.3669
-0.7352 -1.6210 0.3669
-0.5876 -1.6803 0.3669
-0.4354 -1.7261 0.3669
-0.2796 -1.7582 0.3670
-0.1216 -1.7761 0.3670
0.0373 -1.7799 0.3670
0.1960 -1.7694 0.3670
0.3531 -1.7448 0.3669
0.5074 -1.7062 0.3669
0.6575 -1.6540 0.3669
0.8024 -1.5885 0.3668
0.9408 -1.5104 0.3668
1.0717 -1.4202 0.3667
5.6339 -6.2225 1.7302
6.2210 -5.7451 1.7455
6.7436 -5.1939 1.7545
7.1811 -4.5719 1.7548
7.5723 -3.9191 1.7575
7.9023 -3.2320 1.7598
8.1672 -2.5165 1.7616
8.3643 -1.7787 1.7627
4.5973 -0.5552 0.9545
4.6365 -0.1430 0.9562
8.5337 0.5000 1.7620
8.4479 1.2584 1.7606
8.2919 2.0048 1.7584
8.0675 2.7325 1.7557
7.7768 3.4350 1.7524
7.4230 4.1063 1.7486
7.0095 4.7405 1.7443
6.5405 5.3323 1.7394
6.0232 5.8796 1.7350
5.4497 6.3647 1.7271
1.0278 1.4435 0.3653
0.8948 1.5293 0.3652
0.7547 1.6029 0.3652
0.6086 1.6637 0.3652
0.4577 1.7113 0.3651
0.3032 1.7453 0.3651
0.1462 1.7653 0.3651
-0.0119 1.7713 0.3651
-0.1699 1.7632 0.3651
-0.3266 1.7411 0.3651
-0.4807 1.7051 0.3652
-0.6310 1.6556 0.3652
-0.7763 1.5928 0.3652
-0.9154 1.5174 0.3653
-1.0473 1.4298 0.3653
-5.9590 6.7733 1.8596
-6.2170 5.9080 1.7678
-6.4898 5.1475 1.7074
-6.9280 4.5510 1.7086
-7.3109 3.9170 1.7096
-7.6351 3.2506 1.7105
-7.8980 2.5574 1.7112
-8.0972 1.8430 1.7117
-8.2311 1.1134 1.7121
-8.2985 0.3745 1.7123
-8.2988 -0.3675 1.7123
-8.2321 -1.1065 1.7121
-8.0988 -1.8362 1.7118
-7.9002 -2.5508 1.7112
-7.6380 -3.2443 1.7105
-7.3143 -3.9109 1.7097
-6.9320 -4.5453 1.7087
-6.4943 -5.1422 1.7075
-6.3253 -6.0007 1.7972
-5.9647 -6.7683 1.8596
-1.0527 -1.4347 0.3668
-0.9206 -1.5231 0.3669
-0.7811 -1.5994 0.3669
-0.6353 -1.6628 0.3669
-0.4844 -1.7130 0.3669
-0.3297 -1.7495 0.3670
-0.1722 -1.7719 0.3670
-0.0134 -1.7802 0.3670
0.1455 -1.7743 0.3670
0.3032 -1.7542 0.3669
0.4585 -1.7200 0.3669
0.6101 -1.6721 0.3669
0.7568 -1.6108 0.3669
0.8974 -1.5367 0.3668
1.0308 -1.4503 0.3668
5.4338 -6.3569 1.7238
6.0414 -5.9073 1.7417
6.5833 -5.3764 1.7520
7.0494 -4.7761 1.7552
7.4537 -4.1314 1.7566
7.8039 -3.4548 1.7592
8.0899 -2.7476 1.7611
8.3089 -2.0163 1.7624
4.6392 -0.6950 0.9669
4.5985 -0.2733 0.9495
4.9046 0.1472 1.0114
8.4830 1.0172 1.7611
8.3493 1.7682 1.7592
8.1465 2.5026 1.7567
7.8767 3.2138 1.7535
7.5427 3.8957 1.7499
7.1478 4.5423 1.7457
6.6960 5.1483 1.7410
6.1917 5.7085 1.7359
5.6412 6.2201 1.7309
1.0686 1.4137 0.3653
0.9381 1.5032 0.3652
0.8002 1.5808 0.3652
0.6558 1.6457 0.3652
0.5063 1.6976 0.3651
0.3528 1.7359 0.3651
0.1965 1.7604 0.3651
0.0386 1.7709 0.3651
-0.1195 1.7673 0.3651
-0.2768 1.7497 0.3651
-0.4318 1.7181 0.3652
-0.5835 1.6728 0.3652
-0.7305 1.6143 0.3652
-0.8717 1.5428 0.3653
-1.0060 1.4591 0.3653
-5.7634 6.9405 1.8596
-6.2087 6.2467 1.8154
-6.3394 5.3297 1.7072
-6.7940 4.7458 1.7082
-7.1949 4.1232 1.7093
-7.5381 3.4666 1.7102
-7.8209 2.7813 1.7110
-8.0406 2.0731 1.7116
-8.1955 1.3476 1.7120
-8.2842 0.6110 1.7122
-8.3060 -0.1306 1.7123
-8.2606 -0.8712 1.7122
-8.1485 -1.6046 1.7119
-7.9706 -2.3247 1.7114
-7.7285 -3.0255 1.7108
-7.4242 -3.7013 1.7100
-7.0603 -4.3466 1.7090
-6.6399 -4.9560 1.7079
-6.2585 -5.6070 1.7321
-6.1554 -6.5954 1.8596
-1.0932 -1.4041 0.3668
-0.9637 -1.4962 0.3668
-0.8264 -1.5764 0.3669
-0.6825 -1.6440 0.3669
-0.5331 -1.6984 0.3669
-0.3794 -1.7393 0.3670
-0.2227 -1.7663 0.3670
-0.0642 -1.7791 0.3670
0.0948 -1.7777 0.3670
0.2530 -1.7621 0.3669
0.4093 -1.7324 0.3669
0.5622 -1.6889 0.3669
0.7106 -1.6318 0.3669
0.8532 -1.5617 0.3668
0.9891 -1.4792 0.3668
5.2391 -6.4955 1.7201
5.8526 -6.0588 1.7364
6.4170 -5.5532 1.7492
6.9120 -4.9764 1.7556
7.3289 -4.3401 1.7557
7.6989 -3.6744 1.7584
8.0057 -2.9764 1.7605
8.2464 -2.2520 1.7620
4.7608 -0.8528 0.9969
4.5612 -0.4019 0.9438
4.7453 0.0069 0.9781
8.5109 0.7751 1.7616
8.3996 1.5299 1.7599
8.2186 2.2703 1.7575
7.9699 2.9896 1.7546
7.6561 3.6815 1.7511
7.2803 4.3400 1.7471
6.8462 4.9595 1.7426
6.3582 5.5349 1.7376
5.8270 6.0676 1.7340
1.1086 1.3827 0.3653
0.9806 1.4759 0.3653
0.8449 1.5573 0.3652
0.7025 1.6264 0.3652
0.5546 1.6825 0.3652
0.4022 1.7252 0.3651
0.2467 1.7541 0.3651
0.0891 1.7691 0.3651
-0.0691 1.7700 0.3651
-0.2268 1.7569 0.3651
-0.3826 1.7297 0.3652
-0.5355 1.6888 0.3652
-0.6841 1.6344 0.3652
-0.8273 1.5670 0.3653
-0.9640 1.4871 0.3653
-5.5630 7.1021 1.8596
-6.1746 6.5774 1.8596
-6.2282 5.5471 1.7192
-6.6544 4.9366 1.7079
-7.0730 4.3259 1.7090
-7.4350 3.6796 1.7100
-7.7373 3.0029 1.7108
-7.9774 2.3014 1.7114
-8.1532 1.5808 1.7119
-8.2632 0.8471 1.7122
-8.3063 0.1064 1.7123
-8.2824 -0.6353 1.7122
-8.1915 -1.3716 1.7120
-8.0345 -2.0966 1.7116
-7.8127 -2.8042 1.7110
-7.5280 -3.4886 1.7102
-7.1828 -4.1442 1.7093
-6.7801 -4.7656 1.7082
-6.3238 -5.3483 1.7072
-6.3410 -6.4172 1.8596
-5.7431 -6.9574 1.8596
-1.0059 -1.4681 0.3668
-0.8710 -1.5521 0.3669
-0.7291 -1.6238 0.3669
-0.5813 -1.6825 0.3669
-0.4289 -1.7278 0.3669
-0.2730 -1.7592 0.3670
-0.1149 -1.7766 0.3670
0.0440 -1.7797 0.3670
0.2027 -1.7686 0.3670
0.3597 -1.7434 0.3669
0.5138 -1.7043 0.3669
0.6637 -1.6515 0.3669
0.8084 -1.5855 0.3668
0.9465 -1.5069 0.3668
1.0771 -1.4162 0.3667
5.6597 -6.2039 1.7310
6.2442 -5.7231 1.7459
6.7644 -5.1694 1.7549
7.1981 -4.5448 1.7547
7.5875 -3.8908 1.7576
7.9148 -3.2024 1.7599
8.1769 -2.4858 1.7616
8.3711 -1.7473 1.7627
4.5919 -0.5370 0.9530
4.6416 -0.1257 0.9571
8.5316 0.5321 1.7620
7.9601 -2.2707 1.7595
4.8662 -0.9284 1.0530
4.5806 -0.4558 0.9784
4.7035 -0.0462 0.9998
8.2509 0.6576 1.7593
8.1519 1.3899 1.7578
7.9854 2.1092 1.7556
7.7531 2.8089 1.7528
7.4575 3.4829 1.7495
7.1013 4.1255 1.7457
6.6883 4.7310 1.7414
6.2225 5.2944 1.7366
5.7110 5.8141 1.7323
1.0902 1.3287 0.3653
0.9671 1.4205 0.3653
0.8364 1.5010 0.3652
0.6991 1.5695 0.3652
0.5562 1.6255 0.3652
0.4089 1.6686 0.3652
0.2584 1.6984 0.3652
0.1058 1.7146 0.3652
-0.0476 1.7173 0.3652
-0.2007 1.7062 0.3652
-0.3521 1.6816 0.3652
-0.5008 1.6435 0.3652
-0.6455 1.5924 0.3652
-0.7851 1.5286 0.3653
-0.9185 1.4526 0.3653
-1.0446 1.3651 0.3654
-5.9155 6.4456 1.8596
-6.2132 5.6608 1.7866
-6.3961 4.8578 1.7072
-6.8084 4.2705 1.7083
-7.1663 3.6479 1.7092
-7.4668 2.9953 1.7101
-7.7072 2.3179 1.7107
-7.8855 1.6214 1.7112
-8.0001 0.9115 1.7115
-8.0502 0.1940 1.7116
-8.0352 -0.5252 1.7116
-7.9553 -1.2399 1.7114
-7.8112 -1.9444 1.7110
-7.6041 -2.6328 1.7104
-7.3358 -3.2995 1.7097
-7.0085 -3.9389 1.7089
-6.6251 -4.5459 1.7078
-6.2211 -5.1421 1.7156
-6.2190 -6.1532 1.8596
-5.6451 -6.6836 1.8596
-0.9914 -1.4124 0.3668
-0.8615 -1.4954 0.3668
-0.7247 -1.5665 0.3669
-0.5821 -1.6250 0.3669
-0.4348 -1.6706 0.3669
-0.2840 -1.7028 0.3669
-0.1309 -1.7213 0.3669
0.0232 -1.7261 0.3669
0.1772 -1.7171 0.3669
0.3297 -1.6944 0.3669
0.4795 -1.6581 0.3669
0.6255 -1.6086 0.3669
0.7665 -1.5462 0.3668
0.9013 -1.4715 0.3668
1.0289 -1.3850 0.3667
5.3931 -6.0473 1.7223
5.9711 -5.5982 1.7398
6.4859 -5.0735 1.7503
6.9299 -4.4856 1.7546
7.3041 -3.8502 1.7550
7.6285 -3.1873 1.7573
7.8902 -2.4963 1.7590
8.0866 -1.7834 1.7602
4.6217 -0.5934 0.9904
4.6392 -0.1780 0.9868
8.2680 0.4220 1.7597
8.1909 1.1572 1.7583
8.0458 1.8814 1.7563
7.8343 2.5880 1.7537
7.5586 3.2709 1.7506
7.2214 3.9241 1.7469
6.8261 4.5420 1.7428
6.3767 5.1194 1.7382
5.8843 5.6582 1.7352
5.3198 6.1192 1.7235
1.0073 1.3924 0.3653
0.8789 1.4766 0.3653
0.7436 1.5490 0.3652
0.6024 1.6090 0.3652
0.4564 1.6563 0.3652
0.3067 1.6903 0.3652
0.1547 1.7109 0.3652
0.0014 1.7179 0.3652
-0.1519 1.7112 0.3652
-0.3040 1.6909 0.3652
-0.4537 1.6571 0.3652
-0.5998 1.6101 0.3652
-0.7412 1.5503 0.3653
-0.8767 1.4782 0.3653
-1.0052 1.3942 0.3653
-5.7292 6.6117 1.8596
-6.2052 5.9862 1.8327
-6.2548 5.0383 1.7072
-6.6825 4.4620 1.7080
-7.0582 3.8502 1.7090
-7.3773 3.2066 1.7098
-7.6371 2.5366 1.7105
-7.8354 1.8455 1.7110
-7.9705 1.1392 1.7114
-8.0413 0.4235 1.7116
-8.0471 -0.2957 1.7116
-7.9878 -1.0125 1.7115
-7.8641 -1.7209 1.7111
-7.6770 -2.4151 1.7106
-7.4280 -3.0893 1.7100
-7.1192 -3.7380 1.7091
-6.7534 -4.3559 1.7082
-6.3341 -4.9383 1.7072
-6.2917 -5.8795 1.8304
-5.8335 -6.5199 1.8596
-1.0313 -1.3835 0.3668
-0.9038 -1.4702 0.3668
-0.7691 -1.5451 0.3669
-0.6282 -1.6077 0.3669
-0.4822 -1.6575 0.3669
-0.3324 -1.6939 0.3669
-0.1799 -1.7169 0.3669
-0.0260 -1.7261 0.3669
0.1281 -1.7215 0.3669
0.2812 -1.7031 0.3669
0.4320 -1.6712 0.3669
0.5794 -1.6258 0.3669
0.7221 -1.5675 0.3668
0.8590 -1.4966 0.3668
0.9890 -1.4138 0.3667
5.1947 -6.1706 1.7145
5.7922 -5.7496 1.7347
6.3281 -5.2478 1.7474
6.8007 -4.6826 1.7550
7.1877 -4.0550 1.7542
7.5316 -3.4023 1.7567
7.8136 -2.7196 1.7586
8.0311 -2.0130 1.7599
4.6642 -0.7347 1.0036
4.6011 -0.3082 0.9802
4.8813 0.1097 1.0378
8.2230 0.9233 1.7588
8.0995 1.6517 1.7570
7.9090 2.3647 1.7546
7.6535 3.0558 1.7517
7.3355 3.7191 1.7482
6.9584 4.3488 1.7442
6.5258 4.9397 1.7397
6.0453 5.4899 1.7357
5.5078 5.9819 1.7284
1.0467 1.3632 0.3653
0.9207 1.4510 0.3653
0.7875 1.5272 0.3652
0.6480 1.5912 0.3652
0.5034 1.6426 0.3652
0.3548 1.6809 0.3652
0.2034 1.7058 0.3652
0.0504 1.7172 0.3652
-0.1030 1.7148 0.3652
-0.2557 1.6989 0.3652
-0.4062 1.6694 0.3652
-0.5536 1.6266 0.3652
-0.6966 1.5708 0.3652
-0.8341 1.5025 0.3653
-0.9650 1.4223 0.3653
-5.5382 6.7724 1.8596
-6.1205 6.2513 1.8596
-6.2216 5.3111 1.7388
-6.5512 4.6499 1.7076
-6.9442 4.0493 1.7087
-7.2817 3.4152 1.7096
-7.5607 2.7531 1.7103
-7.7789 2.0681 1.7109
-7.9343 1.3661 1.7113
-8.0257 0.6527 1.7116
-8.0523 -0.0661 1.7116
-8.0138 -0.7843 1.7115
-7.9106 -1.4960 1.7113
-7.7435 -2.1954 1.7108
-7.5141 -2.8766 1.7102
-7.2242 -3.5340 1.7094
-6.8763 -4.1623 1.7085
-6.4733 -4.7563 1.7074
-6.2379 -5.5044 1.7683
-6.0171 -6.3508 1.8596
-1.0703 -1.3535 0.3668
-0.9453 -1.4438 0.3668
-0.8128 -1.5225 0.3668
-0.6738 -1.5891 0.3669
-0.5293 -1.6430 0.3669
-0.3806 -1.6838 0.3669
-0.2288 -1.7110 0.3669
-0.0753 -1.7247 0.3669
0.0789 -1.7245 0.3669
0.2325 -1.7105 0.3669
0.3842 -1.6828 0.3669
0.5328 -1.6417 0.3669
0.6771 -1.5875 0.3668
0.8160 -1.5206 0.3668
0.9483 -1.4415 0.3668
1.0730 -1.3510 0.3667
5.6092 -5.8950 1.7296
6.1648 -5.4165 1.7443
6.6564 -4.8689 1.7530
7.0692 -4.2584 1.7542
7.4284 -3.6142 1.7559
7.7305 -2.9404 1.7580
7.9688 -2.2408 1.7595
4.8386 -0.9043 1.0463
4.5752 -0.4379 0.9769
4.7235 -0.0286 1.0040
8.2481 0.6886 1.7593
8.1463 1.4205 1.7577
7.9770 2.1391 1.7555
7.7420 2.8379 1.7527
7.4437 3.5107 1.7493
7.0851 4.1517 1.7455
6.6697 4.7556 1.7412
6.2017 5.3172 1.7364
5.6878 5.8342 1.7319
1.0852 1.3328 0.3653
0.9618 1.4242 0.3653
0.8308 1.5041 0.3652
0.6932 1.5721 0.3652
0.5501 1.6276 0.3652
0.4027 1.6701 0.3652
0.2520 1.6993 0.3652
0.0994 1.7150 0.3652
-0.0541 1.7171 0.3652
-0.2071 1.7054 0.3652
-0.3585 1.6802 0.3652
-0.5070 1.6416 0.3652
-0.6515 1.5900 0.3652
-0.7909 1.5257 0.3653
-0.9240 1.4492 0.3653
-1.0497 1.3611 0.3654
-5.9397 6.4233 1.8596
-6.2142 5.6191 1.7808
-6.4145 4.8338 1.7072
-6.8246 4.2449 1.7083
-7.1802 3.6210 1.7093
-7.4781 2.9672 1.7101
-7.7159 2.2890 1.7107
-7.8916 1.5917 1.7112
-8.0035 0.8814 1.7115
-8.0509 0.1637 1.7116
-8.0331 -0.5554 1.7116
-7.9505 -1.2698 1.7114
-7.8037 -1.9738 1.7110
-7.5940 -2.6614 1.7104
-7.3231 -3.3270 1.7097
-6.9935 -3.9651 1.7088
-6.6078 -4.5706 1.7078
-6.2184 -5.1794 1.7202
-6.1958 -6.1766 1.8596
-5.6199 -6.7048 1.8596
-0.9861 -1.4162 0.3668
-0.8559 -1.4987 0.3668
-0.7188 -1.5692 0.3669
-0.5760 -1.6272 0.3669
-0.4285 -1.6722 0.3669
-0.2776 -1.7038 0.3669
-0.1244 -1.7218 0.3669
0.0297 -1.7260 0.3669
0.1836 -1.7165 0.3669
0.3360 -1.6931 0.3669
0.4857 -1.6563 0.3669
0.6316 -1.6062 0.3669
0.7723 -1.5433 0.3668
0.9068 -1.4681 0.3668
1.0341 -1.3811 0.3667
5.4191 -6.0307 1.7234
5.9944 -5.5777 1.7404
6.5061 -5.0500 1.7506
6.9465 -4.4594 1.7546
7.3189 -3.8229 1.7551
7.6408 -3.1587 1.7574
7.8998 -2.4666 1.7591
8.0934 -1.7530 1.7602
4.6162 -0.5751 0.9888
4.6442 -0.1607 0.9878
8.2662 0.4531 1.7597
8.1862 1.1880 1.7583
8.0383 1.9115 1.7562
7.8240 2.6173 1.7536
7.5456 3.2990 1.7505
7.2059 3.9508 1.7468
6.8083 4.5671 1.7426
6.3566 5.1427 1.7380
5.8617 5.6791 1.7348
5.2946 6.1366 1.7228
1.0021 1.3962 0.3653
0.8734 1.4799 0.3653
0.7378 1.5518 0.3652
0.5963 1.6113 0.3652
0.4501 1.6580 0.3652
0.3004 1.6915 0.3652
0.1482 1.7115 0.3652
-0.0051 1.7179 0.3652
-0.1583 1.7106 0.3652
-0.3104 1.6897 0.3652
-0.4599 1.6554 0.3652
-0.6059 1.6079 0.3652
-0.7470 1.5476 0.3653
-0.8822 1.4749 0.3653
-1.0104 1.3905 0.3653
-5.7540 6.5901 1.8596
-6.2063 5.9423 1.8264
-6.2737 5.0147 1.7072
-6.6994 4.4370 1.7080
-7.0728 3.8237 1.7090
-7.3894 3.1789 1.7098
-7.6467 2.5079 1.7105
-7.8424 1.8161 1.7111
-7.9748 1.1093 1.7114
-8.0428 0.3933 1.7116
-8.0459 -0.3260 1.7116
-7.9839 -1.0426 1.7114
-7.8575 -1.7505 1.7111
-7.6677 -2.4439 1.7106
-7.4162 -3.1172 1.7099
-7.1050 -3.7647 1.7091
-6.7368 -4.3812 1.7081
-6.3155 -4.9621 1.7072
-6.3020 -5.9338 1.8399
-5.8089 -6.5418 1.8596
-1.0261 -1.3874 0.3668
-0.8983 -1.4736 0.3668
-0.7633 -1.5480 0.3669
-0.6221 -1.6101 0.3669
-0.4760 -1.6593 0.3669
-0.3260 -1.6952 0.3669
-0.1735 -1.7176 0.3669
-0.0195 -1.7262 0.3669
0.1346 -1.7210 0.3669
0.2876 -1.7021 0.3669
0.4383 -1.6695 0.3669
0.5855 -1.6236 0.3669
0.7280 -1.5648 0.3668
0.8646 -1.4934 0.3668
0.9943 -1.4101 0.3667
5.2204 -6.1540 1.7153
5.8161 -5.7299 1.7354
6.3492 -5.2252 1.7478
6.8180 -4.6568 1.7550
7.2034 -4.0282 1.7543
7.5448 -3.3741 1.7567
7.8241 -2.6903 1.7586
8.0388 -1.9828 1.7599
4.6585 -0.7159 1.0018
4.6061 -0.2911 0.9810
4.9029 0.1286 1.0425
8.2192 0.9542 1.7588
8.0928 1.6821 1.7569
7.8995 2.3942 1.7545
7.6413 3.0843 1.7515
7.3208 3.7463 1.7480
6.9413 4.3745 1.7440
6.5065 4.9636 1.7395
6.0245 5.5124 1.7357
5.4838 6.0009 1.7279
1.0415 1.3671 0.3653
0.9153 1.4544 0.3653
0.7818 1.5301 0.3652
0.6421 1.5937 0.3652
0.4973 1.6445 0.3652
0.3485 1.6822 0.3652
0.1970 1.7066 0.3652
0.0439 1.7173 0.3652
-0.1095 1.7144 0.3652
-0.2620 1.6979 0.3652
-0.4125 1.6678 0.3652
-0.5597 1.6245 0.3652
-0.7025 1.5682 0.3652
-0.8398 1.4994 0.3653
-0.9703 1.4187 0.3653
-5.5637 6.7516 1.8596
-6.1440 6.2282 1.8596
-6.2225 5.2715 1.7335
-6.5688 4.6254 1.7076
-6.9596 4.0232 1.7087
-7.2946 3.3879 1.7096
-7.5711 2.7246 1.7103
-7.7867 2.0389 1.7109
-7.9395 1.3362 1.7113
-8.0281 0.6225 1.7116
-8.0520 -0.0963 1.7116
-8.0108 -0.8144 1.7115
-7.9048 -1.5257 1.7112
-7.7351 -2.2244 1.7108
-7.5031 -2.9047 1.7102
-7.2107 -3.5611 1.7094
-6.8604 -4.1880 1.7085
-6.4552 -4.7804 1.7074
-6.2421 -5.5501 1.7754
-5.9932 -6.3734 1.8596
-1.0652 -1.3575 0.3668
-0.9399 -1.4473 0.3668
-0.8071 -1.5256 0.3669
-0.6678 -1.5916 0.3669
-0.5231 -1.6450 0.3669
-0.3743 -1.6852 0.3669
-0.2224 -1.7119 0.3669
-0.0688 -1.7249 0.3669
0.0854 -1.7242 0.3669
0.2389 -1.7096 0.3669
0.3905 -1.6814 0.3669
0.5390 -1.6397 0.3669
0.6831 -1.5849 0.3668
0.8217 -1.5175 0.3668
0.9537 -1.4380 0.3668
1.0781 -1.3469 0.3667
5.6336 -5.8761 1.7303
6.1866 -5.3946 1.7447
6.6758 -4.8446 1.7533
7.0850 -4.2317 1.7541
7.4424 -3.5864 1.7560
7.7418 -2.9115 1.7581
7.9774 -2.2109 1.7596
4.8114 -0.8805 1.0397
4.5699 -0.4200 0.9755
4.7437 -0.0109 1.0083
8.2452 0.7196 1.7592
8.1405 1.4511 1.7576
7.9684 2.1690 1.7554
7.7307 2.8667 1.7525
7.4297 3.5384 1.7492
7.0687 4.1779 1.7453
6.6511 4.7801 1.7410
6.1810 5.3398 1.7362
5.6643 5.8540 1.7314
1.0801 1.3369 0.3653
0.9564 1.4278 0.3653
0.8251 1.5072 0.3652
0.6873 1.5747 0.3652
0.5440 1.6297 0.3652
0.3964 1.6716 0.3652
0.2456 1.7003 0.3652
0.0929 1.7154 0.3652
-0.0605 1.7168 0.3652
-0.2135 1.7046 0.3652
-0.3648 1.6789 0.3652
-0.5132 1.6397 0.3652
-0.6575 1.5875 0.3652
-0.7966 1.5227 0.3653
-0.9294 1.4457 0.3653
-1.0549 1.3572 0.3654
-5.9638 6.4009 1.8596
-6.2152 5.5776 1.7751
-6.4328 4.8098 1.7073
-6.8407 4.2193 1.7084
-7.1939 3.5940 1.7093
-7.4894 2.9391 1.7101
-7.7246 2.2599 1.7107
-7.8976 1.5621 1.7112
-8.0068 0.8512 1.7115
-8.0514 0.1334 1.7116
-8.0310 -0.5856 1.7116
-7.9456 -1.2997 1.7113
-7.7962 -2.0031 1.7109
-7.5838 -2.6899 1.7104
-7.3104 -3.3545 1.7097
-6.9783 -3.9913 1.7088
-6.5904 -4.5953 1.7077
-6.2184 -5.2191 1.7256
-6.1725 -6.1999 1.8596
-5.5947 -6.7259 1.8596
-0.9808 -1.4199 0.3668
-0.8502 -1.5019 0.3668
-0.7129 -1.5719 0.3669
-0.5698 -1.6294 0.3669
-0.4222 -1.6738 0.3669
-0.2712 -1.7048 0.3669
-0.1179 -1.7223 0.3669
0.0362 -1.7259 0.3669
0.1901 -1.7157 0.3669
0.3424 -1.6919 0.3669
0.4920 -1.6545 0.3669
0.6376 -1.6038 0.3669
0.7781 -1.5404 0.3668
0.9123 -1.4646 0.3668
1.0392 -1.3772 0.3667
5.4451 -6.0139 1.7244
6.0176 -5.5572 1.7411
6.5262 -5.0264 1.7509
6.9630 -4.4331 1.7545
7.3337 -3.7956 1.7552
7.6530 -3.1301 1.7575
7.9093 -2.4370 1.7592
8.1000 -1.7225 1.7602
4.6107 -0.5568 0.9872
4.6493 -0.1434 0.9887
8.2642 0.4842 1.7596
8.1813 1.2187 1.7582
8.0306 1.9416 1.7561
7.8136 2.6465 1.7535
7.5325 3.3271 1.7503
7.1903 3.9776 1.7466
6.7903 4.5922 1.7424
6.3365 5.1660 1.7378
5.8390 5.6998 1.7344
5.2693 6.1540 1.7221
0.9968 1.3999 0.3653
0.8678 1.4831 0.3653
0.7319 1.5545 0.3652
0.5902 1.6135 0.3652
0.4439 1.6597 0.3652
0.2940 1.6926 0.3652
0.1418 1.7120 0.3652
-0.0115 1.7179 0.3652
-0.1648 1.7100 0.3652
-0.3167 1.6886 0.3652
-0.4662 1.6537 0.3652
-0.6119 1.6056 0.3652
-0.7528 1.5447 0.3653
-0.8878 1.4716 0.3653
-1.0157 1.3867 0.3653
-5.7788 6.5684 1.8596
-6.2073 5.8987 1.8201
-6.2926 4.9911 1.7072
-6.7162 4.4119 1.7080
-7.0872 3.7972 1.7090
-7.4015 3.1511 1.7099
-7.6562 2.4791 1.7106
-7.8492 1.7866 1.7111
-7.9790 1.0793 1.7114
-8.0443 0.3630 1.7116
-8.0446 -0.3563 1.7116
-7.9799 -1.0726 1.7114
-7.8508 -1.7800 1.7111
-7.6584 -2.4727 1.7106
-7.4042 -3.1450 1.7099
-7.0906 -3.7913 1.7091
-6.7201 -4.4064 1.7081
-6.2968 -4.9858 1.7072
-6.3125 -5.9886 1.8495
-5.7843 -6.5636 1.8596
-1.0208 -1.3913 0.3668
-0.8927 -1.4770 0.3668
-0.7574 -1.5509 0.3669
-0.6161 -1.6124 0.3669
-0.4698 -1.6610 0.3669
-0.3197 -1.6964 0.3669
-0.1670 -1.7182 0.3669
-0.0130 -1.7262 0.3669
0.1411 -1.7205 0.3669
0.2940 -1.7010 0.3669
0.4446 -1.6679 0.3669
0.5916 -1.6214 0.3669
0.7339 -1.5620 0.3668
0.8702 -1.4901 0.3668
0.9996 -1.4063 0.3667
5.2468 -6.1381 1.7164
5.8398 -5.7102 1.7361
6.3703 -5.2025 1.7482
6.8353 -4.6310 1.7549
7.2190 -4.0013 1.7544
7.5578 -3.3459 1.7568
7.8345 -2.6609 1.7587
8.0464 -1.9526 1.7599
4.6528 -0.6971 1.0000
4.6111 -0.2740 0.9818
4.9247 0.1478 1.0473
8.2152 0.9851 1.7587
8.0860 1.7125 1.7569
7.8899 2.4238 1.7544
7.6290 3.1128 1.7514
7.3060 3.7735 1.7478
6.9241 4.4002 1.7438
6.4870 4.9875 1.7393
6.0035 5.5350 1.7357
5.4594 6.0196 1.7274
1.0364 1.3710 0.3653
0.9098 1.4578 0.3653
0.7760 1.5331 0.3652
0.6361 1.5961 0.3652
0.4911 1.6463 0.3652
0.3422 1.6835 0.3652
0.1906 1.7073 0.3652
0.0375 1.7175 0.3652
-0.1159 1.7140 0.3652
-0.2684 1.6969 0.3652
-0.4188 1.6663 0.3652
-0.5659 1.6224 0.3652
-0.7084 1.5655 0.3652
-0.8454 1.4962 0.3653
-0.9757 1.4150 0.3653
-5.5890 6.7306 1.8596
-6.1673 6.2051 1.8596
-6.2234 5.2322 1.7282
-6.5863 4.6007 1.7077
-6.9748 3.9971 1.7087
-7.3075 3.3605 1.7096
-7.5814 2.6962 1.7104
-7.7944 2.0096 1.7109
-7.9445 1.3064 1.7113
-8.0305 0.5923 1.7116
-8.0516 -0.1267 1.7116
-8.0076 -0.8445 1.7115
-7.8990 -1.5555 1.7112
-7.7266 -2.2535 1.7108
-7.4920 -2.9329 1.7101
-7.1971 -3.5881 1.7094
-6.8444 -4.2137 1.7084
-6.4370 -4.8046 1.7073
-6.2472 -5.5969 1.7829
-5.9692 -6.3959 1.8596
-1.0601 -1.3615 0.3668
-0.9344 -1.4508 0.3668
-0.8013 -1.5286 0.3669
-0.6618 -1.5941 0.3669
-0.5169 -1.6469 0.3669
-0.3679 -1.6866 0.3669
-0.2160 -1.7127 0.3669
-0.0623 -1.7252 0.3669
0.0919 -1.7238 0.3669
0.2454 -1.7087 0.3669
0.3968 -1.6799 0.3669
0.5451 -1.6377 0.3669
0.6890 -1.5824 0.3668
0.8274 -1.5144 0.3668
0.9591 -1.4343 0.3668
1.0831 -1.3429 0.3667
5.6579 -5.8572 1.7310
6.2083 -5.3726 1.7451
6.6951 -4.8203 1.7536
7.1006 -4.2049 1.7541
7.4562 -3.5586 1.7561
7.7531 -2.8825 1.7582
7.9859 -2.1809 1.7596
4.7846 -0.8570 1.0332
4.5737 -0.4030 0.9759
4.7641 0.0070 1.0126
8.2421 0.7506 1.7592
8.1346 1.4816 1.7575
7.9597 2.1988 1.7552
7.7192 2.8956 1.7524
7.4157 3.5659 1.7490
7.0522 4.2041 1.7451
6.6323 4.8045 1.7408
6.1601 5.3624 1.7360
5.6407 5.8737 1.7310
1.0751 1.3409 0.3653
0.9510 1.4313 0.3653
0.8194 1.5103 0.3652
0.6813 1.5773 0.3652
0.5378 1.6317 0.3652
0.3901 1.6731 0.3652
0.2392 1.7012 0.3652
0.0865 1.7157 0.3652
-0.0670 1.7166 0.3652
-0.2199 1.7038 0.3652
-0.3711 1.6775 0.3652
-0.5193 1.6378 0.3652
-0.6635 1.5851 0.3652
-0.8023 1.5197 0.3653
-0.9349 1.4422 0.3653
-1.0600 1.3532 0.3654
-5.9878 6.3784 1.8596
-6.2162 5.5364 1.7694
-6.4510 4.7857 1.7073
-6.8567 4.1937 1.7084
-7.2075 3.5670 1.7094
-7.5005 2.9110 1.7101
-7.7332 2.2309 1.7108
-7.9035 1.5324 1.7112
-8.0100 0.8211 1.7115
-8.0519 0.1031 1.7116
-8.0287 -0.6158 1.7116
-7.9406 -1.3296 1.7113
-7.7885 -2.0324 1.7109
-7.5735 -2.7183 1.7104
-7.2976 -3.3819 1.7096
-6.9631 -4.0175 1.7087
-6.5728 -4.6200 1.7077
-6.2203 -5.2607 1.7316
-6.1492 -6.2230 1.8596
