ply
format ascii 1.0
element vertex 1932
property float32 x
property float32 y
property float32 z
end_header
-14.5024 -19.8843 -8.1646
-14.4757 -24.1043 -9.3276
35.7833 -24.1155 -14.3150
36.0772 -19.8821 -13.6655
46.1293 -11.0784 -15.7383
30.6394 -4.5169 -10.2743
30.6219 -1.7485 -10.1752
22.5724 0.7291 -7.4922
22.4189 2.7401 -7.4927
22.4690 4.8115 -7.6229
22.4544 6.9529 -7.7980
25.0578 10.2887 -8.9862
25.0407 13.0027 -9.3603
25.0219 15.9772 -9.8487
25.0638 19.3558 -10.5055
23.9064 22.1342 -10.8081
22.3436 24.7404 -11.0592
22.4357 29.8081 -12.3767
-12.9287 28.4346 -10.3623
-12.9509 22.8267 -8.7065
-15.2003 21.9627 -8.8608
-17.4479 20.9377 -9.0416
-20.8603 20.9162 -9.7999
-28.4862 23.8676 -12.3288
-33.7916 23.5211 -13.6585
-36.4643 20.8176 -13.9294
-14.6705 6.7179 -5.3528
-14.6609 5.1875 -5.1591
-14.6518 3.7531 -5.0176
-14.6431 2.3846 -4.9217
-14.6347 1.0570 -4.8676
-14.6264 -0.2520 -4.8529
-14.6181 -1.5636 -4.8771
-14.6097 -2.8991 -4.9412
-14.6009 -4.2812 -5.0477
-14.5917 -5.7360 -5.2013
-14.5819 -7.2951 -5.4090
-14.5713 -8.9981 -5.6813
-14.6391 -10.9572 -6.0661
-14.5455 -13.0659 -6.4863
-14.5294 -15.6087 -7.0743
-14.5100 -18.6854 -7.8483
-14.5651 -22.6764 -8.9409
35.7934 -25.7234 -14.6226
35.8264 -21.1752 -13.8060
41.0025 -19.5280 -15.0662
30.6454 -5.4656 -10.3269
30.6278 -2.6764 -10.1993
23.8721 0.0517 -7.9194
22.4232 2.0573 -7.4700
22.4738 4.1087 -7.5791
22.4594 6.2196 -7.7312
19.9914 7.5130 -7.0849
25.0466 12.0622 -9.2224
25.3422 15.1269 -9.7909
25.0718 18.1833 -10.2746
23.8407 20.7753 -10.4906
23.2468 24.2314 -11.1397
22.2606 27.7920 -11.8127
-12.9443 30.9071 -11.1162
-12.9094 24.4407 -9.1696
-14.4651 22.3076 -8.8201
-16.4732 21.0249 -8.8608
-19.6469 20.9239 -9.5217
-26.4658 23.5674 -11.7564
-31.8128 23.5973 -13.1401
-35.6445 21.7985 -13.8608
-14.6740 7.2618 -5.4315
-14.6640 5.6913 -5.2182
-14.6548 4.2281 -5.0599
-14.6460 2.8404 -4.9492
-14.6375 1.5016 -4.8814
-14.6292 0.1887 -4.8536
-14.6209 -1.1197 -4.8646
-14.6126 -2.4447 -4.9150
-14.6039 -3.8083 -5.0068
-14.5949 -5.2355 -5.1439
-5.5627 -2.5765 -2.0337
-14.6549 -8.4509 -5.6121
-14.6433 -10.2871 -5.9367
-14.6302 -12.3664 -6.3551
-14.6149 -14.7816 -6.8959
-14.5967 -17.6714 -7.6037
-14.4945 -21.1379 -8.5026
-14.3561 -25.5608 -9.7255
-5.5768 -22.4242 -7.6657
35.8040 -27.4034 -14.9575
35.8366 -22.6646 -14.0667
38.1026 -19.5761 -14.2110
30.9118 -6.4794 -10.4776
30.6337 -3.6096 -10.2328
30.6163 -0.8563 -10.1607
22.4275 1.3782 -7.4542
22.4147 3.4036 -7.5212
22.4643 5.4981 -7.6724
22.4495 7.6734 -7.8705
25.0524 11.1483 -9.0967
25.1772 14.0176 -9.5596
26.3527 17.9263 -10.5733
24.9845 20.4814 -10.7175
23.7654 23.3232 -11.0464
22.2710 26.1499 -11.3949
23.7780 20.8524 -10.2760
23.1004 24.2305 -10.8775
22.2595 27.9700 -11.6147
-12.9426 30.6330 -10.8052
-12.9083 24.2540 -8.9272
-14.5643 22.3070 -8.6560
-16.6494 21.1129 -8.7364
-19.7701 20.9231 -9.3531
-26.6325 23.5664 -11.5548
-32.0205 23.5959 -12.9238
-36.4627 22.1421 -13.8608
-14.6736 7.2045 -5.3114
-14.6637 5.6382 -5.1046
-14.6545 4.1782 -4.9513
-14.6457 2.7926 -4.8444
-14.6372 1.4552 -4.7794
-14.6289 0.1428 -4.7535
-14.6206 -1.1658 -4.7656
-14.6123 -2.4918 -4.8163
-14.6036 -3.8572 -4.9077
-14.5946 -5.2871 -5.0436
-5.5732 -2.6026 -1.9986
-14.5745 -8.4655 -5.4764
-14.5630 -10.2991 -5.7955
-14.5499 -12.3770 -6.2066
-14.6144 -14.8741 -6.7753
-14.5960 -17.7839 -7.4754
-14.4936 -21.2795 -8.3655
-5.5074 -22.4456 -7.5094
35.8029 -27.2247 -14.6143
35.8355 -22.5069 -13.7497
38.4581 -19.6065 -14.0260
30.9111 -6.3781 -10.2552
30.6331 -3.5120 -10.0185
30.6157 -0.7601 -9.9507
22.4270 1.4488 -7.3022
22.4142 3.4756 -7.3699
22.4011 5.5572 -7.4992
22.4489 7.7520 -7.7167
25.0518 11.2424 -8.9219
25.2411 14.1571 -9.4032
25.0146 17.1313 -9.8511
24.8240 20.4804 -10.4565
23.7645 23.4691 -10.8523
22.2700 26.3155 -11.2013
-12.9202 26.1462 -9.4760
-13.6630 22.3707 -8.5171
-16.2338 21.9125 -8.8608
-18.6162 20.9304 -9.1015
-25.4688 23.9425 -11.3578
-30.0145 23.5450 -12.3949
-34.3953 22.3318 -13.3247
-14.6772 7.7633 -5.3949
-14.6670 6.1528 -5.1679
-14.6575 4.6609 -4.9975
-14.6486 3.2533 -4.8756
-14.6401 1.9023 -4.7968
-14.6317 0.5839 -4.7579
-14.6234 -0.7236 -4.7573
-14.6151 -2.0413 -4.7948
-14.6066 -3.3908 -4.8722
-14.5977 -4.7960 -4.9925
-5.6308 -2.4257 -1.9921
-14.5781 -7.8902 -5.3860
-14.6470 -9.7102 -5.7099
-14.5545 -11.6439 -6.0562
-14.6198 -14.0094 -6.5791
-14.6026 -16.7374 -7.2171
-14.5018 -19.9711 -8.0193
-14.5545 -24.3508 -9.2176
35.8461 -24.0489 -14.0254
36.1582 -19.8282 -13.3991
30.6390 -4.4514 -10.0597
30.6215 -1.6842 -9.9646
22.5578 0.7759 -7.3338
22.4186 2.7877 -7.3403
22.4056 4.8469 -7.4484
22.4540 7.0043 -7.6425
25.0575 10.3498 -8.8088
25.0403 13.0691 -9.1776
25.0214 16.0507 -9.6589
25.0632 19.4392 -10.3059
23.8055 22.1336 -10.5616
22.3429 24.8438 -10.8565
-12.9277 28.2751 -10.1019
-12.9808 22.7683 -8.5157
-15.5036 22.3010 -8.8250
-17.5218 20.9373 -8.8709
-20.9472 20.9156 -9.6181
-28.5279 23.8012 -12.0717
-34.0311 23.5822 -13.4527
-37.0911 21.0726 -13.8608
-14.6703 6.6807 -5.2377
-14.6606 5.1530 -5.0492
-14.6516 3.7204 -4.9117
-14.6429 2.3531 -4.8188
-14.6345 1.0262 -4.7667
-14.6262 -0.2826 -4.7532
-14.6179 -1.5945 -4.7778
-14.6095 -2.9308 -4.8415
-14.6007 -4.3143 -4.9468
-14.5915 -5.7712 -5.0984
-14.5816 -7.3331 -5.3032
-14.6509 -9.0897 -5.6021
-14.6388 -11.0048 -5.9506
-14.6250 -13.1927 -6.3997
-14.5290 -15.6739 -6.9442
-14.5891 -18.8687 -7.7497
-14.5644 -22.7801 -8.7852
36.2827 -25.9601 -14.4958
35.8257 -21.0737 -13.5050
41.2212 -19.5266 -14.8203
30.6450 -5.3994 -10.1105
30.6274 -2.6118 -9.9876
23.8747 0.1017 -7.7574
22.4229 2.1047 -7.3177
22.4100 4.1455 -7.4050
22.4590 6.2701 -7.5764
19.9463 7.5438 -6.9290
25.0462 12.1267 -9.0417
25.2835 15.1638 -9.5793
25.0713 18.2631 -10.0783
23.7989 20.8267 -10.2756
23.1492 24.2308 -10.8885
22.2599 27.9105 -11.5997
-12.9431 30.7240 -10.8325
-12.9087 24.3161 -8.9451
-14.5312 22.3072 -8.6502
-16.6497 21.1588 -8.7482
-19.7290 20.9233 -9.3440
-26.5767 23.5667 -11.5413
-31.9511 23.5964 -12.9057
-36.4209 22.1689 -13.8537
-14.6737 7.2236 -5.3142
-14.6638 5.6559 -5.1067
-14.6546 4.1948 -4.9528
-14.6458 2.8085 -4.8454
-14.6373 1.4706 -4.7799
-14.6290 0.1581 -4.7535
-14.6207 -1.1505 -4.7652
-14.6124 -2.4760 -4.8155
-14.6037 -3.8409 -4.9064
-14.5947 -5.2699 -5.0418
-5.5696 -2.5938 -1.9963
-14.5746 -8.4452 -5.4731
-14.5922 -10.2968 -5.8029
-14.5501 -12.3509 -6.2012
-14.6145 -14.8432 -6.7682
-14.5962 -17.7463 -7.4660
-14.4939 -21.2322 -8.3529
-14.3108 -25.6055 -9.5310
-5.5300 -22.4364 -7.5082
35.8033 -27.2841 -14.6261
35.8359 -22.5595 -13.7589
38.3602 -19.6072 -13.9978
30.9113 -6.4119 -10.2575
30.6333 -3.5445 -10.0198
30.6159 -0.7921 -9.9510
22.4272 1.4252 -7.3017
22.4144 3.4516 -7.3687
22.4012 5.5324 -7.4973
22.4491 7.7258 -7.7140
25.0520 11.2110 -8.9178
25.2187 14.1099 -9.3894
25.0149 17.0930 -9.8441
24.8774 20.4807 -10.4700
23.7648 23.4204 -10.8412
22.2703 26.2602 -11.1876
-12.9207 26.2161 -9.4965
-13.6562 22.4122 -8.5275
-16.2109 21.9294 -8.8608
-18.5772 20.9306 -9.0931
-25.4437 23.9691 -11.3578
-29.9504 23.5454 -12.3786
-34.3604 22.3602 -13.3202
-14.6773 7.7830 -5.3979
-14.6671 6.1709 -5.1702
-14.6576 4.6778 -4.9992
-14.6487 3.2694 -4.8768
-14.6402 1.9179 -4.7975
-14.6318 0.5992 -4.7581
-14.6235 -0.7083 -4.7570
-14.6152 -2.0258 -4.7942
-14.6067 -3.3748 -4.8710
-14.5978 -4.7791 -4.9908
-5.6391 -2.4223 -1.9942
-14.5782 -7.8706 -5.3830
-14.6471 -9.6882 -5.7060
-14.5803 -11.6395 -6.0619
-14.6200 -13.9803 -6.5727
-14.6028 -16.7023 -7.2086
-14.5021 -19.9276 -8.0079
-14.5549 -24.2936 -9.2018
35.8464 -24.1036 -14.0354
36.1193 -19.8560 -13.3923
30.6392 -4.4841 -10.0613
30.6217 -1.7164 -9.9652
22.5651 0.7525 -7.3359
22.4187 2.7639 -7.3394
22.4057 4.8224 -7.4468
22.4542 6.9785 -7.6400
25.0576 10.3193 -8.8051
25.0405 13.0359 -9.1726
25.0217 16.0139 -9.6525
25.0635 19.3974 -10.2977
23.8558 22.1339 -10.5737
22.3433 24.7920 -10.8441
-12.9282 28.3546 -10.1254
-12.9658 22.7975 -8.5216
-15.4691 22.3013 -8.8187
-17.4848 20.9375 -8.8632
-20.9037 20.9159 -9.6082
-28.5071 23.8344 -12.0734
-33.9560 23.5827 -13.4328
-37.0690 21.1114 -13.8608
-14.6704 6.6993 -5.2402
-14.6607 5.1703 -5.0511
-14.6517 3.7368 -4.9130
-14.6430 2.3689 -4.8197
-14.6346 1.0417 -4.7671
-14.6263 -0.2673 -4.7532
-14.6180 -1.5791 -4.7773
-14.6096 -2.9149 -4.8405
-14.6008 -4.2977 -4.9453
-14.5916 -5.7537 -5.0964
-14.5817 -7.3141 -5.3005
-14.6510 -9.0686 -5.5985
-14.6389 -10.9810 -5.9460
-14.6251 -13.1652 -6.3937
-14.5536 -15.6675 -6.9481
-14.5894 -18.8282 -7.7393
-14.5648 -22.7281 -8.7710
36.2556 -25.9979 -14.4958
35.8261 -21.1244 -13.5135
41.1115 -19.5273 -14.7882
30.6452 -5.4324 -10.1125
30.6276 -2.6441 -9.9885
23.8734 0.0767 -7.7570
22.4231 2.0810 -7.3170
22.4102 4.1213 -7.4036
22.4592 6.2448 -7.5743
19.9575 7.5241 -6.9301
25.0464 12.0945 -9.0372
25.3128 15.1454 -9.5844
25.0716 18.2232 -10.0708
23.8198 20.8010 -10.2752
23.1980 24.2311 -10.8995
22.2603 27.8511 -11.5846
-12.9437 30.8154 -10.8600
-12.9090 24.3783 -8.9630
-14.4981 22.3074 -8.6444
-16.6500 21.2048 -8.7600
-19.6880 20.9236 -9.3349
-26.5213 23.5671 -11.5279
-31.8819 23.5968 -12.8878
-36.3361 22.1694 -13.8303
-14.6739 7.2427 -5.3170
-14.6639 5.6736 -5.1088
-14.6547 4.2115 -4.9543
-14.6459 2.8244 -4.8464
-14.6374 1.4861 -4.7804
-14.6291 0.1734 -4.7536
-14.6208 -1.1351 -4.7649
-14.6125 -2.4603 -4.8147
-14.6038 -3.8246 -4.9051
-14.5948 -5.2526 -5.0399
-5.5661 -2.5851 -1.9941
-14.5747 -8.4250 -5.4699
-14.6249 -10.2971 -5.8116
-14.5502 -12.3249 -6.1958
-14.6147 -14.8123 -6.7611
-14.5965 -17.7088 -7.4566
-14.4942 -21.1849 -8.3403
-14.3334 -25.5832 -9.5282
-5.5527 -22.4272 -7.5071
35.8037 -27.3437 -14.6379
35.8362 -22.6121 -13.7681
38.2628 -19.6079 -13.9697
30.9115 -6.4456 -10.2598
30.6335 -3.5770 -10.0210
30.6161 -0.8242 -9.9514
22.4273 1.4016 -7.3013
22.4145 3.4276 -7.3676
22.4014 5.5075 -7.4954
22.4493 7.6996 -7.7113
25.0522 11.1797 -8.9137
25.1963 14.0629 -9.3756
25.0151 17.0548 -9.8372
24.9309 20.4811 -10.4835
23.7651 23.3716 -10.8302
22.2707 26.2049 -11.1740
-12.9211 26.2864 -9.5170
-13.6229 22.4105 -8.5213
-16.1880 21.9464 -8.8608
-18.5384 20.9309 -9.0848
-25.4186 23.9957 -11.3578
-29.8865 23.5458 -12.3624
-34.3254 22.3887 -13.3157
-14.6774 7.8028 -5.4010
-14.6672 6.1890 -5.1726
-14.6577 4.6947 -5.0009
-14.6488 3.2855 -4.8779
-14.6403 1.9335 -4.7982
-14.6319 0.6146 -4.7584
-14.6236 -0.6930 -4.7568
-14.6153 -2.0102 -4.7935
-14.6068 -3.3587 -4.8699
-14.5979 -4.7623 -4.9892
-5.6475 -2.4189 -1.9962
-14.5783 -7.8510 -5.3800
-14.6472 -9.6663 -5.7021
-14.6119 -11.6397 -6.0699
-14.6202 -13.9512 -6.5662
-14.6030 -16.6673 -7.2001
-14.5024 -19.8843 -7.9966
-14.5552 -24.2368 -9.1860
35.8468 -24.1583 -14.0455
36.0772 -19.8821 -13.3844
30.6394 -4.5169 -10.0630
30.6219 -1.7485 -9.9659
22.5724 0.7291 -7.3380
22.4189 2.7401 -7.3385
22.4059 4.7980 -7.4452
22.4544 6.9529 -7.6376
25.0578 10.2887 -8.8014
25.0407 13.0027 -9.1677
25.0219 15.9772 -9.6462
25.0638 19.3558 -10.2894
23.9064 22.1342 -10.5858
22.3436 24.7404 -10.8317
22.4357 29.8081 -12.1221
-12.9287 28.4346 -10.1492
-12.9509 22.8267 -8.5274
-15.4348 22.3015 -8.8124
-17.4478 20.9377 -8.8556
-20.8603 20.9162 -9.5983
-28.4862 23.8676 -12.0752
-33.8808 23.5832 -13.4128
-37.0469 21.1502 -13.8608
-14.6705 6.7179 -5.2427
-14.6609 5.1875 -5.0530
-14.6518 3.7531 -4.9143
-14.6431 2.3846 -4.8205
-14.6347 1.0570 -4.7675
-14.6264 -0.2520 -4.7531
-14.6181 -1.5636 -4.7768
-14.6097 -2.8991 -4.8395
-14.6009 -4.2812 -4.9439
-14.5917 -5.7360 -5.0943
-14.5819 -7.2951 -5.2978
-14.5713 -8.9981 -5.5645
-14.6391 -10.9572 -5.9414
-14.5455 -13.0659 -6.3529
-14.5843 -15.6677 -6.9549
-14.5896 -18.7880 -7.7290
-14.5651 -22.6764 -8.7569
36.2283 -26.0359 -14.4958
35.8264 -21.1752 -13.5220
41.0025 -19.5280 -14.7563
30.6454 -5.4656 -10.1144
30.6278 -2.6764 -9.9895
23.8721 0.0517 -7.7565
22.4232 2.0573 -7.3163
22.4103 4.0971 -7.4022
22.4594 6.2196 -7.5721
19.9881 7.5118 -6.9380
25.0466 12.0623 -9.0327
25.3422 15.1269 -9.5895
25.0718 18.1833 -10.0632
23.8407 20.7753 -10.2748
23.2468 24.2314 -10.9106
22.2606 27.7920 -11.5697
-12.9443 30.9071 -10.8875
-12.9094 24.4407 -8.9810
-14.4651 22.3076 -8.6386
-16.6503 21.2508 -8.7718
-19.6469 20.9239 -9.3259
-26.4658 23.5674 -11.5145
-31.8128 23.5973 -12.8698
-36.2519 22.1700 -13.8070
-14.6740 7.2618 -5.3198
-14.6640 5.6912 -5.1109
-14.6548 4.2281 -4.9558
-14.6460 2.8404 -4.8474
-14.6375 1.5016 -4.7810
-14.6292 0.1887 -4.7537
-14.6209 -1.1197 -4.7645
-14.6126 -2.4447 -4.8139
-14.6039 -3.8083 -4.9038
-14.5949 -5.2355 -5.0380
-5.5625 -2.5764 -1.9918
-14.5748 -8.4047 -5.4666
-14.6433 -10.2871 -5.8146
-14.5504 -12.2990 -6.1904
-14.6149 -14.7816 -6.7541
-14.5967 -17.6714 -7.4473
-14.4945 -21.1379 -8.3277
-14.3561 -25.5608 -9.5255
-5.5760 -22.4211 -7.5070
35.8040 -27.4034 -14.6498
35.8366 -22.6646 -13.7773
38.1660 -19.6087 -13.9418
30.9118 -6.4794 -10.2621
30.6337 -3.6096 -10.0224
30.6163 -0.8563 -9.9517
22.4275 1.3782 -7.3009
22.4147 3.4037 -7.3665
22.4016 5.4828 -7.4935
22.4495 7.6734 -7.7086
25.0524 11.1483 -8.9096
25.1772 14.0176 -9.3630
25.0153 17.0166 -9.8303
24.9845 20.4814 -10.4970
23.7654 23.3232 -10.8192
22.2710 26.1499 -11.1605
23.7780 20.8524 -10.0610
23.1004 24.2305 -10.6500
22.2595 27.9700 -11.3717
-12.9426 30.6330 -10.5792
-12.9083 24.2540 -8.7404
-14.5643 22.3070 -8.4750
-16.6494 21.1129 -8.5536
-19.7701 20.9231 -9.1575
-26.7377 23.6594 -11.3578
-32.0205 23.5959 -12.6534
-36.5334 22.1850 -13.5971
-14.6736 7.2045 -5.2003
-14.6637 5.6382 -4.9978
-14.6545 4.1782 -4.8477
-14.6457 2.7926 -4.7431
-14.7065 1.4620 -4.7015
-14.7092 0.1435 -4.6796
-14.7009 -1.1722 -4.6915
-14.6123 -2.4918 -4.7156
-14.6036 -3.8572 -4.8051
-14.5946 -5.2871 -4.9381
-5.5730 -2.6025 -1.9567
-14.5745 -8.4655 -5.3619
-14.5630 -10.2991 -5.6743
-14.6297 -12.4449 -6.1101
-14.6144 -14.8741 -6.6336
-14.5960 -17.7839 -7.3190
-14.4936 -21.2795 -8.1905
-5.5068 -22.4431 -7.3515
36.2714 -27.5809 -14.4958
35.8355 -22.5069 -13.4621
38.4581 -19.6065 -13.7326
30.9111 -6.3781 -10.0407
30.6331 -3.5121 -9.8089
30.6157 -0.7601 -9.7425
22.4270 1.4488 -7.1494
22.4142 3.4756 -7.2157
22.4011 5.5572 -7.3423
22.4489 7.7520 -7.5553
25.0518 11.2424 -8.7353
25.2410 14.1571 -9.2065
25.0146 17.1313 -9.6450
24.8240 20.4804 -10.2378
22.3215 22.0440 -9.9801
22.3324 26.3893 -10.9977
-12.9202 26.1462 -9.2778
-13.6630 22.3707 -8.3390
-16.5169 22.2946 -8.8267
-18.6162 20.9304 -8.9111
-26.0129 24.4540 -11.3578
-30.0145 23.5450 -12.1356
-34.3953 22.3318 -13.0459
-14.6772 7.7633 -5.2821
-14.6670 6.1528 -5.0598
-14.6575 4.6609 -4.8930
-14.6486 3.2533 -4.7736
-14.6558 1.9043 -4.7015
-14.7120 0.5871 -4.6840
-14.7037 -0.7276 -4.6833
-14.6369 -2.0444 -4.7015
-14.6066 -3.3908 -4.7702
-14.5977 -4.7960 -4.8881
-5.6306 -2.4256 -1.9504
-14.5781 -7.8902 -5.2733
-14.6470 -9.7102 -5.5905
-14.5545 -11.6439 -5.9295
-14.6198 -14.0094 -6.4415
-14.5631 -16.6921 -7.0471
-14.5018 -19.9711 -7.8516
-14.5545 -24.3508 -9.0248
35.8461 -24.0489 -13.7320
36.0962 -19.7942 -13.0963
30.6390 -4.4514 -9.8493
30.6215 -1.6842 -9.7561
22.5578 0.7759 -7.1804
22.4186 2.7877 -7.1868
22.4056 4.8469 -7.2926
22.3921 6.9849 -7.4620
25.0575 10.3498 -8.6246
25.0403 13.0691 -8.9856
25.0214 16.0507 -9.4568
25.0632 19.4392 -10.0903
22.8922 21.2844 -9.9440
22.3429 24.8438 -10.6294
-12.9277 28.2751 -9.8905
-12.9808 22.7683 -8.3376
-15.5036 22.3010 -8.6404
-17.5218 20.9373 -8.6853
-20.9472 20.9156 -9.4169
-28.5279 23.8012 -11.8192
-34.0311 23.5822 -13.1713
-37.8067 21.4791 -13.8327
-14.6703 6.6807 -5.1281
-14.6606 5.1530 -4.9436
-14.6516 3.7204 -4.8089
-14.6429 2.3531 -4.7180
-14.7148 1.0318 -4.6926
-14.7065 -0.2842 -4.6793
-14.6918 -1.6026 -4.7015
-14.6095 -2.9308 -4.7402
-14.6007 -4.3143 -4.8434
-14.5915 -5.7712 -4.9918
-14.5816 -7.3331 -5.1923
-14.5710 -9.0401 -5.4550
-14.6388 -11.0048 -5.8261
-14.5452 -13.1207 -6.2316
-14.5290 -15.6739 -6.7989
-14.5891 -18.8687 -7.5876
-14.4848 -22.6556 -8.5544
37.0579 -26.5147 -14.4958
35.8257 -21.0737 -13.2225
41.2212 -19.5266 -14.5103
30.6450 -5.3994 -9.8990
30.6274 -2.6119 -9.7786
23.8747 0.1017 -7.5952
22.4229 2.1047 -7.1646
22.4100 4.1455 -7.2501
22.3967 6.2527 -7.3974
19.9441 7.5429 -6.7833
25.0837 12.1448 -8.8658
25.2835 15.1638 -9.3789
25.0078 18.2169 -9.8425
23.7989 20.8267 -10.0606
23.1492 24.2308 -10.6607
22.2599 27.9105 -11.3570
-12.9431 30.7240 -10.6059
-12.9087 24.3160 -8.7579
-14.5558 22.3450 -8.4836
-16.6497 21.1588 -8.5652
-19.7290 20.9233 -9.1485
-26.7129 23.6874 -11.3578
-31.9511 23.5964 -12.6358
-36.5101 22.2232 -13.5971
-14.6737 7.2236 -5.2030
-14.6638 5.6559 -4.9999
-14.6546 4.1948 -4.8492
-14.6458 2.8085 -4.7441
-14.7050 1.4774 -4.7015
-14.7093 0.1589 -4.6796
-14.7010 -1.1568 -4.6912
-14.6124 -2.4760 -4.7148
-14.6037 -3.8409 -4.8038
-14.5947 -5.2699 -4.9363
-5.5694 -2.5937 -1.9545
-14.5746 -8.4453 -5.3587
-14.5922 -10.2968 -5.6815
-14.6299 -12.4187 -6.1048
-14.6145 -14.8432 -6.6266
-14.5962 -17.7463 -7.3098
-14.4939 -21.2322 -8.1782
-14.3108 -25.6055 -9.3316
-5.5294 -22.4339 -7.3503
36.2425 -27.6188 -14.4958
35.8359 -22.5595 -13.4711
38.3602 -19.6072 -13.7049
30.9113 -6.4119 -10.0429
30.6333 -3.5446 -9.8102
30.6159 -0.7922 -9.7429
22.4272 1.4252 -7.1490
22.4144 3.4516 -7.2146
22.4012 5.5324 -7.3405
22.4491 7.7258 -7.5526
25.0520 11.2110 -8.7312
25.2187 14.1099 -9.1930
25.0149 17.0930 -9.6382
24.8774 20.4807 -10.2510
22.3325 22.0088 -9.9747
22.3328 26.3338 -10.9843
-12.9207 26.2160 -9.2978
-13.6562 22.4122 -8.3490
-16.4810 22.2949 -8.8200
-18.5772 20.9306 -8.9029
-25.9873 24.4812 -11.3578
-29.9504 23.5454 -12.1197
-34.3604 22.3602 -13.0415
-14.6773 7.7831 -5.2850
-14.6671 6.1709 -5.0621
-14.6576 4.6778 -4.8946
-14.6487 3.2694 -4.7747
-14.6538 1.9197 -4.7015
-14.7121 0.6025 -4.6842
-14.7038 -0.7122 -4.6831
-14.6390 -2.0291 -4.7015
-14.6067 -3.3748 -4.7691
-14.5978 -4.7791 -4.8864
-5.6389 -2.4222 -1.9524
-14.5782 -7.8706 -5.2704
-14.6471 -9.6882 -5.5867
-14.5803 -11.6395 -5.9351
-14.6200 -13.9803 -6.4352
-14.5806 -16.6769 -7.0471
-14.5021 -19.9276 -7.8404
-14.5549 -24.2936 -9.0093
35.8464 -24.1036 -13.7418
36.0568 -19.8216 -13.0895
30.6392 -4.4842 -9.8509
30.6217 -1.7164 -9.7568
22.5651 0.7525 -7.1825
22.4187 2.7639 -7.1859
22.4057 4.8224 -7.2910
22.3922 6.9593 -7.4596
25.0576 10.3193 -8.6209
25.0405 13.0359 -8.9808
25.0217 16.0139 -9.4506
25.0635 19.3974 -10.0822
22.9228 21.2682 -9.9476
22.3433 24.7920 -10.6172
-12.9282 28.3546 -9.9136
-12.9658 22.7975 -8.3433
-15.4691 22.3013 -8.6342
-17.4848 20.9375 -8.6778
-20.9037 20.9159 -9.4072
-28.5071 23.8344 -11.8209
-33.9560 23.5827 -13.1518
-37.8070 21.5316 -13.8410
-14.6704 6.6993 -5.1306
-14.6607 5.1703 -4.9454
-14.6517 3.7368 -4.8102
-14.6430 2.3689 -4.7188
-14.7149 1.0474 -4.6930
-14.7066 -0.2688 -4.6793
-14.6935 -1.5872 -4.7015
-14.6096 -2.9149 -4.7392
-14.6008 -4.2977 -4.8419
-14.5916 -5.7537 -4.9898
-14.5817 -7.3141 -5.1896
-14.5711 -9.0191 -5.4515
-14.6389 -10.9810 -5.8216
-14.5454 -13.0933 -6.2258
-14.5536 -15.6675 -6.8028
-14.5894 -18.8282 -7.5774
-14.4852 -22.6038 -8.5406
37.0302 -26.5534 -14.4958
35.8261 -21.1244 -13.2308
41.1115 -19.5273 -14.4788
30.6452 -5.4324 -9.9009
30.6276 -2.6441 -9.7796
23.8734 0.0767 -7.5947
22.4231 2.0810 -7.1639
22.4102 4.1213 -7.2487
22.3969 6.2275 -7.3952
19.9543 7.5229 -6.7840
25.0963 12.1186 -8.8658
25.3128 15.1454 -9.3839
25.0080 18.1770 -9.8351
23.8198 20.8010 -10.0603
23.1980 24.2311 -10.6715
22.2603 27.8511 -11.3423
-12.9437 30.8154 -10.6328
-12.9090 24.3783 -8.7755
-14.5562 22.3968 -8.4975
-16.6500 21.2048 -8.5767
-19.6880 20.9236 -9.1397
-26.6882 23.7153 -11.3578
-31.8819 23.5968 -12.6182
-36.4868 22.2614 -13.5971
-14.6739 7.2427 -5.2057
-14.6639 5.6736 -5.0019
-14.6547 4.2115 -4.8507
-14.6459 2.8244 -4.7450
-14.7034 1.4928 -4.7015
-14.7094 0.1743 -4.6797
-14.7011 -1.1413 -4.6908
-14.6125 -2.4603 -4.7140
-14.6038 -3.8246 -4.8025
-14.5948 -5.2526 -4.9345
-5.5659 -2.5850 -1.9523
-14.5747 -8.4250 -5.3555
-14.6249 -10.2971 -5.6900
-14.6300 -12.3925 -6.0994
-14.6147 -14.8123 -6.6197
-14.5965 -17.7087 -7.3006
-14.4942 -21.1849 -8.1658
-14.3334 -25.5832 -9.3289
-5.5521 -22.4247 -7.3492
36.2136 -27.6567 -14.4958
35.8362 -22.6121 -13.4801
38.2628 -19.6079 -13.6775
30.9115 -6.4456 -10.0452
30.6335 -3.5771 -9.8114
30.6161 -0.8242 -9.7432
22.4273 1.4016 -7.1486
22.4145 3.4276 -7.2135
22.4014 5.5075 -7.3386
22.4493 7.6996 -7.5500
25.0522 11.1797 -8.7272
25.1963 14.0629 -9.1795
25.0151 17.0548 -9.6314
24.9309 20.4811 -10.2642
22.3435 21.9735 -9.9693
22.3331 26.2784 -10.9710
-12.9211 26.2864 -9.3180
-13.6230 22.4105 -8.3431
-16.4452 22.2951 -8.8133
-18.5384 20.9309 -8.8948
-25.9617 24.5084 -11.3578
-29.8866 23.5458 -12.1038
-34.3254 22.3887 -13.0372
-14.6774 7.8028 -5.2880
-14.6672 6.1890 -5.0643
-14.6577 4.6947 -4.8963
-14.6488 3.2855 -4.7759
-14.6518 1.9350 -4.7015
-14.7122 0.6179 -4.6844
-14.7039 -0.6968 -4.6829
-14.6412 -2.0137 -4.7015
-14.6068 -3.3587 -4.7680
-14.5979 -4.7623 -4.8848
-5.6473 -2.4188 -1.9544
-14.5783 -7.8510 -5.2675
-14.6472 -9.6663 -5.5828
-14.6119 -11.6397 -5.9429
-14.6202 -13.9512 -6.4288
-14.5980 -16.6616 -7.0471
-14.5024 -19.8843 -7.8293
-14.5552 -24.2368 -8.9938
35.8468 -24.1583 -13.7517
36.0173 -19.8491 -13.0827
30.6394 -4.5169 -9.8524
30.6219 -1.7486 -9.7574
22.5724 0.7291 -7.1845
22.4189 2.7401 -7.1850
22.4059 4.7980 -7.2894
22.3924 6.9337 -7.4572
25.0578 10.2887 -8.6173
25.0407 13.0027 -8.9759
25.0219 15.9772 -9.4444
25.0638 19.3558 -10.0742
22.9536 21.2520 -9.9513
22.3436 24.7404 -10.6051
22.4357 29.8081 -11.8685
-12.9287 28.4346 -9.9368
-12.9509 22.8266 -8.3490
-15.4348 22.3015 -8.6280
-17.4478 20.9377 -8.6703
-20.8603 20.9162 -9.3975
-28.4862 23.8676 -11.8226
-33.8808 23.5832 -13.1323
-37.8073 21.5843 -13.8494
-14.6705 6.7179 -5.1331
-14.6609 5.1875 -4.9473
-14.6518 3.7531 -4.8115
-14.6431 2.3846 -4.7197
-14.7150 1.0628 -4.6934
-14.7067 -0.2534 -4.6792
-14.6952 -1.5718 -4.7015
-14.6097 -2.8991 -4.7383
-14.6009 -4.2812 -4.8404
-14.5917 -5.7360 -4.9877
-14.5819 -7.2951 -5.1870
-14.5713 -8.9981 -5.4481
-14.6391 -10.9572 -5.8171
-14.5455 -13.0659 -6.2200
-14.5843 -15.6677 -6.8095
-14.5896 -18.7880 -7.5674
-14.4855 -22.5525 -8.5269
37.0024 -26.5922 -14.4958
35.8264 -21.1752 -13.2391
41.0024 -19.5280 -14.4476
30.6454 -5.4656 -9.9028
30.6278 -2.6765 -9.7805
23.8721 0.0517 -7.5943
22.4232 2.0573 -7.1633
22.4103 4.0971 -7.2474
22.3970 6.2023 -7.3932
19.9848 7.5106 -6.7918
25.1090 12.0923 -8.8658
25.3422 15.1269 -9.3889
25.0083 18.1372 -9.8277
23.8407 20.7753 -10.0599
23.2468 24.2314 -10.6824
22.2606 27.7920 -11.3277
-12.9443 30.9071 -10.6598
-12.9094 24.4407 -8.7931
-14.5565 22.4485 -8.5114
-16.6503 21.2509 -8.5883
-19.6469 20.9239 -9.1308
-26.6633 23.7433 -11.3578
-31.8128 23.5973 -12.6006
-36.4550 22.2942 -13.5939
-14.6740 7.2618 -5.2085
-14.6640 5.6912 -5.0040
-14.6548 4.2281 -4.8522
-14.6460 2.8404 -4.7460
-14.7018 1.5082 -4.7015
-14.7095 0.1897 -4.6798
-14.7012 -1.1259 -4.6905
-14.6126 -2.4447 -4.7132
-14.6039 -3.8083 -4.8012
-14.5949 -5.2355 -4.9327
-5.5623 -2.5763 -1.9501
-14.5748 -8.4047 -5.3523
-14.6433 -10.2871 -5.6930
-14.6302 -12.3664 -6.0941
-14.6149 -14.7816 -6.6128
-14.5967 -17.6714 -7.2915
-14.4945 -21.1379 -8.1535
-14.3561 -25.5608 -9.3262
-5.5753 -22.4180 -7.3489
36.1846 -27.6947 -14.4958
35.8366 -22.6646 -13.4891
38.1660 -19.6087 -13.6502
30.9118 -6.4794 -10.0474
30.6337 -3.6096 -9.8127
30.6163 -0.8563 -9.7435
22.4275 1.3782 -7.1482
22.4147 3.4037 -7.2124
22.4016 5.4828 -7.3368
22.4495 7.6734 -7.5474
25.0524 11.1483 -8.7232
25.1772 14.0176 -9.1671
25.0153 17.0166 -9.6246
24.9845 20.4814 -10.2774
22.3545 21.9385 -9.9640
22.3335 26.2233 -10.9577
23.7780 20.8524 -9.8469
23.1004 24.2305 -10.4233
22.2595 27.9700 -11.1297
-12.9426 30.6330 -10.3540
-12.9083 24.2540 -8.5544
-14.5643 22.3070 -8.2946
-16.6494 21.1129 -8.3716
-19.7701 20.9231 -8.9626
-27.3191 24.1739 -11.3578
-31.9349 23.5328 -12.3511
-36.7105 22.2926 -13.3723
-14.6736 7.2045 -5.0896
-14.6637 5.6382 -4.8914
-14.6545 4.1782 -4.7445
-14.7260 2.8080 -4.6676
-14.7175 1.4631 -4.6049
-14.7092 0.1435 -4.5800
-14.7009 -1.1722 -4.5917
-14.6925 -2.5054 -4.6406
-14.6036 -3.8572 -4.7028
-14.5946 -5.2871 -4.8330
-5.5728 -2.6024 -1.9150
-14.5745 -8.4655 -5.2477
-14.5630 -10.2991 -5.5536
-14.6297 -12.4449 -5.9801
-14.6144 -14.8741 -6.4924
-14.5960 -17.7839 -7.1632
-14.4936 -21.2795 -8.0162
-5.5062 -22.4406 -7.1942
37.0601 -28.1806 -14.4958
35.7729 -22.4683 -13.1525
38.4581 -19.6065 -13.4403
30.9111 -6.3781 -9.8270
30.6331 -3.5121 -9.6002
30.6157 -0.7601 -9.5352
22.4270 1.4488 -6.9973
22.4142 3.4756 -7.0621
22.4011 5.5572 -7.1860
22.3874 7.7307 -7.3742
25.1155 11.2710 -8.5711
25.2411 14.1572 -9.0106
25.0146 17.1313 -9.4397
24.8240 20.4804 -10.0199
22.3215 22.0440 -9.7677
22.3324 26.3893 -10.7636
-12.9202 26.1462 -9.0804
-13.6630 22.3707 -8.1615
-16.5169 22.2946 -8.6389
-18.6162 20.9304 -8.7214
-26.5067 24.9182 -11.3271
-30.0145 23.5450 -11.8773
-34.3953 22.3318 -12.7683
-14.6772 7.7633 -5.1697
-14.6670 6.1528 -4.9521
-14.6575 4.6609 -4.7888
-14.7290 3.2712 -4.6976
-14.7204 1.9127 -4.6218
-14.7120 0.5871 -4.5843
-14.7037 -0.7276 -4.5836
-14.6953 -2.0525 -4.6199
-14.6868 -3.4095 -4.6944
-14.5977 -4.7960 -4.7840
-5.6304 -2.4255 -1.9088
-14.5781 -7.8902 -5.1611
-14.5671 -9.6572 -5.4417
-14.5545 -11.6439 -5.8033
-14.6198 -14.0094 -6.3044
-14.6026 -16.7374 -6.9158
-14.5815 -20.0807 -7.7267
-14.5545 -24.3508 -8.8328
35.8461 -24.0489 -13.4398
36.0962 -19.7942 -12.8176
45.9040 -10.9228 -14.6914
30.6390 -4.4514 -9.6397
30.6215 -1.6843 -9.5485
22.5578 0.7759 -7.0276
22.4186 2.7877 -7.0338
22.4056 4.8469 -7.1374
22.3921 6.9849 -7.3032
25.1207 10.3760 -8.4623
25.2437 13.1752 -8.8658
25.0214 16.0507 -9.2556
25.0003 19.3905 -9.8508
22.8922 21.2844 -9.7323
22.3429 24.8438 -10.4032
-12.9277 28.2751 -9.6800
-12.9808 22.7683 -8.1601
-15.5904 22.4260 -8.5039
-17.5746 21.0004 -8.5261
-20.9472 20.9156 -9.2165
-28.5279 23.8012 -11.5677
-34.0311 23.5822 -12.8910
-37.8067 21.4791 -13.5383
-14.6703 6.6807 -5.0190
-14.6606 5.1530 -4.8384
-14.6516 3.7204 -4.7066
-14.7232 2.3660 -4.6429
-14.7148 1.0319 -4.5928
-14.7065 -0.2842 -4.5798
-14.6982 -1.6033 -4.6035
-14.6897 -2.9469 -4.6648
-14.6007 -4.3143 -4.7403
-14.5915 -5.7712 -4.8855
-14.5816 -7.3331 -5.0818
-14.5710 -9.0401 -5.3389
-14.6388 -11.0048 -5.7021
-14.6250 -13.1927 -6.1324
-14.5290 -15.6739 -6.6542
-14.5891 -18.8687 -7.4261
-14.4848 -22.6556 -8.3724
37.1750 -26.5985 -14.2321
35.7638 -21.0373 -12.9188
41.2487 -19.5397 -14.2110
30.6450 -5.3994 -9.6884
30.6274 -2.6119 -9.5705
23.8747 0.1017 -7.4335
22.4229 2.1047 -7.0121
22.4100 4.1455 -7.0958
22.3967 6.2527 -7.2399
19.9154 7.5321 -6.6294
25.6291 12.4089 -8.8658
25.2835 15.1638 -9.1793
25.0078 18.2169 -9.6330
23.7989 20.8267 -9.8465
23.1492 24.2308 -10.4339
22.2599 27.9105 -11.1153
-12.9431 30.7239 -10.3802
-12.9087 24.3160 -8.5715
-14.5558 22.3450 -8.3031
-16.6497 21.1588 -8.3829
-19.7290 20.9233 -8.9538
-27.2937 24.2025 -11.3578
-31.8657 23.5333 -12.3338
-36.6250 22.2931 -13.3496
-14.6737 7.2236 -5.0923
-14.6638 5.6559 -4.8935
-14.6546 4.1948 -4.7460
-14.7261 2.8239 -4.6686
-14.7176 1.4787 -4.6054
-14.7093 0.1589 -4.5800
-14.7010 -1.1568 -4.5913
-14.6926 -2.4896 -4.6398
-14.6037 -3.8409 -4.7015
-14.5947 -5.2699 -4.8312
-5.5692 -2.5936 -1.9128
-14.5746 -8.4452 -5.2446
-14.5922 -10.2968 -5.5606
-14.6299 -12.4187 -5.9749
-14.6145 -14.8432 -6.4856
-14.5962 -17.7463 -7.1542
-14.4939 -21.2322 -8.0041
-14.3108 -25.6055 -9.1330
-5.5288 -22.4314 -7.1931
37.0306 -28.2194 -14.4958
35.8359 -22.5595 -13.1844
38.3602 -19.6072 -13.4133
30.9113 -6.4119 -9.8292
30.6333 -3.5445 -9.6014
30.6159 -0.7921 -9.5355
22.4272 1.4252 -6.9968
22.4144 3.4516 -7.0610
22.4012 5.5324 -7.1842
22.3875 7.7046 -7.3716
25.1157 11.2395 -8.5671
25.2187 14.1099 -8.9973
25.0149 17.0930 -9.4331
24.8774 20.4807 -10.0328
22.3325 22.0088 -9.7624
22.3328 26.3338 -10.7506
-12.9207 26.2160 -9.0999
-13.6562 22.4122 -8.1715
-16.4810 22.2949 -8.6323
-18.5772 20.9306 -8.7134
-26.4515 24.9185 -11.3146
-29.9504 23.5454 -11.8617
-34.3604 22.3602 -12.7640
-14.6773 7.7830 -5.1726
-14.6671 6.1709 -4.9543
-14.6576 4.6778 -4.7905
-14.7291 3.2874 -4.6988
-14.7205 1.9284 -4.6224
-14.7121 0.6025 -4.5845
-14.7038 -0.7122 -4.5834
-14.6954 -2.0369 -4.6192
-14.6869 -3.3933 -4.6933
-14.5978 -4.7791 -4.7824
-5.6387 -2.4221 -1.9108
-14.5782 -7.8706 -5.1582
-14.5672 -9.6354 -5.4379
-14.5803 -11.6395 -5.8087
-14.6200 -13.9803 -6.2982
-14.6028 -16.7023 -6.9076
-14.5817 -20.0370 -7.7157
-14.5549 -24.2936 -8.8175
35.8464 -24.1036 -13.4494
36.0568 -19.8216 -12.8109
45.9044 -10.9736 -14.6951
30.6392 -4.4842 -9.6412
30.6217 -1.7164 -9.5491
22.5651 0.7525 -7.0296
22.4187 2.7639 -7.0330
22.4057 4.8224 -7.1358
22.3922 6.9593 -7.3008
25.1209 10.3453 -8.4587
25.2575 13.1488 -8.8658
25.0217 16.0139 -9.2495
25.0006 19.3487 -9.8429
22.9228 21.2682 -9.7359
22.3433 24.7920 -10.3913
-12.9282 28.3546 -9.7026
-12.9658 22.7975 -8.1657
-15.5558 22.4262 -8.4978
-17.5376 21.0007 -8.5188
-20.9037 20.9159 -9.2070
-28.5071 23.8344 -11.5693
-33.9559 23.5827 -12.8719
-37.8070 21.5316 -13.5465
-14.6704 6.6993 -5.0214
-14.6607 5.1703 -4.8402
-14.6517 3.7368 -4.7079
-14.7233 2.3819 -4.6437
-14.7149 1.0474 -4.5931
-14.7066 -0.2688 -4.5797
-14.6983 -1.5877 -4.6030
-14.6898 -2.9309 -4.6639
-14.6008 -4.2977 -4.7388
-14.5916 -5.7537 -4.8836
-14.5817 -7.3141 -5.0792
-14.5711 -9.0191 -5.3355
-14.6389 -10.9810 -5.6977
-14.6251 -13.1652 -6.1267
-14.5536 -15.6675 -6.6580
-14.5894 -18.8282 -7.4162
-14.4852 -22.6038 -8.3589
37.1502 -26.6395 -14.2333
35.7641 -21.0878 -12.9268
41.2285 -19.5828 -14.2110
30.6452 -5.4324 -9.6902
30.6276 -2.6441 -9.5714
23.8734 0.0767 -7.4331
22.4231 2.0810 -7.0115
22.4102 4.1213 -7.0945
22.3969 6.2275 -7.2379
19.9250 7.5118 -6.6299
25.6420 12.3821 -8.8658
25.3128 15.1454 -9.1842
25.0080 18.1770 -9.6258
23.8198 20.8011 -9.8462
23.1980 24.2311 -10.4444
22.2603 27.8511 -11.1009
-12.9437 30.8154 -10.4065
-12.9090 24.3783 -8.5887
-14.5562 22.3968 -8.3167
-16.6500 21.2048 -8.3942
-19.6880 20.9236 -8.9452
-27.2685 24.2310 -11.3578
-31.7966 23.5337 -12.3166
-36.5398 22.2937 -13.3271
-14.6739 7.2427 -5.0950
-14.6639 5.6736 -4.8955
-14.6547 4.2115 -4.7474
-14.7262 2.8399 -4.6695
-14.7177 1.4942 -4.6060
-14.7094 0.1743 -4.5801
-14.7011 -1.1413 -4.5910
-14.6927 -2.4738 -4.6390
-14.6077 -3.8256 -4.7015
-14.5948 -5.2526 -4.8295
-5.5657 -2.5849 -1.9107
-14.5747 -8.4250 -5.2415
-14.6249 -10.2971 -5.5689
-14.6300 -12.3925 -5.9696
-14.6147 -14.8123 -6.4788
-14.5168 -17.6120 -7.1062
-14.4942 -21.1849 -7.9920
-14.3334 -25.5832 -9.1304
-5.5514 -22.4222 -7.1920
37.0010 -28.2581 -14.4958
35.8362 -22.6121 -13.1932
38.2628 -19.6079 -13.3864
30.9115 -6.4456 -9.8314
30.6335 -3.5770 -9.6026
30.6161 -0.8242 -9.5359
22.4273 1.4016 -6.9964
22.4145 3.4276 -7.0600
22.4014 5.5075 -7.1824
22.3877 7.6785 -7.3691
25.1159 11.2081 -8.5632
25.1963 14.0629 -8.9841
25.0151 17.0548 -9.4264
24.9309 20.4811 -10.0458
22.3435 21.9735 -9.7571
22.3331 26.2784 -10.7375
-12.9211 26.2864 -9.1196
-13.6230 22.4105 -8.1656
-16.4452 22.2951 -8.6257
-18.5384 20.9309 -8.7055
-26.3965 24.9189 -11.3022
-29.8865 23.5458 -11.8462
-34.3254 22.3887 -12.7597
-14.6774 7.8028 -5.1755
-14.6672 6.1890 -4.9566
-14.6577 4.6947 -4.7921
-14.7292 3.3035 -4.6999
-14.7206 1.9441 -4.6231
-14.7122 0.6179 -4.5847
-14.7039 -0.6968 -4.5832
-14.6955 -2.0212 -4.6186
-14.6870 -3.3771 -4.6922
-14.5979 -4.7623 -4.7808
-5.6471 -2.4187 -1.9127
-14.5783 -7.8510 -5.1554
-14.5674 -9.6136 -5.4342
-14.6119 -11.6397 -5.8165
-14.6202 -13.9512 -6.2920
-14.6030 -16.6673 -6.8994
-14.5820 -19.9935 -7.7048
-14.5552 -24.2368 -8.8024
35.8468 -24.1583 -13.4590
36.0173 -19.8491 -12.8043
45.9047 -11.0245 -14.6989
30.6394 -4.5169 -9.6428
30.6219 -1.7485 -9.5497
22.5724 0.7291 -7.0316
22.4189 2.7401 -7.0321
22.4059 4.7980 -7.1343
22.3924 6.9337 -7.2985
25.1211 10.3147 -8.4552
25.2712 13.1224 -8.8658
25.0219 15.9772 -9.2434
25.0009 19.3072 -9.8350
22.9536 21.2520 -9.7395
22.3436 24.7404 -10.3794
22.4357 29.8081 -11.6159
-12.9287 28.4346 -9.7254
-12.9509 22.8266 -8.1713
-15.5213 22.4265 -8.4917
-17.5005 21.0010 -8.5114
-20.8603 20.9162 -9.1975
-28.4862 23.8676 -11.5710
-33.8808 23.5832 -12.8528
-37.8073 21.5843 -13.5547
-14.6705 6.7179 -5.0238
-14.6609 5.1875 -4.8420
-14.6518 3.7531 -4.7091
-14.7234 2.3977 -4.6446
-14.7150 1.0628 -4.5935
-14.7067 -0.2534 -4.5796
-14.6984 -1.5722 -4.6025
-14.6899 -2.9150 -4.6629
-14.6009 -4.2812 -4.7374
-14.5917 -5.7360 -4.8816
-14.5819 -7.2951 -5.0766
-14.5713 -8.9981 -5.3321
-14.6391 -10.9572 -5.6933
-14.5455 -13.0659 -6.0876
-14.5843 -15.6677 -6.6645
-14.5896 -18.7880 -7.4063
-14.4855 -22.5525 -8.3454
37.1506 -26.6988 -14.2441
35.7645 -21.1386 -12.9350
41.1254 -19.5866 -14.1826
30.6454 -5.4656 -9.6921
30.6278 -2.6765 -9.5724
23.8721 0.0517 -7.4327
22.4232 2.0573 -7.0108
22.4103 4.0971 -7.0932
22.3970 6.2023 -7.2358
19.9501 7.4975 -6.6357
25.6550 12.3552 -8.8658
25.3422 15.1269 -9.1891
25.0083 18.1372 -9.6186
23.8407 20.7753 -9.8458
23.2468 24.2314 -10.4550
22.2606 27.7920 -11.0866
-12.9443 30.9071 -10.4329
-12.9094 24.4407 -8.6060
-14.5565 22.4485 -8.3302
-16.6503 21.2509 -8.4055
-19.6469 20.9239 -8.9365
-27.2431 24.2595 -11.3578
-31.7276 23.5341 -12.2994
-36.4550 22.2942 -13.3046
-14.6740 7.2618 -5.0976
-14.6640 5.6912 -4.8975
-14.6548 4.2281 -4.7489
-14.7263 2.8559 -4.6705
-14.7178 1.5098 -4.6065
-14.7095 0.1897 -4.5802
-14.7012 -1.1259 -4.5907
-14.6928 -2.4581 -4.6382
-14.6117 -3.8103 -4.7015
-14.5949 -5.2355 -4.8277
-5.5621 -2.5762 -1.9085
-14.5748 -8.4047 -5.2384
-14.6433 -10.2871 -5.5718
-14.6302 -12.3664 -5.9644
-14.6149 -14.7816 -6.4720
-14.5170 -17.5749 -7.0974
-14.4945 -21.1379 -7.9800
-14.3561 -25.5608 -9.1278
-5.5745 -22.4150 -7.1915
36.9714 -28.2969 -14.4958
35.8366 -22.6646 -13.2020
38.1660 -19.6087 -13.3597
30.9118 -6.4794 -9.8336
30.6337 -3.6096 -9.6039
30.6163 -0.8563 -9.5362
22.4275 1.3782 -6.9960
22.4147 3.4037 -7.0589
22.4016 5.4827 -7.1806
22.3879 7.6524 -7.3665
25.1161 11.1766 -8.5593
25.1772 14.0176 -8.9720
25.0153 17.0166 -9.4198
24.9845 20.4814 -10.0587
22.3544 21.9385 -9.7519
22.3335 26.2233 -10.7245
23.7780 20.8524 -9.6336
22.2885 23.3789 -9.8391
22.3211 28.0473 -10.9187
-12.9426 30.6330 -10.1297
-12.9083 24.2540 -8.3691
-14.5643 22.3070 -8.1149
-16.6494 21.1129 -8.1903
-19.7701 20.9231 -8.7684
-28.2585 25.0051 -11.4938
-31.9349 23.5328 -12.0835
-34.9607 21.2300 -12.4590
-14.6736 7.2045 -4.9794
-14.6637 5.6382 -4.7855
-14.7348 4.2012 -4.6672
-14.7260 2.8080 -4.5665
-14.7175 1.4631 -4.5052
-14.7092 0.1435 -4.4808
-14.7009 -1.1722 -4.4922
-14.6925 -2.5054 -4.5401
-14.6838 -3.8784 -4.6262
-14.5946 -5.2871 -4.7283
-5.5726 -2.6023 -1.8734
-14.5745 -8.4655 -5.1341
-14.5630 -10.2991 -5.4333
-14.6297 -12.4449 -5.8506
-14.6144 -14.8741 -6.3518
-14.5960 -17.7839 -7.0081
-14.4936 -21.2795 -7.8426
-5.5070 -22.4437 -7.0393
37.1912 -28.2803 -14.2320
35.7729 -22.4676 -12.8676
38.3372 -19.5448 -13.1078
31.3120 -6.4608 -9.7388
30.6331 -3.5120 -9.3922
30.6157 -0.7601 -9.3287
22.4270 1.4488 -6.8457
22.4142 3.4756 -6.9092
22.4011 5.5572 -7.0304
22.3874 7.7307 -7.2145
25.1155 11.2709 -8.3854
25.3853 14.2380 -8.8658
25.0146 17.1313 -9.2353
24.8240 20.4804 -9.8029
22.3215 22.0440 -9.5561
22.3324 26.3893 -10.5305
-12.9202 26.1462 -8.8837
-13.6630 22.3707 -7.9847
-16.6095 22.4196 -8.4991
-18.6719 20.9930 -8.5580
-26.5364 24.9461 -11.0941
-30.0145 23.5450 -11.6200
-34.3953 22.3318 -12.4917
-14.6772 7.7633 -5.0577
-14.6670 6.1528 -4.8449
-14.7089 4.6772 -4.7015
-14.7290 3.2712 -4.5959
-14.7204 1.9127 -4.5216
-14.7120 0.5871 -4.4850
-14.7037 -0.7276 -4.4844
-14.6953 -2.0525 -4.5198
-14.6868 -3.4095 -4.5927
-14.6635 -4.8176 -4.7015
-5.6302 -2.4254 -1.8674
-14.5781 -7.8902 -5.0493
-14.5671 -9.6572 -5.3238
-14.5545 -11.6439 -5.6776
-14.6198 -14.0094 -6.1679
-14.6026 -16.7374 -6.7660
-14.5815 -20.0807 -7.5593
-14.4750 -24.2177 -8.5942
35.7826 -24.0063 -13.1254
36.0962 -19.7942 -12.5399
45.9040 -10.9228 -14.3731
30.6390 -4.4514 -9.4309
30.6215 -1.6842 -9.3417
22.5578 0.7759 -6.8753
22.4186 2.7877 -6.8815
22.4056 4.8469 -6.9828
22.3921 6.9849 -7.1450
25.1207 10.3760 -8.2790
25.8026 13.4669 -8.8658
25.0214 16.0507 -9.0551
25.0003 19.3904 -9.6374
22.8922 21.2844 -9.5215
22.3429 24.8438 -10.1778
-12.9277 28.2751 -9.4704
-12.9808 22.7683 -7.9834
-15.5904 22.4260 -8.3197
-17.5746 21.0004 -8.3414
-20.9472 20.9156 -9.0169
-28.6413 23.8957 -11.3620
-34.0311 23.5822 -12.6118
-37.8067 21.4791 -13.2450
-14.6703 6.6807 -4.9102
-14.6606 5.1530 -4.7336
-14.7319 3.7408 -4.6299
-14.7232 2.3660 -4.5424
-14.7148 1.0319 -4.4933
-14.7065 -0.2842 -4.4806
-14.6982 -1.6033 -4.5037
-14.6897 -2.9469 -4.5638
-14.6809 -4.3380 -4.6631
-14.5915 -5.7712 -4.7797
-14.5816 -7.3331 -4.9717
-14.5710 -9.0401 -5.2233
-14.6388 -11.0048 -5.5786
-14.6250 -13.1927 -5.9996
-14.5290 -15.6739 -6.5101
-14.5891 -18.8687 -7.2652
-14.4848 -22.6556 -8.1910
37.2760 -26.6708 -13.9617
35.7638 -21.0373 -12.6389
41.3443 -19.5849 -13.9354
30.6450 -5.3994 -9.4785
30.6274 -2.6118 -9.3632
23.8747 0.1017 -7.2725
22.4229 2.1047 -6.8602
22.4100 4.1455 -6.9421
22.3967 6.2527 -7.0831
19.9154 7.5321 -6.4858
26.1966 12.6836 -8.8658
25.2835 15.1638 -8.9805
25.0078 18.2169 -9.4244
23.7989 20.8267 -9.6332
22.2888 23.3302 -9.8285
22.3215 27.9877 -10.9046
-12.9431 30.7240 -10.1553
-12.9087 24.3160 -8.3859
-14.5558 22.3450 -8.1232
-16.6497 21.1588 -8.2013
-19.7290 20.9233 -8.7599
-28.1952 25.0019 -11.4787
-31.8657 23.5333 -12.0666
-34.9407 21.2679 -12.4598
-14.6737 7.2236 -4.9820
-14.6638 5.6559 -4.7875
-14.7349 4.2178 -4.6686
-14.7261 2.8239 -4.5674
-14.7176 1.4787 -4.5057
-14.7093 0.1589 -4.4808
-14.7010 -1.1568 -4.4919
-14.6926 -2.4896 -4.5393
-14.6839 -3.8620 -4.6250
-14.5947 -5.2699 -4.7266
-5.5690 -2.5935 -1.8713
-14.5746 -8.4452 -5.1310
-14.5632 -10.2764 -5.4293
-14.6299 -12.4187 -5.8454
-14.6145 -14.8432 -6.3451
-14.5962 -17.7463 -6.9993
-14.4939 -21.2322 -7.8307
-14.3108 -25.6055 -8.9352
-5.5296 -22.4345 -7.0383
37.1615 -28.3192 -14.2320
35.7732 -22.5200 -12.8762
38.2394 -19.5454 -13.0814
31.1636 -6.4642 -9.6947
30.6333 -3.5445 -9.3934
30.6159 -0.7921 -9.3290
22.4272 1.4252 -6.8453
22.4144 3.4516 -6.9081
22.4012 5.5324 -7.0286
22.3875 7.7046 -7.2120
25.1157 11.2395 -8.3816
25.4002 14.2115 -8.8658
25.0149 17.0930 -9.2287
24.8774 20.4807 -9.8155
22.3325 22.0088 -9.5509
22.3328 26.3338 -10.5177
-12.9207 26.2160 -8.9028
-13.6562 22.4122 -7.9944
-16.5734 22.4198 -8.4926
-18.6328 20.9932 -8.5502
-26.5102 24.9738 -11.0941
-29.9504 23.5454 -11.6048
-34.3603 22.3602 -12.4875
-14.6773 7.7831 -5.0605
-14.6671 6.1709 -4.8470
-14.7041 4.6926 -4.7015
-14.7291 3.2874 -4.5970
-14.7205 1.9284 -4.5223
-14.7121 0.6025 -4.4852
-14.7038 -0.7122 -4.4842
-14.6954 -2.0369 -4.5191
-14.6869 -3.3933 -4.5916
-14.6686 -4.8023 -4.7015
-5.6385 -2.4220 -1.8693
-14.5782 -7.8706 -5.0465
-14.5672 -9.6354 -5.3202
-14.5803 -11.6395 -5.6829
-14.6200 -13.9803 -6.1618
-14.6028 -16.7023 -6.7580
-14.5817 -20.0370 -7.5486
-14.4753 -24.1608 -8.5794
35.7829 -24.0609 -13.1347
36.0568 -19.8216 -12.5334
45.9044 -10.9736 -14.3768
30.6392 -4.4842 -9.4324
30.6217 -1.7164 -9.3423
22.5651 0.7525 -6.8773
22.4187 2.7639 -6.8806
22.4057 4.8224 -6.9813
22.3922 6.9593 -7.1427
25.1209 10.3453 -8.2755
25.8167 13.4399 -8.8658
25.0217 16.0139 -9.0491
25.0006 19.3487 -9.6297
22.9228 21.2682 -9.5250
22.3433 24.7920 -10.1662
-12.9282 28.3546 -9.4925
-12.9658 22.7975 -7.9889
-15.5558 22.4262 -8.3137
-17.5376 21.0007 -8.3342
-20.9037 20.9159 -9.0075
-28.6163 23.9257 -11.3620
-33.9560 23.5827 -12.5931
-37.8070 21.5316 -13.2530
-14.6704 6.6993 -4.9126
-14.6607 5.1703 -4.7353
-14.7320 3.7572 -4.6311
-14.7233 2.3819 -4.5432
-14.7149 1.0474 -4.4936
-14.7066 -0.2688 -4.4805
-14.6983 -1.5877 -4.5033
-14.6898 -2.9309 -4.5628
-14.6810 -4.3213 -4.6617
-14.5916 -5.7537 -4.7778
-14.5817 -7.3141 -4.9692
-14.5711 -9.0191 -5.2199
-14.6389 -10.9810 -5.5743
-14.6251 -13.1652 -5.9940
-14.5536 -15.6675 -6.5138
-14.5894 -18.8282 -7.2555
-14.4852 -22.6038 -8.1778
37.2763 -26.7299 -13.9722
35.7641 -21.0878 -12.6468
41.2345 -19.5857 -13.9053
30.6452 -5.4324 -9.4803
30.6276 -2.6441 -9.3641
23.8734 0.0767 -7.2721
22.4231 2.0810 -6.8596
22.4102 4.1213 -6.9408
22.3969 6.2275 -7.0811
19.9250 7.5118 -6.4863
26.2098 12.6563 -8.8658
25.3128 15.1454 -8.9853
25.0080 18.1770 -9.4173
23.8198 20.8010 -9.6329
22.2891 23.2818 -9.8179
22.3219 27.9281 -10.8905
-12.9437 30.8154 -10.1811
-12.9090 24.3783 -8.4027
-14.5562 22.3968 -8.1365
-16.6500 21.2048 -8.2124
-19.6880 20.9236 -8.7514
-28.1223 24.9897 -11.4599
-31.7966 23.5337 -12.0498
-34.9207 21.3058 -12.4606
-14.6739 7.2427 -4.9846
-14.6639 5.6736 -4.7894
-14.7350 4.2346 -4.6701
-14.7262 2.8399 -4.5684
-14.7177 1.4942 -4.5062
-14.7094 0.1743 -4.4809
-14.7011 -1.1413 -4.4915
-14.6927 -2.4738 -4.5385
-14.6840 -3.8456 -4.6237
-14.5948 -5.2526 -4.7248
-5.5655 -2.5848 -1.8692
-14.5747 -8.4250 -5.1279
-14.5633 -10.2537 -5.4254
-14.6300 -12.3925 -5.8403
-14.6147 -14.8123 -6.3385
-14.5965 -17.7088 -6.9905
-14.4942 -21.1849 -7.8189
-14.3334 -25.5832 -8.9326
-5.5522 -22.4253 -7.0372
37.1612 -28.3805 -14.2432
35.7735 -22.5725 -12.8848
38.1421 -19.5461 -13.0551
31.1270 -6.4905 -9.6855
30.6335 -3.5770 -9.3946
30.6161 -0.8242 -9.3293
22.4273 1.4016 -6.8449
22.4145 3.4276 -6.9070
22.4014 5.5075 -7.0269
22.3877 7.6785 -7.2094
25.1159 11.2081 -8.3777
25.4150 14.1849 -8.8658
25.0151 17.0548 -9.2222
24.9309 20.4811 -9.8282
22.3435 21.9735 -9.5458
22.3331 26.2784 -10.5049
-12.9211 26.2864 -8.9221
-13.6230 22.4105 -7.9887
-16.5374 22.4200 -8.4862
-18.5939 20.9935 -8.5424
-26.4841 25.0016 -11.0941
-29.8865 23.5458 -11.5896
-34.3254 22.3887 -12.4833
-14.6774 7.8028 -5.0634
-14.6672 6.1890 -4.8492
-14.6991 4.7079 -4.7015
-14.7292 3.3035 -4.5981
-14.7206 1.9441 -4.5229
-14.7122 0.6179 -4.4854
-14.7039 -0.6968 -4.4840
-14.6955 -2.0212 -4.5185
-14.6870 -3.3771 -4.5905
-14.6736 -4.7870 -4.7015
-5.6469 -2.4186 -1.8712
-14.5783 -7.8510 -5.0437
-14.5674 -9.6136 -5.3165
-14.6119 -11.6397 -5.6905
-14.6202 -13.9512 -6.1557
-14.6030 -16.6673 -6.7500
-14.5820 -19.9935 -7.5379
-14.4757 -24.1043 -8.5647
35.7833 -24.1157 -13.1441
36.0173 -19.8491 -12.5269
45.9047 -11.0245 -14.3805
30.6394 -4.5169 -9.4339
30.6219 -1.7485 -9.3429
22.5724 0.7291 -6.8793
22.4189 2.7401 -6.8798
22.4059 4.7980 -6.9797
22.3924 6.9337 -7.1404
25.1211 10.3147 -8.2720
25.8307 13.4129 -8.8658
25.0219 15.9772 -9.0431
25.0009 19.3072 -9.6220
22.9536 21.2520 -9.5285
22.3436 24.7404 -10.1546
22.4357 29.8081 -11.3643
-12.9287 28.4346 -9.5147
-12.9509 22.8266 -7.9943
-15.5213 22.4265 -8.3078
-17.5005 21.0010 -8.3271
-20.8603 20.9162 -8.9983
-28.5912 23.9556 -11.3620
-33.8808 23.5832 -12.5744
-37.8073 21.5843 -13.2611
-14.6705 6.7179 -4.9150
-14.6609 5.1875 -4.7371
-14.7321 3.7737 -4.6324
-14.7234 2.3977 -4.5440
-14.7150 1.0628 -4.4940
-14.7067 -0.2534 -4.4804
-14.6984 -1.5722 -4.5028
-14.6899 -2.9150 -4.5619
-14.6811 -4.3047 -4.6603
-14.5917 -5.7360 -4.7759
-14.5819 -7.2951 -4.9666
-14.5713 -8.9981 -5.2166
-14.6391 -10.9572 -5.5699
-14.5455 -13.0659 -5.9558
-14.5843 -15.6677 -6.5202
-14.5896 -18.7880 -7.2459
-14.4855 -22.5525 -8.1647
37.2767 -26.7894 -13.9829
35.7645 -21.1386 -12.6548
41.1254 -19.5866 -13.8753
30.6454 -5.4656 -9.4822
30.6278 -2.6765 -9.3650
23.8721 0.0517 -7.2717
22.4232 2.0573 -6.8590
22.4103 4.0971 -6.9395
22.3970 6.2023 -7.0791
19.9501 7.4975 -6.4919
26.2230 12.6288 -8.8658
25.3422 15.1269 -8.9901
25.0083 18.1372 -9.4102
23.8407 20.7753 -9.6325
22.2894 23.2335 -9.8073
22.3223 27.8689 -10.8765
-12.9443 30.9071 -10.2069
-12.9094 24.4407 -8.4196
-14.5565 22.4485 -8.1498
-16.6503 21.2508 -8.2235
-19.6469 20.9239 -8.7429
-28.0670 24.9933 -11.4479
-31.7276 23.5341 -12.0330
-34.9007 21.3437 -12.4615
-14.6740 7.2618 -4.9872
-14.6640 5.6912 -4.7914
-14.7351 4.2513 -4.6715
-14.7263 2.8559 -4.5693
-14.7178 1.5098 -4.5067
-14.7095 0.1897 -4.4810
-14.7012 -1.1259 -4.4912
-14.6928 -2.4581 -4.5377
-14.6841 -3.8292 -4.6225
-14.5949 -5.2355 -4.7231
-5.5619 -2.5761 -1.8671
-14.5748 -8.4047 -5.1249
-14.5635 -10.2310 -5.4214
-14.6302 -12.3664 -5.8352
-14.6149 -14.7816 -6.3319
-14.5967 -17.6714 -6.9817
-14.4945 -21.1379 -7.8071
-14.3561 -25.5608 -8.9300
-5.5754 -22.4188 -7.0370
37.1616 -28.4425 -14.2548
35.7739 -22.6249 -12.8935
38.0453 -19.5467 -13.0290
31.1914 -6.5381 -9.7076
30.6337 -3.6096 -9.3958
30.6163 -0.8563 -9.3296
22.4275 1.3782 -6.8445
22.4147 3.4037 -6.9060
22.4016 5.4827 -7.0251
22.3879 7.6524 -7.2069
25.1161 11.1766 -8.3739
25.4299 14.1582 -8.8658
25.0153 17.0166 -9.2158
24.9845 20.4814 -9.8408
22.3544 21.9385 -9.5407
22.3335 26.2233 -10.4922
23.7780 20.8524 -9.4211
22.2885 23.3789 -9.6221
22.3211 28.0473 -10.6779
-12.9426 30.6330 -9.9063
-12.9083 24.2540 -8.1845
-14.5643 22.3070 -7.9359
-16.6494 21.1129 -8.0096
-19.7728 20.9257 -8.5761
-28.2585 25.0051 -11.2404
-31.9349 23.5328 -11.8170
-34.9607 21.2300 -12.1842
-14.6736 7.2045 -4.8695
-14.7314 5.6643 -4.7015
-14.7348 4.2012 -4.5643
-14.7260 2.8080 -4.4658
-14.7175 1.4631 -4.4058
-14.7092 0.1435 -4.3819
-14.7009 -1.1722 -4.3931
-14.6925 -2.5054 -4.4399
-14.6838 -3.8784 -4.5242
-14.6747 -5.3161 -4.6495
-5.5724 -2.6022 -1.8320
-14.5745 -8.4655 -5.0208
-14.5630 -10.2991 -5.3134
-14.6297 -12.4449 -5.7215
-14.5511 -14.8097 -6.1848
-14.5960 -17.7839 -6.8535
-14.5732 -21.3964 -7.7117
-5.4995 -22.4132 -6.8747
37.3808 -28.4245 -13.9890
35.7729 -22.4676 -12.5838
38.3372 -19.5448 -12.8187
32.0182 -6.6065 -9.7388
30.6331 -3.5121 -9.1850
30.6157 -0.7601 -9.1229
22.4270 1.4488 -6.6947
22.4142 3.4756 -6.7568
22.4011 5.5572 -6.8753
22.3874 7.7307 -7.0554
25.1155 11.2709 -8.2005
26.4751 14.8493 -9.0423
25.0146 17.1313 -9.0315
24.8240 20.4804 -9.5866
22.3215 22.0440 -9.3453
22.3324 26.3893 -10.2982
-12.9202 26.1462 -8.6877
-13.6630 22.3707 -7.8086
-16.6095 22.4196 -8.3117
-18.6719 20.9930 -8.3693
-26.6393 25.0429 -10.8915
-30.0145 23.5450 -11.3637
-34.3953 22.3318 -12.2162
-14.6772 7.7633 -4.9461
-14.6670 6.1528 -4.7380
-14.7379 4.6864 -4.6069
-14.7290 3.2712 -4.4945
-14.7204 1.9127 -4.4219
-14.7120 0.5871 -4.3860
-14.7037 -0.7276 -4.3854
-14.6953 -2.0525 -4.4201
-14.6868 -3.4095 -4.4914
-14.6779 -4.8223 -4.6023
-5.6300 -2.4253 -1.8261
-14.5781 -7.8902 -4.9379
-14.5671 -9.6572 -5.2064
-14.5545 -11.6439 -5.5524
-14.6198 -14.0094 -6.0318
-14.6026 -16.7374 -6.6167
-14.5815 -20.0807 -7.3926
-14.4750 -24.2177 -8.4046
35.7826 -24.0063 -12.8359
36.0962 -19.7942 -12.2633
45.9040 -10.9229 -14.0561
30.6390 -4.4514 -9.2229
30.6215 -1.6842 -9.1356
22.5578 0.7759 -6.7237
22.4186 2.7877 -6.7297
22.4056 4.8469 -6.8288
22.3921 6.9849 -6.9874
25.1207 10.3760 -8.0964
26.3846 13.7707 -8.8658
25.0400 16.0626 -8.8619
25.0003 19.3904 -9.4248
22.8922 21.2844 -9.3115
22.2797 24.7735 -9.9252
-12.9277 28.2751 -9.2615
-12.9808 22.7683 -7.8073
-15.5904 22.4260 -8.1362
-17.5746 21.0004 -8.1574
-20.9472 20.9156 -8.8180
-29.2873 24.4347 -11.3620
-33.9416 23.5202 -12.3012
-37.8067 21.4791 -12.9529
-14.6703 6.6807 -4.8019
-14.7410 5.1813 -4.6545
-14.7319 3.7408 -4.5278
-14.7232 2.3660 -4.4422
-14.7148 1.0319 -4.3942
-14.7065 -0.2842 -4.3817
-14.6982 -1.6033 -4.4044
-14.6897 -2.9469 -4.4631
-14.6809 -4.3380 -4.5602
-14.6168 -5.7812 -4.6824
-14.5816 -7.3331 -4.8621
-14.5710 -9.0401 -5.1081
-14.5590 -10.9448 -5.4258
-14.6250 -13.1927 -5.8673
-14.5290 -15.6738 -6.3665
-14.5095 -18.7656 -7.0662
-14.4848 -22.6556 -8.0103
35.7927 -25.6095 -13.1104
35.7638 -21.0373 -12.3601
41.3443 -19.5849 -13.6280
30.6450 -5.3994 -9.2694
30.6274 -2.6118 -9.1567
23.8747 0.1017 -7.1121
22.4229 2.1047 -6.7089
22.4100 4.1455 -6.7890
22.3967 6.2527 -6.9269
19.9293 7.5373 -6.3471
26.3931 12.7788 -8.7353
25.5125 15.3010 -8.8619
25.0078 18.2169 -9.2165
23.7989 20.8267 -9.4207
22.2888 23.3302 -9.6117
22.3215 27.9877 -10.6641
-12.9431 30.7239 -9.9313
-12.9087 24.3161 -8.2009
-14.5558 22.3450 -7.9440
-16.6497 21.1588 -8.0204
-19.7507 20.9464 -8.5761
-28.1952 25.0019 -11.2258
-31.8657 23.5333 -11.8005
-34.9407 21.2679 -12.1850
-14.6737 7.2236 -4.8721
-14.7254 5.6797 -4.7015
-14.7349 4.2178 -4.5657
-14.7261 2.8239 -4.4667
-14.7176 1.4787 -4.4063
-14.7093 0.1589 -4.3820
-14.7010 -1.1568 -4.3928
-14.6926 -2.4896 -4.4392
-14.6839 -3.8620 -4.5229
-14.6748 -5.2988 -4.6477
-5.5688 -2.5934 -1.8300
-14.5746 -8.4452 -5.0178
-14.5632 -10.2764 -5.3095
-14.6299 -12.4187 -5.7165
-14.5666 -14.7944 -6.1848
-14.5962 -17.7463 -6.8449
-14.5735 -21.3488 -7.7001
-14.3108 -25.6055 -8.7381
-5.5213 -22.4008 -6.8727
37.3004 -28.4250 -13.9700
35.7732 -22.5200 -12.5922
38.2394 -19.5454 -12.7929
32.0113 -6.6400 -9.7388
30.6333 -3.5445 -9.1862
30.6159 -0.7921 -9.1232
22.4272 1.4252 -6.6943
22.4144 3.4516 -6.7557
22.4012 5.5324 -6.8736
22.3875 7.7046 -7.0529
25.1157 11.2395 -8.1967
