ply
format ascii 1.0
element vertex 2073
property float32 x
property float32 y
property float32 z
end_header
4.7614 13.0740 1.2029
5.0894 19.1429 1.7125
3.3521 19.4751 1.7085
1.7414 21.4384 1.8596
-0.0620 7.4230 0.6418
-0.7284 7.4275 0.6452
-4.0021 21.1334 1.8596
-5.8731 20.6916 1.8596
-7.0735 18.4577 1.7089
-8.7114 17.7895 1.7125
-10.2649 16.9407 1.7125
-11.7239 15.9395 1.7107
-13.0976 14.8261 1.7103
-14.3662 13.5948 1.7100
-15.5203 12.2560 1.7097
-16.5505 10.8202 1.7095
-16.3021 8.6872 1.5970
-16.9760 7.1815 1.5936
-16.9824 5.4550 1.5421
-16.9884 3.8240 1.5055
-16.3262 2.1676 1.4239
-17.9301 0.7642 1.5515
-19.6859 -0.9221 1.7038
-19.5296 -2.6767 1.7042
-19.2204 -4.4114 1.7049
-18.7604 -6.1133 1.7059
-18.1525 -7.7695 1.7071
-17.3872 -9.3596 1.7072
-17.7817 -11.7320 1.8418
-16.7250 -13.3220 1.8486
-15.5209 -14.8118 1.8548
-14.1546 -16.1591 1.8572
-12.6713 -17.3804 1.8596
-11.0690 -18.4423 1.8596
-9.3782 -19.3570 1.8596
-7.6184 -20.1328 1.8610
-5.8039 -20.7807 1.8653
-3.9348 -21.2666 1.8698
-2.0252 -21.5856 1.8744
-0.0904 -21.7971 1.8845
1.8655 -21.8286 1.8940
3.8184 -21.6390 1.8997
5.7483 -21.2603 1.9040
7.6687 -20.7846 1.9153
9.5981 -20.2367 1.9364
11.4874 -19.5042 1.9569
13.3140 -18.5836 1.9764
15.0610 -17.4843 1.9951
16.7099 -16.2133 2.0129
18.2413 -14.7787 2.0297
9.3960 -6.3118 0.9786
20.8758 -11.4618 2.0589
20.0498 -8.7789 1.8923
20.3116 -6.8056 1.8520
21.4881 -5.1198 1.9097
4.9581 -0.7215 0.4332
19.7485 -5.0872 1.8897
4.9400 -0.8110 0.4639
4.7536 -0.3491 0.4417
5.1045 0.0821 0.4731
20.1308 2.1316 1.8758
19.7672 3.9021 1.8670
19.2427 5.6230 1.8577
17.7650 6.9661 1.7682
16.5012 8.2394 1.7091
15.3099 9.4395 1.6667
14.1675 10.5904 1.6391
14.4584 12.9733 1.8000
13.1432 14.1059 1.7866
5.0635 6.5152 0.7646
4.5774 7.1214 0.7845
8.7278 16.6881 1.7451
5.2427 12.6650 1.2702
5.5327 17.6931 1.7178
3.9129 18.0337 1.7100
2.4873 19.9129 1.8596
0.2588 7.4213 0.6881
-0.4054 7.4257 0.6891
-2.8787 19.8601 1.8596
-4.6403 19.5238 1.8596
-6.2259 18.6158 1.8189
-7.3913 16.9062 1.7098
-8.8853 16.2044 1.7125
-10.2966 15.3466 1.7125
-11.6145 14.3520 1.7108
-12.8439 13.2519 1.7101
-13.9737 12.0505 1.7098
-14.9914 10.7530 1.7096
-15.8895 9.3703 1.7093
-16.6607 7.9134 1.7091
-16.9793 6.2754 1.6774
-16.9855 4.6026 1.6307
-16.9914 3.0080 1.5990
-17.9272 1.5422 1.6673
-18.4118 -0.0661 1.7061
-18.3350 -1.7100 1.7064
-18.1146 -3.3412 1.7069
-17.7500 -4.9468 1.7075
-17.2353 -6.5111 1.7073
-16.5842 -8.0234 1.7072
-17.1616 -10.2873 1.8541
-16.1402 -11.7534 1.8501
-15.0777 -13.1925 1.8565
-13.8551 -14.5022 1.8585
-12.5118 -15.6899 1.8596
-11.0610 -16.7443 1.8596
-9.5218 -17.6650 1.8596
-7.9104 -18.4536 1.8605
-6.2445 -19.1267 1.8644
-4.5218 -19.6510 1.8685
-2.7552 -20.0203 1.8726
-0.9617 -20.2900 1.8823
0.8575 -20.3854 1.8907
2.6815 -20.2821 1.8958
4.4914 -20.0054 1.8999
6.2726 -19.5650 1.9039
8.0600 -19.0821 1.9195
9.8293 -18.4700 1.9388
11.5497 -17.6879 1.9575
13.2030 -16.7386 1.9755
14.7712 -15.6266 1.9925
9.2025 -8.1387 1.1384
9.1919 -6.7687 1.0578
18.7705 -11.3879 2.0344
18.0925 -8.8722 1.8672
18.9191 -7.2624 1.8778
19.5914 -5.5725 1.8874
20.0890 -3.8159 1.8948
4.7649 -0.4700 0.4437
4.9493 -0.0441 0.4586
20.2029 1.6297 1.8782
19.8853 3.4113 1.8696
19.4051 5.1476 1.8603
18.1352 6.5932 1.7881
16.8461 7.8918 1.7238
15.6372 9.1098 1.6770
14.4832 10.2723 1.6454
14.8086 12.6338 1.8038
13.5203 13.8022 1.7904
5.3730 6.5677 0.7863
4.6582 6.8636 0.7687
9.1625 16.5012 1.7490
5.7196 12.8953 1.3072
5.9863 17.5876 1.7216
4.3656 17.9429 1.7112
2.7397 18.2182 1.7072
0.4447 7.4200 0.6888
-0.2194 7.4245 0.6883
-2.3813 19.9259 1.8596
-4.1509 19.6337 1.8596
-5.8873 19.1847 1.8596
-6.9617 17.0742 1.7086
-8.4774 16.4215 1.7125
-9.9098 15.5990 1.7125
-11.2557 14.6425 1.7114
-12.5089 13.5692 1.7101
-13.6689 12.3968 1.7099
-14.7186 11.1247 1.7096
-15.6508 9.7649 1.7094
-8.6254 4.3643 0.8958
-16.9775 6.7618 1.6934
-16.9838 5.0611 1.6422
-16.9898 3.4478 1.6064
-17.9255 1.9945 1.6713
-17.9315 0.3839 1.6620
-18.3710 -1.2510 1.7063
-18.1906 -2.8870 1.7067
-17.8686 -4.5018 1.7075
-17.3933 -6.0784 1.7073
-16.7796 -7.6064 1.7072
-8.5574 -4.8431 0.9111
-16.4163 -11.3376 1.8487
-15.3983 -12.8078 1.8559
-14.2086 -14.1467 1.8579
-12.9000 -15.3722 1.8596
-11.4761 -16.4626 1.8596
-9.9604 -17.4215 1.8596
-8.3651 -18.2412 1.8596
-6.7166 -18.9533 1.8633
-5.0085 -19.5197 1.8674
-3.2529 -19.9336 1.8715
-1.4663 -20.2284 1.8794
0.3474 -20.3822 1.8890
2.1723 -20.3300 1.8946
3.9875 -20.0994 1.8988
5.7783 -19.7045 1.9028
7.5589 -19.2227 1.9140
9.3387 -18.6583 1.9334
11.0746 -17.9236 1.9523
12.7485 -17.0207 1.9705
14.3423 -15.9536 1.9879
15.8378 -14.7288 2.0041
9.2575 -7.1807 1.0856
9.7117 -6.2293 1.0691
17.8337 -9.3053 1.8640
18.7029 -7.7211 1.8750
19.4206 -6.0526 1.8850
19.9679 -4.3127 1.8930
4.8009 -0.5950 0.4483
4.8655 -0.1650 0.4511
20.2617 1.1256 1.8804
19.9908 2.9170 1.8720
19.5554 4.6676 1.8630
18.5141 6.2115 1.8096
17.1973 7.5380 1.7399
15.9687 8.7758 1.6884
14.8016 9.9515 1.6527
13.6741 11.0874 1.6313
13.8904 13.4884 1.7941
5.7304 6.6577 0.8140
4.7932 6.6960 0.7631
9.5933 16.3031 1.7528
8.0355 16.9596 1.7390
4.8194 13.0782 1.2915
4.8161 17.8407 1.7124
3.1959 18.1536 1.7080
1.7009 19.9955 1.8596
-0.0337 7.4232 0.6879
-0.6999 7.4277 0.6913
-3.6588 19.7313 1.8596
-5.4059 19.3259 1.8596
-6.5283 17.2312 1.7075
-8.0599 16.6192 1.7116
-9.5167 15.8418 1.7125
-10.8897 14.9241 1.7119
-12.1662 13.8780 1.7102
-13.3553 12.7351 1.7100
-14.4365 11.4899 1.7097
-15.4024 10.1534 1.7095
-16.2455 8.7367 1.7093
-16.9585 7.2504 1.7090
-16.9821 5.5264 1.6549
-16.9881 3.8920 1.6150
-16.3260 2.2310 1.5269
-17.9298 0.8327 1.6632
-18.3957 -0.7914 1.7062
-18.2555 -2.4312 1.7066
-17.9718 -4.0528 1.7072
-17.5404 -5.6419 1.7074
-16.9646 -7.1846 1.7072
-16.2552 -8.6705 1.7072
-16.6822 -10.9156 1.8473
-15.7094 -12.4155 1.8554
-14.5532 -13.7827 1.8573
-13.2803 -15.0450 1.8596
-11.8840 -16.1706 1.8596
-10.3928 -17.1670 1.8596
-8.8185 -18.0264 1.8596
-7.1840 -18.7683 1.8622
-5.4914 -19.3765 1.8662
-3.7478 -19.8335 1.8704
-1.9685 -20.1548 1.8765
-0.1620 -20.3622 1.8869
1.6623 -20.3647 1.8933
3.4817 -20.1805 1.8976
5.2809 -19.8313 1.9017
7.0611 -19.3646 1.9100
8.8447 -18.8333 1.9280
10.5946 -18.1461 1.9471
12.2877 -17.2899 1.9655
13.9058 -16.2682 1.9831
15.4306 -15.0867 1.9997
16.8443 -13.7535 2.0151
9.4104 -6.3736 1.0532
19.2258 -10.6514 2.0367
18.4757 -8.1737 1.8721
19.2364 -6.5270 1.8823
19.8328 -4.8054 1.8910
4.8673 -0.7272 0.4560
4.7944 -0.2827 0.4450
20.3074 0.6195 1.8826
20.0833 2.4196 1.8745
19.6934 4.1831 1.8656
19.1436 5.8946 1.8561
17.5553 7.1774 1.7574
16.3050 8.4370 1.7012
15.1231 9.6277 1.6612
13.9866 10.7727 1.6359
14.2530 13.1645 1.7979
12.9227 14.2761 1.7844
4.9534 6.5665 0.7622
4.5761 7.3499 0.8023
8.4757 16.7906 1.7429
5.0503 12.7158 1.2678
5.2706 17.7486 1.7156
3.6513 18.0808 1.7093
2.2002 19.9467 1.8596
0.1519 7.4220 0.6879
-0.5128 7.4265 0.6898
-3.1645 19.8166 1.8596
-4.9211 19.4550 1.8596
-6.2380 17.7955 1.7474
-7.6370 16.8044 1.7104
-9.1178 16.0749 1.7125
-10.5166 15.1965 1.7125
-11.8179 14.1807 1.7105
-13.0332 13.0653 1.7101
-14.1455 11.8475 1.7098
-15.1444 10.5359 1.7095
-16.0225 9.1403 1.7093
-16.7726 7.6724 1.7091
-16.9804 5.9992 1.6688
-16.9865 4.3412 1.6246
-16.9923 2.7563 1.5952
-17.9281 1.2824 1.6655
-18.4091 -0.3313 1.7061
-18.3092 -1.9740 1.7064
-18.0657 -3.6020 1.7070
-17.6765 -5.2019 1.7074
-17.1394 -6.7585 1.7072
-16.4669 -8.2615 1.7072
-16.9813 -10.5147 1.8508
-15.9775 -11.9909 1.8511
-14.8886 -13.4106 1.8568
-13.6475 -14.7032 1.8589
-12.2845 -15.8685 1.8596
-10.8186 -16.9019 1.8596
-9.2663 -17.8003 1.8596
-7.6464 -18.5719 1.8611
-5.9704 -19.2214 1.8651
-4.2398 -19.7212 1.8692
-2.4680 -20.0691 1.8737
-0.6699 -20.3199 1.8839
1.1517 -20.3815 1.8916
2.9744 -20.2487 1.8964
4.7808 -19.9455 1.9006
6.5622 -19.4977 1.9063
8.3476 -18.9950 1.9226
10.1103 -18.3554 1.9418
11.8210 -17.5462 1.9605
13.4619 -16.5702 1.9783
8.1196 -8.3456 1.0790
16.4612 -14.1410 2.0109
9.2359 -6.5981 1.0518
18.9409 -11.1212 2.0353
18.2361 -8.6190 1.8691
19.0388 -6.9954 1.8795
19.6836 -5.2935 1.8888
5.0410 -0.8825 0.4742
4.7714 -0.4013 0.4437
5.0376 0.0277 0.4668
20.1630 1.9192 1.8768
19.8188 3.6946 1.8681
19.3130 5.4221 1.8588
17.9209 6.8091 1.7764
16.6466 8.0928 1.7152
15.4481 9.3002 1.6709
14.3010 10.4559 1.6416
14.6078 12.8306 1.8016
13.3039 13.9784 1.7882
5.1469 6.4795 0.7668
4.6084 7.0052 0.7770
8.9125 16.6103 1.7467
5.4059 12.6777 1.2771
5.7251 17.6498 1.7194
4.1050 17.9966 1.7105
2.6679 19.6627 1.8387
0.3375 7.4207 0.6883
-0.3265 7.4252 0.6887
-2.6681 19.8895 1.8596
-4.4333 19.5719 1.8596
-6.1630 19.0979 1.8596
-7.2097 16.9787 1.7093
-8.7131 16.2976 1.7125
-10.1334 15.4547 1.7125
-11.4633 14.4762 1.7111
-12.7029 13.3874 1.7101
-13.8455 12.1983 1.7099
-14.8769 10.9115 1.7096
-15.7895 9.5382 1.7094
-8.7529 4.2716 0.9025
-16.9786 6.4804 1.6840
-16.9848 4.7961 1.6354
-16.9907 3.1939 1.6020
-17.9265 1.7336 1.6689
-16.3338 0.1144 1.5136
-18.3516 -1.5156 1.7063
-18.1482 -3.1489 1.7068
-17.8016 -4.7586 1.7075
-17.3036 -6.3282 1.7073
-16.6683 -7.8473 1.7072
-8.4803 -4.9620 0.9104
-16.2584 -11.5780 1.8495
-15.2147 -13.0304 1.8562
-14.0060 -14.3527 1.8583
-12.6773 -15.5564 1.8596
-11.2377 -16.6262 1.8596
-9.7084 -17.5631 1.8596
-8.1035 -18.3643 1.8600
-6.4451 -19.0547 1.8639
-4.7285 -19.5969 1.8680
-2.9666 -19.9857 1.8722
-1.1758 -20.2654 1.8810
0.6413 -20.3856 1.8899
2.4658 -20.3040 1.8953
4.2782 -20.0468 1.8994
6.0635 -19.6257 1.9034
7.8479 -19.1433 1.9172
9.6218 -18.5514 1.9365
11.3489 -17.7894 1.9553
13.0112 -16.8597 1.9734
14.5904 -15.7667 1.9906
9.1221 -8.2415 1.1392
9.1775 -6.9092 1.0645
10.0941 -6.2712 1.1012
17.9843 -9.0567 1.8659
18.8283 -7.4573 1.8766
19.5207 -5.7766 1.8864
20.0394 -4.0269 1.8940
4.7759 -0.5222 0.4452
4.8917 -0.0954 0.4534
20.2294 1.4163 1.8791
19.9316 3.2023 1.8706
19.4703 4.9447 1.8615
18.2947 6.4325 1.7970
16.9942 7.7427 1.7305
15.7771 8.9688 1.6817
14.6178 10.1367 1.6484
14.9546 12.4870 1.8053
13.6781 13.6705 1.7920
5.5267 6.6114 0.7985
4.7054 6.7775 0.7645
9.3455 16.4186 1.7506
7.7804 17.0518 1.7368
6.1780 17.5395 1.7232
4.5568 17.9010 1.7117
2.9329 18.1902 1.7073
0.5236 7.4195 0.6892
-0.1407 7.4239 0.6881
-2.1701 19.9500 1.8596
-3.9426 19.6766 1.8596
-5.6837 19.2460 1.8596
-6.7785 17.1421 1.7081
-8.3016 16.5076 1.7122
-9.7440 15.7031 1.7125
-11.1014 14.7629 1.7116
-12.3646 13.7011 1.7102
-13.5371 12.5412 1.7100
-14.6001 11.2803 1.7097
-15.5467 9.9303 1.7094
-8.6111 4.4723 0.8991
-16.9768 6.9707 1.7006
-16.9831 5.2574 1.6474
-16.9891 3.6355 1.6099
-16.5847 2.0234 1.5482
-17.9308 0.5741 1.6624
-18.3828 -1.0563 1.7062
-18.2195 -2.6941 1.7066
-17.9155 -4.3122 1.7075
-17.4570 -5.8938 1.7073
-16.8592 -7.4282 1.7072
-12.0578 -6.6564 1.2763
-16.5302 -11.1594 1.8481
-15.5314 -12.6425 1.8557
-14.3558 -13.9935 1.8577
-13.0622 -15.2347 1.8596
-11.6498 -16.3401 1.8596
-10.1444 -17.3150 1.8596
-8.5579 -18.1516 1.8596
-6.9152 -18.8763 1.8628
-5.2136 -19.4605 1.8669
-3.4630 -19.8927 1.8710
-1.6794 -20.1987 1.8781
0.1314 -20.3769 1.8882
1.9563 -20.3464 1.8941
3.7734 -20.1353 1.8983
5.5678 -19.7598 1.9023
7.3471 -19.2813 1.9120
9.1297 -18.7341 1.9311
10.8717 -18.0195 1.9501
12.5540 -17.1363 1.9684
14.1582 -16.0884 1.9859
15.6663 -14.8819 2.0023
17.0605 -13.5251 2.0174
9.5482 -6.2682 1.0584
17.7205 -9.4864 1.8625
18.6082 -7.9138 1.8738
19.3442 -6.2543 1.8839
19.9124 -4.5220 1.8921
4.8936 -0.6592 0.4576
4.8357 -0.2153 0.4485
20.2827 0.9113 1.8814
20.0316 2.7066 1.8731
19.6154 4.4628 1.8641
18.6774 6.0469 1.8192
17.3481 7.3861 1.7472
16.1106 8.6328 1.6937
14.9375 9.8147 1.6562
13.8063 10.9543 1.6331
14.0450 13.3523 1.7957
12.7000 14.4429 1.7822
4.8565 6.6348 0.7619
9.7747 16.2157 1.7545
8.2224 16.8894 1.7407
4.8982 12.8701 1.2760
5.0081 17.8004 1.7135
3.3891 18.1241 1.7086
1.9126 19.9763 1.8596
0.0449 7.4227 0.6878
-0.6205 7.4272 0.6906
-3.4496 19.7690 1.8596
-5.2008 19.3820 1.8596
-6.3442 17.2962 1.7072
-7.8813 16.6990 1.7111
-9.3484 15.9417 1.7125
-10.7324 15.0407 1.7122
-12.0189 14.0065 1.7102
-13.2199 12.8760 1.7100
-14.3143 11.6420 1.7097
-15.2942 10.3163 1.7095
-16.1522 8.9084 1.7093
-16.8810 7.4298 1.7091
-16.9814 5.7258 1.6606
-16.9874 4.0817 1.6189
-16.3253 2.4073 1.5291
-17.9291 1.0231 1.6641
-18.4028 -0.5965 1.7062
-18.2796 -2.2376 1.7065
-18.0132 -3.8621 1.7071
-17.5994 -5.4559 1.7074
-17.0400 -7.0046 1.7072
-16.3462 -8.4978 1.7072
-16.7983 -10.7392 1.8475
-15.8239 -12.2359 1.8535
-14.6965 -13.6260 1.8571
-13.4369 -14.9012 1.8593
-12.0546 -16.0438 1.8596
-10.5741 -17.0560 1.8596
-9.0090 -17.9319 1.8596
-7.3806 -18.6864 1.8617
-5.6949 -19.3122 1.8657
-3.9567 -19.7874 1.8699
-2.1805 -20.1200 1.8753
-0.3775 -20.3458 1.8856
1.4459 -20.3734 1.8926
3.2669 -20.2110 1.8971
5.0692 -19.8813 1.9012
6.8501 -19.4229 1.9084
8.6344 -18.9035 1.9257
10.3898 -18.2365 1.9449
12.0907 -17.4001 1.9634
13.7185 -16.3977 1.9811
8.2288 -8.2177 1.0776
16.6832 -13.9190 2.0133
9.3227 -6.4594 1.0510
19.1067 -10.8516 2.0361
18.3757 -8.3633 1.8708
19.1542 -6.7262 1.8812
19.7712 -5.0128 1.8900
4.9205 -0.7885 0.4618
4.7643 -0.3317 0.4425
5.1290 0.1021 0.4754
20.1187 2.2079 1.8755
19.7481 3.9765 1.8667
19.2168 5.6950 1.8573
17.7093 7.0223 1.7653
16.4491 8.2918 1.7069
15.2604 9.4893 1.6652
14.1195 10.6387 1.6382
14.4043 13.0242 1.7995
13.0851 14.1512 1.7860
5.0343 6.5288 0.7640
4.5785 7.1830 0.7893
8.6612 16.7156 1.7445
5.1917 12.6785 1.2695
5.4634 17.7081 1.7172
3.8438 18.0466 1.7098
2.4113 19.9223 1.8596
0.2305 7.4214 0.6880
-0.4338 7.4259 0.6893
-2.9544 19.8490 1.8596
-4.7147 19.5060 1.8596
-6.2292 18.3924 1.7994
-7.4564 16.8796 1.7099
-8.9470 16.1705 1.7125
-10.3550 15.3069 1.7125
-11.6686 14.3070 1.7108
-12.8942 13.2028 1.7101
-14.0194 11.9970 1.7098
-15.0322 10.6958 1.7096
-15.9250 9.3097 1.7093
-16.6906 7.8498 1.7091
-16.9796 6.2020 1.6751
-16.9858 4.5333 1.6291
-16.9917 2.9413 1.5979
-17.9274 1.4733 1.6668
-18.4114 -0.1363 1.7061
-18.3285 -1.7798 1.7064
-18.1020 -3.4103 1.7069
-17.7309 -5.0144 1.7074
-17.2103 -6.5767 1.7072
-16.5535 -8.0866 1.7072
-17.1142 -10.3478 1.8532
-16.0972 -11.8163 1.8504
-15.0279 -13.2505 1.8565
-13.8005 -14.5557 1.8586
-12.4519 -15.7374 1.8596
-10.9970 -16.7864 1.8596
-9.4544 -17.7012 1.8596
-7.8408 -18.4853 1.8606
-6.1721 -19.1522 1.8646
-4.4473 -19.6700 1.8687
-2.6790 -20.0312 1.8727
-0.8845 -20.2983 1.8827
0.9354 -20.3848 1.8909
2.7590 -20.2737 1.8959
4.5681 -19.9900 1.9001
6.3488 -19.5460 1.9044
8.1361 -19.0595 1.9203
9.9038 -18.4401 1.9396
11.6216 -17.6508 1.9583
13.2717 -16.6945 1.9762
14.8359 -15.5757 1.9932
9.2566 -8.1239 1.1412
9.2035 -6.7234 1.0562
18.8161 -11.3176 2.0347
18.1309 -8.8054 1.8677
18.9512 -7.1920 1.8783
19.6163 -5.4988 1.8878
5.2621 -0.9788 0.4960
4.7667 -0.4518 0.4437
4.9724 -0.0254 0.4608
20.1927 1.7064 1.8778
19.8681 3.4864 1.8692
19.3812 5.2204 1.8599
18.0782 6.6506 1.7850
16.7932 7.9452 1.7215
15.5870 9.1603 1.6753
14.4349 10.3210 1.6443
14.7558 12.6861 1.8032
13.4633 13.8492 1.7898
5.3207 6.5545 0.7823
4.6452 6.9008 0.7708
9.0965 16.5304 1.7484
5.6048 12.7676 1.2921
5.9172 17.6044 1.7210
4.2967 17.9575 1.7110
2.6923 18.3796 1.7213
0.4163 7.4202 0.6887
-0.2477 7.4247 0.6884
-2.4573 19.9167 1.8596
-4.2257 19.6177 1.8596
-5.9603 19.1621 1.8596
-7.0274 17.0493 1.7088
-8.5400 16.3890 1.7125
-9.9691 15.5610 1.7125
-11.3109 14.5988 1.7113
-12.5605 13.5214 1.7101
-13.7159 12.3444 1.7099
-14.7608 11.0685 1.7096
-15.6878 9.7051 1.7094
-8.6460 4.3334 0.8962
-16.9778 6.6870 1.6909
-16.9841 4.9908 1.6404
-16.9900 3.3805 1.6052
-17.9258 1.9254 1.6706
-16.3332 0.2875 1.5137
-18.3662 -1.3210 1.7063
-18.1797 -2.9564 1.7067
-17.8513 -4.5698 1.7075
-17.3699 -6.1446 1.7073
-16.7505 -7.6703 1.7072
-8.5251 -4.8678 0.9097
-16.3749 -11.4014 1.8489
-15.3501 -12.8670 1.8560
-14.1553 -14.2015 1.8580
-12.8414 -15.4213 1.8596
-11.4132 -16.5062 1.8596
-9.8939 -17.4593 1.8596
-8.2956 -18.2729 1.8596
-6.6449 -18.9805 1.8635
-4.9345 -19.5405 1.8675
-3.1773 -19.9478 1.8717
-1.3895 -20.2386 1.8798
0.4251 -20.3835 1.8892
2.2499 -20.3236 1.8948
4.0645 -20.0859 1.8990
5.8539 -19.6840 1.9029
7.6354 -19.2022 1.9148
9.4137 -18.6305 1.9342
11.1473 -17.8885 1.9531
12.8182 -16.9785 1.9713
14.4082 -15.9045 1.9886
15.8991 -14.6732 2.0048
9.2360 -7.1079 1.0799
9.7713 -6.2151 1.0731
17.8739 -9.2398 1.8645
18.7364 -7.6515 1.8754
19.4475 -5.9797 1.8853
19.9873 -4.2372 1.8933
4.7942 -0.5757 0.4474
4.8724 -0.1467 0.4517
20.2536 1.2026 1.8801
19.9755 2.9926 1.8717
19.5333 4.7411 1.8626
18.4557 6.2703 1.8062
17.1434 7.5924 1.7374
15.9178 8.8270 1.6866
14.7529 10.0006 1.6515
13.9351 11.3873 1.6676
13.8344 13.5369 1.7936
5.6763 6.6460 0.8099
4.7700 6.7175 0.7634
9.5279 16.3340 1.7523
7.9681 16.9844 1.7384
4.7987 13.1766 1.2994
4.7475 17.8570 1.7122
3.1263 18.1636 1.7079
1.6247 20.0018 1.8596
-0.0620 7.4234 0.6879
-0.7285 7.4279 0.6916
-3.7340 19.7172 1.8596
-5.4795 19.3051 1.8596
-6.5946 17.2080 1.7076
-8.1240 16.5901 1.7117
-9.5771 15.8055 1.7125
-10.9459 14.8817 1.7119
-12.2189 13.8315 1.7102
-13.4038 12.6840 1.7100
-14.4801 11.4344 1.7097
-15.4409 10.0946 1.7094
-8.6132 4.5898 0.9044
-16.9760 7.1815 1.7080
-16.9824 5.4550 1.6528
-16.9884 3.8240 1.6136
-16.3262 2.1676 1.5261
-17.9301 0.7642 1.6630
-18.3927 -0.8615 1.7062
-18.2463 -2.5008 1.7066
-17.9568 -4.1214 1.7072
-17.5187 -5.7087 1.7074
-16.9370 -7.2492 1.7072
-16.2221 -8.7324 1.7072
-16.6423 -10.9803 1.8475
-15.6626 -12.4758 1.8555
-14.5012 -13.8388 1.8574
-13.2229 -15.0954 1.8596
-11.8222 -16.2158 1.8596
-10.3272 -17.2065 1.8596
-8.7498 -18.0599 1.8596
-7.1130 -18.7972 1.8624
-5.4181 -19.3991 1.8664
-3.6726 -19.8495 1.8705
-1.8921 -20.1668 1.8769
-0.0844 -20.3676 1.8873
1.7401 -20.3605 1.8936
3.5590 -20.1689 1.8978
5.3569 -19.8128 1.9018
7.1368 -19.3430 1.9105
8.9202 -18.8075 1.9289
10.6681 -18.1131 1.9479
12.3583 -17.2497 1.9663
13.9728 -16.2210 1.9839
15.4933 -15.0329 2.0004
16.9018 -13.6934 2.0157
9.4420 -6.3426 1.0540
19.2681 -10.5791 2.0369
18.5112 -8.1052 1.8725
19.2653 -6.4550 1.8827
19.8543 -4.7306 1.8913
4.8532 -0.7062 0.4545
18.3315 -4.7222 1.8718
4.9111 -0.8062 0.4921
4.7450 -0.3485 0.4704
5.0836 0.0818 0.5027
18.7767 1.9882 1.8670
18.4483 3.6417 1.8594
17.9653 5.2497 1.8507
17.3343 6.7972 1.8411
16.5012 8.2394 1.8237
15.3099 9.4395 1.7785
14.1675 10.5904 1.7490
13.5156 12.1273 1.7956
12.2922 13.1925 1.7830
5.0442 6.4903 0.8128
4.5468 7.0738 0.8315
8.1750 15.6310 1.7442
5.2730 12.7383 1.3632
5.1810 16.5684 1.7165
3.6655 16.8934 1.7093
2.3309 18.6610 1.8596
0.2588 7.4217 0.7343
-0.4054 7.4261 0.7354
-2.6977 18.6116 1.8596
-4.3486 18.2964 1.8596
-5.9648 17.8350 1.8596
-6.9215 15.8318 1.7085
-8.3256 15.1838 1.7123
-9.6492 14.3817 1.7125
-10.8914 13.4585 1.7120
-12.0374 12.4198 1.7102
-13.0949 11.2927 1.7098
-14.0492 10.0774 1.7096
-14.8904 8.7812 1.7093
-8.9331 4.2429 0.9779
-16.2107 5.9913 1.7089
-16.6790 4.5195 1.7087
-16.9914 3.0080 1.7062
-17.2129 1.4807 1.7083
-17.2743 -0.0620 1.7081
-17.1977 -1.6039 1.7079
-16.9839 -3.1326 1.7077
-16.6344 -4.6359 1.7075
-16.1524 -6.1020 1.7073
-15.5416 -7.5190 1.7072
-11.8949 -7.1303 1.3713
-15.1668 -11.0446 1.8552
-14.1477 -12.3787 1.8588
-12.9911 -13.5979 1.8596
-11.7252 -14.7035 1.8596
-10.3656 -15.6916 1.8596
-8.9232 -16.5544 1.8596
-7.4182 -17.3054 1.8618
-5.8552 -17.9343 1.8655
-4.2393 -18.4234 1.8693
-2.5860 -18.7905 1.8755
-0.9024 -19.0397 1.8848
0.8034 -19.0993 1.8902
2.5109 -18.9918 1.8942
4.2051 -18.7301 1.8981
5.8720 -18.3153 1.9018
7.5301 -17.8277 1.9136
9.1770 -17.2444 1.9315
10.7764 -16.5037 1.9490
12.3114 -15.6083 1.9657
13.7657 -14.5629 1.9815
9.2025 -8.1387 1.2148
9.2163 -6.7867 1.1317
17.4053 -10.5596 2.0130
16.8050 -8.2408 1.8507
17.5695 -6.7443 1.8609
18.1872 -5.1731 1.8697
5.2486 -0.9970 0.5283
4.7474 -0.4682 0.4717
4.9296 -0.0439 0.4875
18.8401 1.5198 1.8690
18.5560 3.1833 1.8616
18.1155 4.8055 1.8532
17.5252 6.3714 1.8439
16.7928 7.8669 1.8337
15.6372 9.1098 1.7895
14.4832 10.2723 1.7557
13.8412 11.8084 1.7990
12.6432 12.9068 1.7865
5.3461 6.5348 0.8349
4.6350 6.8294 0.8161
8.5809 15.4538 1.7478
7.1139 16.0388 1.7349
5.6092 16.4797 1.7213
4.0893 16.8076 1.7104
2.6809 17.8273 1.7826
0.4447 7.4204 0.7351
-0.2194 7.4249 0.7345
-2.2316 18.6732 1.8596
-3.8899 18.3993 1.8596
-5.5171 17.9786 1.8596
-6.5195 15.9898 1.7074
-7.9387 15.3779 1.7112
-9.2867 14.6184 1.7125
-10.5547 13.7306 1.7125
-11.7264 12.7203 1.7107
-12.8089 11.6168 1.7099
-13.7936 10.4257 1.7097
-14.6669 9.1510 1.7094
-8.6061 4.3545 0.9537
-16.0564 6.3949 1.7089
-16.5613 4.9352 1.7088
-16.9339 3.4364 1.7086
-17.1710 1.9106 1.7084
-17.2710 0.3698 1.7082
-17.2330 -1.1736 1.7080
-17.0574 -2.7072 1.7078
-16.7456 -4.2188 1.7076
-16.3004 -5.6965 1.7074
-15.7249 -7.1283 1.7072
-8.5571 -4.8429 0.9722
-15.4261 -10.6538 1.8538
-14.4488 -12.0180 1.8583
-13.3270 -13.2689 1.8596
-12.0890 -14.4058 1.8596
-10.7546 -15.4276 1.8596
-9.3342 -16.3262 1.8596
-7.8442 -17.1053 1.8607
-6.2981 -17.7723 1.8644
-4.6957 -18.3010 1.8682
-3.0507 -18.6942 1.8729
-1.3763 -18.9870 1.8824
0.3255 -19.0997 1.8889
2.0341 -19.0374 1.8931
3.7335 -18.8188 1.8971
5.4094 -18.4466 1.9008
7.0687 -17.9760 1.9100
8.7206 -17.4234 1.9266
10.3349 -16.7265 1.9442
11.8896 -15.8740 1.9611
13.3682 -14.8700 1.9772
14.7539 -13.7207 1.9922
9.3827 -7.2778 1.1741
9.7448 -6.2505 1.1447
16.5668 -8.6442 1.8477
17.3692 -7.1705 1.8581
18.0304 -5.6193 1.8674
18.5328 -4.0028 1.8748
4.7812 -0.5926 0.4764
4.8552 -0.1647 0.4804
18.8910 1.0494 1.8708
18.6514 2.7216 1.8638
18.2541 4.3569 1.8557
17.7049 5.9401 1.8466
17.0114 7.4565 1.8366
15.9687 8.7758 1.8017
14.8016 9.9515 1.7636
13.6741 11.0874 1.7407
12.9875 12.6116 1.7901
5.6443 6.5578 0.8555
4.7740 6.6691 0.8110
8.9831 15.2661 1.7515
7.5282 15.8889 1.7385
6.0347 16.3759 1.7257
4.5112 16.7111 1.7116
2.9940 17.0068 1.7075
1.5940 18.7384 1.8596
-0.0337 7.4236 0.7341
-0.6999 7.4281 0.7378
-3.4288 18.4908 1.8596
-5.0660 18.1109 1.8596
-6.2373 16.4632 1.7408
-7.5472 15.5620 1.7102
-8.9184 14.8458 1.7125
-10.2083 13.9904 1.7125
-11.4079 13.0131 1.7112
-12.5149 11.9337 1.7099
-13.5291 10.7676 1.7097
-14.4342 9.5151 1.7095
-8.6087 4.6297 0.9665
-15.8920 6.7944 1.7090
-16.4333 5.3478 1.7088
-16.8432 3.8588 1.7086
-16.3260 2.2310 1.6293
-17.2569 0.8014 1.7082
-17.2575 -0.7424 1.7080
-17.1203 -2.2800 1.7078
-16.8464 -3.7990 1.7076
-16.4383 -5.2874 1.7074
-15.8986 -6.7332 1.7072
-15.2333 -8.1254 1.7072
-15.6939 -10.2689 1.8545
-14.7409 -11.6501 1.8578
-13.6545 -12.9316 1.8596
-12.4454 -14.0991 1.8596
-11.1368 -15.1540 1.8596
-9.7394 -16.0878 1.8596
-8.2650 -16.8949 1.8597
-6.7366 -17.5995 1.8634
-5.1488 -18.1674 1.8671
-3.5132 -18.5917 1.8709
-1.8479 -18.9197 1.8797
-0.1519 -19.0858 1.8873
1.5567 -19.0709 1.8920
3.2600 -18.8954 1.8960
4.9440 -18.5660 1.8998
6.6055 -18.1154 1.9066
8.2608 -17.5901 1.9216
9.8888 -16.9372 1.9393
11.4617 -16.1279 1.9564
12.9634 -15.1656 1.9728
14.3767 -14.0563 1.9881
15.6819 -12.8044 2.0019
9.4341 -6.3897 1.1267
16.3176 -9.0402 1.8446
17.1579 -7.5907 1.8552
17.8611 -6.0603 1.8650
18.4088 -4.4604 1.8729
4.8248 -0.7209 0.4824
4.7648 -0.2810 0.4720
18.9291 0.5774 1.8726
18.7345 2.2571 1.8659
18.3808 3.9043 1.8580
17.8734 5.5035 1.8492
17.2194 7.0400 1.8395
16.3050 8.4370 1.8153
15.1231 9.6277 1.7727
13.9866 10.7727 1.7457
13.3246 12.3070 1.7936
12.0869 13.3528 1.7809
4.9345 6.5415 0.8102
4.5416 7.2945 0.8497
7.9395 15.7283 1.7421
5.0793 12.7886 1.3606
4.9353 16.6195 1.7143
3.4205 16.9380 1.7086
2.0619 18.6927 1.8596
0.1519 7.4224 0.7341
-0.5129 7.4269 0.7361
-2.9655 18.5708 1.8596
-4.6117 18.2318 1.8596
-6.2174 17.7366 1.8584
-7.1514 15.7361 1.7091
-8.5445 15.0642 1.7125
-9.8554 14.2413 1.7125
-11.0823 13.2980 1.7117
-12.2131 12.2432 1.7100
-13.2560 11.1027 1.7098
-14.1925 9.8735 1.7096
-15.0150 8.5656 1.7093
-15.7177 7.1898 1.7091
-16.2950 5.7571 1.7089
-16.7420 4.2787 1.7087
-16.9923 2.7563 1.7022
-17.2321 1.2326 1.7083
-17.2713 -0.3108 1.7081
-17.1725 -1.8514 1.7079
-16.9366 -3.3769 1.7077
-16.5657 -4.8750 1.7075
-16.0625 -6.3339 1.7073
-15.4316 -7.7421 1.7072
-14.6788 -9.0890 1.7072
-15.0239 -11.2753 1.8574
-13.9701 -12.5833 1.8591
-12.7939 -13.7836 1.8596
-11.5121 -14.8708 1.8596
-10.1384 -15.8393 1.8596
-8.6838 -16.6812 1.8596
-7.1705 -17.4160 1.8623
-5.5980 -18.0227 1.8661
-3.9749 -18.4887 1.8699
-2.3169 -18.8410 1.8770
-0.6284 -19.0600 1.8857
1.0789 -19.0924 1.8909
2.7851 -18.9600 1.8949
4.4759 -18.6735 1.8987
6.1377 -18.2365 1.9026
7.7980 -17.7444 1.9165
9.4384 -17.1356 1.9344
11.0285 -16.3698 1.9517
12.5517 -15.4498 1.9683
8.1141 -8.3400 1.1506
15.3311 -13.1702 1.9985
9.2603 -6.6155 1.1253
16.0578 -9.4284 1.8413
16.9373 -8.0052 1.8524
17.6796 -6.4959 1.8624
18.2719 -4.9138 1.8709
4.9695 -0.8700 0.4989
4.7538 -0.3998 0.4717
4.9516 0.0272 0.4896
18.8051 1.7899 1.8679
18.4954 3.4479 1.8603
18.0304 5.0620 1.8518
17.4166 6.6175 1.8423
16.6466 8.0928 1.8302
15.4481 9.3002 1.7830
14.3010 10.4559 1.7517
13.6545 11.9933 1.7970
12.4417 13.0726 1.7845
5.1256 6.4528 0.8149
4.5851 6.9698 0.8249
8.3475 15.5572 1.7458
5.4506 12.7824 1.3740
5.3614 16.5286 1.7182
3.8454 16.8583 1.7098
2.5285 18.6353 1.8596
0.3376 7.4211 0.7346
-0.3265 7.4256 0.7350
-2.5004 18.6391 1.8596
-4.1546 18.3414 1.8596
-5.7755 17.8972 1.8596
-6.7516 15.9000 1.7081
-8.1622 15.2672 1.7118
-9.4963 14.4830 1.7125
-10.7495 13.5748 1.7122
-11.9065 12.5481 1.7104
-12.9747 11.4309 1.7098
-13.9420 10.2257 1.7096
-14.7969 8.9384 1.7094
-8.7213 4.2562 0.9596
-16.1465 6.1628 1.7089
-16.6304 4.6960 1.7087
-16.9813 3.1921 1.7085
-17.1964 1.6630 1.7083
-16.3338 0.1144 1.6151
-17.2140 -1.4216 1.7079
-17.0163 -2.9526 1.7077
-16.6828 -4.4595 1.7075
-16.2164 -5.9306 1.7073
-15.6203 -7.3539 1.7072
-8.4800 -4.9619 0.9715
-15.2774 -10.8793 1.8545
-14.2764 -12.2268 1.8586
-13.1344 -13.4595 1.8596
-11.8803 -14.5784 1.8596
-10.5312 -15.5809 1.8596
-9.0980 -16.4589 1.8596
-7.5994 -17.2219 1.8613
-6.0434 -17.8670 1.8650
-4.4331 -18.3729 1.8688
-2.7833 -18.7510 1.8744
-1.1036 -19.0207 1.8839
0.6009 -19.1018 1.8897
2.3089 -19.0126 1.8938
4.0055 -18.7691 1.8977
5.6763 -18.3724 1.9014
7.3341 -17.8899 1.9118
8.9841 -17.3218 1.9294
10.5899 -16.5996 1.9469
12.1334 -15.7223 1.9637
13.5982 -14.6944 1.9797
9.1221 -8.2415 1.2156
9.2151 -6.9376 1.1405
17.2869 -10.7400 2.0124
16.7054 -8.4127 1.8495
17.4860 -6.9257 1.8597
18.1223 -5.3628 1.8687
18.5984 -3.7374 1.8758
4.7564 -0.5201 0.4731
4.8813 -0.0952 0.4828
18.8632 1.3207 1.8698
18.5979 2.9880 1.8626
18.1757 4.6160 1.8543
17.6027 6.1893 1.8450
16.8867 7.6938 1.8349
15.7771 8.9688 1.7945
14.6178 10.1367 1.7589
13.9768 11.6706 1.8005
12.7899 12.7828 1.7880
5.4942 6.5725 0.8471
4.6865 6.7503 0.8126
8.7518 15.3756 1.7494
7.2898 15.9766 1.7364
5.7912 16.4414 1.7236
4.2683 16.7680 1.7109
2.7482 17.0447 1.7072
0.5236 7.4199 0.7355
-0.1407 7.4243 0.7343
-2.0337 18.6958 1.8596
-3.6948 18.4395 1.8596
-5.3264 18.0360 1.8596
-6.3486 16.0552 1.7072
-7.7733 15.4571 1.7108
-9.1314 14.7159 1.7125
-10.4088 13.8419 1.7125
-11.5923 12.8453 1.7109
-12.6853 11.7519 1.7099
-13.6825 10.5714 1.7097
-14.5694 9.3061 1.7094
-8.5869 4.4597 0.9568
-15.9879 6.5647 1.7090
-16.5083 5.1105 1.7088
-16.8967 3.6157 1.7086
-16.5847 2.0234 1.6521
-17.2663 0.5528 1.7082
-17.2447 -0.9909 1.7080
-17.0854 -2.5264 1.7078
-16.7896 -4.0412 1.7076
-16.3601 -5.5235 1.7074
-15.7997 -6.9614 1.7072
-12.0381 -6.6455 1.3597
-15.5335 -10.4866 1.8532
-14.5737 -11.8630 1.8581
-13.4668 -13.1269 1.8596
-12.2410 -14.2769 1.8596
-10.9174 -15.3128 1.8596
-9.5066 -16.2264 1.8596
-8.0232 -17.0174 1.8603
-6.4845 -17.7004 1.8640
-4.8882 -18.2457 1.8678
-3.2466 -18.6500 1.8718
-1.5764 -18.9599 1.8812
0.1232 -19.0953 1.8882
1.8319 -19.0531 1.8927
3.5331 -18.8527 1.8966
5.2125 -18.4986 1.9004
6.8728 -18.0367 1.9086
8.5262 -17.4956 1.9245
10.1464 -16.8173 1.9421
11.7091 -15.9830 1.9591
13.1975 -14.9967 1.9753
14.5951 -13.8643 1.9905
15.8760 -12.5860 2.0033
9.5804 -6.2894 1.1332
16.4625 -8.8130 1.8464
17.2807 -7.3492 1.8568
17.9601 -5.8068 1.8664
18.4818 -4.1972 1.8740
4.7914 -0.6454 0.4781
4.8268 -0.2149 0.4778
18.9087 0.8496 1.8716
18.6881 2.5251 1.8647
18.3092 4.1656 1.8567
17.7777 5.7557 1.8477
17.1008 7.2808 1.8378
16.1106 8.6328 1.8073
14.9375 9.8147 1.7673
13.8063 10.9543 1.7427
13.1312 12.4836 1.7915
5.8521 6.6552 0.8763
4.8381 6.6096 0.8099
9.1524 15.1835 1.7530
7.7029 15.8221 1.7401
4.9318 12.9585 1.3710
4.6892 16.6670 1.7120
3.1749 16.9790 1.7080
1.7923 18.7204 1.8596
0.0449 7.4231 0.7340
-0.6205 7.4276 0.7370
-3.2327 18.5261 1.8596
-4.8739 18.1635 1.8596
-6.2292 16.9827 1.7887
-7.3800 15.6370 1.7097
-8.7607 14.9396 1.7125
-10.0595 14.0976 1.7125
-11.2708 13.1348 1.7114
-12.3879 12.0657 1.7099
-13.4144 10.9104 1.7098
-14.3329 9.6678 1.7095
-15.1365 8.3482 1.7093
-15.8193 6.9625 1.7090
-16.3760 5.5216 1.7088
-16.8016 4.0370 1.7086
-16.3253 2.4073 1.6317
-17.2477 0.9842 1.7082
-17.2647 -0.5596 1.7080
-17.1437 -2.0985 1.7078
-16.8859 -3.6204 1.7076
-16.4935 -5.1130 1.7075
-15.9693 -6.5645 1.7073
-15.3185 -7.9635 1.7072
-14.5613 -9.3091 1.7089
-14.8620 -11.4921 1.8576
-13.7897 -12.7853 1.8594
-12.5940 -13.9665 1.8596
-11.2967 -15.0351 1.8596
-9.9093 -15.9837 1.8596
-8.4426 -16.8046 1.8596
-6.9210 -17.5230 1.8629
-5.3397 -18.1074 1.8667
-3.7093 -18.5504 1.8706
-2.0470 -18.8877 1.8785
-0.3540 -19.0763 1.8866
1.3543 -19.0815 1.8915
3.0589 -18.9243 1.8955
4.7459 -18.6130 1.8993
6.4083 -18.1702 1.9051
8.0650 -17.6570 1.9194
9.6984 -17.0228 1.9372
11.2789 -16.2318 1.9544
12.7897 -15.2875 1.9709
8.2249 -8.2138 1.1494
15.5365 -12.9624 2.0007
9.3462 -6.4756 1.1243
16.2088 -9.2057 1.8432
17.0658 -7.7671 1.8540
17.7856 -6.2456 1.8639
18.3523 -4.6531 1.8721
4.8918 -0.7839 0.4899
4.7557 -0.3311 0.4714
5.1079 0.1017 0.5052
18.7659 2.0594 1.8667
18.4308 3.7113 1.8590
17.9413 5.3170 1.8503
17.3043 6.8617 1.8407
16.4491 8.2918 1.8215
15.2604 9.4894 1.7769
14.1195 10.6387 1.7481
13.4654 12.1752 1.7950
12.2381 13.2352 1.7824
5.0151 6.5039 0.8121
4.5445 7.1298 0.8360
8.1128 15.6571 1.7437
5.2215 12.7512 1.3625
5.1160 16.5822 1.7159
3.6008 16.9055 1.7091
2.2597 18.6698 1.8596
0.2305 7.4218 0.7342
-0.4338 7.4263 0.7356
-2.7686 18.6011 1.8596
-4.4183 18.2797 1.8596
-6.0327 17.8122 1.8596
-6.9825 15.8068 1.7087
-8.3842 15.1533 1.7124
-9.7040 14.3449 1.7125
-10.9421 13.4163 1.7119
-12.0841 12.3733 1.7102
-13.1378 11.2426 1.7098
-14.0874 10.0235 1.7096
-14.9237 8.7244 1.7093
-15.6409 7.3560 1.7091
-16.2333 5.9294 1.7089
-16.6960 4.4559 1.7087
-16.9917 2.9413 1.7051
-17.2183 1.4151 1.7083
-17.2738 -0.1279 1.7081
-17.1914 -1.6694 1.7079
-16.9717 -3.1973 1.7077
-16.6166 -4.6993 1.7075
-16.1290 -6.1634 1.7073
-15.5128 -7.5782 1.7072
-14.7742 -8.9330 1.7072
-15.1293 -11.1057 1.8558
-14.1009 -12.4331 1.8589
-12.9392 -13.6473 1.8596
-11.6691 -14.7480 1.8596
-10.3057 -15.7310 1.8596
-8.8600 -16.5883 1.8596
-7.3529 -17.3350 1.8619
-5.7872 -17.9580 1.8656
-4.1694 -18.4410 1.8695
-2.5149 -18.8042 1.8759
-0.8299 -19.0455 1.8850
0.8763 -19.0978 1.8904
2.5834 -18.9838 1.8944
4.2768 -18.7155 1.8983
5.9422 -18.2942 1.9020
7.6011 -17.8061 1.9144
9.2464 -17.2160 1.9323
10.8432 -16.4686 1.9497
12.3752 -15.5667 1.9664
13.8257 -14.5151 1.9821
9.2566 -8.1239 1.2178
9.2280 -6.7413 1.1300
15.9447 -9.5905 1.8398
16.8404 -8.1787 1.8512
17.5990 -6.6788 1.8613
18.2100 -5.1046 1.8700
5.1671 -0.9611 0.5197
4.7491 -0.4501 0.4717
4.9525 -0.0253 0.4897
18.8313 1.5914 1.8687
18.5403 3.2534 1.8613
18.0934 4.8735 1.8528
17.4968 6.4367 1.8434
16.7586 7.9288 1.8332
15.5870 9.1603 1.7877
14.4349 10.3210 1.7546
13.7921 11.8576 1.7985
12.5901 12.9509 1.7860
5.2942 6.5219 0.8306
4.6219 6.8662 0.8184
8.5193 15.4815 1.7473
7.0505 16.0607 1.7344
5.5437 16.4930 1.7205
4.0249 16.8214 1.7103
2.6727 18.2458 1.8234
0.4164 7.4206 0.7349
-0.2477 7.4251 0.7346
-2.3028 18.6645 1.8596
-3.9600 18.3844 1.8596
-5.5856 17.9574 1.8596
-6.5811 15.9663 1.7076
-7.9980 15.3489 1.7114
-9.3424 14.5829 1.7125
-10.6065 13.6897 1.7124
-11.7743 12.6750 1.7106
-12.8530 11.5679 1.7098
-13.8332 10.3730 1.7097
-14.7016 9.0951 1.7094
-8.6166 4.3187 0.9530
-16.0805 6.3336 1.7089
-16.5799 4.8720 1.7087
-16.9467 3.3719 1.7085
-17.1781 1.8451 1.7083
-16.3332 0.2875 1.6153
-17.2283 -1.2392 1.7079
-17.0469 -2.7722 1.7077
-16.7293 -4.2826 1.7075
-16.2785 -5.7585 1.7074
-15.6975 -7.1881 1.7072
-8.5249 -4.8677 0.9707
-15.3871 -10.7136 1.8540
-14.4035 -12.0735 1.8584
-13.2763 -13.3196 1.8596
-12.0341 -14.4517 1.8596
-10.6957 -15.4685 1.8596
-9.2719 -16.3616 1.8596
-7.7797 -17.1365 1.8609
-6.2308 -17.7977 1.8646
-4.6264 -18.3204 1.8684
-2.9801 -18.7096 1.8733
-1.3042 -18.9963 1.8828
0.3984 -19.1008 1.8891
2.1068 -19.0312 1.8933
3.8055 -18.8060 1.8972
5.4801 -18.4273 1.9010
7.1389 -17.9536 1.9105
8.7905 -17.3969 1.9273
10.4025 -16.6933 1.9449
11.9543 -15.8343 1.9618
13.4293 -14.8239 1.9778
14.8107 -13.6686 1.9928
9.2744 -7.1374 1.1572
9.8048 -6.2364 1.1490
16.6038 -8.5832 1.8482
17.4005 -7.1060 1.8585
18.0551 -5.5516 1.8678
18.5506 -3.9327 1.8751
4.7746 -0.5733 0.4755
4.8621 -0.1464 0.4810
18.8841 1.1212 1.8705
18.6376 2.7922 1.8635
18.2337 4.4256 1.8553
17.6783 6.0062 1.8462
16.9788 7.5195 1.8361
15.9178 8.8270 1.7998
14.7529 10.0006 1.7623
13.9351 11.3873 1.7795
12.9354 12.6572 1.7895
5.6193 6.5792 0.8555
4.7509 6.6906 0.8114
8.9221 15.2955 1.7509
7.4652 15.9124 1.7380
5.9704 16.3937 1.7252
4.4470 16.7265 1.7114
2.9289 17.0164 1.7073
1.5225 18.7443 1.8596
-0.0620 7.4238 0.7341
-0.7285 7.4283 0.7380
-3.4992 18.4776 1.8596
-5.1350 18.0914 1.8596
-6.2401 16.2830 1.7242
-7.6071 15.5346 1.7104
-8.9750 14.8117 1.7125
-10.2616 13.9515 1.7125
-11.4569 12.9690 1.7111
-12.5602 11.8858 1.7099
-13.5699 10.7159 1.7097
-14.4703 9.4600 1.7095
-8.5930 4.5791 0.9628
-15.9177 6.7338 1.7090
-16.4535 5.2851 1.7088
-16.8577 3.7946 1.7086
-16.3262 2.1676 1.6285
-17.2598 0.7357 1.7082
-17.2545 -0.8082 1.7080
-17.1114 -2.3453 1.7078
-16.8317 -3.8632 1.7076
-16.4179 -5.3500 1.7074
-15.8728 -6.7937 1.7072
-12.3408 -6.6431 1.3858
-15.6479 -10.3242 1.8537
-14.6970 -11.7067 1.8579
-13.6051 -12.9836 1.8596
-12.3916 -14.1464 1.8596
-11.0790 -15.1963 1.8596
-9.6780 -16.1248 1.8596
-8.2012 -16.9276 1.8599
-6.6700 -17.6265 1.8635
-5.0799 -18.1885 1.8673
-3.4424 -18.6055 1.8709
-1.7761 -18.9307 1.8801
-0.0791 -19.0887 1.8875
1.6295 -19.0666 1.8922
3.3324 -18.8845 1.8961
5.0151 -18.5494 1.8999
6.6763 -18.0950 1.9071
8.3311 -17.5655 1.9223
9.9571 -16.9059 1.9400
11.5274 -16.0899 1.9571
13.0255 -15.1213 1.9734
14.4348 -14.0058 1.9888
15.7335 -12.7470 2.0022
9.4658 -6.3586 1.1276
16.3563 -8.9803 1.8450
17.1902 -7.5268 1.8556
17.8877 -5.9934 1.8654
18.4285 -4.3908 1.8732
4.8181 -0.7011 0.4814
17.1028 -4.4057 1.8563
4.8293 -0.7928 0.5144
4.7364 -0.3479 0.4992
5.0233 0.0808 0.5280
17.5832 1.8618 1.8584
17.2801 3.4111 1.8513
16.8326 4.9187 1.8432
16.2468 6.3708 1.8342
15.5302 7.7545 1.8245
14.6914 9.0581 1.8140
13.7403 10.2711 1.8031
12.6874 11.3842 1.7916
11.5438 12.3894 1.7798
5.0172 6.4556 0.8593
4.5278 7.0441 0.8801
7.6875 14.6989 1.7434
5.3358 12.8900 1.4663
4.8627 15.5506 1.7125
3.4473 15.8876 1.7087
2.1929 17.5560 1.8596
0.2588 7.4220 0.7806
-0.4055 7.4265 0.7817
-2.5379 17.5094 1.8596
-4.0911 17.2129 1.8596
-5.6116 16.7789 1.8596
-6.5074 14.8847 1.7074
-7.8265 14.2736 1.7109
-9.0778 13.5300 1.7125
-10.2496 12.6655 1.7125
-11.3317 11.6917 1.7113
-12.3197 10.6241 1.7098
-13.2169 9.4802 1.7096
-14.0091 8.2614 1.7094
-8.8871 4.2211 1.0341
-15.2509 5.6363 1.7089
-15.6912 4.2519 1.7087
-16.0063 2.8336 1.7085
-16.1935 1.3930 1.7083
-16.2514 -0.0584 1.7081
-16.1796 -1.5089 1.7079
-15.9788 -2.9472 1.7078
-15.6500 -4.3616 1.7076
-15.1963 -5.7408 1.7074
-14.6215 -7.0739 1.7072
-11.8792 -7.1208 1.4557
-14.3004 -10.4137 1.8593
-13.3152 -11.6503 1.8596
-12.2218 -12.7926 1.8596
-11.0308 -13.8328 1.8596
-9.7517 -14.7624 1.8596
-8.3948 -15.5741 1.8596
-6.9832 -16.2906 1.8629
-5.5112 -16.8806 1.8664
-3.9897 -17.3389 1.8700
-2.4368 -17.7065 1.8786
-0.8491 -17.9137 1.8849
0.7554 -17.9579 1.8891
2.3605 -17.8545 1.8929
3.9528 -17.6063 1.8966
5.5190 -17.2144 1.9000
7.0705 -16.7396 1.9099
8.6054 -16.1702 1.9252
10.0994 -15.4669 1.9415
11.5318 -14.6198 1.9571
12.8754 -13.6211 1.9700
9.2025 -8.1387 1.2912
9.2463 -6.8088 1.2069
14.8608 -9.0159 1.8269
15.6874 -7.6928 1.8364
16.3983 -6.2947 1.8462
16.9695 -4.8267 1.8543
5.1539 -0.9790 0.5514
4.7300 -0.4665 0.4996
4.9101 -0.0437 0.5161
17.6414 1.4231 1.8602
17.3796 2.9815 1.8534
16.9720 4.5022 1.8455
16.4241 5.9711 1.8368
15.7433 7.3752 1.8273
14.9377 8.7023 1.8170
14.0170 9.9416 1.8062
12.9914 11.0835 1.7949
11.8720 12.1196 1.7832
5.2332 6.3968 0.8687
4.6009 6.7792 0.8611
8.0682 14.5305 1.7469
6.6904 15.0840 1.7343
5.2678 15.4769 1.7183
3.8457 15.8062 1.7098
2.6310 17.4957 1.8596
0.4447 7.4208 0.7814
-0.2194 7.4253 0.7808
-2.0995 17.5674 1.8596
-3.6596 17.3098 1.8596
-5.1904 16.9139 1.8596
-6.2365 15.2956 1.7361
-7.4631 14.4565 1.7100
-8.7368 13.7527 1.7125
-9.9298 12.9177 1.7125
-11.0388 11.9744 1.7118
-12.0531 10.9313 1.7102
-12.9761 9.8078 1.7096
-13.7986 8.6093 1.7094
-8.5607 4.3316 1.0084
-15.1057 6.0162 1.7090
-15.5806 4.6430 1.7087
-15.9310 3.2329 1.7085
-16.1541 1.7974 1.7083
-16.2483 0.3479 1.7082
-16.2127 -1.1040 1.7080
-16.0480 -2.5470 1.7078
-15.7547 -3.9692 1.7076
-15.3356 -5.3593 1.7074
-14.7942 -6.7064 1.7072
-8.5568 -4.8428 1.0334
-13.3649 -9.2302 1.7072
-13.6022 -11.3139 1.8596
-12.5378 -12.4831 1.8596
-11.3731 -13.5527 1.8596
-10.1177 -14.5140 1.8596
-8.7814 -15.3594 1.8596
-7.3845 -16.1027 1.8619
-5.9283 -16.7287 1.8654
-4.4195 -17.2243 1.8690
-2.8749 -17.6172 1.8761
-1.2955 -17.8727 1.8834
0.3061 -17.9608 1.8880
1.9124 -17.8980 1.8919
3.5096 -17.6903 1.8956
5.0844 -17.3384 1.8991
6.6392 -16.8838 1.9068
8.1787 -16.3407 1.9206
9.6871 -15.6782 1.9370
11.1384 -14.8709 1.9528
12.5104 -13.9158 1.9668
13.7785 -12.8136 1.9776
14.9336 -11.5835 1.9864
9.7902 -6.2797 1.2225
15.4667 -8.0702 1.8336
16.2130 -6.6932 1.8435
16.8245 -5.2435 1.8522
17.2888 -3.7341 1.8590
4.7616 -0.5901 0.5043
4.8449 -0.1643 0.5095
17.6879 0.9826 1.8619
17.4677 2.5489 1.8554
17.1004 4.0816 1.8478
16.5911 5.5663 1.8393
15.9466 6.9898 1.8300
15.1750 8.3396 1.8199
14.2855 9.6045 1.8093
13.2881 10.7745 1.7981
12.1939 11.8409 1.7865
5.5960 6.5017 0.9016
4.7473 6.6318 0.8572
8.4453 14.3522 1.7503
7.0806 14.9443 1.7381
5.6652 15.3734 1.7220
4.2422 15.7149 1.7108
2.8161 15.9964 1.7072
0.8791 10.3344 1.0901
-0.0337 7.4240 0.7803
-0.6999 7.4285 0.7842
-3.2257 17.3959 1.8596
-4.7660 17.0384 1.8596
-6.2180 16.4122 1.8446
-7.0953 14.6302 1.7090
-8.3901 13.9664 1.7124
-9.6038 13.1618 1.7125
-10.7388 12.2498 1.7122
-11.7789 11.2319 1.7106
-12.7272 10.1294 1.7096
-13.5795 8.9517 1.7095
-8.5617 4.6044 1.0217
-14.9512 6.3919 1.7090
-15.4602 5.0312 1.7088
-15.8457 3.6302 1.7086
-16.1046 2.2007 1.7084
-16.2350 0.7540 1.7082
-16.2357 -0.6985 1.7080
-16.1070 -2.1453 1.7079
-15.8495 -3.5742 1.7077
-15.4653 -4.9745 1.7075
-14.9577 -6.3347 1.7073
-14.3312 -7.6442 1.7072
-13.5915 -8.8933 1.7072
-13.8808 -10.9703 1.8596
-12.8459 -12.1658 1.8596
-11.7084 -13.2642 1.8596
-10.4773 -14.2566 1.8596
-9.1626 -15.1351 1.8596
-7.7808 -15.9051 1.8610
-6.3412 -16.5666 1.8644
-4.8460 -17.0991 1.8680
-3.3101 -17.5173 1.8737
-1.7405 -17.8207 1.8819
-0.1428 -17.9524 1.8869
1.4636 -17.9302 1.8908
3.0646 -17.7630 1.8945
4.6471 -17.4512 1.8981
6.2044 -17.0153 1.9036
7.7487 -16.4996 1.9159
9.2704 -15.8781 1.9325
10.7392 -15.1110 1.9485
12.1377 -14.1997 1.9634
8.3889 -8.2019 1.2331
14.6229 -11.9397 1.9842
9.4619 -6.4084 1.2011
15.2358 -8.4409 1.8307
16.0168 -7.0859 1.8408
16.6680 -5.6555 1.8500
17.1742 -4.1612 1.8573
4.8048 -0.7179 0.5106
4.7474 -0.2800 0.4998
17.7225 0.5406 1.8636
17.5443 2.1137 1.8573
17.2176 3.6572 1.8500
16.7474 5.1568 1.8418
16.1400 6.5987 1.8327
15.4030 7.9703 1.8228
14.5455 9.2600 1.8123
13.5773 10.4574 1.8012
12.5089 11.5536 1.7897
11.3519 12.5408 1.7779
4.9020 6.4984 0.8555
4.6361 7.4463 0.9219
7.4665 14.7914 1.7415
5.1391 12.9391 1.4633
4.6366 15.6135 1.7119
3.2169 15.9298 1.7081
1.9398 17.5857 1.8596
0.1519 7.4228 0.7803
-0.5129 7.4273 0.7825
-2.7899 17.4711 1.8596
-4.3386 17.1522 1.8596
-5.8527 16.6963 1.8596
-6.7235 14.7944 1.7080
-8.0339 14.1639 1.7115
-9.2718 13.3978 1.7125
-10.4310 12.5165 1.7125
-11.4973 11.5256 1.7111
-12.4704 10.4452 1.7097
-13.3518 9.2886 1.7095
-14.1264 8.0586 1.7093
-14.7873 6.7641 1.7091
-15.3301 5.4163 1.7089
-15.7505 4.0254 1.7087
-16.0451 2.6027 1.7085
-16.2116 1.1596 1.7083
-16.2486 -0.2924 1.7081
-16.1560 -1.7420 1.7079
-15.9344 -3.1771 1.7077
-15.5853 -4.5865 1.7075
-15.1118 -5.9590 1.7073
-14.5178 -7.2837 1.7072
-13.8095 -8.5507 1.7072
-14.1507 -10.6199 1.8596
-13.1460 -11.8410 1.8596
-12.0363 -12.9674 1.8596
-10.8304 -13.9902 1.8596
-9.5381 -14.9013 1.8596
-8.1719 -15.6979 1.8601
-6.7498 -16.3944 1.8634
-5.2691 -16.9635 1.8670
-3.7423 -17.4071 1.8714
-2.1832 -17.7532 1.8800
-0.5913 -17.9321 1.8858
1.0144 -17.9510 1.8897
2.6183 -17.8243 1.8935
4.2073 -17.5528 1.8971
5.7680 -17.1380 1.9006
7.3176 -16.6513 1.9117
8.8497 -16.0667 1.9279
10.3347 -15.3400 1.9441
11.7558 -14.4702 1.9595
8.0924 -8.3177 1.2197
14.3024 -12.2865 1.9818
9.2886 -6.6357 1.1998
14.9994 -8.8069 1.8282
15.8100 -7.4724 1.8379
16.5001 -6.0626 1.8476
17.0477 -4.5846 1.8555
4.9361 -0.8641 0.5267
4.7364 -0.3984 0.4996
4.9969 0.0275 0.5252
17.6093 1.6761 1.8592
17.3237 3.2294 1.8522
16.8930 4.7427 1.8442
16.3232 6.2020 1.8353
15.6216 7.5945 1.8256
14.7969 8.9082 1.8153
13.8586 10.1324 1.8044
12.8171 11.2578 1.7930
11.6837 12.2761 1.7812
5.1058 6.4278 0.8628
4.5582 6.9289 0.8717
7.8492 14.6287 1.7449
5.4719 12.8325 1.4663
5.0390 15.5346 1.7165
3.6163 15.8543 1.7092
2.3787 17.5318 1.8596
0.3376 7.4215 0.7808
-0.3266 7.4260 0.7813
-2.3523 17.5353 1.8596
-3.9085 17.2553 1.8596
-5.4335 16.8374 1.8596
-6.3484 14.9504 1.7072
-7.6730 14.3522 1.7105
-8.9340 13.6254 1.7125
-10.1148 12.7732 1.7125
-11.2084 11.8124 1.7115
-12.2076 10.7551 1.7100
-13.1158 9.6198 1.7096
-13.9209 8.4095 1.7094
-8.6536 4.2231 1.0121
-15.1905 5.7980 1.7089
-15.6455 4.4179 1.7087
-15.9756 3.0031 1.7085
-16.1780 1.5645 1.7083
-16.2513 0.1138 1.7081
-16.1949 -1.3374 1.7079
-16.0094 -2.7778 1.7078
-15.6956 -4.1956 1.7076
-15.2565 -5.5795 1.7074
-14.6958 -6.9187 1.7072
-8.4797 -4.9617 1.0326
-13.2306 -9.4218 1.7072
-13.4378 -11.5086 1.8596
-12.3566 -12.6625 1.8596
-11.1768 -13.7151 1.8596
-9.9076 -14.6582 1.8596
-8.5592 -15.4842 1.8596
-7.1539 -16.2122 1.8625
-5.6884 -16.8175 1.8660
-4.1716 -17.2891 1.8693
-2.6228 -17.6699 1.8775
-1.0384 -17.8977 1.8843
0.5650 -17.9605 1.8887
2.1707 -17.8744 1.8925
3.7652 -17.6433 1.8961
5.3352 -17.2683 1.8996
6.8881 -16.8022 1.9086
8.4250 -16.2438 1.9233
9.9252 -15.5578 1.9396
11.3658 -14.7276 1.9553
12.7217 -13.7473 1.9686
9.1221 -8.2415 1.2921
9.2655 -6.9755 1.2190
14.7569 -9.1682 1.8260
15.5951 -7.8536 1.8352
16.3211 -6.4643 1.8451
16.9094 -5.0039 1.8534
17.3494 -3.4864 1.8599
4.7370 -0.5179 0.5008
4.8709 -0.0950 0.5121
17.6625 1.2366 1.8609
17.4184 2.7985 1.8542
17.0277 4.3244 1.8465
16.4962 5.8002 1.8379
15.8306 7.2126 1.8284
15.0394 8.5494 1.8183
14.1318 9.7997 1.8075
13.1181 10.9535 1.7962
12.0092 12.0026 1.7846
5.3500 6.3999 0.8767
4.6631 6.7166 0.8594
8.2285 14.4561 1.7483
6.8569 15.0278 1.7361
5.4365 15.4343 1.7199
4.0140 15.7688 1.7102
2.6845 16.6496 1.7725
0.5237 7.4203 0.7818
-0.1407 7.4247 0.7805
-1.1230 10.3237 1.0915
-3.4760 17.3476 1.8596
-5.0110 16.9680 1.8596
-6.2289 15.7524 1.7804
-7.3077 14.5313 1.7096
-8.5906 13.8444 1.7125
-9.7924 13.0222 1.7125
-10.9125 12.0920 1.7119
-11.9378 11.0594 1.7104
-12.8716 9.9449 1.7096
-13.7068 8.7551 1.7094
-8.5596 4.4455 1.0137
-15.0414 6.1758 1.7090
-15.5307 4.8078 1.7088
-15.8960 3.4016 1.7086
-16.1344 1.9685 1.7084
-16.2439 0.5201 1.7082
-16.2237 -0.9322 1.7080
-16.0742 -2.3769 1.7078
-15.7961 -3.8021 1.7076
-15.3917 -5.1966 1.7074
-14.8646 -6.5494 1.7073
-12.0184 -6.6347 1.4429
-13.4620 -9.0881 1.7072
-13.7213 -11.1691 1.8596
-12.6693 -12.3496 1.8596
-11.5161 -13.4314 1.8596
-10.2709 -14.4060 1.8596
-8.9437 -15.2654 1.8596
-7.5530 -16.0202 1.8615
-6.1038 -16.6612 1.8650
-4.6007 -17.1725 1.8685
-3.0597 -17.5761 1.8751
-1.4843 -17.8520 1.8828
0.1158 -17.9586 1.8876
1.7223 -17.9131 1.8914
3.3212 -17.7224 1.8951
4.8994 -17.3875 1.8987
6.4554 -16.9412 1.9055
7.9968 -16.4094 1.9186
9.5111 -15.7643 1.9351
10.9699 -14.9740 1.9510
12.3533 -14.0374 1.9653
13.6338 -12.9511 1.9764
14.8032 -11.7356 1.9855
9.6207 -6.3158 1.2096
15.3700 -8.2282 1.8324
16.1311 -6.8603 1.8424
16.7595 -5.4187 1.8513
17.2417 -3.9155 1.8583
4.7428 -0.6389 0.5030
4.7536 -0.2117 0.5001
17.7040 0.7954 1.8626
17.5016 2.3648 1.8562
17.1514 3.9022 1.8488
16.6586 5.3933 1.8404
16.0297 6.8248 1.8311
15.2728 8.1839 1.8212
14.3967 9.4594 1.8106
13.4116 10.6411 1.7994
12.3282 11.7202 1.7879
11.1579 12.6892 1.7760
4.8089 6.5697 0.8557
8.6040 14.2737 1.7517
7.2445 14.8807 1.7395
4.9852 13.0988 1.4731
4.4096 15.6732 1.7113
2.9860 15.9688 1.7075
1.6862 17.6119 1.8596
0.0449 7.4235 0.7803
-0.6206 7.4280 0.7834
-3.0413 17.4290 1.8596
-4.5853 17.0879 1.8596
-6.0926 16.6103 1.8596
-6.9382 14.7009 1.7086
-8.2398 14.0512 1.7120
-9.4638 13.2628 1.7125
-10.6097 12.3643 1.7124
-11.6605 11.3572 1.7108
-12.6194 10.2638 1.7097
-13.4840 9.0952 1.7095
-14.2407 7.8541 1.7093
-14.8829 6.5502 1.7091
-15.4063 5.1945 1.7088
-15.8066 3.7980 1.7086
-16.0806 2.3713 1.7084
-16.2263 0.9259 1.7082
-16.2424 -0.5265 1.7080
-16.1290 -1.9747 1.7079
-15.8867 -3.4061 1.7077
-15.5173 -4.8104 1.7075
-15.0241 -6.1759 1.7073
-14.4114 -7.4920 1.7072
-13.6849 -8.7488 1.7072
-13.9962 -10.8226 1.8596
-12.9741 -12.0290 1.8596
-11.8482 -13.1394 1.8596
-10.6278 -14.1448 1.8596
-9.3225 -15.0371 1.8596
-7.9471 -15.8185 1.8606
-6.5149 -16.4948 1.8640
-5.0258 -17.0429 1.8675
-3.4936 -17.4718 1.8727
-1.9286 -17.7953 1.8813
-0.3330 -17.9455 1.8865
1.2733 -17.9404 1.8904
2.8756 -17.7904 1.8941
4.4610 -17.4956 1.8977
6.0183 -17.0644 1.9018
7.5656 -16.5635 1.9139
9.0926 -15.9594 1.9305
10.5685 -15.2094 1.9466
11.9775 -14.3167 1.9619
8.1977 -8.1867 1.2177
14.4883 -12.0878 1.9832
9.3731 -6.4942 1.1985
15.1347 -8.5957 1.8294
15.9304 -7.2504 1.8396
16.5982 -5.8287 1.8490
17.1221 -4.3411 1.8565
4.8234 -0.7730 0.5134
4.7428 -0.3302 0.4997
5.0862 0.1012 0.5347
17.5733 1.9285 1.8581
17.2639 3.4763 1.8509
16.8104 4.9818 1.8428
16.2189 6.4313 1.8338
15.4968 7.8118 1.8240
14.6531 9.1117 1.8136
13.6974 10.3206 1.8026
12.6404 11.4293 1.7911
11.4933 12.4297 1.7793
4.9847 6.4644 0.8580
4.5204 7.0920 0.8839
7.6291 14.7237 1.7429
5.2774 12.8877 1.4637
4.8030 15.5676 1.7123
3.3864 15.8991 1.7085
2.1259 17.5642 1.8596
0.2305 7.4222 0.7805
-0.4338 7.4267 0.7819
-2.6047 17.4996 1.8596
-4.1567 17.1972 1.8596
-5.6755 16.7574 1.8596
-6.5647 14.8611 1.7076
-7.8815 14.2449 1.7111
-9.1293 13.4954 1.7125
-10.2978 12.6264 1.7125
-11.3758 11.6480 1.7112
-12.3596 10.5767 1.7098
-13.2528 9.4297 1.7095
-14.0404 8.2079 1.7094
-14.7151 6.9205 1.7091
-15.2721 5.5782 1.7089
-15.7072 4.1921 1.7087
-16.0169 2.7726 1.7085
-16.1986 1.3313 1.7083
-16.2510 -0.1203 1.7081
-16.1737 -1.5706 1.7079
-15.9674 -3.0081 1.7078
-15.6332 -4.4212 1.7076
-15.1743 -5.7986 1.7074
-14.5944 -7.1295 1.7072
-13.8993 -8.4040 1.7072
-14.2611 -10.4684 1.8594
-13.2706 -11.7010 1.8596
-12.1730 -12.8391 1.8596
-10.9780 -13.8747 1.8596
-9.6954 -14.7995 1.8596
-8.3360 -15.6072 1.8597
-6.9216 -16.3184 1.8630
-5.4472 -16.9029 1.8665
-3.9244 -17.3573 1.8704
-2.3698 -17.7192 1.8789
-0.7808 -17.9190 1.8851
0.8240 -17.9564 1.8893
2.4287 -17.8469 1.8931
4.0202 -17.5925 1.8967
5.5850 -17.1946 1.9002
7.1360 -16.7166 1.9104
8.6701 -16.1431 1.9259
10.1618 -15.4337 1.9422
11.5913 -14.5806 1.9577
8.0929 -8.4965 1.2333
9.2566 -8.1239 1.2945
9.2575 -6.7628 1.2050
14.8978 -8.9608 1.8272
15.7202 -7.6347 1.8368
16.4256 -6.2335 1.8465
16.9906 -4.7628 1.8546
5.0754 -0.9440 0.5426
4.7317 -0.4485 0.4996
4.9328 -0.0252 0.5185
17.6333 1.4901 1.8599
17.3652 3.0472 1.8530
16.9514 4.5659 1.8452
16.3978 6.0324 1.8364
15.7114 7.4334 1.8268
14.9008 8.7570 1.8166
13.9753 9.9923 1.8057
12.9456 11.1298 1.7944
11.8224 12.1613 1.7826
5.2000 6.4059 0.8672
4.5880 6.8159 0.8636
8.0104 14.5568 1.7463
6.6299 15.1028 1.7336
5.2071 15.4918 1.7178
3.7851 15.8193 1.7096
2.5643 17.5056 1.8596
0.4164 7.4210 0.7812
-0.2477 7.4255 0.7809
-2.1664 17.5593 1.8596
-3.7255 17.2957 1.8596
-5.2548 16.8940 1.8596
-6.2401 15.1392 1.7211
-7.5187 14.4292 1.7101
-8.7891 13.7193 1.7125
-9.9790 12.8797 1.7125
-11.0839 11.9318 1.7117
-12.0942 10.8849 1.7102
-13.0134 9.7583 1.7096
-13.8312 8.5566 1.7094
-8.5611 4.2909 1.0065
-15.1285 5.9587 1.7090
-15.5981 4.5835 1.7087
-15.9431 3.1722 1.7085
-16.1608 1.7358 1.7083
-16.2494 0.2860 1.7081
-16.2083 -1.1658 1.7080
-16.0381 -2.6080 1.7078
-15.7393 -4.0292 1.7076
-15.3150 -5.4177 1.7074
-14.7685 -6.7627 1.7072
-8.5247 -4.8676 1.0318
