ply
format ascii 1.0
element vertex 2177
property float32 x
property float32 y
property float32 z
end_header
-0.5924 -1.0560 0.3526
-0.4949 -1.1028 0.3520
-0.3940 -1.1410 0.3515
-0.2902 -1.1703 0.3511
-0.1845 -1.1907 0.3509
-0.0774 -1.2019 0.3507
0.0302 -1.2039 0.3507
0.1376 -1.1967 0.3508
0.2440 -1.1803 0.3510
0.3487 -1.1549 0.3513
0.4510 -1.1205 0.3517
0.5501 -1.0774 0.3523
0.6452 -1.0259 0.3529
0.7358 -0.9663 0.3537
0.8211 -0.8989 0.3545
0.9005 -0.8242 0.3555
0.9733 -0.7427 0.3565
1.0389 -0.6548 0.3576
5.1039 -2.6121 1.6696
5.3397 -2.1553 1.6768
5.5357 -1.6776 1.6844
5.6897 -1.1822 1.6922
5.8000 -0.6727 1.7003
5.8606 -0.1529 1.7071
5.8708 0.3722 1.7130
5.8340 0.8979 1.7188
5.7499 1.4199 1.7246
5.6188 1.9339 1.7304
5.4412 2.4356 1.7359
5.2182 2.9207 1.7413
1.0634 0.7270 0.3751
0.9974 0.8216 0.3763
0.9228 0.9101 0.3774
0.8402 0.9916 0.3785
0.7502 1.0652 0.3794
0.6535 1.1304 0.3802
0.5510 1.1865 0.3809
0.4436 1.2328 0.3815
0.3322 1.2690 0.3820
0.2178 1.2947 0.3823
0.1014 1.3097 0.3825
-0.0160 1.3137 0.3826
-0.1331 1.3067 0.3825
-0.2491 1.2889 0.3823
-0.3629 1.2603 0.3819
-0.4733 1.2213 0.3814
-0.5795 1.1723 0.3808
-0.6805 1.1137 0.3801
-0.7755 1.0462 0.3792
-0.8636 0.9703 0.3782
-0.9441 0.8868 0.3772
-1.0164 0.7966 0.3761
-5.4731 3.5495 1.8996
-5.7541 3.0393 1.8949
-0.9142 0.8754 0.3770
-0.9858 0.7880 0.3759
-1.0489 0.6947 0.3748
-5.5954 3.0248 1.8948
-5.8253 2.5056 1.8890
-6.0066 1.9693 1.8830
-6.1385 1.4206 1.8769
-6.2202 0.8640 1.8707
-6.2516 0.3043 1.8645
-6.2330 -0.2542 1.8583
-6.1590 -0.8061 1.8503
-6.0344 -1.3465 1.8418
-5.8636 -1.8713 1.8335
-5.6484 -2.3769 1.8255
-1.0641 -0.5644 0.3588
-1.0062 -0.6551 0.3577
-0.9409 -0.7401 0.3566
-0.8686 -0.8188 0.3556
-0.7900 -0.8908 0.3547
-0.7057 -0.9555 0.3539
-0.6163 -1.0126 0.3531
-0.5225 -1.0617 0.3525
-0.4250 -1.1025 0.3520
-0.3245 -1.1347 0.3516
-0.2218 -1.1582 0.3513
-0.1174 -1.1727 0.3511
-0.0123 -1.1783 0.3510
0.0930 -1.1748 0.3510
0.1976 -1.1623 0.3512
0.3008 -1.1409 0.3515
0.4019 -1.1107 0.3519
0.5001 -1.0719 0.3523
0.5948 -1.0247 0.3529
0.6852 -0.9694 0.3536
0.7708 -0.9064 0.3544
0.8507 -0.8360 0.3553
0.9245 -0.7588 0.3563
0.9915 -0.6753 0.3573
1.0511 -0.5859 0.3585
5.1353 -2.2879 1.6747
5.3421 -1.8282 1.6820
5.5086 -1.3501 1.6895
5.6331 -0.8569 1.6973
5.7125 -0.3521 1.7049
5.7403 0.1598 1.7106
5.7222 0.6738 1.7163
5.6579 1.1859 1.7220
5.5475 1.6917 1.7277
5.3915 2.1872 1.7332
5.1906 2.6679 1.7385
1.0621 0.6721 0.3744
1.0010 0.7666 0.3756
0.9314 0.8555 0.3767
0.8537 0.9378 0.3778
0.7685 1.0128 0.3787
0.6765 1.0798 0.3796
0.5785 1.1381 0.3803
0.4754 1.1872 0.3809
0.3680 1.2265 0.3814
0.2573 1.2557 0.3818
0.1443 1.2744 0.3821
0.0299 1.2826 0.3822
-0.0847 1.2800 0.3821
-0.1985 1.2668 0.3820
-0.3106 1.2431 0.3817
-0.4198 1.2090 0.3813
-0.5253 1.1650 0.3807
-0.6261 1.1115 0.3800
-0.7214 1.0490 0.3792
-0.8102 0.9781 0.3783
-0.8919 0.8995 0.3773
-0.9659 0.8139 0.3763
-1.0315 0.7222 0.3751
-5.5201 3.1712 1.8964
-5.7637 2.6577 1.8907
-5.9592 2.1259 1.8848
-6.1055 1.5803 1.8787
-6.2017 1.0256 1.8725
-6.2477 0.4663 1.8663
-6.2435 -0.0930 1.8601
-6.1861 -0.6475 1.8528
-6.0753 -1.1916 1.8442
-5.9177 -1.7213 1.8359
-5.7151 -2.2329 1.8278
-1.0794 -0.5373 0.3592
-1.0238 -0.6294 0.3580
-0.9605 -0.7161 0.3569
-0.8902 -0.7967 0.3559
-0.8134 -0.8707 0.3549
-0.7306 -0.9376 0.3541
-0.6427 -0.9969 0.3533
-0.5501 -1.0484 0.3527
-0.4536 -1.0916 0.3521
-0.3539 -1.1263 0.3517
-0.2517 -1.1523 0.3513
-0.1477 -1.1694 0.3511
-0.0427 -1.1776 0.3510
0.0626 -1.1767 0.3510
0.1674 -1.1668 0.3511
0.2711 -1.1480 0.3514
0.3729 -1.1203 0.3517
0.4720 -1.0840 0.3522
0.5678 -1.0392 0.3528
0.6596 -0.9862 0.3534
0.7466 -0.9254 0.3542
0.8282 -0.8571 0.3550
0.9038 -0.7818 0.3560
0.9728 -0.7000 0.3570
1.0347 -0.6123 0.3581
1.0887 -0.5192 0.3593
5.2863 -1.9632 1.6798
5.4647 -1.4901 1.6873
5.6015 -1.0009 1.6951
5.6950 -0.4991 1.7030
5.7369 0.0113 1.7090
5.7321 0.5252 1.7147
5.6812 1.0382 1.7204
5.5841 1.5463 1.7261
5.4412 2.0452 1.7316
5.2533 2.5306 1.7370
1.0781 0.6438 0.3740
1.0196 0.7398 0.3753
0.9524 0.8304 0.3764
0.8769 0.9147 0.3775
0.7938 0.9919 0.3785
0.7038 1.0613 0.3793
0.6074 1.1222 0.3801
0.5057 1.1740 0.3808
0.3994 1.2161 0.3813
0.2896 1.2483 0.3817
0.1771 1.2701 0.3820
0.0631 1.2813 0.3822
-0.0516 1.2819 0.3822
-0.1657 1.2717 0.3820
-0.2784 1.2510 0.3818
-0.3886 1.2199 0.3814
-0.4953 1.1788 0.3809
-0.5975 1.1279 0.3802
-0.6944 1.0680 0.3795
-0.7852 0.9994 0.3786
-0.8691 0.9230 0.3776
-0.9453 0.8394 0.3766
-1.0134 0.7493 0.3755
-1.0728 0.6538 0.3742
-5.6981 2.8083 1.8924
-5.9077 2.2813 1.8865
-6.0683 1.7392 1.8805
-6.1791 1.1867 1.8743
-6.2396 0.6282 1.8681
-6.2498 0.0685 1.8619
-6.2092 -0.4880 1.8554
-6.1122 -1.0355 1.8467
-5.9680 -1.5698 1.8383
-5.7782 -2.0870 1.8301
-5.5449 -2.5834 1.8222
-1.0406 -0.6033 0.3583
-0.9796 -0.6916 0.3572
-0.9112 -0.7740 0.3562
-0.8362 -0.8500 0.3552
-0.7551 -0.9190 0.3543
-0.6686 -0.9805 0.3535
-0.5773 -1.0343 0.3529
-0.4819 -1.0799 0.3523
-0.3830 -1.1171 0.3518
-0.2815 -1.1457 0.3514
-0.1779 -1.1654 0.3512
-0.0732 -1.1761 0.3510
0.0321 -1.1779 0.3510
0.1372 -1.1706 0.3511
0.2413 -1.1544 0.3513
0.3437 -1.1292 0.3516
0.4437 -1.0954 0.3520
0.5405 -1.0530 0.3526
0.6335 -1.0023 0.3532
0.7219 -0.9437 0.3540
0.8052 -0.8776 0.3548
0.8826 -0.8043 0.3557
0.9536 -0.7243 0.3567
1.0175 -0.6383 0.3578
1.0739 -0.5466 0.3590
5.2272 -2.0966 1.6777
5.4173 -1.6287 1.6851
5.5663 -1.1438 1.6928
5.6725 -0.6453 1.7007
5.7298 -0.1369 1.7073
5.7382 0.3764 1.7130
5.7007 0.8902 1.7188
5.6169 1.4001 1.7244
5.4872 1.9021 1.7300
5.3122 2.3919 1.7355
1.0933 0.6151 0.3737
1.0374 0.7126 0.3749
0.9727 0.8048 0.3761
0.8996 0.8910 0.3772
0.8186 0.9704 0.3782
0.7305 1.0421 0.3791
0.6359 1.1055 0.3799
0.5356 1.1600 0.3806
0.4306 1.2049 0.3812
0.3217 1.2400 0.3816
0.2099 1.2649 0.3819
0.0962 1.2792 0.3821
-0.0184 1.2828 0.3822
-0.1328 1.2758 0.3821
-0.2460 1.2581 0.3819
-0.3570 1.2300 0.3815
-0.4648 1.1917 0.3810
-0.5684 1.1436 0.3804
-0.6670 1.0862 0.3797
-0.7596 1.0201 0.3789
-0.8456 0.9459 0.3779
-0.9241 0.8642 0.3769
-0.9946 0.7760 0.3758
-1.0566 0.6819 0.3746
-5.6286 2.9572 1.8940
-5.8521 2.4355 1.8882
-6.0270 1.8973 1.8822
-6.1522 1.3473 1.8761
-6.2272 0.7900 1.8699
-6.2520 0.2302 1.8637
-6.2268 -0.3277 1.8575
-6.1452 -0.8784 1.8492
-6.0144 -1.4169 1.8407
-5.8376 -1.9394 1.8324
-5.6167 -2.4422 1.8245
-1.0569 -0.5767 0.3587
-0.9980 -0.6667 0.3575
-0.9317 -0.7508 0.3565
-0.8586 -0.8287 0.3555
-0.7792 -0.8998 0.3546
-0.6942 -0.9635 0.3538
-0.6041 -1.0196 0.3530
-0.5098 -1.0676 0.3524
-0.4119 -1.1073 0.3519
-0.3111 -1.1383 0.3515
-0.2080 -1.1606 0.3512
-0.1035 -1.1740 0.3511
0.0017 -1.1783 0.3510
0.1069 -1.1736 0.3511
0.2113 -1.1600 0.3512
0.3143 -1.1374 0.3515
0.4150 -1.1060 0.3519
0.5128 -1.0661 0.3524
0.6070 -1.0178 0.3530
0.6969 -0.9615 0.3537
0.7817 -0.8975 0.3545
0.8609 -0.8262 0.3554
0.9338 -0.7481 0.3564
0.9998 -0.6638 0.3575
1.0584 -0.5737 0.3586
5.1649 -2.2282 1.6756
5.3665 -1.7660 1.6830
5.5276 -1.2856 1.6906
5.6463 -0.7907 1.6984
5.7188 -0.2847 1.7057
5.7405 0.2278 1.7114
5.7163 0.7418 1.7171
5.6459 1.2533 1.7228
5.5295 1.7580 1.7284
5.3674 2.2517 1.7339
5.1608 2.7303 1.7392
1.0545 0.6849 0.3746
0.9923 0.7787 0.3758
0.9216 0.8668 0.3769
0.8428 0.9482 0.3779
0.7567 1.0222 0.3788
0.6639 1.0880 0.3797
0.5652 1.1452 0.3804
0.4614 1.1929 0.3810
0.3535 1.2309 0.3815
0.2425 1.2588 0.3819
0.1292 1.2761 0.3821
0.0148 1.2829 0.3822
-0.0998 1.2789 0.3821
-0.2135 1.2643 0.3819
-0.3252 1.2392 0.3816
-0.4340 1.2038 0.3812
-0.5390 1.1585 0.3806
-0.6391 1.1037 0.3799
-0.7335 1.0401 0.3791
-0.8214 0.9681 0.3782
-0.9022 0.8886 0.3772
-0.9751 0.8021 0.3761
-1.0396 0.7097 0.3750
-5.5550 3.1044 1.8957
-5.7924 2.5883 1.8899
-5.9814 2.0544 1.8840
-6.1211 1.5073 1.8779
-6.2107 0.9517 1.8717
-6.2500 0.3921 1.8655
-6.2392 -0.1668 1.8592
-6.1742 -0.7202 1.8517
-6.0571 -1.2626 1.8431
-5.8934 -1.7902 1.8348
-5.6850 -2.2990 1.8267
-1.0725 -0.5498 0.3590
-1.0158 -0.6412 0.3578
-0.9516 -0.7271 0.3568
-0.8804 -0.8069 0.3557
-0.8028 -0.8799 0.3548
-0.7193 -0.9459 0.3540
-0.6307 -1.0042 0.3532
-0.5375 -1.0546 0.3526
-0.4406 -1.0967 0.3521
-0.3405 -1.1302 0.3516
-0.2380 -1.1551 0.3513
-0.1339 -1.1710 0.3511
-0.0288 -1.1780 0.3510
0.0765 -1.1759 0.3510
0.1812 -1.1649 0.3512
0.2847 -1.1448 0.3514
0.3862 -1.1160 0.3518
0.4849 -1.0785 0.3523
0.5802 -1.0326 0.3528
0.6714 -0.9786 0.3535
0.7577 -0.9168 0.3543
0.8386 -0.8475 0.3552
0.9134 -0.7714 0.3561
0.9814 -0.6888 0.3572
1.0423 -0.6003 0.3583
5.0993 -2.3581 1.6736
5.3123 -1.9017 1.6808
5.4853 -1.4262 1.6883
5.6164 -0.9351 1.6961
5.7040 -0.4320 1.7040
5.7389 0.0792 1.7097
5.7280 0.5932 1.7154
5.6710 1.1058 1.7212
5.5678 1.6130 1.7268
5.4189 2.1103 1.7323
5.2251 2.5937 1.7377
1.0708 0.6568 0.3742
1.0112 0.7522 0.3754
0.9429 0.8420 0.3766
0.8664 0.9254 0.3776
0.7823 1.0016 0.3786
0.6913 1.0699 0.3795
0.5943 1.1296 0.3802
0.4919 1.1801 0.3809
0.3851 1.2210 0.3814
0.2748 1.2518 0.3818
0.1621 1.2722 0.3820
0.0479 1.2820 0.3822
-0.0667 1.2811 0.3822
-0.1808 1.2696 0.3820
-0.2932 1.2475 0.3817
-0.4029 1.2150 0.3813
-0.5091 1.1726 0.3808
-0.6107 1.1205 0.3801
-0.7068 1.0594 0.3794
-0.7967 0.9897 0.3785
-0.8796 0.9123 0.3775
-0.9548 0.8278 0.3764
-1.0218 0.7370 0.3753
-1.0800 0.6408 0.3741
-5.7286 2.7396 1.8916
-5.9318 2.2104 1.8857
-6.0858 1.6666 1.8797
-6.1900 1.1130 1.8735
-6.2438 0.5541 1.8673
-6.2474 -0.0055 1.8610
-6.1992 -0.5611 1.8542
-6.0958 -1.1071 1.8456
-5.9454 -1.6393 1.8372
-5.7498 -2.1540 1.8290
-1.0874 -0.5223 0.3594
-1.0330 -0.6153 0.3582
-0.9709 -0.7029 0.3571
-0.9017 -0.7845 0.3560
-0.8258 -0.8595 0.3551
-0.7440 -0.9276 0.3542
-0.6568 -0.9881 0.3534
-0.5649 -1.0408 0.3528
-0.4690 -1.0853 0.3522
-0.3697 -1.1214 0.3517
-0.2678 -1.1488 0.3514
-0.1641 -1.1673 0.3512
-0.0592 -1.1769 0.3510
0.0461 -1.1774 0.3510
0.1510 -1.1690 0.3511
0.2550 -1.1515 0.3513
0.3571 -1.1252 0.3517
0.4567 -1.0902 0.3521
0.5530 -1.0467 0.3527
0.6455 -0.9950 0.3533
0.7333 -0.9354 0.3541
0.8158 -0.8683 0.3549
0.8924 -0.7941 0.3558
0.9625 -0.7133 0.3569
1.0255 -0.6264 0.3580
1.0808 -0.5341 0.3591
5.2547 -2.0358 1.6787
5.4395 -1.5655 1.6861
5.5829 -1.0785 1.6938
5.6833 -0.5785 1.7017
5.7335 -0.0691 1.7081
5.7359 0.4445 1.7138
5.6923 0.9579 1.7195
5.6024 1.4671 1.7252
5.4667 1.9677 1.7307
5.2857 2.4555 1.7362
1.0864 0.6282 0.3738
1.0294 0.7251 0.3751
0.9635 0.8166 0.3762
0.8893 0.9020 0.3773
0.8074 0.9803 0.3783
0.7183 1.0510 0.3792
0.6229 1.1132 0.3800
0.5220 1.1665 0.3807
0.4164 1.2102 0.3812
0.3070 1.2439 0.3817
0.1949 1.2674 0.3820
0.0810 1.2803 0.3821
-0.0336 1.2825 0.3822
-0.1479 1.2740 0.3821
-0.2609 1.2550 0.3818
-0.3715 1.2255 0.3815
-0.4788 1.1859 0.3810
-0.5818 1.1365 0.3803
-0.6796 1.0780 0.3796
-0.7714 1.0107 0.3788
-0.8564 0.9355 0.3778
-0.9339 0.8529 0.3768
-1.0033 0.7638 0.3756
-1.0641 0.6691 0.3744
-5.6609 2.8893 1.8933
-5.8780 2.3651 1.8874
-6.0464 1.8251 1.8814
-6.1650 1.2739 1.8753
-6.2334 0.7160 1.8691
-6.2515 0.1562 1.8628
-6.2197 -0.4012 1.8566
-6.1306 -0.9504 1.8481
-5.9936 -1.4870 1.8396
-5.8109 -2.0072 1.8313
-5.5843 -2.5070 1.8234
-1.0495 -0.5890 0.3585
-0.9896 -0.6781 0.3574
-0.9224 -0.7615 0.3563
-0.8484 -0.8385 0.3553
-0.7682 -0.9086 0.3544
-0.6825 -0.9714 0.3537
-0.5919 -1.0264 0.3530
-0.4971 -1.0733 0.3524
-0.3987 -1.1119 0.3519
-0.2975 -1.1418 0.3515
-0.1943 -1.1629 0.3512
-0.0896 -1.1751 0.3511
0.0156 -1.1782 0.3510
0.1208 -1.1724 0.3511
0.2251 -1.1575 0.3513
0.3278 -1.1337 0.3516
0.4282 -1.1012 0.3520
0.5255 -1.0602 0.3525
0.6192 -1.0108 0.3531
0.7084 -0.9534 0.3538
0.7925 -0.8885 0.3547
0.8709 -0.8163 0.3556
0.9429 -0.7373 0.3566
1.0080 -0.6522 0.3576
1.0656 -0.5614 0.3588
5.1938 -2.1682 1.6766
5.3902 -1.7033 1.6839
5.5457 -1.2209 1.6916
5.6588 -0.7243 1.6994
5.7243 -0.2171 1.7064
5.7400 0.2958 1.7121
5.7096 0.8097 1.7179
5.6331 1.3205 1.7235
5.5106 1.8241 1.7291
5.3426 2.3160 1.7346
1.1012 0.5994 0.3735
1.0468 0.6976 0.3747
0.9834 0.7907 0.3759
0.9116 0.8780 0.3770
0.8318 0.9584 0.3780
0.7448 1.0314 0.3790
0.6511 1.0961 0.3798
0.5517 1.1520 0.3805
0.4474 1.1985 0.3811
0.3390 1.2352 0.3816
0.2276 1.2617 0.3819
0.1141 1.2776 0.3821
-0.0004 1.2829 0.3822
-0.1149 1.2776 0.3821
-0.2284 1.2615 0.3819
-0.3398 1.2350 0.3816
-0.4482 1.1983 0.3811
-0.5525 1.1518 0.3805
-0.6519 1.0958 0.3798
-0.7455 1.0310 0.3790
-0.8326 0.9580 0.3781
-0.9123 0.8775 0.3771
-0.9841 0.7902 0.3760
-1.0474 0.6970 0.3748
-5.5892 3.0373 1.8949
-5.8202 2.5185 1.8891
-6.0028 1.9826 1.8832
-6.1358 1.4342 1.8771
-6.2188 0.8778 1.8709
-6.2514 0.3181 1.8646
-6.2340 -0.2405 1.8584
-6.1614 -0.7927 1.8506
-6.0381 -1.3334 1.8420
-5.8683 -1.8587 1.8337
-5.6542 -2.3647 1.8257
-1.0654 -0.5622 0.3588
-1.0077 -0.6529 0.3577
-0.9426 -0.7380 0.3566
-0.8705 -0.8169 0.3556
-0.7920 -0.8891 0.3547
-0.7078 -0.9540 0.3539
-0.6186 -1.0113 0.3531
-0.5249 -1.0606 0.3525
-0.4275 -1.1016 0.3520
-0.3270 -1.1340 0.3516
-0.2243 -1.1577 0.3513
-0.1200 -1.1725 0.3511
-0.0148 -1.1782 0.3510
0.0904 -1.1750 0.3510
0.1950 -1.1627 0.3512
0.2983 -1.1415 0.3515
0.3994 -1.1115 0.3518
0.4977 -1.0729 0.3523
0.5925 -1.0259 0.3529
0.6831 -0.9708 0.3536
0.7687 -0.9080 0.3544
0.8488 -0.8379 0.3553
0.9228 -0.7608 0.3563
0.9899 -0.6774 0.3573
1.0497 -0.5882 0.3584
5.1297 -2.2989 1.6745
5.3375 -1.8398 1.6818
5.5051 -1.3620 1.6893
5.6305 -0.8691 1.6971
5.7113 -0.3646 1.7048
5.7401 0.1471 1.7105
5.7231 0.6612 1.7162
5.6600 1.1734 1.7219
5.5507 1.6794 1.7275
5.3958 2.1752 1.7331
5.1961 2.6563 1.7384
1.0635 0.6697 0.3744
1.0026 0.7644 0.3756
0.9332 0.8534 0.3767
0.8557 0.9359 0.3778
0.7706 1.0111 0.3787
0.6788 1.0783 0.3796
0.5810 1.1368 0.3803
0.4780 1.1861 0.3809
0.3707 1.2256 0.3814
0.2601 1.2551 0.3818
0.1471 1.2741 0.3821
0.0327 1.2825 0.3822
-0.0819 1.2802 0.3821
-0.1957 1.2673 0.3820
-0.3079 1.2438 0.3817
-0.4172 1.2100 0.3813
-0.5228 1.1662 0.3807
-0.6237 1.1129 0.3800
-0.7191 1.0506 0.3793
-0.8081 0.9799 0.3784
-0.8900 0.9015 0.3774
-0.9642 0.8161 0.3763
-1.0300 0.7246 0.3751
-5.5135 3.1835 1.8965
-5.7583 2.6705 1.8908
-5.9550 2.1391 1.8849
-6.1025 1.5938 1.8788
-6.2000 1.0393 1.8727
-6.2472 0.4800 1.8664
-6.2442 -0.0793 1.8602
-6.1882 -0.6340 1.8531
-6.0786 -1.1784 1.8445
-5.9221 -1.7085 1.8361
-5.7206 -2.2205 1.8280
-1.0806 -0.5349 0.3592
-1.0252 -0.6272 0.3580
-0.9622 -0.7140 0.3569
-0.8920 -0.7948 0.3559
-0.8153 -0.8689 0.3550
-0.7327 -0.9360 0.3541
-0.6449 -0.9955 0.3533
-0.5524 -1.0472 0.3527
-0.4560 -1.0906 0.3521
-0.3564 -1.1255 0.3517
-0.2542 -1.1518 0.3514
-0.1503 -1.1691 0.3511
-0.0453 -1.1775 0.3510
0.0600 -1.1768 0.3510
0.1649 -1.1672 0.3511
0.2686 -1.1486 0.3514
0.3704 -1.1211 0.3517
0.4696 -1.0850 0.3522
0.5655 -1.0404 0.3527
0.6574 -0.9876 0.3534
0.7445 -0.9270 0.3542
0.8263 -0.8589 0.3550
0.9021 -0.7838 0.3560
0.9712 -0.7021 0.3570
1.0332 -0.6145 0.3581
1.0875 -0.5215 0.3593
5.2814 -1.9746 1.6797
5.4608 -1.5019 1.6871
5.5987 -1.0130 1.6949
5.6933 -0.5116 1.7028
5.7365 -0.0013 1.7088
5.7328 0.5125 1.7146
5.6830 1.0257 1.7203
5.5871 1.5339 1.7259
5.4453 2.0331 1.7315
5.2584 2.5189 1.7369
1.0794 0.6413 0.3740
1.0211 0.7375 0.3752
0.9541 0.8283 0.3764
0.8789 0.9127 0.3775
0.7960 0.9901 0.3784
0.7060 1.0597 0.3793
0.6099 1.1208 0.3801
0.5083 1.1728 0.3808
0.4021 1.2152 0.3813
0.2923 1.2476 0.3817
0.1799 1.2697 0.3820
0.0659 1.2812 0.3821
-0.0487 1.2820 0.3822
-0.1629 1.2721 0.3820
-0.2757 1.2516 0.3818
-0.3859 1.2208 0.3814
-0.4927 1.1799 0.3809
-0.5951 1.1293 0.3802
-0.6921 1.0695 0.3795
-0.7831 1.0012 0.3786
-0.8671 0.9249 0.3777
-0.9436 0.8415 0.3766
-1.0119 0.7516 0.3755
-1.0715 0.6562 0.3743
-5.6924 2.8210 1.8925
-5.9031 2.2945 1.8866
-6.0649 1.7527 1.8806
-6.1769 1.2003 1.8745
-6.2387 0.6419 1.8682
-6.2502 0.0822 1.8620
-6.2110 -0.4744 1.8556
-6.1152 -1.0222 1.8469
-5.9721 -1.5569 1.8385
-5.7834 -2.0745 1.8303
-5.5511 -2.5715 1.8224
-1.0421 -0.6011 0.3584
-0.9812 -0.6895 0.3572
-0.9130 -0.7721 0.3562
-0.8381 -0.8482 0.3552
-0.7572 -0.9174 0.3543
-0.6708 -0.9791 0.3536
-0.5796 -1.0331 0.3529
-0.4842 -1.0789 0.3523
-0.3855 -1.1163 0.3518
-0.2840 -1.1451 0.3514
-0.1805 -1.1650 0.3512
-0.0757 -1.1760 0.3510
0.0295 -1.1780 0.3510
0.1346 -1.1709 0.3511
0.2387 -1.1549 0.3513
0.3412 -1.1299 0.3516
0.4412 -1.0963 0.3520
0.5382 -1.0541 0.3526
0.6312 -1.0037 0.3532
0.7198 -0.9453 0.3539
0.8032 -0.8793 0.3548
0.8808 -0.8062 0.3557
0.9519 -0.7264 0.3567
1.0161 -0.6404 0.3578
1.0726 -0.5490 0.3589
5.2221 -2.1078 1.6775
5.4132 -1.6404 1.6849
5.5632 -1.1559 1.6926
5.6704 -0.6577 1.7005
5.7290 -0.1494 1.7072
5.7386 0.3638 1.7129
5.7022 0.8776 1.7186
5.6196 1.3877 1.7243
5.4910 1.8899 1.7299
5.3170 2.3800 1.7353
1.0945 0.6126 0.3736
1.0389 0.7102 0.3749
0.9744 0.8026 0.3761
0.9015 0.8890 0.3772
0.8207 0.9685 0.3782
0.7327 1.0404 0.3791
0.6383 1.1040 0.3799
0.5382 1.1587 0.3806
0.4332 1.2040 0.3812
0.3244 1.2393 0.3816
0.2126 1.2644 0.3819
0.0990 1.2789 0.3821
-0.0156 1.2828 0.3822
-0.1300 1.2761 0.3821
-0.2433 1.2586 0.3819
-0.3543 1.2308 0.3815
-0.4622 1.1927 0.3810
-0.5660 1.1449 0.3804
-0.6646 1.0877 0.3797
-0.7574 1.0218 0.3789
-0.8435 0.9478 0.3780
-0.9223 0.8663 0.3769
-0.9930 0.7782 0.3758
-1.0551 0.6843 0.3746
-5.6225 2.9698 1.8942
-0.8934 0.8556 0.3768
-0.9634 0.7702 0.3757
-1.0252 0.6790 0.3746
-1.0782 0.5829 0.3733
-5.6949 2.4495 1.8884
-5.8726 1.9253 1.8825
-6.0020 1.3890 1.8766
-6.0823 0.8449 1.8705
-6.1135 0.2976 1.8644
-6.0957 -0.2486 1.8583
-6.0240 -0.7885 1.8506
-5.9028 -1.3171 1.8423
-5.7363 -1.8307 1.8341
-1.0898 -0.4586 0.3602
-1.0411 -0.5522 0.3590
-0.9845 -0.6409 0.3578
-0.9206 -0.7241 0.3568
-0.8500 -0.8012 0.3558
-0.7731 -0.8717 0.3549
-0.6906 -0.9351 0.3541
-0.6032 -0.9911 0.3534
-0.5114 -1.0391 0.3528
-0.4160 -1.0791 0.3523
-0.3177 -1.1106 0.3519
-0.2171 -1.1336 0.3516
-0.1149 -1.1479 0.3514
-0.0120 -1.1533 0.3513
0.0910 -1.1499 0.3514
0.1934 -1.1377 0.3515
0.2944 -1.1167 0.3518
0.3933 -1.0871 0.3521
0.4895 -1.0491 0.3526
0.5821 -1.0028 0.3532
0.6706 -0.9487 0.3539
0.7543 -0.8870 0.3547
0.8325 -0.8181 0.3555
0.9046 -0.7425 0.3565
0.9701 -0.6607 0.3575
1.0284 -0.5732 0.3586
1.0790 -0.4807 0.3598
5.2262 -1.7886 1.6826
5.3886 -1.3207 1.6900
5.5098 -0.8381 1.6976
5.5868 -0.3444 1.7050
5.6135 0.1562 1.7106
5.5954 0.6589 1.7162
5.5321 1.1595 1.7217
5.4238 1.6540 1.7273
5.2709 2.1382 1.7326
1.0890 0.5598 0.3730
1.0381 0.6569 0.3742
0.9784 0.7493 0.3754
0.9103 0.8361 0.3765
0.8342 0.9165 0.3775
0.7509 0.9897 0.3784
0.6610 1.0551 0.3793
0.5653 1.1120 0.3800
0.4645 1.1599 0.3806
0.3596 1.1983 0.3811
0.2514 1.2268 0.3815
0.1409 1.2451 0.3817
0.0292 1.2531 0.3818
-0.0827 1.2506 0.3818
-0.1940 1.2377 0.3816
-0.3034 1.2145 0.3813
-0.4102 1.1813 0.3809
-0.5133 1.1383 0.3804
-0.6118 1.0861 0.3797
-0.7049 1.0250 0.3789
-0.7917 0.9558 0.3781
-0.8717 0.8790 0.3771
-0.9440 0.7955 0.3760
-1.0082 0.7059 0.3749
-1.0638 0.6111 0.3737
-5.6346 2.5982 1.8900
-5.8262 2.0784 1.8842
-5.9696 1.5451 1.8783
-6.0641 1.0028 1.8723
-6.1095 0.4560 1.8662
-6.1058 -0.0910 1.8601
-6.0504 -0.6333 1.8531
-5.9426 -1.1656 1.8447
-5.7890 -1.6839 1.8365
-5.5914 -2.1845 1.8285
-1.0560 -0.5256 0.3593
-1.0017 -0.6158 0.3582
-0.9398 -0.7007 0.3571
-0.8711 -0.7796 0.3561
-0.7960 -0.8520 0.3552
-0.7150 -0.9175 0.3543
-0.6290 -0.9757 0.3536
-0.5384 -1.0261 0.3530
-0.4439 -1.0684 0.3524
-0.3464 -1.1024 0.3520
-0.2463 -1.1279 0.3517
-0.1446 -1.1446 0.3514
-0.0418 -1.1526 0.3513
0.0613 -1.1518 0.3513
0.1639 -1.1421 0.3515
0.2654 -1.1237 0.3517
0.3650 -1.0965 0.3520
0.4620 -1.0609 0.3525
0.5557 -1.0170 0.3530
0.6455 -0.9652 0.3537
0.7306 -0.9056 0.3544
0.8105 -0.8388 0.3553
0.8844 -0.7650 0.3562
0.9519 -0.6850 0.3572
1.0123 -0.5991 0.3583
1.0652 -0.5080 0.3595
5.1718 -1.9207 1.6805
5.3458 -1.4576 1.6878
5.4791 -0.9790 1.6954
5.5700 -0.4882 1.7032
5.6104 0.0111 1.7090
5.6053 0.5135 1.7146
5.5551 1.0152 1.7201
5.4597 1.5119 1.7257
5.3196 1.9995 1.7311
1.1020 0.5309 0.3726
1.0538 0.6292 0.3739
0.9965 0.7231 0.3751
0.9308 0.8116 0.3762
0.8570 0.8939 0.3772
0.7757 0.9693 0.3782
0.6877 1.0371 0.3790
0.5935 1.0965 0.3798
0.4941 1.1470 0.3804
0.3903 1.1882 0.3810
0.2829 1.2196 0.3814
0.1731 1.2409 0.3816
0.0616 1.2518 0.3818
-0.0504 1.2524 0.3818
-0.1619 1.2425 0.3817
-0.2720 1.2222 0.3814
-0.3797 1.1919 0.3810
-0.4839 1.1517 0.3805
-0.5838 1.1021 0.3799
-0.6786 1.0436 0.3792
-0.7673 0.9766 0.3783
-0.8493 0.9020 0.3774
-0.9239 0.8203 0.3763
-0.9905 0.7324 0.3752
-1.0486 0.6390 0.3741
-5.5704 2.7453 1.8917
-5.7757 2.2303 1.8859
-5.9331 1.7005 1.8800
-6.0418 1.1603 1.8740
-6.1014 0.6143 1.8679
-6.1119 0.0670 1.8619
-6.0728 -0.4773 1.8555
-5.9786 -1.0129 1.8471
-5.8380 -1.5357 1.8388
-5.6529 -2.0418 1.8308
-1.0702 -0.4986 0.3597
-1.0182 -0.5903 0.3585
-0.9585 -0.6767 0.3574
-0.8917 -0.7574 0.3564
-0.8183 -0.8318 0.3554
-0.7390 -0.8993 0.3546
-0.6543 -0.9596 0.3538
-0.5650 -1.0123 0.3531
-0.4716 -1.0570 0.3526
-0.3749 -1.0934 0.3521
-0.2755 -1.1214 0.3517
-0.1742 -1.1407 0.3515
-0.0716 -1.1512 0.3514
0.0315 -1.1529 0.3513
0.1343 -1.1458 0.3514
0.2362 -1.1299 0.3516
0.3364 -1.1053 0.3519
0.4342 -1.0721 0.3523
0.5290 -1.0306 0.3529
0.6200 -0.9810 0.3535
0.7065 -0.9236 0.3542
0.7880 -0.8588 0.3550
0.8637 -0.7870 0.3559
0.9331 -0.7088 0.3569
0.9956 -0.6245 0.3580
1.0507 -0.5348 0.3591
5.1141 -2.0512 1.6784
5.2996 -1.5933 1.6857
5.4448 -1.1188 1.6932
5.5481 -0.6311 1.7009
5.6035 -0.1338 1.7074
5.6114 0.3681 1.7129
5.5742 0.8704 1.7185
5.4919 1.3690 1.7241
5.3647 1.8596 1.7295
5.1932 2.3383 1.7349
1.0687 0.6012 0.3735
1.0140 0.6965 0.3747
0.9507 0.7866 0.3759
0.8791 0.8708 0.3769
0.8000 0.9483 0.3779
0.7138 1.0183 0.3788
0.6213 1.0802 0.3796
0.5234 1.1334 0.3803
0.4207 1.1773 0.3808
0.3143 1.2115 0.3813
0.2051 1.2358 0.3816
0.0940 1.2497 0.3818
-0.0180 1.2533 0.3818
-0.1298 1.2464 0.3817
-0.2404 1.2291 0.3815
-0.3488 1.2017 0.3812
-0.4542 1.1643 0.3807
-0.5554 1.1174 0.3801
-0.6517 1.0614 0.3794
-0.7423 0.9968 0.3786
-0.8263 0.9243 0.3777
-0.9031 0.8446 0.3767
-0.9721 0.7584 0.3756
-1.0327 0.6665 0.3744
-5.5023 2.8909 1.8933
-5.7212 2.3810 1.8876
-5.8925 1.8550 1.8818
-6.0154 1.3173 1.8758
-6.0893 0.7726 1.8697
-6.1139 0.2251 1.8636
-6.0897 -0.3205 1.8575
-6.0107 -0.8591 1.8495
-5.8833 -1.3860 1.8412
-5.7109 -1.8973 1.8331
-1.0838 -0.4712 0.3600
-1.0340 -0.5643 0.3588
-0.9765 -0.6523 0.3577
-0.9117 -0.7347 0.3567
-0.8402 -0.8109 0.3557
-0.7625 -0.8805 0.3548
-0.6793 -0.9430 0.3540
-0.5913 -0.9979 0.3533
-0.4990 -1.0449 0.3527
-0.4032 -1.0838 0.3522
-0.3045 -1.1142 0.3518
-0.2036 -1.1360 0.3516
-0.1013 -1.1491 0.3514
0.0016 -1.1534 0.3513
0.1046 -1.1488 0.3514
0.2068 -1.1354 0.3515
0.3076 -1.1133 0.3518
0.4062 -1.0826 0.3522
0.5019 -1.0434 0.3527
0.5941 -0.9961 0.3533
0.6820 -0.9410 0.3540
0.7650 -0.8783 0.3548
0.8424 -0.8085 0.3557
0.9137 -0.7320 0.3566
0.9782 -0.6494 0.3577
1.0355 -0.5613 0.3588
1.0851 -0.4681 0.3600
5.2500 -1.7276 1.6836
5.4071 -1.2576 1.6910
5.5226 -0.7733 1.6987
5.5929 -0.2784 1.7057
5.6137 0.2227 1.7113
5.5896 0.7253 1.7169
5.5204 1.2254 1.7225
5.4061 1.7188 1.7280
5.2473 2.2013 1.7333
1.0828 0.5728 0.3731
1.0307 0.6694 0.3744
0.9698 0.7611 0.3755
0.9006 0.8471 0.3766
0.8236 0.9266 0.3776
0.7394 0.9989 0.3786
0.6487 1.0632 0.3794
0.5522 1.1189 0.3801
0.4508 1.1656 0.3807
0.3454 1.2027 0.3811
0.2369 1.2298 0.3815
0.1262 1.2468 0.3817
0.0144 1.2533 0.3818
-0.0975 1.2495 0.3818
-0.2086 1.2352 0.3816
-0.3178 1.2107 0.3813
-0.4241 1.1761 0.3808
-0.5266 1.1319 0.3803
-0.6244 1.0785 0.3796
-0.7167 1.0163 0.3788
-0.8027 0.9461 0.3779
-0.8817 0.8684 0.3770
-0.9530 0.7840 0.3759
-1.0161 0.6936 0.3747
-1.0705 0.5982 0.3735
-5.6627 2.5303 1.8893
-5.8479 2.0085 1.8835
-5.9849 1.4738 1.8775
-6.0730 0.9306 1.8715
-6.1118 0.3835 1.8654
-6.1017 -0.1631 1.8593
-6.0388 -0.7044 1.8519
-5.9249 -1.2351 1.8436
-5.7653 -1.7513 1.8354
-5.5620 -2.2492 1.8275
-1.0493 -0.5379 0.3592
-0.9939 -0.6274 0.3580
-0.9311 -0.7115 0.3570
-0.8615 -0.7896 0.3560
-0.7856 -0.8611 0.3551
-0.7039 -0.9257 0.3542
-0.6172 -0.9828 0.3535
-0.5261 -1.0321 0.3529
-0.4312 -1.0734 0.3524
-0.3333 -1.1063 0.3519
-0.2330 -1.1306 0.3516
-0.1310 -1.1462 0.3514
-0.0282 -1.1530 0.3513
0.0749 -1.1510 0.3514
0.1774 -1.1402 0.3515
0.2787 -1.1206 0.3517
0.3780 -1.0923 0.3521
0.4746 -1.0556 0.3525
0.5678 -1.0106 0.3531
0.6570 -0.9577 0.3538
0.7415 -0.8972 0.3545
0.8206 -0.8294 0.3554
0.8937 -0.7548 0.3563
0.9603 -0.6739 0.3574
1.0197 -0.5873 0.3585
1.0716 -0.4955 0.3596
5.1971 -1.8604 1.6815
5.3658 -1.3951 1.6888
5.4936 -0.9146 1.6964
5.5786 -0.4225 1.7041
5.6123 0.0775 1.7097
5.6012 0.5801 1.7153
5.5450 1.0813 1.7209
5.4438 1.5770 1.7264
5.2978 2.0631 1.7318
1.0962 0.5441 0.3728
1.0467 0.6419 0.3740
0.9883 0.7351 0.3752
0.9215 0.8229 0.3763
0.8467 0.9043 0.3774
0.7645 0.9787 0.3783
0.6755 1.0454 0.3791
0.5807 1.1037 0.3799
0.4806 1.1530 0.3805
0.3763 1.1929 0.3810
0.2685 1.2230 0.3814
0.1584 1.2429 0.3817
0.0468 1.2525 0.3818
-0.0652 1.2517 0.3818
-0.1766 1.2404 0.3816
-0.2864 1.2188 0.3814
-0.3937 1.1871 0.3810
-0.4974 1.1457 0.3805
-0.5967 1.0949 0.3798
-0.6907 1.0352 0.3791
-0.7786 0.9672 0.3782
-0.8596 0.8916 0.3772
-0.9332 0.8090 0.3762
-0.9987 0.7203 0.3751
-1.0557 0.6263 0.3739
-5.6003 2.6782 1.8909
-5.7993 2.1610 1.8852
-5.9503 1.6295 1.8792
-6.0525 1.0883 1.8732
-6.1056 0.5419 1.8671
-6.1096 -0.0053 1.8610
-6.0631 -0.5488 1.8544
-5.9626 -1.0829 1.8460
-5.8161 -1.6037 1.8377
-5.6252 -2.1073 1.8298
-1.0638 -0.5110 0.3595
-1.0107 -0.6020 0.3583
-0.9500 -0.6877 0.3573
-0.8823 -0.7676 0.3562
-0.8081 -0.8411 0.3553
-0.7281 -0.9077 0.3545
-0.6428 -0.9670 0.3537
-0.5529 -1.0187 0.3530
-0.4590 -1.0623 0.3525
-0.3619 -1.0976 0.3520
-0.2622 -1.1244 0.3517
-0.1606 -1.1426 0.3515
-0.0580 -1.1520 0.3513
0.0451 -1.1525 0.3513
0.1478 -1.1442 0.3514
0.2495 -1.1271 0.3516
0.3495 -1.1014 0.3520
0.4470 -1.0671 0.3524
0.5413 -1.0245 0.3529
0.6317 -0.9738 0.3536
0.7176 -0.9154 0.3543
0.7983 -0.8497 0.3551
0.8732 -0.7770 0.3561
0.9418 -0.6979 0.3571
1.0033 -0.6129 0.3581
1.0574 -0.5226 0.3593
5.1409 -1.9917 1.6794
5.3212 -1.5314 1.6867
5.4609 -1.0550 1.6942
5.5586 -0.5658 1.7019
5.6071 -0.0676 1.7081
5.6090 0.4347 1.7137
5.5659 0.9367 1.7193
5.4777 1.4344 1.7248
5.3446 1.9237 1.7303
5.1673 2.4005 1.7356
1.0619 0.6141 0.3737
1.0061 0.7087 0.3749
0.9417 0.7981 0.3760
0.8691 0.8815 0.3771
0.7890 0.9580 0.3780
0.7019 1.0270 0.3789
0.6087 1.0877 0.3797
0.5100 1.1397 0.3803
0.4068 1.1824 0.3809
0.3000 1.2153 0.3813
0.1904 1.2382 0.3816
0.0792 1.2508 0.3818
-0.0328 1.2530 0.3818
-0.1445 1.2447 0.3817
-0.2549 1.2261 0.3815
-0.3630 1.1973 0.3811
-0.4678 1.1587 0.3806
-0.5685 1.1105 0.3800
-0.6641 1.0533 0.3793
-0.7538 0.9877 0.3785
-0.8369 0.9142 0.3775
-0.9127 0.8336 0.3765
-0.9806 0.7466 0.3754
-1.0401 0.6540 0.3742
-5.5339 2.8245 1.8925
-5.7466 2.3122 1.8868
-5.9116 1.7844 1.8810
-6.0280 1.2455 1.8750
-6.0953 0.7002 1.8689
-6.1135 0.1527 1.8628
-6.0829 -0.3924 1.8567
-5.9965 -0.9296 1.8484
-5.8631 -1.4546 1.8401
-5.6848 -1.9636 1.8320
-1.0777 -0.4838 0.3598
-1.0269 -0.5762 0.3587
-0.9683 -0.6635 0.3576
-0.9026 -0.7452 0.3565
-0.8302 -0.8205 0.3556
-0.7518 -0.8892 0.3547
-0.6680 -0.9507 0.3539
-0.5793 -1.0045 0.3532
-0.4865 -1.0505 0.3526
-0.3902 -1.0883 0.3522
-0.2912 -1.1176 0.3518
-0.1902 -1.1382 0.3515
-0.0877 -1.1502 0.3514
0.0153 -1.1533 0.3513
0.1182 -1.1475 0.3514
0.2203 -1.1330 0.3516
0.3208 -1.1097 0.3519
0.4191 -1.0779 0.3523
0.5144 -1.0376 0.3528
0.6060 -0.9893 0.3534
0.6933 -0.9331 0.3541
0.7755 -0.8694 0.3549
0.8522 -0.7987 0.3558
0.9226 -0.7215 0.3568
0.9863 -0.6381 0.3578
1.0425 -0.5492 0.3589
1.0910 -0.4555 0.3601
5.2731 -1.6663 1.6845
5.4248 -1.1942 1.6920
5.5347 -0.7084 1.6997
5.5982 -0.2123 1.7065
5.6131 0.2892 1.7121
5.5830 0.7917 1.7177
5.5078 1.2912 1.7232
5.3876 1.7833 1.7287
5.2230 2.2642 1.7340
1.0764 0.5859 0.3733
1.0232 0.6818 0.3745
0.9612 0.7728 0.3757
0.8909 0.8580 0.3768
0.8129 0.9366 0.3778
0.7278 1.0078 0.3787
0.6362 1.0710 0.3795
0.5391 1.1256 0.3802
0.4371 1.1710 0.3807
0.3312 1.2068 0.3812
0.2223 1.2326 0.3815
0.1115 1.2482 0.3817
-0.0004 1.2534 0.3818
-0.1123 1.2482 0.3817
-0.2231 1.2325 0.3815
-0.3320 1.2067 0.3812
-0.4379 1.1708 0.3808
-0.5398 1.1254 0.3802
-0.6370 1.0707 0.3795
-0.7285 1.0075 0.3787
-0.8136 0.9362 0.3778
-0.8916 0.8576 0.3768
-0.9618 0.7723 0.3757
-1.0238 0.6813 0.3746
-1.0770 0.5853 0.3734
-5.6899 2.4621 1.8885
-5.8688 1.9384 1.8827
-5.9994 1.4023 1.8767
-6.0809 0.8583 1.8707
-6.1133 0.3110 1.8646
-6.0967 -0.2352 1.8585
-6.0264 -0.7753 1.8508
-5.9063 -1.3043 1.8425
-5.7409 -1.8183 1.8343
-1.0909 -0.4563 0.3602
-1.0424 -0.5500 0.3590
-0.9860 -0.6388 0.3579
-0.9223 -0.7222 0.3568
-0.8518 -0.7994 0.3558
-0.7751 -0.8701 0.3549
-0.6927 -0.9337 0.3541
-0.6054 -0.9898 0.3534
-0.5137 -1.0381 0.3528
-0.4184 -1.0782 0.3523
-0.3201 -1.1100 0.3519
-0.2196 -1.1332 0.3516
-0.1175 -1.1476 0.3514
-0.0145 -1.1533 0.3513
0.0885 -1.1501 0.3514
0.1909 -1.1381 0.3515
0.2919 -1.1173 0.3518
0.3909 -1.0879 0.3521
0.4871 -1.0501 0.3526
0.5799 -1.0041 0.3532
0.6685 -0.9501 0.3539
0.7523 -0.8886 0.3547
0.8306 -0.8199 0.3555
0.9029 -0.7445 0.3565
0.9686 -0.6628 0.3575
1.0270 -0.5754 0.3586
1.0778 -0.4830 0.3598
5.2217 -1.7999 1.6824
5.3851 -1.3323 1.6898
5.5073 -0.8501 1.6974
5.5856 -0.3566 1.7049
5.6134 0.1439 1.7104
5.5964 0.6466 1.7160
5.5342 1.1473 1.7216
5.4270 1.6420 1.7271
5.2752 2.1265 1.7325
1.0902 0.5573 0.3729
1.0395 0.6546 0.3742
0.9800 0.7471 0.3754
0.9120 0.8340 0.3765
0.8362 0.9146 0.3775
0.7531 0.9880 0.3784
0.6633 1.0536 0.3792
0.5677 1.1108 0.3800
0.4670 1.1589 0.3806
0.3622 1.1975 0.3811
0.2541 1.2262 0.3814
0.1437 1.2448 0.3817
0.0320 1.2530 0.3818
-0.0800 1.2508 0.3818
-0.1912 1.2381 0.3816
-0.3008 1.2152 0.3813
-0.4076 1.1822 0.3809
-0.5108 1.1395 0.3804
-0.6094 1.0875 0.3797
-0.7027 1.0266 0.3790
-0.7897 0.9576 0.3781
-0.8698 0.8810 0.3771
-0.9423 0.7976 0.3761
-1.0067 0.7082 0.3749
-1.0625 0.6135 0.3737
-5.6293 2.6107 1.8902
-5.8220 2.0913 1.8844
-5.9666 1.5583 1.8784
-6.0624 1.0162 1.8724
-6.1090 0.4694 1.8663
-6.1065 -0.0776 1.8602
-6.0525 -0.6201 1.8533
-5.9458 -1.1526 1.8449
-5.7933 -1.6714 1.8367
-5.5967 -2.1725 1.8287
-1.0572 -0.5234 0.3593
-1.0031 -0.6137 0.3582
-0.9414 -0.6987 0.3571
-0.8729 -0.7777 0.3561
-0.7979 -0.8503 0.3552
-0.7171 -0.9160 0.3544
-0.6311 -0.9743 0.3536
-0.5406 -1.0249 0.3530
-0.4463 -1.0674 0.3524
-0.3488 -1.1017 0.3520
-0.2488 -1.1273 0.3517
-0.1471 -1.1443 0.3514
-0.0443 -1.1525 0.3513
0.0587 -1.1519 0.3513
0.1614 -1.1425 0.3515
0.2629 -1.1242 0.3517
0.3625 -1.0973 0.3520
0.4596 -1.0619 0.3525
0.5535 -1.0182 0.3530
0.6433 -0.9665 0.3537
0.7286 -0.9072 0.3544
0.8086 -0.8405 0.3553
0.8827 -0.7669 0.3562
0.9503 -0.6870 0.3572
1.0109 -0.6013 0.3583
1.0640 -0.5103 0.3594
5.1670 -1.9318 1.6803
5.3420 -1.4692 1.6876
5.4763 -0.9909 1.6952
5.5683 -0.5004 1.7030
5.6099 -0.0013 1.7088
5.6059 0.5012 1.7144
5.5568 1.0029 1.7200
5.4626 1.4998 1.7255
5.3236 1.9877 1.7310
1.1031 0.5284 0.3726
1.0551 0.6269 0.3738
0.9981 0.7209 0.3750
0.9325 0.8095 0.3761
0.8589 0.8920 0.3772
0.7778 0.9676 0.3782
0.6899 1.0355 0.3790
0.5959 1.0951 0.3798
0.4966 1.1459 0.3804
0.3929 1.1873 0.3809
0.2856 1.2189 0.3814
0.1758 1.2405 0.3816
0.0644 1.2517 0.3818
-0.0476 1.2525 0.3818
-0.1592 1.2428 0.3817
-0.2693 1.2229 0.3814
-0.3771 1.1928 0.3810
-0.4814 1.1528 0.3805
-0.5814 1.1034 0.3799
-0.6763 1.0451 0.3792
-0.7652 0.9784 0.3783
-0.8474 0.9039 0.3774
-0.9222 0.8224 0.3764
-0.9890 0.7346 0.3753
-1.0473 0.6414 0.3741
-5.5648 2.7577 1.8918
-5.7712 2.2432 1.8861
-5.9298 1.7136 1.8802
-6.0397 1.1737 1.8742
-6.1006 0.6277 1.8681
-6.1123 0.0804 1.8620
-6.0746 -0.4640 1.8557
-5.9814 -0.9999 1.8473
-5.8420 -1.5230 1.8390
-5.6580 -2.0296 1.8310
-1.0714 -0.4963 0.3597
-1.0195 -0.5881 0.3585
-0.9600 -0.6747 0.3574
-0.8934 -0.7555 0.3564
-0.8202 -0.8300 0.3554
-0.7410 -0.8978 0.3546
-0.6565 -0.9582 0.3538
-0.5672 -1.0111 0.3531
-0.4739 -1.0560 0.3526
-0.3773 -1.0926 0.3521
-0.2779 -1.1208 0.3517
-0.1767 -1.1403 0.3515
-0.0741 -1.1511 0.3514
0.0289 -1.1530 0.3513
0.1318 -1.1461 0.3514
0.2337 -1.1304 0.3516
0.3340 -1.1060 0.3519
0.4319 -1.0730 0.3523
0.5267 -1.0317 0.3528
0.6178 -0.9823 0.3535
0.7044 -0.9251 0.3542
0.7860 -0.8605 0.3550
0.8619 -0.7889 0.3559
0.9315 -0.7108 0.3569
0.9941 -0.6266 0.3580
1.0494 -0.5371 0.3591
5.1091 -2.0622 1.6783
5.2955 -1.6048 1.6855
5.4418 -1.1306 1.6930
5.5461 -0.6433 1.7007
5.6027 -0.1462 1.7072
5.6117 0.3558 1.7128
5.5757 0.8581 1.7184
5.4945 1.3568 1.7239
5.3684 1.8477 1.7294
5.1980 2.3267 1.7347
1.0699 0.5988 0.3735
1.0154 0.6942 0.3747
0.9523 0.7845 0.3758
0.8810 0.8688 0.3769
0.8020 0.9465 0.3779
0.7160 1.0167 0.3788
0.6237 1.0788 0.3796
0.5258 1.1322 0.3802
0.4233 1.1763 0.3808
0.3169 1.2108 0.3813
0.2078 1.2353 0.3816
0.0967 1.2495 0.3817
-0.0152 1.2533 0.3818
-0.1270 1.2467 0.3817
-0.2377 1.2297 0.3815
-0.3462 1.2025 0.3812
-0.4516 1.1654 0.3807
-0.5530 1.1187 0.3801
-0.6494 1.0629 0.3794
-0.7402 0.9985 0.3786
-0.8243 0.9262 0.3777
-0.9013 0.8467 0.3767
-0.9705 0.7606 0.3756
-1.0313 0.6689 0.3744
-5.4963 2.9032 1.8934
-0.8735 0.8365 0.3766
-0.9420 0.7530 0.3755
-1.0025 0.6639 0.3744
-1.0544 0.5700 0.3732
-5.5698 2.3957 1.8878
-5.7440 1.8832 1.8821
-5.8709 1.3586 1.8762
-5.9499 0.8265 1.8703
-5.9808 0.2911 1.8643
-5.9639 -0.2432 1.8584
-5.8944 -0.7715 1.8509
-5.7764 -1.2889 1.8427
-5.6139 -1.7917 1.8348
-1.0666 -0.4488 0.3603
-1.0189 -0.5405 0.3591
-0.9637 -0.6274 0.3580
-0.9012 -0.7088 0.3570
-0.8321 -0.7843 0.3560
-0.7569 -0.8534 0.3551
-0.6762 -0.9155 0.3544
-0.5906 -0.9703 0.3537
-0.5007 -1.0174 0.3531
-0.4073 -1.0566 0.3526
-0.3110 -1.0875 0.3522
-0.2125 -1.1100 0.3519
-0.1125 -1.1240 0.3517
-0.0118 -1.1293 0.3516
0.0891 -1.1260 0.3517
0.1894 -1.1140 0.3518
0.2883 -1.0934 0.3521
0.3851 -1.0644 0.3524
0.4792 -1.0272 0.3529
0.5699 -0.9819 0.3535
0.6566 -0.9288 0.3541
0.7384 -0.8684 0.3549
0.8150 -0.8009 0.3558
0.8855 -0.7268 0.3567
0.9496 -0.6467 0.3577
1.0065 -0.5611 0.3588
1.0560 -0.4705 0.3599
5.1148 -1.7505 1.6832
5.2733 -1.2924 1.6904
5.3913 -0.8201 1.6979
5.4660 -0.3369 1.7051
5.4918 0.1528 1.7105
5.4737 0.6446 1.7160
5.4114 1.1342 1.7215
5.3051 1.6178 1.7268
5.1551 2.0913 1.7321
1.0650 0.5474 0.3728
1.0151 0.6424 0.3740
0.9567 0.7327 0.3752
0.8900 0.8175 0.3762
0.8156 0.8960 0.3772
0.7341 0.9676 0.3782
0.6462 1.0315 0.3790
0.5526 1.0871 0.3797
0.4540 1.1338 0.3803
0.3515 1.1713 0.3807
0.2457 1.1991 0.3811
0.1378 1.2170 0.3813
0.0286 1.2248 0.3814
-0.0809 1.2223 0.3814
-0.1896 1.2097 0.3813
-0.2966 1.1871 0.3810
-0.4010 1.1547 0.3806
-0.5017 1.1127 0.3800
-0.5981 1.0617 0.3794
-0.6891 1.0021 0.3786
-0.7740 0.9344 0.3778
-0.8522 0.8594 0.3768
-0.9230 0.7778 0.3758
-0.9858 0.6903 0.3747
-1.0403 0.5976 0.3735
-5.5107 2.5410 1.8894
-5.6984 2.0328 1.8837
-5.8391 1.5113 1.8779
-5.9320 0.9809 1.8720
-5.9768 0.4460 1.8661
-5.9737 -0.0890 1.8601
-5.9201 -0.6197 1.8533
-5.8151 -1.1406 1.8451
-5.6654 -1.6480 1.8370
-1.0788 -0.4215 0.3606
-1.0335 -0.5144 0.3595
-0.9804 -0.6028 0.3583
-0.9200 -0.6859 0.3573
-0.8527 -0.7632 0.3563
-0.7792 -0.8341 0.3554
-0.7000 -0.8983 0.3546
-0.6158 -0.9552 0.3539
-0.5271 -1.0046 0.3532
-0.4347 -1.0461 0.3527
-0.3391 -1.0794 0.3523
-0.2412 -1.1044 0.3520
-0.1416 -1.1208 0.3517
-0.0409 -1.1287 0.3516
0.0600 -1.1278 0.3516
0.1605 -1.1183 0.3518
0.2598 -1.1002 0.3520
0.3574 -1.0737 0.3523
0.4523 -1.0388 0.3528
0.5441 -0.9958 0.3533
0.6320 -0.9449 0.3539
0.7153 -0.8866 0.3547
0.7934 -0.8211 0.3555
0.8658 -0.7489 0.3564
0.9317 -0.6705 0.3574
0.9908 -0.5864 0.3585
1.0425 -0.4971 0.3596
1.0863 -0.4034 0.3608
5.2315 -1.4265 1.6883
5.3614 -0.9580 1.6957
5.4499 -0.4776 1.7033
5.4888 0.0108 1.7090
5.4834 0.5024 1.7144
5.4339 0.9931 1.7199
5.3403 1.4788 1.7253
5.2029 1.9556 1.7306
1.0777 0.5192 0.3725
1.0305 0.6153 0.3737
0.9744 0.7071 0.3748
0.9101 0.7935 0.3759
0.8379 0.8740 0.3770
0.7584 0.9476 0.3779
0.6723 1.0138 0.3787
0.5802 1.0719 0.3795
0.4830 1.1212 0.3801
0.3815 1.1614 0.3806
0.2766 1.1921 0.3810
0.1692 1.2129 0.3813
0.0602 1.2236 0.3814
-0.0492 1.2241 0.3814
-0.1583 1.2144 0.3813
-0.2659 1.1947 0.3811
-0.3711 1.1650 0.3807
-0.4730 1.1258 0.3802
-0.5707 1.0773 0.3796
-0.6633 1.0201 0.3789
-0.7501 0.9548 0.3780
-0.8303 0.8818 0.3771
-0.9033 0.8020 0.3761
-0.9685 0.7161 0.3750
-1.0254 0.6249 0.3739
-1.0736 0.5291 0.3727
-5.6489 2.1814 1.8854
-5.8033 1.6633 1.8796
-5.9101 1.1350 1.8737
-5.9688 0.6010 1.8678
-5.9795 0.0655 1.8618
-5.9418 -0.4670 1.8557
-5.8502 -0.9911 1.8474
-5.7132 -1.5028 1.8393
-1.0904 -0.3939 0.3610
-1.0475 -0.4880 0.3598
-0.9965 -0.5777 0.3586
-0.9382 -0.6624 0.3576
-0.8728 -0.7414 0.3566
-0.8011 -0.8143 0.3556
-0.7235 -0.8804 0.3548
-0.6406 -0.9395 0.3541
-0.5532 -0.9911 0.3534
-0.4618 -1.0349 0.3528
-0.3671 -1.0706 0.3524
-0.2697 -1.0980 0.3520
-0.1705 -1.1169 0.3518
-0.0701 -1.1273 0.3517
0.0308 -1.1290 0.3516
0.1315 -1.1220 0.3517
0.2313 -1.1064 0.3519
0.3294 -1.0822 0.3522
0.4252 -1.0497 0.3526
0.5179 -1.0090 0.3531
0.6070 -0.9604 0.3537
0.6917 -0.9042 0.3545
0.7714 -0.8408 0.3553
0.8455 -0.7705 0.3561
0.9134 -0.6938 0.3571
0.9745 -0.6113 0.3582
1.0283 -0.5234 0.3593
1.0744 -0.4309 0.3604
5.1864 -1.5593 1.6862
5.3281 -1.0948 1.6936
5.4286 -0.6176 1.7011
5.4822 -0.1309 1.7074
5.4895 0.3601 1.7129
5.4528 0.8515 1.7183
5.3719 1.3391 1.7237
5.2471 1.8189 1.7291
1.0898 0.4907 0.3721
1.0450 0.5879 0.3733
0.9915 0.6810 0.3745
0.9295 0.7691 0.3756
0.8595 0.8514 0.3767
0.7821 0.9271 0.3776
0.6978 0.9955 0.3785
0.6074 1.0559 0.3793
0.5116 1.1079 0.3799
0.4112 1.1508 0.3805
0.3072 1.1842 0.3809
0.2004 1.2079 0.3812
0.0918 1.2215 0.3814
-0.0176 1.2250 0.3814
-0.1268 1.2183 0.3814
-0.2350 1.2014 0.3812
-0.3410 1.1746 0.3808
-0.4439 1.1381 0.3804
-0.5429 1.0923 0.3798
-0.6371 1.0376 0.3791
-0.7257 0.9745 0.3783
-0.8079 0.9037 0.3774
-0.8830 0.8258 0.3764
-0.9505 0.7416 0.3754
-1.0098 0.6518 0.3742
-1.0606 0.5572 0.3730
-5.5955 2.3287 1.8870
-5.7635 1.8144 1.8813
-5.8841 1.2886 1.8754
-5.9568 0.7557 1.8695
-5.9813 0.2203 1.8636
-5.9581 -0.3136 1.8576
-5.8814 -0.8407 1.8498
-5.7574 -1.3563 1.8416
-5.5892 -1.8569 1.8337
-1.0607 -0.4612 0.3601
-1.0121 -0.5523 0.3590
-0.9558 -0.6385 0.3579
-0.8924 -0.7192 0.3569
-0.8225 -0.7939 0.3559
-0.7465 -0.8620 0.3550
-0.6651 -0.9232 0.3543
-0.5789 -0.9770 0.3536
-0.4886 -1.0231 0.3530
-0.3947 -1.0611 0.3525
-0.2981 -1.0910 0.3521
-0.1994 -1.1123 0.3519
-0.0992 -1.1252 0.3517
0.0016 -1.1294 0.3516
0.1024 -1.1249 0.3517
0.2025 -1.1117 0.3518
0.3012 -1.0901 0.3521
0.3977 -1.0600 0.3525
0.4915 -1.0216 0.3530
0.5817 -0.9753 0.3536
0.6677 -0.9212 0.3542
0.7489 -0.8598 0.3550
0.8247 -0.7915 0.3559
0.8944 -0.7166 0.3568
0.9575 -0.6357 0.3578
1.0135 -0.5493 0.3589
1.0619 -0.4581 0.3601
5.1380 -1.6908 1.6841
5.2913 -1.2306 1.6914
5.4038 -0.7567 1.6989
5.4719 -0.2724 1.7058
5.4919 0.2179 1.7113
5.4680 0.7096 1.7167
5.3999 1.1987 1.7222
5.2877 1.6811 1.7276
1.1010 0.4619 0.3717
1.0589 0.5602 0.3730
1.0079 0.6546 0.3742
0.9483 0.7442 0.3753
0.8806 0.8282 0.3764
0.8052 0.9059 0.3774
0.7229 0.9765 0.3783
0.6341 1.0393 0.3791
0.5398 1.0938 0.3798
0.4407 1.1393 0.3803
0.3376 1.1755 0.3808
0.2315 1.2021 0.3811
0.1234 1.2186 0.3814
0.0141 1.2250 0.3814
-0.0953 1.2213 0.3814
-0.2039 1.2073 0.3812
-0.3106 1.1834 0.3809
-0.4145 1.1496 0.3805
-0.5148 1.1065 0.3800
-0.6104 1.0543 0.3793
-0.7007 0.9936 0.3785
-0.7848 0.9249 0.3777
-0.8620 0.8490 0.3767
-0.9318 0.7665 0.3757
-0.9935 0.6783 0.3746
-1.0468 0.5850 0.3734
-5.5382 2.4747 1.8887
-5.7198 1.9645 1.8830
-5.8541 1.4416 1.8772
-5.9407 0.9103 1.8712
-5.9791 0.3752 1.8653
-5.9697 -0.1596 1.8593
-5.9088 -0.6892 1.8522
-5.7979 -1.2086 1.8440
-5.6423 -1.7139 1.8360
-1.0733 -0.4340 0.3605
-1.0269 -0.5264 0.3593
-0.9728 -0.6141 0.3582
-0.9114 -0.6964 0.3571
-0.8433 -0.7729 0.3562
-0.7690 -0.8430 0.3553
-0.6892 -0.9062 0.3545
-0.6043 -0.9622 0.3538
-0.5151 -1.0105 0.3532
-0.4222 -1.0510 0.3526
-0.3263 -1.0832 0.3522
-0.2281 -1.1070 0.3519
-0.1283 -1.1224 0.3517
-0.0276 -1.1290 0.3516
0.0733 -1.1271 0.3517
0.1737 -1.1164 0.3518
0.2729 -1.0972 0.3520
0.3701 -1.0695 0.3524
0.4647 -1.0335 0.3528
0.5560 -0.9895 0.3534
0.6433 -0.9376 0.3540
0.7259 -0.8783 0.3548
0.8033 -0.8119 0.3556
0.8749 -0.7389 0.3565
0.9400 -0.6597 0.3575
0.9981 -0.5748 0.3586
1.0487 -0.4850 0.3598
1.0915 -0.3907 0.3609
5.2511 -1.3653 1.6893
5.3755 -0.8950 1.6967
5.4580 -0.4134 1.7042
5.4906 0.0758 1.7097
5.4794 0.5675 1.7152
5.4241 1.0577 1.7206
5.3247 1.5425 1.7260
5.1815 2.0179 1.7313
1.0720 0.5321 0.3726
1.0235 0.6277 0.3738
0.9664 0.7188 0.3750
0.9010 0.8046 0.3761
0.8278 0.8841 0.3771
0.7474 0.9568 0.3780
0.6604 1.0220 0.3788
0.5676 1.0789 0.3796
0.4698 1.1271 0.3802
0.3678 1.1660 0.3807
0.2625 1.1954 0.3811
0.1548 1.2149 0.3813
0.0458 1.2242 0.3814
-0.0637 1.2234 0.3814
-0.1726 1.2124 0.3813
-0.2800 1.1913 0.3810
-0.3848 1.1604 0.3806
-0.4862 1.1199 0.3801
-0.5833 1.0703 0.3795
-0.6752 1.0120 0.3788
-0.7611 0.9455 0.3779
-0.8404 0.8717 0.3770
-0.9124 0.7910 0.3760
-0.9765 0.7043 0.3749
-1.0323 0.6125 0.3737
-1.0793 0.5162 0.3725
-5.6721 2.1136 1.8846
-5.8202 1.5938 1.8788
-5.9206 1.0646 1.8730
-5.9730 0.5301 1.8670
-5.9773 -0.0052 1.8610
-5.9323 -0.5370 1.8546
-5.8346 -1.0596 1.8463
-5.6918 -1.5694 1.8383
-1.0852 -0.4065 0.3608
-1.0412 -0.5002 0.3596
-0.9892 -0.5892 0.3585
-0.9299 -0.6732 0.3574
-0.8637 -0.7514 0.3564
-0.7911 -0.8234 0.3555
-0.7128 -0.8887 0.3547
-0.6293 -0.9468 0.3540
-0.5413 -0.9974 0.3533
-0.4494 -1.0401 0.3528
-0.3543 -1.0747 0.3523
-0.2567 -1.1010 0.3520
-0.1573 -1.1188 0.3518
-0.0568 -1.1280 0.3516
0.0442 -1.1285 0.3516
0.1448 -1.1204 0.3517
0.2443 -1.1037 0.3519
0.3422 -1.0784 0.3523
0.4376 -1.0448 0.3527
0.5299 -1.0030 0.3532
0.6185 -0.9534 0.3538
0.7025 -0.8962 0.3546
0.7815 -0.8318 0.3554
0.8548 -0.7607 0.3563
0.9218 -0.6832 0.3572
0.9820 -0.5999 0.3583
1.0349 -0.5115 0.3594
1.0799 -0.4184 0.3606
5.2075 -1.4987 1.6872
5.3437 -1.0323 1.6946
5.4388 -0.5536 1.7021
5.4857 -0.0661 1.7081
5.4872 0.4252 1.7136
5.4446 0.9163 1.7190
5.3579 1.4031 1.7245
5.2274 1.8816 1.7298
1.0844 0.5037 0.3723
1.0385 0.6005 0.3735
0.9838 0.6930 0.3747
0.9207 0.7804 0.3758
0.8497 0.8618 0.3768
0.7713 0.9366 0.3778
0.6862 1.0040 0.3786
0.5950 1.0633 0.3794
0.4985 1.1141 0.3800
0.3977 1.1558 0.3805
0.2932 1.1879 0.3810
0.1861 1.2103 0.3812
0.0774 1.2226 0.3814
-0.0321 1.2247 0.3814
-0.1412 1.2166 0.3813
-0.2491 1.1984 0.3811
-0.3548 1.1703 0.3808
-0.4573 1.1326 0.3803
-0.5557 1.0855 0.3797
-0.6492 1.0297 0.3790
-0.7369 0.9655 0.3782
-0.8182 0.8938 0.3773
-0.8924 0.8150 0.3763
-0.9588 0.7300 0.3752
-1.0171 0.6395 0.3741
-1.0666 0.5444 0.3729
-5.6204 2.2615 1.8863
-5.7822 1.7454 1.8805
-5.8965 1.2184 1.8747
-5.9628 0.6850 1.8687
-5.9810 0.1494 1.8628
-5.9514 -0.3839 1.8568
-5.8676 -0.9096 1.8487
-5.7376 -1.4235 1.8406
-5.5637 -1.9218 1.8327
-1.0547 -0.4735 0.3600
-1.0050 -0.5640 0.3588
-0.9478 -0.6495 0.3577
-0.8835 -0.7294 0.3567
-0.8127 -0.8033 0.3558
-0.7360 -0.8705 0.3549
-0.6540 -0.9307 0.3542
-0.5672 -0.9835 0.3535
-0.4763 -1.0286 0.3529
-0.3821 -1.0656 0.3524
-0.2852 -1.0943 0.3521
-0.1862 -1.1145 0.3518
-0.0859 -1.1262 0.3517
0.0150 -1.1293 0.3516
0.1157 -1.1236 0.3517
0.2157 -1.1094 0.3519
0.3141 -1.0866 0.3522
0.4103 -1.0554 0.3526
0.5036 -1.0159 0.3530
0.5933 -0.9686 0.3536
0.6787 -0.9135 0.3543
0.7592 -0.8512 0.3551
0.8342 -0.7819 0.3560
0.9031 -0.7062 0.3570
0.9654 -0.6246 0.3580
1.0204 -0.5375 0.3591
1.0677 -0.4457 0.3602
5.1606 -1.6308 1.6851
5.3085 -1.1687 1.6924
5.4156 -0.6931 1.6999
5.4771 -0.2077 1.7065
5.4913 0.2830 1.7120
5.4615 0.7745 1.7175
5.3875 1.2630 1.7229
5.2696 1.7443 1.7283
1.0959 0.4751 0.3719
1.0527 0.5729 0.3731
1.0005 0.6667 0.3743
0.9398 0.7557 0.3755
0.8710 0.8389 0.3765
0.7947 0.9157 0.3775
0.7115 0.9853 0.3784
0.6219 1.0470 0.3792
0.5269 1.1003 0.3798
0.4272 1.1447 0.3804
0.3237 1.1796 0.3809
0.2173 1.2048 0.3812
0.1090 1.2200 0.3814
-0.0004 1.2251 0.3814
-0.1097 1.2200 0.3814
-0.2181 1.2047 0.3812
-0.3245 1.1795 0.3809
-0.4280 1.1445 0.3804
-0.5277 1.1001 0.3799
-0.6227 1.0467 0.3792
-0.7122 0.9849 0.3784
-0.7954 0.9153 0.3775
-0.8717 0.8384 0.3766
-0.9404 0.7552 0.3755
-1.0011 0.6662 0.3744
-1.0532 0.5723 0.3732
-5.5649 2.4081 1.8879
-5.7403 1.8959 1.8822
-5.8684 1.3717 1.8764
-5.9485 0.8396 1.8705
-5.9806 0.3043 1.8645
-5.9648 -0.2301 1.8585
-5.8967 -0.7586 1.8511
-5.7798 -1.2763 1.8429
-5.6184 -1.7795 1.8350
-1.0676 -0.4465 0.3603
-1.0202 -0.5383 0.3591
-0.9651 -0.6253 0.3580
-0.9028 -0.7069 0.3570
-0.8338 -0.7826 0.3560
-0.7588 -0.8518 0.3552
-0.6782 -0.9141 0.3544
-0.5927 -0.9690 0.3537
-0.5030 -1.0164 0.3531
-0.4097 -1.0557 0.3526
-0.3134 -1.0868 0.3522
-0.2150 -1.1096 0.3519
-0.1150 -1.1237 0.3517
-0.0142 -1.1293 0.3516
0.0866 -1.1261 0.3517
0.1869 -1.1144 0.3518
0.2859 -1.0940 0.3521
0.3828 -1.0652 0.3524
0.4770 -1.0282 0.3529
0.5678 -0.9831 0.3535
0.6545 -0.9302 0.3541
0.7365 -0.8699 0.3549
0.8132 -0.8026 0.3557
0.8839 -0.7287 0.3567
0.9481 -0.6488 0.3577
1.0052 -0.5632 0.3588
1.0549 -0.4727 0.3599
5.1104 -1.7615 1.6830
5.2699 -1.3038 1.6903
5.3889 -0.8318 1.6977
5.4649 -0.3489 1.7050
5.4917 0.1408 1.7104
5.4746 0.6325 1.7159
5.4135 1.1222 1.7213
5.3082 1.6060 1.7267
5.1593 2.0798 1.7320
1.0661 0.5450 0.3728
1.0165 0.6401 0.3740
0.9582 0.7305 0.3751
0.8917 0.8155 0.3762
0.8175 0.8942 0.3772
0.7362 0.9659 0.3781
0.6484 1.0300 0.3789
0.5549 1.0858 0.3797
0.4565 1.1328 0.3803
0.3540 1.1705 0.3807
0.2483 1.1985 0.3811
0.1404 1.2167 0.3813
0.0313 1.2247 0.3814
-0.0782 1.2225 0.3814
-0.1869 1.2102 0.3813
-0.2940 1.1878 0.3810
-0.3984 1.1556 0.3806
-0.4993 1.1138 0.3801
-0.5958 1.0630 0.3794
-0.6869 1.0036 0.3787
-0.7720 0.9362 0.3778
-0.8504 0.8614 0.3769
-0.9214 0.7799 0.3758
-0.9844 0.6925 0.3747
-1.0390 0.5999 0.3736
-5.5055 2.5533 1.8895
-5.6944 2.0455 1.8839
-5.8362 1.5243 1.8781
-5.9303 0.9941 1.8722
-5.9763 0.4592 1.8662
-5.9743 -0.0759 1.8603
-5.9221 -0.6067 1.8535
-5.8183 -1.1279 1.8453
-5.6696 -1.6357 1.8372
-1.0799 -0.4192 0.3607
-1.0347 -0.5122 0.3595
-0.9818 -0.6007 0.3584
-0.9215 -0.6839 0.3573
-0.8545 -0.7613 0.3563
-0.7811 -0.8324 0.3554
-0.7020 -0.8968 0.3546
-0.6179 -0.9539 0.3539
-0.5293 -1.0035 0.3532
-0.4370 -1.0452 0.3527
-0.3415 -1.0787 0.3523
-0.2436 -1.1038 0.3520
-0.1440 -1.1205 0.3517
-0.0434 -1.1286 0.3516
0.0575 -1.1279 0.3516
0.1580 -1.1187 0.3518
0.2574 -1.1008 0.3520
0.3550 -1.0744 0.3523
0.4500 -1.0397 0.3527
0.5419 -0.9969 0.3533
0.6299 -0.9463 0.3539
0.7133 -0.8881 0.3547
0.7916 -0.8228 0.3555
0.8641 -0.7508 0.3564
0.9302 -0.6725 0.3574
0.9895 -0.5885 0.3584
1.0413 -0.4994 0.3596
1.0853 -0.4058 0.3608
5.2278 -1.4378 1.6881
5.3587 -0.9696 1.6955
5.4482 -0.4895 1.7031
5.4884 -0.0012 1.7088
5.4841 0.4903 1.7143
5.4357 0.9810 1.7198
5.3432 1.4670 1.7252
5.2068 1.9441 1.7305
1.0788 0.5168 0.3724
1.0317 0.6130 0.3737
0.9759 0.7049 0.3748
0.9118 0.7915 0.3759
0.8397 0.8721 0.3769
0.7604 0.9459 0.3779
0.6744 1.0123 0.3787
0.5825 1.0705 0.3795
0.4854 1.1201 0.3801
0.3840 1.1606 0.3806
0.2792 1.1914 0.3810
0.1718 1.2125 0.3813
0.0629 1.2234 0.3814
-0.0466 1.2242 0.3814
-0.1556 1.2148 0.3813
-0.2633 1.1953 0.3811
-0.3686 1.1659 0.3807
-0.4706 1.1269 0.3802
-0.5684 1.0786 0.3796
-0.6611 1.0217 0.3789
-0.7481 0.9565 0.3781
-0.8285 0.8837 0.3771
-0.9016 0.8041 0.3761
-0.9670 0.7183 0.3751
-1.0241 0.6272 0.3739
-1.0725 0.5315 0.3727
-5.6445 2.1939 1.8855
-5.8001 1.6761 1.8798
-5.9080 1.1481 1.8739
-5.9679 0.6141 1.8679
-5.9798 0.0786 1.8620
-5.9435 -0.4540 1.8559
-5.8530 -0.9784 1.8476
-5.7171 -1.4904 1.8395
-1.0914 -0.3915 0.3610
-1.0486 -0.4857 0.3598
-0.9979 -0.5756 0.3587
-0.9397 -0.6604 0.3576
-0.8745 -0.7396 0.3566
-0.8029 -0.8126 0.3557
-0.7254 -0.8789 0.3548
-0.6427 -0.9382 0.3541
-0.5554 -0.9899 0.3534
-0.4640 -1.0339 0.3529
-0.3694 -1.0698 0.3524
-0.2722 -1.0974 0.3520
-0.1730 -1.1166 0.3518
-0.0726 -1.1271 0.3517
0.0283 -1.1290 0.3516
0.1290 -1.1222 0.3517
0.2288 -1.1068 0.3519
0.3270 -1.0829 0.3522
0.4228 -1.0506 0.3526
0.5157 -1.0101 0.3531
0.6049 -0.9617 0.3537
0.6897 -0.9057 0.3544
0.7695 -0.8424 0.3552
0.8437 -0.7723 0.3561
0.9118 -0.6957 0.3571
0.9731 -0.6133 0.3581
1.0271 -0.5257 0.3592
1.0734 -0.4333 0.3604
5.1825 -1.5705 1.6860
5.3251 -1.1064 1.6934
5.4267 -0.6294 1.7009
5.4815 -0.1430 1.7073
5.4899 0.3481 1.7127
5.4542 0.8394 1.7182
5.3744 1.3272 1.7236
5.2507 1.8072 1.7290
1.0907 0.4882 0.3721
1.0463 0.5856 0.3733
0.9929 0.6788 0.3745
0.9311 0.7670 0.3756
0.8614 0.8494 0.3767
0.7841 0.9253 0.3776
0.7000 0.9939 0.3785
0.6097 1.0546 0.3793
0.5140 1.1067 0.3799
0.4137 1.1498 0.3805
0.3098 1.1835 0.3809
0.2031 1.2074 0.3812
0.0945 1.2213 0.3814
-0.0149 1.2250 0.3814
-0.1242 1.2186 0.3814
-0.2323 1.2020 0.3812
-0.3384 1.1754 0.3808
-0.4414 1.1391 0.3804
-0.5406 1.0935 0.3798
-0.6349 1.0390 0.3791
-0.7236 0.9761 0.3783
-0.8059 0.9055 0.3774
-0.8812 0.8278 0.3764
-0.9489 0.7437 0.3754
-1.0085 0.6540 0.3742
-1.0595 0.5596 0.3731
-0.8544 0.8182 0.3763
-0.9215 0.7366 0.3753
