ply
format ascii 1.0
element vertex 2086
property float32 x
property float32 y
property float32 z
end_header
9.0998 10.3533 1.6207
8.1443 11.1298 1.6216
7.1276 11.8264 1.6235
6.0181 12.3616 1.6165
5.0538 13.2758 1.6702
4.0161 14.2661 1.7426
2.7226 14.5419 1.7395
1.4132 14.7138 1.7380
0.0950 14.7812 1.7380
-1.2251 14.7438 1.7395
-2.5399 14.6015 1.7426
-3.8425 14.3544 1.7472
-5.1256 14.0031 1.7533
-6.3819 13.5485 1.7609
-7.6040 12.9917 1.7699
-8.7815 12.3302 1.7798
-9.9026 11.5631 1.7900
-10.9632 10.7006 1.8013
-11.9556 9.7463 1.8136
-12.8601 8.6969 1.8254
-13.6518 7.5521 1.8344
-14.3451 6.3368 1.8439
-14.9200 5.0545 1.8522
-15.3445 3.7113 1.8562
-15.6488 2.3328 1.8603
-15.7986 0.9277 1.8608
-15.7974 -0.4847 1.8583
-15.6705 -1.8896 1.8558
-15.3730 -3.2659 1.8479
-14.9516 -4.6031 1.8394
-14.4168 -5.8921 1.8312
-13.7349 -7.1037 1.8181
-12.9586 -8.2447 1.8059
-12.0950 -9.3091 1.7945
-11.1382 -10.2789 1.7820
-10.1031 -11.1501 1.7691
-9.0096 -11.9294 1.7577
-7.8649 -12.6142 1.7478
-6.6763 -13.2023 1.7395
-5.4507 -13.6920 1.7327
-4.1934 -14.0761 1.7269
-2.9134 -14.3573 1.7225
-1.6188 -14.5398 1.7201
-0.3152 -14.6233 1.7198
0.9916 -14.6075 1.7215
2.2957 -14.4922 1.7252
3.5911 -14.2762 1.7308
4.4879 -12.8605 1.6015
5.6425 -12.4645 1.6087
6.7330 -11.9133 1.6090
7.7651 -11.2597 1.6082
8.7294 -10.5109 1.6065
9.6258 -9.6837 1.6054
10.4546 -8.7892 1.6059
11.1997 -7.8234 1.6063
11.8442 -6.7881 1.6051
12.4047 -5.7054 1.6054
12.6379 -4.4955 1.5771
12.7031 -3.2766 1.5425
12.7602 -2.0999 1.5205
12.8161 -0.9472 1.5110
13.0052 0.2023 1.5293
13.4799 1.4189 1.5937
13.3235 2.6205 1.5966
13.0721 3.8090 1.6009
12.7262 4.9779 1.6067
12.2865 6.1209 1.6140
11.7189 7.2094 1.6177
11.0373 8.2323 1.6190
6.2360 5.5827 0.9841
9.4090 10.0736 1.6207
8.4747 10.8753 1.6211
7.4794 11.6014 1.6230
6.3980 12.1906 1.6188
5.2651 12.6649 1.6127
4.4492 14.1493 1.7440
3.1627 14.4601 1.7404
1.8579 14.6672 1.7383
0.5419 14.7701 1.7378
-0.7783 14.7682 1.7388
-2.0957 14.6614 1.7414
-3.4033 14.4497 1.7454
-4.6937 14.1337 1.7510
-5.9599 13.7139 1.7581
-7.1945 13.1916 1.7667
-8.3897 12.5677 1.7767
-9.5294 11.8337 1.7864
-10.6114 11.0031 1.7973
-11.6277 10.0794 1.8093
-12.5705 9.0668 1.8224
-13.3944 7.9480 1.8313
-14.1218 6.7557 1.8406
-14.7464 5.4982 1.8504
-15.2140 4.1706 1.8548
-15.5594 2.8029 1.8589
-15.7705 1.4057 1.8616
-15.8119 -0.0068 1.8591
-15.7275 -1.4154 1.8567
-15.4893 -2.8039 1.8508
-15.1072 -4.1552 1.8422
-14.6106 -5.4618 1.8340
-13.9767 -6.7010 1.8224
-13.2316 -7.8667 1.8099
-12.3967 -8.9576 1.7983
-11.4742 -9.9636 1.7868
-10.4605 -10.8653 1.7733
-9.3859 -11.6760 1.7614
-8.2578 -12.3931 1.7510
-7.0832 -13.0141 1.7421
-5.8694 -13.5373 1.7348
-4.6223 -13.9586 1.7289
-3.3488 -14.2731 1.7238
-2.0585 -14.4891 1.7207
-0.7573 -14.6062 1.7197
0.5491 -14.6240 1.7207
1.8548 -14.5424 1.7237
3.1539 -14.3611 1.7288
4.0916 -12.9733 1.5994
5.2545 -12.6091 1.6061
6.3724 -12.1166 1.6096
7.4213 -11.4897 1.6082
8.4113 -10.7749 1.6072
9.3295 -9.9715 1.6056
10.1818 -9.0993 1.6055
10.9629 -8.1622 1.6070
11.6352 -7.1442 1.6053
12.2245 -6.0769 1.6051
12.6171 -4.9228 1.5924
12.6833 -3.6840 1.5529
12.7410 -2.4946 1.5265
12.7973 -1.3360 1.5128
12.8530 -0.1889 1.5114
13.5132 1.0104 1.5933
13.3872 2.2148 1.5954
13.1679 3.4085 1.5993
12.8538 4.5847 1.6046
12.4458 5.7372 1.6113
11.9309 6.8513 1.6176
11.2773 7.8919 1.6184
10.5421 8.8782 1.6205
5.8845 5.9300 0.9823
8.7981 10.6121 1.6208
7.8230 11.3643 1.6222
6.7737 12.0092 1.6211
5.6524 12.5147 1.6146
4.8794 14.0208 1.7455
3.6007 14.3664 1.7414
2.3014 14.6087 1.7388
0.9883 14.7470 1.7378
-0.3312 14.7806 1.7383
-1.6504 14.7093 1.7403
-2.9621 14.5331 1.7439
-4.2592 14.2524 1.7490
-5.5344 13.8676 1.7556
-6.7804 13.3799 1.7636
-7.9900 12.7904 1.7732
-9.1495 12.0932 1.7830
-10.2519 11.2949 1.7935
-11.2914 10.4024 1.8051
-12.2600 9.4194 1.8178
-13.1259 8.3355 1.8282
-13.8867 7.1671 1.8374
-14.5468 5.9308 1.8471
-15.0699 4.6254 1.8535
-15.4560 3.2697 1.8575
-15.7208 1.8820 1.8616
-15.8120 0.4716 1.8600
-15.7701 -0.9396 1.8575
-15.5919 -2.3379 1.8537
-15.2496 -3.7022 1.8451
-14.7912 -5.0250 1.8367
-14.2074 -6.2905 1.8269
-13.4943 -7.4800 1.8141
-12.6890 -8.5970 1.8021
-11.7988 -9.6353 1.7911
-10.8109 -10.5700 1.7777
-9.7561 -11.4118 1.7653
-8.6453 -12.1609 1.7543
-7.4857 -12.8147 1.7449
-6.2844 -13.3712 1.7371
-5.0483 -13.8288 1.7309
-3.7822 -14.1776 1.7253
-2.4969 -14.4270 1.7215
-1.1987 -14.5776 1.7198
0.1065 -14.6291 1.7201
1.4131 -14.5812 1.7224
2.7152 -14.4337 1.7268
3.7135 -13.1480 1.6064
4.8634 -12.7429 1.6037
6.0064 -12.3106 1.6105
7.0717 -11.7109 1.6085
8.0862 -11.0307 1.6081
9.0258 -10.2515 1.6059
9.9009 -9.4021 1.6054
10.7071 -8.4868 1.6064
11.4168 -7.4947 1.6057
12.0344 -6.4435 1.6050
12.5671 -5.3467 1.6058
12.6573 -4.0953 1.5642
12.7217 -2.8929 1.5340
12.7783 -1.7261 1.5161
12.8341 -0.5772 1.5105
13.5409 0.6014 1.5937
13.4398 1.8079 1.5945
13.2528 3.0059 1.5978
12.9707 4.1888 1.6026
12.5944 5.3500 1.6089
12.1248 6.4832 1.6166
11.5079 7.5454 1.6180
10.7999 8.5507 1.6196
5.9119 5.6078 0.9581
9.1144 10.3404 1.6207
8.1599 11.1181 1.6215
7.1449 11.8172 1.6237
6.0360 12.3538 1.6166
5.0521 13.2153 1.6635
4.0364 14.2609 1.7426
2.7432 14.5383 1.7395
1.4340 14.7119 1.7380
0.1159 14.7810 1.7380
-1.2042 14.7452 1.7395
-2.5192 14.6045 1.7425
-3.8220 14.3591 1.7471
-5.1055 14.0095 1.7532
-6.3622 13.5565 1.7607
-7.5850 13.0013 1.7698
-8.7634 12.3415 1.7797
-9.8853 11.5760 1.7898
-10.9470 10.7149 1.8011
-11.9405 9.7621 1.8134
-12.8468 8.7143 1.8252
-13.6400 7.5707 1.8342
-14.3351 6.3565 1.8437
-14.9124 5.0754 1.8521
-15.3387 3.7329 1.8561
-15.6449 2.3548 1.8602
-15.7976 0.9500 1.8608
-15.7984 -0.4625 1.8583
-15.6735 -1.8675 1.8559
-15.3787 -3.2444 1.8480
-14.9592 -4.5823 1.8395
-14.4268 -5.8724 1.8314
-13.7464 -7.0851 1.8183
-12.9716 -8.2273 1.8061
-12.1093 -9.2929 1.7947
-11.1541 -10.2644 1.7823
-10.1199 -11.1370 1.7693
-9.0273 -11.9178 1.7579
-7.8834 -12.6041 1.7480
-6.6954 -13.1938 1.7396
-5.4703 -13.6851 1.7328
-4.2134 -14.0709 1.7270
-2.9338 -14.3536 1.7225
-1.6393 -14.5377 1.7201
-0.3359 -14.6228 1.7198
0.9709 -14.6086 1.7214
2.2751 -14.4948 1.7251
3.5707 -14.2805 1.7308
4.4695 -12.8660 1.6014
5.6245 -12.4715 1.6086
6.7163 -11.9230 1.6090
7.7492 -11.2706 1.6082
8.7147 -10.5234 1.6065
9.6120 -9.6973 1.6054
10.4420 -8.8039 1.6059
11.1889 -7.8394 1.6063
11.8347 -6.8048 1.6051
12.3965 -5.7228 1.6054
12.6369 -4.5152 1.5778
12.7021 -3.2955 1.5429
12.7593 -2.1182 1.5207
12.8153 -0.9654 1.5111
12.9944 0.1837 1.5280
13.4816 1.3999 1.5937
13.3268 2.6017 1.5965
13.0768 3.7904 1.6008
12.7323 4.9597 1.6066
12.2942 6.1030 1.6138
11.7290 7.1928 1.6177
11.0486 8.2165 1.6189
6.2589 5.5873 0.9865
9.4232 10.0604 1.6207
8.4899 10.8632 1.6211
7.4956 11.5906 1.6229
6.4156 12.1824 1.6189
5.2832 12.6582 1.6127
4.4693 14.1436 1.7440
3.1832 14.4560 1.7404
1.8787 14.6648 1.7383
0.5628 14.7693 1.7378
-0.7575 14.7691 1.7388
-2.0750 14.6639 1.7413
-3.3827 14.4539 1.7454
-4.6735 14.1395 1.7509
-5.9402 13.7214 1.7580
-7.1752 13.2006 1.7666
-8.3712 12.5785 1.7765
-9.5118 11.8460 1.7863
-10.5947 11.0169 1.7971
-11.6122 10.0947 1.8091
-12.5562 9.0835 1.8221
-13.3821 7.9662 1.8311
-14.1111 6.7751 1.8405
-14.7374 5.5185 1.8503
-15.2076 4.1919 1.8548
-15.5549 2.8247 1.8588
-15.7688 1.4280 1.8616
-15.8123 0.0156 1.8592
-15.7298 -1.3933 1.8567
-15.4944 -2.7823 1.8509
-15.1141 -4.1341 1.8424
-14.6193 -5.4415 1.8341
-13.9877 -6.6820 1.8227
-13.2441 -7.8488 1.8101
-12.4106 -8.9410 1.7984
-11.4897 -9.9486 1.7870
-10.4770 -10.8517 1.7735
-9.4033 -11.6639 1.7616
-8.2760 -12.3825 1.7511
-7.1021 -13.0051 1.7423
-5.8888 -13.5298 1.7349
-4.6423 -13.9529 1.7290
-3.3691 -14.2689 1.7238
-2.0790 -14.4864 1.7207
-0.7778 -14.6051 1.7197
0.5284 -14.6245 1.7206
1.8342 -14.5445 1.7236
3.1335 -14.3648 1.7287
4.0731 -12.9782 1.5993
5.2363 -12.6156 1.6060
6.3554 -12.1259 1.6097
7.4052 -11.5003 1.6082
8.3963 -10.7871 1.6072
9.3156 -9.9848 1.6056
10.1688 -9.1136 1.6055
10.9517 -8.1779 1.6071
11.6253 -7.1607 1.6054
12.2158 -6.0942 1.6051
12.6162 -4.9430 1.5932
12.6824 -3.7031 1.5534
12.7401 -2.5131 1.5268
12.7964 -1.3542 1.5130
12.8521 -0.2070 1.5113
13.5147 0.9913 1.5933
13.3899 2.1959 1.5954
13.1721 3.3897 1.5992
12.8595 4.5663 1.6045
12.4530 5.7192 1.6112
11.9405 6.8344 1.6176
11.2882 7.8759 1.6184
10.5543 8.8630 1.6205
5.8838 5.9127 0.9808
8.8131 10.5996 1.6208
7.8388 11.3530 1.6221
6.7911 12.0004 1.6212
5.6703 12.5075 1.6147
4.8995 14.0145 1.7456
3.6211 14.3618 1.7415
2.3220 14.6057 1.7389
1.0091 14.7456 1.7378
-0.3104 14.7809 1.7383
-1.6296 14.7113 1.7403
-2.9415 14.5367 1.7438
-4.2388 14.2576 1.7489
-5.5144 13.8745 1.7555
-6.7610 13.3884 1.7635
-7.9712 12.8005 1.7730
-9.1316 12.1051 1.7828
-10.2349 11.3083 1.7933
-11.2755 10.4172 1.8049
-12.2453 9.4356 1.8176
-13.1131 8.3534 1.8281
-13.8754 7.1861 1.8372
-14.5372 5.9508 1.8469
-15.0629 4.6465 1.8534
-15.4508 3.2914 1.8574
-15.7176 1.9041 1.8615
-15.8117 0.4940 1.8600
-15.7717 -0.9174 1.8575
-15.5964 -2.3161 1.8539
-15.2559 -3.6809 1.8452
-14.7994 -5.0044 1.8369
-14.2179 -6.2712 1.8271
-13.5063 -7.4618 1.8143
-12.7024 -8.5799 1.8023
-11.8135 -9.6196 1.7912
-10.8271 -10.5560 1.7779
-9.7732 -11.3992 1.7655
-8.6633 -12.1498 1.7545
-7.5043 -12.8051 1.7451
-6.3037 -13.3632 1.7372
-5.0681 -13.8224 1.7310
-3.8023 -14.1729 1.7253
-2.5173 -14.4238 1.7215
-1.2193 -14.5760 1.7198
0.0859 -14.6291 1.7201
1.3925 -14.5827 1.7224
2.6947 -14.4368 1.7267
3.7059 -13.1925 1.6112
4.8451 -12.7489 1.6036
5.9892 -12.3195 1.6106
7.0552 -11.7210 1.6085
8.0709 -11.0424 1.6082
9.0115 -10.2643 1.6060
9.8876 -9.4160 1.6054
10.6949 -8.5018 1.6064
11.4063 -7.5110 1.6058
12.0254 -6.4605 1.6050
12.5595 -5.3644 1.6058
12.6564 -4.1147 1.5648
12.7208 -2.9116 1.5344
12.7774 -1.7444 1.5163
12.8332 -0.5953 1.5105
13.5419 0.5823 1.5937
13.4420 1.7889 1.5944
13.2564 2.9871 1.5977
12.9759 4.1703 1.6025
12.6011 5.3319 1.6088
12.1329 6.4655 1.6165
11.5184 7.5291 1.6180
10.8118 8.5353 1.6196
5.9243 5.6037 0.9588
9.1289 10.3275 1.6207
8.1754 11.1064 1.6215
7.1621 11.8080 1.6238
6.0538 12.3461 1.6167
5.0504 13.1552 1.6568
4.0566 14.2557 1.7427
2.7637 14.5347 1.7396
1.4548 14.7100 1.7380
0.1367 14.7807 1.7379
-1.1834 14.7466 1.7394
-2.4985 14.6076 1.7425
-3.8016 14.3638 1.7470
-5.0854 14.0160 1.7531
-6.3426 13.5644 1.7606
-7.5660 13.0109 1.7696
-8.7452 12.3528 1.7795
-9.8680 11.5888 1.7896
-10.9307 10.7292 1.8009
-11.9253 9.7778 1.8132
-12.8335 8.7318 1.8251
-13.6282 7.5894 1.8341
-14.3248 6.3762 1.8436
-14.9047 5.0962 1.8521
-15.3329 3.7544 1.8561
-15.6410 2.3768 1.8601
-15.7966 0.9723 1.8608
-15.7994 -0.4401 1.8584
-15.6764 -1.8454 1.8559
-15.3844 -3.2230 1.8481
-14.9667 -4.5615 1.8397
-14.4360 -5.8525 1.8315
-13.7579 -7.0664 1.8185
-12.9845 -8.2098 1.8062
-12.1236 -9.2767 1.7949
-11.1699 -10.2499 1.7825
-10.1367 -11.1240 1.7695
-9.0449 -11.9062 1.7580
-7.9018 -12.5940 1.7481
-6.7145 -13.1853 1.7397
-5.4899 -13.6781 1.7329
-4.2335 -14.0656 1.7271
-2.9542 -14.3499 1.7226
-1.6599 -14.5356 1.7202
-0.3565 -14.6222 1.7197
0.9503 -14.6096 1.7214
2.2546 -14.4974 1.7250
3.5504 -14.2848 1.7307
4.4511 -12.8715 1.6013
5.6065 -12.4785 1.6085
6.6996 -11.9327 1.6090
7.7333 -11.2815 1.6082
8.7000 -10.5358 1.6065
9.5984 -9.7109 1.6054
10.4295 -8.8185 1.6059
11.1780 -7.8553 1.6063
11.8251 -6.8215 1.6051
12.3883 -5.7403 1.6053
12.6360 -4.5351 1.5785
12.7012 -3.3143 1.5434
12.7584 -2.1366 1.5210
12.8144 -0.9835 1.5111
12.9836 0.1653 1.5267
13.4833 1.3809 1.5936
13.3299 2.5828 1.5964
13.0815 3.7717 1.6007
12.7385 4.9414 1.6065
12.3018 6.0852 1.6137
11.7391 7.1763 1.6177
11.0601 8.2007 1.6189
10.3006 9.1691 1.6214
9.4375 10.0472 1.6207
8.5052 10.8511 1.6211
7.5118 11.5797 1.6229
6.4332 12.1741 1.6190
5.3014 12.6514 1.6128
4.4895 14.1378 1.7441
3.2037 14.4518 1.7405
1.8994 14.6623 1.7384
0.5836 14.7685 1.7378
-0.7366 14.7699 1.7388
-2.0542 14.6664 1.7413
-3.3622 14.4580 1.7453
-4.6533 14.1453 1.7508
-5.9203 13.7288 1.7579
-7.1560 13.2096 1.7664
-8.3528 12.5893 1.7764
-9.4942 11.8584 1.7861
-10.5781 11.0308 1.7969
-11.5967 10.1100 1.8089
-12.5419 9.1002 1.8219
-13.3698 7.9845 1.8310
-14.1004 6.7945 1.8403
-14.7283 5.5388 1.8501
-15.2012 4.2132 1.8547
-15.5504 2.8466 1.8587
-15.7671 1.4503 1.8617
-15.8125 0.0379 1.8592
-15.7320 -1.3711 1.8567
-15.4995 -2.7606 1.8511
-15.1210 -4.1131 1.8425
-14.6280 -5.4213 1.8342
-13.9987 -6.6630 1.8229
-13.2565 -7.8309 1.8103
-12.4244 -8.9244 1.7986
-11.5052 -9.9337 1.7872
-10.4935 -10.8381 1.7737
-9.4207 -11.6518 1.7617
-8.2942 -12.3719 1.7513
-7.1210 -12.9960 1.7424
-5.9083 -13.5223 1.7350
-4.6623 -13.9471 1.7291
-3.3893 -14.2646 1.7239
-2.0994 -14.4838 1.7208
-0.7984 -14.6040 1.7197
0.5078 -14.6250 1.7206
1.8136 -14.5465 1.7236
3.1131 -14.3684 1.7286
4.0544 -12.9832 1.5992
5.2181 -12.6220 1.6059
6.3384 -12.1351 1.6097
7.3890 -11.5107 1.6082
8.3813 -10.7992 1.6073
9.3015 -9.9980 1.6056
10.1559 -9.1279 1.6055
10.9401 -8.1933 1.6071
11.6152 -7.1772 1.6054
12.2072 -6.1114 1.6051
12.6152 -4.9632 1.5939
12.6814 -3.7222 1.5539
12.7392 -2.5317 1.5271
12.7955 -1.3724 1.5131
12.8512 -0.2251 1.5112
13.5162 0.9723 1.5933
13.3925 2.1769 1.5953
13.1762 3.3710 1.5991
12.8652 4.5479 1.6044
12.4601 5.7012 1.6111
11.9501 6.8176 1.6176
11.2992 7.8599 1.6183
10.5665 8.8479 1.6204
5.8832 5.8953 0.9793
8.8280 10.5871 1.6208
7.8547 11.3417 1.6221
6.8085 11.9917 1.6214
5.6883 12.5002 1.6148
4.9194 14.0082 1.7457
3.6415 14.3571 1.7415
2.3426 14.6027 1.7389
1.0300 14.7442 1.7378
-0.2895 14.7811 1.7383
-1.6088 14.7132 1.7402
-10.1256 10.4698 1.8036
-11.0894 9.5854 1.8150
-11.9700 8.6081 1.8257
-12.7488 7.5406 1.8341
-13.4356 6.4042 1.8430
-14.0184 5.2042 1.8516
-14.4561 3.9409 1.8554
-14.7807 2.6411 1.8592
-14.9757 1.3136 1.8615
-15.0142 -0.0276 1.8592
-14.9331 -1.3652 1.8568
-14.7119 -2.6846 1.8518
-14.3504 -3.9689 1.8437
-13.8799 -5.2110 1.8358
-13.2899 -6.3948 1.8262
-12.5836 -7.5055 1.8143
-11.7913 -8.5455 1.8032
-10.9197 -9.5092 1.7930
-9.9633 -10.3781 1.7814
-8.9401 -11.1535 1.7700
-7.8649 -11.8396 1.7600
-6.7447 -12.4338 1.7516
-5.5863 -12.9343 1.7446
-4.3964 -13.3394 1.7392
-3.1818 -13.6478 1.7353
-1.9489 -13.8586 1.7329
-0.7045 -13.9710 1.7322
0.5449 -13.9846 1.7330
1.7927 -13.8991 1.7353
3.0323 -13.7147 1.7393
3.9249 -12.3836 1.6086
5.0340 -12.0322 1.6150
6.1111 -11.5802 1.6214
7.1140 -10.9798 1.6200
8.0516 -10.2842 1.6173
8.9284 -9.5158 1.6158
9.7417 -8.6814 1.6158
10.4799 -7.7796 1.6162
11.1212 -6.8070 1.6146
11.6827 -5.7871 1.6144
12.1495 -4.7207 1.6140
12.5031 -3.6125 1.6116
12.7419 -2.4762 1.6073
12.7982 -1.3179 1.5931
12.8538 -0.1708 1.5918
12.9111 0.9837 1.6034
12.7830 2.1334 1.6048
12.5707 3.2728 1.6085
12.2676 4.3952 1.6136
11.8743 5.4941 1.6201
11.3812 6.5570 1.6265
10.7557 7.5496 1.6272
10.0521 8.4897 1.6293
5.8781 5.9403 1.0348
8.3900 10.1489 1.6305
7.4573 10.8658 1.6319
6.4448 11.4640 1.6285
5.3782 11.9527 1.6230
4.6392 13.3914 1.7549
3.4184 13.7212 1.7510
2.1777 13.9519 1.7485
0.9239 14.0827 1.7476
-0.3362 14.1131 1.7481
-1.5957 14.0426 1.7500
-2.8476 13.8716 1.7535
-4.0851 13.6001 1.7584
-5.3012 13.2290 1.7647
-6.4886 12.7593 1.7725
-7.6369 12.1869 1.7809
-8.7374 11.5147 1.7898
-9.7845 10.7494 1.7999
-10.7706 9.8945 1.8110
-11.6866 8.9527 1.8229
-12.4950 7.9101 1.8312
-13.2138 6.7963 1.8400
-13.8363 5.6183 1.8492
-14.3204 4.3732 1.8541
-14.6837 3.0846 1.8579
-14.9316 1.7661 1.8618
-15.0145 0.4266 1.8600
-14.9739 -0.9133 1.8576
-14.8089 -2.2419 1.8546
-14.4852 -3.5383 1.8464
-14.0511 -4.7956 1.8384
-13.5084 -6.0038 1.8305
-12.8327 -7.1370 1.8183
-12.0688 -8.2016 1.8069
-11.2233 -9.1917 1.7963
-10.2967 -10.0957 1.7856
-9.2927 -10.9009 1.7737
-8.2343 -11.6175 1.7633
-7.1286 -12.2430 1.7543
-5.9823 -12.7754 1.7468
-4.8024 -13.2130 1.7408
-3.5954 -13.5543 1.7364
-2.3680 -13.7982 1.7336
-1.1268 -13.9440 1.7323
0.1216 -13.9911 1.7325
1.3708 -13.9392 1.7344
2.6139 -13.7882 1.7378
3.7019 -13.0368 1.6781
4.6611 -12.1613 1.6127
5.7536 -11.7505 1.6201
6.7797 -11.1917 1.6203
7.7410 -10.5286 1.6182
8.6384 -9.7836 1.6161
9.4737 -8.9710 1.6156
10.2427 -8.0953 1.6166
10.9128 -7.1419 1.6150
11.5017 -6.1374 1.6143
12.0087 -5.0891 1.6150
12.3934 -3.9906 1.6122
12.6878 -2.8664 1.6107
12.7792 -1.7079 1.5965
12.8350 -0.5591 1.5908
12.9379 0.5929 1.6037
12.8341 1.7449 1.6038
12.6528 2.8886 1.6071
12.3804 4.0174 1.6117
12.0175 5.1250 1.6178
11.5652 6.2050 1.6252
10.9764 7.2191 1.6268
10.2988 8.1776 1.6284
5.8952 5.6078 1.0075
8.6924 9.8898 1.6304
7.7795 10.6313 1.6313
6.7972 11.2781 1.6306
5.7437 11.7979 1.6248
5.0362 13.2297 1.7529
3.8344 13.6206 1.7522
2.5996 13.8850 1.7492
1.3495 14.0497 1.7477
0.0907 14.1141 1.7477
-1.1697 14.0778 1.7492
-2.4250 13.9407 1.7522
-3.6682 13.7032 1.7566
-4.8923 13.3658 1.7624
-6.0902 12.9293 1.7697
-7.2535 12.3929 1.7781
-8.3703 11.7528 1.7867
-9.4364 11.0187 1.7964
-10.4440 10.1938 1.8072
-11.3856 9.2817 1.8190
-12.2310 8.2715 1.8283
-12.9809 7.1809 1.8369
-13.6367 6.0239 1.8460
-14.1718 4.8010 1.8528
-14.5734 3.5248 1.8566
-14.8608 2.2153 1.8605
-15.0012 0.8809 1.8607
-15.0010 -0.4603 1.8584
-14.8815 -1.7944 1.8561
-14.6074 -3.1032 1.8492
-14.2102 -4.3748 1.8411
-13.7056 -5.6015 1.8334
-13.0717 -6.7607 1.8223
-12.3369 -7.8492 1.8106
-11.5182 -8.8652 1.7998
-10.6226 -9.8031 1.7899
-9.6391 -10.6380 1.7776
-8.5983 -11.3849 1.7666
-7.5078 -12.0415 1.7571
-6.3746 -12.6057 1.7492
-5.2053 -13.0755 1.7427
-4.0067 -13.4496 1.7377
-2.7855 -13.7265 1.7344
-1.5482 -13.9056 1.7325
-0.3015 -13.9862 1.7323
0.9481 -13.9678 1.7336
2.1940 -13.8504 1.7364
3.4296 -13.6340 1.7408
4.2854 -12.2801 1.6105
5.3868 -11.8996 1.6174
6.4400 -11.3948 1.6207
7.4239 -10.7648 1.6192
8.3413 -10.0436 1.6166
9.1981 -9.2535 1.6156
9.9900 -8.3986 1.6161
10.6954 -7.4712 1.6155
11.3113 -6.4827 1.6144
11.8465 -5.4486 1.6146
12.2734 -4.3659 1.6131
12.5982 -3.2495 1.6111
12.7602 -2.0999 1.6013
12.8161 -0.9472 1.5913
12.9543 0.2015 1.6043
12.8759 1.3554 1.6032
12.7244 2.5027 1.6058
12.4828 3.6373 1.6100
12.1505 4.7528 1.6156
11.7283 5.8428 1.6225
11.1881 6.8828 1.6265
10.5369 7.8591 1.6277
6.2285 5.5759 1.0352
8.9878 9.6227 1.6305
8.0953 10.3883 1.6308
7.1442 11.0814 1.6326
6.1047 11.6318 1.6266
5.0260 12.0898 1.6213
4.2477 13.5086 1.7535
3.0198 13.8066 1.7500
1.7741 14.0051 1.7481
0.5175 14.1035 1.7476
-0.7432 14.1014 1.7486
-2.0010 13.9984 1.7510
-3.2490 13.7949 1.7549
-4.4804 13.4912 1.7603
-5.6880 13.0881 1.7671
-6.8646 12.5868 1.7753
-7.9975 11.9802 1.7837
-9.0816 11.2777 1.7930
-10.1098 10.4831 1.8034
-11.0747 9.6000 1.8149
-11.9570 8.6243 1.8255
-12.7372 7.5580 1.8340
-13.4256 6.4227 1.8429
-14.0106 5.2238 1.8515
-14.4500 3.9612 1.8553
-14.7765 2.6618 1.8592
-14.9741 1.3347 1.8615
-15.0145 -0.0064 1.8592
-14.9353 -1.3441 1.8569
-14.7167 -2.6641 1.8519
-14.3570 -3.9488 1.8438
-13.8882 -5.1917 1.8360
-13.3003 -6.3767 1.8264
-12.5955 -7.4885 1.8145
-11.8044 -8.5296 1.8034
-10.9341 -9.4946 1.7931
-9.9790 -10.3651 1.7816
-8.9566 -11.1420 1.7702
-7.8822 -11.8294 1.7602
-6.7627 -12.4251 1.7517
-5.6048 -12.9271 1.7447
-4.4154 -13.3337 1.7392
-3.2011 -13.6437 1.7353
-1.9686 -13.8560 1.7330
-0.7243 -13.9700 1.7322
0.5251 -13.9851 1.7330
1.7730 -13.9012 1.7353
3.0128 -13.7183 1.7392
3.9120 -12.4039 1.6105
5.0167 -12.0384 1.6149
6.0949 -11.5890 1.6214
7.0985 -10.9899 1.6200
8.0373 -10.2957 1.6173
8.9151 -9.5285 1.6158
9.7294 -8.6950 1.6158
10.4691 -7.7946 1.6162
11.1117 -6.8227 1.6146
11.6745 -5.8035 1.6144
12.1432 -4.7380 1.6141
12.4982 -3.6302 1.6116
12.7410 -2.4946 1.6076
12.7973 -1.3360 1.5933
12.8530 -0.1889 1.5917
12.9126 0.9655 1.6034
12.7856 2.1153 1.6047
12.5748 3.2549 1.6084
12.2731 4.3776 1.6135
11.8812 5.4769 1.6200
11.3904 6.5409 1.6265
10.7662 7.5343 1.6272
10.0637 8.4753 1.6292
5.8774 5.9229 1.0332
8.4043 10.1370 1.6305
7.4725 10.8551 1.6318
6.4614 11.4555 1.6286
5.3954 11.9458 1.6231
4.6583 13.3854 1.7550
3.4379 13.7168 1.7510
2.1974 13.9491 1.7486
0.9437 14.0815 1.7476
-0.3163 14.1134 1.7481
-1.5759 14.0445 1.7500
-2.8280 13.8750 1.7534
-4.0658 13.6052 1.7583
-5.2821 13.2357 1.7646
-6.4701 12.7675 1.7724
-7.6191 12.1968 1.7808
-8.7204 11.5260 1.7897
-9.7684 10.7622 1.7997
-10.7555 9.9087 1.8109
-11.6732 8.9686 1.8228
-12.4830 7.9272 1.8311
-13.2032 6.8144 1.8398
-13.8273 5.6374 1.8490
-14.3137 4.3933 1.8540
-14.6788 3.1053 1.8579
-14.9286 1.7871 1.8618
-15.0142 0.4478 1.8600
-14.9754 -0.8922 1.8576
-14.8131 -2.2212 1.8548
-14.4912 -3.5181 1.8465
-14.0588 -4.7761 1.8386
-13.5183 -5.9854 1.8307
-12.8441 -7.1196 1.8184
-12.0815 -8.1854 1.8070
-11.2372 -9.1767 1.7965
-10.3121 -10.0823 1.7858
-9.3090 -10.8888 1.7739
-8.2514 -11.6068 1.7634
-7.1464 -12.2339 1.7544
-6.0008 -12.7677 1.7469
-4.8213 -13.2068 1.7409
-3.6147 -13.5496 1.7365
-2.3875 -13.7951 1.7336
-1.1465 -13.9424 1.7323
0.1019 -13.9911 1.7325
1.3510 -13.9407 1.7343
2.5943 -13.7914 1.7377
3.6977 -13.0923 1.6846
4.6436 -12.1671 1.6126
5.7366 -11.7576 1.6200
6.7640 -11.2013 1.6203
7.7264 -10.5398 1.6182
8.6247 -9.7959 1.6161
9.4610 -8.9844 1.6156
10.2311 -8.1096 1.6166
10.9028 -7.1574 1.6150
11.4930 -6.1536 1.6143
12.0015 -5.1061 1.6150
12.3880 -4.0082 1.6123
12.6839 -2.8843 1.6107
12.7783 -1.7261 1.5967
12.8341 -0.5772 1.5908
12.9389 0.5747 1.6038
12.8363 1.7267 1.6038
12.6564 2.8707 1.6070
12.3854 3.9998 1.6116
12.0239 5.1077 1.6177
11.5730 6.1882 1.6251
10.9865 7.2035 1.6268
10.3101 8.1629 1.6284
5.9057 5.6019 1.0079
8.7064 9.8775 1.6304
7.7944 10.6202 1.6312
6.8135 11.2692 1.6307
5.7607 11.7904 1.6249
5.0346 13.1696 1.7458
3.8537 13.6156 1.7522
2.6193 13.8816 1.7492
1.3693 14.0479 1.7477
0.1107 14.1138 1.7477
-1.1498 14.0791 1.7492
-2.4052 13.9437 1.7521
-3.6487 13.7078 1.7565
-4.8731 13.3719 1.7623
-6.0715 12.9369 1.7696
-7.2355 12.4023 1.7780
-8.3531 11.7637 1.7865
-9.4200 11.0311 1.7962
-10.4286 10.2075 1.8070
-11.3713 9.2968 1.8188
-12.2185 8.2881 1.8282
-12.9697 7.1987 1.8368
-13.6271 6.0426 1.8459
-14.1645 4.8209 1.8528
-14.5679 3.5453 1.8566
-14.8571 2.2362 1.8604
-15.0002 0.9021 1.8608
-15.0020 -0.4392 1.8584
-14.8843 -1.7735 1.8561
-14.6128 -3.0828 1.8493
-14.2174 -4.3550 1.8412
-13.7144 -5.5824 1.8335
-13.0826 -6.7429 1.8225
-12.3492 -7.8326 1.8108
-11.5318 -8.8497 1.8000
-10.6373 -9.7889 1.7900
-9.6551 -10.6255 1.7778
-8.6152 -11.3738 1.7668
-7.5255 -12.0318 1.7573
-6.3928 -12.5975 1.7493
-5.2240 -13.0688 1.7428
-4.0258 -13.4444 1.7378
-2.8049 -13.7229 1.7344
-1.5678 -13.9036 1.7325
-0.3212 -13.9857 1.7323
0.9284 -13.9689 1.7335
2.1744 -13.8530 1.7364
3.4101 -13.6382 1.7408
4.2678 -12.2853 1.6104
5.3696 -11.9063 1.6173
6.4240 -11.4041 1.6208
7.4089 -10.7757 1.6193
8.3273 -10.0555 1.6167
9.1850 -9.2665 1.6156
9.9780 -8.4126 1.6161
10.6851 -7.4864 1.6155
11.3022 -6.4986 1.6144
11.8387 -5.4653 1.6146
12.2675 -4.3833 1.6131
12.5938 -3.2673 1.6111
12.7593 -2.1182 1.6016
12.8153 -0.9654 1.5914
12.9548 0.1832 1.6043
12.8778 1.3372 1.6032
12.7275 2.4847 1.6058
12.4873 3.6195 1.6099
12.1564 4.7353 1.6155
11.7357 5.8258 1.6224
11.1977 6.8670 1.6265
10.5478 7.8441 1.6277
6.2474 5.5770 1.0370
9.0014 9.6100 1.6305
8.1098 10.3768 1.6308
7.1597 11.0710 1.6326
6.1214 11.6238 1.6267
5.0433 12.0833 1.6213
4.2669 13.5031 1.7535
3.0394 13.8026 1.7501
1.7939 14.0027 1.7481
0.5374 14.1028 1.7476
-0.7233 14.1022 1.7485
-1.9811 14.0008 1.7510
-3.2294 13.7989 1.7548
-4.4611 13.4968 1.7602
-5.6691 13.0952 1.7670
-6.8463 12.5955 1.7752
-7.9800 11.9906 1.7835
-9.0649 11.2895 1.7928
-10.0941 10.4963 1.8032
-11.0599 9.6147 1.8147
-11.9440 8.6406 1.8254
-12.7255 7.5754 1.8338
-13.4154 6.4411 1.8427
-14.0027 5.2434 1.8515
-14.4440 3.9814 1.8553
-14.7722 2.6826 1.8591
-14.9725 1.3559 1.8616
-15.0148 0.0148 1.8592
-14.9374 -1.3231 1.8569
-14.7215 -2.6435 1.8521
-14.3635 -3.9288 1.8439
-13.8964 -5.1724 1.8361
-13.3108 -6.3586 1.8266
-12.6073 -7.4715 1.8147
-11.8176 -8.5137 1.8035
-10.9484 -9.4799 1.7933
-9.9947 -10.3521 1.7818
-8.9732 -11.1304 1.7703
-7.8996 -11.8193 1.7603
-6.7807 -12.4164 1.7518
-5.6234 -12.9199 1.7448
-4.4344 -13.3280 1.7393
-3.2205 -13.6395 1.7354
-1.9881 -13.8534 1.7330
-0.7440 -13.9690 1.7322
0.5053 -13.9857 1.7329
1.7533 -13.9033 1.7352
2.9933 -13.7220 1.7391
3.8895 -12.3933 1.6084
4.9993 -12.0447 1.6148
6.0787 -11.5979 1.6214
7.0830 -11.0000 1.6200
8.0229 -10.3073 1.6174
8.9016 -9.5411 1.6158
9.7170 -8.7087 1.6157
10.4584 -7.8095 1.6162
11.1021 -6.8384 1.6146
11.6662 -5.8200 1.6144
12.1369 -4.7552 1.6141
12.4933 -3.6479 1.6116
12.7401 -2.5131 1.6080
12.7964 -1.3542 1.5934
12.8521 -0.2070 1.5916
12.9141 0.9473 1.6034
12.7882 2.0972 1.6047
12.5788 3.2370 1.6083
12.2786 4.3600 1.6134
11.8881 5.4598 1.6199
11.3997 6.5249 1.6265
10.7767 7.5190 1.6271
10.0754 8.4609 1.6292
5.8768 5.9056 1.0317
8.4185 10.1251 1.6305
7.4876 10.8443 1.6318
6.4779 11.4470 1.6287
5.4125 11.9388 1.6232
4.6774 13.3793 1.7550
3.4574 13.7123 1.7511
2.2171 13.9462 1.7486
0.9636 14.0801 1.7476
-0.2964 14.1136 1.7480
-1.5559 14.0465 1.7500
-2.8083 13.8785 1.7534
-4.0464 13.6102 1.7582
-5.2631 13.2423 1.7645
-6.4516 12.7756 1.7722
-7.6014 12.2066 1.7806
-8.7033 11.5374 1.7895
-9.7523 10.7750 1.7996
-10.7405 9.9229 1.8107
-11.6598 8.9844 1.8227
-12.4708 7.9442 1.8309
-13.1925 6.8325 1.8397
-13.8182 5.6565 1.8489
-14.3070 4.4133 1.8540
-14.6739 3.1259 1.8578
-14.9256 1.8082 1.8617
-15.0139 0.4690 1.8600
-14.9770 -0.8711 1.8577
-14.8172 -2.2004 1.8549
-14.4972 -3.4978 1.8467
-14.0665 -4.7566 1.8387
-13.5282 -5.9670 1.8309
-12.8555 -7.1022 1.8186
-12.0942 -8.1691 1.8072
-11.2512 -9.1617 1.7967
-10.3275 -10.0689 1.7860
-9.3253 -10.8768 1.7741
-8.2685 -11.5962 1.7636
-7.1642 -12.2247 1.7545
-6.0192 -12.7600 1.7470
-4.8402 -13.2006 1.7410
-3.6339 -13.5449 1.7365
-2.4070 -13.7920 1.7336
-1.1662 -13.9409 1.7323
0.0821 -13.9911 1.7325
1.3313 -13.9423 1.7343
2.5748 -13.7945 1.7376
3.6935 -13.1482 1.6911
4.6261 -12.1728 1.6125
5.7195 -11.7648 1.6198
6.7483 -11.2110 1.6203
7.7117 -10.5510 1.6183
8.6110 -9.8082 1.6162
9.4483 -8.9977 1.6156
10.2195 -8.1238 1.6166
10.8929 -7.1729 1.6150
11.4843 -6.1698 1.6143
11.9941 -5.1229 1.6150
12.3826 -4.0258 1.6123
12.6799 -2.9022 1.6107
12.7774 -1.7444 1.5969
12.8332 -0.5953 1.5908
12.9399 0.5564 1.6038
12.8384 1.7085 1.6038
12.6599 2.8527 1.6069
12.3904 3.9821 1.6116
12.0304 5.0904 1.6176
11.5809 6.1713 1.6249
10.9966 7.1880 1.6268
10.3214 8.1482 1.6283
5.9181 5.5978 1.0087
8.7203 9.8652 1.6304
7.8093 10.6090 1.6312
6.8298 11.2602 1.6308
5.7776 11.7828 1.6250
5.0330 13.1098 1.7389
3.8730 13.6106 1.7523
2.6389 13.8781 1.7493
1.3891 14.0460 1.7478
0.1306 14.1136 1.7477
-1.1300 14.0805 1.7491
-2.3855 13.9466 1.7520
-3.6291 13.7123 1.7564
-4.8539 13.3780 1.7622
-6.0528 12.9446 1.7695
-7.2175 12.4116 1.7779
-8.3358 11.7745 1.7864
-9.4035 11.0433 1.7961
-10.4131 10.2212 1.8068
-11.3570 9.3118 1.8186
-12.2058 8.3047 1.8281
-12.9586 7.2165 1.8367
-13.6175 6.0614 1.8457
-14.1573 4.8407 1.8527
-14.5624 3.5657 1.8565
-14.8535 2.2571 1.8604
-14.9992 0.9232 1.8608
-15.0029 -0.4179 1.8585
-14.8871 -1.7525 1.8561
-14.6182 -3.0624 1.8494
-14.2244 -4.3353 1.8414
-13.7231 -5.5635 1.8336
-13.0935 -6.7252 1.8227
-12.3615 -7.8159 1.8110
-11.5454 -8.8342 1.8001
-10.6521 -9.7747 1.7902
-9.6711 -10.6130 1.7780
-8.6320 -11.3627 1.7670
-7.5430 -12.0222 1.7574
-6.4110 -12.5893 1.7494
-5.2427 -13.0621 1.7429
-4.0449 -13.4392 1.7379
-2.8244 -13.7193 1.7344
-1.5875 -13.9015 1.7326
-0.3409 -13.9852 1.7322
0.9087 -13.9699 1.7335
2.1548 -13.8556 1.7363
3.3907 -13.6424 1.7407
4.2502 -12.2906 1.6103
5.3524 -11.9130 1.6172
6.4080 -11.4133 1.6208
7.3940 -10.7865 1.6193
8.3132 -10.0675 1.6167
9.1720 -9.2795 1.6156
9.9660 -8.4266 1.6161
10.6746 -7.5016 1.6156
11.2930 -6.5146 1.6144
11.8308 -5.4820 1.6146
12.2617 -4.4007 1.6131
12.5893 -3.2851 1.6111
12.7584 -2.1366 1.6018
12.8144 -0.9835 1.5914
12.9553 0.1649 1.6043
12.8798 1.3190 1.6032
12.7306 2.4666 1.6057
12.4918 3.6017 1.6098
12.1623 4.7179 1.6154
11.7430 5.8088 1.6223
11.2073 6.8512 1.6265
10.5587 7.8290 1.6277
6.2703 5.5816 1.0395
9.0150 9.5974 1.6305
8.1244 10.3652 1.6308
7.1751 11.0606 1.6325
6.1382 11.6158 1.6268
5.0606 12.0768 1.6214
4.2862 13.4976 1.7536
3.0589 13.7987 1.7501
1.8136 14.0004 1.7481
0.5573 14.1020 1.7476
-0.7033 14.1030 1.7485
-1.9613 14.0032 1.7509
-3.2098 13.8028 1.7548
-4.4418 13.5023 1.7601
-5.6501 13.1022 1.7669
-6.8280 12.6041 1.7750
-7.9624 12.0009 1.7834
-9.0481 11.3013 1.7927
-10.0782 10.5096 1.8030
-11.0452 9.6293 1.8145
-11.9309 8.6568 1.8253
-12.7139 7.5928 1.8337
-13.4053 6.4595 1.8426
-13.9949 5.2630 1.8514
-14.4379 4.0017 1.8552
-14.7679 2.7034 1.8591
-14.9709 1.3771 1.8616
-15.0150 0.0360 1.8593
-14.9396 -1.3021 1.8569
-14.7263 -2.6229 1.8522
-14.3700 -3.9088 1.8440
-13.9046 -5.1532 1.8362
-13.3211 -6.3405 1.8268
-12.6191 -7.4544 1.8148
-11.8307 -8.4979 1.8037
-10.9627 -9.4653 1.7934
-10.0103 -10.3392 1.7820
-8.9898 -11.1188 1.7705
-7.9169 -11.8091 1.7605
-6.7987 -12.4078 1.7519
-5.6419 -12.9127 1.7449
-4.4534 -13.3223 1.7394
-3.2398 -13.6354 1.7354
-2.0077 -13.8508 1.7330
-0.7637 -13.9679 1.7322
0.4856 -13.9862 1.7329
1.7337 -13.9054 1.7352
2.9738 -13.7256 1.7390
3.8717 -12.3981 1.6083
4.9820 -12.0509 1.6147
6.0625 -11.6068 1.6215
7.0675 -11.0100 1.6200
8.0085 -10.3189 1.6174
8.8882 -9.5537 1.6158
9.7047 -8.7224 1.6157
10.4476 -7.8244 1.6163
11.0926 -6.8542 1.6146
11.6580 -5.8364 1.6144
12.1306 -4.7725 1.6142
12.4884 -3.6656 1.6116
12.7392 -2.5317 1.6083
12.7955 -1.3724 1.5935
12.8512 -0.2251 1.5916
12.9155 0.9291 1.6034
12.7908 2.0791 1.6046
12.5828 3.2192 1.6083
12.2840 4.3424 1.6133
11.8950 5.4426 1.6198
11.4088 6.5088 1.6265
10.7871 7.5037 1.6271
10.0871 8.4465 1.6291
5.8762 5.8883 1.0301
8.4327 10.1131 1.6305
7.5028 10.8335 1.6318
6.4944 11.4385 1.6288
5.4297 11.9318 1.6233
4.6965 13.3733 1.7551
3.4768 13.7078 1.7511
2.2368 13.9433 1.7486
0.9835 14.0788 1.7476
-0.2764 14.1139 1.7480
-1.5361 14.0483 1.7499
-9.6679 9.9966 1.8091
-10.5851 9.1495 1.8201
-11.4118 8.2066 1.8285
-12.1516 7.1874 1.8366
-12.8034 6.1028 1.8451
-13.3484 4.9555 1.8522
-13.7638 3.7522 1.8558
-14.0715 2.5143 1.8595
-14.2547 1.2503 1.8615
-14.2922 -0.0263 1.8592
-14.2159 -1.2996 1.8570
-14.0120 -2.5569 1.8529
-13.6705 -3.7808 1.8451
-13.2250 -4.9651 1.8376
-12.6756 -6.0992 1.8299
-12.0056 -7.1607 1.8185
-11.2528 -8.1553 1.8078
-10.4238 -9.0772 1.7981
-9.5242 -9.9207 1.7890
-8.5485 -10.6650 1.7780
-7.5223 -11.3238 1.7685
-6.4522 -11.8946 1.7603
-5.3450 -12.3756 1.7536
-4.2071 -12.7649 1.7484
-3.0450 -13.0613 1.7447
-1.8653 -13.2638 1.7424
-0.6743 -13.3716 1.7417
0.5215 -13.3844 1.7424
1.7156 -13.3018 1.7447
2.9017 -13.1240 1.7485
3.7765 -11.9156 1.6260
4.8157 -11.5104 1.6231
5.8504 -11.0862 1.6307
6.8116 -10.5131 1.6296
7.7082 -9.8456 1.6266
8.5480 -9.1104 1.6251
9.3267 -8.3115 1.6251
10.0275 -7.4438 1.6246
10.6415 -6.5134 1.6230
11.1789 -5.5375 1.6229
11.6244 -4.5166 1.6223
11.9635 -3.4566 1.6199
12.2164 -2.3741 1.6189
12.3662 -1.2734 1.6172
12.4074 -0.1648 1.6142
12.3609 0.9418 1.6126
12.2325 2.0415 1.6133
12.0282 3.1316 1.6169
11.7365 4.2049 1.6218
11.3583 5.2553 1.6280
10.8873 6.2725 1.6345
10.2887 7.2218 1.6352
9.6151 8.1207 1.6372
5.8710 5.9332 1.0858
8.0299 9.7134 1.6395
7.1370 10.3992 1.6407
6.1589 10.9554 1.6349
5.1409 11.4252 1.6298
4.4378 12.8099 1.7636
3.2703 13.1267 1.7598
2.0835 13.3483 1.7575
0.8839 13.4737 1.7565
-0.3217 13.5026 1.7570
-1.5266 13.4345 1.7589
-2.7241 13.2697 1.7622
-3.9074 13.0085 1.7669
-5.0698 12.6516 1.7730
-6.2021 12.1958 1.7799
-7.2959 11.6427 1.7874
-8.3453 10.9980 1.7959
-9.3431 10.2645 1.8056
-10.2819 9.4455 1.8163
-11.1424 8.5358 1.8259
-11.9106 7.5401 1.8338
-12.5929 6.4769 1.8421
-13.1831 5.3531 1.8509
-13.6351 4.1640 1.8546
-13.9796 2.9367 1.8582
-14.2142 1.6813 1.8620
-14.2923 0.4061 1.8600
-14.2544 -0.8695 1.8578
-14.1033 -2.1351 1.8555
-13.7980 -3.3704 1.8477
-13.3872 -4.5691 1.8401
-12.8753 -5.7225 1.8329
-12.2421 -6.8085 1.8222
-11.5166 -7.8264 1.8113
-10.7126 -8.7735 1.8013
-9.8368 -9.6448 1.7921
-8.8849 -10.4225 1.7816
-7.8750 -11.1105 1.7716
-6.8190 -11.7114 1.7629
-5.7236 -12.2229 1.7557
-4.5954 -12.6434 1.7500
-3.4408 -12.9714 1.7458
-2.2663 -13.2058 1.7430
-1.0784 -13.3457 1.7418
0.1164 -13.3907 1.7420
1.3119 -13.3404 1.7438
2.5014 -13.1948 1.7470
3.6785 -12.9542 1.7518
4.4593 -11.6346 1.6209
5.5034 -11.2394 1.6280
6.4959 -10.7231 1.6309
7.4108 -10.0794 1.6274
8.2703 -9.3667 1.6255
9.0701 -8.5889 1.6250
9.8028 -7.7476 1.6254
10.4421 -6.8338 1.6234
11.0058 -5.8727 1.6228
11.4902 -4.8694 1.6234
11.8583 -3.8183 1.6206
12.1405 -2.7427 1.6191
12.3323 -1.6482 1.6185
12.4033 -0.5403 1.6150
12.3865 0.5677 1.6130
12.2822 1.6698 1.6124
12.1071 2.7641 1.6155
11.8450 3.8437 1.6200
11.4959 4.9026 1.6258
11.0611 5.9345 1.6329
10.4999 6.9057 1.6348
9.8513 7.8223 1.6364
5.8891 5.6020 1.0573
8.3194 9.4654 1.6393
7.4455 10.1749 1.6401
6.4953 10.7772 1.6369
5.4895 11.2757 1.6314
4.8275 12.6813 1.7652
3.6681 13.0301 1.7609
2.4871 13.2840 1.7581
1.2911 13.4420 1.7567
0.0868 13.5036 1.7567
-1.1191 13.4684 1.7581
-2.3199 13.3364 1.7609
-3.5088 13.1077 1.7652
-4.6790 12.7831 1.7708
-5.8229 12.3619 1.7776
-6.9301 11.8403 1.7847
-7.9954 11.2264 1.7929
-9.0115 10.5226 1.8022
-9.9710 9.7322 1.8125
-10.8640 8.8565 1.8234
-11.6598 7.8852 1.8311
-12.3719 6.8441 1.8393
-12.9940 5.7400 1.8479
-13.4940 4.5714 1.8534
-13.8751 3.3559 1.8570
-14.1473 2.1089 1.8607
-14.2793 0.8385 1.8607
-14.2800 -0.4382 1.8585
-14.1671 -1.7083 1.8563
-13.9134 -2.9558 1.8503
-13.5379 -4.1678 1.8427
-13.0597 -5.3375 1.8353
-12.4688 -6.4489 1.8261
-11.7713 -7.4894 1.8149
-10.9932 -8.4611 1.8046
-10.1409 -9.3586 1.7951
-9.2152 -10.1702 1.7853
-8.2224 -10.8872 1.7748
-7.1813 -11.5178 1.7657
-6.0985 -12.0598 1.7580
-4.9807 -12.5113 1.7518
-3.8343 -12.8707 1.7470
-2.6658 -13.1370 1.7438
-1.4818 -13.3089 1.7420
-0.2886 -13.3861 1.7418
0.9074 -13.3681 1.7430
2.0997 -13.2548 1.7458
3.2817 -13.0463 1.7500
4.1000 -11.7490 1.6188
5.1529 -11.3828 1.6254
6.1710 -10.9188 1.6315
7.1070 -10.3053 1.6285
7.9857 -9.6155 1.6260
8.8063 -8.8593 1.6250
9.5643 -8.0407 1.6254
10.2339 -7.1488 1.6239
10.8235 -6.2031 1.6228
11.3356 -5.2137 1.6231
11.7432 -4.1773 1.6214
12.0546 -3.1093 1.6195
12.2794 -2.0208 1.6189
12.3891 -0.9157 1.6160
12.4020 0.1929 1.6135
12.3273 1.2976 1.6125
12.1761 2.3948 1.6143
11.9435 3.4802 1.6183
11.6238 4.5467 1.6237
11.2179 5.5885 1.6303
10.7024 6.5841 1.6346
10.0793 7.5177 1.6357
6.2214 5.5696 1.0862
8.6021 9.2098 1.6394
7.7478 9.9425 1.6397
6.8270 10.5894 1.6390
5.8342 11.1164 1.6332
4.9881 11.9985 1.6903
4.0634 12.9225 1.7622
2.8890 13.2087 1.7589
1.6973 13.3993 1.7570
0.4951 13.4936 1.7565
-0.7110 13.4912 1.7575
-1.9143 13.3919 1.7598
-3.1080 13.1959 1.7636
-4.2853 12.9037 1.7687
-5.4393 12.5161 1.7753
-6.5596 12.0274 1.7822
-7.6398 11.4444 1.7900
-8.6734 10.7708 1.7989
-9.6529 10.0093 1.8089
-10.5711 9.1635 1.8199
-11.3994 8.2222 1.8284
-12.1406 7.2040 1.8364
-12.7938 6.1204 1.8449
-13.3410 4.9742 1.8522
-13.7581 3.7715 1.8558
-14.0675 2.5341 1.8594
-14.2532 1.2705 1.8615
-14.2925 -0.0061 1.8593
-14.2180 -1.2796 1.8570
-14.0165 -2.5373 1.8530
-13.6767 -3.7618 1.8452
-13.2328 -4.9467 1.8377
-12.6855 -6.0819 1.8301
-12.0169 -7.1445 1.8186
-11.2653 -8.1401 1.8080
-10.4374 -9.0633 1.7982
-9.5392 -9.9083 1.7892
-8.5643 -10.6540 1.7782
-7.5388 -11.3141 1.7686
-6.4694 -11.8863 1.7604
-5.3627 -12.3687 1.7537
-4.2252 -12.7595 1.7485
-3.0635 -13.0573 1.7447
-1.8841 -13.2613 1.7424
-0.6932 -13.3707 1.7417
0.5025 -13.3849 1.7424
1.6968 -13.3038 1.7447
2.8830 -13.1275 1.7484
3.7696 -11.9523 1.6303
4.7992 -11.5165 1.6230
5.8343 -11.0935 1.6305
6.7970 -10.5231 1.6296
7.6945 -9.8567 1.6266
8.5352 -9.1225 1.6251
9.3149 -8.3246 1.6251
10.0172 -7.4581 1.6246
10.6325 -6.5285 1.6231
11.1711 -5.5533 1.6229
11.6184 -4.5332 1.6224
11.9588 -3.4735 1.6200
12.2131 -2.3913 1.6189
12.3648 -1.2909 1.6172
12.4074 -0.1823 1.6142
12.3623 0.9243 1.6127
12.2350 2.0242 1.6132
12.0321 3.1145 1.6168
11.7418 4.1881 1.6217
11.3649 5.2389 1.6279
10.8960 6.2571 1.6345
10.2988 7.2072 1.6352
9.6263 8.1069 1.6372
5.8704 5.9158 1.0842
8.0436 9.7020 1.6394
7.1516 10.3889 1.6407
6.1747 10.9473 1.6350
5.1572 11.4185 1.6299
4.4560 12.8042 1.7636
3.2889 13.1224 1.7599
2.1024 13.3455 1.7575
0.9029 13.4725 1.7565
-0.3026 13.5029 1.7570
-1.5076 13.4364 1.7589
-2.7053 13.2731 1.7621
-3.8889 13.0134 1.7668
-5.0516 12.6579 1.7729
-6.1845 12.2038 1.7798
-7.2789 11.6521 1.7872
-8.3291 11.0089 1.7958
-9.3278 10.2768 1.8054
-10.2675 9.4591 1.8161
-11.1296 8.5509 1.8258
-11.8991 7.5564 1.8337
-12.5829 6.4942 1.8420
-13.1745 5.3713 1.8508
-13.6288 4.1831 1.8545
-13.9750 2.9564 1.8582
-14.2114 1.7013 1.8619
-14.2920 0.4263 1.8600
-14.2559 -0.8494 1.8578
-14.1066 -2.1152 1.8556
-13.8037 -3.3512 1.8478
-13.3945 -4.5505 1.8402
-12.8842 -5.7046 1.8330
-12.2528 -6.7919 1.8224
-11.5286 -7.8108 1.8115
-10.7259 -8.7591 1.8014
-9.8512 -9.6316 1.7922
-8.9004 -10.4109 1.7818
-7.8913 -11.1003 1.7717
-6.8360 -11.7025 1.7630
-5.7412 -12.2155 1.7558
-4.6134 -12.6375 1.7501
-3.4592 -12.9669 1.7458
-2.2850 -13.2028 1.7430
-1.0973 -13.3443 1.7418
0.0975 -13.3907 1.7420
1.2930 -13.3419 1.7437
2.4827 -13.1979 1.7470
3.6600 -12.9588 1.7517
4.4426 -11.6402 1.6208
5.4871 -11.2463 1.6278
6.4810 -10.7327 1.6310
7.3967 -10.0901 1.6275
8.2572 -9.3784 1.6255
9.0580 -8.6017 1.6250
9.7921 -7.7616 1.6254
10.4326 -6.8486 1.6234
10.9975 -5.8883 1.6228
11.4838 -4.8858 1.6235
11.8531 -3.8352 1.6206
12.1368 -2.7599 1.6191
12.3304 -1.6656 1.6186
12.4029 -0.5578 1.6151
12.3874 0.5502 1.6130
12.2845 1.6525 1.6124
12.1106 2.7469 1.6154
11.8498 3.8268 1.6199
11.5021 4.8860 1.6257
11.0686 5.9184 1.6328
10.5096 6.8909 1.6348
9.8622 7.8082 1.6364
5.8995 5.5961 1.0578
8.3328 9.4537 1.6393
7.4598 10.1642 1.6401
6.5109 10.7687 1.6370
5.5057 11.2685 1.6315
4.8456 12.6750 1.7652
3.6866 13.0253 1.7610
2.5059 13.2807 1.7581
1.3101 13.4403 1.7567
0.1059 13.5034 1.7567
-1.1001 13.4697 1.7581
-2.3010 13.3392 1.7609
-3.4901 13.1121 1.7651
-4.6607 12.7889 1.7707
-5.8052 12.3694 1.7775
-6.9129 11.8493 1.7846
-7.9789 11.2368 1.7928
-8.9959 10.5344 1.8021
-9.9564 9.7453 1.8124
-10.8508 8.8712 1.8232
-11.6479 7.9011 1.8309
-12.3614 6.8610 1.8391
-12.9849 5.7579 1.8478
-13.4872 4.5903 1.8533
-13.8699 3.3754 1.8569
-14.1438 2.1289 1.8606
-14.2784 0.8586 1.8608
-14.2809 -0.4181 1.8585
-14.1697 -1.6884 1.8563
-13.9185 -2.9363 1.8505
-13.5446 -4.1489 1.8428
-13.0680 -5.3194 1.8354
-12.4791 -6.4319 1.8263
-11.7830 -7.4734 1.8151
-11.0061 -8.4463 1.8047
-10.1549 -9.3450 1.7952
-9.2305 -10.1582 1.7855
-8.2385 -10.8765 1.7750
-7.1981 -11.5085 1.7658
-6.1160 -12.0519 1.7581
-4.9986 -12.5049 1.7519
-3.8526 -12.8658 1.7471
-2.6844 -13.1335 1.7438
-1.5005 -13.3070 1.7420
-0.3074 -13.3857 1.7417
0.8886 -13.3691 1.7430
2.0809 -13.2573 1.7457
3.2631 -13.0503 1.7499
4.0832 -11.7541 1.6187
5.1364 -11.3893 1.6253
6.1557 -10.9277 1.6316
7.0927 -10.3156 1.6285
7.9723 -9.6269 1.6260
8.7937 -8.8717 1.6250
9.5528 -8.0541 1.6254
10.2240 -7.1634 1.6240
10.8149 -6.2184 1.6228
11.3281 -5.2296 1.6231
11.7376 -4.1939 1.6214
12.0504 -3.1264 1.6195
12.2766 -2.0381 1.6189
12.3882 -0.9332 1.6161
12.4025 0.1754 1.6135
12.3291 1.2802 1.6125
12.1791 2.3776 1.6142
11.9479 3.4632 1.6182
11.6295 4.5301 1.6236
11.2249 5.5723 1.6302
10.7117 6.5690 1.6346
10.0897 7.5034 1.6357
6.2380 5.5686 1.0878
8.6151 9.1977 1.6394
7.7617 9.9314 1.6397
6.8424 10.5804 1.6391
5.8502 11.1087 1.6332
4.9867 11.9478 1.6842
4.0818 12.9173 1.7623
2.9077 13.2049 1.7589
1.7163 13.3970 1.7570
0.5141 13.4929 1.7565
-0.6920 13.4920 1.7574
-1.8953 13.3942 1.7598
-3.0892 13.1998 1.7635
-4.2668 12.9090 1.7686
-5.4213 12.5229 1.7752
-6.5421 12.0359 1.7820
-7.6231 11.4544 1.7899
-8.6575 10.7821 1.7988
-9.6379 10.0220 1.8088
-10.5571 9.1776 1.8197
-11.3870 8.2377 1.8283
-12.1296 7.2206 1.8363
-12.7842 6.1380 1.8448
-13.3335 4.9928 1.8521
-13.7523 3.7908 1.8557
-14.0635 2.5539 1.8594
-14.2517 1.2906 1.8615
-14.2928 0.0141 1.8593
-14.2200 -1.2595 1.8571
-14.0210 -2.5177 1.8531
-13.6829 -3.7427 1.8453
-13.2406 -4.9283 1.8379
-12.6954 -6.0647 1.8303
-12.0281 -7.1282 1.8188
-11.2778 -8.1249 1.8082
-10.4510 -9.0493 1.7984
-9.5541 -9.8958 1.7894
-8.5801 -10.6428 1.7784
-7.5554 -11.3043 1.7687
-6.4866 -11.8780 1.7606
-5.3804 -12.3618 1.7538
-4.2434 -12.7540 1.7485
-3.0821 -13.0533 1.7447
-1.9028 -13.2588 1.7425
-0.7121 -13.3697 1.7417
0.4836 -13.3854 1.7424
1.6780 -13.3059 1.7446
2.8644 -13.1311 1.7483
3.7660 -11.9997 1.6361
4.7826 -11.5225 1.6229
5.8182 -11.1009 1.6304
6.7824 -10.5331 1.6297
7.6808 -9.8678 1.6267
8.5224 -9.1346 1.6252
9.3030 -8.3377 1.6251
10.0069 -7.4724 1.6246
10.6234 -6.5435 1.6231
11.1632 -5.5690 1.6228
11.6123 -4.5497 1.6224
11.9541 -3.4905 1.6200
12.2098 -2.4085 1.6189
12.3634 -1.3084 1.6173
12.4074 -0.1999 1.6142
12.3637 0.9069 1.6127
12.2375 2.0069 1.6132
12.0360 3.0973 1.6167
11.7470 4.1713 1.6216
11.3715 5.2225 1.6278
10.9049 6.2417 1.6345
10.3088 7.1925 1.6352
9.6375 8.0931 1.6371
5.8698 5.8985 1.0825
8.0573 9.6906 1.6394
7.1661 10.3786 1.6407
6.1905 10.9392 1.6351
5.1736 11.4117 1.6299
4.4743 12.7984 1.7637
3.3076 13.1182 1.7599
2.1212 13.3427 1.7575
0.9219 13.4712 1.7565
-0.2835 13.5031 1.7570
-1.4886 13.4382 1.7588
-2.6865 13.2764 1.7621
-3.8704 13.0182 1.7667
-5.0334 12.6643 1.7728
-6.1669 12.2118 1.7796
-7.2620 11.6616 1.7871
-8.3129 11.0198 1.7957
-9.3124 10.2890 1.8053
-10.2532 9.4727 1.8159
-11.1168 8.5660 1.8257
-11.8876 7.5727 1.8335
-12.5728 6.5115 1.8419
-13.1659 5.3895 1.8506
-13.6224 4.2022 1.8545
-13.9704 2.9760 1.8581
-14.2085 1.7213 1.8618
-14.2916 0.4465 1.8601
-14.2574 -0.8293 1.8578
-14.1098 -2.0953 1.8556
-13.8093 -3.3319 1.8479
-13.4018 -4.5318 1.8404
-12.8930 -5.6868 1.8331
-12.2636 -6.7752 1.8226
-11.5407 -7.7953 1.8117
-10.7391 -8.7447 1.8016
-9.8655 -9.6185 1.7924
-8.9160 -10.3993 1.7819
-7.9076 -11.0901 1.7718
-6.8530 -11.6937 1.7632
-5.7588 -12.2081 1.7559
-4.6315 -12.6315 1.7502
-3.4776 -12.9624 1.7459
-2.3037 -13.1998 1.7431
-1.1162 -13.3428 1.7418
0.0786 -13.3907 1.7420
1.2741 -13.3435 1.7437
2.4640 -13.2009 1.7469
3.6415 -12.9633 1.7516
4.4258 -11.6457 1.6207
5.4708 -11.2532 1.6277
6.4661 -10.7423 1.6310
7.3827 -10.1008 1.6275
8.2440 -9.3902 1.6255
9.0458 -8.6144 1.6250
9.7814 -7.7756 1.6255
10.4230 -6.8635 1.6235
10.9892 -5.9038 1.6228
11.4767 -4.9019 1.6234
11.8480 -3.8519 1.6207
12.1329 -2.7771 1.6191
12.3286 -1.6831 1.6187
12.4024 -0.5753 1.6151
12.3883 0.5327 1.6130
12.2868 1.6351 1.6124
12.1140 2.7297 1.6154
11.8546 3.8099 1.6198
11.5083 4.8695 1.6256
11.0761 5.9024 1.6327
10.5192 6.8760 1.6348
9.8730 7.7942 1.6363
5.9119 5.5920 1.0586
8.3461 9.4419 1.6393
7.4740 10.1536 1.6401
6.5264 10.7601 1.6371
5.5218 11.2612 1.6316
4.8637 12.6687 1.7653
3.7051 13.0205 1.7610
2.5247 13.2774 1.7582
1.3291 13.4385 1.7567
0.1249 13.5032 1.7567
-1.0810 13.4710 1.7580
-2.2821 13.3420 1.7608
-3.4714 13.1164 1.7650
-4.6424 12.7948 1.7706
-5.7874 12.3769 1.7774
-6.8957 11.8583 1.7845
-7.9624 11.2472 1.7926
-8.9802 10.5462 1.8019
-9.9417 9.7584 1.8122
-10.8375 8.8860 1.8231
-11.6359 7.9170 1.8308
-12.3508 6.8780 1.8390
-12.9758 5.7757 1.8476
-13.4803 4.6092 1.8533
-13.8647 3.3949 1.8569
-14.1404 2.1487 1.8606
-14.2774 0.8788 1.8608
-14.2817 -0.3979 1.8586
-14.1724 -1.6683 1.8564
-13.9235 -2.9169 1.8506
-13.5513 -4.1302 1.8429
-13.0763 -5.3013 1.8355
-12.4894 -6.4149 1.8265
-11.7946 -7.4575 1.8153
-11.0190 -8.4314 1.8049
-10.1690 -9.3314 1.7954
-9.2457 -10.1461 1.7857
-8.2546 -10.8658 1.7751
-7.2149 -11.4992 1.7659
-6.1333 -12.0441 1.7582
-5.0165 -12.4984 1.7519
-3.8709 -12.8608 1.7471
-2.7030 -13.1300 1.7438
-1.5194 -13.3050 1.7420
-0.3263 -13.3852 1.7417
0.8697 -13.3701 1.7429
2.0621 -13.2598 1.7457
3.2446 -13.0544 1.7499
4.0664 -11.7591 1.6186
5.1200 -11.3957 1.6252
6.1403 -10.9366 1.6316
7.0783 -10.3259 1.6286
7.9589 -9.6383 1.6260
8.7813 -8.8842 1.6250
9.5413 -8.0675 1.6254
10.2141 -7.1779 1.6240
10.8061 -6.2337 1.6229
11.3206 -5.2456 1.6231
11.7320 -4.2106 1.6215
12.0461 -3.1434 1.6195
12.2737 -2.0554 1.6189
12.3872 -0.9507 1.6161
12.4029 0.1579 1.6136
12.3310 1.2628 1.6125
12.1820 2.3603 1.6142
11.9522 3.4461 1.6182
11.6352 4.5134 1.6235
11.2320 5.5560 1.6301
10.7209 6.5538 1.6346
10.1002 7.4890 1.6357
6.2588 5.5713 1.0900
8.6281 9.1855 1.6394
7.7757 9.9204 1.6397
6.8577 10.5714 1.6392
5.8662 11.1010 1.6333
4.9854 11.8974 1.6781
4.1002 12.9119 1.7623
2.9264 13.2011 1.7590
1.7352 13.3947 1.7570
0.5332 13.4921 1.7565
-0.6729 13.4928 1.7574
-1.8764 13.3965 1.7597
-3.0705 13.2036 1.7634
-4.2484 12.9144 1.7686
-5.4033 12.5298 1.7750
-6.5247 12.0443 1.7819
-7.6064 11.4643 1.7897
-8.6415 10.7934 1.7986
-9.6229 10.0347 1.8086
-10.5431 9.1915 1.8195
-11.3746 8.2532 1.8281
-12.1185 7.2372 1.8362
-12.7746 6.1556 1.8447
-13.3261 5.0115 1.8521
-13.7466 3.8101 1.8557
-14.0594 2.5737 1.8593
-14.2501 1.3108 1.8616
-14.2930 0.0342 1.8593
-14.2221 -1.2395 1.8571
-14.0255 -2.4980 1.8532
-13.6891 -3.7236 1.8455
-13.2484 -4.9100 1.8380
-12.7052 -6.0474 1.8304
-12.0393 -7.1119 1.8190
-11.2903 -8.1097 1.8083
-10.4647 -9.0353 1.7985
-9.5691 -9.8834 1.7896
-8.5959 -10.6317 1.7785
-7.5720 -11.2946 1.7689
-6.5038 -11.8696 1.7607
-5.3982 -12.3548 1.7539
-4.2616 -12.7485 1.7486
-3.1006 -13.0493 1.7448
-1.9215 -13.2563 1.7425
-0.7309 -13.3687 1.7417
0.4648 -13.3859 1.7424
1.6592 -13.3078 1.7446
2.8458 -13.1346 1.7483
3.7623 -12.0476 1.6419
4.7660 -11.5284 1.6228
5.8021 -11.1082 1.6303
6.7678 -10.5430 1.6298
7.6670 -9.8788 1.6267
8.5096 -9.1467 1.6252
9.2912 -8.3507 1.6251
9.9966 -7.4867 1.6247
10.6142 -6.5586 1.6231
11.1552 -5.5847 1.6228
11.6062 -4.5662 1.6225
11.9494 -3.5074 1.6200
12.2064 -2.4258 1.6189
12.3620 -1.3259 1.6174
12.4074 -0.2174 1.6143
12.3651 0.8895 1.6127
12.2400 1.9895 1.6131
12.0398 3.0802 1.6167
11.7523 4.1545 1.6215
11.3781 5.2061 1.6277
10.9137 6.2263 1.6345
10.3188 7.1779 1.6352
9.6486 8.0793 1.6371
5.8691 5.8813 1.0809
8.0709 9.6792 1.6394
7.1806 10.3683 1.6406
6.2063 10.9311 1.6352
5.1899 11.4049 1.6300
4.4925 12.7926 1.7638
3.3262 13.1138 1.7599
2.1401 13.3399 1.7575
0.9410 13.4700 1.7565
-0.2645 13.5034 1.7569
-1.4696 13.4400 1.7588
-9.2492 9.5636 1.8141
-10.1196 8.7471 1.8239
-10.9025 7.8404 1.8311
-11.6070 6.8653 1.8388
-12.2271 5.8281 1.8469
-12.7386 4.7291 1.8528
-13.1339 3.5805 1.8562
-13.4263 2.3990 1.8597
-13.5990 1.1928 1.8614
-13.6356 -0.0251 1.8593
-13.5635 -1.2400 1.8572
-13.3747 -2.4406 1.8538
-13.0512 -3.6095 1.8464
-12.6282 -4.7410 1.8393
-12.1099 -5.8270 1.8325
-11.4776 -6.8458 1.8223
-10.7606 -7.7986 1.8121
-9.9702 -8.6823 1.8027
-9.1127 -9.4921 1.7942
-8.1893 -10.2169 1.7854
-7.2078 -10.8504 1.7762
-6.1837 -11.3996 1.7684
-5.1233 -11.8623 1.7619
-4.0331 -12.2370 1.7569
-2.9194 -12.5223 1.7533
-1.7884 -12.7171 1.7511
-0.6465 -12.8207 1.7504
0.5000 -12.8327 1.7511
1.6448 -12.7528 1.7533
2.7817 -12.5813 1.7570
3.7616 -11.8687 1.6977
4.6153 -11.0313 1.6305
5.6053 -10.6217 1.6376
6.5321 -10.0817 1.6380
7.3925 -9.4423 1.6352
8.1982 -8.7375 1.6337
8.9450 -7.9714 1.6337
9.6120 -7.1353 1.6323
10.2010 -6.2438 1.6308
10.7162 -5.3083 1.6306
11.1420 -4.3292 1.6299
11.4678 -3.3134 1.6277
11.7105 -2.2757 1.6267
11.8586 -1.2211 1.6255
11.8990 -0.1581 1.6226
11.8549 0.9032 1.6212
11.7266 1.9571 1.6211
11.5297 3.0018 1.6245
11.2487 4.0301 1.6293
10.8844 5.0361 1.6353
10.4337 6.0112 1.6419
9.8599 6.9208 1.6426
9.2140 7.7819 1.6445
5.8640 5.9261 1.1368
7.6990 9.3131 1.6476
6.8339 9.9575 1.6468
5.8970 10.4894 1.6408
4.9517 11.0047 1.6455
4.2528 12.2761 1.7715
3.1343 12.5808 1.7679
1.9969 12.7938 1.7656
0.8472 12.9143 1.7647
-0.3083 12.9418 1.7652
-1.4631 12.8761 1.7670
-2.6107 12.7171 1.7702
-3.7443 12.4654 1.7747
-4.8557 12.1173 1.7800
-5.9376 11.6758 1.7861
-6.9835 11.1442 1.7933
-7.9864 10.5250 1.8015
-8.9392 9.8208 1.8108
-9.8349 9.0349 1.8210
-10.6458 8.1554 1.8286
-11.3776 7.2027 1.8361
-12.0270 6.1858 1.8441
-12.5820 5.1090 1.8517
-13.0114 3.9735 1.8551
-13.3390 2.8022 1.8585
-13.5616 1.6041 1.8621
-13.6354 0.3874 1.8600
-13.6000 -0.8295 1.8579
-13.4565 -2.0372 1.8558
-13.1721 -3.2175 1.8489
-12.7823 -4.3626 1.8417
-12.2957 -5.4649 1.8347
-11.7025 -6.5085 1.8259
-11.0119 -7.4834 1.8154
-10.2457 -8.3911 1.8058
-9.4101 -9.2264 1.7970
-8.5108 -9.9836 1.7888
-7.5452 -10.6452 1.7792
-6.5348 -11.2232 1.7709
-5.4860 -11.7154 1.7639
-4.4052 -12.1201 1.7584
-3.2987 -12.4358 1.7543
-2.1729 -12.6613 1.7517
-1.0340 -12.7959 1.7505
0.1116 -12.8389 1.7507
1.2578 -12.7902 1.7524
2.3980 -12.6496 1.7556
3.5261 -12.4176 1.7601
4.2739 -11.1510 1.6284
5.2736 -10.7702 1.6352
6.2291 -10.2827 1.6393
7.1071 -9.6663 1.6360
7.9318 -8.9832 1.6341
8.6990 -8.2374 1.6336
9.3963 -7.4263 1.6331
10.0096 -6.5508 1.6312
10.5501 -5.6296 1.6306
11.0132 -4.6672 1.6310
11.3667 -3.6601 1.6283
11.6377 -2.6291 1.6269
11.8249 -1.5803 1.6267
11.8948 -0.5181 1.6235
11.8793 0.5444 1.6215
11.7795 1.6015 1.6210
11.6058 2.6496 1.6232
11.3532 3.6841 1.6275
