ply
format ascii 1.0
element vertex 2177
property float32 x
property float32 y
property float32 z
end_header
5.7015 1.8280 1.8642
5.5201 2.3313 1.8657
1.0432 0.5550 0.3679
0.9904 0.6465 0.3683
0.9296 0.7329 0.3686
0.8612 0.8136 0.3689
0.7857 0.8879 0.3691
0.7039 0.9551 0.3694
0.6162 1.0147 0.3696
0.5235 1.0662 0.3698
0.4264 1.1092 0.3700
0.3259 1.1432 0.3701
0.2226 1.1680 0.3702
0.1176 1.1835 0.3703
0.0115 1.1893 0.3703
-0.0947 1.1856 0.3703
-0.2001 1.1723 0.3703
-0.3038 1.1496 0.3702
-0.4051 1.1176 0.3701
-0.5030 1.0766 0.3700
-0.5968 1.0269 0.3698
-0.6857 0.9691 0.3696
-0.7689 0.9035 0.3694
-0.8459 0.8307 0.3691
-0.9160 0.7513 0.3689
-0.9785 0.6660 0.3686
-1.0332 0.5756 0.3682
-1.0794 0.4806 0.3679
-5.2062 1.7808 1.7132
-5.3400 1.3081 1.7118
-5.4310 0.8257 1.7104
-5.4784 0.3375 1.7090
-5.4821 -0.1525 1.7075
-5.4420 -0.6406 1.7061
-5.3587 -1.1227 1.7047
-5.2327 -1.5950 1.7032
-5.0590 -2.0513 1.6997
-1.0406 -0.5346 0.3642
-0.9878 -0.6247 0.3639
-0.9273 -0.7098 0.3636
-0.8596 -0.7890 0.3633
-0.7852 -0.8619 0.3630
-0.7047 -0.9279 0.3628
-0.6187 -0.9865 0.3626
-0.5279 -1.0372 0.3624
-0.4331 -1.0797 0.3622
-0.3349 -1.1136 0.3621
-0.2341 -1.1387 0.3620
-0.1315 -1.1549 0.3619
-0.0279 -1.1619 0.3619
0.0758 -1.1597 0.3619
0.1790 -1.1484 0.3619
0.2808 -1.1281 0.3619
0.3805 -1.0988 0.3620
0.4772 -1.0608 0.3622
0.5702 -1.0145 0.3623
0.6587 -0.9600 0.3625
0.7422 -0.8979 0.3627
0.8199 -0.8287 0.3630
0.8912 -0.7528 0.3632
0.9556 -0.6708 0.3635
1.0125 -0.5833 0.3638
1.0615 -0.4911 0.3641
1.1021 -0.3948 0.3645
5.7576 -1.4985 1.8524
5.8796 -0.9807 1.8559
5.9486 -0.4525 1.8575
5.9702 0.0802 1.8590
5.9443 0.6131 1.8606
5.8708 1.1420 1.8621
5.7502 1.6627 1.8637
5.5835 2.1709 1.8652
1.0584 0.5246 0.3678
1.0083 0.6175 0.3681
0.9500 0.7057 0.3685
0.8840 0.7883 0.3688
0.8108 0.8647 0.3691
0.7309 0.9342 0.3693
0.6450 0.9964 0.3696
0.5539 1.0505 0.3698
0.4581 1.0963 0.3699
0.3586 1.1332 0.3701
0.2561 1.1611 0.3702
0.1516 1.1795 0.3703
0.0457 1.1885 0.3703
-0.0605 1.1879 0.3703
-0.1663 1.1776 0.3703
-0.2706 1.1579 0.3702
-0.3728 1.1289 0.3701
-0.4719 1.0907 0.3700
-0.5671 1.0438 0.3699
-0.6576 0.9886 0.3697
-0.7428 0.9254 0.3695
-0.8218 0.8549 0.3692
-0.8942 0.7776 0.3689
-0.9592 0.6941 0.3687
-1.0165 0.6052 0.3683
-1.0655 0.5117 0.3680
-1.1058 0.4142 0.3677
-5.3015 1.4616 1.7122
-5.4064 0.9819 1.7108
-5.4679 0.4952 1.7094
-5.4857 0.0053 1.7080
-5.4597 -0.4838 1.7066
-5.3902 -0.9682 1.7051
-5.2780 -1.4442 1.7037
-5.1193 -1.9061 1.7008
-1.0558 -0.5045 0.3643
-1.0057 -0.5962 0.3640
-0.9476 -0.6830 0.3637
-0.8822 -0.7642 0.3634
-0.8099 -0.8392 0.3631
-0.7312 -0.9075 0.3629
-0.6469 -0.9685 0.3626
-0.5576 -1.0218 0.3624
-0.4640 -1.0669 0.3623
-0.3668 -1.1037 0.3621
-0.2668 -1.1316 0.3620
-0.1647 -1.1507 0.3619
-0.0614 -1.1606 0.3619
0.0424 -1.1614 0.3619
0.1459 -1.1531 0.3619
0.2482 -1.1356 0.3619
0.3487 -1.1092 0.3620
0.4464 -1.0740 0.3621
0.5407 -1.0303 0.3623
0.6307 -0.9784 0.3624
0.7159 -0.9187 0.3626
0.7956 -0.8517 0.3629
0.8690 -0.7779 0.3631
0.9357 -0.6978 0.3634
0.9950 -0.6120 0.3637
1.0466 -0.5213 0.3640
1.0899 -0.4262 0.3644
5.7083 -1.6625 1.8511
5.8461 -1.1489 1.8550
5.9315 -0.6233 1.8570
5.9685 -0.0917 1.8585
5.9578 0.4417 1.8601
5.8996 0.9723 1.8616
5.7941 1.4961 1.8632
5.6422 2.0088 1.8647
5.4447 2.5062 1.8662
1.0254 0.5881 0.3680
0.9697 0.6779 0.3684
0.9061 0.7623 0.3687
0.8351 0.8408 0.3690
0.7573 0.9126 0.3692
0.6733 0.9772 0.3695
0.5838 1.0340 0.3697
0.4894 1.0825 0.3699
0.3910 1.1223 0.3700
0.2894 1.1531 0.3702
0.1854 1.1746 0.3702
0.0799 1.1867 0.3703
-0.0263 1.1891 0.3703
-0.1323 1.1820 0.3703
-0.2372 1.1653 0.3703
-0.3402 1.1392 0.3702
-0.4403 1.1040 0.3701
-0.5369 1.0599 0.3699
-0.6290 1.0073 0.3697
-0.7160 0.9466 0.3695
-0.7971 0.8784 0.3693
-0.8716 0.8032 0.3690
-0.9391 0.7216 0.3687
-0.9989 0.6344 0.3684
-1.0506 0.5423 0.3681
-1.0938 0.4460 0.3678
-5.2586 1.6140 1.7127
-5.3773 1.1374 1.7113
-5.4529 0.6525 1.7099
-5.4848 0.1632 1.7085
-5.4728 -0.3266 1.7070
-5.4173 -0.8129 1.7056
-5.3188 -1.2920 1.7042
-5.1755 -1.7591 1.7020
-1.0703 -0.4741 0.3645
-1.0227 -0.5672 0.3641
-0.9672 -0.6556 0.3638
-0.9041 -0.7386 0.3635
-0.8339 -0.8157 0.3632
-0.7572 -0.8862 0.3629
-0.6747 -0.9496 0.3627
-0.5869 -1.0055 0.3625
-0.4946 -1.0533 0.3623
-0.3985 -1.0928 0.3621
-0.2993 -1.1236 0.3620
-0.1978 -1.1455 0.3619
-0.0948 -1.1584 0.3619
0.0090 -1.1622 0.3619
0.1126 -1.1568 0.3619
0.2154 -1.1422 0.3619
0.3166 -1.1187 0.3620
0.4152 -1.0863 0.3621
0.5107 -1.0453 0.3622
0.6022 -0.9960 0.3624
0.6891 -0.9388 0.3626
0.7705 -0.8741 0.3628
0.8461 -0.8024 0.3631
0.9150 -0.7243 0.3633
0.9767 -0.6403 0.3636
1.0309 -0.5510 0.3639
1.0769 -0.4573 0.3643
5.6544 -1.8249 1.8499
5.8066 -1.3158 1.8537
5.9095 -0.7936 1.8565
5.9617 -0.2633 1.8580
5.9665 0.2699 1.8596
5.9236 0.8019 1.8611
5.8333 1.3284 1.8627
5.6961 1.8451 1.8642
5.5132 2.3479 1.8657
1.0416 0.5582 0.3679
0.9885 0.6495 0.3683
0.9274 0.7357 0.3686
0.8588 0.8162 0.3689
0.7831 0.8902 0.3692
0.7010 0.9572 0.3694
0.6132 1.0166 0.3696
0.5203 1.0678 0.3698
0.4231 1.1104 0.3700
0.3225 1.1442 0.3701
0.2191 1.1687 0.3702
0.1140 1.1838 0.3703
0.0079 1.1894 0.3703
-0.0982 1.1853 0.3703
-0.2036 1.1717 0.3703
-0.3073 1.1487 0.3702
-0.4084 1.1163 0.3701
-0.5062 1.0750 0.3700
-0.5998 1.0251 0.3698
-0.6886 0.9670 0.3696
-0.7716 0.9011 0.3694
-0.8484 0.8281 0.3691
-0.9182 0.7486 0.3688
-0.9805 0.6631 0.3685
-1.0349 0.5725 0.3682
-1.0808 0.4774 0.3679
-5.2113 1.7651 1.7131
-5.3438 1.2921 1.7117
-5.4333 0.8094 1.7103
-5.4793 0.3211 1.7089
-5.4815 -0.1689 1.7075
-5.4399 -0.6568 1.7060
-5.3552 -1.1387 1.7046
-5.2275 -1.6105 1.7031
-5.0525 -2.0663 1.6996
-1.0389 -0.5377 0.3642
-0.9859 -0.6276 0.3639
-0.9252 -0.7125 0.3636
-0.8572 -0.7916 0.3633
-0.7826 -0.8643 0.3630
-0.7019 -0.9300 0.3628
-0.6157 -0.9883 0.3626
-0.5248 -1.0388 0.3624
-0.4298 -1.0810 0.3622
-0.3315 -1.1146 0.3621
-0.2307 -1.1394 0.3620
-0.1281 -1.1553 0.3619
-0.0245 -1.1620 0.3619
0.0793 -1.1595 0.3619
0.1825 -1.1479 0.3619
0.2842 -1.1272 0.3619
0.3838 -1.0977 0.3620
0.4803 -1.0594 0.3622
0.5732 -1.0128 0.3623
0.6616 -0.9581 0.3625
0.7449 -0.8957 0.3627
0.8224 -0.8262 0.3630
0.8935 -0.7501 0.3632
0.9576 -0.6679 0.3635
1.0143 -0.5803 0.3638
1.0630 -0.4879 0.3642
5.5959 -1.9856 1.8487
5.7625 -1.4814 1.8525
5.8827 -0.9631 1.8560
5.9501 -0.4347 1.8575
5.9701 0.0981 1.8591
5.9426 0.6309 1.8606
5.8675 1.1596 1.8622
5.7454 1.6799 1.8637
5.5771 2.1877 1.8652
1.0569 0.5278 0.3678
1.0065 0.6206 0.3682
0.9480 0.7085 0.3685
0.8817 0.7910 0.3688
0.8082 0.8671 0.3691
0.7281 0.9364 0.3693
0.6421 0.9983 0.3696
0.5507 1.0522 0.3698
0.4549 1.0977 0.3699
0.3552 1.1343 0.3701
0.2527 1.1618 0.3702
0.1480 1.1800 0.3703
0.0422 1.1886 0.3703
-0.0641 1.1877 0.3703
-0.1698 1.1771 0.3703
-0.2741 1.1571 0.3702
-0.3762 1.1277 0.3701
-0.4751 1.0893 0.3700
-0.5702 1.0421 0.3699
-0.6606 0.9866 0.3697
-0.7455 0.9232 0.3695
-0.2906 1.1266 0.3701
-0.3898 1.0959 0.3700
-0.4859 1.0564 0.3699
-0.5780 1.0084 0.3697
-0.6653 0.9523 0.3695
-0.7471 0.8886 0.3693
-0.8229 0.8178 0.3691
-0.8919 0.7406 0.3688
-0.9537 0.6575 0.3685
-1.0077 0.5693 0.3682
-1.0536 0.4767 0.3679
-1.0909 0.3804 0.3675
-5.2186 1.3115 1.7118
-5.3106 0.8399 1.7104
-5.3600 0.3624 1.7090
-5.3665 -0.1172 1.7076
-5.3302 -0.5951 1.7062
-5.2516 -1.0675 1.7048
-5.1312 -1.5306 1.7034
-1.0648 -0.4243 0.3646
-1.0217 -0.5172 0.3643
-0.9706 -0.6057 0.3640
-0.9119 -0.6893 0.3637
-0.8461 -0.7674 0.3634
-0.7737 -0.8392 0.3631
-0.6953 -0.9043 0.3629
-0.6114 -0.9621 0.3626
-0.5229 -1.0123 0.3625
-0.4303 -1.0544 0.3623
-0.3343 -1.0882 0.3622
-0.2358 -1.1134 0.3621
-0.1355 -1.1298 0.3620
-0.0342 -1.1373 0.3619
0.0674 -1.1357 0.3619
0.1685 -1.1253 0.3620
0.2683 -1.1059 0.3620
0.3660 -1.0778 0.3621
0.4609 -1.0412 0.3622
0.5522 -0.9964 0.3624
0.6392 -0.9436 0.3626
0.7213 -0.8833 0.3628
0.7977 -0.8159 0.3630
0.8680 -0.7420 0.3633
0.9314 -0.6621 0.3635
0.9876 -0.5769 0.3638
1.0360 -0.4869 0.3642
1.0763 -0.3928 0.3645
5.6263 -1.5003 1.8524
5.7486 -0.9942 1.8559
5.8191 -0.4776 1.8574
5.8433 0.0435 1.8589
5.8209 0.5652 1.8605
5.7519 1.0832 1.8620
5.6369 1.5934 1.8635
5.4766 2.0917 1.8650
1.0388 0.5072 0.3677
0.9903 0.5984 0.3681
0.9338 0.6850 0.3684
0.8696 0.7662 0.3687
0.7984 0.8413 0.3690
0.7206 0.9098 0.3692
0.6370 0.9711 0.3695
0.5481 1.0247 0.3697
0.4547 1.0700 0.3698
0.3575 1.1067 0.3700
0.2574 1.1345 0.3701
0.1552 1.1532 0.3702
0.0517 1.1626 0.3702
-0.0523 1.1626 0.3702
-0.1558 1.1533 0.3702
-0.2580 1.1346 0.3702
-0.3582 1.1068 0.3701
-0.4553 1.0700 0.3699
-0.5488 1.0247 0.3698
-0.6377 0.9712 0.3696
-0.7214 0.9099 0.3694
-0.7992 0.8414 0.3692
-0.8705 0.7661 0.3689
-0.9346 0.6849 0.3686
-0.9912 0.5983 0.3683
-1.0397 0.5070 0.3680
-1.0798 0.4118 0.3676
-5.1800 1.4615 1.7122
-5.2856 0.9927 1.7109
-5.3487 0.5167 1.7095
-5.3691 0.0373 1.7081
-5.3466 -0.4416 1.7067
-5.2815 -0.9161 1.7053
-5.1745 -1.3826 1.7039
-1.0769 -0.3936 0.3647
-1.0365 -0.4877 0.3644
-0.9879 -0.5777 0.3641
-0.9316 -0.6630 0.3638
-0.8681 -0.7429 0.3635
-0.7977 -0.8167 0.3632
-0.7211 -0.8841 0.3629
-0.6390 -0.9443 0.3627
-0.5519 -0.9970 0.3625
-0.4605 -1.0418 0.3623
-0.3656 -1.0783 0.3622
-0.2678 -1.1062 0.3621
-0.1680 -1.1255 0.3620
-0.0669 -1.1358 0.3620
0.0347 -1.1372 0.3619
0.1361 -1.1296 0.3620
0.2364 -1.1131 0.3620
0.3348 -1.0878 0.3621
0.4307 -1.0539 0.3622
0.5232 -1.0117 0.3623
0.6117 -0.9614 0.3625
0.6954 -0.9035 0.3627
0.7737 -0.8384 0.3629
0.8460 -0.7665 0.3632
0.9117 -0.6885 0.3635
0.9703 -0.6049 0.3637
1.0213 -0.5163 0.3641
1.0643 -0.4235 0.3644
1.0989 -0.3272 0.3647
5.7147 -1.1586 1.8550
5.8014 -0.6448 1.8569
5.8406 -0.1246 1.8584
5.8332 0.3973 1.8600
5.7792 0.9170 1.8615
5.6790 1.4302 1.8630
5.5331 1.9328 1.8645
1.0526 0.4769 0.3676
1.0068 0.5695 0.3680
0.9528 0.6576 0.3683
0.8911 0.7406 0.3686
0.8221 0.8178 0.3689
0.7464 0.8885 0.3692
0.6645 0.9522 0.3694
0.5772 1.0083 0.3696
0.4852 1.0563 0.3698
0.3892 1.0958 0.3699
0.2899 1.1266 0.3701
0.1883 1.1482 0.3702
0.0851 1.1606 0.3702
-0.0188 1.1637 0.3702
-0.1225 1.1573 0.3702
-0.2253 1.1416 0.3702
-0.3262 1.1167 0.3701
-0.4244 1.0828 0.3700
-0.5191 1.0402 0.3698
-0.6096 0.9893 0.3697
-0.6951 0.9305 0.3695
-0.7748 0.8642 0.3692
-0.8483 0.7911 0.3690
-0.9148 0.7117 0.3687
-0.9738 0.6267 0.3684
-1.0250 0.5369 0.3681
-1.0678 0.4428 0.3678
-1.1021 0.3455 0.3674
-5.2562 1.1447 1.7113
-5.3330 0.6706 1.7099
-5.3672 0.1919 1.7085
-5.3585 -0.2876 1.7071
-5.3071 -0.7639 1.7057
-5.2135 -1.2334 1.7043
-5.0770 -1.6918 1.7024
-1.0504 -0.4578 0.3645
-1.0044 -0.5492 0.3642
-0.9506 -0.6361 0.3639
-0.8893 -0.7178 0.3636
-0.8211 -0.7936 0.3633
-0.7465 -0.8631 0.3630
-0.6660 -0.9257 0.3628
-0.5804 -0.9809 0.3626
-0.4904 -1.0282 0.3624
-0.3965 -1.0674 0.3622
-0.2996 -1.0982 0.3621
-0.2003 -1.1202 0.3620
-0.0995 -1.1335 0.3620
0.0020 -1.1377 0.3619
0.1035 -1.1330 0.3619
0.2042 -1.1194 0.3620
0.3033 -1.0969 0.3621
0.4001 -1.0658 0.3622
0.4938 -1.0262 0.3623
0.5837 -0.9785 0.3624
0.6690 -0.9230 0.3626
0.7491 -0.8601 0.3629
0.8234 -0.7904 0.3631
0.8913 -0.7143 0.3634
0.9523 -0.6324 0.3637
1.0057 -0.5454 0.3640
1.0513 -0.4538 0.3643
1.0886 -0.3586 0.3646
5.6753 -1.3218 1.8537
5.7789 -0.8113 1.8564
5.8330 -0.2926 1.8579
5.8406 0.2292 1.8595
5.8017 0.7501 1.8610
5.7163 1.2658 1.8625
5.5850 1.7723 1.8640
1.0656 0.4463 0.3675
1.0225 0.5401 0.3679
0.9711 0.6297 0.3682
0.9118 0.7145 0.3685
0.8451 0.7936 0.3688
0.7714 0.8665 0.3691
0.6915 0.9325 0.3693
0.6059 0.9911 0.3695
0.5153 1.0417 0.3697
0.4205 1.0840 0.3699
0.3222 1.1176 0.3700
0.2213 1.1422 0.3701
0.1185 1.1576 0.3702
0.0147 1.1637 0.3702
-0.0892 1.1604 0.3702
-0.1923 1.1477 0.3702
-0.2939 1.1257 0.3701
-0.3931 1.0947 0.3700
-0.4890 1.0549 0.3699
-0.5810 1.0066 0.3697
-0.6681 0.9503 0.3695
-0.7498 0.8863 0.3693
-0.8253 0.8153 0.3691
-0.8941 0.7379 0.3688
-0.9557 0.6547 0.3685
-1.0094 0.5663 0.3682
-1.0550 0.4735 0.3679
-1.0920 0.3772 0.3675
-5.2224 1.2958 1.7117
-5.3129 0.8240 1.7104
-5.3609 0.3464 1.7090
-5.3660 -0.1333 1.7076
-5.3283 -0.6110 1.7062
-5.2482 -1.0831 1.7048
-5.1265 -1.5459 1.7034
-1.0635 -0.4275 0.3646
-1.0201 -0.5202 0.3643
-0.9688 -0.6086 0.3640
-0.9098 -0.6920 0.3637
-0.8438 -0.7699 0.3634
-0.7712 -0.8415 0.3631
-0.6925 -0.9063 0.3629
-0.6085 -0.9639 0.3626
-0.5198 -1.0138 0.3624
-0.4271 -1.0557 0.3623
-0.3311 -1.0892 0.3622
-0.2325 -1.1141 0.3621
-0.1321 -1.1302 0.3620
-0.0308 -1.1373 0.3619
0.0708 -1.1355 0.3619
0.1719 -1.1248 0.3620
0.2716 -1.1051 0.3620
0.3692 -1.0768 0.3621
0.4640 -1.0399 0.3622
0.5552 -0.9947 0.3624
0.6420 -0.9417 0.3626
0.7239 -0.8812 0.3628
0.8002 -0.8136 0.3630
0.8702 -0.7395 0.3633
0.9334 -0.6594 0.3636
0.9894 -0.5739 0.3639
1.0375 -0.4838 0.3642
1.0775 -0.3896 0.3645
5.6312 -1.4836 1.8525
5.7517 -0.9770 1.8559
5.8206 -0.4603 1.8575
5.8433 0.0610 1.8590
5.8193 0.5826 1.8605
5.7488 1.1005 1.8620
5.6323 1.6103 1.8635
5.4705 2.1082 1.8650
1.0373 0.5103 0.3678
0.9885 0.6014 0.3681
0.9317 0.6878 0.3684
0.8673 0.7688 0.3687
0.7959 0.8437 0.3690
0.7179 0.9120 0.3692
0.6341 0.9730 0.3695
0.5450 1.0263 0.3697
0.4515 1.0713 0.3698
0.3542 1.1078 0.3700
0.2540 1.1353 0.3701
0.1517 1.1537 0.3702
0.0482 1.1628 0.3702
-0.0557 1.1625 0.3702
-0.1592 1.1528 0.3702
-0.2614 1.1338 0.3702
-0.3615 1.1057 0.3701
-0.4585 1.0687 0.3699
-0.5518 1.0231 0.3698
-0.6406 0.9693 0.3696
-0.7241 0.9077 0.3694
-0.8017 0.8389 0.3692
-0.8727 0.7635 0.3689
-0.9367 0.6821 0.3686
-0.9930 0.5953 0.3683
-1.0412 0.5039 0.3680
-1.0810 0.4086 0.3676
-5.1842 1.4460 1.7122
-5.2884 0.9768 1.7108
-5.3501 0.5006 1.7094
-5.3690 0.0212 1.7080
-5.3451 -0.4575 1.7066
-5.2786 -0.9319 1.7052
-5.1702 -1.3981 1.7038
-1.0757 -0.3968 0.3647
-1.0350 -0.4908 0.3644
-0.9862 -0.5806 0.3641
-0.9296 -0.6658 0.3637
-0.8658 -0.7454 0.3635
-0.7952 -0.8191 0.3632
-0.7185 -0.8862 0.3629
-0.6361 -0.9462 0.3627
-0.5489 -0.9986 0.3625
-0.4574 -1.0431 0.3623
-0.3623 -1.0793 0.3622
-0.2645 -1.1070 0.3621
-0.1646 -1.1260 0.3620
-0.0635 -1.1360 0.3620
0.0381 -1.1371 0.3619
0.1395 -1.1292 0.3620
0.2397 -1.1124 0.3620
0.3381 -1.0868 0.3621
0.4338 -1.0527 0.3622
0.5262 -1.0101 0.3623
0.6146 -0.9596 0.3625
0.6981 -0.9014 0.3627
0.7763 -0.8361 0.3629
0.8484 -0.7640 0.3632
0.9138 -0.6858 0.3635
0.9722 -0.6020 0.3638
1.0229 -0.5133 0.3641
1.0656 -0.4203 0.3644
1.0999 -0.3239 0.3647
5.7186 -1.1416 1.8551
5.8034 -0.6274 1.8570
5.8411 -0.1072 1.8585
5.8321 0.4148 1.8600
5.7766 0.9343 1.8615
5.6748 1.4472 1.8631
5.5275 1.9493 1.8646
1.0512 0.4801 0.3676
1.0051 0.5725 0.3680
0.9509 0.6605 0.3683
0.8889 0.7433 0.3686
0.8196 0.8203 0.3689
0.7437 0.8908 0.3692
0.6617 0.9542 0.3694
0.5742 1.0100 0.3696
0.4821 1.0578 0.3698
0.3859 1.0970 0.3699
0.2866 1.1274 0.3701
0.1849 1.1488 0.3702
0.0816 1.1609 0.3702
-0.0223 1.1636 0.3702
-0.1260 1.1569 0.3702
-0.2287 1.1409 0.3702
-0.3295 1.1157 0.3701
-0.4276 1.0816 0.3700
-0.5222 1.0387 0.3698
-0.6125 0.9875 0.3697
-0.6978 0.9284 0.3695
-0.7774 0.8619 0.3692
-0.8506 0.7885 0.3690
-0.9169 0.7089 0.3687
-0.9757 0.6238 0.3684
-1.0266 0.5338 0.3681
-1.0691 0.4396 0.3677
-1.1030 0.3422 0.3674
-5.2594 1.1289 1.7113
-5.3349 0.6546 1.7099
-5.3676 0.1758 1.7085
-5.3575 -0.3036 1.7071
-5.3047 -0.7798 1.7057
-5.2097 -1.2490 1.7043
-5.0716 -1.7069 1.7023
-1.0490 -0.4609 0.3645
-1.0028 -0.5522 0.3642
-0.9487 -0.6389 0.3638
-0.8871 -0.7204 0.3635
-0.8187 -0.7961 0.3633
-0.7439 -0.8653 0.3630
-0.6632 -0.9277 0.3628
-0.5775 -0.9826 0.3626
-0.4873 -1.0297 0.3624
-0.3933 -1.0686 0.3622
-0.2963 -1.0991 0.3621
-0.1970 -1.1208 0.3620
-0.0962 -1.1338 0.3620
0.0054 -1.1377 0.3619
0.1069 -1.1327 0.3619
0.2076 -1.1188 0.3620
0.3066 -1.0960 0.3621
0.4033 -1.0646 0.3622
0.4969 -1.0247 0.3623
0.5866 -0.9768 0.3625
0.6718 -0.9210 0.3626
0.7517 -0.8579 0.3629
0.8258 -0.7879 0.3631
0.8935 -0.7116 0.3634
0.9542 -0.6296 0.3637
1.0074 -0.5424 0.3640
1.0527 -0.4507 0.3643
1.0897 -0.3553 0.3646
5.6796 -1.3049 1.8539
5.7815 -0.7940 1.8565
5.8340 -0.2752 1.8580
5.8401 0.2467 1.8595
5.7996 0.7675 1.8611
5.7126 1.2829 1.8626
5.5799 1.7890 1.8641
1.0643 0.4495 0.3675
1.0209 0.5432 0.3679
0.9692 0.6327 0.3682
0.9097 0.7172 0.3685
0.8427 0.7962 0.3688
0.7689 0.8688 0.3691
0.6887 0.9346 0.3693
0.6030 0.9929 0.3695
0.5122 1.0433 0.3697
0.4173 1.0853 0.3699
0.3189 1.1186 0.3700
0.2179 1.1429 0.3701
0.1150 1.1580 0.3702
0.0112 1.1637 0.3702
-0.0926 1.1601 0.3702
-0.1958 1.1471 0.3702
-0.2973 1.1248 0.3701
-0.3964 1.0935 0.3700
-0.4922 1.0534 0.3699
-0.5840 1.0048 0.3697
-0.6709 0.9482 0.3695
-0.7524 0.8841 0.3693
-0.8278 0.8128 0.3691
-0.8963 0.7352 0.3688
-0.9576 0.6518 0.3685
-1.0111 0.5632 0.3682
-1.0563 0.4704 0.3679
-1.0931 0.3739 0.3675
-5.2261 1.2802 1.7117
-5.3152 0.8081 1.7103
-5.3617 0.3303 1.7089
-5.3654 -0.1493 1.7075
-5.3263 -0.6270 1.7061
-5.2448 -1.0988 1.7047
-5.1217 -1.5612 1.7034
-1.0621 -0.4307 0.3646
-1.0185 -0.5232 0.3643
-0.9669 -0.6115 0.3639
-0.9077 -0.6948 0.3636
-0.8415 -0.7724 0.3634
-0.7686 -0.8437 0.3631
-0.6898 -0.9084 0.3628
-0.6056 -0.9657 0.3626
-0.5168 -1.0154 0.3624
-0.4239 -1.0570 0.3623
-0.3278 -1.0902 0.3622
-0.2292 -1.1148 0.3621
-0.1288 -1.1306 0.3620
-0.0274 -1.1374 0.3619
0.0742 -1.1353 0.3619
0.1753 -1.1243 0.3620
0.2749 -1.1043 0.3620
0.3725 -1.0757 0.3621
0.4671 -1.0385 0.3622
0.5582 -0.9931 0.3624
0.6449 -0.9398 0.3626
0.7266 -0.8790 0.3628
0.8026 -0.8112 0.3630
0.8724 -0.7369 0.3633
0.9354 -0.6566 0.3636
0.9911 -0.5710 0.3639
1.0390 -0.4807 0.3642
1.0787 -0.3864 0.3645
5.6360 -1.4668 1.8527
5.7547 -0.9598 1.8560
5.8221 -0.4429 1.8575
5.8432 0.0785 1.8590
5.8177 0.6000 1.8606
5.7457 1.1177 1.8621
5.6276 1.6273 1.8636
5.4643 2.1246 1.8651
1.0358 0.5134 0.3678
0.9868 0.6043 0.3681
0.9297 0.6906 0.3684
0.8651 0.7714 0.3687
0.7934 0.8461 0.3690
0.7152 0.9142 0.3692
0.6312 0.9750 0.3695
0.5420 1.0279 0.3697
0.4483 1.0727 0.3699
0.3509 1.1088 0.3700
0.2506 1.1361 0.3701
0.1483 1.1541 0.3702
0.0447 1.1629 0.3702
-0.0592 1.1623 0.3702
-0.1627 1.1523 0.3702
-0.2648 1.1330 0.3702
-0.3648 1.1046 0.3701
-0.4617 1.0673 0.3699
-0.5549 1.0214 0.3698
-0.6435 0.9673 0.3696
-0.7268 0.9055 0.3694
-0.8042 0.8365 0.3691
-0.8750 0.7609 0.3689
-0.9387 0.6792 0.3686
-0.9947 0.5923 0.3683
-1.0427 0.5007 0.3680
-1.0822 0.4053 0.3676
-5.1884 1.4304 1.7121
-5.2911 0.9610 1.7108
-5.3514 0.4846 1.7094
-5.3689 0.0052 1.7080
-5.3435 -0.4735 1.7066
-5.2757 -0.9477 1.7052
-5.1659 -1.4135 1.7038
-1.0744 -0.4000 0.3647
-1.0335 -0.4939 0.3644
-0.9844 -0.5836 0.3641
-0.9276 -0.6685 0.3637
-0.8636 -0.7480 0.3634
-0.7928 -0.8215 0.3632
-0.7158 -0.8883 0.3629
-0.6333 -0.9481 0.3627
-0.5459 -1.0002 0.3625
-0.4542 -1.0445 0.3623
-0.3591 -1.0804 0.3622
-0.2612 -1.1078 0.3621
-0.1612 -1.1265 0.3620
-0.0601 -1.1362 0.3620
0.0415 -1.1370 0.3619
0.1428 -1.1288 0.3620
0.2430 -1.1117 0.3620
0.3413 -1.0858 0.3621
0.4370 -1.0514 0.3622
0.5293 -1.0086 0.3623
0.6174 -0.9578 0.3625
0.7008 -0.8994 0.3627
0.7788 -0.8338 0.3629
0.8507 -0.7615 0.3632
0.9159 -0.6831 0.3635
0.9740 -0.5991 0.3638
1.0244 -0.5102 0.3641
1.0669 -0.4172 0.3644
5.5878 -1.6274 1.8515
5.7224 -1.1246 1.8552
5.8055 -0.6101 1.8570
5.8415 -0.0897 1.8585
5.8310 0.4323 1.8601
5.7739 0.9516 1.8616
5.6706 1.4642 1.8631
5.5218 1.9659 1.8646
1.0498 0.4832 0.3677
1.0034 0.5755 0.3680
0.9489 0.6633 0.3683
0.8867 0.7460 0.3686
0.8172 0.8228 0.3689
0.7411 0.8930 0.3692
0.6588 0.9562 0.3694
0.5712 1.0118 0.3696
0.4789 1.0592 0.3698
0.3826 1.0982 0.3700
0.2832 1.1283 0.3701
0.1814 1.1493 0.3702
0.0782 1.1611 0.3702
-0.0257 1.1635 0.3702
-0.1295 1.1565 0.3702
-0.2321 1.1402 0.3702
-0.3328 1.1147 0.3701
-0.4309 1.0803 0.3700
-0.5253 1.0371 0.3698
-0.6155 0.9856 0.3697
-0.7006 0.9263 0.3695
-0.7799 0.8595 0.3692
-0.8529 0.7859 0.3690
-0.9190 0.7062 0.3687
-0.9775 0.6208 0.3684
-1.0281 0.5307 0.3681
-1.0704 0.4364 0.3677
-1.1040 0.3389 0.3674
-5.2626 1.1132 1.7112
-5.3367 0.6386 1.7098
-5.3680 0.1598 1.7084
-5.3564 -0.3196 1.7070
-5.3021 -0.7956 1.7056
-5.2058 -1.2645 1.7042
-5.0661 -1.7219 1.7022
-1.0476 -0.4640 0.3645
-1.0011 -0.5552 0.3642
-0.9467 -0.6417 0.3638
-0.8850 -0.7230 0.3635
-0.8163 -0.7985 0.3633
-0.7412 -0.8675 0.3630
-0.6605 -0.9296 0.3628
-0.5745 -0.9843 0.3626
-0.4842 -1.0311 0.3624
-0.3901 -1.0698 0.3622
-0.2930 -1.0999 0.3621
-0.1936 -1.1214 0.3620
-0.0928 -1.1340 0.3620
0.0088 -1.1377 0.3619
0.1103 -1.1324 0.3619
0.2109 -1.1182 0.3620
0.3099 -1.0951 0.3621
0.4065 -1.0634 0.3622
0.4999 -1.0233 0.3623
0.5895 -0.9750 0.3625
0.6745 -0.9190 0.3627
0.7543 -0.8557 0.3629
0.8282 -0.7855 0.3631
0.8956 -0.7090 0.3634
0.9561 -0.6267 0.3637
1.0090 -0.5394 0.3640
1.0541 -0.4476 0.3643
1.0908 -0.3521 0.3646
5.6839 -1.2880 1.8540
5.7840 -0.7767 1.8565
5.8350 -0.2577 1.8580
5.8395 0.2642 1.8596
5.7974 0.7848 1.8611
5.7089 1.3000 1.8626
5.5746 1.8057 1.8641
1.0630 0.4527 0.3675
1.0193 0.5462 0.3679
0.9674 0.6356 0.3682
0.9075 0.7200 0.3685
0.8403 0.7987 0.3688
0.7663 0.8711 0.3691
0.6860 0.9367 0.3693
0.6000 0.9947 0.3696
0.5091 1.0448 0.3697
0.4140 1.0866 0.3699
0.3155 1.1196 0.3700
0.2144 1.1436 0.3701
0.1116 1.1583 0.3702
0.0078 1.1638 0.3702
-0.0961 1.1598 0.3702
-0.1992 1.1465 0.3702
-0.3007 1.1239 0.3701
-0.3996 1.0923 0.3700
-0.4953 1.0519 0.3699
-0.5870 1.0031 0.3697
-0.6738 0.9462 0.3695
-0.7550 0.8818 0.3693
-0.8302 0.8103 0.3691
-0.8985 0.7325 0.3688
-0.9595 0.6489 0.3685
-1.0127 0.5602 0.3682
-1.0577 0.4672 0.3678
-1.0942 0.3706 0.3675
-5.2298 1.2645 1.7116
-5.3175 0.7922 1.7103
-5.3626 0.3143 1.7089
-5.3648 -0.1653 1.7075
-5.3242 -0.6429 1.7061
-5.2414 -1.1145 1.7047
-5.1169 -1.5764 1.7033
-1.0608 -0.4338 0.3646
-1.0169 -0.5263 0.3643
-0.9651 -0.6144 0.3639
-0.9056 -0.6974 0.3636
-0.8391 -0.7749 0.3633
-0.7661 -0.8460 0.3631
-0.6871 -0.9104 0.3628
-0.6027 -0.9675 0.3626
-0.5137 -1.0169 0.3624
-0.4208 -1.0582 0.3623
-0.3245 -1.0911 0.3621
-0.2258 -1.1155 0.3620
-0.1254 -1.1309 0.3620
-0.0240 -1.1375 0.3619
0.0776 -1.1351 0.3619
0.1786 -1.1237 0.3620
0.2782 -1.1035 0.3620
0.3757 -1.0745 0.3621
0.4702 -1.0371 0.3622
0.5611 -0.9914 0.3624
0.6477 -0.9379 0.3626
0.7292 -0.8768 0.3628
0.8051 -0.8088 0.3630
0.8746 -0.7343 0.3633
0.9374 -0.6538 0.3636
0.9928 -0.5680 0.3639
1.0405 -0.4776 0.3642
1.0799 -0.3832 0.3645
5.6407 -1.4501 1.8528
5.7577 -0.9426 1.8560
5.8236 -0.4254 1.8576
5.8431 0.0960 1.8591
5.8160 0.6175 1.8606
5.7425 1.1349 1.8621
5.6228 1.6441 1.8636
5.4580 2.1409 1.8651
1.0343 0.5165 0.3678
0.9850 0.6073 0.3681
0.9276 0.6934 0.3684
0.8628 0.7740 0.3687
0.7909 0.8485 0.3690
0.7125 0.9163 0.3693
0.6283 0.9769 0.3695
0.5389 1.0296 0.3697
0.4451 1.0741 0.3699
0.3476 1.1099 0.3700
0.2472 1.1368 0.3701
0.1448 1.1546 0.3702
0.0413 1.1630 0.3702
-0.0627 1.1621 0.3702
-0.1661 1.1518 0.3702
-0.2682 1.1322 0.3701
-0.3681 1.1035 0.3701
-0.4649 1.0659 0.3699
-0.5579 1.0197 0.3698
-0.6464 0.9654 0.3696
-0.7295 0.9033 0.3694
-0.2844 1.1028 0.3700
-0.3816 1.0727 0.3699
-0.4756 1.0340 0.3698
-0.5657 0.9871 0.3697
-0.6512 0.9322 0.3695
-0.7314 0.8698 0.3693
-0.8056 0.8006 0.3690
-0.8732 0.7250 0.3688
-0.9336 0.6437 0.3685
-0.9865 0.5573 0.3682
-1.0314 0.4667 0.3678
-1.0680 0.3725 0.3675
-1.0959 0.2754 0.3672
-5.1993 0.8223 1.7103
-5.2477 0.3548 1.7090
-5.2542 -0.1148 1.7076
-5.2188 -0.5827 1.7062
-5.1419 -1.0452 1.7049
-1.0765 -0.3211 0.3650
-1.0426 -0.4155 0.3647
-1.0004 -0.5064 0.3643
-0.9504 -0.5931 0.3640
-0.8930 -0.6750 0.3637
-0.8285 -0.7514 0.3634
-0.7576 -0.8218 0.3632
-0.6808 -0.8855 0.3629
-0.5988 -0.9422 0.3627
-0.5120 -0.9913 0.3625
-0.4214 -1.0326 0.3624
-0.3274 -1.0657 0.3622
-0.2310 -1.0904 0.3621
-0.1327 -1.1064 0.3621
-0.0335 -1.1137 0.3620
0.0661 -1.1122 0.3620
0.1650 -1.1020 0.3621
0.2628 -1.0830 0.3621
0.3584 -1.0555 0.3622
0.4513 -1.0197 0.3623
0.5407 -0.9757 0.3625
0.6260 -0.9240 0.3626
0.7063 -0.8650 0.3628
0.7812 -0.7990 0.3631
0.8499 -0.7266 0.3633
0.9121 -0.6484 0.3636
0.9671 -0.5649 0.3639
1.0145 -0.4767 0.3642
1.0539 -0.3846 0.3645
1.0850 -0.2893 0.3649
5.6286 -0.9734 1.8560
5.6975 -0.4677 1.8574
5.7211 0.0426 1.8589
5.6991 0.5534 1.8604
5.6315 1.0605 1.8619
5.5188 1.5600 1.8634
1.0562 0.4034 0.3674
1.0170 0.4965 0.3677
0.9695 0.5858 0.3680
0.9141 0.6705 0.3683
0.8513 0.7500 0.3686
0.7816 0.8236 0.3689
0.7054 0.8907 0.3692
0.6235 0.9506 0.3694
0.5365 1.0030 0.3696
0.4451 1.0474 0.3698
0.3500 1.0833 0.3699
0.2520 1.1105 0.3700
0.1519 1.1288 0.3701
0.0506 1.1380 0.3701
-0.0512 1.1380 0.3701
-0.1525 1.1289 0.3701
-0.2526 1.1106 0.3701
-0.3506 1.0834 0.3700
-0.4457 1.0474 0.3699
-0.5372 1.0031 0.3697
-0.6242 0.9507 0.3695
-0.7062 0.8907 0.3693
-0.7824 0.8236 0.3691
-0.8521 0.7500 0.3688
-0.9150 0.6705 0.3686
-0.9703 0.5857 0.3683
-1.0179 0.4963 0.3679
-1.0571 0.4032 0.3676
-1.0879 0.3069 0.3673
-5.1748 0.9719 1.7108
-5.2367 0.5058 1.7094
-5.2567 0.0365 1.7081
-5.2348 -0.4323 1.7067
-5.1712 -0.8970 1.7053
-1.0856 -0.2901 0.3651
-1.0544 -0.3854 0.3648
-1.0149 -0.4775 0.3644
-0.9674 -0.5657 0.3641
-0.9123 -0.6492 0.3638
-0.8500 -0.7274 0.3635
-0.7811 -0.7998 0.3632
-0.7062 -0.8657 0.3630
-0.6257 -0.9247 0.3628
-0.5404 -0.9763 0.3626
-0.4510 -1.0202 0.3624
-0.3580 -1.0559 0.3623
-0.2623 -1.0834 0.3622
-0.1645 -1.1022 0.3621
-0.0655 -1.1123 0.3620
0.0340 -1.1137 0.3620
0.1333 -1.1063 0.3620
0.2315 -1.0901 0.3621
0.3279 -1.0653 0.3622
0.4218 -1.0321 0.3623
0.5124 -0.9907 0.3624
0.5990 -0.9415 0.3626
0.6810 -0.8848 0.3628
0.7577 -0.8210 0.3630
0.8285 -0.7506 0.3632
0.8928 -0.6742 0.3635
0.9502 -0.5923 0.3638
1.0001 -0.5056 0.3641
1.0421 -0.4147 0.3644
1.0759 -0.3204 0.3648
5.5959 -1.1345 1.8552
5.6802 -0.6313 1.8570
5.7184 -0.1220 1.8585
5.7111 0.3890 1.8600
5.6582 0.8978 1.8615
5.5600 1.4002 1.8629
1.0671 0.3727 0.3673
1.0305 0.4669 0.3676
0.9856 0.5575 0.3679
0.9328 0.6438 0.3682
0.8723 0.7250 0.3685
0.8048 0.8006 0.3688
0.7306 0.8698 0.3691
0.6505 0.9321 0.3693
0.5651 0.9870 0.3695
0.4750 1.0340 0.3697
0.3810 1.0727 0.3699
0.2838 1.1027 0.3700
0.1843 1.1239 0.3701
0.0833 1.1361 0.3701
-0.0184 1.1390 0.3701
-0.1199 1.1328 0.3701
-0.2205 1.1175 0.3701
-0.3193 1.0931 0.3700
-0.4154 1.0599 0.3699
-0.5082 1.0183 0.3698
-0.5967 0.9684 0.3696
-0.6804 0.9108 0.3694
-0.7585 0.8460 0.3692
-0.8304 0.7744 0.3689
-0.8955 0.6967 0.3687
-0.9533 0.6135 0.3684
-1.0034 0.5256 0.3680
-1.0454 0.4335 0.3677
-1.0789 0.3382 0.3674
-1.1037 0.2404 0.3670
-5.2213 0.6565 1.7099
-5.2549 0.1879 1.7085
-5.2464 -0.2816 1.7071
-5.1962 -0.7480 1.7057
-5.1046 -1.2077 1.7044
-1.0654 -0.3550 0.3649
-1.0285 -0.4483 0.3645
-0.9835 -0.5378 0.3642
-0.9308 -0.6228 0.3639
-0.8708 -0.7028 0.3636
-0.8040 -0.7772 0.3633
-0.7310 -0.8452 0.3631
-0.6522 -0.9065 0.3629
-0.5684 -0.9605 0.3626
-0.4802 -1.0069 0.3625
-0.3883 -1.0453 0.3623
-0.2934 -1.0755 0.3622
-0.1962 -1.0971 0.3621
-0.0975 -1.1100 0.3621
0.0019 -1.1142 0.3620
0.1014 -1.1096 0.3620
0.2000 -1.0962 0.3621
0.2971 -1.0742 0.3621
0.3918 -1.0437 0.3622
0.4836 -1.0050 0.3624
0.5716 -0.9582 0.3625
0.6551 -0.9039 0.3627
0.7336 -0.8423 0.3629
0.8063 -0.7740 0.3632
0.8728 -0.6994 0.3634
0.9325 -0.6192 0.3637
0.9848 -0.5340 0.3640
1.0294 -0.4444 0.3643
1.0660 -0.3511 0.3647
1.0941 -0.2548 0.3650
5.6582 -0.7943 1.8565
5.7111 -0.2865 1.8580
5.7185 0.2244 1.8595
5.6802 0.7344 1.8610
5.5965 1.2393 1.8625
5.4679 1.7351 1.8639
1.0432 0.4369 0.3675
1.0010 0.5287 0.3678
0.9507 0.6165 0.3681
0.8926 0.6994 0.3685
0.8273 0.7769 0.3687
0.7552 0.8482 0.3690
0.6769 0.9128 0.3692
0.5931 0.9701 0.3695
0.5044 1.0197 0.3697
0.4116 1.0611 0.3698
0.3154 1.0940 0.3699
0.2166 1.1181 0.3700
0.1160 1.1332 0.3701
0.0144 1.1391 0.3701
-0.0873 1.1358 0.3701
-0.1883 1.1234 0.3701
-0.2877 1.1019 0.3700
-0.3848 1.0716 0.3699
-0.4787 1.0326 0.3698
-0.5687 0.9853 0.3697
-0.6540 0.9302 0.3695
-0.7340 0.8676 0.3692
-0.8079 0.7981 0.3690
-0.8753 0.7224 0.3687
-0.9355 0.6409 0.3685
-0.9882 0.5544 0.3682
-1.0328 0.4636 0.3678
-1.0691 0.3692 0.3675
-1.0967 0.2721 0.3671
-5.2016 0.8067 1.7103
-5.2486 0.3391 1.7089
-5.2537 -0.1305 1.7076
-5.2169 -0.5983 1.7062
-5.1386 -1.0605 1.7048
-1.0755 -0.3243 0.3650
-1.0413 -0.4186 0.3647
-0.9989 -0.5094 0.3643
-0.9486 -0.5960 0.3640
-0.8909 -0.6777 0.3637
-0.8263 -0.7539 0.3634
-0.7552 -0.8240 0.3632
-0.6782 -0.8875 0.3629
-0.5959 -0.9439 0.3627
-0.5091 -0.9928 0.3625
-0.4183 -1.0338 0.3624
-0.3242 -1.0667 0.3622
-0.2277 -1.0910 0.3621
-0.1294 -1.1068 0.3621
-0.0301 -1.1138 0.3620
0.0694 -1.1120 0.3620
0.1683 -1.1015 0.3621
0.2660 -1.0823 0.3621
0.3616 -1.0545 0.3622
0.4544 -1.0183 0.3623
0.5437 -0.9741 0.3625
0.6287 -0.9222 0.3626
0.7089 -0.8629 0.3628
0.7836 -0.7967 0.3631
0.8521 -0.7241 0.3633
0.9140 -0.6457 0.3636
0.9688 -0.5620 0.3639
1.0159 -0.4737 0.3642
1.0551 -0.3815 0.3645
1.0859 -0.2861 0.3649
5.6316 -0.9566 1.8560
5.6990 -0.4506 1.8575
5.7211 0.0597 1.8590
5.6975 0.5704 1.8605
5.6284 1.0774 1.8620
5.5142 1.5766 1.8635
1.0551 0.4066 0.3674
1.0155 0.4996 0.3677
0.9677 0.5887 0.3680
0.9121 0.6733 0.3684
0.8491 0.7526 0.3687
0.7791 0.8260 0.3689
0.7028 0.8928 0.3692
0.6207 0.9525 0.3694
0.5335 1.0046 0.3696
0.4419 1.0487 0.3698
0.3467 1.0844 0.3699
0.2487 1.1113 0.3700
0.1485 1.1293 0.3701
0.0472 1.1382 0.3701
-0.0546 1.1379 0.3701
-0.1559 1.1284 0.3701
-0.2559 1.1098 0.3701
-0.3538 1.0823 0.3700
-0.4488 1.0461 0.3699
-0.5402 1.0015 0.3697
-0.6271 0.9488 0.3695
-0.7088 0.8886 0.3693
-0.7848 0.8212 0.3691
-0.8543 0.7474 0.3688
-0.9169 0.6677 0.3686
-0.9721 0.5827 0.3683
-1.0193 0.4933 0.3679
-1.0583 0.4000 0.3676
-1.0887 0.3037 0.3673
-5.1775 0.9564 1.7107
-5.2380 0.4902 1.7094
-5.2567 0.0208 1.7080
-5.2333 -0.4480 1.7066
-5.1683 -0.9124 1.7053
-1.0847 -0.2933 0.3651
-1.0532 -0.3886 0.3648
-1.0134 -0.4806 0.3644
-0.9656 -0.5686 0.3641
-0.9103 -0.6519 0.3638
-0.8478 -0.7300 0.3635
-0.7787 -0.8021 0.3632
-0.7036 -0.8678 0.3630
-0.6230 -0.9266 0.3628
-0.5375 -0.9779 0.3626
-0.4479 -1.0215 0.3624
-0.3548 -1.0570 0.3623
-0.2590 -1.0841 0.3622
-0.1612 -1.1027 0.3621
-0.0622 -1.1125 0.3620
0.0373 -1.1136 0.3620
0.1366 -1.1059 0.3620
0.2347 -1.0894 0.3621
0.3311 -1.0643 0.3622
0.4248 -1.0309 0.3623
0.5153 -0.9892 0.3624
0.6018 -0.9397 0.3626
0.6836 -0.8828 0.3628
0.7602 -0.8187 0.3630
0.8307 -0.7481 0.3632
0.8948 -0.6715 0.3635
0.9520 -0.5895 0.3638
1.0016 -0.5026 0.3641
1.0434 -0.4116 0.3644
1.0769 -0.3171 0.3648
5.5996 -1.1179 1.8553
5.6822 -0.6143 1.8570
5.7189 -0.1049 1.8585
5.7101 0.4061 1.8600
5.6556 0.9147 1.8615
5.5559 1.4169 1.8630
1.0660 0.3759 0.3673
1.0292 0.4700 0.3676
0.9840 0.5605 0.3679
0.9309 0.6466 0.3683
0.8702 0.7276 0.3686
0.8024 0.8030 0.3688
0.7280 0.8720 0.3691
0.6477 0.9341 0.3693
0.5621 0.9887 0.3695
0.4719 1.0354 0.3697
0.3778 1.0738 0.3699
0.2805 1.1036 0.3700
0.1810 1.1245 0.3701
0.0799 1.1363 0.3701
-0.0218 1.1390 0.3701
-0.1233 1.1325 0.3701
-0.2239 1.1168 0.3701
-0.3226 1.0921 0.3700
-0.4186 1.0587 0.3699
-0.5112 1.0167 0.3698
-0.5996 0.9666 0.3696
-0.6831 0.9088 0.3694
-0.7610 0.8437 0.3692
-0.8327 0.7719 0.3689
-0.8976 0.6940 0.3686
-0.9551 0.6106 0.3683
-1.0050 0.5225 0.3680
-1.0467 0.4304 0.3677
-1.0799 0.3350 0.3674
-1.1044 0.2371 0.3670
-5.2231 0.6409 1.7098
-5.2552 0.1721 1.7085
-5.2454 -0.2972 1.7071
-5.1938 -0.7635 1.7057
-5.1009 -1.2229 1.7043
-1.0643 -0.3582 0.3649
-1.0271 -0.4513 0.3645
-0.9819 -0.5407 0.3642
-0.9289 -0.6256 0.3639
-0.8687 -0.7054 0.3636
-0.8017 -0.7795 0.3633
-0.7284 -0.8474 0.3631
-0.6495 -0.9084 0.3628
-0.5655 -0.9622 0.3626
-0.4772 -1.0083 0.3625
-0.3851 -1.0465 0.3623
-0.2901 -1.0763 0.3622
-0.1929 -1.0976 0.3621
-0.0942 -1.1103 0.3621
0.0053 -1.1142 0.3620
0.1047 -1.1093 0.3620
0.2033 -1.0956 0.3621
0.3003 -1.0733 0.3621
0.3950 -1.0426 0.3622
0.4866 -1.0035 0.3624
0.5744 -0.9565 0.3625
0.6578 -0.9019 0.3627
0.7361 -0.8401 0.3629
0.8087 -0.7716 0.3632
0.8749 -0.6968 0.3634
0.9343 -0.6165 0.3637
0.9864 -0.5311 0.3640
1.0308 -0.4413 0.3643
1.0670 -0.3479 0.3647
1.0949 -0.2515 0.3650
5.6607 -0.7774 1.8565
5.7121 -0.2694 1.8580
5.7179 0.2415 1.8595
5.6782 0.7514 1.8610
5.5929 1.2560 1.8625
5.4629 1.7515 1.8640
1.0419 0.4400 0.3675
0.9994 0.5318 0.3678
0.9488 0.6194 0.3682
0.8905 0.7021 0.3685
0.8250 0.7794 0.3688
0.7527 0.8505 0.3690
0.6742 0.9149 0.3693
0.5902 0.9719 0.3695
0.5014 1.0212 0.3697
0.4085 1.0624 0.3698
0.3121 1.0950 0.3699
0.2132 1.1187 0.3700
0.1126 1.1335 0.3701
0.0110 1.1391 0.3701
-0.0907 1.1356 0.3701
-0.1916 1.1228 0.3701
-0.2910 1.1011 0.3700
-0.3880 1.0704 0.3699
-0.4818 1.0312 0.3698
-0.5716 0.9836 0.3696
-0.6568 0.9282 0.3695
-0.7365 0.8654 0.3692
-0.8103 0.7957 0.3690
-0.8774 0.7197 0.3687
-0.9374 0.6380 0.3684
-0.9898 0.5514 0.3681
-1.0341 0.4605 0.3678
-1.0701 0.3660 0.3675
-1.0975 0.2688 0.3671
-5.2038 0.7912 1.7103
-5.2495 0.3234 1.7089
-5.2532 -0.1462 1.7075
-5.2150 -0.6138 1.7061
-5.1353 -1.0759 1.7048
-1.0745 -0.3275 0.3650
-1.0400 -0.4217 0.3646
-0.9973 -0.5124 0.3643
-0.9468 -0.5988 0.3640
-0.8889 -0.6803 0.3637
-0.8240 -0.7563 0.3634
-0.7527 -0.8262 0.3632
-0.6755 -0.8895 0.3629
-0.5931 -0.9457 0.3627
-0.5061 -0.9943 0.3625
-0.4152 -1.0351 0.3624
-0.3210 -1.0676 0.3622
-0.2244 -1.0917 0.3621
-0.1261 -1.1072 0.3621
-0.0268 -1.1139 0.3620
0.0727 -1.1118 0.3620
0.1716 -1.1010 0.3621
0.2692 -1.0815 0.3621
0.3648 -1.0534 0.3622
0.4574 -1.0170 0.3623
0.5466 -0.9725 0.3625
0.6315 -0.9203 0.3627
0.7115 -0.8608 0.3629
0.7860 -0.7944 0.3631
0.8543 -0.7216 0.3633
0.9160 -0.6429 0.3636
0.9705 -0.5591 0.3639
1.0174 -0.4707 0.3642
1.0563 -0.3784 0.3646
1.0868 -0.2829 0.3649
5.6346 -0.9398 1.8561
5.7005 -0.4336 1.8575
5.7210 0.0769 1.8590
5.6960 0.5875 1.8605
5.6253 1.0943 1.8620
5.5096 1.5931 1.8635
1.0539 0.4098 0.3674
1.0140 0.5026 0.3677
0.9660 0.5916 0.3681
0.9101 0.6760 0.3684
0.8468 0.7551 0.3687
0.7767 0.8283 0.3689
0.7001 0.8949 0.3692
0.6178 0.9544 0.3694
0.5305 1.0062 0.3696
0.4388 1.0500 0.3698
0.3435 1.0854 0.3699
0.2453 1.1120 0.3700
0.1452 1.1297 0.3701
0.0438 1.1383 0.3701
-0.0580 1.1377 0.3701
-0.1592 1.1279 0.3701
-0.2592 1.1090 0.3701
-0.3571 1.0812 0.3700
-0.4520 1.0447 0.3699
-0.5432 0.9998 0.3697
-0.6299 0.9469 0.3695
-0.7115 0.8864 0.3693
-0.7872 0.8189 0.3691
-0.8566 0.7448 0.3688
-0.9189 0.6649 0.3685
-0.9738 0.5798 0.3682
-1.0207 0.4902 0.3679
-1.0595 0.3968 0.3676
-1.0896 0.3004 0.3672
-5.1802 0.9408 1.7107
-5.2393 0.4745 1.7093
-5.2566 0.0051 1.7080
-5.2318 -0.4636 1.7066
-5.1654 -0.9279 1.7052
-1.0838 -0.2966 0.3651
-1.0520 -0.3917 0.3648
-1.0120 -0.4836 0.3644
-0.9639 -0.5714 0.3641
-0.9083 -0.6546 0.3638
-0.8456 -0.7325 0.3635
-0.7763 -0.8044 0.3632
-0.7010 -0.8699 0.3630
-0.6202 -0.9284 0.3628
-0.5346 -0.9795 0.3626
-0.4448 -1.0228 0.3624
-0.3517 -1.0580 0.3623
-0.2558 -1.0849 0.3622
-0.1579 -1.1031 0.3621
-0.0588 -1.1127 0.3620
0.0407 -1.1135 0.3620
0.1399 -1.1054 0.3620
0.2380 -1.0887 0.3621
0.3343 -1.0634 0.3622
0.4279 -1.0296 0.3623
0.5183 -0.9877 0.3624
0.6046 -0.9379 0.3626
0.6863 -0.8807 0.3628
0.7626 -0.8165 0.3630
0.8330 -0.7457 0.3633
0.8969 -0.6689 0.3635
0.9537 -0.5866 0.3638
1.0031 -0.4996 0.3641
1.0446 -0.4085 0.3644
1.0779 -0.3139 0.3648
5.6033 -1.1012 1.8555
5.6842 -0.5974 1.8571
5.7194 -0.0878 1.8586
5.7090 0.4232 1.8601
5.6530 0.9317 1.8616
5.5518 1.4335 1.8630
1.0649 0.3791 0.3673
1.0278 0.4731 0.3676
0.9823 0.5634 0.3680
0.9290 0.6494 0.3683
0.8680 0.7303 0.3686
0.8000 0.8054 0.3688
0.7254 0.8742 0.3691
0.6449 0.9360 0.3693
0.5592 0.9904 0.3695
0.4688 1.0368 0.3697
0.3745 1.0750 0.3699
0.2772 1.1044 0.3700
0.1776 1.1250 0.3701
0.0765 1.1366 0.3701
-0.0252 1.1389 0.3701
-0.1267 1.1321 0.3701
-0.2272 1.1161 0.3701
-0.3258 1.0912 0.3700
-0.4218 1.0574 0.3699
-0.5142 1.0152 0.3698
-0.6025 0.9648 0.3696
-0.6858 0.9067 0.3694
-0.7635 0.8414 0.3692
-0.8350 0.7694 0.3689
-0.8996 0.6913 0.3686
-0.9569 0.6078 0.3683
-1.0065 0.5195 0.3680
-1.0479 0.4273 0.3677
-1.0809 0.3317 0.3674
-1.1051 0.2337 0.3670
-5.2249 0.6252 1.7098
-5.2556 0.1564 1.7084
-5.2444 -0.3129 1.7070
-5.1913 -0.7790 1.7057
-5.0971 -1.2381 1.7043
-1.0632 -0.3614 0.3649
-1.0258 -0.4544 0.3645
-0.9802 -0.5436 0.3642
-0.9270 -0.6284 0.3639
-0.8666 -0.7080 0.3636
-0.7993 -0.7819 0.3633
-0.7259 -0.8495 0.3631
-0.6468 -0.9103 0.3628
-0.5626 -0.9639 0.3626
-0.4742 -1.0098 0.3625
-0.3820 -1.0476 0.3623
-0.2869 -1.0772 0.3622
-0.1896 -1.0982 0.3621
-0.0908 -1.1106 0.3620
0.0086 -1.1142 0.3620
0.1080 -1.1090 0.3620
0.2065 -1.0950 0.3621
0.3035 -1.0724 0.3621
0.3981 -1.0414 0.3622
0.4896 -1.0021 0.3624
0.5773 -0.9548 0.3625
0.6605 -0.9000 0.3627
0.7387 -0.8379 0.3629
0.8110 -0.7692 0.3632
0.8770 -0.6942 0.3634
0.9362 -0.6137 0.3637
0.9881 -0.5281 0.3640
1.0321 -0.4383 0.3643
1.0681 -0.3447 0.3647
1.0956 -0.2483 0.3650
5.6632 -0.7605 1.8566
5.7130 -0.2524 1.8581
5.7173 0.2586 1.8596
5.6760 0.7684 1.8611
5.5893 1.2728 1.8626
5.4577 1.7679 1.8640
1.0407 0.4432 0.3675
0.9979 0.5348 0.3678
0.9470 0.6222 0.3682
0.8884 0.7048 0.3685
0.8226 0.7819 0.3688
0.7501 0.8528 0.3690
0.6715 0.9169 0.3693
0.5873 0.9737 0.3695
0.4984 1.0228 0.3697
0.4053 1.0636 0.3698
0.3089 1.0959 0.3700
0.2099 1.1194 0.3700
0.1092 1.1338 0.3701
0.0076 1.1392 0.3701
-0.0941 1.1353 0.3701
-0.1950 1.1222 0.3701
-0.2943 1.1002 0.3700
-0.3912 1.0692 0.3699
-0.4849 1.0297 0.3698
-0.5746 0.9819 0.3696
-0.6595 0.9262 0.3695
-0.7391 0.8632 0.3692
-0.8127 0.7933 0.3690
-0.8796 0.7171 0.3687
-0.9393 0.6352 0.3684
-0.9914 0.5484 0.3681
-1.0355 0.4574 0.3678
-1.0712 0.3628 0.3675
-1.0982 0.2655 0.3671
-5.2060 0.7756 1.7102
-5.2503 0.3077 1.7088
-5.2525 -0.1619 1.7075
-5.2129 -0.6294 1.7061
-5.1319 -1.0912 1.7047
-1.0735 -0.3307 0.3650
-1.0387 -0.4248 0.3646
-0.9958 -0.5153 0.3643
-0.9450 -0.6016 0.3640
-0.8868 -0.6829 0.3637
-0.8217 -0.7588 0.3634
-0.7502 -0.8285 0.3631
-0.6728 -0.8915 0.3629
-0.5902 -0.9475 0.3627
-0.5031 -0.9958 0.3625
-0.4121 -1.0363 0.3624
-0.3178 -1.0686 0.3622
-0.2212 -1.0924 0.3621
-0.1228 -1.1075 0.3621
-0.0235 -1.1140 0.3620
0.0760 -1.1116 0.3620
0.1749 -1.1005 0.3621
0.2725 -1.0807 0.3621
0.3679 -1.0523 0.3622
0.4605 -1.0156 0.3623
0.5495 -0.9709 0.3625
0.6343 -0.9184 0.3627
0.7141 -0.8587 0.3629
0.7884 -0.7920 0.3631
0.8565 -0.7190 0.3634
0.9179 -0.6402 0.3636
0.9722 -0.5562 0.3639
1.0188 -0.4676 0.3642
1.0574 -0.3752 0.3646
1.0877 -0.2796 0.3649
5.6375 -0.9230 1.8561
5.7019 -0.4166 1.8576
5.7209 0.0940 1.8591
5.6943 0.6045 1.8606
5.6222 1.1111 1.8621
5.5050 1.6096 1.8636
1.0527 0.4129 0.3674
1.0126 0.5057 0.3677
0.9643 0.5945 0.3681
0.9081 0.6788 0.3684
0.8446 0.7577 0.3687
0.7742 0.8306 0.3689
0.6975 0.8970 0.3692
0.6150 0.9562 0.3694
0.5275 1.0078 0.3696
0.4357 1.0514 0.3698
0.3402 1.0864 0.3699
0.2420 1.1128 0.3700
0.1418 1.1302 0.3701
0.0404 1.1384 0.3701
-0.0614 1.1375 0.3701
-0.1626 1.1274 0.3701
-0.2625 1.1083 0.3701
-0.3603 1.0801 0.3700
-0.4551 1.0434 0.3698
-0.5461 0.9982 0.3697
-0.6327 0.9450 0.3695
-0.7141 0.8843 0.3693
-0.2785 1.0799 0.3700
-0.3737 1.0504 0.3699
-0.4657 1.0126 0.3697
-0.5540 0.9666 0.3696
-0.6377 0.9128 0.3694
-0.7162 0.8518 0.3692
-0.7889 0.7840 0.3690
-0.8551 0.7100 0.3687
-0.9143 0.6304 0.3684
-0.9661 0.5458 0.3681
-1.0101 0.4570 0.3678
-1.0459 0.3648 0.3675
-1.0733 0.2697 0.3671
-1.0921 0.1727 0.3668
-5.1397 0.3475 1.7089
-5.1461 -0.1124 1.7076
-5.1115 -0.5707 1.7063
-1.0793 -0.2194 0.3654
-1.0544 -0.3145 0.3650
-1.0212 -0.4070 0.3647
-0.9799 -0.4960 0.3644
-0.9310 -0.5810 0.3641
-0.8747 -0.6612 0.3638
-0.8116 -0.7361 0.3635
-0.7422 -0.8050 0.3632
-0.6669 -0.8674 0.3630
-0.5865 -0.9230 0.3628
-0.5016 -0.9711 0.3626
-0.4128 -1.0116 0.3624
-0.3207 -1.0440 0.3623
-0.2263 -1.0682 0.3622
-0.1300 -1.0839 0.3622
-0.0328 -1.0911 0.3621
0.0647 -1.0896 0.3621
0.1617 -1.0796 0.3621
0.2574 -1.0610 0.3622
0.3511 -1.0340 0.3623
0.4421 -0.9989 0.3624
0.5297 -0.9559 0.3625
0.6132 -0.9052 0.3627
0.6919 -0.8473 0.3629
0.7652 -0.7827 0.3631
0.8326 -0.7118 0.3634
0.8934 -0.6351 0.3636
0.9473 -0.5533 0.3639
0.9937 -0.4670 0.3642
1.0323 -0.3768 0.3646
1.0628 -0.2834 0.3649
1.0849 -0.1876 0.3652
5.5804 -0.4581 1.8575
5.6034 0.0417 1.8590
5.5818 0.5420 1.8604
5.5155 1.0387 1.8619
1.0646 0.3009 0.3670
1.0344 0.3951 0.3673
0.9959 0.4863 0.3677
0.9494 0.5737 0.3680
0.8952 0.6567 0.3683
0.8337 0.7345 0.3686
0.7654 0.8065 0.3689
0.6908 0.8722 0.3691
0.6106 0.9309 0.3693
0.5254 0.9822 0.3695
0.4358 1.0256 0.3697
0.3427 1.0608 0.3698
0.2467 1.0875 0.3699
0.1488 1.1054 0.3700
0.0495 1.1144 0.3700
-0.0501 1.1144 0.3701
-0.1493 1.1054 0.3700
-0.2473 1.0875 0.3700
-0.3433 1.0609 0.3699
-0.4365 1.0257 0.3698
-0.5260 0.9822 0.3696
-0.6113 0.9309 0.3695
-0.6915 0.8722 0.3693
-0.7661 0.8065 0.3690
-0.8345 0.7344 0.3688
-0.8960 0.6566 0.3685
-0.9503 0.5735 0.3682
-0.9968 0.4861 0.3679
-1.0353 0.3948 0.3676
-1.0654 0.3006 0.3672
-1.0870 0.2041 0.3669
-1.0998 0.1062 0.3665
-5.1485 0.0358 1.7080
-5.1271 -0.4234 1.7067
-1.0855 -0.1883 0.3655
-1.0634 -0.2841 0.3651
-1.0328 -0.3775 0.3648
-0.9941 -0.4678 0.3645
-0.9476 -0.5541 0.3642
-0.8936 -0.6359 0.3639
-0.8327 -0.7126 0.3636
-0.7652 -0.7835 0.3633
-0.6918 -0.8481 0.3631
-0.6130 -0.9059 0.3628
-0.5294 -0.9564 0.3627
-0.4418 -0.9994 0.3625
-0.3507 -1.0344 0.3624
-0.2569 -1.0613 0.3622
-0.1612 -1.0798 0.3622
-0.0642 -1.0897 0.3621
0.0333 -1.0910 0.3621
0.1305 -1.0837 0.3621
0.2268 -1.0679 0.3622
0.3212 -1.0436 0.3622
0.4132 -1.0111 0.3623
0.5019 -0.9706 0.3625
0.5868 -0.9223 0.3626
0.6671 -0.8667 0.3628
0.7422 -0.8042 0.3631
0.8116 -0.7353 0.3633
0.8746 -0.6604 0.3636
0.9307 -0.5802 0.3638
0.9796 -0.4952 0.3641
1.0208 -0.4062 0.3645
1.0539 -0.3138 0.3648
1.0787 -0.2187 0.3651
5.5635 -0.6183 1.8570
5.6009 -0.1195 1.8585
5.5936 0.3810 1.8599
5.5417 0.8793 1.8614
1.0725 0.2701 0.3669
1.0451 0.3650 0.3672
1.0092 0.4573 0.3676
0.9653 0.5460 0.3679
0.9135 0.6305 0.3682
0.8542 0.7100 0.3685
0.7881 0.7840 0.3688
0.7155 0.8518 0.3690
0.6370 0.9128 0.3693
0.5533 0.9665 0.3695
0.4651 1.0125 0.3696
0.3730 1.0504 0.3698
0.2779 1.0798 0.3699
0.1805 1.1006 0.3700
0.0816 1.1124 0.3700
-0.0180 1.1153 0.3701
-0.1174 1.1093 0.3700
-0.2159 1.0942 0.3700
-0.3127 1.0704 0.3699
-0.4068 1.0379 0.3698
-0.4976 0.9971 0.3697
-0.5843 0.9483 0.3695
-0.6663 0.8919 0.3693
-0.7427 0.8284 0.3691
-0.8132 0.7583 0.3689
-0.8770 0.6823 0.3686
-0.9336 0.6008 0.3683
-0.9827 0.5147 0.3680
-1.0238 0.4246 0.3677
-1.0566 0.3312 0.3674
-1.0810 0.2354 0.3670
-1.0966 0.1379 0.3667
-5.1467 0.1840 1.7085
-5.1385 -0.2758 1.7071
-1.0908 -0.1570 0.3656
-1.0714 -0.2535 0.3653
-1.0436 -0.3477 0.3649
-1.0074 -0.4391 0.3646
-0.9634 -0.5268 0.3643
-0.9118 -0.6101 0.3639
-0.8530 -0.6885 0.3637
-0.7876 -0.7613 0.3634
-0.7161 -0.8280 0.3631
-0.6389 -0.8880 0.3629
-0.5568 -0.9410 0.3627
-0.4704 -0.9864 0.3625
-0.3804 -1.0240 0.3624
-0.2874 -1.0536 0.3623
-0.1922 -1.0747 0.3622
-0.0955 -1.0874 0.3621
0.0019 -1.0915 0.3621
0.0993 -1.0870 0.3621
0.1959 -1.0739 0.3621
0.2910 -1.0524 0.3622
0.3839 -1.0225 0.3623
0.4737 -0.9845 0.3624
0.5599 -0.9387 0.3626
0.6418 -0.8854 0.3628
0.7186 -0.8251 0.3630
0.7899 -0.7582 0.3632
0.8550 -0.6852 0.3635
0.9134 -0.6066 0.3637
0.9647 -0.5231 0.3640
1.0084 -0.4353 0.3644
1.0441 -0.3439 0.3647
1.0716 -0.2496 0.3650
1.0906 -0.1531 0.3654
5.5937 -0.2806 1.8580
5.6009 0.2198 1.8595
5.5633 0.7193 1.8609
5.4812 1.2138 1.8624
1.0548 0.3347 0.3671
1.0217 0.4279 0.3675
0.9803 0.5178 0.3678
0.9310 0.6037 0.3681
0.8741 0.6850 0.3684
0.8101 0.7608 0.3687
0.7395 0.8306 0.3689
0.6629 0.8939 0.3692
0.5808 0.9500 0.3694
0.4940 0.9985 0.3696
0.4031 1.0391 0.3697
0.3089 1.0713 0.3699
0.2121 1.0948 0.3700
0.1136 1.1096 0.3700
0.0141 1.1154 0.3701
-0.0855 1.1122 0.3701
-0.1844 1.1000 0.3700
-0.2817 1.0790 0.3700
-0.3768 1.0493 0.3699
-0.4688 1.0111 0.3697
-0.5569 0.9649 0.3696
-0.6404 0.9109 0.3694
-0.7187 0.8496 0.3692
-0.7912 0.7816 0.3689
-0.8572 0.7074 0.3687
-0.9162 0.6276 0.3684
-0.9677 0.5429 0.3681
-1.0114 0.4540 0.3678
-1.0470 0.3616 0.3675
-1.0741 0.2665 0.3671
-1.0925 0.1694 0.3668
-5.1405 0.3321 1.7089
-5.1456 -0.1278 1.7076
-5.1097 -0.5860 1.7062
-1.0786 -0.2226 0.3654
-1.0534 -0.3177 0.3650
-1.0200 -0.4100 0.3647
-0.9784 -0.4989 0.3644
-0.9292 -0.5838 0.3640
-0.8727 -0.6638 0.3637
-0.8094 -0.7385 0.3635
-0.7397 -0.8072 0.3632
-0.6643 -0.8694 0.3630
-0.5838 -0.9247 0.3628
-0.4987 -0.9726 0.3626
-0.4097 -1.0128 0.3624
-0.3176 -1.0449 0.3623
-0.2231 -1.0688 0.3622
-0.1268 -1.0843 0.3621
-0.0295 -1.0912 0.3621
0.0680 -1.0894 0.3621
0.1649 -1.0791 0.3621
0.2606 -1.0602 0.3622
0.3542 -1.0330 0.3623
0.4451 -0.9976 0.3624
0.5326 -0.9543 0.3625
0.6159 -0.9034 0.3627
0.6944 -0.8453 0.3629
0.7676 -0.7804 0.3631
0.8347 -0.7093 0.3634
0.8954 -0.6325 0.3637
0.9490 -0.5505 0.3639
0.9951 -0.4640 0.3643
1.0335 -0.3737 0.3646
1.0637 -0.2802 0.3649
1.0855 -0.1844 0.3652
5.5819 -0.4414 1.8575
5.6034 0.0585 1.8590
5.5803 0.5587 1.8605
5.5125 1.0552 1.8619
1.0637 0.3041 0.3670
1.0333 0.3982 0.3674
0.9945 0.4892 0.3677
0.9477 0.5765 0.3680
0.8932 0.6593 0.3683
0.8315 0.7370 0.3686
0.7630 0.8088 0.3689
0.6882 0.8743 0.3691
0.6078 0.9327 0.3693
0.5224 0.9838 0.3695
0.4328 1.0269 0.3697
0.3395 1.0618 0.3698
0.2435 1.0882 0.3699
0.1454 1.1058 0.3700
0.0462 1.1145 0.3700
-0.0534 1.1142 0.3701
-0.1526 1.1049 0.3700
-0.2506 1.0867 0.3700
-0.3465 1.0598 0.3699
-0.4395 1.0243 0.3698
-0.5290 0.9806 0.3696
-0.6141 0.9291 0.3695
-0.6941 0.8701 0.3693
-0.7685 0.8042 0.3690
-0.8366 0.7319 0.3688
-0.8979 0.6539 0.3685
-0.9520 0.5707 0.3682
-0.9982 0.4831 0.3679
-1.0364 0.3917 0.3676
-1.0663 0.2974 0.3672
-1.0875 0.2009 0.3669
-1.1001 0.1029 0.3665
-5.1485 0.0204 1.7080
-5.1257 -0.4388 1.7066
-1.0849 -0.1915 0.3655
-1.0625 -0.2873 0.3651
-1.0316 -0.3806 0.3648
-0.9927 -0.4707 0.3645
-0.9459 -0.5569 0.3641
-0.8917 -0.6386 0.3638
-0.8305 -0.7150 0.3636
-0.7628 -0.7857 0.3633
-0.6892 -0.8501 0.3631
-0.6103 -0.9077 0.3628
-0.5266 -0.9580 0.3626
-0.4388 -1.0007 0.3625
-0.3476 -1.0355 0.3624
-0.2537 -1.0621 0.3622
-0.1579 -1.0802 0.3622
-0.0609 -1.0899 0.3621
0.0366 -1.0909 0.3621
0.1338 -1.0833 0.3621
0.2300 -1.0672 0.3622
0.3243 -1.0427 0.3622
0.4162 -1.0099 0.3624
0.5048 -0.9691 0.3625
0.5896 -0.9206 0.3627
0.6697 -0.8648 0.3628
0.7446 -0.8020 0.3631
0.8138 -0.7329 0.3633
0.8766 -0.6578 0.3636
0.9325 -0.5774 0.3639
0.9811 -0.4923 0.3642
1.0220 -0.4032 0.3645
1.0549 -0.3106 0.3648
1.0794 -0.2155 0.3651
5.5655 -0.6017 1.8571
5.6014 -0.1028 1.8585
5.5926 0.3978 1.8600
5.5392 0.8959 1.8615
1.0717 0.2733 0.3669
1.0440 0.3682 0.3672
1.0079 0.4603 0.3676
0.9637 0.5489 0.3679
0.9116 0.6332 0.3682
0.8521 0.7126 0.3685
0.7857 0.7864 0.3688
0.7129 0.8539 0.3690
0.6343 0.9147 0.3693
0.5504 0.9682 0.3695
0.4621 1.0139 0.3696
0.3699 1.0515 0.3698
0.2747 1.0807 0.3699
0.1772 1.1011 0.3700
0.0783 1.1127 0.3700
-0.0213 1.1153 0.3701
-0.1208 1.1089 0.3700
-0.2192 1.0936 0.3700
-0.3158 1.0694 0.3699
-0.4099 1.0367 0.3698
-0.5006 0.9956 0.3697
-0.5872 0.9465 0.3695
-0.6689 0.8899 0.3693
-0.7452 0.8262 0.3691
-0.8154 0.7559 0.3689
-0.8790 0.6796 0.3686
-0.9354 0.5980 0.3683
-0.9842 0.5117 0.3680
-1.0250 0.4215 0.3677
-1.0576 0.3281 0.3673
-1.0816 0.2322 0.3670
-1.0970 0.1346 0.3667
-5.1471 0.1686 1.7084
-5.1375 -0.2911 1.7071
-1.0903 -0.1603 0.3656
-1.0706 -0.2567 0.3652
-1.0425 -0.3509 0.3649
-1.0061 -0.4421 0.3646
-0.9618 -0.5296 0.3642
-0.9099 -0.6128 0.3639
-0.8509 -0.6910 0.3636
-0.7853 -0.7636 0.3634
-0.7136 -0.8301 0.3631
-0.6362 -0.8899 0.3629
-0.5540 -0.9426 0.3627
-0.4675 -0.9878 0.3625
-0.3773 -1.0252 0.3624
-0.2842 -1.0544 0.3623
-0.1890 -1.0753 0.3622
-0.0923 -1.0877 0.3621
0.0052 -1.0915 0.3621
0.1025 -1.0867 0.3621
0.1991 -1.0733 0.3622
0.2942 -1.0515 0.3622
0.3869 -1.0213 0.3623
0.4767 -0.9831 0.3624
0.5627 -0.9370 0.3626
0.6444 -0.8835 0.3628
0.7211 -0.8230 0.3630
0.7922 -0.7558 0.3632
0.8571 -0.6826 0.3635
0.9152 -0.6039 0.3638
0.9663 -0.5202 0.3641
1.0097 -0.4323 0.3644
1.0452 -0.3408 0.3647
1.0724 -0.2464 0.3650
1.0911 -0.1499 0.3654
5.5947 -0.2639 1.8581
5.6003 0.2366 1.8595
5.5613 0.7359 1.8610
5.4777 1.2302 1.8625
1.0538 0.3379 0.3671
1.0204 0.4310 0.3675
0.9788 0.5208 0.3678
0.9292 0.6065 0.3681
0.8721 0.6876 0.3684
0.8079 0.7632 0.3687
0.7371 0.8329 0.3690
0.6602 0.8959 0.3692
0.5780 0.9518 0.3694
0.4910 1.0000 0.3696
0.4000 1.0403 0.3697
0.3057 1.0722 0.3699
0.2088 1.0955 0.3700
0.1103 1.1099 0.3700
0.0108 1.1154 0.3701
-0.0888 1.1119 0.3701
-0.1876 1.0995 0.3700
-0.2850 1.0782 0.3700
-0.3799 1.0482 0.3699
-0.4718 1.0097 0.3697
-0.5597 0.9632 0.3696
-0.6431 0.9090 0.3694
-0.7213 0.8474 0.3692
-0.7935 0.7792 0.3689
-0.8592 0.7048 0.3687
-0.9180 0.6248 0.3684
-0.9693 0.5400 0.3681
-1.0128 0.4510 0.3678
-1.0480 0.3585 0.3675
-1.0748 0.2633 0.3671
-1.0930 0.1662 0.3668
-5.1414 0.3167 1.7089
-5.1451 -0.1432 1.7075
-5.1077 -0.6012 1.7062
-1.0779 -0.2258 0.3654
-1.0525 -0.3208 0.3650
-1.0187 -0.4131 0.3647
-0.9769 -0.5019 0.3643
-0.9274 -0.5865 0.3640
-0.8707 -0.6664 0.3637
-0.8072 -0.7409 0.3635
-0.7373 -0.8094 0.3632
-0.6617 -0.8714 0.3630
-0.5810 -0.9264 0.3628
-0.4958 -0.9741 0.3626
-0.4067 -1.0140 0.3624
-0.3145 -1.0459 0.3623
-0.2199 -1.0695 0.3622
-0.1235 -1.0846 0.3621
-0.0263 -1.0912 0.3621
