ply
format ascii 1.0
element vertex 2176
property float32 x
property float32 y
property float32 z
end_header
1.0930 1.7997 0.3936
0.9316 1.8972 0.3951
0.7611 1.9790 0.3963
0.5831 2.0441 0.3973
0.3992 2.0918 0.3981
0.2113 2.1214 0.3985
0.0212 2.1327 0.3987
-0.1690 2.1255 0.3986
-0.3575 2.0998 0.3982
-0.5425 2.0560 0.3975
-0.7219 1.9947 0.3965
-0.8942 1.9165 0.3953
-1.0577 1.8224 0.3939
-5.6318 7.9698 1.8242
-6.2914 7.4019 1.8159
-6.8792 6.7648 1.8035
-7.3941 6.0742 1.7888
-7.8413 5.3462 1.7741
-7.0562 3.9386 1.5106
-8.5259 3.8053 1.7453
-8.7612 3.0058 1.7315
-8.9250 2.1953 1.7181
-9.0176 1.3802 1.7053
-9.0399 0.5664 1.6932
-8.9934 -0.2404 1.6818
-8.8797 -1.0350 1.6711
-8.7007 -1.8121 1.6613
-8.4589 -2.5671 1.6525
-7.3882 -2.9848 1.4895
-7.1051 -3.6383 1.4922
-7.3829 -4.6550 1.6315
-6.9173 -5.2788 1.6266
-6.3994 -5.8569 1.6216
-5.4120 -5.9232 1.4998
-5.2103 -6.8393 1.6072
-0.9745 -1.5485 0.3420
-0.8297 -1.6237 0.3409
-0.6797 -1.6865 0.3399
-0.5254 -1.7365 0.3391
-0.3678 -1.7734 0.3386
-0.2080 -1.7973 0.3382
-0.0468 -1.8078 0.3380
0.1146 -1.8050 0.3381
0.2753 -1.7890 0.3384
0.4344 -1.7596 0.3388
0.5907 -1.7172 0.3395
0.7434 -1.6619 0.3403
0.8914 -1.5939 0.3414
1.0337 -1.5135 0.3426
5.9604 -7.2433 1.7535
6.6118 -6.7125 1.7613
7.2192 -6.1258 1.7699
7.7777 -5.4864 1.7792
8.2826 -4.7979 1.7893
8.7297 -4.0643 1.8000
9.1144 -3.2903 1.8114
9.4329 -2.4803 1.8232
9.6814 -1.6402 1.8356
9.8567 -0.7755 1.8482
9.9557 0.1074 1.8612
9.9762 1.0019 1.8743
9.9164 1.9009 1.8874
9.7748 2.7971 1.9006
9.5512 3.6827 1.9136
9.2458 4.5499 1.9263
8.8595 5.3906 1.9386
8.3943 6.1968 1.9504
7.8530 6.9605 1.9616
7.2394 7.6739 1.9721
6.5557 8.3266 1.9810
5.8080 8.9103 1.9882
0.9904 1.8641 0.3946
1.0220 1.7571 0.3929
0.8642 1.8477 0.3943
0.6980 1.9230 0.3955
0.5249 1.9822 0.3964
0.3466 2.0244 0.3970
0.1649 2.0491 0.3974
-0.0186 2.0562 0.3975
-0.2018 2.0455 0.3973
-0.3830 2.0171 0.3969
-0.5603 1.9714 0.3962
-0.7321 1.9089 0.3952
-0.8967 1.8303 0.3940
-1.0525 1.7367 0.3926
-5.5736 7.5780 1.8185
-6.1992 7.0190 1.8103
-6.7589 6.3988 1.7993
-7.2448 5.7247 1.7850
-7.6651 5.0156 1.7708
-7.1376 3.8082 1.5639
-8.3022 3.5181 1.7431
-8.5174 2.7426 1.7298
-8.6633 1.9574 1.7170
-8.7405 1.1685 1.7047
-8.7498 0.3817 1.6931
-8.6926 -0.3976 1.6822
-8.5705 -1.1642 1.6720
-8.3855 -1.9132 1.6627
-8.1399 -2.6400 1.6543
-6.9174 -2.9485 1.4536
-7.4771 -4.0096 1.6401
-7.0655 -4.6446 1.6345
-6.6045 -5.2414 1.6299
-5.8493 -5.5611 1.5602
-5.3446 -6.0772 1.5645
-1.0506 -1.4347 0.3438
-0.9151 -1.5171 0.3425
-0.7737 -1.5876 0.3414
-0.6273 -1.6460 0.3405
-0.4771 -1.6919 0.3398
-0.3238 -1.7251 0.3393
-0.1685 -1.7455 0.3390
-0.0121 -1.7530 0.3389
0.1443 -1.7476 0.3390
0.2999 -1.7292 0.3393
0.4535 -1.6980 0.3398
0.6044 -1.6541 0.3404
0.7514 -1.5977 0.3413
0.8937 -1.5291 0.3424
1.0302 -1.4485 0.3436
5.9118 -6.9126 1.7584
6.5333 -6.3857 1.7661
7.1108 -5.8053 1.7746
7.6398 -5.1748 1.7838
8.1157 -4.4977 1.7937
8.5344 -3.7780 1.8042
8.8916 -3.0203 1.8153
9.1838 -2.2294 1.8269
9.4074 -1.4106 1.8389
9.5593 -0.5698 1.8512
9.6370 0.2870 1.8638
9.6382 1.1531 1.8765
9.5613 2.0217 1.8892
9.4055 2.8856 1.9019
9.1705 3.7374 1.9144
8.8567 4.5692 1.9266
8.4654 5.3736 1.9384
7.9987 6.1427 1.9496
7.4595 6.8689 1.9603
6.8517 7.5448 1.9702
6.1790 8.1622 1.9790
1.0759 1.7212 0.3924
0.9216 1.8171 0.3939
0.7582 1.8980 0.3951
0.5874 1.9630 0.3961
0.4108 2.0113 0.3968
0.2300 2.0423 0.3973
0.0470 2.0557 0.3975
-0.1365 2.0514 0.3974
-0.3186 2.0292 0.3971
-0.4976 1.9896 0.3965
-0.6716 1.9331 0.3956
-0.8389 1.8601 0.3945
-0.9980 1.7718 0.3931
-5.3372 7.7633 1.8212
-5.9823 7.2250 1.8133
-6.5701 6.6296 1.8043
-7.0787 5.9697 1.7901
-7.5227 5.2723 1.7759
-7.4157 4.2657 1.6538
-8.2087 3.7915 1.7480
-8.4486 3.0208 1.7345
-8.6191 2.2384 1.7215
-8.7208 1.4502 1.7090
-8.7542 0.6620 1.6971
-8.7206 -0.1206 1.6860
-8.6214 -0.8923 1.6756
-8.4586 -1.6482 1.6659
-8.2344 -2.3834 1.6572
-7.9511 -3.0935 1.6493
-7.0849 -3.5133 1.5288
-7.2182 -4.4221 1.6364
-6.7745 -5.0330 1.6315
-6.2754 -5.5964 1.6255
-5.4034 -5.7628 1.5271
-1.0973 -1.4025 0.3443
-0.9642 -1.4890 0.3429
-0.8247 -1.5638 0.3418
-0.6801 -1.6266 0.3408
-0.5311 -1.6770 0.3400
-0.3788 -1.7147 0.3395
-0.2241 -1.7397 0.3391
-0.0680 -1.7518 0.3389
0.0885 -1.7510 0.3389
0.2445 -1.7373 0.3391
0.3989 -1.7106 0.3396
0.5509 -1.6712 0.3402
0.6994 -1.6192 0.3410
0.8435 -1.5549 0.3420
0.9822 -1.4786 0.3431
5.6803 -7.0872 1.7558
6.3163 -6.5801 1.7632
6.9100 -6.0184 1.7714
7.4568 -5.4054 1.7804
7.9522 -4.7445 1.7901
8.3918 -4.0395 1.8004
8.7714 -3.2948 1.8113
9.0872 -2.5148 1.8227
9.3357 -1.7057 1.8346
9.5135 -0.8721 1.8468
9.6179 -0.0203 1.8593
9.6466 0.8433 1.8719
9.5978 1.7118 1.8847
9.4702 2.5782 1.8974
9.2635 3.4352 1.9099
8.9777 4.2750 1.9222
8.6139 5.0901 1.9342
8.1738 5.8727 1.9457
7.6601 6.6151 1.9566
7.0762 7.3098 1.9667
6.4266 7.9495 1.9761
5.7131 8.5224 1.9835
0.9778 1.7845 0.3934
0.8175 1.8709 0.3947
0.6491 1.9416 0.3958
0.4744 1.9960 0.3966
0.2949 2.0332 0.3972
0.1125 2.0530 0.3975
-0.0711 2.0550 0.3975
-0.2539 2.0391 0.3972
-0.4342 2.0058 0.3967
-0.6101 1.9552 0.3959
-0.7800 1.8880 0.3949
-0.9422 1.8050 0.3936
-5.0943 7.9408 1.8238
-5.7582 7.4239 1.8162
-6.3677 6.8489 1.8078
-6.9045 6.2099 1.7952
-7.3718 5.5251 1.7809
-6.8819 4.2561 1.5642
-8.1063 4.0625 1.7529
-8.3709 3.2976 1.7393
-8.5662 2.5186 1.7261
-8.6924 1.7318 1.7134
-8.7500 0.9430 1.7013
-8.7402 0.1578 1.6899
-8.6642 -0.6184 1.6792
-8.5239 -1.3805 1.6693
-8.3214 -2.1236 1.6602
-8.0589 -2.8432 1.6520
-6.8366 -3.1228 1.4530
-7.3646 -4.1950 1.6384
-6.9385 -4.8194 1.6331
-6.4618 -5.4029 1.6283
-5.6031 -5.6064 1.5323
-5.3503 -6.4065 1.6136
-1.0125 -1.4595 0.3434
-0.8752 -1.5385 0.3422
-0.7323 -1.6056 0.3411
-0.5847 -1.6604 0.3403
-0.4335 -1.7027 0.3397
-0.2795 -1.7323 0.3392
-0.1238 -1.7490 0.3390
0.0327 -1.7528 0.3389
0.1889 -1.7436 0.3390
0.3440 -1.7216 0.3394
0.4970 -1.6867 0.3399
0.6469 -1.6392 0.3407
0.7926 -1.5793 0.3416
0.9334 -1.5072 0.3427
1.0681 -1.4233 0.3440
6.0939 -6.7675 1.7605
6.7032 -6.2250 1.7684
7.2673 -5.6299 1.7771
7.7816 -4.9857 1.7866
8.2415 -4.2959 1.7967
8.6430 -3.5649 1.8074
8.9820 -2.7972 1.8186
9.2549 -1.9977 1.8303
9.4583 -1.1721 1.8424
9.5892 -0.3260 1.8548
9.6452 0.5341 1.8674
9.6242 1.4017 1.8801
9.5248 2.2697 1.8929
9.3464 3.1308 1.9055
9.0887 3.9778 1.9179
8.7526 4.8025 1.9300
8.3395 5.5976 1.9416
7.8517 6.3552 1.9527
7.2924 7.0678 1.9632
6.6658 7.7279 1.9729
5.9745 8.3258 1.9810
1.0328 1.7501 0.3928
0.8757 1.8418 0.3942
0.7101 1.9182 0.3954
0.5374 1.9785 0.3963
0.3594 2.0219 0.3970
0.1778 2.0480 0.3974
-0.0055 2.0563 0.3975
-0.1888 2.0468 0.3974
-0.3702 2.0197 0.3969
-0.5479 1.9752 0.3962
-0.7202 1.9138 0.3953
-0.8853 1.8364 0.3941
-1.0418 1.7438 0.3927
-5.5272 7.6154 1.8190
-6.1567 7.0604 1.8109
-6.7221 6.4450 1.8003
-7.2125 5.7737 1.7860
-7.6375 5.0669 1.7718
-7.1231 3.8586 1.5661
-8.2844 3.5725 1.7441
-8.5044 2.7979 1.7307
-8.6553 2.0132 1.7179
-8.7373 1.2244 1.7055
-8.7514 0.4373 1.6939
-8.6988 -0.3427 1.6829
-8.5813 -1.1104 1.6727
-8.4007 -1.8608 1.6633
-8.1593 -2.5893 1.6548
-7.3665 -3.0850 1.5439
-7.5043 -3.9633 1.6406
-7.0963 -4.6008 1.6349
-6.6387 -5.2005 1.6302
-5.9223 -5.5596 1.5703
-5.3474 -6.0033 1.5542
-1.0599 -1.4284 0.3439
-0.9249 -1.5117 0.3426
-0.7839 -1.5830 0.3415
-0.6378 -1.6423 0.3406
-0.4878 -1.6891 0.3399
-0.3347 -1.7232 0.3393
-0.1795 -1.7445 0.3390
-0.0232 -1.7529 0.3389
0.1332 -1.7484 0.3390
0.2889 -1.7309 0.3392
0.4427 -1.7006 0.3397
0.5938 -1.6576 0.3404
0.7411 -1.6021 0.3412
0.8838 -1.5343 0.3423
1.0207 -1.4546 0.3435
5.8663 -6.9478 1.7578
6.4907 -6.4248 1.7655
7.0715 -5.8481 1.7739
7.6040 -5.2211 1.7831
8.0838 -4.5471 1.7930
8.5067 -3.8303 1.8035
8.8684 -3.0751 1.8145
9.1653 -2.2864 1.8261
9.3939 -1.4694 1.8381
9.5510 -0.6300 1.8504
9.6339 0.2259 1.8629
9.6406 1.0916 1.8756
9.5694 1.9603 1.8883
9.4192 2.8247 1.9010
9.1898 3.6775 1.9135
8.8815 4.5111 1.9257
8.4956 5.3177 1.9375
8.0342 6.0895 1.9489
7.5000 6.8191 1.9596
6.8969 7.4987 1.9695
6.2289 8.1208 1.9785
1.0865 1.7139 0.3923
0.9328 1.8108 0.3938
0.7701 1.8928 0.3950
0.5997 1.9589 0.3960
0.4234 2.0084 0.3968
0.2429 2.0407 0.3973
0.0600 2.0554 0.3975
-0.1235 2.0522 0.3974
-0.3058 2.0314 0.3971
-0.4850 1.9930 0.3965
-0.6594 1.9376 0.3957
-0.8273 1.8658 0.3946
-0.9870 1.7785 0.3932
-5.2895 7.7992 1.8217
-5.9384 7.2650 1.8139
-6.5314 6.6745 1.8053
-7.0448 6.0178 1.7911
-7.4934 5.3228 1.7769
-7.3950 4.3162 1.6553
-8.1891 3.8454 1.7489
-8.4338 3.0759 1.7354
-8.6093 2.2941 1.7224
-8.7158 1.5061 1.7099
-8.7540 0.7177 1.6980
-8.7251 -0.0655 1.6867
-8.6306 -0.8381 1.6763
-8.4722 -1.5953 1.6666
-8.2523 -2.3321 1.6578
-7.9731 -3.0441 1.6498
-7.1042 -3.4671 1.5282
-7.2478 -4.3774 1.6368
-6.8075 -4.9910 1.6318
-6.3128 -5.5585 1.6260
-5.3871 -5.6730 1.5124
-1.1065 -1.3960 0.3444
-0.9738 -1.4833 0.3430
-0.8348 -1.5589 0.3419
-0.6905 -1.6225 0.3409
-0.5418 -1.6738 0.3401
-0.3896 -1.7125 0.3395
-0.2351 -1.7384 0.3391
-0.0791 -1.7514 0.3389
0.0774 -1.7515 0.3389
0.2335 -1.7387 0.3391
0.3881 -1.7129 0.3395
0.5402 -1.6744 0.3401
0.6890 -1.6233 0.3409
0.8334 -1.5599 0.3419
0.9726 -1.4844 0.3431
5.6337 -7.1210 1.7553
6.2726 -6.6178 1.7627
6.8694 -6.0600 1.7708
7.4197 -5.4505 1.7798
7.9189 -4.7928 1.7894
8.3625 -4.0908 1.7997
8.7465 -3.3488 1.8105
9.0670 -2.5714 1.8219
9.3203 -1.7639 1.8337
9.5033 -0.9318 1.8459
9.6130 -0.0811 1.8584
9.6471 0.7819 1.8710
9.6038 1.6503 1.8838
9.4819 2.5171 1.8965
9.2807 3.3749 1.9091
9.0005 4.2162 1.9214
8.6422 5.0334 1.9334
8.2074 5.8185 1.9449
7.6988 6.5640 1.9558
7.1198 7.2623 1.9661
6.4747 7.9062 1.9755
5.7656 8.4841 1.9830
0.9888 1.7778 0.3933
0.8291 1.8653 0.3946
0.6613 1.9372 0.3957
0.4869 1.9927 0.3966
0.3077 2.0312 0.3971
0.1255 2.0522 0.3975
-0.0581 2.0554 0.3975
-0.2410 2.0409 0.3973
-0.4215 2.0087 0.3968
-0.5978 1.9593 0.3960
-0.7682 1.8933 0.3950
-0.9310 1.8114 0.3937
-5.0453 7.9750 1.8243
-5.7129 7.4625 1.8168
-6.3264 6.8914 1.8085
-6.8689 6.2570 1.7962
-7.3409 5.5748 1.7819
-6.8545 4.2994 1.5642
-8.0850 4.1160 1.7538
-8.3544 3.3523 1.7402
-8.5546 2.5741 1.7270
-8.6857 1.7877 1.7143
-8.7482 0.9988 1.7021
-8.7431 0.2131 1.6907
-8.6717 -0.5638 1.6799
-8.5359 -1.3271 1.6699
-8.3377 -2.0717 1.6608
-8.0794 -2.7931 1.6526
-6.8177 -3.0622 1.4448
-7.3928 -4.1493 1.6389
-6.9703 -4.7764 1.6335
-6.4982 -5.3638 1.6289
-5.6415 -5.5738 1.5331
-5.3923 -6.3744 1.6140
-1.0219 -1.4534 0.3435
-0.8851 -1.5333 0.3422
-0.7425 -1.6012 0.3412
-0.5953 -1.6569 0.3404
-0.4443 -1.7001 0.3397
-0.2905 -1.7306 0.3392
-0.1349 -1.7482 0.3390
0.0216 -1.7530 0.3389
0.1779 -1.7447 0.3390
0.3331 -1.7236 0.3394
0.4863 -1.6896 0.3399
0.6364 -1.6430 0.3406
0.7825 -1.5839 0.3415
0.9236 -1.5127 0.3426
1.0587 -1.4296 0.3439
6.0491 -6.8038 1.7599
6.6615 -6.2652 1.7678
7.2289 -5.6737 1.7765
7.7469 -5.0328 1.7859
8.2108 -4.3462 1.7959
8.6166 -3.6180 1.8066
8.9602 -2.8527 1.8178
9.2378 -2.0553 1.8295
9.4463 -1.2313 1.8415
9.5824 -0.3865 1.8539
9.6437 0.4729 1.8665
9.6282 1.3401 1.8792
9.5345 2.2083 1.8920
9.3616 3.0702 1.9046
9.1096 3.9184 1.9170
8.7790 4.7450 1.9291
8.3712 5.5424 1.9408
7.8887 6.3029 1.9520
7.3343 7.0189 1.9625
6.7123 7.6830 1.9722
6.0256 8.2858 1.9805
1.0435 1.7430 0.3927
0.8871 1.8358 0.3942
0.7220 1.9133 0.3953
0.5498 1.9748 0.3963
0.3721 2.0194 0.3970
0.1908 2.0467 0.3974
0.0075 2.0563 0.3975
-0.1759 2.0481 0.3974
-0.3575 2.0222 0.3970
-0.5355 1.9789 0.3963
-0.7082 1.9187 0.3954
-0.8739 1.8424 0.3942
-1.0310 1.7508 0.3928
-5.4805 7.6525 1.8196
-6.1139 7.1016 1.8115
-6.6849 6.4910 1.8013
-7.1799 5.8225 1.7870
-7.6096 5.1180 1.7728
-7.1452 3.9292 1.5764
-8.2662 3.6269 1.7450
-8.4911 2.8532 1.7317
-8.6468 2.0690 1.7187
-8.7337 1.2803 1.7064
-8.7526 0.4929 1.6947
-8.7047 -0.2878 1.6837
-8.5917 -1.0565 1.6734
-8.4155 -1.8083 1.6640
-8.1783 -2.5385 1.6554
-7.3687 -3.0313 1.5403
-7.5313 -3.9168 1.6410
-7.1269 -4.5569 1.6353
-6.6727 -5.1593 1.6305
-6.0058 -5.5668 1.5831
-5.3522 -5.9327 1.5446
-1.0692 -1.4221 0.3440
-0.9346 -1.5061 0.3427
-0.7940 -1.5784 0.3416
-0.6483 -1.6385 0.3406
-0.4985 -1.6862 0.3399
-0.3456 -1.7212 0.3394
-0.1906 -1.7434 0.3390
-0.0343 -1.7528 0.3389
0.1222 -1.7491 0.3390
0.2779 -1.7326 0.3392
0.4319 -1.7032 0.3397
0.5832 -1.6611 0.3403
0.7308 -1.6064 0.3412
0.8738 -1.5395 0.3422
1.0112 -1.4606 0.3434
5.8205 -6.9828 1.7573
6.4478 -6.4637 1.7649
7.0318 -5.8907 1.7733
7.5680 -5.2671 1.7824
8.0517 -4.5963 1.7923
8.4787 -3.8824 1.8027
8.8449 -3.1298 1.8137
9.1465 -2.3432 1.8253
9.3800 -1.5281 1.8372
9.5423 -0.6901 1.8495
9.6306 0.1649 1.8620
9.6427 1.0301 1.8747
9.5770 1.8988 1.8874
9.4324 2.7638 1.9001
9.2086 3.6177 1.9126
8.9059 4.4528 1.9249
8.5255 5.2616 1.9367
8.0693 6.0362 1.9481
7.5402 6.7689 1.9588
6.9418 7.4524 1.9688
6.2785 8.0791 1.9780
1.0970 1.7065 0.3922
0.9440 1.8044 0.3937
0.7819 1.8875 0.3949
0.6120 1.9548 0.3960
0.4361 2.0055 0.3967
0.2558 2.0390 0.3973
0.0730 2.0549 0.3975
-0.1106 2.0531 0.3975
-0.2930 2.0334 0.3972
-0.4725 1.9963 0.3966
-0.6473 1.9421 0.3957
-0.8156 1.8714 0.3946
-0.9760 1.7852 0.3933
-5.2415 7.8347 1.8223
-5.8942 7.3048 1.8145
-6.4913 6.7181 1.8059
-7.0106 6.0656 1.7921
-7.4638 5.3732 1.7779
-7.4045 4.3848 1.6636
-8.1691 3.8993 1.7499
-8.4188 3.1309 1.7364
-8.5992 2.3497 1.7233
-8.7106 1.5620 1.7107
-8.7536 0.7734 1.6988
-8.7293 -0.0103 1.6875
-8.6394 -0.7838 1.6770
-8.4855 -1.5422 1.6672
-8.2698 -2.2806 1.6584
-7.9948 -2.9946 1.6504
-7.1549 -3.4359 1.5344
-7.2771 -4.3325 1.6372
-6.8403 -4.9488 1.6321
-6.3501 -5.5203 1.6266
-5.4034 -5.6185 1.5069
-5.2216 -6.5025 1.6122
-0.9834 -1.4775 0.3431
-0.8448 -1.5540 0.3419
-0.7009 -1.6184 0.3409
-0.5524 -1.6706 0.3401
-0.4005 -1.7102 0.3395
-0.2461 -1.7370 0.3391
-0.0902 -1.7509 0.3389
0.0664 -1.7519 0.3389
0.2225 -1.7400 0.3391
0.3772 -1.7152 0.3395
0.5296 -1.6776 0.3401
0.6786 -1.6274 0.3408
0.8234 -1.5648 0.3418
0.9629 -1.4901 0.3430
5.5870 -7.1544 1.7548
6.2286 -6.6553 1.7621
6.8286 -6.1012 1.7702
7.3824 -5.4953 1.7791
7.8853 -4.8409 1.7887
8.3330 -4.1419 1.7989
8.7214 -3.4026 1.8097
9.0465 -2.6276 1.8211
9.3047 -1.8220 1.8329
9.4927 -0.9915 1.8451
9.6077 -0.1418 1.8575
9.6472 0.7205 1.8701
9.6094 1.5887 1.8829
9.4931 2.4559 1.8956
9.2976 3.3146 1.9082
9.0230 4.1574 1.9205
8.6701 4.9764 1.9325
8.2407 5.7641 1.9441
7.7372 6.5127 1.9551
7.1631 7.2145 1.9654
6.5225 7.8625 1.9749
5.8177 8.4454 1.9825
0.9998 1.7711 0.3932
0.8407 1.8596 0.3945
0.6734 1.9326 0.3956
0.4995 1.9893 0.3965
0.3206 2.0290 0.3971
0.1384 2.0513 0.3974
-0.0451 2.0558 0.3975
-0.2281 2.0425 0.3973
-0.4089 2.0115 0.3968
-0.5855 1.9634 0.3961
-0.7564 1.8985 0.3951
-0.9198 1.8177 0.3938
-1.0742 1.7219 0.3923
-5.6673 7.5008 1.8174
-6.2849 6.9336 1.8091
-6.8331 6.3038 1.7972
-7.3096 5.6243 1.7829
-6.8388 4.3500 1.5668
-7.2221 3.7344 1.5717
-8.3376 3.4069 1.7412
-8.5427 2.6296 1.7279
-8.6787 1.8435 1.7152
-8.7460 1.0546 1.7030
-8.7456 0.2686 1.6915
-8.6789 -0.5092 1.6807
-8.5476 -1.2736 1.6706
-8.3538 -2.0196 1.6614
-8.0996 -2.7428 1.6531
-6.8337 -3.0175 1.4441
-7.4208 -4.1035 1.6393
-7.0019 -4.7332 1.6338
-6.5340 -5.3243 1.6294
-5.7079 -5.5685 1.5415
-5.4341 -6.3421 1.6145
-1.0314 -1.4473 0.3436
-0.8950 -1.5280 0.3423
-0.7528 -1.5968 0.3413
-0.6059 -1.6534 0.3404
-0.4551 -1.6975 0.3397
-0.3015 -1.7289 0.3393
-0.1459 -1.7474 0.3390
0.0105 -1.7530 0.3389
0.1668 -1.7457 0.3390
0.3222 -1.7255 0.3393
0.4755 -1.6924 0.3398
0.6259 -1.6467 0.3406
0.7723 -1.5885 0.3415
0.9138 -1.5181 0.3425
1.0494 -1.4359 0.3438
6.0041 -6.8399 1.7594
6.6195 -6.3051 1.7672
7.1903 -5.7173 1.7759
7.7119 -5.0798 1.7852
8.1798 -4.3963 1.7952
8.5898 -3.6708 1.8058
8.9379 -2.9080 1.8170
9.2204 -2.1127 1.8286
9.4338 -1.2904 1.8407
9.5752 -0.4469 1.8530
9.6419 0.4116 1.8656
9.6319 1.2786 1.8783
9.5437 2.1469 1.8911
9.3765 3.0095 1.9037
9.1300 3.8591 1.9161
8.8050 4.6873 1.9283
8.4026 5.4870 1.9400
7.9252 6.2504 1.9512
7.3759 6.9698 1.9618
6.7585 7.6378 1.9716
6.0764 8.2455 1.9800
1.0543 1.7359 0.3926
0.8985 1.8297 0.3941
0.7340 1.9084 0.3953
0.5622 1.9710 0.3962
0.3849 2.0168 0.3969
0.2037 2.0453 0.3974
0.0205 2.0562 0.3975
-0.1629 2.0492 0.3974
-0.3447 2.0246 0.3970
-0.5231 1.9825 0.3964
-0.6962 1.9235 0.3954
-0.8624 1.8483 0.3943
-1.0202 1.7578 0.3929
-5.4336 7.6893 1.8201
-6.0709 7.1425 1.8121
-6.6474 6.5369 1.8023
-7.1469 5.8711 1.7880
-7.5813 5.1689 1.7738
-7.5529 4.2159 1.6722
-8.2476 3.6811 1.7460
-8.4775 2.9084 1.7326
-8.6381 2.1247 1.7196
-8.7298 1.3362 1.7073
-8.7534 0.5485 1.6955
-8.7102 -0.2328 1.6844
-8.6018 -1.0026 1.6741
-8.4300 -1.7557 1.6646
-8.1971 -2.4876 1.6560
-7.3882 -2.9848 1.5404
-7.1051 -3.6383 1.5431
-7.1572 -4.5127 1.6357
-6.7064 -5.1179 1.6308
-6.1984 -5.6729 1.6243
-5.3584 -5.8645 1.5357
-1.0785 -1.4157 0.3441
-0.9444 -1.5006 0.3427
-0.8042 -1.5737 0.3416
-0.6588 -1.6346 0.3407
-0.5093 -1.6832 0.3400
-0.3566 -1.7191 0.3394
-0.2016 -1.7423 0.3391
-0.0454 -1.7525 0.3389
0.1111 -1.7498 0.3389
0.2669 -1.7342 0.3392
0.4211 -1.7057 0.3396
0.5726 -1.6645 0.3403
0.7205 -1.6107 0.3411
0.8639 -1.5446 0.3421
1.0017 -1.4666 0.3433
5.7745 -7.0174 1.7568
6.4047 -6.5023 1.7644
6.9920 -5.9330 1.7727
7.5317 -5.3128 1.7818
8.0192 -4.6453 1.7915
8.4504 -3.9343 1.8020
8.8210 -3.1843 1.8129
9.1273 -2.4001 1.8244
9.3658 -1.5867 1.8363
9.5332 -0.7500 1.8486
9.6268 0.1039 1.8611
9.6444 0.9686 1.8738
9.5842 1.8372 1.8865
9.4453 2.7028 1.8992
9.2271 3.5577 1.9117
8.9299 4.3944 1.9240
8.5550 5.2053 1.9359
8.1041 5.9826 1.9473
7.5800 6.7186 1.9581
6.9864 7.4057 1.9682
6.3277 8.0370 1.9774
5.6054 8.5995 1.9844
0.9552 1.7979 0.3936
0.9869 1.6968 0.3920
0.8345 1.7841 0.3934
0.6739 1.8566 0.3945
0.5068 1.9135 0.3953
0.3346 1.9542 0.3960
0.1591 1.9780 0.3963
-0.0179 1.9848 0.3964
-0.1948 1.9745 0.3963
-0.3697 1.9472 0.3958
-0.5410 1.9032 0.3951
-0.7069 1.8430 0.3942
-0.8658 1.7673 0.3930
-1.0164 1.6771 0.3916
-5.3838 7.3199 1.8147
-5.9890 6.7810 1.8068
-6.5385 6.1901 1.7982
-7.0103 5.5395 1.7844
-7.4189 4.8545 1.7707
-7.1191 3.7984 1.6115
-8.0397 3.4069 1.7438
-8.2500 2.6565 1.7309
-8.3933 1.8964 1.7185
-8.4699 1.1324 1.7066
-8.4808 0.3700 1.6953
-8.4270 -0.3854 1.6847
-8.3102 -1.1288 1.6749
-8.1322 -1.8554 1.6658
-7.8952 -2.5606 1.6576
-6.8890 -2.9364 1.4956
-7.2542 -3.8901 1.6439
-6.8555 -4.5065 1.6385
-6.4048 -5.0830 1.6330
-5.8474 -5.5593 1.6114
-5.3439 -6.0763 1.6161
-1.0189 -1.3915 0.3444
-0.8876 -1.4715 0.3432
-0.7505 -1.5401 0.3421
-0.6086 -1.5968 0.3413
-0.4628 -1.6414 0.3406
-0.3141 -1.6737 0.3401
-0.1635 -1.6936 0.3398
-0.0118 -1.7009 0.3397
0.1400 -1.6956 0.3398
0.2909 -1.6777 0.3401
0.4400 -1.6474 0.3405
0.5863 -1.6047 0.3412
0.7289 -1.5498 0.3420
0.8668 -1.4831 0.3431
0.9991 -1.4048 0.3443
5.7325 -6.7029 1.7614
6.3342 -6.1911 1.7689
6.8931 -5.6276 1.7772
7.4047 -5.0156 1.7861
7.8647 -4.3586 1.7957
8.2688 -3.6605 1.8060
8.6134 -2.9258 1.8167
8.8946 -2.1592 1.8280
9.1093 -1.3660 1.8396
9.2544 -0.5517 1.8515
9.3276 0.2777 1.8637
9.3267 1.1158 1.8759
9.2503 1.9560 1.8883
9.0976 2.7911 1.9005
8.8684 3.6142 1.9126
8.5631 4.4177 1.9243
8.1831 5.1944 1.9357
7.7305 5.9367 1.9466
7.2081 6.6374 1.9569
6.6196 7.2892 1.9665
5.9695 7.8855 1.9752
1.0391 1.6622 0.3915
0.8899 1.7546 0.3929
0.7321 1.8325 0.3941
0.5671 1.8951 0.3951
0.3965 1.9416 0.3958
0.2221 1.9715 0.3962
0.0454 1.9844 0.3964
-0.1318 1.9802 0.3963
-0.3076 1.9589 0.3960
-0.4804 1.9208 0.3954
-0.6484 1.8663 0.3946
-0.8100 1.7961 0.3935
-0.9637 1.7109 0.3922
-5.1552 7.4986 1.8173
-5.7791 6.9797 1.8097
-6.3490 6.4066 1.8013
-6.8490 5.7760 1.7893
-7.2804 5.1026 1.7755
-7.4329 4.2755 1.7125
-7.9484 3.6712 1.7485
-8.1826 2.9257 1.7355
-8.3498 2.1684 1.7229
-8.4502 1.4052 1.7108
-8.4844 0.6416 1.6993
-8.4535 -0.1169 1.6884
-8.3590 -0.8652 1.6783
-8.2026 -1.5983 1.6690
-7.9864 -2.3116 1.6605
-7.7128 -3.0008 1.6528
-7.0880 -3.5148 1.5800
-7.0035 -4.2906 1.6403
-6.5735 -4.8837 1.6355
-6.0837 -5.4254 1.6280
-5.3469 -5.7025 1.5612
-1.0642 -1.3602 0.3449
-0.9351 -1.4442 0.3436
-0.8000 -1.5169 0.3425
-0.6597 -1.5779 0.3416
-0.5152 -1.6269 0.3408
-0.3675 -1.6636 0.3403
-0.2174 -1.6880 0.3399
-0.0660 -1.6997 0.3397
0.0859 -1.6989 0.3397
0.2372 -1.6855 0.3399
0.3871 -1.6596 0.3403
0.5345 -1.6213 0.3409
0.6785 -1.5708 0.3417
0.8182 -1.5083 0.3427
0.9526 -1.4341 0.3438
5.5082 -6.8725 1.7590
6.1241 -6.3799 1.7662
6.6988 -5.8345 1.7741
7.2278 -5.2394 1.7829
7.7067 -4.5980 1.7922
8.1312 -3.9141 1.8023
8.4975 -3.1919 1.8128
8.8017 -2.4362 1.8239
9.0405 -1.6518 1.8354
9.2108 -0.8443 1.8472
9.3099 -0.0196 1.8593
9.3356 0.8161 1.8716
9.2863 1.6563 1.8839
9.1609 2.4940 1.8961
8.9590 3.3222 1.9083
8.6808 4.1336 1.9202
8.3273 4.9208 1.9317
7.9003 5.6762 1.9428
7.4023 6.3925 1.9533
6.8370 7.0626 1.9631
6.2083 7.6795 1.9722
1.0900 1.6259 0.3909
0.9442 1.7232 0.3924
0.7893 1.8064 0.3937
0.6267 1.8745 0.3947
0.4580 1.9269 0.3955
0.2847 1.9627 0.3961
0.1086 1.9817 0.3964
-0.0686 1.9836 0.3964
-0.2451 1.9684 0.3962
-0.4191 1.9363 0.3957
-0.5890 1.8876 0.3949
-0.7531 1.8229 0.3939
-0.9098 1.7430 0.3927
-1.0577 1.6487 0.3912
-5.5624 7.1714 1.8125
-6.1521 6.6170 1.8044
-6.6798 6.0078 1.7942
-7.1338 5.3467 1.7805
-6.8604 4.2428 1.6110
-7.8486 3.9333 1.7533
-8.1067 3.1935 1.7401
-8.2978 2.4397 1.7273
-8.4220 1.6779 1.7150
-8.4797 0.9138 1.7033
-8.4719 0.1529 1.6922
-8.3999 -0.5996 1.6818
-8.2654 -1.3386 1.6722
-8.0703 -2.0595 1.6634
-7.8169 -2.7578 1.6554
-6.8067 -3.1091 1.4945
-7.1452 -4.0700 1.6423
-6.7325 -4.6763 1.6371
-6.2641 -5.2376 1.6307
-5.5549 -5.5581 1.5694
-1.1086 -1.3275 0.3454
-0.9820 -1.4155 0.3441
-0.8489 -1.4923 0.3429
-0.7103 -1.5575 0.3419
-0.5672 -1.6108 0.3411
-0.4205 -1.6520 0.3404
-0.2712 -1.6807 0.3400
-0.1201 -1.6970 0.3398
0.0317 -1.7007 0.3397
0.1833 -1.6918 0.3398
0.3338 -1.6703 0.3402
0.4822 -1.6364 0.3407
0.6275 -1.5902 0.3414
0.7689 -1.5320 0.3423
0.9053 -1.4619 0.3434
1.0358 -1.3804 0.3447
5.9087 -6.5619 1.7635
6.4987 -6.0351 1.7712
7.0445 -5.4573 1.7797
7.5418 -4.8320 1.7888
7.9862 -4.1628 1.7986
8.3737 -3.4538 1.8090
8.7005 -2.7095 1.8199
8.9630 -1.9347 1.8312
9.1580 -1.1350 1.8430
9.2828 -0.3154 1.8550
9.3350 0.5169 1.8672
9.3126 1.3563 1.8795
9.2144 2.1957 1.8918
9.0399 3.0282 1.9040
8.7888 3.8464 1.9160
8.4620 4.6430 1.9276
8.0610 5.4106 1.9389
7.5880 6.1418 1.9496
7.0463 6.8292 1.9597
6.4397 7.4658 1.9690
5.7730 8.0449 1.9775
0.9973 1.6900 0.3919
0.8455 1.7784 0.3933
0.6855 1.8520 0.3944
0.5188 1.9100 0.3953
0.3469 1.9518 0.3959
0.1716 1.9769 0.3963
-0.0054 1.9849 0.3964
-0.1823 1.9758 0.3963
-0.3574 1.9497 0.3959
-0.5290 1.9068 0.3952
-0.6953 1.8478 0.3943
-0.8548 1.7732 0.3931
-1.0060 1.6840 0.3918
-5.3389 7.3560 1.8152
-5.9479 6.8210 1.8074
-6.5015 6.2335 1.7988
-6.9789 5.5868 1.7854
-7.3921 4.9041 1.7716
-7.0997 3.8459 1.6126
-8.0222 3.4595 1.7448
-8.2373 2.7100 1.7318
-8.3854 1.9504 1.7194
-8.4667 1.1865 1.7074
-8.4821 0.4238 1.6961
-8.4329 -0.3323 1.6855
-8.3205 -1.0767 1.6756
-8.1468 -1.8046 1.6665
-7.9139 -2.5114 1.6582
-7.3883 -3.0941 1.5997
-7.2805 -3.8451 1.6443
-6.8854 -4.4641 1.6388
-6.4391 -5.0441 1.6336
-5.9223 -5.5596 1.6223
-5.3442 -5.9997 1.6046
-1.0280 -1.3854 0.3445
-0.8971 -1.4662 0.3433
-0.7604 -1.5356 0.3422
-0.6188 -1.5932 0.3413
-0.4733 -1.6387 0.3406
-0.3247 -1.6719 0.3401
-0.1742 -1.6926 0.3398
-0.0225 -1.7008 0.3397
0.1293 -1.6964 0.3398
0.2803 -1.6794 0.3400
0.4295 -1.6499 0.3405
0.5761 -1.6081 0.3411
0.7189 -1.5541 0.3420
0.8572 -1.4882 0.3430
0.9900 -1.4108 0.3442
5.6883 -6.7371 1.7609
6.2930 -6.2291 1.7684
6.8551 -5.6692 1.7766
7.3701 -5.0605 1.7855
7.8339 -4.4065 1.7950
8.2421 -3.7112 1.8052
8.5910 -2.9789 1.8160
8.8768 -2.2144 1.8272
9.0963 -1.4231 1.8387
9.2465 -0.6099 1.8507
9.3248 0.2186 1.8628
9.3292 1.0563 1.8751
9.2582 1.8965 1.8874
9.1110 2.7323 1.8996
8.8871 3.5564 1.9117
8.5872 4.3616 1.9235
8.2126 5.1403 1.9349
7.7649 5.8854 1.9459
7.2473 6.5893 1.9562
6.6634 7.2448 1.9658
6.0175 7.8452 1.9746
1.0493 1.6551 0.3914
0.9007 1.7485 0.3928
0.7435 1.8275 0.3940
0.5790 1.8912 0.3950
0.4088 1.9388 0.3957
0.2345 1.9699 0.3962
0.0579 1.9840 0.3964
-0.1192 1.9810 0.3964
-0.2952 1.9609 0.3960
-0.4683 1.9240 0.3955
-0.6366 1.8707 0.3946
-0.7988 1.8015 0.3936
-0.9531 1.7174 0.3923
-5.1090 7.5331 1.8178
-5.7367 7.0183 1.8103
-6.3105 6.4489 1.8020
-6.8161 5.8224 1.7903
-7.2520 5.1513 1.7765
-7.4131 4.3268 1.7142
-7.9292 3.7234 1.7495
-8.1682 2.9790 1.7364
-8.3402 2.2223 1.7238
-8.4453 1.4593 1.7116
-8.4841 0.6956 1.7001
-8.4578 -0.0635 1.6892
-8.3677 -0.8126 1.6790
-8.2157 -1.5469 1.6696
-8.0037 -2.2618 1.6610
-7.7340 -2.9529 1.6533
-7.1069 -3.4684 1.5793
-7.0321 -4.2472 1.6407
-6.6056 -4.8429 1.6358
-6.1199 -5.3886 1.6285
-5.3517 -5.6357 1.5521
-1.0731 -1.3538 0.3450
-0.9445 -1.4387 0.3437
-0.8098 -1.5122 0.3426
-0.6698 -1.5740 0.3416
-0.5256 -1.6238 0.3409
-0.3780 -1.6614 0.3403
-0.2281 -1.6866 0.3399
-0.0767 -1.6993 0.3397
0.0751 -1.6994 0.3397
0.2265 -1.6869 0.3399
0.3765 -1.6619 0.3403
0.5241 -1.6245 0.3409
0.6684 -1.5748 0.3417
0.8084 -1.5131 0.3426
0.9433 -1.4397 0.3437
1.0720 -1.3550 0.3451
6.0818 -6.4165 1.7656
6.6596 -5.8748 1.7736
7.1920 -5.2831 1.7822
7.6745 -4.6449 1.7916
8.1030 -3.9639 1.8015
8.4735 -3.2443 1.8121
8.7823 -2.4907 1.8231
9.0258 -1.7082 1.8346
9.2010 -0.9022 1.8464
9.3053 -0.0785 1.8584
9.3363 0.7567 1.8707
9.2923 1.5966 1.8830
9.1723 2.4349 1.8953
8.9758 3.2641 1.9074
8.7030 4.0768 1.9193
8.3547 4.8660 1.9309
7.9329 5.6238 1.9420
7.4399 6.3432 1.9526
6.8792 7.0168 1.9625
6.2548 7.6377 1.9716
1.0999 1.6185 0.3908
0.9548 1.7168 0.3923
0.8005 1.8010 0.3936
0.6384 1.8702 0.3947
0.4701 1.9237 0.3955
0.2971 1.9607 0.3961
0.1211 1.9809 0.3964
-0.0561 1.9841 0.3964
-0.2327 1.9701 0.3962
-0.4069 1.9391 0.3957
-0.5772 1.8915 0.3950
-0.7417 1.8280 0.3940
-0.8990 1.7491 0.3928
-1.0476 1.6559 0.3913
-5.5185 7.2086 1.8131
-6.1122 6.6580 1.8050
-6.6453 6.0533 1.7952
-7.1037 5.3947 1.7814
-6.8368 4.2882 1.6118
-7.8277 3.9850 1.7542
-8.0906 3.2465 1.7410
-8.2865 2.4935 1.7282
-8.4154 1.7320 1.7159
-8.4778 0.9679 1.7041
-8.4746 0.2066 1.6930
-8.4071 -0.5466 1.6826
-8.2770 -1.2868 1.6729
-8.0861 -2.0091 1.6640
-7.8367 -2.7092 1.6560
-6.7895 -3.0495 1.4864
-7.1726 -4.0257 1.6427
-6.7633 -4.6345 1.6374
-6.2993 -5.1997 1.6313
-5.6259 -5.5584 1.5795
-5.2287 -6.1810 1.6169
-0.9912 -1.4096 0.3441
-0.8585 -1.4873 0.3430
-0.7203 -1.5533 0.3419
-0.5775 -1.6074 0.3411
-0.4310 -1.6494 0.3405
-0.2818 -1.6791 0.3400
-0.1309 -1.6962 0.3398
0.0209 -1.7008 0.3397
0.1726 -1.6928 0.3398
0.3232 -1.6722 0.3401
0.4718 -1.6392 0.3407
0.6173 -1.5939 0.3414
0.7590 -1.5365 0.3423
0.8958 -1.4672 0.3433
1.0268 -1.3865 0.3446
5.8654 -6.5972 1.7630
6.4583 -6.0741 1.7706
7.0074 -5.4999 1.7790
7.5082 -4.8778 1.7881
7.9565 -4.2116 1.7979
8.3482 -3.5053 1.8082
8.6794 -2.7633 1.8191
8.9466 -1.9905 1.8304
9.1465 -1.1922 1.8421
9.2764 -0.3741 1.8541
9.3337 0.4577 1.8663
9.3167 1.2968 1.8786
9.2239 2.1364 1.8909
9.0547 2.9695 1.9031
8.8091 3.7891 1.9151
8.4876 4.5875 1.9268
8.0918 5.3574 1.9381
7.6238 6.0913 1.9489
7.0868 6.7821 1.9590
6.4847 7.4225 1.9684
5.8223 8.0057 1.9770
1.0077 1.6832 0.3918
0.8566 1.7726 0.3932
0.6971 1.8473 0.3943
0.5308 1.9065 0.3952
0.3592 1.9494 0.3959
0.1841 1.9757 0.3963
0.0072 1.9849 0.3964
-0.1698 1.9770 0.3963
-0.3451 1.9521 0.3959
-0.5170 1.9104 0.3953
-0.6837 1.8525 0.3944
-0.8438 1.7790 0.3932
-0.9956 1.6907 0.3919
-5.2938 7.3918 1.8158
-5.9065 6.8607 1.8080
-6.4642 6.2767 1.7994
-6.9473 5.6339 1.7863
-7.3649 4.9534 1.7726
-7.1277 3.9196 1.6245
-8.0045 3.5120 1.7457
-8.2243 2.7635 1.7327
-8.3771 2.0044 1.7202
-8.4631 1.2406 1.7083
-8.4832 0.4777 1.6969
-8.4385 -0.2790 1.6862
-8.3305 -1.0244 1.6762
-8.1610 -1.7537 1.6671
-7.9323 -2.4622 1.6587
-7.3804 -3.0361 1.5938
-7.3066 -3.7999 1.6448
-6.9150 -4.4214 1.6392
-6.4731 -5.0050 1.6341
-5.9723 -5.5359 1.6263
-5.3445 -5.9242 1.5934
-1.0370 -1.3792 0.3446
-0.9065 -1.4609 0.3434
-0.7702 -1.5311 0.3423
-0.6289 -1.5895 0.3414
-0.4837 -1.6359 0.3407
-0.3353 -1.6699 0.3402
-0.1849 -1.6915 0.3398
-0.0333 -1.7006 0.3397
0.1185 -1.6971 0.3398
0.2696 -1.6810 0.3400
0.4190 -1.6524 0.3405
0.5658 -1.6115 0.3411
0.7089 -1.5583 0.3419
0.8476 -1.4933 0.3429
0.9808 -1.4166 0.3441
5.6440 -6.7710 1.7604
6.2515 -6.2668 1.7678
6.8167 -5.7105 1.7760
7.3353 -5.1051 1.7848
7.8028 -4.4542 1.7943
8.2151 -3.7617 1.8045
8.5683 -3.0319 1.8152
8.8588 -2.2695 1.8263
9.0830 -1.4797 1.8379
9.2382 -0.6681 1.8498
9.3217 0.1596 1.8619
9.3314 0.9968 1.8742
9.2658 1.8371 1.8865
9.1239 2.6737 1.8988
8.9055 3.4986 1.9109
8.6110 4.3054 1.9227
8.2415 5.0863 1.9341
7.7990 5.8339 1.9451
7.2862 6.5409 1.9555
6.7068 7.2001 1.9651
6.0652 7.8046 1.9740
1.0594 1.6480 0.3913
0.9116 1.7423 0.3927
0.7549 1.8224 0.3939
0.5909 1.8872 0.3949
0.4210 1.9360 0.3957
0.2469 1.9683 0.3962
0.0705 1.9836 0.3964
-0.1067 1.9818 0.3964
-0.2828 1.9629 0.3961
-0.4561 1.9272 0.3955
-0.6249 1.8750 0.3947
-0.7875 1.8069 0.3937
-0.9425 1.7239 0.3924
-5.0627 7.5674 1.8183
-5.6939 7.0566 1.8109
-6.2718 6.4909 1.8026
-6.7828 5.8686 1.7913
-7.2232 5.2000 1.7775
-7.4485 4.4109 1.7288
-7.9098 3.7755 1.7504
-8.1535 3.0322 1.7373
-8.3302 2.2762 1.7246
-8.4400 1.5134 1.7125
-8.4835 0.7496 1.7009
-8.4618 -0.0099 1.6899
-8.3762 -0.7599 1.6797
-8.2284 -1.4955 1.6702
-8.0206 -2.2119 1.6616
-7.7550 -2.9048 1.6538
-7.1651 -3.4408 1.5874
-7.0605 -4.2036 1.6411
-6.6373 -4.8019 1.6361
-6.1560 -5.3516 1.6290
-5.3769 -5.5910 1.5492
-1.0819 -1.3474 0.3451
-0.9538 -1.4330 0.3438
-0.8195 -1.5074 0.3426
-0.6799 -1.5700 0.3417
-0.5359 -1.6207 0.3409
-0.3886 -1.6592 0.3403
-0.2388 -1.6853 0.3399
-0.0875 -1.6988 0.3397
0.0644 -1.6998 0.3397
0.2158 -1.6882 0.3399
0.3660 -1.6641 0.3403
0.5138 -1.6275 0.3408
0.6583 -1.5787 0.3416
0.7987 -1.5179 0.3425
0.9339 -1.4453 0.3437
1.0631 -1.3614 0.3450
6.0393 -6.4529 1.7651
6.6201 -5.9149 1.7730
7.1558 -5.3266 1.7816
7.6420 -4.6916 1.7909
8.0745 -4.0134 1.8008
8.4493 -3.2964 1.8113
8.7625 -2.5451 1.8223
9.0108 -1.7645 1.8337
9.1909 -0.9599 1.8455
9.3002 -0.1373 1.8576
9.3365 0.6973 1.8698
9.2979 1.5375 1.8821
9.1834 2.3757 1.8944
8.9922 3.2058 1.9066
8.7248 4.0200 1.9185
8.3818 4.8110 1.9301
7.9651 5.5713 1.9413
7.4771 6.2937 1.9519
6.9210 6.9707 1.9618
6.3011 7.5955 1.9710
5.6214 8.1604 1.9790
0.9654 1.7102 0.3922
0.8117 1.7955 0.3935
0.6502 1.8658 0.3946
0.4822 1.9204 0.3954
0.3094 1.9587 0.3960
0.1336 1.9801 0.3963
-0.0435 1.9844 0.3964
-0.2202 1.9716 0.3962
-0.3947 1.9418 0.3957
-0.5653 1.8954 0.3950
-0.7303 1.8330 0.3941
-0.8881 1.7552 0.3929
-1.0374 1.6629 0.3914
-5.4744 7.2456 1.8136
-6.0719 6.6987 1.8056
-6.6104 6.0985 1.7962
-7.0733 5.4425 1.7824
-6.8171 4.3363 1.6136
-7.2041 3.7251 1.6197
-8.0742 3.2993 1.7420
-8.2748 2.5472 1.7291
-8.4085 1.7861 1.7167
-8.4756 1.0220 1.7049
-8.4770 0.2603 1.6938
-8.4140 -0.4936 1.6833
-8.2882 -1.2349 1.6735
-8.1016 -1.9587 1.6646
-7.8563 -2.6604 1.6565
-6.8078 -3.0061 1.4863
-7.1997 -3.9813 1.6431
-6.7939 -4.5926 1.6378
-6.3342 -5.1615 1.6318
-5.6978 -5.5587 1.5897
-5.2692 -6.1496 1.6173
-1.0003 -1.4037 0.3442
-0.8681 -1.4821 0.3430
-0.7303 -1.5490 0.3420
-0.5878 -1.6040 0.3412
-0.4415 -1.6469 0.3405
-0.2925 -1.6774 0.3400
-0.1416 -1.6954 0.3398
0.0102 -1.7009 0.3397
0.1619 -1.6938 0.3398
0.3126 -1.6741 0.3401
0.4613 -1.6420 0.3406
0.6071 -1.5975 0.3413
0.7491 -1.5409 0.3422
0.8863 -1.4725 0.3432
1.0177 -1.3926 0.3445
5.8218 -6.6323 1.7625
6.4177 -6.1129 1.7701
6.9701 -5.5421 1.7784
7.4744 -4.9234 1.7875
7.9266 -4.2602 1.7972
8.3224 -3.5565 1.8075
8.6580 -2.8169 1.8183
8.9298 -2.0462 1.8296
9.1346 -1.2495 1.8413
9.2695 -0.4327 1.8533
9.3321 0.3984 1.8654
9.3204 1.2372 1.8777
9.2330 2.0770 1.8900
9.0692 2.9109 1.9023
8.8290 3.7316 1.9143
8.5128 4.5318 1.9260
8.1222 5.3039 1.9373
7.6593 6.0407 1.9481
7.1271 6.7347 1.9583
6.5294 7.3789 1.9678
5.8709 7.9666 1.9764
1.0181 1.6764 0.3917
0.8676 1.7667 0.3931
0.7086 1.8425 0.3942
0.5428 1.9028 0.3952
0.3715 1.9469 0.3958
0.1966 1.9744 0.3963
0.0198 1.9848 0.3964
-0.1573 1.9781 0.3963
-0.3328 1.9544 0.3959
-0.5050 1.9139 0.3953
-0.6721 1.8571 0.3944
-0.8327 1.7847 0.3933
-0.9852 1.6974 0.3920
-5.2484 7.4272 1.8163
-5.8649 6.9001 1.8086
-6.4266 6.3197 1.8001
-6.9153 5.6808 1.7873
-7.3374 5.0027 1.7736
-7.6949 4.2951 1.7600
-7.9863 3.5645 1.7466
-8.2109 2.8170 1.7336
-8.3684 2.0584 1.7211
-8.4592 1.2948 1.7091
-8.4839 0.5316 1.6977
-8.4437 -0.2257 1.6869
-8.3402 -0.9721 1.6769
-8.1750 -1.7026 1.6677
-7.9504 -2.4127 1.6593
-7.4000 -2.9895 1.5939
-7.3324 -3.7546 1.6452
-6.9444 -4.3785 1.6395
-6.5070 -4.9657 1.6347
-6.0092 -5.4998 1.6269
-5.3448 -5.8496 1.5825
-1.0460 -1.3730 0.3447
-0.9160 -1.4554 0.3434
-0.7800 -1.5265 0.3424
-0.6391 -1.5858 0.3414
-0.4941 -1.6330 0.3407
-0.3459 -1.6679 0.3402
-0.1956 -1.6904 0.3399
-0.0440 -1.7004 0.3397
0.1078 -1.6978 0.3397
0.2590 -1.6826 0.3400
0.4085 -1.6549 0.3404
0.5555 -1.6148 0.3410
0.6989 -1.5625 0.3418
0.8379 -1.4983 0.3428
0.9715 -1.4224 0.3440
5.5995 -6.8047 1.7599
6.2098 -6.3043 1.7673
6.7782 -5.7515 1.7754
7.3002 -5.1496 1.7842
7.7714 -4.5018 1.7937
8.1878 -3.8121 1.8038
8.5453 -3.0847 1.8144
8.8403 -2.3245 1.8255
9.0694 -1.5364 1.8371
9.2295 -0.7261 1.8490
9.3182 0.1005 1.8611
9.3332 0.9373 1.8733
9.2729 1.7776 1.8856
9.1365 2.6145 1.8979
8.9235 3.4406 1.9100
8.6343 4.2490 1.9219
8.2701 5.0320 1.9334
7.8326 5.7822 1.9444
7.3248 6.4923 1.9548
6.7500 7.1551 1.9645
6.1126 7.7638 1.9734
1.0695 1.6408 0.3912
0.9223 1.7361 0.3926
0.9541 1.6403 0.3911
0.8066 1.7245 0.3924
0.6514 1.7945 0.3935
0.4898 1.8494 0.3943
0.3234 1.8885 0.3949
0.1538 1.9115 0.3953
-0.0173 1.9181 0.3954
-0.1882 1.9081 0.3952
-0.3573 1.8818 0.3948
-0.5228 1.8394 0.3942
-0.6832 1.7813 0.3933
-0.8370 1.7084 0.3921
-0.9826 1.6214 0.3908
-5.2061 7.0783 1.8112
-5.7922 6.5581 1.8036
-6.3246 5.9876 1.7952
-6.7900 5.3654 1.7838
-7.1875 4.7031 1.7705
-7.1191 3.7984 1.6632
-7.7926 3.3022 1.7445
-7.9983 2.5754 1.7320
-8.1390 1.8389 1.7200
-8.2150 1.0983 1.7084
-8.2272 0.3589 1.6975
-8.1765 -0.3740 1.6872
-8.0646 -1.0955 1.6776
-7.8931 -1.8009 1.6688
-7.6642 -2.4857 1.6608
-6.8890 -2.9364 1.5436
-7.0436 -3.7772 1.6475
-6.6572 -4.3762 1.6422
-6.2139 -4.9315 1.6352
-5.7231 -5.4410 1.6277
-1.1099 -1.2620 0.3464
-0.9890 -1.3506 0.3451
-0.8616 -1.4285 0.3439
-0.7286 -1.4952 0.3428
-0.5909 -1.5504 0.3420
-0.4494 -1.5938 0.3413
-0.3050 -1.6252 0.3409
-0.1587 -1.6446 0.3406
-0.0114 -1.6516 0.3405
0.1360 -1.6465 0.3405
0.2825 -1.6291 0.3408
0.4272 -1.5996 0.3413
0.5693 -1.5580 0.3419
0.7076 -1.5047 0.3427
0.8415 -1.4398 0.3437
0.9698 -1.3636 0.3449
5.5633 -6.5050 1.7643
6.1465 -6.0076 1.7716
6.6879 -5.4601 1.7796
7.1832 -4.8655 1.7883
7.6281 -4.2275 1.7977
8.0188 -3.5498 1.8076
8.3514 -2.8368 1.8180
8.6225 -2.0931 1.8289
8.8288 -1.3239 1.8402
8.9677 -0.5345 1.8518
9.0367 0.2691 1.8635
9.0341 1.0809 1.8754
8.9582 1.8942 1.8874
8.8085 2.7024 1.8992
8.5849 3.4986 1.9109
8.2877 4.2757 1.9223
7.9185 5.0264 1.9333
7.4791 5.7437 1.9438
6.9725 6.4204 1.9537
6.4022 7.0498 1.9630
5.7726 7.6254 1.9714
1.0045 1.6070 0.3906
0.8602 1.6961 0.3920
0.7076 1.7712 0.3932
0.5481 1.8316 0.3941
0.3832 1.8764 0.3948
0.2146 1.9052 0.3952
0.0438 1.9176 0.3954
-0.1273 1.9136 0.3953
-0.2973 1.8931 0.3950
-0.4642 1.8563 0.3944
-0.6267 1.8038 0.3936
-0.7829 1.7361 0.3926
-0.9316 1.6540 0.3913
-1.0714 1.5584 0.3898
-5.5889 6.7499 1.8064
-6.1410 6.1966 1.7983
-6.6332 5.5940 1.7886
-7.0528 4.9430 1.7753
-7.4100 4.2624 1.7621
-7.7035 3.5581 1.7491
-7.9323 2.8362 1.7364
-8.0962 2.1026 1.7242
-8.1953 1.3628 1.7125
-8.2301 0.6224 1.7013
-8.2017 -0.1134 1.6908
-8.1115 -0.8395 1.6809
-7.9610 -1.5512 1.6718
-7.7524 -2.2439 1.6636
-7.4878 -2.9132 1.6561
-7.1235 -3.5324 1.6390
-6.8007 -4.1663 1.6439
-6.3789 -4.7391 1.6380
-5.9029 -5.2642 1.6303
-5.3454 -5.7009 1.6109
-1.0329 -1.3202 0.3455
-0.9078 -1.4020 0.3443
-0.7767 -1.4727 0.3432
-0.6405 -1.5320 0.3423
-0.5003 -1.5797 0.3415
-0.3568 -1.6154 0.3410
-0.2111 -1.6391 0.3406
-0.0641 -1.6505 0.3405
0.0834 -1.6497 0.3405
0.2303 -1.6367 0.3407
0.3758 -1.6115 0.3411
0.5189 -1.5742 0.3417
0.6587 -1.5251 0.3424
0.7943 -1.4642 0.3434
0.9247 -1.3921 0.3445
1.0491 -1.3089 0.3458
5.9429 -6.1910 1.7689
6.4997 -5.6611 1.7767
7.0120 -5.0829 1.7851
7.4753 -4.4600 1.7943
7.8858 -3.7960 1.8040
8.2395 -3.0950 1.8143
8.5330 -2.3618 1.8250
8.7628 -1.6011 1.8361
8.9261 -0.8182 1.8476
9.0203 -0.0190 1.8593
9.0433 0.7906 1.8712
8.9937 1.6041 1.8831
8.8705 2.4150 1.8950
8.6732 3.2163 1.9067
8.4021 4.0010 1.9182
8.0584 4.7619 1.9294
7.6438 5.4919 1.9401
7.1608 6.1839 1.9503
6.6128 6.8310 1.9597
6.0039 7.4265 1.9685
1.0538 1.5720 0.3901
0.9127 1.6658 0.3915
0.7629 1.7460 0.3928
0.6057 1.8118 0.3938
0.4426 1.8622 0.3945
0.2751 1.8968 0.3951
0.1049 1.9151 0.3953
-0.0663 1.9169 0.3954
-0.2369 1.9023 0.3951
-0.4051 1.8713 0.3947
-0.5693 1.8243 0.3939
-0.7280 1.7620 0.3930
-0.8795 1.6849 0.3918
-1.0226 1.5940 0.3904
-5.3790 6.9350 1.8091
-5.9502 6.3998 1.8012
-6.4664 5.8159 1.7927
-6.9101 5.1791 1.7800
-6.8604 4.2428 1.6627
-7.6061 3.8118 1.7537
-7.8581 3.0956 1.7409
-8.0452 2.3654 1.7285
-8.1673 1.6272 1.7166
-8.2250 0.8864 1.7052
-8.2190 0.1484 1.6944
-8.1507 -0.5818 1.6843
-8.0215 -1.2991 1.6750
-7.8334 -1.9991 1.6664
-7.5885 -2.6772 1.6587
-6.8067 -3.1091 1.5425
-6.9380 -3.9520 1.6459
-6.5379 -4.5411 1.6408
-6.0777 -5.0818 1.6330
-5.5549 -5.5581 1.6198
-1.0760 -1.2884 0.3460
-0.9532 -1.3740 0.3447
-0.8241 -1.4487 0.3436
-0.6896 -1.5122 0.3426
-0.5508 -1.5640 0.3418
-0.4083 -1.6040 0.3412
-0.2633 -1.6320 0.3407
-0.1166 -1.6478 0.3405
0.0308 -1.6514 0.3405
0.1780 -1.6428 0.3406
0.3241 -1.6219 0.3409
0.4682 -1.5889 0.3414
0.6093 -1.5440 0.3421
0.7464 -1.4873 0.3430
0.8788 -1.4191 0.3441
1.0054 -1.3398 0.3453
5.7341 -6.3679 1.7663
6.3058 -5.8559 1.7738
6.8345 -5.2946 1.7821
7.3158 -4.6872 1.7909
7.7456 -4.0374 1.8005
8.1200 -3.3492 1.8105
8.4354 -2.6269 1.8211
8.6882 -1.8754 1.8321
8.8756 -1.0999 1.8435
8.9947 -0.3058 1.8551
9.0434 0.5008 1.8669
9.0199 1.3137 1.8789
8.9230 2.1263 1.8908
8.7521 2.9318 1.9026
8.5073 3.7232 1.9142
8.1894 4.4935 1.9255
7.7998 5.2354 1.9363
7.3409 5.9417 1.9467
6.8156 6.6056 1.9564
6.2279 7.2203 1.9655
5.5823 7.7793 1.9737
0.9642 1.6338 0.3910
0.8173 1.7190 0.3924
0.6626 1.7900 0.3934
0.5014 1.8460 0.3943
0.3353 1.8863 0.3949
0.1659 1.9104 0.3953
-0.0052 1.9182 0.3954
-0.1762 1.9094 0.3952
-0.3454 1.8842 0.3949
-0.5112 1.8429 0.3942
-0.6721 1.7859 0.3933
-0.8263 1.7140 0.3922
-0.9726 1.6280 0.3909
-5.1626 7.1131 1.8117
-5.7524 6.5967 1.8041
-6.2887 6.0295 1.7958
-6.7595 5.4111 1.7848
-7.1614 4.7510 1.7715
-7.0997 3.8459 1.6644
-7.7756 3.3531 1.7454
-7.9859 2.6273 1.7329
-8.1312 1.8913 1.7208
-8.2118 1.1508 1.7092
-8.2284 0.4112 1.6982
-8.1822 -0.3224 1.6879
-8.0745 -1.0448 1.6782
-7.9072 -1.7515 1.6694
-7.6823 -2.4379 1.6613
-7.4021 -3.0999 1.6542
-7.0692 -3.7335 1.6479
-6.6862 -4.3349 1.6425
-6.2471 -4.8937 1.6358
-5.7592 -5.4064 1.6282
-5.2319 -5.8737 1.6214
-0.9978 -1.3447 0.3451
-0.8708 -1.4233 0.3439
-0.7382 -1.4908 0.3429
-0.6008 -1.5468 0.3420
-0.4595 -1.5911 0.3414
-0.3153 -1.6234 0.3409
-0.1691 -1.6436 0.3406
-0.0219 -1.6515 0.3405
0.1255 -1.6473 0.3405
0.2722 -1.6307 0.3408
0.4171 -1.6021 0.3412
0.5593 -1.5614 0.3419
0.6980 -1.5088 0.3427
0.8322 -1.4447 0.3437
0.9609 -1.3694 0.3448
5.5205 -6.5383 1.7638
6.1065 -6.0445 1.7711
6.6510 -5.5004 1.7790
7.1497 -4.9091 1.7877
7.5983 -4.2740 1.7970
7.9930 -3.5990 1.8069
8.3298 -2.8884 1.8173
8.6053 -2.1467 1.8281
8.8164 -1.3791 1.8394
8.9601 -0.5910 1.8509
9.0342 0.2118 1.8627
9.0366 1.0232 1.8746
8.9660 1.8367 1.8865
8.8216 2.6455 1.8984
8.6031 3.4428 1.9101
8.3112 4.2214 1.9215
7.9469 4.9742 1.9325
7.5125 5.6941 1.9431
7.0105 6.3740 1.9530
6.4446 7.0069 1.9623
5.8191 7.5865 1.9708
1.0144 1.6002 0.3905
0.8707 1.6902 0.3919
0.7186 1.7664 0.3931
0.5596 1.8278 0.3940
0.3950 1.8737 0.3947
0.2266 1.9037 0.3952
0.0560 1.9173 0.3954
-0.1152 1.9144 0.3953
-0.2853 1.8951 0.3950
-0.4525 1.8595 0.3945
-0.6153 1.8080 0.3937
-0.7721 1.7414 0.3926
-0.9214 1.6603 0.3914
-1.0618 1.5656 0.3899
-5.5477 6.7872 1.8069
-6.1037 6.2374 1.7989
-6.6012 5.6388 1.7895
-7.0251 4.9901 1.7762
-7.3868 4.3114 1.7630
-7.6848 3.6086 1.7500
-7.9182 2.8878 1.7373
-8.0867 2.1548 1.7251
-8.1904 1.4153 1.7133
-8.2297 0.6747 1.7021
-8.2058 -0.0616 1.6915
-8.1199 -0.7885 1.6816
-7.9736 -1.5014 1.6725
-7.7690 -2.1955 1.6641
-7.5083 -2.8667 1.6566
-7.1442 -3.4865 1.6386
-6.8284 -4.1241 1.6443
-6.4110 -4.7003 1.6386
-5.9381 -5.2285 1.6308
-5.3486 -5.6324 1.6010
-1.0416 -1.3140 0.3456
-0.9168 -1.3965 0.3444
-0.7861 -1.4680 0.3433
-0.6503 -1.5282 0.3423
-0.5103 -1.5767 0.3416
-0.3671 -1.6133 0.3410
-0.2215 -1.6378 0.3407
-0.0745 -1.6501 0.3405
0.0730 -1.6502 0.3405
0.2200 -1.6380 0.3407
0.3656 -1.6137 0.3411
0.5089 -1.5773 0.3416
0.6490 -1.5289 0.3424
0.7848 -1.4689 0.3433
0.9157 -1.3975 0.3444
1.0405 -1.3152 0.3457
5.9019 -6.2267 1.7684
6.4617 -5.7002 1.7761
6.9772 -5.1254 1.7845
7.4442 -4.5055 1.7936
7.8586 -3.8443 1.8033
8.2164 -3.1458 1.8135
8.5142 -2.4147 1.8242
8.7486 -1.6557 1.8353
8.9167 -0.8743 1.8468
9.0159 -0.0760 1.8585
9.0441 0.7330 1.8703
8.9997 1.5465 1.8823
8.8816 2.3577 1.8942
8.6896 3.1600 1.9059
8.4238 3.9461 1.9174
8.0852 4.7089 1.9286
7.6755 5.4414 1.9394
7.1972 6.1363 1.9496
6.6537 6.7868 1.9591
6.0489 7.3862 1.9679
1.0634 1.5648 0.3900
0.9230 1.6596 0.3914
0.7738 1.7408 0.3927
0.6171 1.8076 0.3937
0.4543 1.8591 0.3945
0.2871 1.8949 0.3950
0.1170 1.9143 0.3953
-0.0542 1.9173 0.3954
-0.2248 1.9038 0.3952
-0.3933 1.8740 0.3947
-0.5578 1.8282 0.3940
-0.7169 1.7669 0.3930
-0.8690 1.6908 0.3919
-1.0128 1.6009 0.3905
-5.3365 6.9709 1.8096
-5.9115 6.4394 1.8018
-6.4317 5.8587 1.7933
-6.8808 5.2254 1.7810
-6.8368 4.2882 1.6635
-7.5858 3.8619 1.7546
-7.8424 3.1469 1.7418
-8.0341 2.4175 1.7294
-8.1608 1.6796 1.7174
-8.2230 0.9388 1.7060
-8.2215 0.2004 1.6952
-8.1576 -0.5304 1.6850
-8.0326 -1.2488 1.6756
-7.8486 -1.9501 1.6670
-7.6077 -2.6300 1.6592
-6.7895 -3.0495 1.5342
-6.9646 -3.9090 1.6462
-6.5678 -4.5005 1.6411
-6.1118 -5.0449 1.6335
-5.6122 -5.5448 1.6262
-1.0844 -1.2820 0.3461
-0.9621 -1.3683 0.3448
-0.8334 -1.4438 0.3436
-0.6993 -1.5080 0.3426
-0.5607 -1.5607 0.3418
-0.4185 -1.6016 0.3412
-0.2737 -1.6304 0.3408
-0.1271 -1.6471 0.3405
0.0203 -1.6516 0.3405
0.1676 -1.6438 0.3406
0.3138 -1.6238 0.3409
0.4581 -1.5916 0.3414
0.5994 -1.5475 0.3421
0.7369 -1.4917 0.3429
0.8696 -1.4243 0.3440
0.9967 -1.3458 0.3452
5.6921 -6.4023 1.7658
6.2667 -5.8939 1.7733
6.7986 -5.3359 1.7814
7.2833 -4.7317 1.7903
7.7169 -4.0848 1.7998
8.0954 -3.3991 1.8098
8.4150 -2.6791 1.8204
8.6724 -1.9295 1.8313
8.8645 -1.1555 1.8427
8.9886 -0.3625 1.8543
9.0423 0.4434 1.8661
9.0239 1.2560 1.8780
8.9323 2.0688 1.8899
8.7666 2.8751 1.9017
8.5271 3.6678 1.9134
8.2143 4.4397 1.9247
7.8297 5.1839 1.9356
7.3756 5.8930 1.9460
6.8549 6.5602 1.9558
6.2715 7.1785 1.9648
5.6299 7.7416 1.9731
0.9742 1.6273 0.3909
0.8280 1.7135 0.3923
0.6738 1.7855 0.3934
0.5130 1.8425 0.3942
0.3472 1.8840 0.3949
0.1779 1.9093 0.3953
0.0070 1.9182 0.3954
-0.1641 1.9106 0.3953
-0.3335 1.8865 0.3949
-0.4996 1.8463 0.3943
-0.6609 1.7905 0.3934
-0.8156 1.7196 0.3923
-0.9625 1.6345 0.3910
-5.1190 7.1476 1.8122
-5.7123 6.6350 1.8047
-6.2526 6.0712 1.7964
-6.7287 5.4566 1.7857
-7.1350 4.7988 1.7724
-7.1277 3.9196 1.6767
-7.7582 3.4040 1.7463
-7.9731 2.6791 1.7338
-8.1230 1.9436 1.7216
-8.2082 1.2032 1.7100
-8.2293 0.4634 1.6990
-8.1875 -0.2707 1.6886
-8.0841 -0.9941 1.6789
-7.9209 -1.7021 1.6700
-7.7001 -2.3901 1.6619
-7.4237 -3.0539 1.6546
-7.0944 -3.6896 1.6483
-6.7149 -4.2934 1.6429
-6.2801 -4.8558 1.6363
-5.7951 -5.3715 1.6287
-5.2705 -5.8421 1.6218
-1.0065 -1.3387 0.3452
-0.8800 -1.4181 0.3440
-0.7478 -1.4864 0.3430
-0.6107 -1.5433 0.3421
-0.4696 -1.5884 0.3414
-0.3256 -1.6215 0.3409
-0.1795 -1.6426 0.3406
-0.0323 -1.6514 0.3405
0.1151 -1.6480 0.3405
0.2618 -1.6323 0.3408
0.4069 -1.6045 0.3412
0.5493 -1.5646 0.3418
0.6883 -1.5129 0.3426
0.8228 -1.4497 0.3436
0.9520 -1.3751 0.3447
5.4775 -6.5712 1.7634
6.0663 -6.0812 1.7705
6.6139 -5.5406 1.7785
7.1160 -4.9525 1.7871
7.5683 -4.3204 1.7963
7.9669 -3.6481 1.8062
8.3079 -2.9398 1.8165
8.5879 -2.2002 1.8274
8.8036 -1.4342 1.8386
8.9522 -0.6474 1.8501
9.0313 0.1546 1.8619
9.0388 0.9656 1.8737
8.9735 1.7791 1.8857
8.8343 2.5885 1.8975
8.6210 3.3868 1.9092
8.3342 4.1670 1.9207
7.9751 4.9219 1.9317
7.5455 5.6443 1.9423
7.0482 6.3273 1.9524
6.4867 6.9638 1.9617
5.8653 7.5474 1.9703
1.0242 1.5933 0.3904
0.8812 1.6843 0.3918
0.7297 1.7614 0.3930
0.5711 1.8239 0.3940
0.4068 1.8710 0.3947
0.2386 1.9021 0.3952
0.0681 1.9169 0.3954
-0.1031 1.9152 0.3953
-0.2733 1.8970 0.3951
-0.4408 1.8625 0.3945
-0.6040 1.8122 0.3937
-0.7612 1.7466 0.3927
-0.9111 1.6665 0.3915
-1.0522 1.5727 0.3900
-5.5063 6.8242 1.8075
-6.0661 6.2780 1.7995
-6.5689 5.6835 1.7905
-6.9971 5.0372 1.7771
-7.3632 4.3604 1.7639
-7.6658 3.6591 1.7509
-7.9038 2.9394 1.7382
-8.0769 2.2070 1.7259
-8.1852 1.4677 1.7141
-8.2290 0.7271 1.7028
-8.2095 -0.0097 1.6922
-8.1280 -0.7374 1.6823
-7.9859 -1.4514 1.6731
-7.7854 -2.1470 1.6647
-7.5286 -2.8200 1.6571
-7.2179 -3.4662 1.6505
-6.8559 -4.0818 1.6447
-6.4429 -4.6612 1.6392
-5.9730 -5.1925 1.6314
-5.3719 -5.5858 1.5974
-1.0501 -1.3077 0.3457
-0.9259 -1.3910 0.3444
-0.7956 -1.4633 0.3433
-0.6601 -1.5243 0.3424
-0.5204 -1.5736 0.3416
-0.3773 -1.6111 0.3411
-0.2319 -1.6364 0.3407
-0.0849 -1.6496 0.3405
0.0625 -1.6506 0.3405
0.2096 -1.6393 0.3407
0.3553 -1.6158 0.3410
0.4988 -1.5802 0.3416
0.6392 -1.5327 0.3423
0.7754 -1.4736 0.3432
0.9066 -1.4030 0.3443
1.0318 -1.3213 0.3456
5.8606 -6.2621 1.7679
6.4234 -5.7392 1.7755
6.9423 -5.1676 1.7839
7.4128 -4.5508 1.7929
7.8310 -3.8924 1.8026
8.1930 -3.1964 1.8128
8.4952 -2.4674 1.8235
8.7342 -1.7103 1.8345
8.9071 -0.9303 1.8460
9.0112 -0.1330 1.8576
9.0445 0.6755 1.8695
9.0052 1.4888 1.8814
8.8925 2.3005 1.8933
8.7056 3.1036 1.9051
8.4450 3.8911 1.9166
8.1115 4.6558 1.9278
7.7068 5.3906 1.9386
7.2333 6.0885 1.9489
6.6942 6.7423 1.9584
6.0937 7.3455 1.9673
1.0730 1.5576 0.3899
0.9333 1.6533 0.3913
0.7846 1.7355 0.3926
0.6284 1.8034 0.3936
0.4660 1.8560 0.3944
0.2990 1.8929 0.3950
0.1291 1.9135 0.3953
-0.0420 1.9177 0.3954
-0.2128 1.9053 0.3952
-0.3814 1.8766 0.3947
-0.5463 1.8319 0.3940
-0.7059 1.7717 0.3931
-0.8585 1.6967 0.3920
-1.0029 1.6077 0.3906
-5.2939 7.0065 1.8101
-5.8725 6.4787 1.8024
-6.3967 5.9014 1.7939
-6.8512 5.2717 1.7819
-6.8171 4.3362 1.6654
-7.2041 3.7251 1.6717
-7.8263 3.1980 1.7427
-8.0226 2.4695 1.7302
-8.1540 1.7321 1.7182
-8.2207 0.9913 1.7068
-8.2237 0.2526 1.6959
-8.1641 -0.4790 1.6857
-8.0435 -1.1985 1.6763
-7.8636 -1.9011 1.6676
-7.6266 -2.5826 1.6597
-6.8077 -3.0061 1.5340
-6.9908 -3.8658 1.6466
-6.5974 -4.4598 1.6415
-6.1456 -5.0078 1.6341
-5.6488 -5.5109 1.6267
-1.0928 -1.2754 0.3462
-0.9710 -1.3625 0.3449
-0.8427 -1.4388 0.3437
-0.7090 -1.5039 0.3427
-0.5707 -1.5574 0.3419
-0.4287 -1.5991 0.3412
-0.2840 -1.6288 0.3408
-0.1375 -1.6463 0.3405
0.0099 -1.6517 0.3405
0.1572 -1.6447 0.3406
0.3035 -1.6256 0.3409
0.4479 -1.5943 0.3414
0.5895 -1.5510 0.3420
0.7273 -1.4960 0.3429
0.8604 -1.4294 0.3439
0.9879 -1.3517 0.3451
5.6499 -6.4363 1.7653
6.2274 -5.9316 1.7727
6.7624 -5.3770 1.7808
7.2506 -4.7760 1.7896
7.6880 -4.1320 1.7991
8.0705 -3.4489 1.8091
8.3944 -2.7311 1.8196
8.6563 -1.9835 1.8305
8.8531 -1.2110 1.8419
8.9821 -0.4192 1.8535
9.0408 0.3860 1.8653
9.0276 1.1984 1.8772
8.9412 2.0114 1.8891
8.7808 2.8183 1.9009
8.5465 3.6122 1.9125
8.2388 4.3859 1.9239
7.8593 5.1322 1.9348
7.4100 5.8441 1.9453
6.8939 6.5144 1.9551
6.3148 7.1364 1.9642
5.6771 7.7037 1.9725
0.9843 1.6207 0.3908
0.8387 1.7078 0.3922
0.6849 1.7809 0.3933
0.5246 1.8390 0.3942
0.3591 1.8816 0.3948
0.1900 1.9080 0.3952
0.0191 1.9181 0.3954
-0.1520 1.9116 0.3953
-0.3216 1.8888 0.3949
-0.4880 1.8497 0.3943
-0.6496 1.7949 0.3935
-0.8049 1.7251 0.3924
-0.9524 1.6410 0.3911
-5.0750 7.1819 1.8127
-5.6720 6.6731 1.8052
-6.2161 6.1127 1.7970
-6.6976 5.5020 1.7867
-7.1082 4.8464 1.7733
-7.4563 4.1620 1.7602
-7.7405 3.4548 1.7472
-7.9600 2.7309 1.7346
-8.1145 1.9960 1.7225
-8.2043 1.2557 1.7108
-8.2299 0.5157 1.6997
-8.1925 -0.2190 1.6893
-8.0934 -0.9433 1.6796
-7.9344 -1.6525 1.6706
-7.7176 -2.3421 1.6624
-7.4451 -3.0078 1.6551
-7.1194 -3.6456 1.6487
-6.7434 -4.2518 1.6432
-6.3128 -4.8176 1.6369
-5.8308 -5.3365 1.6293
-5.3088 -5.8103 1.6223
-1.0153 -1.3327 0.3453
-0.8892 -1.4129 0.3441
-0.7573 -1.4820 0.3430
-0.6205 -1.5396 0.3422
-0.4797 -1.5856 0.3415
-0.3359 -1.6196 0.3409
-0.1899 -1.6415 0.3406
-0.0428 -1.6512 0.3405
0.1047 -1.6486 0.3405
0.2515 -1.6338 0.3407
0.3967 -1.6069 0.3412
0.5393 -1.5678 0.3418
0.6786 -1.5170 0.3425
0.8135 -1.4545 0.3435
0.9431 -1.3807 0.3447
1.0665 -1.2960 0.3460
6.0259 -6.1176 1.7700
6.5766 -5.5805 1.7779
7.0820 -4.9956 1.7864
7.5380 -4.3665 1.7956
7.9405 -3.6969 1.8054
8.2857 -2.9910 1.8158
8.5702 -2.2535 1.8266
8.7905 -1.4893 1.8378
8.9440 -0.7036 1.8493
9.0280 0.0975 1.8610
9.0407 0.9080 1.8729
