ply
format ascii 1.0
element vertex 2174
property float32 x
property float32 y
property float32 z
end_header
-0.8499 -0.3143 0.3640
-0.8174 -0.3884 0.3635
-0.7786 -0.4591 0.3630
-0.7337 -0.5261 0.3626
-0.6831 -0.5888 0.3622
-0.6272 -0.6467 0.3618
-0.5665 -0.6994 0.3615
-0.5015 -0.7465 0.3612
-0.4326 -0.7877 0.3609
-0.3604 -0.8227 0.3607
-0.2854 -0.8511 0.3605
-0.2083 -0.8728 0.3604
-0.1296 -0.8877 0.3603
-0.0499 -0.8956 0.3603
0.0301 -0.8965 0.3603
0.1100 -0.8903 0.3603
0.1890 -0.8772 0.3604
0.2666 -0.8572 0.3605
0.3421 -0.8304 0.3607
0.4150 -0.7970 0.3609
0.4848 -0.7574 0.3612
0.5509 -0.7117 0.3615
0.6127 -0.6604 0.3618
0.6698 -0.6037 0.3622
0.7218 -0.5421 0.3626
0.7682 -0.4762 0.3630
0.8086 -0.4063 0.3634
0.8427 -0.3330 0.3639
0.8702 -0.2568 0.3644
0.8908 -0.1785 0.3649
0.9045 -0.0985 0.3654
0.9109 -0.0174 0.3659
0.9102 0.0640 0.3665
0.6047 0.6746 0.3704
0.5426 0.7265 0.3707
0.4760 0.7726 0.3710
0.4055 0.8125 0.3712
0.3316 0.8459 0.3714
0.2550 0.8725 0.3716
0.1762 0.8921 0.3717
0.0960 0.9044 0.3718
0.0149 0.9094 0.3718
-0.0662 0.9071 0.3718
-0.1468 0.8974 0.3717
-0.2262 0.8805 0.3716
-0.3037 0.8564 0.3715
-0.3787 0.8255 0.3713
-0.4505 0.7879 0.3710
-0.5185 0.7440 0.3708
-0.5823 0.6942 0.3704
-0.6413 0.6389 0.3701
-0.6950 0.5786 0.3697
-0.7430 0.5137 0.3693
-0.7849 0.4449 0.3688
-0.8204 0.3726 0.3684
-0.8492 0.2976 0.3679
-0.8712 0.2204 0.3674
-0.8862 0.1416 0.3669
-0.8940 0.0619 0.3664
-0.8947 -0.0180 0.3659
-0.8883 -0.0976 0.3653
-0.8749 -0.1762 0.3648
-0.8545 -0.2532 0.3644
-0.8275 -0.3279 0.3639
-0.7939 -0.3999 0.3634
-0.7542 -0.4686 0.3630
-0.7086 -0.5333 0.3626
-0.6575 -0.5938 0.3622
-0.6013 -0.6494 0.3618
-0.5405 -0.6998 0.3615
-0.4756 -0.7447 0.3612
-0.4070 -0.7836 0.3610
-0.3353 -0.8163 0.3608
-0.2611 -0.8426 0.3606
-0.1848 -0.8622 0.3605
-0.1072 -0.8750 0.3604
-0.0287 -0.8810 0.3604
0.0500 -0.8801 0.3604
0.1283 -0.8723 0.3604
0.2056 -0.8576 0.3605
0.2814 -0.8362 0.3607
0.3550 -0.8081 0.3608
0.4259 -0.7737 0.3611
0.4936 -0.7332 0.3613
0.5575 -0.6868 0.3616
0.6171 -0.6350 0.3620
0.6719 -0.5780 0.3623
0.7216 -0.5163 0.3627
0.7656 -0.4505 0.3632
0.8037 -0.3809 0.3636
0.8356 -0.3081 0.3641
0.8609 -0.2326 0.3646
0.8794 -0.1551 0.3651
0.8909 -0.0762 0.3656
0.8954 0.0036 0.3661
0.8928 0.0835 0.3666
0.8830 0.1630 0.3671
0.8661 0.2415 0.3676
0.8423 0.3182 0.3681
0.8116 0.3925 0.3686
0.7743 0.4639 0.3690
0.7307 0.5317 0.3694
0.6811 0.5954 0.3698
0.6260 0.6545 0.3702
0.5656 0.7083 0.3706
0.5006 0.7566 0.3709
0.4315 0.7988 0.3711
0.3587 0.8346 0.3714
0.2830 0.8637 0.3716
0.2049 0.8858 0.3717
0.1251 0.9008 0.3718
0.0443 0.9085 0.3718
-0.0369 0.9088 0.3718
-0.1178 0.9018 0.3718
-0.1976 0.8874 0.3717
-0.2759 0.8659 0.3715
-0.3518 0.8375 0.3714
-0.4249 0.8023 0.3711
-0.4944 0.7606 0.3709
-0.5598 0.7129 0.3706
-0.6205 0.6595 0.3702
-0.6762 0.6010 0.3698
-0.7263 0.5377 0.3694
-0.7704 0.4702 0.3690
-0.8083 0.3991 0.3685
-0.8396 0.3250 0.3681
-0.8641 0.2485 0.3676
-0.8816 0.1703 0.3671
-0.8920 0.0908 0.3666
-0.8953 0.0109 0.3660
-0.8915 -0.0689 0.3655
-0.8806 -0.1479 0.3650
-0.8627 -0.2255 0.3645
-0.8380 -0.3012 0.3640
-0.8068 -0.3742 0.3636
-0.7693 -0.4441 0.3631
-0.7257 -0.5104 0.3627
-0.6766 -0.5724 0.3623
-0.6222 -0.6299 0.3619
-0.5631 -0.6822 0.3616
-0.4996 -0.7291 0.3613
-0.4322 -0.7702 0.3611
-0.3616 -0.8052 0.3608
-0.2882 -0.8338 0.3607
-0.2126 -0.8559 0.3605
-0.1354 -0.8712 0.3604
-0.0572 -0.8797 0.3604
0.0215 -0.8812 0.3604
0.1000 -0.8759 0.3604
0.1778 -0.8637 0.3605
0.2542 -0.8447 0.3606
0.3286 -0.8190 0.3608
0.4006 -0.7869 0.3610
0.4695 -0.7486 0.3612
0.5348 -0.7043 0.3615
0.5960 -0.6544 0.3618
0.6526 -0.5992 0.3622
0.7042 -0.5392 0.3626
0.7504 -0.4748 0.3630
0.7907 -0.4065 0.3634
0.8248 -0.3347 0.3639
0.8525 -0.2602 0.3644
0.8735 -0.1834 0.3649
0.8876 -0.1049 0.3654
0.8946 -0.0254 0.3659
0.8946 0.0546 0.3664
0.8874 0.1343 0.3669
0.8731 0.2132 0.3674
0.8517 0.2906 0.3679
0.8235 0.3659 0.3684
0.7886 0.4384 0.3688
0.7472 0.5076 0.3693
0.6998 0.5729 0.3697
0.6466 0.6337 0.3701
0.5880 0.6895 0.3704
0.5247 0.7398 0.3708
0.4569 0.7842 0.3710
0.3854 0.8224 0.3713
0.3107 0.8539 0.3715
0.2334 0.8786 0.3716
0.1542 0.8962 0.3718
0.0737 0.9065 0.3718
-0.0075 0.9095 0.3718
-0.0885 0.9051 0.3718
-0.1689 0.8935 0.3717
-0.2478 0.8745 0.3716
-0.3247 0.8486 0.3714
-0.3988 0.8158 0.3712
-0.4696 0.7764 0.3710
-0.5366 0.7309 0.3707
-0.5991 0.6795 0.3703
-0.6567 0.6227 0.3700
-0.7088 0.5611 0.3696
-0.7552 0.4951 0.3691
-0.7953 0.4252 0.3687
-0.8290 0.3522 0.3682
-0.8560 0.2765 0.3677
-0.8761 0.1988 0.3672
-0.8891 0.1197 0.3667
-0.8949 0.0399 0.3662
-0.8937 -0.0400 0.3657
-0.8853 -0.1194 0.3652
-0.8699 -0.1976 0.3647
-0.8477 -0.2741 0.3642
-0.8188 -0.3481 0.3637
-0.7836 -0.4192 0.3633
-0.7422 -0.4868 0.3629
-0.6950 -0.5505 0.3625
-0.6425 -0.6096 0.3621
-0.5850 -0.6639 0.3617
-0.5230 -0.7128 0.3614
-0.4570 -0.7560 0.3611
-0.3875 -0.7932 0.3609
-0.3151 -0.8242 0.3607
-0.2402 -0.8486 0.3606
-0.1635 -0.8664 0.3605
-0.0856 -0.8774 0.3604
-0.0070 -0.8815 0.3604
0.0716 -0.8786 0.3604
0.1497 -0.8689 0.3604
0.2267 -0.8523 0.3606
0.3019 -0.8291 0.3607
0.3749 -0.7993 0.3609
0.4449 -0.7632 0.3611
0.5116 -0.7210 0.3614
0.5744 -0.6731 0.3617
0.6327 -0.6197 0.3621
0.6861 -0.5614 0.3624
0.7343 -0.4986 0.3628
0.7768 -0.4316 0.3633
0.8132 -0.3611 0.3637
0.8432 -0.2875 0.3642
0.8667 -0.2114 0.3647
0.8833 -0.1335 0.3652
0.8929 -0.0543 0.3657
0.8954 0.0256 0.3662
0.8908 0.1055 0.3667
0.8791 0.1848 0.3672
0.8603 0.2628 0.3677
0.8345 0.3389 0.3682
0.8020 0.4125 0.3687
0.7629 0.4830 0.3691
0.7176 0.5497 0.3696
0.6665 0.6122 0.3700
0.6098 0.6699 0.3703
0.5481 0.7222 0.3707
0.4819 0.7688 0.3710
0.4117 0.8093 0.3712
0.3381 0.8433 0.3714
0.2617 0.8705 0.3716
0.1831 0.8907 0.3717
0.1029 0.9036 0.3718
0.0219 0.9093 0.3718
-0.0592 0.9076 0.3718
-0.1399 0.8985 0.3718
-0.2194 0.8822 0.3716
-0.2971 0.8588 0.3715
-0.3723 0.8284 0.3713
-0.4444 0.7914 0.3711
-0.5128 0.7481 0.3708
-0.5770 0.6987 0.3705
-0.6364 0.6439 0.3701
-0.6906 0.5840 0.3697
-0.7391 0.5195 0.3693
-0.7815 0.4509 0.3689
-0.8176 0.3790 0.3684
-0.8470 0.3042 0.3679
-0.8696 0.2271 0.3674
-0.8852 0.1484 0.3669
-0.8936 0.0688 0.3664
-0.8950 -0.0111 0.3659
-0.8892 -0.0908 0.3654
-0.8763 -0.1695 0.3649
-0.8565 -0.2466 0.3644
-0.8301 -0.3216 0.3639
-0.7971 -0.3938 0.3635
-0.7578 -0.4628 0.3630
-0.7127 -0.5279 0.3626
-0.6621 -0.5888 0.3622
-0.6064 -0.6448 0.3619
-0.5459 -0.6957 0.3615
-0.4814 -0.7410 0.3612
-0.4131 -0.7805 0.3610
-0.3416 -0.8137 0.3608
-0.2676 -0.8405 0.3606
-0.1915 -0.8608 0.3605
-0.1139 -0.8742 0.3604
-0.0355 -0.8808 0.3604
0.0432 -0.8805 0.3604
0.1216 -0.8732 0.3604
0.1990 -0.8591 0.3605
0.2749 -0.8383 0.3606
0.3487 -0.8108 0.3608
0.4199 -0.7770 0.3610
0.4879 -0.7369 0.3613
0.5521 -0.6911 0.3616
0.6121 -0.6397 0.3619
0.6674 -0.5831 0.3623
0.7175 -0.5218 0.3627
0.7621 -0.4563 0.3631
0.8007 -0.3870 0.3636
0.8331 -0.3144 0.3640
0.8590 -0.2392 0.3645
0.8781 -0.1619 0.3650
0.8902 -0.0830 0.3655
0.8953 -0.0033 0.3660
0.8933 0.0766 0.3665
0.8841 0.1562 0.3670
0.8679 0.2348 0.3675
0.8446 0.3116 0.3680
0.8145 0.3862 0.3685
0.7778 0.4579 0.3690
0.7347 0.5260 0.3694
0.6856 0.5901 0.3698
0.6309 0.6496 0.3702
0.5710 0.7039 0.3705
0.5064 0.7526 0.3708
0.4376 0.7954 0.3711
0.3651 0.8318 0.3713
0.2896 0.8614 0.3715
0.2117 0.8842 0.3717
0.1321 0.8998 0.3718
0.0513 0.9081 0.3718
-0.0299 0.9090 0.3718
-0.1108 0.9027 0.3718
-0.1908 0.8890 0.3717
-0.2692 0.8681 0.3716
-0.3454 0.8402 0.3714
-0.4187 0.8056 0.3711
-0.4885 0.7645 0.3709
-0.5543 0.7173 0.3706
-0.6155 0.6644 0.3702
-0.6716 0.6062 0.3699
-0.7222 0.5433 0.3695
-0.7669 0.4762 0.3690
-0.8053 0.4054 0.3686
-0.8371 0.3315 0.3681
-0.8622 0.2552 0.3676
-0.8804 0.1771 0.3671
-0.8914 0.0977 0.3666
-0.8953 0.0178 0.3661
-0.8921 -0.0620 0.3656
-0.8818 -0.1411 0.3651
-0.8645 -0.2189 0.3646
-0.8404 -0.2947 0.3641
-0.8097 -0.3680 0.3636
-0.7727 -0.4382 0.3632
-0.7297 -0.5048 0.3627
-0.6810 -0.5673 0.3623
-0.6271 -0.6251 0.3620
-0.5683 -0.6779 0.3616
-0.5052 -0.7253 0.3613
-0.4382 -0.7669 0.3611
-0.3678 -0.8024 0.3609
-0.2946 -0.8316 0.3607
-0.2192 -0.8542 0.3605
-0.1421 -0.8701 0.3604
-0.0640 -0.8792 0.3604
0.0147 -0.8814 0.3604
0.0933 -0.8766 0.3604
0.1711 -0.8650 0.3605
0.2476 -0.8466 0.3606
0.3223 -0.8215 0.3608
0.3945 -0.7899 0.3610
0.4637 -0.7521 0.3612
0.5293 -0.7083 0.3615
0.5909 -0.6589 0.3618
0.6479 -0.6041 0.3622
0.7000 -0.5445 0.3625
0.7466 -0.4805 0.3630
0.7874 -0.4125 0.3634
0.8221 -0.3411 0.3639
0.8504 -0.2667 0.3643
0.8719 -0.1901 0.3648
0.8866 -0.1117 0.3653
0.8943 -0.0323 0.3658
0.8949 0.0477 0.3663
0.8883 0.1275 0.3669
0.8746 0.2065 0.3674
0.8538 0.2840 0.3679
0.8262 0.3595 0.3683
0.7918 0.4323 0.3688
0.7510 0.5018 0.3693
0.7041 0.5674 0.3697
0.6514 0.6286 0.3701
0.5933 0.6848 0.3704
0.5303 0.7357 0.3707
0.4629 0.7806 0.3710
0.3917 0.8193 0.3713
0.3173 0.8515 0.3715
0.2402 0.8768 0.3716
0.1611 0.8950 0.3717
0.0806 0.9059 0.3718
-0.0005 0.9095 0.3718
-0.0816 0.9058 0.3718
-0.1620 0.8948 0.3717
-0.2411 0.8765 0.3716
-0.3181 0.8511 0.3714
-0.3925 0.8189 0.3712
-0.4637 0.7801 0.3710
-0.5310 0.7350 0.3707
-0.5939 0.6841 0.3704
-0.6519 0.6278 0.3700
-0.7045 0.5666 0.3696
-0.7514 0.5009 0.3692
-0.7921 0.4314 0.3687
-0.8264 0.3586 0.3683
-0.8539 0.2831 0.3678
-0.8746 0.2055 0.3673
-0.8882 0.1265 0.3668
-0.8947 0.0468 0.3663
-0.8941 -0.0332 0.3658
-0.8863 -0.1126 0.3652
-0.8715 -0.1909 0.3647
-0.8499 -0.2675 0.3643
-0.8216 -0.3418 0.3638
-0.7868 -0.4132 0.3633
-0.7460 -0.4812 0.3629
-0.6993 -0.5452 0.3625
-0.6472 -0.6047 0.3621
-0.5901 -0.6594 0.3618
-0.5285 -0.7088 0.3614
-0.4629 -0.7525 0.3612
-0.3936 -0.7903 0.3609
-0.3214 -0.8218 0.3607
-0.2468 -0.8468 0.3606
-0.1702 -0.8651 0.3605
-0.0924 -0.8767 0.3604
-0.0138 -0.8814 0.3604
0.0649 -0.8791 0.3604
0.1430 -0.8700 0.3604
0.2201 -0.8540 0.3605
0.2955 -0.8313 0.3607
0.3687 -0.8021 0.3609
0.4390 -0.7665 0.3611
0.5060 -0.7249 0.3614
0.5691 -0.6774 0.3617
0.6278 -0.6245 0.3620
0.6817 -0.5667 0.3624
0.7304 -0.5042 0.3628
0.7733 -0.4375 0.3632
0.8103 -0.3673 0.3637
0.8409 -0.2939 0.3642
0.8649 -0.2181 0.3646
0.8821 -0.1403 0.3651
0.8923 -0.0611 0.3657
0.8955 0.0187 0.3662
0.8915 0.0986 0.3667
0.8804 0.1780 0.3672
0.8622 0.2562 0.3677
0.8370 0.3325 0.3682
0.8050 0.4063 0.3686
0.7665 0.4771 0.3691
0.7218 0.5441 0.3695
0.6711 0.6070 0.3699
0.6149 0.6651 0.3703
0.5536 0.7179 0.3706
0.4878 0.7651 0.3709
0.4179 0.8061 0.3712
0.3446 0.8406 0.3714
0.2684 0.8684 0.3716
0.1899 0.8892 0.3717
0.1099 0.9028 0.3718
0.0289 0.9091 0.3718
-0.0522 0.9080 0.3718
-0.1330 0.8996 0.3718
-0.2126 0.8839 0.3717
-0.2905 0.8611 0.3715
-0.3659 0.8313 0.3713
-0.4383 0.7949 0.3711
-0.5071 0.7520 0.3708
-0.5717 0.7032 0.3705
-0.6315 0.6488 0.3701
-0.6861 0.5893 0.3698
-0.7351 0.5252 0.3693
-0.7781 0.4570 0.3689
-0.8147 0.3853 0.3684
-0.8448 0.3107 0.3680
-0.8679 0.2338 0.3675
-0.8841 0.1553 0.3670
-0.8932 0.0757 0.3665
-0.8951 -0.0042 0.3659
-0.8899 -0.0839 0.3654
-0.8777 -0.1627 0.3649
-0.8585 -0.2400 0.3644
-0.8326 -0.3152 0.3640
-0.8001 -0.3877 0.3635
-0.7615 -0.4570 0.3630
-0.7168 -0.5225 0.3626
-0.6667 -0.5837 0.3622
-0.6114 -0.6402 0.3619
-0.5513 -0.6915 0.3616
-0.4871 -0.7373 0.3613
-0.4191 -0.7773 0.3610
-0.3479 -0.8111 0.3608
-0.2740 -0.8385 0.3606
-0.1981 -0.8593 0.3605
-0.1207 -0.8733 0.3604
-0.0423 -0.8805 0.3604
0.0364 -0.8808 0.3604
0.1148 -0.8741 0.3604
0.1924 -0.8606 0.3605
0.2684 -0.8403 0.3606
0.3425 -0.8134 0.3608
0.4139 -0.7801 0.3610
0.4822 -0.7406 0.3613
0.5467 -0.6952 0.3616
0.6071 -0.6443 0.3619
0.6628 -0.5882 0.3623
0.7134 -0.5273 0.3627
0.7585 -0.4621 0.3631
0.7976 -0.3931 0.3635
0.8306 -0.3208 0.3640
0.8570 -0.2458 0.3645
0.8767 -0.1686 0.3650
0.8895 -0.0899 0.3655
0.8952 -0.0102 0.3660
0.8938 0.0697 0.3665
0.8852 0.1494 0.3670
0.8696 0.2280 0.3675
0.8469 0.3051 0.3680
0.8174 0.3799 0.3685
0.7812 0.4518 0.3689
0.7387 0.5203 0.3694
0.6901 0.5848 0.3698
0.6359 0.6446 0.3702
0.5764 0.6994 0.3705
0.5121 0.7487 0.3708
0.4437 0.7919 0.3711
0.3715 0.8289 0.3713
0.2962 0.8591 0.3715
0.2185 0.8825 0.3717
0.1390 0.8987 0.3718
0.0583 0.9077 0.3718
-0.0229 0.9093 0.3718
-0.1039 0.9035 0.3718
-0.1840 0.8904 0.3717
-0.2625 0.8702 0.3716
-0.3389 0.8429 0.3714
-0.4125 0.8088 0.3712
-0.4827 0.7683 0.3709
-0.5488 0.7216 0.3706
-0.6104 0.6691 0.3703
-0.6670 0.6114 0.3699
-0.7181 0.5489 0.3695
-0.7633 0.4821 0.3691
-0.8022 0.4116 0.3686
-0.8347 0.3380 0.3681
-0.8603 0.2619 0.3676
-0.8791 0.1839 0.3671
-0.8907 0.1046 0.3666
-0.8953 0.0247 0.3661
-0.8926 -0.0552 0.3656
-0.8829 -0.1344 0.3651
-0.8663 -0.2123 0.3646
-0.8428 -0.2883 0.3641
-0.8126 -0.3618 0.3637
-0.7762 -0.4323 0.3632
-0.7337 -0.4992 0.3628
-0.6855 -0.5620 0.3624
-0.6320 -0.6203 0.3620
-0.5736 -0.6736 0.3617
-0.5108 -0.7214 0.3614
-0.4441 -0.7635 0.3611
-0.3740 -0.7996 0.3609
-0.3010 -0.8293 0.3607
-0.2258 -0.8525 0.3605
-0.1488 -0.8690 0.3604
-0.0707 -0.8787 0.3604
0.0079 -0.8815 0.3604
0.0865 -0.8773 0.3604
0.1644 -0.8663 0.3605
0.2411 -0.8484 0.3606
0.3159 -0.8239 0.3607
0.3884 -0.7929 0.3609
0.4578 -0.7556 0.3612
0.5238 -0.7123 0.3615
0.5858 -0.6634 0.3618
0.6432 -0.6091 0.3621
0.6957 -0.5499 0.3625
0.7428 -0.4862 0.3629
0.7841 -0.4185 0.3634
0.8194 -0.3473 0.3638
0.8482 -0.2732 0.3643
0.8703 -0.1968 0.3648
0.8856 -0.1185 0.3653
0.8939 -0.0391 0.3658
0.8951 0.0408 0.3663
0.8891 0.1206 0.3668
0.8760 0.1997 0.3673
0.8559 0.2774 0.3678
0.8288 0.3531 0.3683
0.7950 0.4261 0.3688
0.7548 0.4960 0.3692
0.7084 0.5619 0.3696
0.6561 0.6235 0.3700
0.5985 0.6802 0.3704
0.5359 0.7315 0.3707
0.4689 0.7770 0.3710
0.3980 0.8163 0.3713
0.3238 0.8490 0.3715
0.2469 0.8749 0.3716
0.1680 0.8937 0.3717
0.0876 0.9053 0.3718
0.0065 0.9095 0.3718
-0.0746 0.9064 0.3718
-0.1551 0.8960 0.3717
-0.2343 0.8783 0.3716
-0.3116 0.8536 0.3715
-0.3862 0.8219 0.3713
-0.4577 0.7837 0.3710
-0.5253 0.7392 0.3707
-0.5887 0.6888 0.3704
-0.6471 0.6329 0.3700
-0.7002 0.5721 0.3696
-0.7476 0.5068 0.3692
-0.7889 0.4375 0.3688
-0.8237 0.3650 0.3683
-0.8518 0.2897 0.3678
-0.8731 0.2123 0.3673
-0.8873 0.1334 0.3668
-0.8944 0.0537 0.3663
-0.8944 -0.0263 0.3658
-0.8873 -0.1058 0.3653
-0.8731 -0.1842 0.3648
-0.8520 -0.2610 0.3643
-0.8243 -0.3355 0.3638
-0.7901 -0.4072 0.3634
-0.7497 -0.4755 0.3629
-0.7035 -0.5398 0.3625
-0.6519 -0.5998 0.3621
-0.5953 -0.6549 0.3618
-0.5340 -0.7047 0.3615
-0.4687 -0.7490 0.3612
-0.3997 -0.7872 0.3609
-0.3278 -0.8193 0.3607
-0.2533 -0.8449 0.3606
-0.1769 -0.8638 0.3605
-0.0991 -0.8760 0.3604
-0.0206 -0.8813 0.3604
0.0581 -0.8796 0.3604
0.1363 -0.8711 0.3604
0.2135 -0.8557 0.3605
0.2891 -0.8336 0.3607
0.3625 -0.8049 0.3609
0.4331 -0.7698 0.3611
0.5004 -0.7287 0.3614
0.5638 -0.6817 0.3617
0.6230 -0.6293 0.3620
0.6773 -0.5718 0.3624
0.7264 -0.5097 0.3628
0.7699 -0.4434 0.3632
0.8073 -0.3735 0.3636
0.8385 -0.3004 0.3641
0.8631 -0.2247 0.3646
0.8809 -0.1470 0.3651
0.8917 -0.0680 0.3656
0.8955 0.0118 0.3661
0.8921 0.0918 0.3666
0.8816 0.1712 0.3671
0.8640 0.2495 0.3676
0.8394 0.3260 0.3681
0.8080 0.4000 0.3686
0.7701 0.4711 0.3691
0.7259 0.5385 0.3695
0.6757 0.6018 0.3699
0.6199 0.6603 0.3703
0.5591 0.7136 0.3706
0.4936 0.7612 0.3709
0.4241 0.8028 0.3712
0.3510 0.8379 0.3714
0.2750 0.8663 0.3716
0.1968 0.8877 0.3717
0.1168 0.9019 0.3718
0.0359 0.9088 0.3718
-0.0453 0.9084 0.3718
-0.1261 0.9006 0.3718
-0.2058 0.8855 0.3717
-0.2839 0.8633 0.3715
-0.3595 0.8341 0.3713
-0.4322 0.7983 0.3711
-0.5013 0.7560 0.3708
-0.5663 0.7077 0.3705
-0.6265 0.6537 0.3702
-0.6816 0.5946 0.3698
-0.7311 0.5309 0.3694
-0.7746 0.4630 0.3689
-0.8118 0.3916 0.3685
-0.8424 0.3172 0.3680
-0.8662 0.2405 0.3675
-0.8830 0.1621 0.3670
-0.8927 0.0826 0.3665
-0.8952 0.0026 0.3660
-0.8907 -0.0771 0.3655
-0.8790 -0.1560 0.3650
-0.8604 -0.2334 0.3645
-0.8351 -0.3088 0.3640
-0.8032 -0.3816 0.3635
-0.7650 -0.4512 0.3631
-0.7209 -0.5170 0.3627
-0.6712 -0.5786 0.3623
-0.6163 -0.6355 0.3619
-0.5567 -0.6873 0.3616
-0.4928 -0.7336 0.3613
-0.4251 -0.7741 0.3610
-0.3541 -0.8084 0.3608
-0.2805 -0.8364 0.3606
-0.2047 -0.8577 0.3605
-0.1274 -0.8724 0.3604
-0.0491 -0.8801 0.3604
0.0296 -0.8810 0.3604
0.1081 -0.8750 0.3604
0.1857 -0.8620 0.3605
0.2620 -0.8423 0.3606
0.3362 -0.8160 0.3608
0.4079 -0.7832 0.3610
0.4764 -0.7443 0.3613
0.5413 -0.6994 0.3616
0.6021 -0.6489 0.3619
0.6582 -0.5932 0.3622
0.7092 -0.5327 0.3626
0.7548 -0.4679 0.3630
0.7945 -0.3992 0.3635
0.8280 -0.3272 0.3639
0.8550 -0.2524 0.3644
0.8753 -0.1753 0.3649
0.8886 -0.0967 0.3654
0.8950 -0.0171 0.3659
0.8942 0.0628 0.3664
0.5941 0.6628 0.3703
0.5331 0.7137 0.3706
0.4677 0.7590 0.3709
0.3984 0.7982 0.3711
0.3258 0.8310 0.3713
0.2505 0.8572 0.3715
0.1731 0.8764 0.3716
0.0943 0.8885 0.3717
0.0147 0.8934 0.3717
-0.0651 0.8911 0.3717
-0.1442 0.8816 0.3716
-0.2222 0.8650 0.3715
-0.2984 0.8414 0.3714
-0.3720 0.8110 0.3712
-0.4426 0.7741 0.3709
-0.5094 0.7310 0.3707
-0.5721 0.6820 0.3704
-0.6301 0.6277 0.3700
-0.6828 0.5684 0.3696
-0.7300 0.5047 0.3692
-0.7712 0.4371 0.3688
-0.8061 0.3661 0.3683
-0.8345 0.2924 0.3678
-0.8561 0.2165 0.3674
-0.8708 0.1391 0.3669
-0.8785 0.0608 0.3664
-0.8792 -0.0177 0.3659
-0.8730 -0.0959 0.3654
-0.8598 -0.1732 0.3649
-0.8398 -0.2488 0.3644
-0.8132 -0.3223 0.3639
-0.7803 -0.3930 0.3635
-0.7412 -0.4605 0.3630
-0.6964 -0.5242 0.3626
-0.6462 -0.5836 0.3622
-0.5910 -0.6383 0.3619
-0.5313 -0.6879 0.3616
-0.4675 -0.7319 0.3613
-0.4001 -0.7702 0.3611
-0.3296 -0.8023 0.3609
-0.2566 -0.8282 0.3607
-0.1817 -0.8475 0.3606
-0.1054 -0.8601 0.3605
-0.0282 -0.8660 0.3605
0.0491 -0.8651 0.3605
0.1261 -0.8574 0.3605
0.2021 -0.8429 0.3606
0.2766 -0.8219 0.3608
0.3489 -0.7943 0.3609
0.4186 -0.7605 0.3612
0.4851 -0.7207 0.3614
0.5479 -0.6751 0.3617
0.6065 -0.6241 0.3620
0.6604 -0.5681 0.3624
0.7092 -0.5075 0.3628
0.7525 -0.4427 0.3632
0.7899 -0.3743 0.3636
0.8212 -0.3027 0.3641
0.8460 -0.2286 0.3646
0.8642 -0.1525 0.3651
0.8755 -0.0749 0.3656
0.8799 0.0035 0.3661
0.8773 0.0821 0.3666
0.8677 0.1602 0.3671
0.8511 0.2373 0.3676
0.8276 0.3126 0.3680
0.7974 0.3857 0.3685
0.7608 0.4558 0.3690
0.7179 0.5224 0.3694
0.6692 0.5850 0.3698
0.6150 0.6430 0.3702
0.5557 0.6959 0.3705
0.4918 0.7433 0.3708
0.4239 0.7848 0.3711
0.3524 0.8199 0.3713
0.2780 0.8485 0.3715
0.2013 0.8702 0.3716
0.1229 0.8849 0.3717
0.0435 0.8925 0.3717
-0.0362 0.8928 0.3717
-0.1157 0.8859 0.3717
-0.1942 0.8718 0.3716
-0.2710 0.8507 0.3714
-0.3457 0.8228 0.3713
-0.4174 0.7882 0.3710
-0.4857 0.7473 0.3708
-0.5499 0.7004 0.3705
-0.6097 0.6480 0.3701
-0.6643 0.5904 0.3698
-0.7136 0.5283 0.3694
-0.7570 0.4620 0.3689
-0.7942 0.3922 0.3685
-0.8250 0.3194 0.3680
-0.8490 0.2442 0.3675
-0.8663 0.1673 0.3670
-0.8765 0.0893 0.3665
-0.8798 0.0107 0.3660
-0.8760 -0.0677 0.3655
-0.8653 -0.1453 0.3650
-0.8478 -0.2216 0.3646
-0.8236 -0.2960 0.3641
-0.7929 -0.3678 0.3636
-0.7560 -0.4365 0.3632
-0.7133 -0.5016 0.3628
-0.6650 -0.5626 0.3624
-0.6116 -0.6191 0.3620
-0.5534 -0.6705 0.3617
-0.4910 -0.7166 0.3614
-0.4248 -0.7570 0.3611
-0.3554 -0.7914 0.3609
-0.2833 -0.8196 0.3607
-0.2090 -0.8412 0.3606
-0.1331 -0.8563 0.3605
-0.0562 -0.8646 0.3605
0.0211 -0.8662 0.3605
0.0983 -0.8609 0.3605
0.1747 -0.8489 0.3606
0.2498 -0.8303 0.3607
0.3230 -0.8050 0.3609
0.3937 -0.7735 0.3611
0.4615 -0.7358 0.3613
0.5256 -0.6922 0.3616
0.5858 -0.6432 0.3619
0.6414 -0.5889 0.3623
0.6921 -0.5299 0.3626
0.7375 -0.4666 0.3630
0.7771 -0.3995 0.3635
0.8106 -0.3290 0.3639
0.8378 -0.2557 0.3644
0.8584 -0.1802 0.3649
0.8722 -0.1031 0.3654
0.8791 -0.0249 0.3659
0.8791 0.0536 0.3664
0.8720 0.1320 0.3669
0.8579 0.2095 0.3674
0.8369 0.2856 0.3679
0.8091 0.3595 0.3683
0.7748 0.4308 0.3688
0.7342 0.4987 0.3692
0.6875 0.5629 0.3696
0.6352 0.6226 0.3700
0.5777 0.6774 0.3704
0.5154 0.7268 0.3707
0.4489 0.7705 0.3710
0.3787 0.8079 0.3712
0.3053 0.8389 0.3714
0.2293 0.8632 0.3715
0.1515 0.8804 0.3717
0.0724 0.8906 0.3717
-0.0073 0.8935 0.3717
-0.0870 0.8892 0.3717
-0.1659 0.8777 0.3716
-0.2434 0.8592 0.3715
-0.3189 0.8337 0.3713
-0.3918 0.8014 0.3711
-0.4614 0.7628 0.3709
-0.5272 0.7180 0.3706
-0.5886 0.6676 0.3703
-0.6452 0.6118 0.3699
-0.6964 0.5513 0.3695
-0.7420 0.4864 0.3691
-0.7815 0.4178 0.3687
-0.8146 0.3460 0.3682
-0.8411 0.2717 0.3677
-0.8608 0.1953 0.3672
-0.8736 0.1176 0.3667
-0.8794 0.0392 0.3662
-0.8782 -0.0393 0.3657
-0.8700 -0.1174 0.3652
-0.8549 -0.1942 0.3647
-0.8331 -0.2693 0.3642
-0.8047 -0.3421 0.3638
-0.7701 -0.4120 0.3633
-0.7294 -0.4785 0.3629
-0.6831 -0.5410 0.3625
-0.6315 -0.5992 0.3621
-0.5750 -0.6525 0.3618
-0.5141 -0.7006 0.3615
-0.4492 -0.7431 0.3612
-0.3809 -0.7797 0.3610
-0.3097 -0.8101 0.3608
-0.2361 -0.8341 0.3607
-0.1607 -0.8516 0.3605
-0.0841 -0.8624 0.3605
-0.0069 -0.8664 0.3605
0.0704 -0.8636 0.3605
0.1472 -0.8541 0.3605
0.2228 -0.8378 0.3607
0.2968 -0.8149 0.3608
0.3685 -0.7856 0.3610
0.4373 -0.7501 0.3612
0.5028 -0.7086 0.3615
0.5645 -0.6615 0.3618
0.6218 -0.6091 0.3621
0.6744 -0.5518 0.3625
0.7217 -0.4900 0.3629
0.7634 -0.4242 0.3633
0.7992 -0.3549 0.3638
0.8287 -0.2825 0.3642
0.8517 -0.2078 0.3647
0.8680 -0.1312 0.3652
0.8774 -0.0533 0.3657
0.8799 0.0252 0.3662
0.8754 0.1037 0.3667
0.8638 0.1816 0.3672
0.8453 0.2582 0.3677
0.8199 0.3330 0.3682
0.7880 0.4053 0.3686
0.7496 0.4746 0.3691
0.7051 0.5401 0.3695
0.6548 0.6015 0.3699
0.5991 0.6581 0.3702
0.5385 0.7095 0.3706
0.4735 0.7553 0.3709
0.4045 0.7951 0.3711
0.3322 0.8285 0.3713
0.2571 0.8552 0.3715
0.1798 0.8750 0.3716
0.1011 0.8877 0.3717
0.0215 0.8933 0.3717
-0.0582 0.8916 0.3717
-0.1375 0.8827 0.3717
-0.2156 0.8667 0.3715
-0.2919 0.8437 0.3714
-0.3658 0.8139 0.3712
-0.4366 0.7775 0.3710
-0.5038 0.7349 0.3707
-0.5669 0.6865 0.3704
-0.6253 0.6326 0.3700
-0.6785 0.5737 0.3697
-0.7262 0.5104 0.3692
-0.7679 0.4431 0.3688
-0.8033 0.3724 0.3684
-0.8323 0.2989 0.3679
-0.8545 0.2232 0.3674
-0.8698 0.1459 0.3669
-0.8781 0.0676 0.3664
-0.8795 -0.0109 0.3659
-0.8738 -0.0892 0.3654
-0.8612 -0.1666 0.3649
-0.8418 -0.2424 0.3644
-0.8158 -0.3161 0.3639
-0.7833 -0.3871 0.3635
-0.7448 -0.4548 0.3631
-0.7005 -0.5189 0.3627
-0.6507 -0.5787 0.3623
-0.5960 -0.6338 0.3619
-0.5366 -0.6838 0.3616
-0.4731 -0.7284 0.3613
-0.4060 -0.7671 0.3611
-0.3358 -0.7998 0.3609
-0.2630 -0.8262 0.3607
-0.1882 -0.8461 0.3606
-0.1120 -0.8593 0.3605
-0.0349 -0.8658 0.3605
0.0425 -0.8654 0.3605
0.1195 -0.8583 0.3605
0.1956 -0.8445 0.3606
0.2702 -0.8239 0.3607
0.3428 -0.7970 0.3609
0.4127 -0.7637 0.3611
0.4795 -0.7243 0.3614
0.5427 -0.6792 0.3617
0.6016 -0.6287 0.3620
0.6559 -0.5731 0.3624
0.7052 -0.5129 0.3628
0.7490 -0.4485 0.3632
0.7869 -0.3803 0.3636
0.8187 -0.3090 0.3641
0.8441 -0.2351 0.3645
0.8629 -0.1591 0.3650
0.8748 -0.0816 0.3655
0.8798 -0.0033 0.3660
0.8778 0.0753 0.3665
0.8688 0.1535 0.3670
0.8528 0.2307 0.3675
0.8299 0.3062 0.3680
0.8003 0.3795 0.3685
0.7642 0.4499 0.3689
0.7219 0.5168 0.3693
0.6736 0.5798 0.3697
0.6199 0.6382 0.3701
0.5610 0.6916 0.3705
0.4975 0.7394 0.3708
0.4299 0.7814 0.3710
0.3587 0.8171 0.3713
0.2845 0.8463 0.3714
0.2080 0.8686 0.3716
0.1298 0.8839 0.3717
0.0504 0.8921 0.3717
-0.0293 0.8931 0.3717
-0.1089 0.8868 0.3717
-0.1875 0.8733 0.3716
-0.2645 0.8528 0.3715
-0.3393 0.8254 0.3713
-0.4113 0.7914 0.3711
-0.4799 0.7510 0.3708
-0.5446 0.7047 0.3705
-0.6047 0.6527 0.3702
-0.6598 0.5956 0.3698
-0.7096 0.5338 0.3694
-0.7535 0.4679 0.3690
-0.7912 0.3983 0.3685
-0.8226 0.3258 0.3681
-0.8472 0.2508 0.3676
-0.8651 0.1740 0.3671
-0.8759 0.0960 0.3666
-0.8798 0.0175 0.3661
-0.8766 -0.0609 0.3656
-0.8665 -0.1387 0.3651
-0.8496 -0.2151 0.3646
-0.8259 -0.2897 0.3641
-0.7958 -0.3617 0.3637
-0.7594 -0.4307 0.3632
-0.7172 -0.4961 0.3628
-0.6694 -0.5575 0.3624
-0.6164 -0.6144 0.3620
-0.5586 -0.6663 0.3617
-0.4966 -0.7129 0.3614
-0.4307 -0.7538 0.3612
-0.3615 -0.7887 0.3609
-0.2896 -0.8174 0.3608
-0.2155 -0.8396 0.3606
-0.1397 -0.8553 0.3605
-0.0629 -0.8642 0.3605
0.0145 -0.8663 0.3605
0.0917 -0.8617 0.3605
0.1682 -0.8502 0.3606
0.2434 -0.8321 0.3607
0.3168 -0.8075 0.3608
0.3878 -0.7764 0.3611
0.4558 -0.7393 0.3613
0.5203 -0.6962 0.3616
0.5808 -0.6476 0.3619
0.6368 -0.5938 0.3622
0.6880 -0.5352 0.3626
0.7338 -0.4722 0.3630
0.7739 -0.4054 0.3634
0.8079 -0.3352 0.3639
0.8357 -0.2621 0.3644
0.8569 -0.1868 0.3648
0.8713 -0.1098 0.3653
0.8788 -0.0317 0.3658
0.8793 0.0469 0.3663
0.8729 0.1253 0.3668
0.8594 0.2029 0.3673
0.8390 0.2791 0.3678
0.8118 0.3532 0.3683
0.7780 0.4248 0.3688
0.7379 0.4930 0.3692
0.6918 0.5575 0.3696
0.6399 0.6176 0.3700
0.5829 0.6728 0.3703
0.5210 0.7228 0.3707
0.4548 0.7669 0.3709
0.3848 0.8049 0.3712
0.3117 0.8365 0.3714
0.2360 0.8613 0.3715
0.1583 0.8792 0.3716
0.0792 0.8900 0.3717
-0.0005 0.8935 0.3717
-0.0801 0.8899 0.3717
-0.1591 0.8790 0.3716
-0.2368 0.8610 0.3715
-0.3125 0.8361 0.3713
-0.3856 0.8045 0.3711
-0.4555 0.7664 0.3709
-0.5217 0.7221 0.3706
-0.5835 0.6722 0.3703
-0.6405 0.6168 0.3699
-0.6922 0.5567 0.3695
-0.7383 0.4922 0.3691
-0.7783 0.4239 0.3687
-0.8120 0.3523 0.3682
-0.8391 0.2782 0.3678
-0.8594 0.2020 0.3673
-0.8728 0.1243 0.3668
-0.8792 0.0460 0.3663
-0.8786 -0.0326 0.3658
-0.8710 -0.1107 0.3653
-0.8565 -0.1876 0.3648
-0.8352 -0.2629 0.3643
-0.8074 -0.3359 0.3638
-0.7733 -0.4061 0.3634
-0.7332 -0.4729 0.3629
-0.6873 -0.5358 0.3625
-0.6361 -0.5943 0.3622
-0.5800 -0.6481 0.3618
-0.5195 -0.6966 0.3615
-0.4549 -0.7396 0.3613
-0.3869 -0.7768 0.3610
-0.3159 -0.8077 0.3608
-0.2425 -0.8323 0.3607
-0.1673 -0.8504 0.3606
-0.0908 -0.8617 0.3605
-0.0136 -0.8663 0.3605
0.0638 -0.8641 0.3605
0.1406 -0.8552 0.3605
0.2164 -0.8395 0.3606
0.2905 -0.8171 0.3608
0.3624 -0.7884 0.3610
0.4315 -0.7534 0.3612
0.4973 -0.7124 0.3615
0.5594 -0.6658 0.3618
0.6171 -0.6138 0.3621
0.6700 -0.5569 0.3625
0.7178 -0.4955 0.3629
0.7600 -0.4300 0.3633
0.7963 -0.3610 0.3637
0.8264 -0.2889 0.3642
0.8500 -0.2143 0.3647
0.8669 -0.1378 0.3652
0.8769 -0.0601 0.3657
0.8800 0.0184 0.3662
0.8760 0.0969 0.3667
0.8651 0.1749 0.3672
0.8471 0.2517 0.3677
0.8224 0.3267 0.3681
0.7910 0.3992 0.3686
0.7531 0.4687 0.3690
0.7091 0.5346 0.3695
0.6593 0.5964 0.3699
0.6041 0.6534 0.3702
0.5439 0.7053 0.3705
0.4792 0.7516 0.3708
0.4106 0.7919 0.3711
0.3385 0.8258 0.3713
0.2636 0.8531 0.3715
0.1866 0.8736 0.3716
0.1080 0.8869 0.3717
0.0284 0.8931 0.3717
-0.0513 0.8920 0.3717
-0.1307 0.8838 0.3717
-0.2089 0.8684 0.3716
-0.2854 0.8459 0.3714
-0.3595 0.8167 0.3712
-0.4306 0.7809 0.3710
-0.4982 0.7388 0.3707
-0.5616 0.6909 0.3704
-0.6204 0.6375 0.3701
-0.6741 0.5790 0.3697
-0.7223 0.5160 0.3693
-0.7645 0.4490 0.3689
-0.8005 0.3786 0.3684
-0.8300 0.3053 0.3679
-0.8528 0.2298 0.3674
-0.8688 0.1526 0.3669
-0.8777 0.0744 0.3664
-0.8796 -0.0042 0.3659
-0.8745 -0.0825 0.3654
-0.8625 -0.1599 0.3649
-0.8437 -0.2359 0.3645
-0.8183 -0.3098 0.3640
-0.7864 -0.3811 0.3635
-0.7484 -0.4491 0.3631
-0.7045 -0.5135 0.3627
-0.6552 -0.5737 0.3623
-0.6009 -0.6292 0.3620
-0.5419 -0.6797 0.3616
-0.4787 -0.7247 0.3613
-0.4119 -0.7640 0.3611
-0.3419 -0.7972 0.3609
-0.2694 -0.8242 0.3607
-0.1947 -0.8446 0.3606
-0.1186 -0.8584 0.3605
-0.0416 -0.8655 0.3605
0.0358 -0.8657 0.3605
0.1129 -0.8592 0.3605
0.1891 -0.8459 0.3606
0.2639 -0.8260 0.3607
0.3366 -0.7995 0.3609
0.4068 -0.7668 0.3611
0.4739 -0.7280 0.3614
0.5374 -0.6833 0.3617
0.5967 -0.6333 0.3620
0.6514 -0.5781 0.3623
0.7011 -0.5182 0.3627
0.7454 -0.4542 0.3631
0.7839 -0.3863 0.3636
0.8162 -0.3153 0.3640
0.8422 -0.2416 0.3645
0.8615 -0.1657 0.3650
0.8741 -0.0883 0.3655
0.8797 -0.0101 0.3660
0.8783 0.0685 0.3665
0.8698 0.1468 0.3670
0.8544 0.2241 0.3675
0.8321 0.2998 0.3680
0.8031 0.3733 0.3684
0.7676 0.4439 0.3689
0.7258 0.5112 0.3693
0.6780 0.5745 0.3697
0.6247 0.6333 0.3701
0.5663 0.6872 0.3704
0.5031 0.7355 0.3707
0.4359 0.7780 0.3710
0.3650 0.8143 0.3712
0.2910 0.8440 0.3714
0.2147 0.8670 0.3716
0.1366 0.8829 0.3717
0.0573 0.8917 0.3717
-0.0225 0.8933 0.3717
-0.1020 0.8876 0.3717
-0.1807 0.8748 0.3716
-0.2579 0.8549 0.3715
-0.3330 0.8281 0.3713
-0.4053 0.7946 0.3711
-0.4742 0.7548 0.3708
-0.5392 0.7089 0.3705
-0.5997 0.6574 0.3702
-0.6553 0.6007 0.3698
-0.7055 0.5393 0.3694
-0.7499 0.4737 0.3690
-0.7882 0.4044 0.3686
-0.8201 0.3321 0.3681
-0.8454 0.2573 0.3676
-0.8638 0.1807 0.3671
-0.8753 0.1028 0.3666
-0.8797 0.0243 0.3661
-0.8772 -0.0542 0.3656
-0.8677 -0.1320 0.3651
-0.8513 -0.2086 0.3646
-0.8282 -0.2833 0.3642
-0.7986 -0.3556 0.3637
-0.7628 -0.4249 0.3633
-0.7211 -0.4907 0.3628
-0.6737 -0.5524 0.3624
-0.6211 -0.6097 0.3621
-0.5638 -0.6620 0.3617
-0.5021 -0.7091 0.3614
-0.4365 -0.7505 0.3612
-0.3676 -0.7859 0.3610
-0.2959 -0.8152 0.3608
-0.2219 -0.8380 0.3606
-0.1463 -0.8542 0.3605
-0.0695 -0.8637 0.3605
0.0078 -0.8664 0.3605
0.0850 -0.8623 0.3605
0.1616 -0.8515 0.3606
0.2370 -0.8340 0.3607
0.3105 -0.8099 0.3608
0.3817 -0.7794 0.3610
0.4500 -0.7427 0.3613
0.5149 -0.7001 0.3615
0.5757 -0.6520 0.3619
0.6322 -0.5986 0.3622
0.6838 -0.5404 0.3626
0.7300 -0.4778 0.3630
0.7706 -0.4113 0.3634
0.8052 -0.3414 0.3639
0.8336 -0.2685 0.3643
0.8553 -0.1934 0.3648
0.8703 -0.1165 0.3653
0.8784 -0.0385 0.3658
0.8796 0.0401 0.3663
0.8737 0.1185 0.3668
0.8608 0.1962 0.3673
0.8410 0.2726 0.3678
0.8144 0.3469 0.3683
0.7812 0.4187 0.3687
0.7416 0.4873 0.3692
0.6960 0.5521 0.3696
0.6446 0.6126 0.3700
0.5880 0.6683 0.3703
0.5265 0.7187 0.3706
0.4607 0.7634 0.3709
0.3910 0.8019 0.3712
0.3181 0.8341 0.3714
0.2426 0.8595 0.3715
0.1650 0.8779 0.3716
0.0861 0.8893 0.3717
0.0064 0.8935 0.3717
-0.0733 0.8905 0.3717
-0.1524 0.8802 0.3716
-0.2302 0.8629 0.3715
-0.3061 0.8385 0.3714
-0.3795 0.8075 0.3712
-0.4497 0.7699 0.3709
-0.5161 0.7262 0.3706
-0.5783 0.6767 0.3703
-0.6358 0.6218 0.3700
-0.6880 0.5621 0.3696
-0.7345 0.4979 0.3692
-0.7751 0.4299 0.3687
-0.8093 0.3586 0.3683
-0.8370 0.2847 0.3678
-0.8579 0.2086 0.3673
-0.8719 0.1311 0.3668
-0.8789 0.0527 0.3663
-0.8789 -0.0258 0.3658
-0.8719 -0.1040 0.3653
-0.8580 -0.1811 0.3648
-0.8373 -0.2565 0.3643
-0.8101 -0.3297 0.3639
-0.7765 -0.4002 0.3634
-0.7368 -0.4673 0.3630
-0.6915 -0.5305 0.3626
-0.6407 -0.5895 0.3622
-0.5851 -0.6437 0.3619
-0.5249 -0.6927 0.3615
-0.4607 -0.7362 0.3613
-0.3929 -0.7738 0.3610
-0.3222 -0.8053 0.3608
-0.2490 -0.8305 0.3607
-0.1738 -0.8491 0.3606
-0.0974 -0.8610 0.3605
-0.0202 -0.8662 0.3605
0.0571 -0.8646 0.3605
0.1340 -0.8562 0.3605
0.2099 -0.8411 0.3606
0.2842 -0.8193 0.3608
0.3563 -0.7911 0.3610
0.4257 -0.7567 0.3612
0.4918 -0.7162 0.3614
0.5542 -0.6701 0.3617
0.6123 -0.6185 0.3621
0.6657 -0.5620 0.3624
0.7139 -0.5010 0.3628
0.7566 -0.4358 0.3632
0.7934 -0.3670 0.3637
0.8240 -0.2952 0.3642
0.8482 -0.2208 0.3646
0.8657 -0.1445 0.3651
0.8763 -0.0668 0.3656
0.8800 0.0116 0.3661
0.8766 0.0902 0.3666
0.8663 0.1682 0.3671
0.8490 0.2451 0.3676
0.8248 0.3203 0.3681
0.7939 0.3931 0.3686
0.7566 0.4629 0.3690
0.7132 0.5291 0.3694
0.6639 0.5912 0.3698
0.6091 0.6487 0.3702
0.5493 0.7011 0.3705
0.4850 0.7479 0.3708
0.4166 0.7887 0.3711
0.3448 0.8232 0.3713
0.2702 0.8511 0.3715
0.1933 0.8721 0.3716
0.1148 0.8860 0.3717
0.0353 0.8928 0.3717
-0.0445 0.8924 0.3717
-0.1238 0.8848 0.3717
-0.2022 0.8700 0.3716
-0.2789 0.8481 0.3714
-0.3532 0.8195 0.3712
-0.4246 0.7842 0.3710
-0.4925 0.7427 0.3707
-0.5563 0.6952 0.3704
-0.6155 0.6423 0.3701
-0.6697 0.5842 0.3697
-0.7183 0.5216 0.3693
-0.7611 0.4549 0.3689
-0.7977 0.3848 0.3684
-0.8278 0.3117 0.3680
-0.8511 0.2363 0.3675
-0.8677 0.1593 0.3670
-0.8772 0.0812 0.3665
-0.8797 0.0026 0.3660
-0.8753 -0.0758 0.3655
-0.8638 -0.1533 0.3650
-0.8456 -0.2294 0.3645
-0.8207 -0.3035 0.3640
-0.7894 -0.3750 0.3636
-0.7519 -0.4434 0.3631
-0.7085 -0.5081 0.3627
-0.6597 -0.5687 0.3623
-0.6058 -0.6246 0.3620
-0.5472 -0.6755 0.3617
-0.4843 -0.7211 0.3614
-0.4178 -0.7609 0.3611
-0.3481 -0.7946 0.3609
-0.2757 -0.8221 0.3607
-0.2012 -0.8431 0.3606
-0.1252 -0.8575 0.3605
-0.0482 -0.8651 0.3605
0.0291 -0.8660 0.3605
0.1062 -0.8600 0.3605
0.1826 -0.8473 0.3606
0.2575 -0.8280 0.3607
0.3304 -0.8021 0.3609
0.4009 -0.7698 0.3611
0.4683 -0.7315 0.3613
0.5321 -0.6874 0.3616
0.5918 -0.6378 0.3619
0.6469 -0.5830 0.3623
0.6971 -0.5236 0.3627
0.7418 -0.4598 0.3631
0.7808 -0.3923 0.3635
0.8137 -0.3215 0.3640
0.8402 -0.2480 0.3645
0.8601 -0.1723 0.3649
0.8733 -0.0951 0.3654
0.8795 -0.0168 0.3659
0.8787 0.0618 0.3664
0.5838 0.6513 0.3702
0.5238 0.7014 0.3705
0.4596 0.7458 0.3708
0.3915 0.7844 0.3710
0.3201 0.8166 0.3713
0.2461 0.8423 0.3714
0.1701 0.8611 0.3715
0.0926 0.8730 0.3716
0.0144 0.8779 0.3716
-0.0639 0.8756 0.3716
-0.1417 0.8663 0.3716
-0.2184 0.8500 0.3714
-0.2932 0.8268 0.3713
-0.3655 0.7969 0.3711
-0.4349 0.7607 0.3709
-0.5006 0.7183 0.3706
-0.5622 0.6702 0.3703
-0.6192 0.6169 0.3699
-0.6710 0.5586 0.3696
-0.7174 0.4960 0.3692
-0.7579 0.4296 0.3687
-0.7922 0.3598 0.3683
-0.8201 0.2874 0.3678
-0.8414 0.2128 0.3673
-0.8559 0.1368 0.3668
-0.8635 0.0598 0.3664
-0.8642 -0.0174 0.3659
-0.8581 -0.0943 0.3654
-0.8451 -0.1702 0.3649
-0.8255 -0.2446 0.3644
-0.7994 -0.3168 0.3639
-0.7670 -0.3864 0.3635
-0.7286 -0.4527 0.3631
-0.6846 -0.5153 0.3627
-0.6353 -0.5737 0.3623
-0.5810 -0.6275 0.3620
-0.5223 -0.6762 0.3617
-0.4596 -0.7196 0.3614
-0.3933 -0.7572 0.3611
-0.3240 -0.7888 0.3609
-0.2523 -0.8142 0.3608
-0.1786 -0.8332 0.3607
-0.1036 -0.8456 0.3606
-0.0278 -0.8514 0.3606
0.0483 -0.8505 0.3606
0.1240 -0.8429 0.3606
0.1987 -0.8287 0.3607
0.2719 -0.8080 0.3608
0.3430 -0.7809 0.3610
0.4116 -0.7477 0.3612
0.4769 -0.7085 0.3615
0.5386 -0.6637 0.3618
0.5962 -0.6135 0.3621
0.6492 -0.5585 0.3625
0.6971 -0.4989 0.3628
0.7397 -0.4352 0.3633
0.7765 -0.3679 0.3637
0.8072 -0.2976 0.3641
0.8316 -0.2247 0.3646
0.8494 -0.1499 0.3651
0.8606 -0.0736 0.3656
0.8649 0.0034 0.3661
0.8623 0.0807 0.3666
0.8528 0.1574 0.3671
0.8364 0.2332 0.3675
0.8134 0.3072 0.3680
0.7837 0.3790 0.3685
0.7477 0.4479 0.3689
0.7055 0.5134 0.3693
0.6576 0.5749 0.3697
0.6043 0.6319 0.3701
0.5461 0.6839 0.3704
0.4833 0.7304 0.3707
0.4165 0.7711 0.3710
0.3463 0.8057 0.3712
0.2732 0.8338 0.3714
0.1978 0.8551 0.3715
0.1208 0.8695 0.3716
0.0428 0.8770 0.3716
-0.0356 0.8773 0.3716
-0.1137 0.8705 0.3716
-0.1908 0.8567 0.3715
-0.2663 0.8359 0.3714
-0.3397 0.8085 0.3712
-0.4102 0.7745 0.3710
-0.4773 0.7343 0.3707
-0.5404 0.6883 0.3704
-0.5991 0.6368 0.3701
-0.6529 0.5802 0.3697
-0.7013 0.5192 0.3693
-0.7439 0.4540 0.3689
-0.7805 0.3854 0.3684
-0.8108 0.3139 0.3680
-0.8344 0.2400 0.3675
-0.8514 0.1644 0.3670
-0.8615 0.0877 0.3665
-0.8647 0.0105 0.3660
-0.8611 -0.0665 0.3655
-0.8506 -0.1429 0.3651
-0.8333 -0.2179 0.3646
-0.8096 -0.2909 0.3641
-0.7794 -0.3615 0.3637
-0.7432 -0.4291 0.3632
-0.7012 -0.4931 0.3628
-0.6537 -0.5531 0.3624
-0.6012 -0.6086 0.3621
-0.5440 -0.6592 0.3618
-0.4827 -0.7045 0.3615
-0.4177 -0.7442 0.3612
-0.3494 -0.7781 0.3610
-0.2785 -0.8057 0.3608
-0.2055 -0.8271 0.3607
-0.1309 -0.8419 0.3606
-0.0553 -0.8501 0.3606
0.0208 -0.8516 0.3606
0.0966 -0.8464 0.3606
0.1718 -0.8346 0.3607
0.2456 -0.8163 0.3608
0.3176 -0.7915 0.3610
0.3871 -0.7604 0.3612
0.4537 -0.7233 0.3614
0.5168 -0.6805 0.3617
0.5759 -0.6323 0.3620
0.6306 -0.5789 0.3623
0.6804 -0.5209 0.3627
0.7249 -0.4587 0.3631
0.7638 -0.3927 0.3635
0.7968 -0.3234 0.3640
0.8235 -0.2514 0.3644
0.8437 -0.1771 0.3649
0.8573 -0.1013 0.3654
0.8641 -0.0245 0.3659
0.8640 0.0527 0.3664
0.8570 0.1297 0.3669
0.8431 0.2059 0.3674
0.8225 0.2807 0.3678
0.7952 0.3533 0.3683
0.7614 0.4234 0.3688
0.7215 0.4901 0.3692
0.6756 0.5531 0.3696
0.6242 0.6118 0.3700
0.5677 0.6656 0.3703
0.5065 0.7142 0.3706
0.4411 0.7571 0.3709
0.3721 0.7939 0.3711
0.3000 0.8244 0.3713
0.2253 0.8482 0.3714
0.1488 0.8651 0.3716
0.0711 0.8751 0.3716
-0.0072 0.8780 0.3716
-0.0855 0.8738 0.3716
-0.1630 0.8625 0.3715
-0.2392 0.8442 0.3714
-0.3134 0.8192 0.3712
-0.3850 0.7875 0.3710
-0.4534 0.7496 0.3708
-0.5180 0.7056 0.3705
-0.5784 0.6560 0.3702
-0.6340 0.6013 0.3698
-0.6844 0.5418 0.3694
-0.7292 0.4780 0.3690
-0.7680 0.4106 0.3686
-0.8006 0.3401 0.3682
-0.8266 0.2670 0.3677
-0.8460 0.1920 0.3672
-0.8586 0.1156 0.3667
-0.8644 0.0385 0.3662
-0.8632 -0.0387 0.3657
-0.8552 -0.1153 0.3652
-0.8403 -0.1909 0.3647
-0.8189 -0.2647 0.3643
-0.7910 -0.3363 0.3638
-0.7570 -0.4050 0.3634
-0.7170 -0.4704 0.3630
-0.6715 -0.5319 0.3626
-0.6208 -0.5890 0.3622
-0.5653 -0.6414 0.3619
-0.5054 -0.6887 0.3616
-0.4416 -0.7305 0.3613
-0.3745 -0.7665 0.3611
-0.3045 -0.7964 0.3609
-0.2321 -0.8201 0.3607
-0.1580 -0.8373 0.3606
-0.0827 -0.8479 0.3606
-0.0068 -0.8518 0.3606
0.0692 -0.8491 0.3606
0.1447 -0.8397 0.3606
0.2191 -0.8237 0.3607
0.2918 -0.8012 0.3609
0.3622 -0.7724 0.3611
0.4299 -0.7374 0.3613
0.4943 -0.6967 0.3616
0.5550 -0.6503 0.3619
0.6113 -0.5988 0.3622
0.6629 -0.5425 0.3626
0.7094 -0.4817 0.3630
0.7504 -0.4170 0.3634
0.7856 -0.3488 0.3638
0.8146 -0.2777 0.3643
0.8372 -0.2042 0.3647
0.8532 -0.1289 0.3652
0.8624 -0.0524 0.3657
0.8648 0.0248 0.3662
0.8603 0.1019 0.3667
0.8490 0.1785 0.3672
0.8307 0.2538 0.3677
0.8058 0.3273 0.3681
0.7744 0.3983 0.3686
0.7366 0.4664 0.3690
0.6929 0.5308 0.3694
0.6435 0.5911 0.3698
0.5887 0.6467 0.3702
0.5292 0.6973 0.3705
0.4653 0.7422 0.3708
0.3975 0.7813 0.3710
0.3264 0.8141 0.3712
0.2526 0.8403 0.3714
0.1767 0.8598 0.3715
0.0994 0.8723 0.3716
0.0212 0.8778 0.3716
-0.0572 0.8761 0.3716
-0.1351 0.8674 0.3716
-0.2118 0.8516 0.3715
-0.2868 0.8290 0.3713
-0.3594 0.7997 0.3711
-0.4290 0.7640 0.3709
-0.4951 0.7222 0.3706
-0.5571 0.6746 0.3703
-0.6144 0.6217 0.3700
-0.6668 0.5638 0.3696
-0.7136 0.5016 0.3692
-0.7546 0.4354 0.3688
-0.7895 0.3660 0.3683
-0.8180 0.2937 0.3679
-0.8398 0.2193 0.3674
-0.8549 0.1434 0.3669
-0.8631 0.0665 0.3664
-0.8644 -0.0108 0.3659
-0.8589 -0.0877 0.3654
-0.8465 -0.1637 0.3649
-0.8274 -0.2382 0.3644
-0.8019 -0.3107 0.3640
-0.7700 -0.3805 0.3635
-0.7322 -0.4471 0.3631
-0.6886 -0.5101 0.3627
-0.6397 -0.5689 0.3623
-0.5859 -0.6230 0.3620
-0.5275 -0.6722 0.3617
-0.4651 -0.7160 0.3614
-0.3991 -0.7542 0.3612
-0.3301 -0.7863 0.3610
-0.2586 -0.8123 0.3608
-0.1850 -0.8318 0.3607
-0.1101 -0.8448 0.3606
-0.0343 -0.8512 0.3606
0.0417 -0.8508 0.3606
0.1175 -0.8438 0.3606
0.1923 -0.8302 0.3607
0.2657 -0.8100 0.3608
0.3370 -0.7835 0.3610
0.4058 -0.7508 0.3612
0.4714 -0.7121 0.3615
0.5335 -0.6677 0.3618
0.5914 -0.6180 0.3621
0.6448 -0.5634 0.3624
0.6932 -0.5042 0.3628
0.7362 -0.4408 0.3632
0.7735 -0.3739 0.3636
0.8048 -0.3038 0.3641
0.8297 -0.2311 0.3646
0.8482 -0.1564 0.3650
0.8599 -0.0802 0.3655
0.8648 -0.0032 0.3660
0.8628 0.0740 0.3665
0.8539 0.1509 0.3670
0.8381 0.2267 0.3675
0.8156 0.3009 0.3680
0.7865 0.3729 0.3684
0.7510 0.4421 0.3689
0.7094 0.5079 0.3693
0.6620 0.5698 0.3697
0.6091 0.6271 0.3700
0.5513 0.6796 0.3704
0.4889 0.7266 0.3707
0.4224 0.7679 0.3709
0.3525 0.8030 0.3712
0.2796 0.8316 0.3713
0.2044 0.8535 0.3715
0.1275 0.8686 0.3716
0.0495 0.8766 0.3716
-0.0288 0.8775 0.3716
-0.1070 0.8714 0.3716
-0.1842 0.8581 0.3715
-0.2599 0.8380 0.3714
-0.3334 0.8111 0.3712
-0.4042 0.7777 0.3710
-0.4716 0.7380 0.3707
-0.5351 0.6925 0.3704
-0.5942 0.6414 0.3701
-0.6484 0.5853 0.3697
-0.6973 0.5246 0.3693
-0.7405 0.4598 0.3689
-0.7776 0.3915 0.3685
-0.8084 0.3201 0.3680
-0.8327 0.2465 0.3676
-0.8502 0.1710 0.3671
-0.8609 0.0944 0.3666
-0.8647 0.0172 0.3661
-0.8617 -0.0599 0.3656
-0.8517 -0.1363 0.3651
-0.8351 -0.2115 0.3646
-0.8119 -0.2847 0.3641
-0.7823 -0.3556 0.3637
-0.7465 -0.4234 0.3633
-0.7050 -0.4877 0.3629
-0.6580 -0.5481 0.3625
-0.6059 -0.6040 0.3621
-0.5492 -0.6550 0.3618
-0.4882 -0.7008 0.3615
-0.4234 -0.7410 0.3612
-0.3554 -0.7754 0.3610
-0.2847 -0.8036 0.3608
-0.2118 -0.8255 0.3607
-0.1374 -0.8408 0.3606
-0.0618 -0.8496 0.3606
0.0142 -0.8517 0.3606
0.0901 -0.8471 0.3606
0.1653 -0.8359 0.3607
0.2393 -0.8181 0.3608
0.3114 -0.7938 0.3609
0.3812 -0.7633 0.3611
0.4481 -0.7268 0.3614
0.5115 -0.6844 0.3616
0.5710 -0.6366 0.3620
0.6260 -0.5837 0.3623
0.6763 -0.5261 0.3627
0.7213 -0.4642 0.3631
0.7607 -0.3985 0.3635
0.7942 -0.3295 0.3639
0.8214 -0.2577 0.3644
0.8423 -0.1836 0.3649
0.8564 -0.1079 0.3654
0.8638 -0.0312 0.3658
0.8643 0.0461 0.3663
0.8579 0.1231 0.3668
0.8446 0.1994 0.3673
0.8245 0.2743 0.3678
0.7978 0.3472 0.3683
0.7646 0.4174 0.3687
0.7252 0.4845 0.3691
0.6798 0.5479 0.3695
0.6289 0.6069 0.3699
0.5728 0.6612 0.3703
0.5120 0.7102 0.3706
0.4469 0.7536 0.3709
0.3782 0.7910 0.3711
0.3063 0.8220 0.3713
0.2319 0.8464 0.3714
0.1555 0.8639 0.3715
0.0778 0.8745 0.3716
-0.0004 0.8780 0.3716
-0.0787 0.8744 0.3716
-0.1564 0.8637 0.3715
-0.2327 0.8461 0.3714
-0.3071 0.8216 0.3713
-0.3789 0.7905 0.3711
-0.4476 0.7531 0.3708
-0.5126 0.7096 0.3705
-0.5734 0.6605 0.3702
-0.6294 0.6062 0.3699
-0.6802 0.5471 0.3695
-0.7255 0.4837 0.3691
-0.7649 0.4166 0.3686
-0.7980 0.3463 0.3682
-0.8246 0.2734 0.3677
-0.8446 0.1985 0.3672
-0.8578 0.1222 0.3668
-0.8641 0.0452 0.3663
-0.8636 -0.0320 0.3658
-0.8561 -0.1088 0.3653
-0.8419 -0.1844 0.3648
-0.8210 -0.2584 0.3643
-0.7937 -0.3302 0.3639
-0.7602 -0.3992 0.3634
-0.7207 -0.4649 0.3630
-0.6756 -0.5267 0.3626
-0.6253 -0.5843 0.3622
-0.5702 -0.6371 0.3619
-0.5107 -0.6849 0.3616
-0.4473 -0.7271 0.3613
-0.3804 -0.7636 0.3611
-0.3106 -0.7941 0.3609
-0.2384 -0.8183 0.3608
-0.1645 -0.8360 0.3606
-0.0892 -0.8472 0.3606
-0.0133 -0.8517 0.3606
0.0627 -0.8496 0.3606
0.1382 -0.8407 0.3606
0.2127 -0.8253 0.3607
0.2856 -0.8034 0.3609
0.3563 -0.7751 0.3611
0.4242 -0.7407 0.3613
0.4889 -0.7004 0.3615
0.5499 -0.6545 0.3618
0.6066 -0.6035 0.3622
0.6587 -0.5475 0.3625
0.7056 -0.4871 0.3629
0.7471 -0.4227 0.3633
0.7828 -0.3548 0.3638
0.8123 -0.2839 0.3642
0.8355 -0.2107 0.3647
0.8521 -0.1355 0.3652
0.8619 -0.0590 0.3657
0.8649 0.0181 0.3662
0.8610 0.0953 0.3667
0.8502 0.1719 0.3671
0.8326 0.2474 0.3676
0.8082 0.3210 0.3681
0.7773 0.3923 0.3686
0.7401 0.4606 0.3690
0.6969 0.5254 0.3694
0.6479 0.5861 0.3698
0.5937 0.6421 0.3701
0.5345 0.6931 0.3705
0.4709 0.7386 0.3708
0.4035 0.7782 0.3710
0.3326 0.8115 0.3712
0.2591 0.8383 0.3714
0.1833 0.8584 0.3715
0.1061 0.8715 0.3716
0.0279 0.8776 0.3716
-0.0504 0.8765 0.3716
-0.1284 0.8684 0.3716
-0.2053 0.8533 0.3715
-0.2804 0.8312 0.3713
-0.3533 0.8025 0.3711
-0.4232 0.7674 0.3709
-0.4896 0.7260 0.3706
-0.5519 0.6789 0.3703
-0.6097 0.6264 0.3700
-0.6625 0.5690 0.3696
-0.7098 0.5071 0.3692
-0.7513 0.4413 0.3688
-0.7867 0.3721 0.3684
-0.8158 0.3000 0.3679
-0.8382 0.2258 0.3674
-0.8538 0.1500 0.3669
-0.8627 0.0731 0.3664
-0.8646 -0.0041 0.3659
-0.8596 -0.0811 0.3655
-0.8478 -0.1572 0.3650
-0.8293 -0.2319 0.3645
-0.8043 -0.3045 0.3640
-0.7730 -0.3746 0.3636
-0.7357 -0.4415 0.3631
-0.6926 -0.5048 0.3627
-0.6441 -0.5640 0.3624
-0.5907 -0.6186 0.3620
-0.5327 -0.6682 0.3617
-0.4706 -0.7125 0.3614
-0.4050 -0.7511 0.3612
-0.3362 -0.7838 0.3610
-0.2648 -0.8103 0.3608
-0.1914 -0.8304 0.3607
-0.1166 -0.8439 0.3606
-0.0409 -0.8509 0.3606
0.0352 -0.8511 0.3606
0.1110 -0.8447 0.3606
0.1859 -0.8316 0.3607
0.2594 -0.8120 0.3608
0.3309 -0.7860 0.3610
0.4000 -0.7538 0.3612
0.4659 -0.7157 0.3614
0.5283 -0.6718 0.3617
0.5866 -0.6225 0.3620
0.6404 -0.5683 0.3624
0.6893 -0.5094 0.3628
0.7328 -0.4464 0.3632
0.7706 -0.3798 0.3636
0.8023 -0.3099 0.3641
0.8278 -0.2374 0.3645
0.8468 -0.1629 0.3650
0.8591 -0.0868 0.3655
0.8646 -0.0099 0.3660
0.8632 0.0674 0.3665
0.8549 0.1443 0.3670
0.8397 0.2202 0.3675
0.8178 0.2946 0.3679
0.7893 0.3668 0.3684
0.7543 0.4363 0.3688
0.7132 0.5024 0.3693
0.6663 0.5646 0.3697
0.6139 0.6224 0.3700
0.5565 0.6753 0.3704
0.4944 0.7228 0.3707
0.4283 0.7645 0.3709
0.3586 0.8002 0.3711
0.2860 0.8294 0.3713
0.2110 0.8519 0.3715
0.1342 0.8676 0.3716
0.0563 0.8762 0.3716
-0.0221 0.8777 0.3716
-0.1003 0.8722 0.3716
-0.1776 0.8596 0.3715
-0.2535 0.8400 0.3714
-0.3272 0.8137 0.3712
-0.3982 0.7808 0.3710
-0.4660 0.7417 0.3707
-0.5298 0.6966 0.3704
-0.5893 0.6460 0.3701
-0.6440 0.5903 0.3698
-0.6933 0.5300 0.3694
-0.7370 0.4655 0.3690
-0.7746 0.3975 0.3685
-0.8060 0.3264 0.3681
-0.8308 0.2529 0.3676
-0.8490 0.1776 0.3671
-0.8603 0.1010 0.3666
-0.8647 0.0239 0.3661
-0.8622 -0.0533 0.3656
-0.8529 -0.1298 0.3651
-0.8368 -0.2050 0.3647
-0.8141 -0.2785 0.3642
-0.7851 -0.3496 0.3637
-0.7499 -0.4177 0.3633
-0.7088 -0.4823 0.3629
-0.6623 -0.5430 0.3625
-0.6106 -0.5993 0.3621
-0.5542 -0.6508 0.3618
-0.4936 -0.6971 0.3615
-0.4291 -0.7378 0.3613
-0.3614 -0.7727 0.3610
-0.2909 -0.8014 0.3609
-0.2182 -0.8238 0.3607
-0.1438 -0.8398 0.3606
-0.0683 -0.8491 0.3606
0.0076 -0.8518 0.3606
0.0836 -0.8478 0.3606
0.1589 -0.8371 0.3607
0.2330 -0.8199 0.3608
0.3053 -0.7962 0.3609
0.3753 -0.7662 0.3611
0.4424 -0.7301 0.3613
0.5061 -0.6883 0.3616
0.5660 -0.6410 0.3619
0.6215 -0.5885 0.3623
0.6722 -0.5313 0.3626
0.7176 -0.4697 0.3630
0.7575 -0.4043 0.3634
0.7915 -0.3355 0.3639
0.8193 -0.2640 0.3644
0.8407 -0.1901 0.3648
0.8555 -0.1145 0.3653
0.8634 -0.0378 0.3658
0.8645 0.0394 0.3663
0.8587 0.1165 0.3668
0.8460 0.1929 0.3673
0.8265 0.2679 0.3678
0.8004 0.3410 0.3682
0.7677 0.4115 0.3687
0.7288 0.4789 0.3691
0.6839 0.5425 0.3695
0.6335 0.6020 0.3699
0.5778 0.6567 0.3702
0.5174 0.7062 0.3706
0.4527 0.7501 0.3708
0.3842 0.7880 0.3711
0.3126 0.8196 0.3713
0.2384 0.8445 0.3714
0.1621 0.8627 0.3715
0.0846 0.8739 0.3716
0.0063 0.8780 0.3716
-0.0720 0.8750 0.3716
-0.1497 0.8649 0.3715
-0.2262 0.8479 0.3714
-0.3008 0.8240 0.3713
-0.3729 0.7935 0.3711
-0.4419 0.7566 0.3708
-0.5072 0.7136 0.3706
-0.5683 0.6650 0.3702
-0.6248 0.6111 0.3699
-0.6761 0.5523 0.3695
-0.7218 0.4893 0.3691
-0.7617 0.4225 0.3687
-0.7954 0.3525 0.3682
-0.8226 0.2798 0.3678
-0.8432 0.2050 0.3673
-0.8570 0.1288 0.3668
-0.8639 0.0518 0.3663
-0.8639 -0.0254 0.3658
-0.8570 -0.1022 0.3653
-0.8434 -0.1780 0.3648
-0.8231 -0.2521 0.3644
-0.7963 -0.3241 0.3639
-0.7633 -0.3934 0.3635
-0.7243 -0.4593 0.3630
-0.6797 -0.5215 0.3626
-0.6299 -0.5795 0.3623
-0.5752 -0.6328 0.3619
-0.5160 -0.6810 0.3616
-0.4529 -0.7237 0.3614
-0.3863 -0.7607 0.3611
-0.3167 -0.7917 0.3609
-0.2448 -0.8165 0.3608
-0.1709 -0.8348 0.3607
-0.0958 -0.8465 0.3606
-0.0199 -0.8516 0.3606
0.0561 -0.8500 0.3606
0.1317 -0.8418 0.3606
0.2063 -0.8269 0.3607
0.2794 -0.8055 0.3609
0.3503 -0.7778 0.3610
0.4185 -0.7439 0.3613
0.4835 -0.7041 0.3615
0.5448 -0.6587 0.3618
0.6019 -0.6081 0.3621
0.6544 -0.5525 0.3625
0.7018 -0.4925 0.3629
0.7438 -0.4284 0.3633
0.7799 -0.3608 0.3637
0.8100 -0.2902 0.3642
0.8337 -0.2171 0.3647
0.8509 -0.1420 0.3651
0.8613 -0.0657 0.3656
0.8649 0.0114 0.3661
0.8616 0.0886 0.3666
0.8514 0.1653 0.3671
0.8344 0.2409 0.3676
0.8106 0.3148 0.3681
0.7803 0.3863 0.3685
0.7436 0.4549 0.3690
0.7008 0.5200 0.3694
0.6524 0.5810 0.3698
0.5985 0.6375 0.3701
0.5398 0.6889 0.3704
0.4766 0.7349 0.3707
0.4094 0.7750 0.3710
0.3389 0.8089 0.3712
0.2655 0.8363 0.3714
0.1899 0.8569 0.3715
0.1128 0.8706 0.3716
0.0347 0.8773 0.3716
-0.0437 0.8769 0.3716
-0.1217 0.8694 0.3716
-0.1987 0.8549 0.3715
-0.2740 0.8334 0.3713
-0.3471 0.8053 0.3712
-0.4173 0.7706 0.3709
-0.4840 0.7298 0.3707
-0.5467 0.6832 0.3704
-0.6049 0.6312 0.3700
-0.6581 0.5741 0.3697
-0.7059 0.5126 0.3693
-0.7480 0.4471 0.3688
-0.7839 0.3781 0.3684
-0.8135 0.3063 0.3679
-0.8365 0.2323 0.3675
-0.8528 0.1565 0.3670
-0.8622 0.0798 0.3665
-0.8647 0.0026 0.3660
-0.8603 -0.0745 0.3655
-0.8491 -0.1507 0.3650
-0.8312 -0.2255 0.3645
-0.8067 -0.2984 0.3641
-0.7759 -0.3687 0.3636
-0.7391 -0.4359 0.3632
-0.6965 -0.4995 0.3628
-0.6485 -0.5590 0.3624
-0.5955 -0.6140 0.3620
-0.5379 -0.6641 0.3617
-0.4762 -0.7089 0.3614
-0.4108 -0.7480 0.3612
-0.3422 -0.7812 0.3610
-0.2711 -0.8082 0.3608
-0.1978 -0.8289 0.3607
-0.1231 -0.8430 0.3606
-0.0474 -0.8505 0.3606
0.0286 -0.8514 0.3606
0.1044 -0.8455 0.3606
0.1795 -0.8330 0.3607
0.2531 -0.8140 0.3608
0.3249 -0.7885 0.3610
0.3941 -0.7568 0.3612
0.4604 -0.7192 0.3614
0.5231 -0.6758 0.3617
0.5817 -0.6270 0.3620
0.6360 -0.5732 0.3624
0.6852 -0.5147 0.3627
0.7292 -0.4520 0.3631
0.7675 -0.3857 0.3636
0.7998 -0.3161 0.3640
0.8259 -0.2438 0.3645
0.8455 -0.1694 0.3650
0.8583 -0.0934 0.3654
0.8644 -0.0165 0.3659
0.8636 0.0607 0.3664
0.5738 0.6401 0.3701
0.5149 0.6894 0.3704
0.4517 0.7331 0.3707
0.3848 0.7709 0.3710
0.3146 0.8026 0.3712
0.2419 0.8278 0.3713
0.1672 0.8464 0.3714
0.0911 0.8581 0.3715
0.0142 0.8628 0.3715
-0.0628 0.8606 0.3715
-0.1393 0.8514 0.3715
-0.2146 0.8354 0.3713
-0.2881 0.8126 0.3712
-0.3593 0.7832 0.3710
-0.4274 0.7476 0.3708
-0.4920 0.7060 0.3705
-0.5526 0.6588 0.3702
-0.6086 0.6063 0.3699
-0.6596 0.5491 0.3695
-0.7051 0.4875 0.3691
-0.7450 0.4222 0.3687
-0.7787 0.3537 0.3682
-0.8062 0.2825 0.3678
-0.8271 0.2092 0.3673
-0.8413 0.1344 0.3668
-0.8489 0.0588 0.3663
-0.8496 -0.0171 0.3659
-0.8436 -0.0927 0.3654
-0.8308 -0.1673 0.3649
-0.8116 -0.2405 0.3644
-0.7859 -0.3115 0.3640
-0.7541 -0.3799 0.3635
-0.7164 -0.4451 0.3631
-0.6731 -0.5067 0.3627
-0.6246 -0.5641 0.3624
-0.5713 -0.6170 0.3620
-0.5136 -0.6649 0.3617
-0.4519 -0.7075 0.3615
-0.3867 -0.7445 0.3612
-0.3186 -0.7756 0.3610
-0.2481 -0.8006 0.3609
-0.1756 -0.8193 0.3608
-0.1019 -0.8315 0.3607
-0.0273 -0.8372 0.3606
0.0475 -0.8363 0.3607
0.1219 -0.8289 0.3607
0.1954 -0.8149 0.3608
0.2674 -0.7945 0.3609
0.3373 -0.7679 0.3611
0.4047 -0.7352 0.3613
0.4690 -0.6966 0.3616
0.5296 -0.6526 0.3618
0.5862 -0.6033 0.3622
