ply
format ascii 1.0
element vertex 2178
property float32 x
property float32 y
property float32 z
end_header
0.7637 -0.8790 0.3547
0.8387 -0.8071 0.3545
0.9072 -0.7289 0.3545
0.9687 -0.6452 0.3545
1.0228 -0.5564 0.3547
1.0690 -0.4632 0.3549
1.1070 -0.3663 0.3552
1.1365 -0.2664 0.3556
1.1573 -0.1641 0.3560
1.1691 -0.0603 0.3566
1.1718 0.0443 0.3572
1.1655 0.1489 0.3579
1.1500 0.2528 0.3587
1.1254 0.3552 0.3595
1.0919 0.4553 0.3603
5.4200 2.8520 1.8656
5.1439 3.3241 1.8656
4.8269 3.7697 1.8656
4.4714 4.1853 1.8656
4.0802 4.5675 1.8656
3.6564 4.9133 1.8656
1.7447 2.8428 1.0160
1.2344 2.4844 0.8450
1.0321 2.6470 0.8654
0.8182 2.8190 0.8941
0.2341 1.1969 0.3715
0.1267 1.2161 0.3725
0.0178 1.2255 0.3733
-0.0918 1.2250 0.3742
-0.2012 1.2144 0.3750
-0.3093 1.1939 0.3757
-0.4153 1.1635 0.3763
-0.5181 1.1234 0.3769
-0.6170 1.0740 0.3773
-0.7111 1.0157 0.3777
-0.7994 0.9489 0.3779
-0.8813 0.8742 0.3781
-0.9560 0.7922 0.3782
-1.0227 0.7038 0.3782
-1.0811 0.6095 0.3780
-1.1305 0.5103 0.3778
-1.1705 0.4071 0.3775
-1.2008 0.3007 0.3771
-1.2212 0.1922 0.3766
-1.2315 0.0823 0.3760
-1.2317 -0.0278 0.3753
-1.2219 -0.1373 0.3745
-1.2021 -0.2452 0.3737
-1.1727 -0.3507 0.3729
-1.1339 -0.4528 0.3719
-5.0369 -2.5536 1.7202
-4.8136 -3.0081 1.7290
-4.5387 -3.4351 1.7338
-3.6461 -3.3105 1.5001
-3.8674 -4.1993 1.7390
-3.4783 -4.5288 1.7394
-3.0588 -4.8185 1.7385
-2.6133 -5.0654 1.7362
-2.1465 -5.2672 1.7326
-1.6633 -5.4221 1.7276
-0.2449 -1.1587 0.3607
-0.1402 -1.1730 0.3598
-0.0350 -1.1781 0.3590
0.0701 -1.1739 0.3582
0.1742 -1.1606 0.3575
0.2765 -1.1384 0.3568
0.3764 -1.1074 0.3563
0.4730 -1.0679 0.3558
0.5657 -1.0202 0.3553
0.6538 -0.9648 0.3550
0.7368 -0.9019 0.3548
0.8139 -0.8322 0.3546
0.8847 -0.7561 0.3545
0.9487 -0.6742 0.3545
1.0053 -0.5871 0.3546
1.0542 -0.4953 0.3548
1.0950 -0.3996 0.3551
1.1275 -0.3006 0.3554
1.1512 -0.1991 0.3559
1.1661 -0.0957 0.3564
1.1719 0.0087 0.3570
1.1687 0.1134 0.3577
1.1563 0.2177 0.3584
1.1347 0.3206 0.3592
1.1042 0.4216 0.3600
1.0649 0.5197 0.3609
5.2424 3.1665 1.8656
4.9390 3.6216 1.8656
4.5962 4.0478 1.8656
4.2169 4.4416 1.8656
3.8038 4.8001 1.8656
3.3604 5.1203 1.8656
1.3011 2.4308 0.8398
1.1020 2.5909 0.8576
0.8924 2.7593 0.8834
0.6681 2.9395 0.9182
0.1634 1.2107 0.3721
0.0549 1.2235 0.3731
-0.0546 1.2263 0.3739
-0.1641 1.2191 0.3747
-0.2728 1.2020 0.3754
-0.3796 1.1749 0.3761
-0.4836 1.1381 0.3767
-0.5840 1.0918 0.3772
-0.6797 1.0365 0.3776
-0.7701 0.9725 0.3779
-0.8543 0.9004 0.3781
-0.9314 0.8209 0.3782
-1.0010 0.7345 0.3782
-1.0622 0.6421 0.3781
-1.1147 0.5445 0.3779
-1.1580 0.4426 0.3776
-1.1916 0.3372 0.3772
-1.2154 0.2292 0.3767
-1.2291 0.1197 0.3762
-1.2328 0.0096 0.3755
-1.2263 -0.1003 0.3748
-1.2099 -0.2088 0.3740
-1.1838 -0.3152 0.3732
-1.1481 -0.4185 0.3722
-1.1034 -0.5179 0.3713
-4.8947 -2.8561 1.7262
-4.6370 -3.2931 1.7324
-3.7814 -3.2296 1.5148
-3.7278 -3.8091 1.6235
-3.6141 -4.4212 1.7394
-3.2045 -4.7248 1.7390
-2.7673 -4.9865 1.7372
-2.3071 -5.2039 1.7339
-1.8289 -5.3748 1.7294
-0.2802 -1.1517 0.3611
-0.1759 -1.1692 0.3601
-0.0707 -1.1774 0.3593
0.0345 -1.1763 0.3585
0.1390 -1.1662 0.3577
0.2420 -1.1469 0.3571
0.3428 -1.1189 0.3565
0.4406 -1.0822 0.3559
0.5347 -1.0373 0.3555
0.6245 -0.9844 0.3551
0.7092 -0.9241 0.3548
0.7884 -0.8566 0.3546
0.8614 -0.7827 0.3545
0.9277 -0.7027 0.3545
0.9869 -0.6172 0.3546
1.0385 -0.5269 0.3547
1.0821 -0.4325 0.3550
1.1174 -0.3346 0.3553
1.1441 -0.2338 0.3557
1.1620 -0.1310 0.3562
1.1710 -0.0269 0.3568
1.1708 0.0779 0.3574
1.1615 0.1823 0.3581
1.1431 0.2859 0.3589
1.1156 0.3876 0.3597
1.0792 0.4868 0.3606
5.3361 3.0060 1.8656
5.0466 3.4701 1.8656
4.7169 3.9065 1.8656
4.3497 4.3117 1.8656
3.9477 4.6825 1.8656
3.5142 5.0160 1.8656
1.3671 2.3778 0.8355
1.1706 2.5357 0.8507
0.9650 2.7009 0.8737
0.7463 2.8767 0.9053
0.1999 1.2042 0.3718
0.0919 1.2202 0.3727
-0.0174 1.2265 0.3736
-0.1270 1.2227 0.3744
-0.2360 1.2089 0.3752
-0.3435 1.1852 0.3759
-0.4486 1.1517 0.3765
-0.5503 1.1086 0.3770
-0.6478 1.0563 0.3774
-0.7401 0.9952 0.3778
-0.8264 0.9258 0.3780
-0.9061 0.8487 0.3782
-0.9783 0.7645 0.3782
-1.0424 0.6741 0.3781
-1.0979 0.5782 0.3780
-1.1443 0.4776 0.3777
-1.1813 0.3733 0.3774
-1.2084 0.2661 0.3769
-1.2256 0.1570 0.3764
-1.2327 0.0470 0.3758
-1.2297 -0.0630 0.3751
-1.2166 -0.1721 0.3743
-1.1938 -0.2794 0.3735
-1.1613 -0.3838 0.3726
-1.1196 -0.4847 0.3716
-4.9704 -2.7015 1.7232
-4.7305 -3.1481 1.7309
-4.2570 -3.4180 1.6630
-4.1123 -3.9545 1.7378
-3.7462 -4.3091 1.7393
-3.3469 -4.6262 1.7393
-2.9186 -4.9025 1.7379
-2.4657 -5.1352 1.7352
-1.9931 -5.3221 1.7311
-0.3153 -1.1437 0.3614
-0.2115 -1.1643 0.3604
-0.1065 -1.1756 0.3596
-0.0012 -1.1777 0.3587
0.1036 -1.1706 0.3580
0.2073 -1.1545 0.3573
0.3089 -1.1294 0.3567
0.4078 -1.0956 0.3561
0.5032 -1.0535 0.3556
0.5945 -1.0033 0.3552
0.6810 -0.9454 0.3549
0.7622 -0.8803 0.3547
0.8373 -0.8085 0.3545
0.9060 -0.7305 0.3545
0.9676 -0.6468 0.3545
1.0218 -0.5581 0.3547
1.0682 -0.4650 0.3549
1.1064 -0.3682 0.3552
1.1360 -0.2683 0.3556
1.1570 -0.1661 0.3560
1.1689 -0.0623 0.3566
1.1719 0.0423 0.3572
1.1657 0.1469 0.3579
1.1503 0.2509 0.3586
1.1259 0.3533 0.3595
1.0926 0.4534 0.3603
5.4248 2.8428 1.8656
5.1496 3.3154 1.8656
4.8333 3.7616 1.8656
4.4785 4.1777 1.8656
1.0900 0.3849 0.3599
1.0539 0.4818 0.3608
1.0093 0.5754 0.3617
4.9199 3.4200 1.8656
4.5952 3.8453 1.8656
4.2339 4.2399 1.8656
3.8388 4.6007 1.8656
3.4130 4.9248 1.8656
1.3561 2.3866 0.8547
1.1591 2.5449 0.8707
0.9529 2.7106 0.8946
0.2932 1.1542 0.3708
0.1895 1.1788 0.3717
0.0838 1.1939 0.3726
-0.0231 1.1994 0.3735
-0.1303 1.1951 0.3743
-0.2368 1.1810 0.3750
-0.3418 1.1572 0.3757
-0.4444 1.1239 0.3763
-0.5436 1.0812 0.3768
-0.6386 1.0295 0.3772
-0.7285 0.9693 0.3775
-0.8126 0.9010 0.3778
-0.8900 0.8252 0.3779
-0.9602 0.7426 0.3779
-1.0224 0.6538 0.3779
-1.0762 0.5598 0.3777
-1.1211 0.4612 0.3774
-1.1567 0.3590 0.3771
-1.1827 0.2541 0.3766
-1.1990 0.1474 0.3761
-1.2054 0.0398 0.3755
-1.2019 -0.0678 0.3748
-1.1887 -0.1744 0.3741
-1.1658 -0.2791 0.3732
-1.1336 -0.3811 0.3724
-1.0924 -0.4795 0.3714
-4.8397 -2.6625 1.7198
-4.6008 -3.0957 1.7265
-4.2507 -3.4487 1.7043
-3.9950 -3.8811 1.7342
-3.6357 -4.2252 1.7355
-3.2442 -4.5326 1.7355
-2.8246 -4.8000 1.7341
-2.3813 -5.0249 1.7313
-1.9189 -5.2045 1.7271
-0.3028 -1.1206 0.3614
-0.2011 -1.1403 0.3605
-0.0984 -1.1510 0.3597
0.0047 -1.1526 0.3589
0.1073 -1.1452 0.3581
0.2086 -1.1289 0.3574
0.3079 -1.1039 0.3568
0.4046 -1.0704 0.3563
0.4978 -1.0287 0.3558
0.5870 -0.9791 0.3554
0.6714 -0.9221 0.3551
0.7505 -0.8580 0.3549
0.8238 -0.7873 0.3548
0.8906 -0.7106 0.3547
0.9506 -0.6284 0.3548
1.0032 -0.5413 0.3549
1.0481 -0.4499 0.3551
1.0850 -0.3549 0.3554
1.1135 -0.2570 0.3558
1.1335 -0.1568 0.3563
1.1447 -0.0552 0.3568
1.1470 0.0472 0.3574
1.1404 0.1496 0.3581
1.1248 0.2513 0.3588
1.1003 0.3514 0.3596
1.0671 0.4492 0.3605
1.0254 0.5440 0.3614
5.0214 3.2692 1.8656
4.7098 3.7041 1.8656
4.3606 4.1095 1.8656
3.9766 4.4821 1.8656
3.5609 4.8190 1.8656
1.6899 2.7747 1.0115
1.2269 2.4905 0.8644
1.0242 2.6533 0.8855
0.8097 2.8257 0.9152
0.2250 1.1715 0.3714
0.1199 1.1899 0.3723
0.0133 1.1986 0.3732
-0.0939 1.1977 0.3740
-0.2008 1.1869 0.3748
-0.3064 1.1664 0.3755
-0.4099 1.1363 0.3761
-0.5104 1.0967 0.3766
-0.6069 1.0481 0.3771
-0.6986 0.9907 0.3774
-0.7847 0.9250 0.3777
-0.8645 0.8517 0.3779
-0.9372 0.7713 0.3779
-1.0022 0.6846 0.3779
-1.0589 0.5923 0.3778
-1.1069 0.4952 0.3775
-1.1456 0.3941 0.3772
-1.1749 0.2900 0.3768
-1.1945 0.1838 0.3763
-1.2043 0.0764 0.3757
-1.2042 -0.0313 0.3751
-1.1943 -0.1383 0.3743
-1.1746 -0.2438 0.3735
-1.1456 -0.3468 0.3727
-1.1074 -0.4465 0.3718
-1.0604 -0.5421 0.3708
-4.6858 -2.9504 1.7240
-4.4199 -3.3689 1.7303
-3.6242 -3.3132 1.5289
-3.7615 -4.1123 1.7352
-3.3805 -4.4325 1.7356
-2.9700 -4.7139 1.7347
-2.5343 -4.9534 1.7324
-2.0779 -5.1490 1.7288
-0.3369 -1.1119 0.3617
-0.2358 -1.1346 0.3608
-0.1333 -1.1484 0.3599
-0.0303 -1.1530 0.3591
0.0725 -1.1487 0.3584
0.1744 -1.1354 0.3577
0.2745 -1.1133 0.3570
0.3721 -1.0827 0.3565
0.4666 -1.0437 0.3560
0.5572 -0.9968 0.3556
0.6433 -0.9423 0.3552
0.7243 -0.8805 0.3550
0.7996 -0.8120 0.3548
0.8686 -0.7373 0.3547
0.9310 -0.6569 0.3548
0.9862 -0.5714 0.3549
1.0337 -0.4814 0.3550
1.0734 -0.3876 0.3553
1.1048 -0.2905 0.3557
1.1277 -0.1911 0.3561
1.1418 -0.0898 0.3566
1.1472 0.0124 0.3572
1.1436 0.1149 0.3579
1.1311 0.2169 0.3586
1.1096 0.3176 0.3594
1.0794 0.4163 0.3602
1.0405 0.5122 0.3611
5.1183 3.1154 1.8656
4.8200 3.5595 1.8656
4.4832 3.9753 1.8656
4.1107 4.3594 1.8656
3.7055 4.7087 1.8656
2.3078 3.5426 1.3164
1.2937 2.4368 0.8590
1.0942 2.5971 0.8775
0.8842 2.7659 0.9041
0.2602 1.1631 0.3711
0.1558 1.1847 0.3720
0.0496 1.1967 0.3729
-0.0575 1.1991 0.3738
-0.1645 1.1917 0.3745
-0.2707 1.1745 0.3753
-0.3750 1.1476 0.3759
-0.4766 1.1112 0.3765
-0.5746 1.0656 0.3769
-0.6680 1.0111 0.3773
-0.7562 0.9482 0.3776
-0.8382 0.8775 0.3778
-0.9133 0.7994 0.3779
-0.9810 0.7147 0.3779
-1.0406 0.6242 0.3778
-1.0916 0.5286 0.3776
-1.1335 0.4288 0.3773
-1.1661 0.3257 0.3769
-1.1890 0.2201 0.3765
-1.2021 0.1129 0.3759
-1.2053 0.0053 0.3753
-1.1987 -0.1021 0.3746
-1.1824 -0.2082 0.3738
-1.1565 -0.3121 0.3730
-1.1214 -0.4131 0.3721
-1.0773 -0.5102 0.3711
-4.7656 -2.8025 1.7213
-4.5159 -3.2302 1.7287
-3.7320 -3.2094 1.5325
-3.7323 -3.8397 1.6672
-3.5134 -4.3280 1.7356
-3.1125 -4.6228 1.7352
-2.6848 -4.8769 1.7333
-2.2350 -5.0876 1.7301
-0.3709 -1.1021 0.3621
-0.2704 -1.1279 0.3611
-0.1682 -1.1447 0.3602
-0.0653 -1.1525 0.3594
0.0377 -1.1512 0.3586
0.1399 -1.1409 0.3579
0.2407 -1.1218 0.3572
0.3393 -1.0940 0.3566
0.4349 -1.0579 0.3561
0.5269 -1.0136 0.3557
0.6146 -0.9616 0.3553
0.6974 -0.9023 0.3551
0.7747 -0.8360 0.3549
0.8459 -0.7634 0.3548
0.9106 -0.6848 0.3547
0.9682 -0.6010 0.3548
1.0184 -0.5124 0.3550
1.0608 -0.4198 0.3552
1.0950 -0.3238 0.3555
1.1208 -0.2251 0.3559
1.1380 -0.1244 0.3564
1.1464 -0.0224 0.3570
1.1458 0.0801 0.3576
1.1363 0.1824 0.3583
1.1179 0.2836 0.3591
1.0906 0.3831 0.3599
1.0547 0.4800 0.3608
1.0102 0.5736 0.3617
4.9258 3.4117 1.8656
4.6018 3.8375 1.8656
4.2411 4.2327 1.8656
3.8466 4.5942 1.8656
3.4214 4.9190 1.8656
1.3598 2.3837 0.8544
1.1629 2.5419 0.8703
0.9570 2.7074 0.8941
0.2951 1.1537 0.3708
0.1915 1.1784 0.3717
0.0858 1.1937 0.3726
-0.0210 1.1994 0.3735
-0.1282 1.1953 0.3743
-0.2348 1.1814 0.3750
-0.3399 1.1578 0.3757
-0.4425 1.1246 0.3763
-0.5418 1.0821 0.3768
-0.6368 1.0306 0.3772
-0.7269 0.9705 0.3775
-0.8110 0.9023 0.3778
-0.8886 0.8267 0.3779
-0.9589 0.7442 0.3779
-1.0213 0.6556 0.3779
-1.0753 0.5616 0.3777
-1.1203 0.4631 0.3774
-1.1561 0.3610 0.3771
-1.1823 0.2561 0.3766
-1.1987 0.1494 0.3761
-1.2053 0.0418 0.3755
-1.2021 -0.0657 0.3748
-1.1890 -0.1724 0.3741
-1.1663 -0.2771 0.3733
-1.1343 -0.3792 0.3724
-1.0933 -0.4777 0.3715
-4.8441 -2.6542 1.7198
-4.6057 -3.0876 1.7264
-4.2633 -3.4469 1.7070
-4.0016 -3.8742 1.7342
-3.6428 -4.2190 1.7355
-3.2519 -4.5271 1.7355
-2.8328 -4.7953 1.7341
-2.3900 -5.0210 1.7314
-1.9279 -5.2017 1.7272
-0.3047 -1.1202 0.3614
-0.2031 -1.1400 0.3605
-0.1003 -1.1508 0.3597
0.0027 -1.1526 0.3589
0.1053 -1.1454 0.3581
0.2067 -1.1293 0.3574
0.3061 -1.1044 0.3568
0.4028 -1.0711 0.3563
0.4961 -1.0296 0.3558
0.5853 -0.9801 0.3554
0.6698 -0.9232 0.3551
0.7491 -0.8593 0.3549
0.8224 -0.7887 0.3548
0.8894 -0.7121 0.3547
0.9495 -0.6300 0.3548
1.0023 -0.5430 0.3549
1.0473 -0.4517 0.3551
1.0844 -0.3568 0.3554
1.1130 -0.2589 0.3558
1.1332 -0.1588 0.3563
1.1445 -0.0571 0.3568
1.1470 0.0453 0.3574
1.1406 0.1477 0.3581
1.1252 0.2494 0.3588
1.1009 0.3495 0.3596
1.0679 0.4474 0.3605
1.0262 0.5422 0.3614
5.0270 3.2607 1.8656
4.7161 3.6961 1.8656
4.3675 4.1021 1.8656
3.9842 4.4754 1.8656
3.5691 4.8129 1.8656
1.7169 2.8081 1.0248
1.2306 2.4875 0.8641
1.0282 2.6502 0.8851
0.8139 2.8223 0.9146
0.2270 1.1711 0.3714
0.1219 1.1896 0.3723
0.0153 1.1986 0.3732
-0.0918 1.1978 0.3740
-0.1987 1.1872 0.3748
-0.3044 1.1669 0.3755
-0.4080 1.1369 0.3761
-0.5085 1.0976 0.3766
-0.6051 1.0491 0.3771
-0.6969 0.9918 0.3774
-0.7832 0.9264 0.3777
-0.8630 0.8532 0.3779
-0.9359 0.7729 0.3779
-1.0010 0.6863 0.3779
-1.0579 0.5941 0.3778
-1.1060 0.4970 0.3775
-1.1450 0.3961 0.3772
-1.1745 0.2920 0.3768
-1.1943 0.1858 0.3763
-1.2042 0.0784 0.3757
-1.2043 -0.0293 0.3751
-1.1945 -0.1363 0.3743
-1.1751 -0.2418 0.3735
-1.1462 -0.3449 0.3727
-1.1082 -0.4447 0.3718
-1.0614 -0.5404 0.3708
-4.6904 -2.9422 1.7239
-4.4255 -3.3612 1.7303
-3.6278 -3.3051 1.5280
-3.7685 -4.1058 1.7352
-3.3880 -4.4268 1.7356
-2.9780 -4.7089 1.7347
-2.5428 -4.9493 1.7324
-2.0868 -5.1457 1.7289
-0.3389 -1.1114 0.3618
-0.2378 -1.1343 0.3608
-0.1353 -1.1482 0.3600
-0.0323 -1.1530 0.3591
0.0706 -1.1488 0.3584
0.1724 -1.1357 0.3577
0.2726 -1.1138 0.3570
0.3703 -1.0834 0.3565
0.4648 -1.0446 0.3560
0.5555 -0.9978 0.3556
0.6417 -0.9434 0.3552
0.7228 -0.8818 0.3550
0.7982 -0.8134 0.3548
0.8674 -0.7388 0.3547
0.9299 -0.6585 0.3548
0.9852 -0.5731 0.3549
1.0329 -0.4831 0.3550
1.0727 -0.3894 0.3553
1.1042 -0.2924 0.3557
1.1273 -0.1930 0.3561
1.1417 -0.0918 0.3566
1.1472 0.0105 0.3572
1.1438 0.1130 0.3578
1.1314 0.2150 0.3586
1.1101 0.3157 0.3593
1.0800 0.4145 0.3602
1.0413 0.5104 0.3611
5.1236 3.1067 1.8656
4.8260 3.5513 1.8656
4.4900 3.9677 1.8656
4.1181 4.3524 1.8656
3.7134 4.7024 1.8656
3.2791 5.0149 1.8656
1.2974 2.4338 0.8587
1.0981 2.5940 0.8770
0.8883 2.7626 0.9035
0.2622 1.1626 0.3711
0.1578 1.1844 0.3720
0.0516 1.1966 0.3729
-0.0554 1.1991 0.3738
-0.1625 1.1919 0.3745
-0.2687 1.1749 0.3752
-0.3731 1.1482 0.3759
-0.4747 1.1120 0.3764
-0.5728 1.0665 0.3769
-0.6663 1.0122 0.3773
-0.7545 0.9495 0.3776
-0.8367 0.8789 0.3778
-0.9120 0.8009 0.3779
-0.9798 0.7164 0.3779
-1.0395 0.6260 0.3778
-1.0907 0.5305 0.3776
-1.1328 0.4307 0.3773
-1.1655 0.3276 0.3770
-1.1886 0.2221 0.3765
-1.2019 0.1150 0.3759
-1.2054 0.0073 0.3753
-1.1989 -0.1001 0.3746
-1.1828 -0.2062 0.3738
-1.1571 -0.3102 0.3730
-1.1221 -0.4112 0.3721
-1.0782 -0.5084 0.3712
-4.7699 -2.7941 1.7212
-4.5210 -3.2223 1.7286
-3.7407 -3.2058 1.5339
-3.7363 -3.8308 1.6661
-3.5208 -4.3220 1.7356
-3.1204 -4.6176 1.7352
-2.6932 -4.8725 1.7334
-2.2437 -5.0840 1.7302
-0.3727 -1.1016 0.3621
-0.2723 -1.1275 0.3611
-0.1702 -1.1445 0.3603
-0.0673 -1.1524 0.3594
0.0357 -1.1513 0.3586
0.1380 -1.1412 0.3579
0.2388 -1.1222 0.3572
0.3374 -1.0947 0.3566
0.4331 -1.0587 0.3561
0.5252 -1.0145 0.3557
0.6130 -0.9627 0.3553
0.6958 -0.9035 0.3551
0.7733 -0.8373 0.3549
0.8446 -0.7648 0.3548
0.9094 -0.6864 0.3547
0.9672 -0.6026 0.3548
1.0176 -0.5142 0.3550
1.0601 -0.4216 0.3552
1.0945 -0.3257 0.3555
1.1204 -0.2270 0.3559
1.1378 -0.1263 0.3564
1.1463 -0.0243 0.3570
1.1459 0.0782 0.3576
1.1366 0.1804 0.3583
1.1183 0.2817 0.3591
1.0912 0.3812 0.3599
1.0554 0.4782 0.3608
1.0111 0.5719 0.3617
4.9315 3.4033 1.8656
4.6083 3.8296 1.8656
4.2483 4.2255 1.8656
3.8543 4.5876 1.8656
3.4298 4.9132 1.8656
1.3635 2.3807 0.8542
1.1668 2.5388 0.8699
0.9610 2.7042 0.8935
0.2971 1.1531 0.3708
0.1935 1.1780 0.3717
0.0879 1.1935 0.3726
-0.0190 1.1994 0.3735
-0.1262 1.1954 0.3743
-0.2328 1.1817 0.3750
-0.3379 1.1583 0.3757
-0.4406 1.1253 0.3763
-0.5399 1.0830 0.3768
-0.6351 1.0317 0.3772
-0.7252 0.9717 0.3775
-0.8095 0.9037 0.3777
-0.8872 0.8282 0.3779
-0.9576 0.7458 0.3779
-1.0202 0.6573 0.3779
-1.0743 0.5634 0.3777
-1.1195 0.4650 0.3774
-1.1555 0.3630 0.3771
-1.1819 0.2582 0.3767
-1.1985 0.1515 0.3761
-1.2053 0.0439 0.3755
-1.2022 -0.0637 0.3748
-1.1893 -0.1703 0.3741
-1.1669 -0.2752 0.3733
-1.1350 -0.3773 0.3724
-1.0941 -0.4758 0.3715
-4.8485 -2.6460 1.7198
-4.6105 -3.0796 1.7263
-4.2758 -3.4451 1.7096
-4.0080 -3.8673 1.7341
-3.6499 -4.2128 1.7355
-3.2596 -4.5216 1.7355
-2.8410 -4.7906 1.7341
-2.3986 -5.0172 1.7314
-1.9369 -5.1988 1.7273
-0.3066 -1.1197 0.3615
-0.2050 -1.1397 0.3605
-0.1023 -1.1507 0.3597
0.0008 -1.1527 0.3589
0.1034 -1.1456 0.3581
0.2048 -1.1297 0.3575
0.3042 -1.1050 0.3568
0.4010 -1.0718 0.3563
0.4943 -1.0304 0.3558
0.5836 -0.9811 0.3554
0.6683 -0.9244 0.3551
0.7476 -0.8605 0.3549
0.8211 -0.7901 0.3548
0.8882 -0.7136 0.3547
0.9484 -0.6316 0.3548
1.0013 -0.5447 0.3549
1.0465 -0.4535 0.3551
1.0837 -0.3586 0.3554
1.1126 -0.2608 0.3558
1.1329 -0.1607 0.3562
1.1444 -0.0591 0.3568
1.1470 0.0433 0.3574
1.1408 0.1458 0.3581
1.1255 0.2474 0.3588
1.1014 0.3476 0.3596
1.0686 0.4456 0.3605
1.0271 0.5405 0.3614
5.0325 3.2521 1.8656
4.7223 3.6881 1.8656
4.3745 4.0947 1.8656
3.9918 4.4686 1.8656
3.5772 4.8069 1.8656
1.7445 2.8425 1.0384
1.2344 2.4844 0.8638
1.0321 2.6470 0.8846
0.8182 2.8189 0.9139
0.2290 1.1706 0.3714
0.1239 1.1893 0.3723
0.0174 1.1985 0.3732
-0.0898 1.1979 0.3740
-0.1967 1.1875 0.3748
-0.3024 1.1674 0.3755
-0.4060 1.1376 0.3761
-0.5066 1.0984 0.3766
-0.6033 1.0501 0.3771
-0.6952 0.9930 0.3774
-0.7816 0.9277 0.3777
-0.8616 0.8546 0.3779
-0.9346 0.7745 0.3779
-0.9999 0.6880 0.3779
-1.0569 0.5959 0.3778
-1.1052 0.4989 0.3775
-1.1443 0.3980 0.3772
-1.1740 0.2940 0.3768
-1.1940 0.1879 0.3763
-1.2041 0.0805 0.3757
-1.2044 -0.0272 0.3751
-1.1948 -0.1343 0.3743
-1.1756 -0.2398 0.3736
-1.1469 -0.3429 0.3727
-1.1090 -0.4428 0.3718
-1.0624 -0.5386 0.3708
-4.6950 -2.9340 1.7238
-4.4310 -3.3536 1.7302
-3.6322 -3.2978 1.5275
-3.7754 -4.0994 1.7352
-3.3956 -4.4210 1.7356
-2.9861 -4.7039 1.7347
-2.5513 -4.9451 1.7325
-2.0956 -5.1424 1.7289
-0.3408 -1.1108 0.3618
-0.2397 -1.1339 0.3609
-0.1372 -1.1480 0.3600
-0.0342 -1.1530 0.3592
0.0686 -1.1490 0.3584
0.1705 -1.1361 0.3577
0.2707 -1.1143 0.3570
0.3684 -1.0840 0.3565
0.4630 -1.0454 0.3560
0.5538 -0.9987 0.3556
0.6401 -0.9445 0.3552
0.7213 -0.8830 0.3550
0.7968 -0.8147 0.3548
0.8661 -0.7403 0.3547
0.9287 -0.6601 0.3548
0.9842 -0.5747 0.3549
1.0321 -0.4849 0.3550
1.0720 -0.3912 0.3553
1.1037 -0.2943 0.3557
1.1269 -0.1949 0.3561
1.1415 -0.0937 0.3566
1.1471 0.0085 0.3572
1.1439 0.1110 0.3578
1.1317 0.2130 0.3585
1.1106 0.3138 0.3593
1.0807 0.4126 0.3602
1.0421 0.5086 0.3611
5.1289 3.0979 1.8656
4.8320 3.5431 1.8656
4.4967 3.9601 1.8656
4.1255 4.3454 1.8656
3.7214 4.6961 1.8656
3.2877 5.0094 1.8656
1.3011 2.4308 0.8584
1.1020 2.5909 0.8766
0.8924 2.7593 0.9029
0.2641 1.1621 0.3711
0.1598 1.1841 0.3720
0.0537 1.1965 0.3729
-0.0534 1.1992 0.3737
-0.1605 1.1921 0.3745
-0.2667 1.1753 0.3752
-0.3711 1.1488 0.3759
-0.4728 1.1128 0.3764
-0.5709 1.0675 0.3769
-0.6646 1.0134 0.3773
-0.7529 0.9508 0.3776
-0.8352 0.8803 0.3778
-0.9106 0.8025 0.3779
-0.9786 0.7181 0.3779
-1.0385 0.6278 0.3778
-1.0898 0.5323 0.3776
-1.1321 0.4327 0.3773
-1.1650 0.3296 0.3770
-1.1883 0.2241 0.3765
-1.2018 0.1170 0.3759
-1.2054 0.0094 0.3753
-1.1992 -0.0980 0.3746
-1.1832 -0.2042 0.3738
-1.1577 -0.3082 0.3730
-1.1229 -0.4093 0.3721
-1.0792 -0.5066 0.3712
-4.7742 -2.7858 1.7210
-4.5262 -3.2144 1.7285
-3.7495 -3.2023 1.5352
-3.7403 -3.8219 1.6650
-3.5281 -4.3160 1.7356
-3.1282 -4.6124 1.7352
-2.7015 -4.8680 1.7334
-2.2524 -5.0804 1.7303
-0.3746 -1.1010 0.3621
-0.2742 -1.1271 0.3612
-0.1722 -1.1442 0.3603
-0.0692 -1.1523 0.3594
0.0338 -1.1514 0.3586
0.1361 -1.1415 0.3579
0.2369 -1.1227 0.3572
0.3356 -1.0953 0.3567
0.4313 -1.0594 0.3561
0.5234 -1.0155 0.3557
0.6113 -0.9637 0.3553
0.6943 -0.9047 0.3551
0.7718 -0.8387 0.3549
0.8433 -0.7662 0.3548
0.9083 -0.6879 0.3547
0.9662 -0.6043 0.3548
1.0167 -0.5159 0.3550
1.0594 -0.4234 0.3552
1.0939 -0.3275 0.3555
1.1200 -0.2289 0.3559
1.1375 -0.1282 0.3564
1.1462 -0.0263 0.3570
1.1460 0.0762 0.3576
1.1369 0.1785 0.3583
1.1188 0.2798 0.3591
1.0918 0.3793 0.3599
1.0562 0.4764 0.3607
1.0121 0.5701 0.3617
4.9373 3.3949 1.8656
4.6148 3.8218 1.8656
4.2554 4.2183 1.8656
3.8622 4.5811 1.8656
3.4381 4.9073 1.8656
1.3671 2.3778 0.8540
1.1706 2.5357 0.8696
0.9650 2.7009 0.8930
0.2990 1.1526 0.3707
0.1955 1.1777 0.3717
0.0899 1.1933 0.3726
-0.0170 1.1993 0.3735
-0.1242 1.1956 0.3743
-0.2308 1.1821 0.3750
-0.3359 1.1589 0.3757
-0.4386 1.1260 0.3763
-0.5381 1.0839 0.3768
-0.6333 1.0327 0.3772
-0.7235 0.9729 0.3775
-0.8080 0.9051 0.3777
-0.8858 0.8297 0.3779
-0.9564 0.7474 0.3779
-1.0191 0.6590 0.3779
-1.0734 0.5653 0.3777
-1.1188 0.4670 0.3775
-1.1549 0.3650 0.3771
-1.1815 0.2602 0.3767
-1.1983 0.1535 0.3761
-1.2053 0.0459 0.3755
-1.2024 -0.0616 0.3749
-1.1897 -0.1683 0.3741
-1.1674 -0.2732 0.3733
-1.1357 -0.3754 0.3724
-1.0950 -0.4740 0.3715
-4.8529 -2.6377 1.7197
-4.6154 -3.0715 1.7261
-4.3360 -3.4814 1.7313
-4.0145 -3.8604 1.7341
-3.6571 -4.2066 1.7355
-3.2673 -4.5161 1.7355
-2.8492 -4.7859 1.7342
-2.4072 -5.0132 1.7315
-1.9458 -5.1959 1.7275
-0.3086 -1.1192 0.3615
-0.2070 -1.1394 0.3606
-0.1042 -1.1506 0.3597
-0.0012 -1.1527 0.3589
0.1014 -1.1458 0.3582
0.2029 -1.1300 0.3575
0.3023 -1.1055 0.3568
0.3992 -1.0725 0.3563
0.4926 -1.0313 0.3558
0.5820 -0.9822 0.3555
0.6667 -0.9255 0.3551
0.7462 -0.8618 0.3549
0.8197 -0.7915 0.3548
0.8870 -0.7151 0.3547
0.9473 -0.6332 0.3548
1.0004 -0.5464 0.3549
1.0458 -0.4552 0.3551
1.0831 -0.3604 0.3554
1.1121 -0.2627 0.3558
1.1326 -0.1626 0.3562
1.1443 -0.0610 0.3568
1.1471 0.0414 0.3574
1.1410 0.1438 0.3581
1.1259 0.2455 0.3588
1.1020 0.3458 0.3596
1.0693 0.4437 0.3604
1.0280 0.5387 0.3613
5.0380 3.2436 1.8656
4.7286 3.6801 1.8656
4.3814 4.0872 1.8656
1.0672 0.3769 0.3601
1.0318 0.4717 0.3609
0.9880 0.5633 0.3618
4.8152 3.3472 1.8656
4.4975 3.7634 1.8656
4.1438 4.1497 1.8656
3.7571 4.5028 1.8656
3.3404 4.8200 1.8656
1.3561 2.3866 0.8733
1.1591 2.5449 0.8896
0.9529 2.7106 0.9141
0.2869 1.1294 0.3707
0.1854 1.1533 0.3716
0.0820 1.1681 0.3725
-0.0226 1.1734 0.3733
-0.1274 1.1691 0.3741
-0.2317 1.1553 0.3748
-0.3344 1.1320 0.3755
-0.4347 1.0993 0.3761
-0.5317 1.0575 0.3766
-0.6246 1.0070 0.3770
-0.7125 0.9480 0.3773
-0.7947 0.8812 0.3775
-0.8705 0.8071 0.3776
-0.9391 0.7263 0.3777
-1.0000 0.6395 0.3776
-1.0526 0.5475 0.3774
-1.0965 0.4511 0.3772
-1.1313 0.3512 0.3768
-1.1568 0.2486 0.3764
-1.1728 0.1442 0.3759
-1.1791 0.0389 0.3753
-1.1757 -0.0663 0.3746
-1.1628 -0.1706 0.3739
-1.1405 -0.2730 0.3731
-1.1091 -0.3728 0.3722
-1.0688 -0.4692 0.3713
-1.0201 -0.5612 0.3704
-4.4895 -3.0208 1.7214
-4.2166 -3.4210 1.7274
-3.9019 -3.7906 1.7306
-3.5508 -4.1267 1.7319
-3.1685 -4.4269 1.7318
-2.7587 -4.6882 1.7305
-2.3258 -4.9078 1.7277
-0.3941 -1.0690 0.3624
-0.2964 -1.0971 0.3615
-0.1969 -1.1164 0.3606
-0.0963 -1.1269 0.3598
0.0046 -1.1285 0.3590
0.1050 -1.1213 0.3583
0.2043 -1.1054 0.3576
0.3016 -1.0810 0.3570
0.3962 -1.0482 0.3565
0.4875 -1.0074 0.3560
0.5748 -0.9589 0.3556
0.6575 -0.9030 0.3554
0.7350 -0.8403 0.3551
0.8068 -0.7711 0.3550
0.8722 -0.6959 0.3550
0.9309 -0.6154 0.3550
0.9825 -0.5301 0.3551
1.0264 -0.4406 0.3553
1.0625 -0.3476 0.3556
1.0905 -0.2517 0.3560
1.1100 -0.1536 0.3565
1.1209 -0.0540 0.3570
1.1231 0.0462 0.3576
1.1166 0.1465 0.3583
1.1013 0.2460 0.3590
1.0773 0.3441 0.3598
1.0448 0.4398 0.3606
1.0038 0.5326 0.3615
0.9547 0.6216 0.3624
4.6096 3.6253 1.8656
4.2678 4.0220 1.8656
3.8920 4.3867 1.8656
3.4851 4.7164 1.8656
1.6898 2.7744 1.0334
1.2269 2.4905 0.8832
1.0242 2.6533 0.9048
0.3207 1.1192 0.3704
0.2201 1.1462 0.3713
0.1173 1.1641 0.3722
0.0130 1.1726 0.3731
-0.0918 1.1716 0.3739
-0.1964 1.1611 0.3746
-0.2997 1.1410 0.3753
-0.4009 1.1114 0.3759
-0.4992 1.0727 0.3764
-0.5936 1.0251 0.3768
-0.6833 0.9689 0.3772
-0.7675 0.9047 0.3774
-0.8455 0.8330 0.3776
-0.9166 0.7544 0.3777
-0.9802 0.6696 0.3776
-1.0357 0.5793 0.3775
-1.0826 0.4843 0.3773
-1.1205 0.3855 0.3770
-1.1492 0.2837 0.3766
-1.1684 0.1798 0.3761
-1.1780 0.0747 0.3755
-1.1779 -0.0306 0.3749
-1.1683 -0.1353 0.3741
-1.1491 -0.2385 0.3734
-1.1208 -0.3393 0.3725
-1.0834 -0.4369 0.3716
-1.0376 -0.5305 0.3707
-4.5750 -2.8807 1.7199
-4.3139 -3.2881 1.7256
-3.6119 -3.3019 1.5568
-3.6738 -4.0164 1.7316
-3.3016 -4.3291 1.7320
-2.9007 -4.6039 1.7311
-2.4753 -4.8381 1.7288
-0.4268 -1.0575 0.3628
-0.3299 -1.0885 0.3618
-0.2309 -1.1108 0.3609
-0.1305 -1.1243 0.3601
-0.0297 -1.1289 0.3593
0.0710 -1.1247 0.3585
0.1707 -1.1118 0.3578
0.2688 -1.0902 0.3572
0.3644 -1.0602 0.3566
0.4569 -1.0221 0.3562
0.5456 -0.9762 0.3558
0.6300 -0.9228 0.3554
0.7093 -0.8623 0.3552
0.7831 -0.7953 0.3550
0.8507 -0.7221 0.3550
0.9118 -0.6433 0.3550
0.9658 -0.5596 0.3551
1.0124 -0.4714 0.3553
1.0512 -0.3795 0.3555
1.0819 -0.2845 0.3559
1.1043 -0.1871 0.3563
1.1182 -0.0880 0.3568
1.1233 0.0121 0.3574
1.1198 0.1125 0.3580
1.1075 0.2124 0.3587
1.0864 0.3110 0.3595
1.0568 0.4076 0.3603
1.0187 0.5014 0.3612
0.9723 0.5918 0.3621
4.7174 3.4838 1.8656
4.3878 3.8907 1.8656
4.0232 4.2666 1.8656
3.6266 4.6085 1.8656
2.3075 3.5421 1.3448
1.2937 2.4368 0.8777
1.0942 2.5971 0.8965
0.3542 1.1079 0.3700
0.2546 1.1380 0.3710
0.1524 1.1591 0.3719
0.0485 1.1708 0.3728
-0.0562 1.1730 0.3736
-0.1610 1.1657 0.3744
-0.2648 1.1488 0.3751
-0.3668 1.1225 0.3757
-0.4662 1.0869 0.3762
-0.5620 1.0422 0.3767
-0.6534 0.9889 0.3771
-0.7396 0.9274 0.3774
-0.8198 0.8582 0.3775
-0.8933 0.7818 0.3776
-0.9595 0.6990 0.3776
-1.0178 0.6105 0.3776
-1.0676 0.5170 0.3774
-1.1087 0.4194 0.3771
-1.1405 0.3185 0.3767
-1.1630 0.2152 0.3762
-1.1758 0.1105 0.3757
-1.1790 0.0051 0.3751
-1.1726 -0.0999 0.3744
-1.1567 -0.2037 0.3736
-1.1314 -0.3054 0.3728
-1.0971 -0.4041 0.3719
-1.0541 -0.4992 0.3710
-1.0028 -0.5897 0.3701
-4.4065 -3.1520 1.7235
-3.7208 -3.1997 1.5611
-3.7930 -3.9021 1.7312
-3.4315 -4.2270 1.7320
-3.0399 -4.5150 1.7315
-2.6223 -4.7633 1.7297
-2.1823 -4.9676 1.7261
-0.3630 -1.0789 0.3621
-0.2647 -1.1042 0.3612
-0.1647 -1.1207 0.3604
-0.0639 -1.1284 0.3595
0.0369 -1.1271 0.3588
0.1370 -1.1171 0.3581
0.2357 -1.0985 0.3574
0.3322 -1.0713 0.3568
0.4259 -1.0360 0.3563
0.5160 -0.9927 0.3559
0.6019 -0.9417 0.3555
0.6830 -0.8836 0.3553
0.7587 -0.8188 0.3551
0.8284 -0.7476 0.3550
0.8918 -0.6707 0.3550
0.9483 -0.5886 0.3550
0.9974 -0.5018 0.3552
1.0389 -0.4111 0.3554
1.0724 -0.3171 0.3558
1.0976 -0.2204 0.3562
1.1144 -0.1218 0.3566
1.1226 -0.0219 0.3572
1.1220 0.0784 0.3578
1.1126 0.1786 0.3585
1.0946 0.2777 0.3592
1.0678 0.3751 0.3600
1.0325 0.4699 0.3609
0.9890 0.5616 0.3618
4.8209 3.3391 1.8656
4.5038 3.7558 1.8656
4.1508 4.1426 1.8656
3.7647 4.4964 1.8656
3.3486 4.8143 1.8656
1.3598 2.3837 0.8730
1.1629 2.5419 0.8892
0.9570 2.7074 0.9135
0.2888 1.1288 0.3707
0.1874 1.1530 0.3716
0.0840 1.1679 0.3725
-0.0206 1.1733 0.3733
-0.1254 1.1693 0.3741
-0.2297 1.1556 0.3748
-0.3324 1.1325 0.3755
-0.4328 1.1000 0.3761
-0.5299 1.0584 0.3765
-0.6229 1.0080 0.3770
-0.7109 0.9492 0.3773
-0.7932 0.8825 0.3775
-0.8691 0.8085 0.3776
-0.9378 0.7278 0.3777
-0.9989 0.6412 0.3776
-1.0517 0.5493 0.3774
-1.0957 0.4530 0.3772
-1.1307 0.3531 0.3768
-1.1564 0.2505 0.3764
-1.1725 0.1462 0.3759
-1.1790 0.0409 0.3753
-1.1759 -0.0643 0.3746
-1.1632 -0.1686 0.3739
-1.1410 -0.2711 0.3731
-1.1098 -0.3710 0.3722
-1.0696 -0.4674 0.3713
-1.0211 -0.5595 0.3704
-4.4943 -3.0130 1.7213
-4.2222 -3.4137 1.7273
-3.9083 -3.7839 1.7306
-3.5578 -4.1206 1.7319
-3.1760 -4.4215 1.7318
-2.7668 -4.6836 1.7305
-2.3343 -4.9041 1.7278
-0.3960 -1.0684 0.3625
-0.2983 -1.0966 0.3615
-0.1988 -1.1161 0.3606
-0.0982 -1.1268 0.3598
0.0027 -1.1285 0.3590
0.1031 -1.1215 0.3583
0.2024 -1.1058 0.3576
0.2997 -1.0815 0.3570
0.3944 -1.0489 0.3565
0.4858 -1.0082 0.3560
0.5732 -0.9599 0.3557
0.6560 -0.9041 0.3554
0.7336 -0.8415 0.3551
0.8054 -0.7724 0.3550
0.8710 -0.6974 0.3550
0.9299 -0.6170 0.3550
0.9816 -0.5318 0.3551
1.0257 -0.4424 0.3553
1.0619 -0.3494 0.3556
1.0900 -0.2535 0.3560
1.1097 -0.1555 0.3565
1.1208 -0.0559 0.3570
1.1232 0.0443 0.3576
1.1168 0.1446 0.3582
1.1017 0.2442 0.3590
1.0779 0.3422 0.3598
1.0455 0.4380 0.3606
1.0047 0.5308 0.3615
0.9557 0.6199 0.3624
4.6157 3.6174 1.8656
4.2746 4.0148 1.8656
3.8994 4.3801 1.8656
3.4931 4.7105 1.8656
1.7167 2.8078 1.0470
1.2306 2.4875 0.8829
1.0282 2.6502 0.9043
0.3226 1.1186 0.3703
0.2221 1.1458 0.3713
0.1193 1.1639 0.3722
0.0150 1.1725 0.3730
-0.0898 1.1717 0.3738
-0.1944 1.1613 0.3746
-0.2978 1.1414 0.3753
-0.3990 1.1121 0.3759
-0.4973 1.0735 0.3764
-0.5918 1.0261 0.3768
-0.6816 0.9701 0.3772
-0.7660 0.9060 0.3774
-0.8441 0.8345 0.3776
-0.9153 0.7560 0.3777
-0.9791 0.6712 0.3776
-1.0347 0.5810 0.3775
-1.0818 0.4861 0.3773
-1.1199 0.3874 0.3770
-1.1488 0.2856 0.3766
-1.1681 0.1818 0.3761
-1.1779 0.0767 0.3755
-1.1780 -0.0286 0.3749
-1.1685 -0.1333 0.3742
-1.1496 -0.2365 0.3734
-1.1214 -0.3374 0.3725
-1.0842 -0.4351 0.3717
-1.0385 -0.5287 0.3707
-4.5798 -2.8729 1.7199
-4.3192 -3.2806 1.7254
-3.6160 -3.2944 1.5562
-3.6806 -4.0101 1.7316
-3.3090 -4.3235 1.7320
-2.9086 -4.5991 1.7311
-2.4835 -4.8340 1.7289
-0.4286 -1.0568 0.3628
-0.3317 -1.0880 0.3618
-0.2328 -1.1105 0.3609
-0.1325 -1.1241 0.3601
-0.0316 -1.1289 0.3593
0.0691 -1.1249 0.3585
0.1689 -1.1121 0.3578
0.2669 -1.0907 0.3572
0.3626 -1.0609 0.3567
0.4552 -1.0229 0.3562
0.5440 -0.9771 0.3558
0.6284 -0.9239 0.3555
0.7079 -0.8635 0.3552
0.7817 -0.7966 0.3551
0.8495 -0.7235 0.3550
0.9107 -0.6449 0.3550
0.9648 -0.5612 0.3551
1.0116 -0.4732 0.3553
1.0505 -0.3813 0.3555
1.0814 -0.2864 0.3559
1.1039 -0.1890 0.3563
1.1180 -0.0899 0.3568
1.1233 0.0102 0.3574
1.1199 0.1106 0.3580
1.1078 0.2105 0.3587
1.0869 0.3091 0.3595
1.0574 0.4058 0.3603
1.0195 0.4997 0.3612
0.9733 0.5901 0.3621
4.7233 3.4758 1.8656
4.3944 3.8833 1.8656
4.0305 4.2598 1.8656
3.6344 4.6024 1.8656
3.2094 4.9082 1.8656
1.2974 2.4338 0.8774
1.0981 2.5940 0.8961
0.3561 1.1073 0.3700
0.2565 1.1376 0.3710
0.1544 1.1588 0.3719
0.0505 1.1707 0.3728
-0.0542 1.1731 0.3736
-0.1590 1.1659 0.3743
-0.2628 1.1493 0.3750
-0.3649 1.1231 0.3757
-0.4643 1.0876 0.3762
-0.5602 1.0432 0.3767
-0.6517 0.9900 0.3771
-0.7380 0.9287 0.3774
-0.8183 0.8596 0.3775
-0.8920 0.7834 0.3776
-0.9583 0.7007 0.3777
-1.0167 0.6122 0.3776
-1.0668 0.5188 0.3774
-1.1080 0.4213 0.3771
-1.1400 0.3205 0.3767
-1.1626 0.2172 0.3763
-1.1757 0.1125 0.3757
-1.1791 0.0071 0.3751
-1.1728 -0.0979 0.3744
-1.1571 -0.2017 0.3736
-1.1320 -0.3035 0.3728
-1.0978 -0.4023 0.3720
-1.0550 -0.4974 0.3710
-1.0038 -0.5880 0.3701
-4.4116 -3.1443 1.7234
-3.7303 -3.1969 1.5629
-3.7995 -3.8956 1.7311
-3.4386 -4.2211 1.7320
-3.0476 -4.5099 1.7316
-2.6304 -4.7589 1.7298
-2.1908 -4.9642 1.7262
-0.3649 -1.0784 0.3622
-0.2666 -1.1038 0.3612
-0.1666 -1.1205 0.3604
-0.0659 -1.1283 0.3595
0.0350 -1.1273 0.3588
0.1351 -1.1174 0.3581
0.2338 -1.0989 0.3574
0.3304 -1.0719 0.3568
0.4241 -1.0367 0.3563
0.5143 -0.9935 0.3559
0.6003 -0.9428 0.3556
0.6815 -0.8848 0.3553
0.7573 -0.8200 0.3551
0.8272 -0.7490 0.3550
0.8907 -0.6722 0.3550
0.9472 -0.5902 0.3550
0.9965 -0.5035 0.3552
1.0382 -0.4129 0.3554
1.0718 -0.3189 0.3557
1.0972 -0.2223 0.3561
1.1142 -0.1237 0.3566
1.1225 -0.0238 0.3572
1.1221 0.0765 0.3578
1.1129 0.1767 0.3585
1.0950 0.2758 0.3592
1.0684 0.3732 0.3600
1.0333 0.4681 0.3609
0.9899 0.5598 0.3618
4.8266 3.3309 1.8656
4.5102 3.7481 1.8656
4.1579 4.1355 1.8656
3.7723 4.4900 1.8656
3.3567 4.8086 1.8656
1.3635 2.3807 0.8728
1.1668 2.5388 0.8889
0.9610 2.7042 0.9130
0.2907 1.1283 0.3706
0.1893 1.1526 0.3716
0.0860 1.1677 0.3725
-0.0186 1.1733 0.3733
-0.1235 1.1694 0.3741
-0.2277 1.1560 0.3748
-0.3305 1.1330 0.3755
-0.4309 1.1007 0.3760
-0.5281 1.0593 0.3765
-0.6212 1.0090 0.3769
-0.7093 0.9504 0.3773
-0.7917 0.8839 0.3775
-0.8677 0.8100 0.3776
-0.9366 0.7294 0.3777
-0.9978 0.6429 0.3776
-1.0507 0.5511 0.3774
-1.0950 0.4548 0.3772
-1.1302 0.3550 0.3769
-1.1560 0.2525 0.3764
-1.1723 0.1482 0.3759
-1.1790 0.0429 0.3753
-1.1760 -0.0623 0.3746
-1.1635 -0.1666 0.3739
-1.1415 -0.2692 0.3731
-1.1104 -0.3691 0.3723
-1.0705 -0.4656 0.3714
-1.0221 -0.5578 0.3704
-4.4991 -3.0051 1.7212
-4.2277 -3.4063 1.7272
-3.9146 -3.7772 1.7305
-3.5648 -4.1145 1.7319
-3.1835 -4.4161 1.7319
-2.7748 -4.6789 1.7305
-2.3427 -4.9004 1.7279
-0.3978 -1.0677 0.3625
-0.3002 -1.0962 0.3616
-0.2007 -1.1158 0.3607
-0.1001 -1.1266 0.3598
0.0008 -1.1286 0.3590
0.1012 -1.1217 0.3583
0.2005 -1.1062 0.3576
0.2979 -1.0820 0.3570
0.3927 -1.0496 0.3565
0.4841 -1.0091 0.3560
0.5716 -0.9609 0.3557
0.6545 -0.9053 0.3554
0.7322 -0.8428 0.3551
0.8041 -0.7738 0.3550
0.8698 -0.6989 0.3550
0.9288 -0.6186 0.3550
0.9806 -0.5334 0.3551
1.0249 -0.4441 0.3553
1.0613 -0.3512 0.3556
1.0895 -0.2554 0.3560
1.1094 -0.1573 0.3564
1.1206 -0.0578 0.3570
1.1232 0.0424 0.3576
1.1170 0.1427 0.3582
1.1020 0.2423 0.3590
1.0784 0.3404 0.3597
1.0462 0.4362 0.3606
1.0055 0.5291 0.3615
0.9568 0.6183 0.3624
4.6219 3.6096 1.8656
4.2814 4.0075 1.8656
3.9068 4.3735 1.8656
3.5011 4.7046 1.8656
1.7443 2.8422 1.0609
1.2344 2.4844 0.8825
1.0321 2.6470 0.9038
0.3245 1.1180 0.3703
0.2240 1.1454 0.3713
0.1212 1.1636 0.3722
0.0170 1.1725 0.3730
-0.0879 1.1718 0.3738
-0.1924 1.1616 0.3746
-0.2958 1.1419 0.3753
-0.3971 1.1127 0.3759
-0.4955 1.0744 0.3764
-0.5901 1.0271 0.3768
-0.6800 0.9712 0.3772
-0.7644 0.9073 0.3774
-0.8427 0.8359 0.3776
-0.9141 0.7575 0.3777
-0.9779 0.6729 0.3776
-1.0337 0.5828 0.3775
-1.0809 0.4880 0.3773
-1.1192 0.3893 0.3770
-1.1483 0.2876 0.3766
-1.1679 0.1838 0.3761
-1.1778 0.0787 0.3755
-1.1781 -0.0266 0.3749
-1.1688 -0.1313 0.3742
-1.1500 -0.2346 0.3734
-1.1220 -0.3355 0.3726
-1.0850 -0.4332 0.3717
-1.0395 -0.5270 0.3707
-4.5846 -2.8650 1.7198
-4.3245 -3.2730 1.7253
-3.6201 -3.2869 1.5555
-3.6873 -4.0038 1.7316
-3.3163 -4.3179 1.7320
-2.9165 -4.5942 1.7311
-2.4918 -4.8299 1.7290
-0.4304 -1.0561 0.3628
-0.3336 -1.0875 0.3619
-0.2347 -1.1101 0.3610
-0.1344 -1.1240 0.3601
-0.0335 -1.1289 0.3593
0.0672 -1.1251 0.3585
0.1670 -1.1124 0.3578
0.2651 -1.0912 0.3572
0.3608 -1.0615 0.3567
0.4534 -1.0237 0.3562
0.5423 -0.9781 0.3558
0.6269 -0.9249 0.3555
0.7064 -0.8648 0.3552
0.7804 -0.7979 0.3551
0.8483 -0.7250 0.3550
0.9096 -0.6464 0.3550
0.9639 -0.5629 0.3551
1.0107 -0.4749 0.3553
1.0499 -0.3831 0.3555
1.0809 -0.2882 0.3559
1.1036 -0.1908 0.3563
1.1178 -0.0918 0.3568
1.1233 0.0083 0.3574
1.1201 0.1087 0.3580
1.1081 0.2086 0.3587
1.0874 0.3073 0.3595
1.0581 0.4040 0.3603
1.0203 0.4979 0.3612
0.9742 0.5884 0.3621
4.7292 3.4677 1.8656
4.4010 3.8758 1.8656
4.0377 4.2529 1.8656
3.6422 4.5962 1.8656
3.2177 4.9028 1.8656
1.3011 2.4308 0.8771
1.1020 2.5909 0.8957
0.3579 1.1066 0.3700
0.2584 1.1371 0.3710
0.1564 1.1584 0.3719
0.0525 1.1705 0.3727
-0.0522 1.1731 0.3736
-0.1570 1.1662 0.3743
-0.2609 1.1497 0.3750
-0.3630 1.1237 0.3757
-0.4625 1.0884 0.3762
-0.5584 1.0441 0.3767
-0.6500 0.9911 0.3771
-0.7364 0.9299 0.3773
-0.8168 0.8610 0.3775
-0.8906 0.7849 0.3776
-0.9571 0.7023 0.3777
-1.0157 0.6140 0.3776
-1.0659 0.5207 0.3774
-1.1073 0.4232 0.3771
-1.1395 0.3224 0.3767
-1.1623 0.2192 0.3763
-1.1755 0.1145 0.3757
-1.1791 0.0092 0.3751
-1.1730 -0.0959 0.3744
-1.1575 -0.1998 0.3737
-1.1325 -0.3016 0.3728
-1.0986 -0.4004 0.3720
-1.0559 -0.4956 0.3711
-1.0049 -0.5863 0.3701
-4.4166 -3.1366 1.7233
-3.7399 -3.1941 1.5646
-3.8061 -3.8890 1.7311
-3.4458 -4.2153 1.7320
-3.0553 -4.5048 1.7316
-2.6386 -4.7546 1.7298
-2.1994 -4.9608 1.7263
-0.3667 -1.0778 0.3622
-0.2685 -1.1034 0.3613
-0.1685 -1.1203 0.3604
-0.0678 -1.1282 0.3596
0.0331 -1.1274 0.3588
0.1332 -1.1177 0.3581
0.2320 -1.0993 0.3574
0.3286 -1.0725 0.3568
0.4224 -1.0375 0.3563
0.5126 -0.9944 0.3559
0.5987 -0.9438 0.3556
0.6800 -0.8860 0.3553
0.7559 -0.8213 0.3551
0.8259 -0.7504 0.3550
0.8895 -0.6737 0.3550
0.9462 -0.5918 0.3550
0.9957 -0.5052 0.3552
1.0375 -0.4147 0.3554
1.0713 -0.3207 0.3557
1.0968 -0.2241 0.3561
1.1139 -0.1256 0.3566
1.1224 -0.0257 0.3572
1.1222 0.0746 0.3578
1.1132 0.1748 0.3585
1.0954 0.2739 0.3592
1.0690 0.3714 0.3600
1.0340 0.4664 0.3609
0.9908 0.5581 0.3618
4.8322 3.3227 1.8656
4.5166 3.7405 1.8656
4.1649 4.1285 1.8656
3.7800 4.4836 1.8656
3.3649 4.8029 1.8656
1.3671 2.3778 0.8725
1.1706 2.5357 0.8885
0.9650 2.7009 0.9124
0.2926 1.1277 0.3706
0.1913 1.1522 0.3716
0.0879 1.1675 0.3725
-0.0166 1.1733 0.3733
-0.1215 1.1696 0.3741
-0.2257 1.1563 0.3748
-0.3286 1.1336 0.3755
-0.4290 1.1014 0.3760
-0.5263 1.0601 0.3765
-0.6194 1.0101 0.3769
-0.7077 0.9516 0.3773
-0.7902 0.8852 0.3775
-0.8663 0.8115 0.3776
-0.9354 0.7310 0.3777
-0.9967 0.6446 0.3776
-1.0498 0.5529 0.3774
-1.0942 0.4567 0.3772
-1.1296 0.3570 0.3769
-1.1556 0.2545 0.3764
-1.1721 0.1502 0.3759
-1.1790 0.0449 0.3753
-1.1762 -0.0603 0.3747
-1.1638 -0.1647 0.3739
-1.1420 -0.2673 0.3731
-1.1111 -0.3672 0.3723
-1.0713 -0.4638 0.3714
-1.0231 -0.5561 0.3704
-4.5038 -2.9972 1.7210
-4.2333 -3.3989 1.7271
-3.9209 -3.7705 1.7305
-3.5717 -4.1084 1.7318
-3.1911 -4.4107 1.7319
-2.7828 -4.6743 1.7306
-2.3512 -4.8966 1.7280
-0.3996 -1.0671 0.3625
-0.3021 -1.0957 0.3616
-0.2026 -1.1155 0.3607
-0.1021 -1.1265 0.3598
-0.0012 -1.1286 0.3590
0.0993 -1.1219 0.3583
0.1987 -1.1065 0.3576
0.2961 -1.0826 0.3570
0.3909 -1.0503 0.3565
0.4824 -1.0099 0.3560
0.5700 -0.9618 0.3557
0.6529 -0.9064 0.3554
0.7307 -0.8440 0.3552
0.8028 -0.7752 0.3550
0.8687 -0.7004 0.3550
0.9278 -0.6202 0.3550
0.9797 -0.5351 0.3551
1.0241 -0.4458 0.3553
1.0607 -0.3530 0.3556
1.0891 -0.2572 0.3560
1.1091 -0.1592 0.3564
1.1205 -0.0597 0.3570
1.1232 0.0405 0.3576
1.1172 0.1408 0.3582
1.1024 0.2404 0.3589
1.0789 0.3385 0.3597
1.0468 0.4344 0.3606
1.0064 0.5274 0.3614
0.9578 0.6166 0.3624
4.6280 3.6017 1.8656
4.2882 4.0002 1.8656
1.0452 0.3691 0.3602
1.0105 0.4620 0.3610
0.9676 0.5516 0.3619
0.9169 0.6373 0.3628
4.4034 3.6847 1.8656
4.0571 4.0629 1.8656
3.6785 4.4086 1.8656
3.2705 4.7192 1.8656
1.3561 2.3866 0.8919
1.1591 2.5449 0.9086
0.3773 1.0733 0.3696
0.2808 1.1054 0.3706
0.1815 1.1288 0.3715
0.0802 1.1432 0.3724
-0.0221 1.1483 0.3732
-0.1247 1.1441 0.3739
-0.2267 1.1306 0.3747
-0.3272 1.1077 0.3753
-0.4253 1.0757 0.3758
-0.5203 1.0348 0.3763
-0.6112 0.9853 0.3767
-0.6972 0.9276 0.3770
-0.7776 0.8622 0.3772
-0.8517 0.7897 0.3774
-0.9188 0.7106 0.3774
-0.9784 0.6257 0.3773
-1.0299 0.5357 0.3772
-1.0729 0.4414 0.3769
-1.1070 0.3436 0.3766
-1.1319 0.2432 0.3762
-1.1476 0.1411 0.3757
-1.1538 0.0381 0.3751
-1.1506 -0.0649 0.3744
-1.1380 -0.1669 0.3737
-1.1162 -0.2672 0.3729
-1.0855 -0.3649 0.3721
-1.0461 -0.4592 0.3712
-0.9985 -0.5493 0.3703
-0.9431 -0.6346 0.3693
-4.1163 -3.3397 1.7223
-3.8106 -3.7020 1.7262
-3.4692 -4.0318 1.7282
-3.0959 -4.3254 1.7283
-2.6948 -4.5794 1.7264
-0.4790 -1.0108 0.3635
-0.3860 -1.0468 0.3625
-0.2903 -1.0744 0.3616
-0.1928 -1.0934 0.3607
-0.0943 -1.1037 0.3599
0.0045 -1.1053 0.3591
0.1029 -1.0983 0.3584
0.2001 -1.0828 0.3578
0.2954 -1.0589 0.3572
0.3881 -1.0268 0.3567
0.4776 -0.9869 0.3562
0.5631 -0.9394 0.3559
0.6442 -0.8847 0.3556
0.7201 -0.8232 0.3554
0.7904 -0.7554 0.3552
0.8545 -0.6818 0.3552
0.9120 -0.6029 0.3552
0.9625 -0.5193 0.3554
1.0056 -0.4317 0.3556
1.0409 -0.3405 0.3559
1.0682 -0.2465 0.3562
1.0873 -0.1505 0.3567
1.0980 -0.0529 0.3572
1.1002 0.0453 0.3578
1.0937 0.1435 0.3584
1.0787 0.2410 0.3591
1.0552 0.3370 0.3599
1.0232 0.4308 0.3607
0.9831 0.5216 0.3616
0.9350 0.6087 0.3625
4.5131 3.5494 1.8656
4.1785 3.9379 1.8656
3.8106 4.2950 1.8656
3.4122 4.6178 1.8656
1.6896 2.7741 1.0554
1.2269 2.4905 0.9021
0.4093 1.0604 0.3693
0.3139 1.0955 0.3703
0.2155 1.1219 0.3712
0.1148 1.1394 0.3721
0.0127 1.1476 0.3729
-0.0899 1.1466 0.3737
-0.1922 1.1362 0.3744
-0.2933 1.1165 0.3751
-0.3923 1.0876 0.3757
-0.4884 1.0497 0.3762
-0.5808 1.0030 0.3766
-0.6686 0.9481 0.3769
-0.7510 0.8852 0.3772
-0.8273 0.8151 0.3773
-0.8968 0.7381 0.3774
-0.9590 0.6551 0.3774
-1.0133 0.5668 0.3773
-1.0592 0.4739 0.3770
-1.0964 0.3772 0.3767
-1.1245 0.2776 0.3763
-1.1433 0.1759 0.3759
-1.1527 0.0731 0.3753
-1.1527 -0.0300 0.3747
-1.1433 -0.1324 0.3740
-1.1246 -0.2334 0.3732
-1.0969 -0.3321 0.3724
-1.0604 -0.4276 0.3715
-1.0156 -0.5192 0.3706
-0.9628 -0.6062 0.3697
-4.2115 -3.2100 1.7205
-3.6119 -3.3019 1.5901
-3.5890 -3.9237 1.7278
-3.2260 -4.2300 1.7285
-2.8338 -4.4978 1.7273
-0.5099 -0.9967 0.3638
-0.4179 -1.0355 0.3628
-0.3230 -1.0660 0.3619
-0.2261 -1.0879 0.3610
-0.1279 -1.1012 0.3602
-0.0291 -1.1057 0.3594
0.0696 -1.1017 0.3587
0.1672 -1.0890 0.3580
0.2633 -1.0679 0.3574
0.3570 -1.0386 0.3568
0.4476 -1.0013 0.3564
0.5345 -0.9563 0.3560
0.6172 -0.9040 0.3557
0.6949 -0.8448 0.3554
0.7672 -0.7791 0.3553
0.8334 -0.7074 0.3552
0.8933 -0.6303 0.3552
0.9462 -0.5482 0.3553
0.9918 -0.4619 0.3555
1.0298 -0.3718 0.3557
1.0599 -0.2787 0.3561
1.0818 -0.1833 0.3565
1.0953 -0.0862 0.3570
1.1004 0.0119 0.3576
1.0969 0.1102 0.3582
1.0848 0.2080 0.3589
1.0641 0.3046 0.3596
1.0350 0.3992 0.3604
0.9976 0.4911 0.3613
0.9522 0.5796 0.3622
0.8990 0.6639 0.3631
4.2960 3.8093 1.8656
3.9391 4.1774 1.8656
3.5507 4.5121 1.8656
2.3072 3.5416 1.3734
1.2937 2.4368 0.8964
1.0942 2.5971 0.9157
0.3467 1.0845 0.3699
0.2492 1.1139 0.3709
0.1492 1.1344 0.3718
0.0475 1.1459 0.3726
-0.0550 1.1480 0.3734
-0.1575 1.1408 0.3742
-0.2591 1.1242 0.3749
-0.3590 1.0984 0.3755
-0.4562 1.0635 0.3760
-0.5499 1.0198 0.3765
-0.6393 0.9676 0.3768
-0.7236 0.9074 0.3771
-0.8021 0.8397 0.3773
-0.8740 0.7650 0.3774
-0.9388 0.6840 0.3774
-0.9958 0.5973 0.3773
-1.0446 0.5059 0.3771
-1.0848 0.4104 0.3768
-1.1160 0.3117 0.3765
-1.1380 0.2106 0.3760
-1.1506 0.1081 0.3755
-1.1538 0.0050 0.3749
-1.1475 -0.0977 0.3742
-1.1320 -0.1993 0.3735
-1.1073 -0.2989 0.3727
-1.0738 -0.3955 0.3718
-1.0317 -0.4886 0.3709
-0.9816 -0.5772 0.3700
-0.9238 -0.6608 0.3690
-3.7208 -3.1997 1.5945
-3.7049 -3.8115 1.7271
-3.3528 -4.1301 1.7285
-2.9701 -4.4113 1.7279
-2.5610 -4.6520 1.7254
-0.4495 -1.0233 0.3631
-0.3555 -1.0566 0.3622
-0.2592 -1.0814 0.3613
-0.1613 -1.0976 0.3605
-0.0626 -1.1052 0.3597
0.0361 -1.1040 0.3589
0.1342 -1.0943 0.3582
0.2309 -1.0760 0.3576
0.3254 -1.0495 0.3570
0.4172 -1.0149 0.3565
0.5055 -0.9724 0.3561
0.5896 -0.9226 0.3558
0.6691 -0.8657 0.3555
0.7433 -0.8021 0.3553
0.8116 -0.7324 0.3552
0.8737 -0.6571 0.3552
0.9290 -0.5766 0.3553
0.9771 -0.4916 0.3554
1.0178 -0.4028 0.3556
1.0506 -0.3107 0.3560
1.0753 -0.2159 0.3564
1.0917 -0.1193 0.3568
1.0996 -0.0215 0.3574
1.0990 0.0768 0.3580
1.0898 0.1749 0.3586
1.0721 0.2720 0.3594
1.0458 0.3673 0.3602
1.0112 0.4602 0.3610
0.9685 0.5499 0.3619
0.9179 0.6358 0.3628
4.4096 3.6772 1.8656
4.0640 4.0560 1.8656
3.6860 4.4023 1.8656
3.2786 4.7136 1.8656
1.3598 2.3837 0.8917
1.1629 2.5419 0.9082
0.3791 1.0726 0.3696
0.2826 1.1049 0.3706
0.1834 1.1285 0.3715
0.0822 1.1430 0.3723
-0.0202 1.1483 0.3732
-0.1228 1.1443 0.3739
-0.2248 1.1309 0.3746
-0.3253 1.1082 0.3753
-0.4235 1.0764 0.3758
-0.5185 1.0356 0.3763
-0.6095 0.9863 0.3767
-0.6956 0.9288 0.3770
-0.7761 0.8635 0.3772
-0.8504 0.7911 0.3774
-0.9176 0.7121 0.3774
-0.9773 0.6273 0.3773
-1.0290 0.5374 0.3772
-1.0721 0.4432 0.3769
-1.1064 0.3455 0.3766
-1.1315 0.2451 0.3762
-1.1474 0.1430 0.3757
-1.1538 0.0401 0.3751
-1.1507 -0.0629 0.3744
-1.1383 -0.1650 0.3737
-1.1167 -0.2653 0.3729
-1.0861 -0.3631 0.3721
-1.0469 -0.4574 0.3712
-0.9995 -0.5477 0.3703
-0.9442 -0.6330 0.3694
-4.1218 -3.3325 1.7222
-3.8168 -3.6954 1.7262
-3.4760 -4.0259 1.7282
-3.1033 -4.3202 1.7283
-2.7026 -4.5750 1.7265
-0.4808 -1.0101 0.3635
-0.3878 -1.0462 0.3625
-0.2921 -1.0739 0.3616
-0.1947 -1.0931 0.3608
-0.0962 -1.1036 0.3599
0.0026 -1.1054 0.3592
0.1010 -1.0985 0.3584
0.1983 -1.0832 0.3578
0.2936 -1.0594 0.3572
0.3864 -1.0275 0.3567
0.4759 -0.9877 0.3562
0.5615 -0.9403 0.3559
0.6427 -0.8858 0.3556
0.7187 -0.8244 0.3554
0.7891 -0.7568 0.3552
0.8533 -0.6833 0.3552
0.9110 -0.6045 0.3552
0.9616 -0.5210 0.3554
1.0048 -0.4334 0.3556
1.0403 -0.3423 0.3558
1.0678 -0.2484 0.3562
1.0870 -0.1523 0.3567
1.0979 -0.0548 0.3572
1.1002 0.0434 0.3578
1.0939 0.1417 0.3584
1.0791 0.2392 0.3591
1.0557 0.3352 0.3599
1.0239 0.4290 0.3607
0.9839 0.5199 0.3616
0.9359 0.6071 0.3625
4.5192 3.5418 1.8656
4.1852 3.9308 1.8656
3.8178 4.2885 1.8656
3.4200 4.6120 1.8656
1.7165 2.8075 1.0692
1.2306 2.4875 0.9017
0.4111 1.0596 0.3693
0.3158 1.0949 0.3703
0.2174 1.1215 0.3712
0.1167 1.1391 0.3721
0.0147 1.1476 0.3729
-0.0879 1.1467 0.3737
-0.1902 1.1365 0.3744
-0.2914 1.1170 0.3751
-0.3905 1.0882 0.3757
-0.4867 1.0505 0.3762
-0.5791 1.0040 0.3766
-0.6669 0.9492 0.3769
-0.7494 0.8865 0.3772
-0.8259 0.8165 0.3773
-0.8956 0.7397 0.3774
-0.9579 0.6568 0.3774
-1.0124 0.5685 0.3773
-1.0584 0.4757 0.3770
-1.0958 0.3790 0.3767
-1.1240 0.2795 0.3763
-1.1430 0.1779 0.3759
-1.1526 0.0751 0.3753
-1.1528 -0.0280 0.3747
-1.1436 -0.1305 0.3740
-1.1251 -0.2315 0.3732
-1.0975 -0.3302 0.3724
-1.0612 -0.4258 0.3715
-1.0165 -0.5175 0.3706
-0.9638 -0.6046 0.3697
-4.2166 -3.2026 1.7204
-3.6160 -3.2944 1.5894
-3.5956 -3.9175 1.7277
-3.2332 -4.2245 1.7285
-2.8415 -4.4931 1.7273
-0.5117 -0.9959 0.3638
-0.4197 -1.0349 0.3628
-0.3249 -1.0655 0.3619
-0.2280 -1.0876 0.3610
-0.1297 -1.1010 0.3602
-0.0309 -1.1057 0.3594
0.0677 -1.1018 0.3587
0.1654 -1.0893 0.3580
0.2615 -1.0684 0.3574
0.3552 -1.0392 0.3568
0.4459 -1.0021 0.3564
0.5329 -0.9573 0.3560
0.6157 -0.9051 0.3557
0.6935 -0.8460 0.3554
0.7658 -0.7804 0.3553
0.8322 -0.7088 0.3552
0.8922 -0.6318 0.3552
0.9452 -0.5498 0.3553
0.9910 -0.4635 0.3555
1.0292 -0.3736 0.3557
1.0594 -0.2805 0.3561
1.0814 -0.1851 0.3565
1.0952 -0.0880 0.3570
1.1004 0.0100 0.3575
1.0970 0.1083 0.3582
1.0851 0.2062 0.3589
1.0646 0.3028 0.3596
1.0356 0.3974 0.3604
0.9984 0.4894 0.3613
0.9531 0.5779 0.3622
0.9001 0.6623 0.3631
4.3025 3.8020 1.8656
3.9462 4.1707 1.8656
3.5584 4.5061 1.8656
2.3530 3.5985 1.3970
1.2974 2.4338 0.8961
1.0981 2.5940 0.9152
0.3485 1.0839 0.3699
0.2511 1.1134 0.3709
0.1511 1.1341 0.3718
0.0495 1.1457 0.3726
-0.0531 1.1480 0.3734
-0.1556 1.1410 0.3742
-0.2572 1.1246 0.3748
-0.3571 1.0990 0.3755
-0.4544 1.0643 0.3760
-0.5482 1.0207 0.3765
-0.6376 0.9687 0.3768
-0.7221 0.9087 0.3771
-0.8007 0.8410 0.3773
-0.8727 0.7665 0.3774
-0.9376 0.6856 0.3774
-0.9948 0.5990 0.3773
-1.0438 0.5077 0.3771
-1.0841 0.4122 0.3768
-1.1155 0.3136 0.3765
-1.1376 0.2126 0.3760
-1.1504 0.1101 0.3755
-1.1538 0.0070 0.3749
-1.1477 -0.0958 0.3742
-1.1324 -0.1974 0.3735
-1.1079 -0.2970 0.3727
-1.0745 -0.3937 0.3718
-1.0326 -0.4869 0.3709
-0.9826 -0.5756 0.3700
-0.9249 -0.6592 0.3690
-3.7303 -3.1969 1.5963
-3.7113 -3.8051 1.7270
-3.3598 -4.1244 1.7285
-2.9776 -4.4063 1.7279
-2.5690 -4.6478 1.7255
-0.4513 -1.0226 0.3632
-0.3573 -1.0560 0.3622
-0.2611 -1.0810 0.3613
-0.1632 -1.0974 0.3605
-0.0645 -1.1051 0.3597
0.0343 -1.1041 0.3589
0.1324 -1.0945 0.3582
0.2291 -1.0765 0.3576
0.3237 -1.0501 0.3570
0.4155 -1.0156 0.3565
0.5038 -0.9733 0.3561
0.5881 -0.9236 0.3558
0.6676 -0.8668 0.3555
0.7419 -0.8034 0.3553
0.8104 -0.7338 0.3552
0.8726 -0.6585 0.3552
0.9280 -0.5782 0.3553
0.9763 -0.4933 0.3554
1.0171 -0.4045 0.3556
1.0500 -0.3124 0.3560
1.0749 -0.2178 0.3563
1.0914 -0.1212 0.3568
1.0996 -0.0233 0.3573
1.0991 0.0750 0.3580
1.0901 0.1730 0.3586
1.0725 0.2701 0.3594
1.0464 0.3655 0.3601
1.0120 0.4585 0.3610
0.9694 0.5483 0.3619
0.9189 0.6342 0.3628
4.4159 3.6697 1.8656
4.0709 4.0490 1.8656
3.6935 4.3961 1.8656
3.2866 4.7080 1.8656
1.3635 2.3807 0.8914
1.1668 2.5388 0.9079
0.3809 1.0719 0.3696
0.2845 1.1044 0.3705
0.1853 1.1281 0.3715
0.0841 1.1428 0.3723
-0.0182 1.1483 0.3732
-0.1208 1.1444 0.3739
-0.2228 1.1312 0.3746
-0.3234 1.1087 0.3753
-0.4217 1.0771 0.3758
-0.5167 1.0365 0.3763
-0.6078 0.9873 0.3767
-0.6940 0.9299 0.3770
-0.7747 0.8648 0.3772
-0.8490 0.7925 0.3774
-0.9164 0.7137 0.3774
-0.9763 0.6290 0.3773
-1.0281 0.5392 0.3772
-1.0714 0.4450 0.3770
-1.1058 0.3474 0.3766
-1.1311 0.2471 0.3762
-1.1471 0.1450 0.3757
-1.1537 0.0420 0.3751
-1.1509 -0.0610 0.3745
-1.1386 -0.1631 0.3737
-1.1172 -0.2634 0.3730
-1.0868 -0.3613 0.3721
-1.0478 -0.4557 0.3712
-1.0005 -0.5460 0.3703
-0.9453 -0.6314 0.3694
-4.1272 -3.3253 1.7221
-3.8230 -3.6888 1.7261
-3.4828 -4.0199 1.7282
-3.1106 -4.3150 1.7283
-2.7105 -4.5705 1.7266
-0.4825 -1.0093 0.3635
-0.3895 -1.0456 0.3625
-0.2940 -1.0735 0.3616
-0.1966 -1.0928 0.3608
-0.0981 -1.1035 0.3599
0.0007 -1.1054 0.3592
0.0992 -1.0988 0.3585
0.1964 -1.0835 0.3578
0.2918 -1.0599 0.3572
0.3846 -1.0282 0.3567
0.4742 -0.9885 0.3562
0.5599 -0.9413 0.3559
0.6412 -0.8869 0.3556
0.7173 -0.8257 0.3554
0.7878 -0.7581 0.3552
0.8522 -0.6847 0.3552
0.9100 -0.6060 0.3552
0.9607 -0.5226 0.3554
1.0041 -0.4351 0.3556
1.0397 -0.3440 0.3558
1.0674 -0.2502 0.3562
1.0868 -0.1541 0.3566
1.0978 -0.0567 0.3572
1.1002 0.0416 0.3577
1.0941 0.1398 0.3584
1.0794 0.2373 0.3591
1.0562 0.3334 0.3599
1.0246 0.4272 0.3607
0.9847 0.5182 0.3616
0.9369 0.6055 0.3625
4.5252 3.5341 1.8656
4.1919 3.9237 1.8656
3.8251 4.2820 1.8656
3.4279 4.6061 1.8656
1.7442 2.8419 1.0834
1.2344 2.4844 0.9014
0.4129 1.0589 0.3693
0.3176 1.0943 0.3702
0.2193 1.1211 0.3712
0.1187 1.1389 0.3720
0.0166 1.1475 0.3729
-0.0860 1.1468 0.3737
-0.1883 1.1368 0.3744
-0.2895 1.1174 0.3751
-0.3886 1.0888 0.3756
-0.4849 1.0513 0.3762
-0.5774 1.0050 0.3766
-0.6653 0.9503 0.3769
-0.7479 0.8878 0.3772
-0.8245 0.8179 0.3773
-0.8943 0.7412 0.3774
-0.9568 0.6584 0.3774
-1.0114 0.5702 0.3773
-1.0577 0.4775 0.3770
-1.0951 0.3809 0.3767
-1.1236 0.2814 0.3764
-1.1428 0.1798 0.3759
-1.1525 0.0770 0.3753
-1.1529 -0.0260 0.3747
-1.1438 -0.1285 0.3740
-1.1255 -0.2296 0.3732
-1.0981 -0.3284 0.3724
-1.0620 -0.4240 0.3715
-1.0174 -0.5158 0.3706
