ply
format ascii 1.0
element vertex 1935
property float32 x
property float32 y
property float32 z
end_header
13.8175 -11.4161 -22.2735
14.9765 3.0856 -19.0023
14.4382 4.3488 -18.7386
12.8778 5.1724 -17.2460
12.8737 6.5604 -17.9558
12.8693 8.0804 -18.8838
12.8642 9.7802 -20.0819
12.7801 11.6554 -21.4948
12.8541 -13.4262 -23.0986
13.2992 -11.6124 -21.9406
16.6453 2.9587 -21.0094
13.6488 3.7081 -17.5762
12.9114 4.7812 -17.1099
12.8750 6.1247 -17.7179
12.8707 7.5998 -18.5747
12.8658 9.2387 -19.6836
12.8663 11.1067 -21.1223
12.7756 13.1937 -22.8227
12.9751 -11.9687 -21.9366
14.8264 -11.4050 -23.2454
5.7483 -0.6901 -7.1947
13.7720 3.3411 -17.6109
13.1320 4.4595 -17.2345
12.8763 5.6999 -17.4991
12.8720 7.1346 -18.2889
12.8674 8.7179 -19.3148
12.8681 10.5095 -20.6468
12.7776 12.4951 -22.2092
12.8511 -12.4036 -21.9176
14.1548 -11.4070 -22.3084
5.8132 -0.8316 -7.2063
14.0017 3.0634 -17.5886
13.6470 4.2928 -17.5560
12.8773 5.3555 -17.1145
12.8732 6.7593 -17.8425
12.8686 8.3006 -18.7919
12.8695 10.0343 -20.0259
12.7857 11.9495 -21.4756
12.8531 -13.1013 -22.5224
13.4886 -11.4908 -21.7445
15.2117 2.8958 -19.0023
13.6482 3.8874 -17.4146
12.8785 4.9485 -16.9304
12.8745 6.3182 -17.5988
12.8700 7.8129 -18.4758
12.8651 9.4783 -19.6095
12.8655 11.3829 -21.0803
12.7746 13.5190 -22.8248
12.8553 -13.8392 -23.1792
13.1068 -11.7973 -21.6398
5.7973 -0.6243 -7.1553
13.6874 3.4980 -17.3364
13.0087 4.5954 -16.9305
12.8757 5.8886 -17.3745
12.8714 7.3409 -18.1835
12.8667 8.9485 -19.2325
12.8673 10.7733 -20.5939
12.7767 12.8029 -22.1961
12.8751 -12.2407 -21.8005
14.3744 -11.4064 -22.5184
5.7549 -0.7791 -7.1266
13.8859 3.1479 -17.4725
13.3825 4.3207 -17.2571
12.8770 5.4696 -17.1684
12.8728 6.8834 -17.9134
12.8682 8.4383 -18.8836
12.8690 10.1908 -20.1441
12.7787 12.1248 -21.6169
12.8525 -12.9047 -22.3503
13.6521 -11.4536 -21.8683
15.1895 3.0103 -19.0023
13.6479 3.9988 -17.4521
12.8782 5.0601 -16.9796
12.8741 6.4389 -17.6642
12.8697 7.9460 -18.5607
12.8647 9.6284 -19.7188
12.8650 11.5565 -21.2215
12.8605 13.8170 -23.1636
12.8547 -13.6310 -22.9922
13.1988 -11.7013 -21.6456
17.0457 2.8974 -21.2177
13.6491 3.5980 -17.3217
12.9600 4.6884 -16.9126
12.8754 6.0063 -17.4346
12.8711 7.4698 -18.2620
12.8663 9.0929 -19.3338
12.8668 10.9390 -20.7245
12.7762 12.9969 -22.3647
12.9252 -12.1042 -21.7304
14.5983 -11.4057 -22.7337
5.7349 -0.7324 -7.0947
13.8246 3.2437 -17.4256
13.2295 4.3817 -17.1019
12.8766 5.5844 -17.2236
12.8724 7.0084 -17.9859
12.8678 8.5775 -18.9774
12.8686 10.3492 -20.2649
12.7782 12.3086 -21.7723
12.8520 -12.7110 -22.1820
13.8175 -11.4161 -21.9947
15.1664 3.1247 -19.0023
13.6476 4.1107 -17.4908
12.8778 5.1724 -17.0301
12.8737 6.5604 -17.7310
12.8693 8.0804 -18.6474
12.8642 9.7802 -19.8306
12.8645 11.7324 -21.3659
12.8541 -13.4262 -22.8094
13.2992 -11.6124 -21.6660
16.6453 2.9587 -20.7464
13.6488 3.7081 -17.3562
12.9114 4.7812 -16.8957
12.8750 6.1247 -17.4962
12.8707 7.5999 -18.3422
12.8658 9.2387 -19.4372
12.8663 11.1067 -20.8580
12.7756 13.1937 -22.5371
12.9751 -11.9687 -21.6620
14.8264 -11.4050 -22.9545
5.7467 -0.6899 -7.1027
13.7720 3.3411 -17.3905
13.1320 4.4595 -17.0188
12.8763 5.6999 -17.2801
12.8720 7.1346 -18.0600
12.8674 8.7179 -19.0731
12.8681 10.5095 -20.3883
12.7776 12.4951 -21.9312
12.8511 -12.4036 -21.6439
14.1548 -11.4070 -22.0299
5.8068 -0.8307 -7.1085
14.0017 3.0634 -17.3690
13.6470 4.2928 -17.3368
12.8773 5.3555 -16.9009
12.8732 6.7593 -17.6198
12.8686 8.3006 -18.5572
12.8695 10.0343 -19.7759
12.8636 12.0224 -21.3368
12.8531 -13.1013 -22.2412
13.4911 -11.4929 -21.4769
15.4040 2.9324 -19.0023
13.6482 3.8875 -17.1972
12.8785 4.9485 -16.7190
12.8745 6.3182 -17.3791
12.8700 7.8129 -18.2451
12.8651 9.4783 -19.3646
12.8655 11.3829 -20.8171
12.7746 13.5190 -22.5398
12.8553 -13.8392 -22.8898
13.1021 -11.7932 -21.3620
15.2053 -11.4039 -23.0327
5.7942 -0.6240 -7.0622
13.6874 3.4980 -17.1199
13.0087 4.5954 -16.7191
12.8757 5.8886 -17.1576
12.8714 7.3409 -17.9565
12.8667 8.9485 -18.9924
12.8673 10.7733 -20.3368
12.7767 12.8029 -21.9190
12.8751 -12.2407 -21.5284
14.3744 -11.4064 -22.2373
5.7532 -0.7788 -7.0355
13.8859 3.1479 -17.2544
13.3825 4.3207 -17.0415
12.8770 5.4696 -16.9540
12.8728 6.8834 -17.6898
12.8682 8.4383 -18.6478
12.8690 10.1908 -19.8926
12.8557 12.1978 -21.4756
12.8525 -12.9047 -22.0713
13.6521 -11.4536 -21.5953
15.3815 3.0484 -19.0023
13.6479 3.9988 -17.2342
12.8782 5.0601 -16.7676
12.8741 6.4389 -17.4437
12.8697 7.9460 -18.3290
12.8647 9.6284 -19.4727
12.8650 11.5565 -20.9566
12.8605 13.8170 -22.8745
12.8547 -13.6310 -22.7051
13.2069 -11.7085 -21.3884
15.4455 -11.4032 -23.2657
17.2612 2.9340 -21.2177
13.6491 3.5980 -17.1054
12.9600 4.6884 -16.7014
12.8754 6.0062 -17.2169
12.8711 7.4698 -18.0340
12.8663 9.0929 -19.0924
12.8668 10.9390 -20.4658
12.7762 12.9969 -22.0855
12.9348 -12.1132 -21.4750
14.5983 -11.4057 -22.4499
5.7332 -0.7322 -7.0041
13.8246 3.2437 -17.2080
13.2295 4.3817 -16.8884
12.8766 5.5844 -17.0085
12.8724 7.0084 -17.7614
12.8678 8.5775 -18.7404
12.8686 10.3492 -20.0119
12.7782 12.3086 -21.5005
12.8520 -12.7110 -21.9050
13.8175 -11.4161 -21.7201
15.3581 3.1642 -19.0023
13.6476 4.1107 -17.2725
12.8778 5.1724 -16.8175
12.8737 6.5604 -17.5097
12.8693 8.0804 -18.4146
12.8642 9.7802 -19.5830
12.8645 11.7324 -21.0992
12.8541 -13.4262 -22.5247
13.3120 -11.6236 -21.4161
16.2797 2.8937 -20.0375
13.6488 3.7081 -17.1395
12.9114 4.7812 -16.6848
12.8750 6.1247 -17.2777
12.8707 7.5998 -18.1132
12.8658 9.2387 -19.1946
12.8663 11.1067 -20.5976
12.7756 13.1937 -22.2557
12.8563 -14.1835 -23.1981
12.9976 -11.9894 -21.4287
14.8264 -11.4050 -22.6679
5.7452 -0.6897 -7.0122
13.7720 3.3411 -17.1734
13.1320 4.4595 -16.8064
12.8763 5.6999 -17.0643
12.8720 7.1346 -17.8345
12.8674 8.7179 -18.8350
12.8681 10.5095 -20.1338
12.7776 12.4951 -21.6574
12.9127 -12.4631 -21.4769
14.1548 -11.4070 -21.7555
5.8006 -0.8298 -7.0124
14.0017 3.0634 -17.1527
13.6470 4.2928 -17.1209
12.8773 5.3555 -16.6904
12.8732 6.7593 -17.4003
12.8686 8.3006 -18.3261
12.8695 10.0343 -19.5296
12.8636 12.0224 -21.0711
12.8531 -13.1013 -21.9642
13.6109 -11.5950 -21.3978
15.5983 2.9694 -19.0023
13.6482 3.8875 -16.9830
12.8785 4.9485 -16.5108
12.8745 6.3182 -17.1627
12.8700 7.8129 -18.0179
12.8651 9.4783 -19.1234
12.8655 11.3829 -20.5578
12.7746 13.5190 -22.2591
12.8553 -13.8392 -22.6047
13.1021 -11.7932 -21.0960
15.2053 -11.4039 -22.7458
5.7912 -0.6237 -6.9706
13.6874 3.4980 -16.9067
13.0087 4.5954 -16.5108
12.8757 5.8886 -16.9439
12.8714 7.3409 -17.7328
12.8667 8.9485 -18.7558
12.8673 10.7733 -20.0835
12.7767 12.8029 -21.6460
12.9354 -12.2980 -21.3598
14.3744 -11.4064 -21.9603
5.7516 -0.7786 -6.9459
13.8859 3.1479 -17.0394
13.3825 4.3207 -16.8293
12.8770 5.4696 -16.7429
12.8728 6.8834 -17.4694
12.8682 8.4383 -18.4156
12.8690 10.1908 -19.6449
12.8631 12.2048 -21.2203
12.8525 -12.9047 -21.7963
13.7073 -11.5000 -21.4125
15.5755 3.0868 -19.0023
13.6479 3.9988 -17.0196
12.8782 5.0601 -16.5588
12.8741 6.4389 -17.2264
12.8697 7.9460 -18.1007
12.8647 9.6284 -19.2301
12.8650 11.5565 -20.6956
12.8605 13.8170 -22.5895
12.8547 -13.6310 -22.4223
13.2069 -11.7085 -21.1220
15.4455 -11.4032 -22.9759
17.4177 2.9606 -21.1434
13.6491 3.5980 -16.8923
12.9600 4.6884 -16.4934
12.8754 6.0063 -17.0025
12.8711 7.4698 -17.8093
12.8663 9.0929 -18.8546
12.8668 10.9390 -20.2108
12.7762 12.9969 -21.8104
12.8569 -14.4008 -23.1030
12.9348 -12.1132 -21.2075
14.5983 -11.4057 -22.1703
5.7315 -0.7319 -6.9149
13.8246 3.2437 -16.9937
13.2295 4.3817 -16.6780
12.8766 5.5844 -16.7967
12.8724 7.0084 -17.5401
12.8678 8.5775 -18.5070
12.8686 10.3492 -19.7626
12.8625 12.3899 -21.3728
12.8520 -12.7110 -21.6322
13.8351 -11.4306 -21.4769
14.3318 2.9528 -17.5117
13.6476 4.1107 -17.0573
12.8778 5.1724 -16.6080
12.8737 6.5604 -17.2916
12.8693 8.0804 -18.1853
12.8642 9.7802 -19.3391
12.8645 11.7324 -20.8364
12.8541 -13.4262 -22.2441
13.3120 -11.6236 -21.1493
15.6906 -11.4025 -23.2121
16.2797 2.8937 -19.7879
13.6488 3.7081 -16.9261
12.9114 4.7812 -16.4770
12.8750 6.1247 -17.0625
12.8707 7.5998 -17.8876
12.8658 9.2387 -18.9555
12.8663 11.1067 -20.3410
12.7756 13.1937 -21.9785
12.8563 -14.1835 -22.9092
12.9976 -11.9894 -21.1617
14.8264 -11.4050 -22.3856
5.7438 -0.6895 -6.9231
13.7720 3.3411 -16.9595
13.1320 4.4595 -16.5970
12.8763 5.6999 -16.8518
12.8720 7.1346 -17.6124
12.8674 8.7179 -18.6004
12.8681 10.5095 -19.8830
12.8302 12.5465 -21.4756
12.8583 -14.8469 -23.2128
12.9359 -12.4855 -21.2481
14.1548 -11.4070 -21.4851
5.7944 -0.8289 -6.9179
14.0017 3.0634 -16.9395
13.6470 4.2928 -16.9081
12.8773 5.3555 -16.4829
12.8732 6.7593 -17.1841
12.8686 8.3006 -18.0984
12.8695 10.0343 -19.2868
12.8636 12.0224 -20.8092
12.8531 -13.1013 -21.6912
13.6109 -11.5950 -21.1319
15.7946 3.0067 -19.0023
13.6482 3.8874 -16.7719
12.8785 4.9485 -16.3056
12.8745 6.3182 -16.9494
12.8700 7.8129 -17.7940
12.8651 9.4783 -18.8858
12.8655 11.3829 -20.3023
12.7746 13.5190 -21.9824
12.8553 -13.8392 -22.3238
13.1021 -11.7932 -20.8338
15.2053 -11.4039 -22.4632
5.7438 -0.6186 -6.8277
17.8653 2.8984 -21.3904
13.6874 3.4980 -16.6966
13.0087 4.5954 -16.3056
12.8757 5.8886 -16.7333
12.8714 7.3409 -17.5124
12.8667 8.9485 -18.5228
12.8673 10.7733 -19.8339
12.8357 12.8620 -21.4756
12.8576 -14.6220 -23.0120
12.9354 -12.2980 -21.0943
14.3744 -11.4064 -21.6874
5.7175 -0.7740 -6.8189
13.8859 3.1479 -16.8277
13.3825 4.3207 -16.6203
12.8770 5.4696 -16.5348
12.8728 6.8834 -17.2523
12.8682 8.4383 -18.1867
12.8690 10.1908 -19.4007
12.8631 12.2048 -20.9565
12.8525 -12.9047 -21.5255
13.7073 -11.5000 -21.1464
14.5755 2.8887 -17.5613
13.6479 3.9988 -16.8081
12.8782 5.0601 -16.3530
12.8741 6.4389 -17.0123
12.8697 7.9460 -17.8757
12.8647 9.6284 -18.9911
12.8650 11.5565 -20.4384
12.8605 13.8170 -22.3088
12.8547 -13.6310 -22.1437
13.2069 -11.7085 -20.8595
15.4455 -11.4032 -22.6904
17.4177 2.9606 -20.8806
13.6491 3.5980 -16.6824
12.9600 4.6884 -16.2885
12.8754 6.0062 -16.7912
12.8711 7.4698 -17.5880
12.8663 9.0929 -18.6203
12.8668 10.9389 -19.9597
12.7762 12.9969 -21.5394
12.8569 -14.4008 -22.8159
12.9348 -12.1132 -20.9440
14.5982 -11.4057 -21.8947
5.7006 -0.7280 -6.7921
13.8246 3.2437 -16.7825
13.2295 4.3817 -16.4707
12.8766 5.5844 -16.5879
12.8724 7.0084 -17.3222
12.8678 8.5775 -18.2770
12.8686 10.3492 -19.5170
12.8625 12.3899 -21.1072
12.9203 -12.7786 -21.4769
13.9183 -11.4993 -21.3375
14.3318 2.9528 -17.2940
13.6476 4.1107 -16.8454
12.8778 5.1724 -16.4016
12.8737 6.5604 -17.0767
12.8693 8.0804 -17.9592
12.8642 9.7802 -19.0988
12.8645 11.7324 -20.5774
12.8541 -13.4262 -21.9677
13.3120 -11.6236 -20.8865
15.6906 -11.4025 -22.9236
16.2797 2.8937 -19.5420
13.6488 3.7081 -16.7157
12.9114 4.7812 -16.2722
12.8750 6.1247 -16.8505
12.8707 7.5998 -17.6653
12.8658 9.2387 -18.7199
12.8663 11.1067 -20.0882
12.7756 13.1937 -21.7054
12.8563 -14.1835 -22.6245
12.9976 -11.9894 -20.8987
14.8264 -11.4050 -22.1074
5.7140 -0.6860 -6.8016
13.7720 3.3411 -16.7487
13.1320 4.4595 -16.3908
12.8763 5.6999 -16.6424
12.8720 7.1346 -17.3935
12.8674 8.7179 -18.3692
12.8681 10.5095 -19.6359
12.8620 12.5776 -21.2613
12.8583 -14.8469 -22.9250
12.9359 -12.4855 -20.9846
14.2681 -11.4983 -21.3885
5.7345 -0.8204 -6.7615
14.0017 3.0634 -16.7295
13.6470 4.2928 -16.6984
12.8773 5.3555 -16.2785
12.8732 6.7593 -16.9709
12.8686 8.3006 -17.8739
12.8695 10.0343 -19.0477
12.8636 12.0224 -20.5511
12.8860 -13.1348 -21.4769
13.6109 -11.5950 -20.8699
16.0985 -11.4013 -23.0254
15.9930 3.0445 -19.0023
13.6482 3.8874 -16.5639
12.8785 4.9485 -16.1034
12.8745 6.3182 -16.7392
12.8700 7.8129 -17.5733
12.8651 9.4783 -18.6516
12.8655 11.3829 -20.0505
12.7746 13.5190 -21.7098
12.8553 -13.8392 -22.0469
13.1021 -11.7932 -20.5754
15.2053 -11.4039 -22.1846
5.7438 -0.6186 -6.7430
17.9436 2.9111 -21.2177
13.6980 3.5007 -16.5023
13.0087 4.5954 -16.1034
12.8757 5.8886 -16.5258
12.8714 7.3409 -17.2953
12.8667 8.9485 -18.2930
12.8673 10.7733 -19.5879
12.8611 12.8875 -21.2513
12.8576 -14.6219 -22.7266
12.9354 -12.2980 -20.8327
14.4137 -11.4375 -21.4769
5.7175 -0.7740 -6.7344
13.8859 3.1479 -16.6190
13.3825 4.3207 -16.4140
12.8770 5.4696 -16.3297
12.8728 6.8834 -17.0384
12.8682 8.4383 -17.9612
12.8690 10.1908 -19.1601
12.8631 12.2048 -20.6966
12.9374 -12.9899 -21.3989
13.7073 -11.5000 -20.8841
16.3574 -11.4005 -23.2721
14.5755 2.8887 -17.3435
13.6479 3.9988 -16.5996
12.8782 5.0601 -16.1502
12.8741 6.4389 -16.8013
12.8697 7.9460 -17.6540
12.8647 9.6284 -18.7556
12.8650 11.5565 -20.1849
12.8605 13.8170 -22.0321
12.8547 -13.6310 -21.8690
13.2069 -11.7085 -20.6008
15.4455 -11.4032 -22.4090
5.8080 -0.5812 -6.8130
17.4177 2.9606 -20.6217
13.6713 3.6038 -16.5023
12.9600 4.6884 -16.0864
12.8754 6.0063 -16.5830
12.8711 7.4698 -17.3699
12.8663 9.0929 -18.3893
12.8668 10.9390 -19.7121
12.8605 13.0827 -21.4127
12.8569 -14.4008 -22.5329
12.9348 -12.1132 -20.6842
14.5982 -11.4057 -21.6232
5.7207 -0.7306 -6.7314
13.8246 3.2437 -16.5743
13.2295 4.3817 -16.2665
12.8766 5.5844 -16.3822
12.8724 7.0084 -17.1073
12.8678 8.5775 -18.0504
12.8686 10.3492 -19.2750
12.8625 12.3899 -20.8454
12.8594 -15.2195 -23.2563
12.9368 -12.7949 -21.2377
14.0252 -11.5877 -21.2348
14.3318 2.9528 -17.0795
13.6476 4.1107 -16.6364
12.8778 5.1724 -16.1982
12.8737 6.5604 -16.8649
12.8693 8.0804 -17.7365
12.8642 9.7802 -18.8619
12.8645 11.7324 -20.3222
12.8541 -13.4262 -21.6952
13.3120 -11.6236 -20.6275
15.6906 -11.4025 -22.6394
16.2797 2.8937 -19.2996
13.6488 3.7081 -16.5084
12.9114 4.7812 -16.0704
12.8750 6.1247 -16.6415
12.8707 7.5998 -17.4462
12.8658 9.2388 -18.4877
12.8663 11.1067 -19.8391
12.7991 13.2179 -21.4756
12.8563 -14.1835 -22.3439
12.9976 -11.9894 -20.6396
14.8264 -11.4050 -21.8332
5.7260 -0.6874 -6.7314
13.7720 3.3411 -16.5410
13.1320 4.4595 -16.1875
12.8763 5.6999 -16.4360
12.8720 7.1346 -17.1778
12.8674 8.7179 -18.1414
12.8681 10.5095 -19.3924
12.8620 12.5776 -20.9976
12.8583 -14.8469 -22.6412
12.9359 -12.4855 -20.7248
14.3432 -11.5588 -21.2349
5.7806 -0.8270 -6.7314
14.0017 3.0634 -16.5224
13.6470 4.2928 -16.4917
12.8773 5.3555 -16.0770
12.8732 6.7593 -16.7609
12.8686 8.3006 -17.6527
12.8695 10.0343 -18.8119
12.8636 12.0224 -20.2967
12.9380 -13.1878 -21.2967
13.6109 -11.5950 -20.6116
16.0985 -11.4013 -22.7403
16.1934 3.0826 -19.0023
13.7679 3.9215 -16.5023
12.8785 4.9485 -15.9040
12.8745 6.3182 -16.5320
12.8700 7.8129 -17.3557
12.8651 9.4783 -18.4207
12.8655 11.3829 -19.8023
12.7952 13.5408 -21.4756
12.8553 -13.8392 -21.7740
13.1021 -11.7932 -20.3207
13.9151 -10.4362 -20.0508
5.7438 -0.6186 -6.6595
18.1685 2.9475 -21.2177
13.8697 3.5446 -16.5023
13.0087 4.5954 -15.9040
12.8757 5.8886 -16.3212
12.8714 7.3409 -17.0812
12.8667 8.9485 -18.0666
12.8673 10.7733 -19.3454
12.8611 12.8875 -20.9882
12.8576 -14.6220 -22.4453
12.9354 -12.2980 -20.5748
14.4895 -11.4977 -21.3226
5.7175 -0.7740 -6.6510
13.9613 3.1650 -16.5023
13.3825 4.3207 -16.2109
12.8770 5.4696 -16.1276
12.8728 6.8834 -16.8275
12.8682 8.4383 -17.7388
12.8690 10.1908 -18.9229
12.8631 12.2048 -20.4404
12.8601 -15.4552 -23.1771
12.9374 -12.9899 -21.1340
13.7073 -11.5000 -20.6256
16.3574 -11.4005 -22.9841
14.5755 2.8887 -17.1289
13.7380 4.0252 -16.5023
12.8782 5.0601 -15.9502
12.8741 6.4389 -16.5934
12.8697 7.9460 -17.4355
12.8647 9.6284 -18.5234
12.8650 11.5565 -19.9350
12.8605 13.8170 -21.7594
12.8547 -13.6310 -21.5983
13.2069 -11.7085 -20.3458
14.0092 -10.3428 -20.0736
5.8104 -0.5815 -6.7314
17.0370 2.8959 -19.9212
13.8426 3.6490 -16.5023
12.9600 4.6884 -15.8873
12.8754 6.0063 -16.3777
12.8711 7.4698 -17.1549
12.8663 9.0929 -18.1617
12.8668 10.9390 -19.4681
12.8605 13.0827 -21.1476
12.8569 -14.4008 -22.2540
12.9348 -12.1132 -20.4282
13.7464 -10.7402 -20.1094
5.7006 -0.7280 -6.6248
13.9370 3.2701 -16.5023
13.2295 4.3817 -16.0651
12.8766 5.5844 -16.1794
12.8724 7.0084 -16.8956
12.8678 8.5775 -17.8269
12.8686 10.3492 -19.0364
12.8625 12.3899 -20.5874
12.8594 -15.2195 -22.9684
12.9368 -12.7949 -20.9748
14.2010 -11.7330 -21.2349
16.6220 -11.3997 -23.2344
14.3318 2.9528 -16.8681
13.7072 4.1286 -16.5023
12.8778 5.1724 -15.9977
12.8737 6.5604 -16.6561
12.8693 8.0804 -17.5170
12.8642 9.7802 -18.6284
12.8645 11.7324 -20.0707
12.8842 -13.4577 -21.4769
13.3120 -11.6236 -20.3721
15.6906 -11.4025 -22.3591
16.2797 2.8937 -19.0607
13.8147 3.7532 -16.5023
12.9114 4.7812 -15.8715
12.8750 6.1247 -16.4355
12.8707 7.5998 -17.2302
12.8658 9.2387 -18.2589
12.8663 11.1067 -19.5935
12.8599 13.2808 -21.3106
12.8563 -14.1835 -22.0673
12.9976 -11.9894 -20.3841
13.8090 -10.6224 -20.0833
5.7140 -0.6860 -6.6341
13.9120 3.3751 -16.5023
13.1320 4.4595 -15.9871
12.8763 5.6999 -16.2325
12.8720 7.1346 -16.9652
12.8674 8.7179 -17.9168
12.8681 10.5095 -19.1524
12.8620 12.5776 -20.7377
12.8583 -14.8469 -22.3614
12.9359 -12.4855 -20.4687
13.6983 -11.0391 -20.0295
5.7345 -0.8204 -6.5953
14.1597 3.0979 -16.5023
13.6470 4.2928 -16.2879
12.8773 5.3555 -15.8783
12.8732 6.7593 -16.5538
12.8686 8.3006 -17.4345
12.8695 10.0343 -18.5794
12.8636 12.0224 -20.0459
12.8608 -15.6951 -23.1019
12.9380 -13.1878 -21.0335
13.6109 -11.5950 -20.3568
14.4062 -10.2027 -20.0983
15.1839 2.8905 -17.5975
13.9402 3.9706 -16.5023
12.8785 4.9485 -15.7075
12.8745 6.3182 -16.3277
12.8700 7.8129 -17.1413
12.8651 9.4783 -18.1931
12.8655 11.3829 -19.5576
12.8590 13.6082 -21.3159
12.8553 -13.8392 -21.5050
13.1021 -11.7932 -20.0696
13.9151 -10.4362 -19.8030
5.7438 -0.6186 -6.5772
18.2617 2.9627 -21.0631
14.0433 3.5889 -16.5023
13.0087 4.5954 -15.7075
12.8757 5.8886 -16.1195
12.8714 7.3409 -16.8701
12.8667 8.9485 -17.8433
12.8673 10.7733 -19.1064
12.8611 12.8875 -20.7289
12.8576 -14.6220 -22.1680
12.9354 -12.2980 -20.3206
13.6978 -10.8694 -19.9084
5.7175 -0.7740 -6.5688
14.1359 3.2046 -16.5023
13.3825 4.3207 -16.0104
12.8770 5.4696 -15.9283
12.8728 6.8834 -16.6195
12.8682 8.4383 -17.5196
12.8690 10.1908 -18.6891
12.8631 12.2048 -20.1879
12.8601 -15.4552 -22.8907
12.9374 -12.9899 -20.8728
13.7073 -11.5000 -20.3708
16.3574 -11.4005 -22.7000
14.5755 2.8887 -16.9172
13.9098 4.0755 -16.5023
12.8782 5.0601 -15.7532
12.8741 6.4389 -16.3883
12.8697 7.9460 -17.2200
12.8647 9.6284 -18.2945
12.8650 11.5565 -19.6887
12.8605 13.8170 -21.4905
12.9395 -13.7210 -21.4723
13.2069 -11.7085 -20.0944
14.0092 -10.3428 -19.8255
5.8080 -0.5812 -6.6455
17.0370 2.8959 -19.6751
14.0158 3.6946 -16.5023
12.9600 4.6884 -15.6910
12.8754 6.0062 -16.1753
12.8711 7.4698 -16.9429
12.8663 9.0929 -17.9373
12.8668 10.9390 -19.2276
12.8605 13.0827 -20.8863
12.8569 -14.4008 -21.9790
12.9348 -12.1132 -20.1758
13.7465 -10.7402 -19.8610
5.7006 -0.7280 -6.5429
14.1114 3.3110 -16.5023
13.2295 4.3817 -15.8666
12.8766 5.5844 -15.9795
12.8724 7.0084 -16.6868
12.8678 8.5775 -17.6066
12.8686 10.3492 -18.8012
12.8625 12.3899 -20.3330
12.8594 -15.2195 -22.6846
12.9368 -12.7949 -20.7157
14.2530 -11.7759 -21.0492
16.6220 -11.3997 -22.9473
14.3318 2.9528 -16.6597
13.8787 4.1803 -16.5023
12.8778 5.1724 -15.8000
12.8737 6.5604 -16.4503
12.8693 8.0804 -17.3005
12.8642 9.7802 -18.3982
12.8645 11.7324 -19.8226
12.9389 -13.5148 -21.3016
13.3120 -11.6236 -20.1204
14.1490 -10.2821 -19.9131
16.4329 2.9209 -19.0023
13.9876 3.8002 -16.5023
12.9114 4.7812 -15.6754
12.8750 6.1247 -16.2324
12.8707 7.5998 -17.0173
12.8658 9.2387 -18.0333
12.8663 11.1067 -19.3514
12.8599 13.2808 -21.0473
12.8563 -14.1835 -21.7946
12.9976 -11.9894 -20.1322
13.8090 -10.6224 -19.8351
5.7140 -0.6860 -6.5522
14.0860 3.4173 -16.5023
13.1320 4.4595 -15.7895
12.8763 5.6999 -16.0319
12.8720 7.1346 -16.7555
12.8674 8.7179 -17.6954
12.8681 10.5095 -18.9157
12.8620 12.5776 -20.4814
12.8583 -14.8469 -22.0855
12.9359 -12.4855 -20.2162
13.6983 -11.0391 -19.7824
17.0629 -11.3984 -23.0739
5.7345 -0.8204 -6.5139
14.3366 3.1366 -16.5023
13.6470 4.2928 -16.0869
12.8773 5.3555 -15.6824
12.8732 6.7593 -16.3495
12.8686 8.3006 -17.2194
12.8695 10.0343 -18.3502
12.8636 12.0224 -19.7986
12.8608 -15.6951 -22.8168
12.9380 -13.1878 -20.7740
13.6109 -11.5950 -20.1056
14.4062 -10.2027 -19.8503
15.1839 2.8905 -17.3804
14.1143 4.0202 -16.5023
12.8785 4.9485 -15.5137
12.8745 6.3182 -16.1262
12.8700 7.8129 -16.9298
12.8651 9.4783 -17.9686
12.8655 11.3829 -19.3163
12.8590 13.6083 -21.0529
12.9402 -13.9305 -21.3799
13.1021 -11.7932 -19.8220
13.9151 -10.4362 -19.5587
5.7438 -0.6186 -6.4961
18.2618 2.9627 -20.8032
14.2187 3.6337 -16.5023
13.0087 4.5954 -15.5138
12.8757 5.8886 -15.9206
12.8714 7.3409 -16.6619
12.8667 8.9485 -17.6232
12.8673 10.7733 -18.8707
12.8611 12.8874 -20.4731
12.8576 -14.6220 -21.8944
12.9354 -12.2980 -20.0699
13.6978 -10.8694 -19.6628
5.7175 -0.7740 -6.4878
14.3125 3.2446 -16.5023
13.3825 4.3207 -15.8129
12.8770 5.4696 -15.7318
12.8728 6.8834 -16.4145
12.8682 8.4383 -17.3035
12.8690 10.1908 -18.4585
12.8631 12.2048 -19.9388
12.8601 -15.4552 -22.6083
12.9374 -12.9899 -20.6153
13.6996 -11.4935 -20.1081
14.5674 -10.1529 -19.9665
14.5755 2.8887 -16.7085
14.0836 4.1265 -16.5023
12.8782 5.0601 -15.5588
12.8741 6.4389 -16.1861
12.8697 7.9460 -17.0076
12.8647 9.6284 -18.0688
12.8650 11.5565 -19.4458
12.9006 13.8601 -21.2915
12.9395 -13.7210 -21.2074
13.2069 -11.7085 -19.8465
14.0092 -10.3428 -19.5809
5.8080 -0.5812 -6.5635
17.0370 2.8959 -19.4324
14.1909 3.7408 -16.5023
12.9600 4.6884 -15.4974
12.8754 6.0062 -15.9757
12.8711 7.4698 -16.7338
12.8663 9.0929 -17.7160
12.8668 10.9390 -18.9903
12.8605 13.0827 -20.6286
12.8569 -14.4008 -21.7078
12.9348 -12.1132 -19.9268
13.7465 -10.7402 -19.6159
5.7071 -0.7288 -6.4696
14.2876 3.3524 -16.5023
13.2295 4.3817 -15.6708
12.8766 5.5844 -15.7823
12.8724 7.0084 -16.4809
12.8678 8.5775 -17.3894
12.8686 10.3492 -18.5692
12.8625 12.3899 -20.0821
12.8594 -15.2195 -22.4047
12.9368 -12.7949 -20.4601
13.6991 -11.3183 -19.9816
16.6220 -11.3997 -22.6642
14.3738 2.9614 -16.5023
14.0521 4.2325 -16.5023
12.8778 5.1724 -15.6051
12.8737 6.5604 -16.2474
12.8693 8.0804 -17.0871
12.8642 9.7802 -18.1712
12.8645 11.7324 -19.5781
12.8619 -16.0932 -23.1657
12.9389 -13.5148 -21.0388
13.3120 -11.6236 -19.8721
14.1490 -10.2821 -19.6674
16.6382 2.9574 -19.0023
14.1623 3.8476 -16.5023
12.9114 4.7812 -15.4819
12.8750 6.1247 -16.0321
12.8707 7.5998 -16.8074
12.8658 9.2387 -17.8108
12.8663 11.1067 -19.1126
12.8599 13.2808 -20.7876
12.8563 -14.1835 -21.5257
12.9976 -11.9894 -19.8838
13.8090 -10.6224 -19.5904
5.7140 -0.6860 -6.4713
14.2620 3.4600 -16.5023
13.1320 4.4595 -15.5947
12.8763 5.6999 -15.8341
12.8720 7.1345 -16.5488
12.8674 8.7179 -17.4771
12.8681 10.5095 -18.6823
12.8620 12.5776 -20.2287
12.8583 -14.8469 -21.8134
12.9359 -12.4855 -19.9671
13.6983 -11.0391 -19.5387
17.0628 -11.3984 -22.7896
5.7665 -0.8249 -6.4696
14.5154 3.1757 -16.5023
13.6470 4.2928 -15.8888
12.8773 5.3555 -15.4892
12.8732 6.7593 -16.1481
12.8686 8.3006 -17.0073
12.8695 10.0343 -18.1241
12.8636 12.0224 -19.5547
12.8608 -15.6951 -22.5358
12.9380 -13.1878 -20.5181
13.6109 -11.5950 -19.8580
14.4062 -10.2027 -19.6058
15.1839 2.8905 -17.1663
14.2904 4.0703 -16.5023
12.8785 4.9485 -15.3226
12.8745 6.3182 -15.9276
12.8700 7.8129 -16.7212
12.8651 9.4783 -17.7472
12.8655 11.3829 -19.0784
12.8590 13.6083 -20.7936
12.9402 -13.9305 -21.1165
13.1021 -11.7932 -19.5778
13.9151 -10.4362 -19.3177
5.7918 -0.6237 -6.4696
17.8653 2.8984 -20.1008
14.3961 3.6791 -16.5023
13.0087 4.5954 -15.3226
12.8757 5.8886 -15.7245
12.8714 7.3409 -16.4567
12.8667 8.9485 -17.4061
12.8673 10.7733 -18.6382
12.8611 12.8875 -20.2209
12.8576 -14.6220 -21.6247
12.9354 -12.2980 -19.8226
13.6978 -10.8694 -19.4206
17.3432 -11.3976 -23.0486
5.7527 -0.7788 -6.4473
14.4910 3.2851 -16.5023
13.3825 4.3207 -15.6182
12.8770 5.4696 -15.5380
12.8728 6.8834 -16.2123
12.8682 8.4383 -17.0903
12.8690 10.1908 -18.2311
12.8631 12.2048 -19.6932
12.8601 -15.4552 -22.3298
12.9374 -12.9899 -20.3613
13.6996 -11.4935 -19.8604
14.5674 -10.1529 -19.7205
14.5756 2.8887 -16.5027
14.2593 4.1779 -16.5023
12.8782 5.0601 -15.3671
12.8741 6.4389 -15.9867
12.8697 7.9460 -16.7981
12.8647 9.6284 -17.8462
12.8650 11.5565 -19.2062
12.9006 13.8601 -21.0293
12.8612 -16.3435 -23.0976
12.9395 -13.7210 -20.9461
13.2069 -11.7085 -19.6020
14.0092 -10.3428 -19.3397
5.8080 -0.5812 -6.4827
17.0370 2.8959 -19.1930
14.3679 3.7874 -16.5023
12.9600 4.6884 -15.3065
12.8754 6.0063 -15.7789
12.8711 7.4698 -16.5277
12.8663 9.0929 -17.4977
12.8668 10.9390 -18.7564
12.8605 13.0827 -20.3745
12.8789 -14.4253 -21.4769
12.9348 -12.1132 -19.6813
13.7464 -10.7402 -19.3743
5.7331 -0.7321 -6.4190
14.4659 3.3942 -16.5023
13.2295 4.3817 -15.4778
12.8766 5.5844 -15.5879
12.8724 7.0084 -16.2779
12.8678 8.5775 -17.1752
12.8686 10.3492 -18.3404
12.8625 12.3899 -19.8347
12.8594 -15.2195 -22.1287
12.9368 -12.7949 -20.2080
13.6991 -11.3183 -19.7354
14.7936 -10.1458 -19.9226
14.5531 2.9984 -16.5023
14.0709 4.2382 -16.3209
12.8778 5.1724 -15.4128
12.8737 6.5604 -16.0472
12.8693 8.0804 -16.8765
12.8642 9.7802 -17.9474
12.8645 11.7324 -19.3369
12.8619 -16.0933 -22.8803
12.9389 -13.5148 -20.7796
13.3120 -11.6236 -19.6273
14.1490 -10.2821 -19.4251
16.6453 2.9587 -18.7762
14.3390 3.8956 -16.5023
12.9114 4.7812 -15.2912
12.8750 6.1247 -15.8346
12.8707 7.5998 -16.6003
12.8658 9.2387 -17.5914
12.8663 11.1067 -18.8772
12.8599 13.2808 -20.5315
12.9412 -14.2772 -21.4009
12.9976 -11.9894 -19.6389
13.8090 -10.6224 -19.3490
5.7450 -0.6897 -6.4263
14.4399 3.5031 -16.5023
13.1320 4.4595 -15.4026
12.8763 5.6999 -15.6391
12.8720 7.1345 -16.3449
12.8674 8.7179 -17.2618
12.8681 10.5095 -18.4521
12.8620 12.5776 -19.9795
12.8583 -14.8469 -21.5450
12.9359 -12.4855 -19.7214
13.6983 -11.0391 -19.2983
15.1859 -10.1446 -20.0332
5.7998 -0.8297 -6.4269
14.6962 3.2153 -16.5023
13.6470 4.2928 -15.6933
12.8773 5.3555 -15.2987
12.8732 6.7593 -15.9494
12.8686 8.3006 -16.7980
12.8695 10.0343 -17.9011
12.8636 12.0224 -19.3141
12.8608 -15.6951 -22.2585
12.9380 -13.1878 -20.2656
13.6109 -11.5950 -19.6136
14.4062 -10.2027 -19.3645
15.1839 2.8905 -16.9550
14.4684 4.1210 -16.5023
12.8785 4.9485 -15.1340
12.8745 6.3182 -15.7316
12.8700 7.8129 -16.5155
12.8651 9.4783 -17.5289
12.8655 11.3829 -18.8436
12.8590 13.6083 -20.5377
12.8574 -16.5944 -23.0278
12.9402 -13.9305 -20.8567
13.1021 -11.7932 -19.3369
13.9151 -10.4362 -19.0801
5.7919 -0.6237 -6.3902
17.8653 2.8984 -19.8535
14.5754 3.7249 -16.5023
13.0087 4.5954 -15.1341
12.8757 5.8886 -15.5310
12.8714 7.3409 -16.2542
12.8667 8.9485 -17.1919
12.8673 10.7733 -18.4089
12.8611 12.8875 -19.9721
12.9288 -14.7029 -21.4769
12.9354 -12.2980 -19.5787
13.6978 -10.8694 -19.1816
17.3432 -11.3976 -22.7651
5.7524 -0.7787 -6.3676
14.6716 3.3260 -16.5023
13.3825 4.3207 -15.4259
12.8770 5.4696 -15.3468
12.8728 6.8834 -16.0128
12.8682 8.4383 -16.8800
12.8690 10.1908 -18.0068
12.8631 12.2048 -19.4509
12.8601 -15.4552 -22.0550
12.9374 -12.9899 -20.1108
13.6996 -11.4935 -19.6160
14.5674 -10.1529 -19.4779
14.7568 2.9246 -16.5023
14.4369 4.2300 -16.5023
12.8782 5.0601 -15.1780
12.8741 6.4389 -15.7900
12.8697 7.9460 -16.5914
12.8647 9.6284 -17.6266
12.8650 11.5565 -18.9699
12.9006 13.8601 -20.7706
12.8612 -16.3435 -22.8134
12.9395 -13.7210 -20.6884
13.2069 -11.7085 -19.3608
14.0092 -10.3428 -19.1017
16.6899 -10.1546 -21.4304
5.8685 -0.5873 -6.4696
17.0370 2.8959 -18.9568
14.5469 3.8346 -16.5023
12.9600 4.6884 -15.1181
12.8754 6.0062 -15.5848
12.8711 7.4698 -16.3243
12.8663 9.0929 -17.2824
12.8668 10.9390 -18.5256
12.8605 13.0827 -20.1238
12.9418 -14.4959 -21.3164
12.9348 -12.1132 -19.4392
13.7464 -10.7402 -19.1359
17.6301 -11.3967 -23.0282
5.7328 -0.7321 -6.3396
14.6461 3.4365 -16.5023
13.2295 4.3817 -15.2873
12.8766 5.5844 -15.3961
12.8724 7.0084 -16.0776
12.8678 8.5775 -16.9638
12.8686 10.3492 -18.1148
12.8625 12.3899 -19.5907
12.8594 -15.2195 -21.8564
12.9368 -12.7949 -19.9594
13.6991 -11.3183 -19.4926
14.7936 -10.1458 -19.6775
14.7344 3.0357 -16.5023
14.1744 4.2693 -16.2385
12.8778 5.1724 -15.2232
12.8737 6.5604 -15.8498
12.8693 8.0804 -16.6689
12.8642 9.7802 -17.7265
12.8645 11.7324 -19.0990
12.8619 -16.0932 -22.5988
12.9389 -13.5148 -20.5239
13.3120 -11.6236 -19.3858
14.1490 -10.2821 -19.1861
16.6453 2.9587 -18.5452
14.5176 3.9442 -16.5023
12.9114 4.7812 -15.1031
12.8750 6.1247 -15.6398
12.8707 7.5998 -16.3961
12.8658 9.2387 -17.3749
12.8663 11.1067 -18.6449
12.8599 13.2808 -20.2789
12.9412 -14.2772 -21.1376
12.9976 -11.9894 -19.3972
13.8090 -10.6224 -19.1110
5.7447 -0.6897 -6.3469
14.6198 3.5468 -16.5023
13.1320 4.4595 -15.2131
12.8763 5.6999 -15.4466
12.8720 7.1345 -16.1438
12.8674 8.7179 -17.0494
12.8681 10.5095 -18.2251
12.8620 12.5776 -19.7337
12.9432 -14.9449 -21.4207
12.9359 -12.4855 -19.4791
13.6983 -11.0391 -19.0611
15.1859 -10.1446 -19.7870
5.7986 -0.8295 -6.3465
14.8791 3.2553 -16.5023
13.6470 4.2928 -15.5004
12.8773 5.3555 -15.1106
12.8732 6.7593 -15.7534
12.8686 8.3006 -16.5916
12.8695 10.0343 -17.6811
12.8636 12.0224 -19.0767
12.8608 -15.6951 -21.9849
12.9380 -13.1878 -20.0166
13.6109 -11.5950 -19.3726
14.4062 -10.2027 -19.1266
15.1839 2.8905 -16.7467
14.6484 4.1723 -16.5023
12.8785 4.9485 -14.9480
12.8745 6.3182 -15.5382
12.8700 7.8129 -16.3125
12.8651 9.4783 -17.3134
12.8655 11.3829 -18.6120
12.8590 13.6082 -20.2853
12.8574 -16.5944 -22.7448
12.9402 -13.9306 -20.6003
13.1021 -11.7932 -19.0993
14.0281 -10.5210 -18.9986
16.6904 -10.3281 -21.2658
5.7913 -0.6237 -6.3109
17.8653 2.8984 -19.6095
14.7567 3.7712 -16.5023
13.0087 4.5954 -14.9481
12.8757 5.8886 -15.3402
12.8714 7.3409 -16.0544
12.8667 8.9485 -16.9806
12.8673 10.7733 -18.1826
12.8611 12.8875 -19.7266
12.9425 -14.7185 -21.2354
12.9354 -12.2980 -19.3381
13.7359 -10.8997 -18.9986
15.4354 -10.1439 -20.0119
5.7520 -0.7787 -6.2889
14.8541 3.3674 -16.5023
13.3825 4.3207 -15.2365
12.8770 5.4696 -15.1582
12.8728 6.8834 -15.8160
12.8682 8.4383 -16.6726
12.8690 10.1908 -17.7855
12.8631 12.2048 -19.2118
12.8601 -15.4552 -21.7840
12.9374 -12.9899 -19.8636
13.6996 -11.4935 -19.3749
14.5674 -10.1529 -19.2385
14.9404 2.9610 -16.5023
14.4689 4.2393 -16.3356
12.8782 5.0601 -14.9915
12.8741 6.4389 -15.5960
12.8697 7.9460 -16.3875
12.8647 9.6284 -17.4100
12.8650 11.5565 -18.7368
12.9006 13.8601 -20.5152
12.8612 -16.3435 -22.5330
12.9395 -13.7210 -20.4341
13.2069 -11.7085 -19.1228
14.1069 -10.4150 -18.9986
16.6899 -10.1546 -21.1670
5.9415 -0.5946 -6.4696
17.0370 2.8959 -18.7238
14.7279 3.8823 -16.5023
12.9600 4.6884 -14.9324
12.8754 6.0062 -15.3932
12.8711 7.4698 -16.1237
12.8663 9.0929 -17.0701
12.8668 10.9389 -18.2979
12.8605 13.0827 -19.8765
12.9418 -14.4959 -21.0544
12.9348 -12.1132 -19.2003
13.8177 -10.7958 -18.9986
17.6301 -11.3967 -22.7452
5.7324 -0.7321 -6.2613
14.8283 3.4792 -16.5023
13.2295 4.3817 -15.0995
12.8766 5.5844 -15.2069
12.8724 7.0084 -15.8800
12.8678 8.5775 -16.7554
12.8686 10.3492 -17.8921
12.8625 12.3899 -19.3499
12.8594 -15.2195 -21.5878
12.9368 -12.7949 -19.7141
13.6991 -11.3182 -19.2530
14.7936 -10.1458 -19.4357
14.9177 3.0735 -16.5023
14.3508 4.3225 -16.2386
12.8778 5.1724 -15.0361
12.8737 6.5604 -15.6550
12.8693 8.0804 -16.4641
12.8642 9.7802 -17.5087
12.8645 11.7324 -18.8642
12.8619 -16.0933 -22.3210
12.9389 -13.5148 -20.2717
13.3120 -11.6236 -19.1476
14.1851 -10.3083 -18.9986
16.9514 -10.1394 -21.4011
16.6453 2.9587 -18.3173
14.6982 3.9932 -16.5023
12.9114 4.7812 -14.9175
12.8750 6.1247 -15.4476
12.8707 7.5998 -16.1945
12.8658 9.2388 -17.1614
12.8663 11.1067 -18.4158
12.8599 13.2808 -20.0297
12.8587 -17.0210 -23.1127
12.9412 -14.2772 -20.8778
12.9976 -11.9894 -19.1588
13.8987 -10.6914 -18.9986
16.6913 -10.6124 -21.4303
5.7444 -0.6896 -6.2686
19.3865 2.9028 -21.2388
14.8017 3.5909 -16.5023
13.1320 4.4595 -15.0261
12.8763 5.6999 -15.2568
12.8720 7.1345 -15.9454
12.8674 8.7179 -16.8399
12.8681 10.5095 -18.0011
12.8620 12.5776 -19.4912
12.9432 -14.9449 -21.1577
12.9359 -12.4855 -19.2399
13.8231 -11.1397 -18.9986
15.1859 -10.1446 -19.5441
5.7974 -0.8294 -6.2673
15.0640 3.2958 -16.5023
13.6470 4.2928 -15.3101
12.8773 5.3555 -14.9251
12.8732 6.7593 -15.5600
12.8686 8.3006 -16.3879
12.8695 10.0343 -17.4640
12.8636 12.0224 -18.8425
12.8608 -15.6951 -21.7150
12.9380 -13.1878 -19.7708
13.6109 -11.5950 -19.1348
14.4877 -10.2604 -18.9986
15.1839 2.8905 -16.5411
14.8305 4.2242 -16.5023
12.8785 4.9485 -14.7645
12.8745 6.3182 -15.3475
12.8700 7.8129 -16.1122
12.8651 9.4783 -17.1009
12.8655 11.3829 -18.3835
12.8590 13.6082 -20.0363
12.8574 -16.5944 -22.4655
12.9402 -13.9305 -20.3474
13.1021 -11.7932 -18.8648
14.2024 -10.6518 -18.9986
16.6904 -10.3281 -21.0047
5.7907 -0.6236 -6.2328
17.8653 2.8984 -19.3688
13.6874 3.4980 -15.1186
13.0087 4.5954 -14.7646
12.8757 5.8886 -15.1518
12.8714 7.3409 -15.8573
12.8667 8.9485 -16.7722
12.8673 10.7733 -17.9594
12.8611 12.8875 -19.4844
12.9425 -14.7185 -20.9747
12.9354 -12.2980 -19.1007
13.9066 -11.0351 -18.9986
15.4354 -10.1439 -19.7662
5.7517 -0.7786 -6.2114
15.0388 3.4092 -16.5023
13.3825 4.3207 -15.0495
12.8770 5.4696 -14.9721
12.8728 6.8834 -15.6218
12.8682 8.4383 -16.4679
12.8690 10.1908 -17.5671
12.8631 12.2048 -18.9759
12.8601 -15.4552 -21.5165
12.9374 -12.9899 -19.6198
13.6996 -11.4935 -19.1371
14.5674 -10.1529 -19.0023
15.1261 2.9978 -16.5023
14.5401 4.2602 -16.2145
12.8782 5.0601 -14.8075
12.8741 6.4389 -15.4045
12.8697 7.9460 -16.1863
12.8647 9.6284 -17.1963
12.8650 11.5565 -18.5067
12.9006 13.8601 -20.2633
12.8612 -16.3435 -22.2564
12.9395 -13.7210 -20.1832
13.2069 -11.7085 -18.8881
14.2823 -10.5444 -18.9986
16.6899 -10.1546 -20.9071
17.2432 2.9310 -18.7177
13.6491 3.5980 -15.1057
12.9600 4.6884 -14.7490
12.8754 6.0063 -15.2043
12.8711 7.4698 -15.9257
12.8663 9.0929 -16.8605
12.8668 10.9390 -18.0733
12.8605 13.0827 -19.6325
12.8595 -17.2915 -23.0611
12.9418 -14.4959 -20.7959
12.9348 -12.1132 -18.9645
13.9894 -10.9300 -18.9986
15.6908 -10.1431 -19.9947
5.7321 -0.7320 -6.1841
15.0126 3.5225 -16.5023
13.2295 4.3817 -14.9141
12.8766 5.5844 -15.0202
12.8724 7.0084 -15.6850
12.8678 8.5775 -16.5496
12.8686 10.3492 -17.6725
12.8625 12.3899 -19.1124
12.9443 -15.3200 -21.4636
12.9368 -12.7949 -19.4720
13.6991 -11.3183 -19.0167
14.7936 -10.1458 -19.1971
15.1031 3.1117 -16.5023
14.5292 4.3762 -16.2386
12.8778 5.1724 -14.8515
12.8737 6.5604 -15.4628
12.8693 8.0804 -16.2619
12.8642 9.7802 -17.2937
12.8645 11.7324 -18.6326
12.8619 -16.0933 -22.0470
12.9389 -13.5148 -20.0228
13.3120 -11.6236 -18.9125
14.3614 -10.4365 -18.9986
17.0123 -10.1757 -21.2141
16.6453 2.9587 -18.0924
13.6488 3.7081 -15.1359
12.9114 4.7812 -14.7343
12.8750 6.1247 -15.2579
12.8707 7.5998 -15.9957
12.8658 9.2387 -16.9507
12.8663 11.1067 -18.1897
12.8599 13.2808 -19.7837
12.8587 -17.0210 -22.8289
12.9412 -14.2772 -20.6215
12.9976 -11.9894 -18.9236
14.0714 -10.8243 -18.9986
16.6913 -10.6124 -21.1671
5.7441 -0.6896 -6.1913
19.6079 2.9360 -21.2176
14.9857 3.6355 -16.5023
13.1320 4.4595 -14.8417
12.8763 5.6999 -15.0695
12.8720 7.1345 -15.7497
12.8674 8.7179 -16.6331
12.8681 10.5095 -17.7801
12.8620 12.5776 -19.2519
12.8611 -17.8495 -23.2552
12.9432 -14.9449 -20.8982
12.9359 -12.4855 -19.0039
13.9947 -11.2780 -18.9986
15.1859 -10.1446 -19.3043
5.7962 -0.8292 -6.1892
15.2511 3.3367 -16.5023
13.6470 4.2928 -15.1223
12.8773 5.3555 -14.7420
12.8732 6.7593 -15.3691
12.8686 8.3006 -16.1868
12.8695 10.0343 -17.2498
12.8636 12.0224 -18.6114
12.8777 -15.7158 -21.4769
12.9380 -13.1878 -19.5283
13.6109 -11.5950 -18.9001
14.6676 -10.3879 -18.9986
17.4284 -10.1380 -21.3125
15.3365 2.9195 -16.5023
13.6482 3.8874 -15.0005
12.8785 4.9485 -14.5834
12.8745 6.3182 -15.1592
12.8700 7.8129 -15.9146
12.8651 9.4783 -16.8911
12.8655 11.3829 -18.1580
12.8590 13.6082 -19.7905
12.8574 -16.5944 -22.1899
12.9402 -13.9306 -20.0978
13.1021 -11.7932 -18.6333
14.3788 -10.7841 -18.9986
16.6904 -10.3281 -20.7470
5.7901 -0.6235 -6.1557
17.8653 2.8984 -19.1312
13.6874 3.4980 -14.9331
13.0087 4.5954 -14.5835
12.8757 5.8886 -14.9659
12.8714 7.3409 -15.6628
12.8667 8.9485 -16.5664
12.8673 10.7733 -17.7390
12.8611 12.8875 -19.2454
12.8603 -17.5676 -23.0136
12.9425 -14.7185 -20.7174
12.9354 -12.2980 -18.8664
14.0794 -11.1722 -18.9986
15.4354 -10.1439 -19.5237
5.7513 -0.7786 -6.1348
13.8859 3.1479 -15.0504
13.3825 4.3207 -14.8649
12.8770 5.4696 -14.7884
12.8728 6.8834 -15.4302
12.8682 8.4383 -16.2659
12.8690 10.1908 -17.3516
12.8631 12.2048 -18.7431
12.9450 -15.5572 -21.3929
12.9374 -12.9899 -19.3791
13.7073 -11.5000 -18.9130
14.7455 -10.2770 -18.9986
15.3140 3.0350 -16.5023
13.6479 3.9988 -15.0328
12.8782 5.0601 -14.6258
12.8741 6.4389 -15.2155
12.8697 7.9460 -15.9877
12.8647 9.6284 -16.9853
12.8650 11.5565 -18.2797
12.9006 13.8601 -20.0147
12.8612 -16.3435 -21.9834
12.9395 -13.7210 -19.9356
13.2069 -11.7085 -18.6564
14.4597 -10.6754 -18.9986
16.6899 -10.1546 -20.6506
17.4177 2.9606 -18.6752
13.6491 3.5980 -14.9204
12.9600 4.6884 -14.5681
12.8754 6.0063 -15.0177
12.8711 7.4698 -15.7304
12.8663 9.0929 -16.6536
12.8668 10.9389 -17.8516
12.8605 13.0827 -19.3916
12.8595 -17.2915 -22.7782
12.9418 -14.4959 -20.5408
12.9348 -12.1132 -18.7319
14.1632 -11.0658 -18.9986
15.6908 -10.1431 -19.7494
5.7318 -0.7320 -6.1079
13.8246 3.2437 -15.0099
13.2295 4.3817 -14.7311
12.8766 5.5844 -14.8359
12.8724 7.0084 -15.4926
12.8678 8.5775 -16.3466
12.8686 10.3492 -17.4557
12.8625 12.3899 -18.8779
12.9443 -15.3200 -21.2003
12.9368 -12.7949 -19.2331
13.8561 -11.4480 -18.9986
14.8225 -10.1656 -18.9986
15.2907 3.1503 -16.5023
13.6476 4.1107 -15.0662
12.8778 5.1724 -14.6693
12.8737 6.5604 -15.2731
12.8693 8.0804 -16.0624
12.8642 9.7802 -17.0816
12.8645 11.7324 -18.4041
12.8619 -16.0932 -21.7765
12.9389 -13.5148 -19.7772
13.3120 -11.6236 -18.6805
14.5398 -10.5661 -18.9986
17.0576 -10.2029 -21.0097
16.2797 2.8937 -17.4780
13.6488 3.7081 -14.9502
12.9114 4.7812 -14.5536
12.8750 6.1247 -15.0708
12.8707 7.5998 -15.7995
12.8658 9.2387 -16.7427
12.8663 11.1067 -17.9665
12.8599 13.2808 -19.5410
12.8587 -17.0210 -22.5489
12.9412 -14.2772 -20.3685
12.9976 -11.9894 -18.6914
14.2462 -10.9587 -18.9986
15.9519 -10.1423 -19.9813
5.7438 -0.6896 -6.1150
19.8113 2.9665 -21.1747
13.7720 3.3411 -14.9797
13.1320 4.4595 -14.6596
12.8763 5.6999 -14.8846
12.8720 7.1345 -15.5564
12.8674 8.7179 -16.4291
12.8681 10.5095 -17.5620
12.8620 12.5776 -19.0157
12.8611 -17.8495 -22.9701
12.9432 -14.9449 -20.6420
12.9359 -12.4855 -18.7709
14.1684 -11.4180 -18.9986
15.1859 -10.1446 -19.0676
5.7950 -0.8290 -6.1120
14.0017 3.0634 -14.9647
13.6470 4.2928 -14.9369
12.8773 5.3556 -14.5613
12.8732 6.7593 -15.1807
12.8686 8.3006 -15.9884
12.8695 10.0343 -17.0383
12.8636 12.0224 -18.3832
12.9457 -15.7987 -21.3255
12.9380 -13.1878 -19.2889
13.6109 -11.5950 -18.6683
14.8497 -10.5168 -18.9986
17.5371 -10.2012 -21.1825
15.5268 2.9557 -16.5023
13.6482 3.8874 -14.8166
12.8785 4.9485 -14.4046
12.8745 6.3182 -14.9734
12.8700 7.8129 -15.7195
12.8651 9.4783 -16.6840
12.8655 11.3829 -17.9354
12.8590 13.6082 -19.5479
12.8574 -16.5944 -21.9179
12.9402 -13.9305 -19.8514
13.1021 -11.7932 -18.4049
14.5573 -10.9179 -18.9986
16.3882 -10.1411 -20.1216
5.7895 -0.6235 -6.0796
17.8653 2.8984 -18.8966
13.6874 3.4980 -14.7501
13.0087 4.5954 -14.4047
12.8757 5.8886 -14.7825
12.8714 7.3409 -15.4708
12.8667 8.9485 -16.3633
12.8673 10.7733 -17.5216
12.8611 12.8875 -19.0095
12.8603 -17.5676 -22.7314
12.9425 -14.7185 -20.4634
12.9354 -12.2980 -18.6351
14.2541 -11.3109 -18.9986
15.4354 -10.1439 -19.2844
5.7510 -0.7785 -6.0593
13.8859 3.1479 -14.8659
13.3825 4.3207 -14.6826
12.8770 5.4696 -14.6071
12.8728 6.8834 -15.2410
12.8682 8.4383 -16.0665
12.8690 10.1908 -17.1389
12.8631 12.2048 -18.5134
12.9450 -15.5572 -21.1306
12.9374 -12.9899 -19.1415
13.7073 -11.5000 -18.6811
14.9285 -10.4046 -18.9986
17.7331 -10.1371 -21.3263
15.5041 3.0727 -16.5023
13.6479 3.9988 -14.8485
12.8782 5.0601 -14.4465
12.8741 6.4389 -15.0290
12.8697 7.9460 -15.7917
12.8647 9.6284 -16.7771
12.8650 11.5565 -18.0556
12.9006 13.8601 -19.7694
12.8612 -16.3435 -21.7139
12.9395 -13.7210 -19.6913
13.2069 -11.7085 -18.4276
14.6392 -10.8079 -18.9986
16.6899 -10.1546 -20.3975
17.4177 2.9606 -18.4463
13.6491 3.5980 -14.7375
12.9600 4.6884 -14.3895
12.8754 6.0063 -14.8336
12.8711 7.4698 -15.5375
12.8663 9.0929 -16.4495
12.8668 10.9389 -17.6327
12.8605 13.0827 -19.1539
12.8595 -17.2915 -22.4990
12.9418 -14.4959 -20.2890
12.9348 -12.1132 -18.5023
14.3390 -11.2031 -18.9986
15.6908 -10.1431 -19.5073
5.7314 -0.7319 -6.0327
13.8246 3.2437 -14.8259
13.2295 4.3817 -14.5505
12.8766 5.5844 -14.6541
12.8724 7.0084 -15.3027
12.8678 8.5775 -16.1462
12.8686 10.3492 -17.2417
12.8625 12.3899 -18.6465
12.9443 -15.3200 -20.9404
12.9368 -12.7949 -18.9974
13.9182 -11.4993 -18.8499
15.0065 -10.2918 -18.9986
15.4805 3.1894 -16.5023
13.6476 4.1107 -14.8815
12.8778 5.1724 -14.4895
12.8737 6.5604 -15.0858
12.8693 8.0804 -15.8655
12.8642 9.7802 -16.8722
12.8645 11.7324 -18.1784
12.8619 -16.0933 -21.5096
12.9389 -13.5148 -19.5347
13.3120 -11.6236 -18.4515
14.7202 -10.6972 -18.9986
17.0576 -10.2029 -20.7522
16.2797 2.8937 -17.2637
13.6488 3.7081 -14.7669
12.9114 4.7812 -14.3751
12.8750 6.1247 -14.8860
12.8707 7.5998 -15.6058
12.8658 9.2387 -16.5375
12.8663 11.1067 -17.7463
12.8599 13.2808 -19.3015
12.8587 -17.0210 -22.2724
12.9412 -14.2772 -20.1188
12.9976 -11.9894 -18.4623
14.4230 -11.0947 -18.9986
15.9519 -10.1423 -19.7364
5.7435 -0.6895 -6.0398
19.8113 2.9665 -20.9151
13.7720 3.3411 -14.7961
13.1320 4.4595 -14.4799
12.8763 5.6999 -14.7021
12.8720 7.1345 -15.3657
12.8674 8.7179 -16.2277
12.8681 10.5095 -17.3467
12.8620 12.5776 -18.7826
12.8611 -17.8495 -22.6886
12.9432 -14.9449 -20.3891
12.9359 -12.4855 -18.5409
14.2681 -11.4983 -18.8978
15.3187 -10.2333 -18.9986
5.7939 -0.8288 -6.0359
14.0017 3.0634 -14.7813
13.6470 4.2928 -14.7539
12.8773 5.3555 -14.3829
12.8732 6.7593 -14.9947
12.8686 8.3006 -15.7925
12.8695 10.0343 -16.8296
12.8636 12.0224 -18.1580
12.9457 -15.7987 -21.0643
12.9380 -13.1878 -19.0525
13.6109 -11.5950 -18.4397
15.0339 -10.6473 -18.9986
17.5371 -10.2012 -20.9230
15.7194 2.9924 -16.5023
13.6482 3.8874 -14.6350
12.8785 4.9485 -14.2281
12.8745 6.3182 -14.7899
12.8700 7.8129 -15.5269
12.8651 9.4783 -16.4796
12.8655 11.3829 -17.7156
12.8590 13.6082 -19.3084
12.8574 -16.5944 -21.6494
12.9402 -13.9306 -19.6082
13.1021 -11.7932 -18.1794
14.7379 -11.0533 -18.9986
16.3882 -10.1411 -19.8750
5.7889 -0.6234 -6.0045
17.9157 2.9065 -18.7177
13.6874 3.4980 -14.5693
13.0087 4.5954 -14.2282
12.8757 5.8886 -14.6013
12.8714 7.3409 -15.2812
12.8667 8.9485 -16.1628
12.8673 10.7733 -17.3069
12.8611 12.8875 -18.7766
12.8603 -17.5676 -22.4529
12.9425 -14.7185 -20.2127
12.9354 -12.2980 -18.4067
14.4309 -11.4512 -18.9986
15.4354 -10.1439 -19.0481
5.7507 -0.7785 -5.9847
13.8859 3.1479 -14.6837
13.3825 4.3207 -14.5027
12.8770 5.4696 -14.4281
12.8728 6.8834 -15.0543
12.8682 8.4383 -15.8696
12.8690 10.1908 -16.9289
12.8631 12.2048 -18.2865
12.9450 -15.5572 -20.8717
12.9374 -12.9899 -18.9070
13.7073 -11.5000 -18.4522
15.1137 -10.5336 -18.9986
17.8434 -10.2001 -21.1961
15.6964 3.1108 -16.5023
13.6479 3.9988 -14.6666
12.8782 5.0601 -14.2695
12.8741 6.4389 -14.8448
12.8697 7.9460 -15.5982
12.8647 9.6284 -16.5715
12.8650 11.5565 -17.8344
12.9006 13.8601 -19.5273
12.8787 -16.3657 -21.4769
12.9395 -13.7210 -19.4500
13.2069 -11.7085 -18.2019
14.8207 -10.9420 -18.9986
16.6664 -10.1402 -20.1191
17.4177 2.9606 -18.2202
13.6491 3.5980 -14.5569
12.9600 4.6884 -14.2132
12.8754 6.0062 -14.6519
12.8711 7.4698 -15.3472
12.8663 9.0929 -16.2479
12.8668 10.9390 -17.4167
12.8605 13.0827 -18.9192
12.8595 -17.2915 -22.2233
12.9418 -14.4959 -20.0404
12.9348 -12.1132 -18.2755
14.5168 -11.3421 -18.9986
15.6908 -10.1431 -19.2683
5.7311 -0.7319 -5.9584
20.4595 2.9060 -21.3113
13.8246 3.2437 -14.6443
13.2295 4.3817 -14.3722
12.8766 5.5844 -14.4745
12.8724 7.0084 -15.1152
12.8678 8.5775 -15.9484
12.8686 10.3492 -17.0304
12.8625 12.3899 -18.4180
12.8625 -18.3187 -23.0837
12.9443 -15.3200 -20.6838
12.9368 -12.7949 -18.7646
14.0048 -11.5709 -18.7348
15.1927 -10.4194 -18.9986
18.0458 -10.1362 -21.3452
14.3318 2.9528 -15.0906
13.6476 4.1107 -14.6991
12.8778 5.1724 -14.3119
12.8737 6.5604 -14.9010
12.8693 8.0804 -15.6711
12.8642 9.7802 -16.6654
12.8645 11.7324 -17.9557
12.9408 -16.1920 -21.3764
12.9389 -13.5148 -19.2954
13.3120 -11.6236 -18.2254
14.9028 -10.8299 -18.9986
17.0576 -10.2029 -20.4979
16.2797 2.8937 -17.0522
13.6488 3.7081 -14.5860
12.9114 4.7812 -14.1990
12.8750 6.1247 -14.7036
12.8707 7.5998 -15.4146
12.8658 9.2387 -16.3348
12.8663 11.1067 -17.5288
12.8599 13.2808 -19.0650
12.8587 -17.0210 -21.9996
12.9412 -14.2772 -19.8723
12.9976 -11.9894 -18.2361
14.6019 -11.2323 -18.9986
15.9519 -10.1423 -19.4946
5.7432 -0.6895 -5.9654
19.8113 2.9665 -20.6589
13.7720 3.3411 -14.6148
13.1320 4.4595 -14.3025
12.8763 5.6999 -14.5220
12.8720 7.1346 -15.1775
12.8674 8.7179 -16.0288
12.8681 10.5095 -17.1342
12.8620 12.5776 -18.5524
12.8611 -17.8495 -22.4107
12.9432 -14.9449 -20.1393
12.9359 -12.4855 -18.3138
14.3205 -11.5405 -18.7349
15.5086 -10.3602 -18.9986
5.7927 -0.8287 -5.9608
14.0017 3.0634 -14.6003
13.6470 4.2928 -14.5732
12.8773 5.3555 -14.2067
12.8732 6.7593 -14.8110
12.8686 8.3006 -15.5991
12.8695 10.0343 -16.6234
12.8636 12.0224 -17.9356
12.9457 -15.7987 -20.8062
12.9380 -13.1878 -18.8192
13.6109 -11.5950 -18.2137
15.2203 -10.7793 -18.9986
17.5371 -10.2012 -20.6667
15.9143 3.0295 -16.5023
13.6482 3.8875 -14.4558
12.8785 4.9485 -14.0539
12.8745 6.3182 -14.6087
12.8700 7.8129 -15.3367
12.8651 9.4783 -16.2777
12.8655 11.3829 -17.4986
12.8590 13.6082 -19.0719
12.9132 -16.6664 -21.4769
12.9402 -13.9306 -19.3680
13.1021 -11.7932 -17.9567
14.9206 -11.1904 -18.9986
16.3882 -10.1411 -19.6316
5.7883 -0.6234 -5.9304
18.1378 2.9426 -18.7177
13.6874 3.4980 -14.3909
13.0087 4.5954 -14.0539
12.8757 5.8886 -14.4225
12.8714 7.3409 -15.0941
12.8667 8.9485 -15.9648
12.8673 10.7733 -17.0949
12.8611 12.8875 -18.5466
12.8603 -17.5676 -22.1779
12.9425 -14.7185 -19.9651
12.9354 -12.2980 -18.1813
14.4895 -11.4977 -18.8421
15.5863 -10.2430 -18.9986
5.7504 -0.7784 -5.9111
13.8859 3.1479 -14.5039
13.3825 4.3207 -14.3250
12.8770 5.4696 -14.2514
12.8728 6.8834 -14.8699
12.8682 8.4383 -15.6752
12.8690 10.1908 -16.7216
12.8631 12.2048 -18.0626
12.8634 -18.6167 -23.0506
12.9450 -15.5572 -20.6161
12.9374 -12.9899 -18.6754
13.7073 -11.5000 -18.2262
15.3011 -10.6643 -18.9986
17.8434 -10.2001 -20.9365
15.8910 3.1494 -16.5023
13.6479 3.9988 -14.4869
12.8782 5.0601 -14.0947
12.8741 6.4389 -14.6630
12.8697 7.9460 -15.4072
12.8647 9.6284 -16.3686
12.8650 11.5565 -17.6159
12.9006 13.8601 -19.2879
12.9416 -16.4456 -21.3175
12.9395 -13.7210 -19.2117
13.2069 -11.7085 -17.9789
15.0045 -11.0777 -18.9986
16.6664 -10.1402 -19.8727
17.0371 2.8959 -17.6038
13.6491 3.5980 -14.3787
12.9600 4.6884 -14.0391
12.8754 6.0062 -14.4724
12.8711 7.4698 -15.1592
12.8663 9.0929 -16.0489
12.8668 10.9390 -17.2033
12.8605 13.0827 -18.6875
12.8595 -17.2915 -21.9511
12.9418 -14.4959 -19.7949
12.9348 -12.1132 -18.0517
14.6968 -11.4827 -18.9986
15.6908 -10.1431 -19.0323
5.7308 -0.7319 -5.8851
20.6220 2.9291 -21.2176
13.8246 3.2437 -14.4649
13.2295 4.3817 -14.1962
12.8766 5.5844 -14.2972
12.8724 7.0084 -14.9300
12.8678 8.5775 -15.7530
12.8686 10.3492 -16.8218
12.8625 12.3899 -18.1924
12.8625 -18.3187 -22.8010
12.9443 -15.3200 -20.4304
12.9368 -12.7949 -18.5348
14.1785 -11.7144 -18.7348
15.3810 -10.5486 -18.9986
18.1574 -10.1988 -21.2140
14.3318 2.9528 -14.9058
13.6476 4.1107 -14.5191
12.8778 5.1724 -14.1366
12.8737 6.5604 -14.7185
12.8693 8.0804 -15.4792
12.8642 9.7802 -16.4613
12.8645 11.7324 -17.7358
12.9408 -16.1920 -21.1146
12.9389 -13.5148 -19.0590
13.3120 -11.6236 -18.0022
15.0876 -10.9642 -18.9986
16.9514 -10.1394 -20.1209
16.2797 2.8937 -16.8433
13.6488 3.7081 -14.4073
12.9114 4.7812 -14.0251
12.8750 6.1247 -14.5235
12.8707 7.5998 -15.2258
12.8658 9.2388 -16.1348
12.8663 11.1067 -17.3141
12.8599 13.2808 -18.8315
12.8587 -17.0210 -21.7301
12.9412 -14.2772 -19.6289
12.9976 -11.9894 -18.0127
14.7830 -11.3716 -18.9986
15.9519 -10.1423 -19.2558
5.7430 -0.6895 -5.8921
19.3865 2.9028 -19.9683
13.7720 3.3411 -14.4358
13.1320 4.4595 -14.1273
12.8763 5.6999 -14.3441
12.8720 7.1345 -14.9916
12.8674 8.7179 -15.8325
12.8681 10.5095 -16.9243
12.8620 12.5776 -18.3252
12.8611 -17.8495 -22.1363
12.9432 -14.9449 -19.8927
12.9359 -12.4855 -18.0896
14.4980 -11.6836 -18.7349
15.7009 -10.4886 -18.9986
18.5702 -10.1346 -21.2864
5.7916 -0.8285 -5.8867
23.0381 -1.2158 -23.2127
23.0320 0.8444 -23.1899
14.0017 3.0634 -14.4215
13.6470 4.2928 -14.3947
12.8773 5.3555 -14.0327
12.8732 6.7593 -14.6296
12.8686 8.3006 -15.4081
12.8695 10.0343 -16.4199
12.8636 12.0224 -17.7159
12.8643 -18.9214 -23.0217
12.9457 -15.7987 -20.5515
12.9380 -13.1878 -18.5887
13.6109 -11.5950 -17.9907
15.4090 -10.9129 -18.9986
17.5371 -10.2012 -20.4136
23.0400 -1.8471 -23.2567
23.0339 0.2158 -23.1772
