ply
format ascii 1.0
element vertex 2080
property float32 x
property float32 y
property float32 z
end_header
-2.5304 2.0768 0.0202
-2.5340 1.7260 0.0189
-2.5372 1.4147 0.0179
-2.5402 1.1323 0.0171
-2.5429 0.8710 0.0166
-2.5454 0.6248 0.0161
-2.5479 0.3887 0.0159
-2.5503 0.1585 0.0157
-2.5526 -0.0696 0.0157
-2.5550 -0.2992 0.0158
-22.1261 -6.7278 0.1425
-12.4760 -41.3318 0.2659
-9.6737 -46.7986 0.2944
-4.5088 -39.1986 0.2430
5.7981 -37.4947 0.2337
9.8474 -39.7682 0.2524
14.4719 -41.9698 0.2735
22.6552 -40.4375 0.2855
27.9723 -40.8874 0.3052
8.1564 -8.2676 0.0715
39.7772 0.4638 0.2450
22.3340 2.2628 0.1383
20.6348 3.9746 0.1294
19.1284 5.4922 0.1226
17.8352 6.8954 0.1178
16.5679 8.1721 0.1138
15.3745 9.3744 0.1109
14.2310 10.5264 0.1090
16.3442 14.5146 0.1347
14.8532 15.7751 0.1335
-16.8870 31.2748 0.2190
-16.2435 24.5558 0.1813
-19.5112 24.4398 0.1926
-21.6252 22.6144 0.1928
-28.5174 24.9332 0.2333
-2.5328 1.8433 0.0193
-2.5361 1.5196 0.0182
-2.5392 1.2281 0.0174
-2.5420 0.9602 0.0167
-2.5446 0.7093 0.0163
-2.5470 0.4702 0.0160
-2.5494 0.2384 0.0158
-2.5518 0.0100 0.0157
-2.5542 -0.2186 0.0158
-8.4954 -5.0000 0.0607
-15.1351 -45.0198 0.2926
-9.7046 -40.5329 0.2567
-2.2104 -39.1691 0.2417
13.0219 -41.9644 0.2707
17.2659 -41.9801 0.2796
22.6437 -43.5458 0.3023
26.0541 -40.7527 0.2980
9.1246 -8.2321 0.0757
22.9849 1.6072 0.1419
21.2027 3.4026 0.1323
19.6357 4.9812 0.1248
18.3000 6.4272 0.1195
17.0004 7.7365 0.1151
15.7841 8.9617 0.1118
14.6257 10.1288 0.1096
15.3937 12.8352 0.1235
15.3706 15.3377 0.1338
11.2845 24.6566 0.1670
-8.7384 22.2246 0.1471
-16.4782 32.9329 0.2269
-16.3182 26.4226 0.1913
-18.2906 24.4352 0.1880
-21.9625 24.4488 0.2025
-26.7782 24.9267 0.2254
-2.5315 1.9659 0.0197
-2.5350 1.6284 0.0186
-2.5381 1.3268 0.0176
-2.5410 1.0515 0.0169
-2.5437 0.7953 0.0164
-2.5462 0.5526 0.0160
-2.5486 0.3187 0.0158
-2.5510 0.0895 0.0157
-2.5534 -0.1386 0.0158
-2.5558 -0.3694 0.0159
-8.5748 -4.6934 0.0602
-11.2385 -41.2218 0.2632
-3.4388 -39.1848 0.2423
10.9955 -39.7725 0.2542
15.7532 -41.9745 0.2762
24.3717 -40.8740 0.2931
23.6717 0.9153 0.1459
21.7965 2.8044 0.1354
20.1620 4.4510 0.1272
19.3855 6.1369 0.1253
17.4429 7.2907 0.1165
16.2007 8.5420 0.1128
15.0247 9.7268 0.1103
13.8922 10.8677 0.1087
15.8908 14.8979 0.1342
14.4066 16.1527 0.1333
14.5817 29.4035 0.2022
0.6837 49.5305 0.3051
-16.8940 29.3639 0.2087
-17.1261 24.4309 0.1838
-20.6186 24.4438 0.1970
-25.1526 24.9207 0.2181
-2.5302 2.0944 0.0202
-2.5338 1.7415 0.0189
-2.5371 1.4286 0.0179
-2.5400 1.1450 0.0172
-2.5428 0.8829 0.0166
-2.5453 0.6361 0.0162
-2.5478 0.3996 0.0159
-2.5502 0.1692 0.0157
-2.5525 -0.0589 0.0157
-2.5549 -0.2883 0.0158
-12.9494 -42.2614 0.2723
-9.6867 -45.8939 0.2889
-4.6751 -39.2007 0.2432
5.6370 -37.4897 0.2335
9.6711 -39.7676 0.2521
14.2758 -41.9691 0.2731
22.6986 -40.9148 0.2882
27.7216 -40.8864 0.3043
8.1360 -8.3162 0.0717
22.4193 2.1769 0.1388
20.7095 3.8994 0.1298
19.1954 5.4248 0.1229
17.8967 6.8334 0.1180
16.6254 8.1143 0.1140
15.4291 9.3194 0.1110
14.2837 10.4733 0.1091
16.4147 14.4550 0.1347
14.9224 15.7166 0.1335
17.8478 33.3374 0.2329
-1.4030 31.6154 0.1949
-16.8858 31.5876 0.2206
-17.3226 26.4263 0.1946
-19.3441 24.4391 0.1920
-22.9908 24.2444 0.2058
-28.2772 24.9323 0.2322
-2.5326 1.8594 0.0194
-2.5360 1.5339 0.0183
-2.5390 1.2412 0.0174
-2.5418 0.9723 0.0168
-2.5444 0.7208 0.0163
-2.5469 0.4812 0.0160
-2.5493 0.2491 0.0158
-2.5517 0.0207 0.0157
-2.5541 -0.2079 0.0158
-8.4868 -4.9474 0.0605
-15.4854 -45.4327 0.2957
-9.6948 -39.7582 0.2521
-2.3747 -39.1712 0.2417
12.8298 -41.9637 0.2703
17.0609 -41.9794 0.2791
25.3275 -39.9831 0.2916
9.1138 -8.2916 0.0759
23.0747 1.5166 0.1424
21.2807 3.3240 0.1327
19.7051 4.9113 0.1251
18.3633 6.3634 0.1197
17.0591 7.6773 0.1152
15.8395 8.9059 0.1119
14.6789 10.0752 0.1097
14.7388 12.1851 0.1178
15.4402 15.2789 0.1338
21.5363 37.3792 0.2657
11.4088 24.6557 0.1674
-16.3062 32.9323 0.2264
-16.2362 26.5371 0.1916
-18.1315 24.4347 0.1874
-21.7780 24.4481 0.2017
-26.5541 24.9259 0.2244
-2.5313 1.9828 0.0198
-2.5349 1.6433 0.0186
-2.5380 1.3402 0.0177
-2.5409 1.0639 0.0170
-2.5435 0.8069 0.0164
-2.5461 0.5637 0.0161
-2.5485 0.3295 0.0158
-2.5509 0.1002 0.0157
-2.5533 -0.1279 0.0157
-2.5556 -0.3585 0.0159
-8.6782 -4.7029 0.0608
-11.4556 -41.3370 0.2642
-3.6042 -39.1870 0.2424
10.8167 -39.7718 0.2539
15.7923 -42.6188 0.2800
24.1403 -40.8732 0.2924
28.7274 -40.0018 0.3034
23.7667 0.8195 0.1465
21.8782 2.7221 0.1358
20.2342 4.3783 0.1275
19.2547 6.0071 0.1242
17.5030 7.2301 0.1167
16.2572 8.4852 0.1130
15.0786 9.6725 0.1104
13.9445 10.8150 0.1087
15.9608 14.8387 0.1342
14.4756 16.0943 0.1333
14.6420 29.2179 0.2013
0.8904 49.5155 0.3051
-16.8930 29.6480 0.2102
-16.9740 24.4304 0.1833
-20.4440 24.4432 0.1963
-24.9425 24.9200 0.2172
-2.5300 2.1122 0.0203
-2.5337 1.7570 0.0190
-2.5369 1.4425 0.0180
-2.5399 1.1577 0.0172
-2.5426 0.8948 0.0166
-2.5452 0.6473 0.0162
-2.5477 0.4105 0.0159
-2.5501 0.1799 0.0157
-2.5524 -0.0482 0.0157
-2.5548 -0.2775 0.0158
-31.3021 -33.7301 0.2835
-13.5376 -43.5307 0.2808
-9.4643 -43.9310 0.2768
9.4112 -39.4156 0.2496
14.0802 -41.9683 0.2727
18.3982 -41.9843 0.2824
22.6972 -41.3183 0.2904
27.4724 -40.8855 0.3034
8.1264 -8.3761 0.0719
43.5946 0.1440 0.2685
22.5052 2.0904 0.1392
20.7846 3.8237 0.1302
19.2627 5.3570 0.1232
17.9585 6.7712 0.1182
16.6829 8.0563 0.1141
15.4837 9.2644 0.1111
14.3364 10.4202 0.1092
16.4853 14.3953 0.1348
14.9917 15.6580 0.1335
17.8291 32.9708 0.2309
-1.2655 31.4884 0.1941
-16.8846 31.9051 0.2224
-17.1648 26.4257 0.1941
-19.1781 24.4385 0.1914
-22.7986 24.2437 0.2050
-28.0391 24.9314 0.2311
-2.5324 1.8756 0.0194
-2.5358 1.5483 0.0183
-2.5389 1.2543 0.0174
-2.5417 0.9845 0.0168
-2.5443 0.7322 0.0163
-2.5468 0.4922 0.0160
-2.5492 0.2599 0.0158
-2.5516 0.0313 0.0157
-2.5540 -0.1971 0.0158
-22.2012 -3.7277 0.1387
-8.5060 -4.9111 0.0605
-15.7614 -45.6176 0.2973
-10.0282 -40.3916 0.2564
-2.5391 -39.1733 0.2418
12.6380 -41.9630 0.2700
16.8567 -41.9786 0.2787
25.3261 -40.3531 0.2935
23.1653 1.4254 0.1430
21.3592 3.2449 0.1331
19.7748 4.8410 0.1254
18.4270 6.2993 0.1200
17.1180 7.6180 0.1154
15.8951 8.8500 0.1121
14.7322 10.0215 0.1098
14.1415 11.5922 0.1126
15.5097 15.2201 0.1339
14.0296 16.4714 0.1333
21.6489 37.2146 0.2652
11.5553 24.7007 0.1680
-16.2120 33.0887 0.2270
-16.2353 26.7862 0.1929
-17.9732 24.4341 0.1869
-21.5950 24.4475 0.2009
-26.3320 24.9251 0.2234
-2.5312 1.9997 0.0199
-2.5347 1.6582 0.0187
-2.5379 1.3537 0.0177
-2.5407 1.0763 0.0170
-2.5434 0.8186 0.0165
-2.5460 0.5749 0.0161
-2.5484 0.3403 0.0158
-2.5508 0.1109 0.0157
-2.5531 -0.1172 0.0157
-2.5555 -0.3476 0.0159
-11.7712 -41.7968 0.2675
-3.7694 -39.1891 0.2425
10.6383 -39.7712 0.2536
15.7455 -43.0440 0.2823
23.9101 -40.8723 0.2917
28.7261 -40.3549 0.3051
35.6530 -17.7487 0.4907
22.8956 1.6971 0.2829
21.1251 3.4807 0.2638
19.5667 5.0507 0.2490
18.2369 6.4907 0.2385
16.9418 7.7954 0.2298
15.7288 9.0174 0.2234
14.5726 10.1823 0.2190
16.1148 13.5509 0.2594
15.3011 15.3964 0.2674
11.1800 24.7003 0.3341
-8.8100 22.1347 0.2935
-16.6509 32.9336 0.4547
-16.4714 26.4232 0.3836
-18.4508 24.4358 0.3773
-22.0973 24.3931 0.4055
-27.0044 24.9276 0.4528
-2.5317 1.9491 0.0394
-2.5352 1.6135 0.0370
-2.5383 1.3133 0.0352
-2.5411 1.0391 0.0338
-2.5438 0.7837 0.0328
-2.5463 0.5415 0.0321
-2.5487 0.3079 0.0316
-2.5511 0.0789 0.0314
-2.5535 -0.1493 0.0315
-2.5559 -0.3803 0.0318
-8.5428 -4.7223 0.1203
-10.9721 -40.9173 0.5219
-3.2737 -39.1816 0.4844
3.8422 -40.2075 0.4976
11.1748 -39.7731 0.5090
15.9538 -41.9753 0.5532
24.2164 -40.2306 0.5785
49.3733 -6.7467 0.6140
23.5774 1.0103 0.2908
21.7153 2.8862 0.2699
20.0903 4.5232 0.2537
18.7138 6.0103 0.2422
17.3829 7.3510 0.2325
16.1445 8.5987 0.2254
14.9710 9.7809 0.2203
13.8400 10.9203 0.2172
15.8209 14.9570 0.2682
14.3375 16.2111 0.2666
20.8251 42.4376 0.5824
16.3757 42.6136 0.5625
8.3976 29.4729 0.3776
-16.8951 29.0840 0.4144
-17.2792 24.4315 0.3687
-20.7945 24.4445 0.3954
-25.3644 24.9215 0.4381
-2.5304 2.0768 0.0403
-2.5340 1.7260 0.0378
-2.5372 1.4147 0.0358
-2.5402 1.1323 0.0343
-2.5429 0.8710 0.0331
-2.5454 0.6248 0.0323
-2.5479 0.3887 0.0318
-2.5503 0.1585 0.0315
-2.5526 -0.0696 0.0315
-2.5550 -0.2992 0.0317
-22.1252 -6.7276 0.2849
-12.9814 -43.0062 0.5535
-9.6844 -46.8504 0.5894
-4.5087 -39.1974 0.4861
5.7979 -37.4937 0.4674
9.8474 -39.7682 0.5048
14.4719 -41.9698 0.5470
22.6552 -40.4375 0.5711
27.9723 -40.8874 0.6103
8.1562 -8.2674 0.1431
37.5189 -17.4306 0.5097
39.6742 -6.6867 0.4957
39.7772 0.4638 0.4901
22.3340 2.2628 0.2766
20.6348 3.9746 0.2589
19.1284 5.4922 0.2452
17.8352 6.8954 0.2356
16.5679 8.1721 0.2276
15.3745 9.3744 0.2219
14.2310 10.5264 0.2181
16.3442 14.5146 0.2693
14.8532 15.7751 0.2670
16.6055 39.4904 0.5278
-16.8870 31.2748 0.4379
-16.2435 24.5558 0.3627
-19.5112 24.4398 0.3853
-21.6102 22.5988 0.3853
-28.5174 24.9332 0.4667
-2.5328 1.8433 0.0386
-2.5361 1.5196 0.0364
-2.5392 1.2281 0.0348
-2.5420 0.9602 0.0335
-2.5446 0.7093 0.0325
-2.5470 0.4702 0.0319
-2.5495 0.2384 0.0315
-2.5518 0.0100 0.0314
-2.5542 -0.2186 0.0316
-8.4951 -4.9999 0.1214
-15.1083 -44.9403 0.5841
-9.7365 -40.6660 0.5152
-2.2103 -39.1679 0.4833
13.0219 -41.9644 0.5413
17.2659 -41.9801 0.5592
22.6437 -43.5459 0.6047
26.0541 -40.7527 0.5959
9.1246 -8.2321 0.1514
35.6519 -17.9344 0.4917
22.9849 1.6072 0.2839
21.2027 3.4026 0.2646
19.6357 4.9812 0.2496
18.3000 6.4272 0.2390
17.0004 7.7364 0.2301
15.7841 8.9617 0.2236
14.6257 10.1288 0.2192
15.3937 12.8352 0.2469
15.3706 15.3377 0.2675
11.2845 24.6566 0.3341
-8.7381 22.2238 0.2942
-16.4782 32.9329 0.4537
-16.3182 26.4226 0.3826
-18.2906 24.4352 0.3761
-21.9625 24.4488 0.4049
-26.7782 24.9267 0.4507
-2.5315 1.9659 0.0395
-2.5350 1.6284 0.0371
-2.5381 1.3268 0.0353
-2.5410 1.0515 0.0339
-2.5437 0.7953 0.0328
-2.5462 0.5526 0.0321
-2.5486 0.3187 0.0316
-2.5510 0.0895 0.0314
-2.5534 -0.1386 0.0315
-2.5558 -0.3694 0.0318
-8.5748 -4.6934 0.1204
-11.2293 -41.1881 0.5260
-3.4387 -39.1837 0.4846
10.9955 -39.7725 0.5084
15.7532 -41.9745 0.5523
24.3717 -40.8740 0.5863
49.2555 -6.9404 0.6128
23.6717 0.9153 0.2919
21.7965 2.8044 0.2708
20.1620 4.4510 0.2544
19.3855 6.1369 0.2505
17.4429 7.2906 0.2329
16.2007 8.5420 0.2256
15.0247 9.7268 0.2205
13.8922 10.8677 0.2173
15.8908 14.8979 0.2684
14.4066 16.1527 0.2667
14.5817 29.4035 0.4044
8.5050 29.3837 0.3769
0.6838 49.5392 0.6104
-16.8940 29.3639 0.4174
-17.1261 24.4309 0.3676
-20.6186 24.4438 0.3940
-25.1526 24.9207 0.4362
-2.5302 2.0944 0.0405
-2.5338 1.7415 0.0379
-2.5371 1.4286 0.0359
-2.5400 1.1450 0.0343
-2.5428 0.8829 0.0332
-2.5453 0.6361 0.0323
-2.5478 0.3996 0.0318
-2.5502 0.1692 0.0315
-2.5525 -0.0589 0.0315
-2.5549 -0.2883 0.0317
-13.2152 -43.1288 0.5557
-9.6305 -45.6276 0.5745
-4.6750 -39.1995 0.4864
5.6369 -37.4888 0.4671
9.6711 -39.7676 0.5042
14.2758 -41.9691 0.5462
22.6986 -40.9148 0.5765
27.7217 -40.8864 0.6086
8.1358 -8.3160 0.1433
37.1070 -17.4281 0.5051
39.5872 -6.8422 0.4950
22.4193 2.1769 0.2775
20.7095 3.8994 0.2596
19.1954 5.4248 0.2458
17.8967 6.8334 0.2360
16.6254 8.1143 0.2279
15.4291 9.3194 0.2221
14.2837 10.4733 0.2182
16.4147 14.4550 0.2695
14.9224 15.7166 0.2670
17.8478 33.3374 0.4659
16.7597 39.3958 0.5275
-1.4027 31.6099 0.3898
-16.8858 31.5876 0.4413
-17.3226 26.4263 0.3893
-19.3441 24.4391 0.3840
-22.9908 24.2444 0.4117
-28.2772 24.9323 0.4645
-2.5326 1.8594 0.0387
-2.5360 1.5339 0.0365
-2.5390 1.2412 0.0348
-2.5418 0.9723 0.0335
-2.5444 0.7208 0.0326
-2.5469 0.4812 0.0319
-2.5493 0.2491 0.0316
-2.5517 0.0207 0.0314
-2.5541 -0.2079 0.0316
-8.4866 -4.9473 0.1210
-15.4452 -45.3148 0.5898
-9.7337 -39.9177 0.5062
-2.3746 -39.1700 0.4835
12.8298 -41.9637 0.5406
17.0609 -41.9794 0.5583
25.3275 -39.9831 0.5831
9.1138 -8.2916 0.1518
35.6507 -18.1207 0.4927
23.0747 1.5166 0.2849
21.2807 3.3240 0.2654
19.7051 4.9113 0.2502
18.3633 6.3634 0.2394
17.0591 7.6773 0.2305
15.8395 8.9059 0.2239
14.6789 10.0752 0.2194
14.7388 12.1851 0.2356
15.4402 15.2789 0.2676
21.5363 37.3792 0.5315
11.4088 24.6557 0.3347
12.7734 35.6471 0.4666
-16.3062 32.9323 0.4528
-16.2362 26.5371 0.3833
-18.1315 24.4347 0.3749
-21.7780 24.4481 0.4034
-26.5541 24.9259 0.4487
-2.5313 1.9828 0.0396
-2.5349 1.6433 0.0372
-2.5380 1.3402 0.0354
-2.5409 1.0639 0.0339
-2.5435 0.8069 0.0329
-2.5461 0.5637 0.0321
-2.5485 0.3295 0.0317
-2.5509 0.1002 0.0315
-2.5533 -0.1279 0.0315
-2.5556 -0.3585 0.0318
-8.6782 -4.7029 0.1216
-11.4768 -41.4133 0.5295
-3.6040 -39.1858 0.4848
10.8167 -39.7718 0.5078
15.7923 -42.6189 0.5600
24.1403 -40.8732 0.5848
28.7274 -40.0018 0.6068
23.7667 0.8195 0.2930
21.8782 2.7221 0.2716
20.2342 4.3783 0.2551
19.2547 6.0071 0.2485
17.5030 7.2301 0.2333
16.2572 8.4852 0.2259
15.0786 9.6725 0.2207
13.9445 10.8150 0.2174
15.9608 14.8387 0.2685
14.4756 16.0943 0.2667
14.6420 29.2179 0.4027
8.6420 29.3966 0.3775
0.8906 49.5242 0.6103
-16.8930 29.6480 0.4204
-16.9740 24.4304 0.3665
-20.4440 24.4432 0.3926
-24.9425 24.9200 0.4344
-2.5300 2.1122 0.0406
-2.5337 1.7570 0.0380
-2.5369 1.4425 0.0360
-2.5399 1.1577 0.0344
-2.5426 0.8948 0.0332
-2.5452 0.6473 0.0324
-2.5477 0.4105 0.0318
-2.5501 0.1799 0.0315
-2.5524 -0.0482 0.0315
-2.5548 -0.2775 0.0317
-31.3021 -33.7300 0.5669
-13.3906 -43.0580 0.5555
-9.3900 -43.5861 0.5493
9.4112 -39.4156 0.4993
14.0802 -41.9683 0.5454
18.3982 -41.9843 0.5647
22.6972 -41.3183 0.5808
27.4724 -40.8855 0.6069
8.1259 -8.3756 0.1438
36.7025 -17.4256 0.5006
39.5585 -7.0076 0.4950
43.5946 0.1440 0.5371
22.5052 2.0904 0.2785
20.7846 3.8237 0.2604
19.2627 5.3570 0.2463
17.9585 6.7712 0.2365
16.6829 8.0563 0.2283
15.4837 9.2644 0.2223
14.3365 10.4202 0.2184
16.4853 14.3953 0.2696
14.9917 15.6580 0.2671
17.8291 32.9708 0.4618
16.9279 39.3343 0.5276
5.7451 24.7848 0.3135
-1.2655 31.4864 0.3883
-16.8846 31.9051 0.4448
-17.1648 26.4257 0.3882
-19.1781 24.4385 0.3828
-22.7986 24.2437 0.4100
-28.0392 24.9314 0.4623
-2.5324 1.8756 0.0388
-2.5358 1.5483 0.0366
-2.5389 1.2543 0.0349
-2.5417 0.9845 0.0336
-2.5443 0.7322 0.0326
-2.5468 0.4922 0.0320
-2.5492 0.2599 0.0316
-2.5516 0.0313 0.0314
-2.5540 -0.1971 0.0316
-22.2012 -3.7277 0.2774
-8.5058 -4.9110 0.1210
-15.4139 -44.6120 0.5815
-10.0020 -40.2860 0.5114
-2.5390 -39.1721 0.4836
12.6380 -41.9630 0.5399
16.8567 -41.9786 0.5573
25.1714 -40.1067 0.5834
35.6496 -18.3081 0.4938
23.1653 1.4254 0.2859
21.3592 3.2449 0.2662
19.7748 4.8410 0.2508
18.4269 6.2993 0.2399
17.1180 7.6180 0.2308
15.8951 8.8500 0.2241
14.7322 10.0214 0.2195
14.1415 11.5922 0.2253
15.5097 15.2201 0.2677
14.0296 16.4714 0.2666
21.6489 37.2146 0.5305
11.5553 24.7007 0.3360
12.8794 35.4758 0.4650
-16.2120 33.0887 0.4540
-16.2353 26.7862 0.3859
-17.9732 24.4341 0.3737
-21.5950 24.4475 0.4019
-26.3320 24.9251 0.4467
-2.5312 1.9997 0.0397
-2.5347 1.6582 0.0373
-2.5379 1.3537 0.0354
-2.5407 1.0763 0.0340
-2.5434 0.8186 0.0329
-2.5460 0.5749 0.0322
-2.5484 0.3403 0.0317
-2.5508 0.1109 0.0315
-2.5531 -0.1172 0.0315
-2.5555 -0.3476 0.0318
-11.6934 -41.5204 0.5314
-9.1300 -48.7322 0.6108
-3.7693 -39.1879 0.4850
10.6383 -39.7712 0.5072
15.7455 -43.0440 0.5647
23.9101 -40.8723 0.5834
28.5401 -40.0937 0.6063
35.6495 -17.7470 0.7360
22.8956 1.6971 0.4243
21.1251 3.4807 0.3957
19.5667 5.0507 0.3735
18.2369 6.4907 0.3578
16.9418 7.7954 0.3447
15.7288 9.0174 0.3351
14.5726 10.1823 0.3286
16.1148 13.5509 0.3891
15.3011 15.3964 0.4012
11.1800 24.7003 0.5011
4.9328 19.6121 0.3738
-10.7155 35.9764 0.6938
-8.8098 22.1342 0.4403
-16.6509 32.9336 0.6821
-16.4714 26.4232 0.5755
-18.4508 24.4358 0.5659
-22.0973 24.3931 0.6083
-27.0044 24.9276 0.6792
-2.5317 1.9491 0.0591
-2.5352 1.6135 0.0555
-2.5383 1.3134 0.0528
-2.5411 1.0391 0.0507
-2.5438 0.7837 0.0492
-2.5463 0.5415 0.0481
-2.5487 0.3079 0.0474
-2.5511 0.0789 0.0472
-2.5535 -0.1493 0.0473
-2.5559 -0.3803 0.0478
-32.7248 -14.4440 0.6611
-10.9383 -40.7912 0.7805
-1.9821 -23.7227 0.4400
0.1414 -23.7454 0.4389
3.8421 -40.2065 0.7465
11.1748 -39.7731 0.7635
15.9538 -41.9752 0.8299
23.7742 -39.4960 0.8520
20.2970 -6.6011 0.3945
30.5681 -7.0002 0.5796
49.2698 -6.7326 0.9191
23.5774 1.0103 0.4362
21.7153 2.8862 0.4049
20.0903 4.5232 0.3806
18.7138 6.0103 0.3633
17.3829 7.3510 0.3488
16.1445 8.5987 0.3381
14.9710 9.7809 0.3305
13.8400 10.9203 0.3258
15.8209 14.9570 0.4024
14.3375 16.2111 0.4000
20.7414 42.2671 0.8702
13.5802 35.3390 0.6997
8.2790 29.0567 0.5584
0.4771 49.5629 0.9161
-19.9498 42.7140 0.8713
-16.8951 29.0840 0.6217
-17.2792 24.4315 0.5531
-20.7945 24.4445 0.5931
-25.3644 24.9215 0.6572
-2.5304 2.0768 0.0605
-2.5340 1.7260 0.0567
-2.5372 1.4147 0.0537
-2.5402 1.1323 0.0514
-2.5429 0.8711 0.0497
-2.5454 0.6248 0.0484
-2.5479 0.3887 0.0476
-2.5503 0.1585 0.0472
-2.5526 -0.0696 0.0472
-2.5550 -0.2992 0.0475
-22.1244 -6.7273 0.4274
-32.9169 -13.3194 0.6563
-12.9804 -43.0030 0.8302
-9.6770 -46.8146 0.8835
-2.7278 -23.7148 0.4412
-0.5985 -23.7375 0.4389
5.7978 -37.4927 0.7012
9.8474 -39.7682 0.7572
14.4719 -41.9698 0.8205
22.6552 -40.4375 0.8567
27.3060 -39.9135 0.8938
8.1560 -8.2672 0.2146
37.5189 -17.4306 0.7646
39.5916 -6.6728 0.7421
39.7772 0.4638 0.7352
22.3340 2.2628 0.4149
20.6348 3.9746 0.3884
19.1284 5.4922 0.3678
17.8352 6.8954 0.3534
16.5679 8.1721 0.3414
15.3745 9.3744 0.3328
14.2310 10.5264 0.3272
16.3442 14.5146 0.4040
14.8532 15.7751 0.4005
16.5362 39.3257 0.7885
-18.8022 43.7642 0.8804
-16.8870 31.2748 0.6569
-16.2435 24.5558 0.5442
-19.5112 24.4398 0.5780
-21.5953 22.5831 0.5775
-28.5174 24.9332 0.7001
-2.5328 1.8433 0.0579
-2.5361 1.5196 0.0546
-2.5392 1.2281 0.0521
-2.5420 0.9602 0.0502
-2.5446 0.7093 0.0488
-2.5470 0.4702 0.0479
-2.5495 0.2384 0.0473
-2.5518 0.0100 0.0472
-2.5542 -0.2186 0.0474
-8.4948 -4.9997 0.1822
-15.0901 -44.8862 0.8752
-9.7380 -40.6722 0.7729
-3.4784 -23.7068 0.4428
-1.3391 -23.7296 0.4393
0.7827 -23.7523 0.4392
13.0219 -41.9644 0.8121
17.2659 -41.9801 0.8389
22.6437 -43.5459 0.9071
25.2541 -39.5014 0.8665
9.1246 -8.2321 0.2271
35.6483 -17.9326 0.7375
22.9849 1.6072 0.4258
21.2027 3.4026 0.3969
19.6357 4.9812 0.3744
18.3000 6.4272 0.3585
17.0004 7.7365 0.3452
15.7841 8.9617 0.3355
14.6257 10.1288 0.3288
15.3937 12.8352 0.3704
15.3706 15.3377 0.4013
11.2845 24.6566 0.5012
12.6115 35.6638 0.6991
6.2755 24.5173 0.4677
-10.4995 35.7972 0.6895
-8.7378 22.2231 0.4413
-16.4782 32.9329 0.6806
-16.3182 26.4226 0.5740
-18.2906 24.4352 0.5641
-21.9625 24.4488 0.6074
-26.7782 24.9267 0.6762
-2.5315 1.9659 0.0592
-2.5350 1.6284 0.0557
-2.5382 1.3268 0.0529
-2.5410 1.0515 0.0508
-2.5437 0.7953 0.0493
-2.5462 0.5526 0.0482
-2.5486 0.3187 0.0475
-2.5510 0.0895 0.0472
-2.5534 -0.1386 0.0473
-2.5558 -0.3694 0.0477
-32.7516 -14.2928 0.6604
-16.8463 -45.3774 0.8946
-11.2631 -41.3121 0.7914
-8.7058 -48.7124 0.9146
-2.0818 -23.7217 0.4401
0.0423 -23.7444 0.4388
10.9955 -39.7725 0.7626
15.7532 -41.9745 0.8286
23.5495 -39.4952 0.8499
20.2574 -6.6819 0.3942
30.6077 -7.1439 0.5809
49.0909 -6.9172 0.9163
23.6717 0.9153 0.4378
21.7965 2.8044 0.4062
20.1620 4.4510 0.3816
19.3855 6.1369 0.3758
17.4429 7.2907 0.3494
16.2007 8.5420 0.3385
15.0247 9.7268 0.3308
13.8922 10.8677 0.3260
15.8908 14.8979 0.4026
14.4066 16.1527 0.4000
14.5817 29.4035 0.6066
8.3818 28.9579 0.5572
0.6840 49.5479 0.9158
-19.7974 42.8535 0.8725
-16.8940 29.3639 0.6261
-17.1261 24.4309 0.5514
-20.6186 24.4438 0.5910
-25.1526 24.9207 0.6544
-2.5302 2.0944 0.0607
-2.5338 1.7415 0.0568
-2.5371 1.4286 0.0538
-2.5400 1.1450 0.0515
-2.5428 0.8829 0.0497
-2.5453 0.6361 0.0485
-2.5478 0.3996 0.0477
-2.5502 0.1692 0.0472
-2.5525 -0.0589 0.0472
-2.5549 -0.2883 0.0475
-32.9411 -13.1693 0.6557
-34.7342 -17.6280 0.7199
-13.1973 -43.0704 0.8326
-9.6219 -45.5868 0.8611
-2.8281 -23.7137 0.4414
-0.6977 -23.7365 0.4389
5.6368 -37.4879 0.7006
9.6711 -39.7676 0.7564
14.2758 -41.9691 0.8193
22.6537 -40.8338 0.8630
27.0614 -39.9126 0.8912
8.1356 -8.3158 0.2150
37.1070 -17.4281 0.7577
39.4173 -6.8128 0.7393
22.4193 2.1769 0.4163
20.7095 3.8994 0.3895
19.1954 5.4248 0.3687
17.8967 6.8334 0.3541
16.6254 8.1143 0.3419
15.4291 9.3194 0.3331
14.2837 10.4733 0.3274
16.4147 14.4550 0.4042
14.9224 15.7166 0.4006
17.8478 33.3374 0.6989
16.6937 39.2409 0.7882
5.5585 24.4437 0.4633
-1.4025 31.6044 0.5847
-16.8858 31.5876 0.6620
-17.3226 26.4263 0.5840
-19.3441 24.4391 0.5761
-22.9908 24.2444 0.6175
-28.2772 24.9323 0.6968
-2.5326 1.8594 0.0581
-2.5360 1.5339 0.0548
-2.5390 1.2412 0.0522
-2.5418 0.9723 0.0503
-2.5444 0.7208 0.0489
-2.5469 0.4812 0.0479
-2.5493 0.2491 0.0473
-2.5517 0.0207 0.0472
-2.5541 -0.2079 0.0474
-8.4864 -4.9472 0.1816
-15.4823 -45.4236 0.8869
-9.7337 -39.9177 0.7594
-3.5795 -23.7057 0.4431
-1.4385 -23.7285 0.4394
0.6834 -23.7512 0.4391
12.8298 -41.9637 0.8110
17.0609 -41.9794 0.8375
22.5390 -43.7906 0.9102
25.0218 -39.5006 0.8642
9.1138 -8.2916 0.2277
35.6472 -18.1189 0.7391
31.0786 -6.3747 0.5864
23.0747 1.5166 0.4274
21.2807 3.3240 0.3981
19.7051 4.9113 0.3753
18.3633 6.3634 0.3592
17.0591 7.6773 0.3457
15.8395 8.9059 0.3358
14.6789 10.0752 0.3291
14.7388 12.1851 0.3534
15.4402 15.2789 0.4015
21.5363 37.3792 0.7973
11.4088 24.6557 0.5021
12.7010 35.4450 0.6959
6.3867 24.5248 0.4684
-10.3211 35.7407 0.6876
-16.3062 32.9323 0.6792
-16.2362 26.5371 0.5750
-18.1315 24.4347 0.5624
-21.7780 24.4481 0.6051
-26.5541 24.9259 0.6731
-2.5313 1.9828 0.0594
-2.5349 1.6433 0.0558
-2.5380 1.3402 0.0530
-2.5409 1.0639 0.0509
-2.5435 0.8069 0.0493
-2.5461 0.5637 0.0482
-2.5485 0.3295 0.0475
-2.5509 0.1002 0.0472
-2.5533 -0.1279 0.0472
-2.5557 -0.3585 0.0477
-32.7782 -14.1417 0.6598
-11.5150 -41.5513 0.7969
-8.9151 -48.7085 0.9152
-2.1817 -23.7206 0.4403
-0.0569 -23.7433 0.4388
10.8167 -39.7718 0.7618
15.7475 -42.4980 0.8376
23.3259 -39.4943 0.8477
28.6676 -39.9186 0.9083
20.2086 -6.7596 0.3938
30.6595 -7.2912 0.5825
49.0823 -7.1251 0.9167
23.7667 0.8195 0.4395
21.8782 2.7221 0.4075
20.2342 4.3783 0.3826
19.2547 6.0071 0.3728
17.5030 7.2301 0.3500
16.2572 8.4852 0.3389
15.0786 9.6725 0.3311
13.9445 10.8150 0.3262
15.9608 14.8387 0.4028
14.4756 16.0943 0.4001
14.6420 29.2179 0.6040
8.4886 28.8746 0.5563
0.8908 49.5329 0.9156
-19.6446 42.9934 0.8736
-16.8930 29.6480 0.6307
-16.9740 24.4304 0.5498
-20.4440 24.4432 0.5890
-24.9425 24.9200 0.6517
-2.5300 2.1122 0.0609
-2.5337 1.7570 0.0570
-2.5369 1.4425 0.0539
-2.5399 1.1577 0.0516
-2.5426 0.8948 0.0498
-2.5452 0.6473 0.0485
-2.5477 0.4105 0.0477
-2.5501 0.1799 0.0472
-2.5524 -0.0482 0.0472
-2.5548 -0.2775 0.0475
-33.0366 -13.0478 0.6565
-34.7333 -17.4454 0.7184
-31.3021 -33.7301 0.8505
-13.4331 -43.1948 0.8360
-9.6349 -44.7227 0.8455
-2.9285 -23.7126 0.4416
-0.7970 -23.7354 0.4389
9.4112 -39.4156 0.7490
14.0802 -41.9683 0.8181
18.3982 -41.9843 0.8472
22.6522 -41.2365 0.8695
26.8181 -39.9117 0.8887
8.1254 -8.3751 0.2157
36.7025 -17.4256 0.7509
39.4068 -6.9807 0.7397
43.5946 0.1440 0.8057
22.5052 2.0904 0.4177
20.7846 3.8237 0.3906
19.2627 5.3570 0.3695
17.9585 6.7712 0.3547
16.6829 8.0563 0.3424
15.4837 9.2644 0.3335
14.3365 10.4202 0.3276
16.4853 14.3953 0.4045
14.9917 15.6580 0.4007
17.8291 32.9708 0.6928
16.8908 39.2480 0.7897
5.6275 24.2778 0.4606
-1.2654 31.4845 0.5824
-16.8846 31.9051 0.6672
-17.1648 26.4257 0.5824
-19.1781 24.4385 0.5742
-22.7986 24.2437 0.6151
-28.0391 24.9314 0.6935
-2.5325 1.8756 0.0582
-2.5358 1.5483 0.0549
-2.5389 1.2543 0.0523
-2.5417 0.9845 0.0504
-2.5443 0.7322 0.0489
-2.5468 0.4922 0.0479
-2.5492 0.2599 0.0474
-2.5516 0.0313 0.0472
-2.5540 -0.1971 0.0473
-22.2012 -3.7277 0.4161
-8.5056 -4.9108 0.1815
-15.3746 -44.4982 0.8701
-10.0230 -40.3708 0.7688
-3.6807 -23.7046 0.4434
-1.5379 -23.7275 0.4394
0.5841 -23.7501 0.4391
12.6380 -41.9630 0.8100
16.8567 -41.9786 0.8361
24.7905 -39.4997 0.8619
35.6460 -18.3062 0.7406
30.8883 -6.4704 0.5833
23.1653 1.4254 0.4290
21.3592 3.2449 0.3993
19.7748 4.8410 0.3763
18.4270 6.2993 0.3599
17.1180 7.6180 0.3463
15.8951 8.8500 0.3362
14.7322 10.0215 0.3293
14.1415 11.5922 0.3380
15.5097 15.2201 0.4016
14.0296 16.4714 0.3999
21.6490 37.2146 0.7957
11.5553 24.7007 0.5040
12.8245 35.3244 0.6946
-10.2008 35.8857 0.6895
-16.2120 33.0887 0.6810
-16.2353 26.7862 0.5789
-17.9732 24.4341 0.5606
-21.5950 24.4475 0.6029
-26.3320 24.9251 0.6701
-2.5312 1.9997 0.0596
-2.5347 1.6582 0.0560
-2.5379 1.3537 0.0532
-2.5408 1.0763 0.0510
-2.5434 0.8186 0.0494
-2.5460 0.5749 0.0482
-2.5484 0.3403 0.0475
-2.5508 0.1109 0.0472
-2.5531 -0.1172 0.0472
-2.5555 -0.3476 0.0477
-32.8045 -13.9907 0.6591
-11.6968 -41.5325 0.7975
-9.1248 -48.7047 0.9158
-2.2815 -23.7195 0.4404
-0.1561 -23.7422 0.4388
10.6383 -39.7712 0.7609
15.7455 -43.0440 0.8471
23.1035 -39.4935 0.8456
28.4148 -39.9176 0.9056
20.3253 -6.8931 0.3967
30.9169 -7.4890 0.5879
35.1628 -17.5047 0.9680
36.5828 -14.2981 0.9680
22.8956 1.6971 0.5658
21.1251 3.4807 0.5276
19.5667 5.0507 0.4980
18.2369 6.4907 0.4771
16.9418 7.7954 0.4596
15.7288 9.0174 0.4468
14.5726 10.1823 0.4381
16.1148 13.5509 0.5189
15.3011 15.3964 0.5350
11.1800 24.7003 0.6682
4.8072 19.1130 0.4857
3.1816 46.8711 1.1578
-9.6128 47.3806 1.1915
-10.7151 35.9748 0.9251
-8.8096 22.1337 0.5871
-16.6509 32.9336 0.9095
-16.4714 26.4232 0.7674
-18.4508 24.4358 0.7546
-22.0973 24.3931 0.8112
-27.0044 24.9276 0.9057
-2.5317 1.9491 0.0787
-2.5352 1.6135 0.0741
-2.5383 1.3134 0.0704
-2.5411 1.0391 0.0677
-2.5438 0.7837 0.0656
-2.5463 0.5415 0.0642
-2.5487 0.3079 0.0633
-2.5511 0.0789 0.0629
-2.5535 -0.1493 0.0630
-2.5559 -0.3803 0.0637
-30.5843 -13.4993 0.8239
-23.9062 -13.2150 0.6732
-21.5268 -14.5476 0.6403
-16.4154 -44.7891 1.1756
-10.9360 -40.7828 1.0406
-8.5122 -48.8058 1.2210
-1.9821 -23.7228 0.5867
0.1414 -23.7455 0.5852
3.8329 -40.1095 0.9930
11.1747 -39.7731 1.0182
7.0324 -18.5026 0.4878
8.7159 -17.9274 0.4913
10.3819 -17.2474 0.4961
35.1542 -18.8894 0.9835
20.2549 -6.5874 0.5249
30.4506 -6.9733 0.7699
23.5774 1.0103 0.5816
21.7153 2.8862 0.5399
20.0903 4.5232 0.5075
18.7138 6.0103 0.4844
17.3829 7.3510 0.4651
16.1445 8.5987 0.4508
14.9710 9.7809 0.4407
13.8400 10.9203 0.4345
15.8209 14.9570 0.5366
14.3375 16.2111 0.5334
20.8257 42.4388 1.1651
5.0867 13.2369 0.3495
8.2429 28.9300 0.7414
4.7600 47.9528 1.1876
-4.0662 23.8302 0.5958
-19.9493 42.7129 1.1618
-16.8951 29.0840 0.8289
-17.2792 24.4315 0.7375
-20.7945 24.4445 0.7909
-25.3644 24.9215 0.8763
-2.5304 2.0768 0.0807
-2.5340 1.7260 0.0756
-2.5372 1.4147 0.0716
-2.5402 1.1323 0.0685
-2.5429 0.8711 0.0662
-2.5454 0.6248 0.0646
-2.5479 0.3887 0.0635
-2.5503 0.1585 0.0630
-2.5527 -0.0696 0.0629
-2.5550 -0.2992 0.0634
-22.1236 -6.7271 0.5699
-32.2727 -13.0588 0.8580
-25.7593 -13.2087 0.7134
-21.9276 -13.8432 0.6391
-22.9227 -17.5144 0.7110
-12.9836 -43.0136 1.1073
-9.7176 -47.0110 1.1831
-2.7278 -23.7149 0.5883
-0.5985 -23.7376 0.5852
5.7976 -37.4916 0.9350
9.8474 -39.7682 1.0097
14.4719 -41.9698 1.0941
8.1249 -18.1275 0.4896
9.8058 -17.5026 0.4944
27.3060 -39.9135 1.1918
8.1557 -8.2670 0.2862
36.9916 -17.1856 1.0052
20.2045 -7.2746 0.5292
39.7772 0.4638 0.9804
22.3340 2.2628 0.5532
20.6348 3.9746 0.5179
19.1284 5.4922 0.4905
17.8352 6.8954 0.4713
16.5679 8.1721 0.4553
15.3745 9.3744 0.4438
14.2310 10.5264 0.4362
16.3442 14.5146 0.5387
14.8532 15.7751 0.5340
16.5656 39.3956 1.0533
9.2160 28.8965 0.7475
5.4527 24.4507 0.6174
6.4693 49.4428 1.2289
1.8971 46.4846 1.1466
-3.3207 23.9381 0.5956
-11.2295 48.5823 1.2289
-18.8017 43.7630 1.1739
-16.8870 31.2748 0.8760
-16.2435 24.5558 0.7256
-19.5112 24.4398 0.7707
-21.5803 22.5675 0.7695
-28.5174 24.9332 0.9336
-2.5328 1.8433 0.0772
-2.5361 1.5196 0.0729
-2.5392 1.2281 0.0695
-2.5420 0.9602 0.0670
-2.5446 0.7093 0.0651
-2.5470 0.4702 0.0638
-2.5495 0.2384 0.0631
-2.5518 0.0100 0.0629
-2.5542 -0.2186 0.0632
-49.2152 -8.6867 1.2317
-30.5992 -14.5047 0.8345
-8.4945 -4.9995 0.2429
-15.1536 -45.0752 1.1720
-9.7361 -40.6643 1.0305
-3.4784 -23.7069 0.5905
-1.3391 -23.7297 0.5857
0.7828 -23.7523 0.5857
13.0219 -41.9644 1.0828
7.5300 -18.3083 0.4879
9.2240 -17.7385 0.4927
10.8755 -17.0110 0.4976
9.1246 -8.2321 0.3029
35.1617 -17.6878 0.9700
36.5807 -14.4737 0.9695
31.1008 -6.2441 0.7818
22.9849 1.6072 0.5678
21.2027 3.4026 0.5292
19.6357 4.9812 0.4992
18.3000 6.4272 0.4780
17.0004 7.7365 0.4603
15.7841 8.9617 0.4473
14.6257 10.1288 0.4384
15.3937 12.8352 0.4939
15.3706 15.3377 0.5351
11.2845 24.6566 0.6683
12.5931 35.6116 0.9309
4.8850 19.0848 0.4855
3.3870 46.9899 1.1611
-9.3779 47.2348 1.1868
-10.4991 35.7957 0.9194
-8.7375 22.2223 0.5885
-16.4782 32.9329 0.9076
-16.3182 26.4226 0.7654
-18.2906 24.4352 0.7522
-21.9625 24.4488 0.8100
-26.7782 24.9267 0.9016
-2.5315 1.9659 0.0790
-2.5350 1.6284 0.0743
-2.5382 1.3268 0.0706
-2.5410 1.0515 0.0678
-2.5437 0.7953 0.0657
-2.5462 0.5526 0.0642
-2.5486 0.3187 0.0633
-2.5510 0.0895 0.0629
-2.5534 -0.1386 0.0630
-2.5558 -0.3694 0.0636
-30.5820 -13.3460 0.8223
-24.1424 -13.2142 0.6783
-21.5817 -14.4537 0.6401
-11.2541 -41.2793 1.0544
-2.0818 -23.7218 0.5869
0.0423 -23.7444 0.5852
10.9955 -39.7725 1.0170
7.0331 -18.7399 0.4933
8.6369 -17.9553 0.4910
10.3050 -17.2827 0.4959
39.8055 -17.2027 1.0687
20.2227 -6.6705 0.5248
30.4682 -7.1114 0.7711
23.6717 0.9153 0.5838
21.7965 2.8044 0.5416
20.1620 4.4510 0.5089
19.3855 6.1369 0.5011
17.4429 7.2906 0.4659
16.2007 8.5420 0.4514
15.0247 9.7268 0.4411
13.8922 10.8677 0.4347
15.8908 14.8979 0.5368
14.4066 16.1527 0.5334
14.5817 29.4035 0.8089
5.1343 13.1959 0.3490
8.3449 28.8304 0.7397
4.9803 48.1264 1.1924
0.6841 49.5566 1.2214
-3.9662 23.8447 0.5957
-19.7968 42.8524 1.1634
-16.8940 29.3639 0.8349
-17.1261 24.4309 0.7353
-20.6186 24.4438 0.7881
-25.1526 24.9207 0.8726
-2.5302 2.0944 0.0809
-2.5338 1.7415 0.0758
-2.5371 1.4286 0.0718
-2.5400 1.1450 0.0687
-2.5428 0.8829 0.0663
-2.5453 0.6361 0.0647
-2.5478 0.3996 0.0636
-2.5502 0.1692 0.0630
-2.5525 -0.0589 0.0629
-2.5549 -0.2883 0.0634
-32.6507 -13.0532 0.8666
-34.7378 -17.6298 0.9601
-21.9798 -13.7481 0.6389
-22.9223 -17.3630 0.7087
-13.2323 -43.1846 1.1131
-9.6726 -45.8269 1.1543
-2.8281 -23.7138 0.5886
-0.6977 -23.7365 0.5852
5.6366 -37.4870 0.9342
9.6711 -39.7676 1.0086
14.2758 -41.9691 1.0925
8.0454 -18.1528 0.4893
9.7282 -17.5353 0.4942
27.0614 -39.9126 1.1884
8.1354 -8.3156 0.2867
36.5856 -17.1831 0.9961
37.0037 -13.4981 0.9707
40.0813 -6.9276 1.0024
22.4193 2.1769 0.5551
20.7095 3.8994 0.5194
19.1954 5.4248 0.4916
17.8967 6.8334 0.4721
16.6254 8.1143 0.4559
15.4291 9.3194 0.4442
14.2837 10.4733 0.4365
16.4147 14.4550 0.5390
14.9224 15.7166 0.5341
17.8478 33.3374 0.9319
16.7219 39.3071 1.0527
5.5150 24.2525 0.6130
2.0913 46.4762 1.1466
-1.4022 31.5988 0.7795
-3.2208 23.9526 0.5956
-10.9502 48.2926 1.2204
-16.8858 31.5876 0.8827
-17.3226 26.4263 0.7787
-19.3440 24.4391 0.7681
-21.6695 22.8510 0.7761
-28.2772 24.9323 0.9291
-2.5326 1.8594 0.0774
-2.5360 1.5339 0.0730
-2.5390 1.2412 0.0697
-2.5418 0.9723 0.0671
-2.5444 0.7208 0.0652
-2.5469 0.4812 0.0639
-2.5493 0.2491 0.0631
-2.5517 0.0207 0.0629
-2.5541 -0.2079 0.0632
-49.2309 -8.4776 1.2312
-30.5969 -14.3473 0.8328
-8.4862 -4.9470 0.2421
-15.4733 -45.3970 1.1820
-9.7337 -39.9177 1.0126
-3.5795 -23.7058 0.5908
-1.4385 -23.7286 0.5859
0.6834 -23.7513 0.5856
12.8298 -41.9637 1.0814
7.4500 -18.3311 0.4876
9.1455 -17.7687 0.4925
10.7995 -17.0486 0.4974
9.1138 -8.2916 0.3037
35.1605 -17.8716 0.9720
36.5787 -14.6500 0.9711
30.8884 -6.3357 0.7771
23.0747 1.5166 0.5699
21.2807 3.3240 0.5308
19.7051 4.9113 0.5005
18.3633 6.3634 0.4790
17.0591 7.6773 0.4610
15.8395 8.9059 0.4478
14.6789 10.0752 0.4388
14.7388 12.1851 0.4713
15.4402 15.2789 0.5353
21.5363 37.3792 1.0632
11.4088 24.6557 0.6695
12.6857 35.4024 0.9268
4.9627 19.0566 0.4853
3.5941 47.1178 1.1646
-4.6125 23.7512 0.5963
-10.3215 35.7422 0.9169
-16.3062 32.9323 0.9057
-16.2362 26.5371 0.7667
-18.1315 24.4347 0.7499
-21.7780 24.4481 0.8069
-26.5541 24.9259 0.8976
-2.5313 1.9828 0.0792
-2.5349 1.6433 0.0744
-2.5380 1.3402 0.0707
-2.5409 1.0639 0.0679
-2.5435 0.8069 0.0658
-2.5461 0.5637 0.0643
-2.5485 0.3295 0.0633
-2.5509 0.1002 0.0629
-2.5533 -0.1279 0.0630
-2.5557 -0.3585 0.0636
-30.5798 -13.1932 0.8208
-24.3822 -13.2133 0.6835
-21.6361 -14.3596 0.6400
-11.4843 -41.4403 1.0598
-2.1817 -23.7207 0.5871
-0.0569 -23.7434 0.5852
10.8167 -39.7718 1.0158
15.7475 -42.4981 1.1169
8.5578 -17.9829 0.4908
10.2281 -17.3177 0.4957
28.6676 -39.9186 1.2112
39.3470 -17.1999 1.0583
20.1253 -6.7317 0.5230
30.5126 -7.2563 0.7729
23.7667 0.8195 0.5861
21.8782 2.7221 0.5433
20.2342 4.3783 0.5102
19.2547 6.0071 0.4971
17.5030 7.2301 0.4667
16.2572 8.4852 0.4519
15.0786 9.6725 0.4415
13.9445 10.8150 0.4349
15.9608 14.8387 0.5371
14.4756 16.0943 0.5335
14.6420 29.2179 0.8054
5.2069 13.2188 0.3501
8.4555 28.7622 0.7388
5.2028 48.3053 1.1974
0.8909 49.5416 1.2212
-3.8663 23.8591 0.5957
-19.6440 42.9922 1.1649
-16.8930 29.6480 0.8410
-16.9740 24.4304 0.7331
-20.4440 24.4432 0.7853
-24.9425 24.9200 0.8689
-2.5300 2.1122 0.0812
-2.5337 1.7570 0.0760
-2.5369 1.4425 0.0719
-2.5399 1.1577 0.0688
-2.5426 0.8948 0.0664
-2.5452 0.6473 0.0647
-2.5477 0.4105 0.0636
-2.5501 0.1799 0.0630
-2.5524 -0.0482 0.0629
-2.5548 -0.2775 0.0633
-33.0361 -13.0476 0.8754
-34.7369 -17.4472 0.9580
-22.0317 -13.6529 0.6388
-23.1021 -17.3478 0.7120
-31.3021 -33.7301 1.1341
-13.4971 -43.4005 1.1201
-9.6781 -44.9234 1.1325
-2.9285 -23.7127 0.5888
-0.7970 -23.7355 0.5853
9.4112 -39.4156 0.9987
14.0802 -41.9683 1.0910
7.9658 -18.1778 0.4891
9.6504 -17.5677 0.4940
26.8181 -39.9117 1.1850
8.1249 -8.3745 0.2876
36.1867 -17.1807 0.9872
36.5917 -13.5212 0.9614
39.9249 -7.0725 0.9993
43.5946 0.1440 1.0744
22.5052 2.0904 0.5570
20.7846 3.8237 0.5208
19.2627 5.3570 0.4927
17.9585 6.7712 0.4730
16.6829 8.0563 0.4566
15.4837 9.2644 0.4447
14.3365 10.4202 0.4368
16.4853 14.3953 0.5394
14.9917 15.6580 0.5342
17.8291 32.9707 0.9238
16.8960 39.2600 1.0534
4.5162 19.4833 0.4929
2.2853 46.4671 1.1466
-1.2653 31.4825 0.7765
-3.1208 23.9671 0.5957
-10.6968 48.1056 1.2145
-16.8846 31.9051 0.8896
-17.1648 26.4257 0.7766
-19.1781 24.4385 0.7656
-22.7986 24.2437 0.8202
-28.0391 24.9314 0.9247
-2.5325 1.8756 0.0777
-2.5359 1.5483 0.0732
-2.5389 1.2543 0.0698
-2.5417 0.9845 0.0672
-2.5443 0.7322 0.0652
-2.5468 0.4922 0.0639
-2.5492 0.2599 0.0632
-2.5516 0.0313 0.0629
-2.5540 -0.1971 0.0631
-22.2012 -3.7277 0.5548
-30.5945 -14.1907 0.8312
-8.5054 -4.9107 0.2420
-21.3263 -14.9983 0.6425
-15.3259 -44.3573 1.1566
-10.0390 -40.4350 1.0268
-3.6807 -23.7047 0.5912
-1.5379 -23.7276 0.5860
0.5841 -23.7502 0.5855
12.6380 -41.9630 1.0800
7.3699 -18.3534 0.4874
9.0671 -17.7985 0.4923
10.7232 -17.0857 0.4971
35.1594 -18.0563 0.9741
36.5767 -14.8267 0.9727
30.7823 -6.4482 0.7751
23.1653 1.4254 0.5720
21.3592 3.2449 0.5324
19.7748 4.8410 0.5017
18.4270 6.2993 0.4799
17.1180 7.6180 0.4618
15.8951 8.8500 0.4484
14.7322 10.0214 0.4391
14.1415 11.5922 0.4506
15.5097 15.2201 0.5355
14.0296 16.4714 0.5332
21.6490 37.2146 1.0611
11.5553 24.7007 0.6721
12.8068 35.2758 0.9249
5.0738 19.1550 0.4884
3.8030 47.2539 1.1683
-4.5124 23.7656 0.5962
-10.2012 35.8873 0.9195
-16.2120 33.0887 0.9081
-16.2353 26.7862 0.7719
-17.9732 24.4341 0.7475
-21.5950 24.4475 0.8039
-26.3320 24.9251 0.8936
-2.5312 1.9997 0.0795
-2.5347 1.6582 0.0746
-2.5379 1.3537 0.0709
-2.5408 1.0763 0.0680
-2.5434 0.8186 0.0658
-2.5460 0.5749 0.0643
-2.5484 0.3403 0.0634
-2.5508 0.1109 0.0629
-2.5531 -0.1172 0.0630
-2.5555 -0.3476 0.0636
-30.6744 -13.0823 0.8218
-24.6257 -13.2125 0.6887
-21.6903 -14.2655 0.6398
-11.7362 -41.6725 1.0670
-9.1248 -48.7045 1.2212
-2.2815 -23.7196 0.5873
-0.1561 -23.7423 0.5851
10.6383 -39.7712 1.0146
15.7455 -43.0439 1.1296
8.4787 -18.0101 0.4906
10.1510 -17.3523 0.4954
28.4148 -39.9176 1.2075
38.8970 -17.1972 1.0481
20.1165 -6.8223 0.5235
30.6227 -7.4177 0.7765
35.1594 -17.5030 1.2101
36.5822 -14.2978 1.2101
22.8956 1.6971 0.7073
21.1251 3.4807 0.6596
19.5667 5.0507 0.6226
18.2369 6.4907 0.5964
16.9418 7.7954 0.5746
15.7288 9.0174 0.5586
14.5726 10.1823 0.5477
16.1148 13.5509 0.6487
15.3011 15.3964 0.6688
11.1800 24.7003 0.8353
4.7881 19.0370 0.6048
3.1860 46.9350 1.4494
-0.9835 45.6551 1.4070
-5.0917 45.7436 1.4181
-9.6193 47.4127 1.4905
-10.6220 35.6623 1.1464
-8.8094 22.1332 0.7339
-16.6509 32.9336 1.1370
-16.4714 26.4232 0.9593
-18.4508 24.4358 0.9434
-22.0973 24.3931 1.0141
-27.0044 24.9276 1.1323
-2.5317 1.9491 0.0984
-2.5352 1.6135 0.0926
-2.5383 1.3134 0.0881
-2.5411 1.0391 0.0846
-2.5438 0.7837 0.0820
-2.5463 0.5415 0.0802
-2.5487 0.3079 0.0791
-2.5511 0.0789 0.0786
-2.5535 -0.1493 0.0788
-2.5559 -0.3803 0.0796
-46.2888 -11.1822 1.4672
-45.6607 -15.4538 1.4852
-30.5880 -13.5009 1.0301
-23.9065 -13.2151 0.8416
-21.3249 -14.4111 0.7930
-10.9904 -40.9857 1.3074
-8.4963 -48.7142 1.5235
-1.9821 -23.7229 0.7334
0.1414 -23.7456 0.7316
3.8298 -40.0770 1.2404
11.1747 -39.7731 1.2728
7.0321 -18.5017 0.6098
8.1635 -16.7911 0.5752
10.1036 -16.7851 0.6036
35.1507 -18.8876 1.2294
20.2136 -6.5740 0.6549
31.0925 -7.1203 0.9827
49.1115 -6.7110 1.5272
23.5774 1.0103 0.7271
21.7153 2.8862 0.6749
20.0903 4.5232 0.6345
18.7138 6.0103 0.6056
17.3829 7.3510 0.5815
16.1445 8.5987 0.5636
14.9710 9.7809 0.5510
13.8400 10.9203 0.5432
15.8209 14.9570 0.6708
14.3375 16.2111 0.6668
20.9580 42.7084 1.4657
5.0259 13.0785 0.4317
5.4649 19.1801 0.6145
4.7674 48.0273 1.4870
0.4417 45.8830 1.4137
-3.6400 45.5810 1.4088
-4.0662 23.8305 0.7448
-9.5602 36.1828 1.1530
-19.9487 42.7117 1.4524
-16.8951 29.0840 1.0363
-17.2792 24.4315 0.9220
-20.7945 24.4445 0.9888
-25.3644 24.9215 1.0956
-2.5304 2.0768 0.1009
-2.5340 1.7260 0.0945
-2.5372 1.4147 0.0895
-2.5402 1.1323 0.0857
-2.5429 0.8711 0.0828
-2.5454 0.6248 0.0808
-2.5479 0.3887 0.0794
-2.5503 0.1585 0.0787
-2.5527 -0.0696 0.0787
-2.5550 -0.2992 0.0793
-43.8654 -9.1604 1.3806
-22.1228 -6.7268 0.7124
-32.2722 -13.0586 1.0726
-25.7595 -13.2088 0.8919
-21.3216 -13.4607 0.7769
-22.9235 -17.5150 0.8888
-36.7808 -33.7029 1.5370
-12.9832 -43.0122 1.3842
-9.7280 -47.0617 1.4806
-2.7278 -23.7149 0.7355
-0.5985 -23.7377 0.7316
1.7559 -27.3524 0.8444
5.7780 -37.3648 1.1649
9.8474 -39.7682 1.2622
14.4719 -41.9698 1.3678
7.5268 -16.7931 0.5670
9.4051 -16.7873 0.5928
27.3060 -39.9135 1.4900
8.1555 -8.2668 0.3578
9.4578 -6.6603 0.3564
36.9916 -17.1856 1.2567
20.0847 -7.2315 0.6577
39.7772 0.4638 1.2256
22.3340 2.2628 0.6916
20.6348 3.9746 0.6474
19.1284 5.4922 0.6132
17.8352 6.8954 0.5891
16.5679 8.1721 0.5692
15.3745 9.3744 0.5548
14.2310 10.5264 0.5454
16.3442 14.5146 0.6735
14.8532 15.7751 0.6676
16.6313 39.5517 1.3219
9.2009 28.8491 0.9329
5.4128 24.2718 0.7662
6.4693 49.4428 1.5363
1.8905 46.3208 1.4283
-2.2137 45.5835 1.4061
-3.3207 23.9384 0.7446
-11.2295 48.5823 1.5363
-18.8012 43.7618 1.4675
-16.8870 31.2748 1.0951
-16.2435 24.5558 0.9071
-19.5112 24.4398 0.9635
-21.5654 22.5519 0.9614
-28.5174 24.9332 1.1671
-2.5328 1.8433 0.0965
-2.5362 1.5196 0.0911
-2.5392 1.2281 0.0869
-2.5420 0.9602 0.0837
-2.5446 0.7093 0.0814
-2.5470 0.4702 0.0798
-2.5495 0.2384 0.0789
-2.5518 0.0100 0.0786
-2.5542 -0.2186 0.0790
-44.0082 -7.7677 1.3768
-46.1214 -12.4681 1.4720
-45.4285 -16.7546 1.4918
-30.6029 -14.5064 1.0434
-8.4942 -4.9994 0.3037
-15.1557 -45.0812 1.4653
-9.7731 -40.8191 1.2932
-3.4785 -23.7069 0.7382
-1.3391 -23.7298 0.7323
0.7828 -23.7524 0.7322
13.0219 -41.9644 1.3537
7.0278 -17.0873 0.5692
8.7304 -16.7894 0.5830
10.7298 -16.7832 0.6137
9.1246 -8.2321 0.3786
35.1582 -17.6860 1.2125
36.5801 -14.4735 1.2120
22.9849 1.6072 0.7099
21.2027 3.4026 0.6616
19.6357 4.9812 0.6241
18.3000 6.4272 0.5976
17.0004 7.7364 0.5755
15.7841 8.9617 0.5592
14.6257 10.1288 0.5481
15.3937 12.8352 0.6175
15.3706 15.3377 0.6690
11.2845 24.6566 0.8354
12.6553 35.7876 1.1695
4.8650 19.0068 0.6045
3.3917 47.0553 1.4535
-0.7930 45.6731 1.4074
-4.8915 45.6797 1.4154
-9.3923 47.3071 1.4860
-10.4096 35.4906 1.1395
-8.7372 22.2216 0.7357
-16.4782 32.9329 1.1346
-16.3182 26.4226 0.9568
-18.2906 24.4352 0.9404
-21.9625 24.4488 1.0126
-26.7782 24.9267 1.1272
-2.5315 1.9659 0.0988
-2.5350 1.6284 0.0928
-2.5382 1.3268 0.0882
-2.5410 1.0515 0.0847
-2.5437 0.7953 0.0821
-2.5462 0.5526 0.0803
-2.5486 0.3187 0.0791
-2.5510 0.0895 0.0786
-2.5534 -0.1386 0.0788
-2.5558 -0.3694 0.0796
-46.3130 -10.9835 1.4665
-45.6949 -15.2529 1.4842
-30.5857 -13.3476 1.0282
-24.1426 -13.2143 0.8480
-21.3244 -14.2814 0.7907
-11.2707 -41.3401 1.3202
-2.0818 -23.7218 0.7337
0.0423 -23.7445 0.7316
3.6962 -40.4633 1.2518
10.9955 -39.7725 1.2713
7.0328 -18.7390 0.6167
8.0770 -16.7914 0.5741
10.0085 -16.7854 0.6021
39.8055 -17.2027 1.3360
20.1815 -6.6569 0.6547
49.0552 -6.9122 1.5263
23.6717 0.9153 0.7299
21.7965 2.8044 0.6771
20.1620 4.4510 0.6361
19.3855 6.1369 0.6265
17.4429 7.2907 0.5825
16.2007 8.5420 0.5643
15.0247 9.7268 0.5514
13.8922 10.8677 0.5434
15.8908 14.8979 0.6711
14.4066 16.1527 0.6668
14.5817 29.4035 1.0112
5.0941 13.0926 0.4328
8.3388 28.8095 0.9240
4.9837 48.1594 1.4917
0.6335 45.8914 1.4140
-3.4480 45.5752 1.4082
-3.9663 23.8450 0.7448
-9.4380 36.3340 1.1566
-19.7963 42.8512 1.4543
-16.8940 29.3639 1.0437
-17.1261 24.4309 0.9192
-20.6186 24.4438 0.9853
-25.1526 24.9207 1.0909
-2.5302 2.0944 0.1012
-2.5338 1.7415 0.0947
-2.5371 1.4286 0.0897
-2.5400 1.1450 0.0858
-2.5428 0.8829 0.0829
-2.5453 0.6361 0.0808
-2.5478 0.3996 0.0795
-2.5502 0.1692 0.0787
-2.5525 -0.0589 0.0787
-2.5549 -0.2883 0.0792
-43.8866 -8.9737 1.3801
-45.9348 -13.7579 1.4773
-32.6501 -13.0530 1.0833
-34.5864 -17.5529 1.1950
-21.3211 -13.3361 0.7748
-22.9231 -17.3635 0.8860
-36.8764 -33.5082 1.5351
-13.2342 -43.1910 1.3918
-9.7639 -46.2596 1.4566
-2.8281 -23.7139 0.7358
-0.6977 -23.7366 0.7316
1.6419 -27.3640 0.8446
5.6184 -37.3657 1.1642
9.6711 -39.7676 1.2609
14.2758 -41.9691 1.3658
7.4429 -16.7933 0.5659
9.3134 -16.7875 0.5915
27.0614 -39.9126 1.4857
8.1352 -8.3154 0.3584
9.5729 -6.8013 0.3618
36.5856 -17.1831 1.2453
20.2284 -7.3788 0.6634
40.0481 -6.9219 1.2522
22.4193 2.1769 0.6940
20.7095 3.8994 0.6493
19.1954 5.4248 0.6146
17.8967 6.8334 0.5902
16.6254 8.1143 0.5700
15.4291 9.3194 0.5554
14.2837 10.4733 0.5457
16.4147 14.4550 0.6739
14.9224 15.7166 0.6677
17.8478 33.3374 1.1651
16.7836 39.4521 1.3209
4.4318 19.4890 0.6158
2.0870 46.3815 1.4304
-1.4020 31.5933 0.9743
-3.2208 23.9529 0.7446
-10.9584 48.3288 1.5268
-11.8288 36.6379 1.1862
-16.8858 31.5876 1.1035
-17.3226 26.4263 0.9735
-19.3441 24.4391 0.9603
-21.6699 22.8515 0.9703
-28.2772 24.9323 1.1615
-2.5326 1.8594 0.0968
-2.5360 1.5339 0.0913
-2.5390 1.2412 0.0871
-2.5418 0.9723 0.0838
-2.5444 0.7208 0.0815
-2.5469 0.4812 0.0799
-2.5493 0.2491 0.0789
-2.5517 0.0207 0.0786
-2.5541 -0.2079 0.0790
-44.0247 -7.5811 1.3763
-46.1486 -12.2688 1.4712
-45.4657 -16.5528 1.4907
-30.6006 -14.3490 1.0413
-8.4860 -4.9469 0.3026
-15.4692 -45.3850 1.4773
-9.7337 -39.9177 1.2659
-3.5795 -23.7059 0.7386
-1.4385 -23.7287 0.7324
0.6834 -23.7514 0.7321
12.8298 -41.9637 1.3520
7.0284 -17.2938 0.5751
8.6416 -16.7896 0.5818
10.6315 -16.7835 0.6121
9.1138 -8.2916 0.3796
35.1571 -17.8698 1.2151
36.5781 -14.6498 1.2140
23.0747 1.5167 0.7125
21.2807 3.3240 0.6636
19.7051 4.9113 0.6257
18.3633 6.3634 0.5988
17.0591 7.6773 0.5764
15.8395 8.9059 0.5599
14.6789 10.0752 0.5485
14.7388 12.1851 0.5892
15.4402 15.2789 0.6692
21.5363 37.3792 1.3291
11.4088 24.6557 0.8370
12.7257 35.5139 1.1623
4.9424 18.9788 0.6042
3.5964 47.1471 1.4568
-0.6029 45.7257 1.4089
-4.6956 45.6497 1.4139
-4.6125 23.7514 0.7455
-10.2148 35.3728 1.1344
-16.3062 32.9323 1.1322
-16.2362 26.5371 0.9585
-18.1315 24.4347 0.9374
-21.7780 24.4481 1.0087
-26.5541 24.9259 1.1221
-2.5313 1.9828 0.0991
-2.5349 1.6433 0.0931
-2.5380 1.3402 0.0884
-2.5409 1.0639 0.0849
-2.5436 0.8069 0.0822
-2.5461 0.5637 0.0803
-2.5485 0.3295 0.0792
-2.5509 0.1002 0.0787
-2.5533 -0.1279 0.0788
-2.5557 -0.3585 0.0795
-46.3368 -10.7849 1.4658
-45.7286 -15.0522 1.4832
-30.5834 -13.1948 1.0262
-24.3825 -13.2135 0.8544
-21.3240 -14.1525 0.7885
-17.0034 -45.2201 1.4884
-11.4643 -41.3683 1.3226
-2.1817 -23.7208 0.7339
-0.0569 -23.7435 0.7315
10.8167 -39.7718 1.2699
15.7475 -42.4981 1.3963
7.9909 -16.7916 0.5729
9.9139 -16.7857 0.6006
28.6676 -39.9186 1.5142
39.3470 -17.1999 1.3230
20.0415 -6.7037 0.6511
49.0558 -7.1213 1.5272
23.7667 0.8195 0.7327
21.8782 2.7221 0.6793
20.2342 4.3783 0.6378
19.2547 6.0071 0.6214
17.5030 7.2301 0.5835
16.2572 8.4852 0.5650
15.0786 9.6725 0.5519
13.9445 10.8150 0.5437
15.9608 14.8387 0.6714
14.4756 16.0943 0.6669
14.6420 29.2179 1.0069
5.0340 12.7799 0.4232
8.4475 28.7350 0.9228
5.2111 48.3821 1.4993
0.8266 45.9662 1.4164
-3.2543 45.5434 1.4068
-3.8664 23.8594 0.7447
-19.6435 42.9910 1.4563
-16.8930 29.6480 1.0513
-16.9740 24.4304 0.9165
-20.4440 24.4432 0.9818
-24.9425 24.9200 1.0863
-2.5300 2.1122 0.1015
-2.5337 1.7570 0.0950
-2.5370 1.4425 0.0899
-2.5399 1.1577 0.0860
-2.5426 0.8948 0.0830
-2.5452 0.6473 0.0809
-2.5477 0.4105 0.0795
-2.5501 0.1799 0.0788
-2.5524 -0.0482 0.0787
-2.5548 -0.2775 0.0792
-43.9074 -8.7870 1.3796
-45.9650 -13.5580 1.4765
-33.0355 -13.0474 1.0943
-34.5126 -17.3346 1.1899
-21.3393 -13.2238 0.7735
-23.1020 -17.3478 0.8901
-36.9713 -33.3136 1.5333
-31.3021 -33.7301 1.4178
-13.4837 -43.3572 1.3989
-9.7470 -45.2433 1.4259
-2.9285 -23.7128 0.7361
-0.7970 -23.7356 0.7317
1.5278 -27.3757 0.8447
5.5065 -37.6916 1.1736
9.4112 -39.4156 1.2485
14.0802 -41.9683 1.3639
7.3592 -16.7936 0.5649
9.2220 -16.7878 0.5901
26.8181 -39.9117 1.4815
8.1244 -8.3740 0.3595
36.1867 -17.1807 1.2342
36.5911 -13.5210 1.2019
47.0284 -8.3308 1.4715
43.5946 0.1440 1.3431
22.5052 2.0904 0.6964
20.7846 3.8237 0.6511
19.2627 5.3570 0.6160
17.9585 6.7712 0.5913
16.6829 8.0563 0.5708
15.4837 9.2644 0.5559
14.3365 10.4202 0.5460
16.4853 14.3953 0.6743
14.9917 15.6580 0.6679
17.8291 32.9708 1.1548
16.9585 39.4054 1.3217
4.4740 19.3015 0.6104
2.2848 46.4554 1.4330
-1.2652 31.4805 0.9707
-3.1209 23.9673 0.7447
-10.7146 48.1856 1.5208
-11.6015 36.4542 1.1787
-16.8846 31.9051 1.1122
-17.1648 26.4257 0.9708
-19.1781 24.4385 0.9571
-22.7986 24.2437 1.0253
-28.0391 24.9314 1.1560
-2.5325 1.8756 0.0971
-2.5359 1.5483 0.0915
-2.5389 1.2543 0.0872
-2.5417 0.9845 0.0840
-2.5443 0.7322 0.0816
-2.5468 0.4922 0.0799
-2.5492 0.2599 0.0789
-2.5516 0.0313 0.0786
-2.5540 -0.1971 0.0789
-22.2012 -3.7277 0.6936
-46.1753 -12.0697 1.4704
-45.5025 -16.3513 1.4897
-30.5982 -14.1924 1.0392
-8.5052 -4.9106 0.3026
-21.3270 -14.9988 0.8033
-33.6698 -34.0870 1.4761
-15.8211 -45.7904 1.4926
-10.0439 -40.4548 1.2842
-3.6807 -23.7048 0.7391
-1.5379 -23.7276 0.7326
0.5841 -23.7503 0.7320
12.6380 -41.9630 1.3502
7.0291 -17.5046 0.5812
8.5533 -16.7899 0.5805
10.5337 -16.7838 0.6105
35.1559 -18.0545 1.2176
36.5761 -14.8264 1.2160
20.6069 -6.2798 0.6637
23.1653 1.4254 0.7151
21.3592 3.2449 0.6656
19.7748 4.8410 0.6272
18.4270 6.2993 0.6000
17.1180 7.6180 0.5773
15.8951 8.8500 0.5605
14.7322 10.0215 0.5490
14.1415 11.5922 0.5634
15.5097 15.2201 0.6695
14.0296 16.4714 0.6666
21.6489 37.2146 1.3265
11.5553 24.7007 0.8402
12.8478 35.3887 1.1600
5.0451 19.0465 0.6071
3.8085 47.3224 1.4627
-0.4121 45.7501 1.4096
-4.5033 45.6553 1.4135
-4.5124 23.7659 0.7453
-10.0966 35.5191 1.1377
-16.2120 33.0887 1.1352
-16.2353 26.7862 0.9650
-17.9732 24.4341 0.9345
-21.5950 24.4475 1.0050
-26.3320 24.9251 1.1171
-2.5312 1.9997 0.0994
-2.5347 1.6582 0.0933
-2.5379 1.3537 0.0886
-2.5408 1.0763 0.0850
-2.5434 0.8186 0.0823
-2.5460 0.5749 0.0804
-2.5484 0.3403 0.0792
-2.5508 0.1109 0.0787
-2.5531 -0.1172 0.0787
-2.5555 -0.3476 0.0795
-46.3600 -10.5864 1.4651
-45.7618 -14.8517 1.4823
-30.6740 -13.0821 1.0274
-24.6259 -13.2126 0.8610
-21.3236 -14.0243 0.7863
-11.7300 -41.6505 1.3331
-2.2815 -23.7197 0.7342
-0.1561 -23.7424 0.7315
10.6383 -39.7712 1.2684
15.7455 -43.0440 1.4121
7.9052 -16.7919 0.5718
9.8197 -16.7860 0.5992
28.4148 -39.9176 1.5096
38.8969 -17.1972 1.3103
20.0374 -6.7955 0.6519
9.3796 -6.9913 0.4326
35.1559 -17.5013 1.4521
36.5816 -14.2976 1.4523
22.8956 1.6971 0.8489
21.1251 3.4807 0.7917
19.5667 5.0507 0.7472
18.2369 6.4907 0.7158
16.9418 7.7954 0.6896
15.7288 9.0174 0.6704
14.5726 10.1823 0.6574
16.1148 13.5510 0.7785
15.3011 15.3964 0.8026
30.2070 36.3784 1.7484
5.0427 7.3132 0.3285
22.9514 40.6160 1.7251
11.1800 24.7003 1.0025
4.7695 18.9631 0.7230
7.2966 46.0655 1.7246
3.1364 46.2043 1.7124
-0.9835 45.6551 1.6886
-5.0917 45.7436 1.7019
-9.2006 45.3490 1.7110
-10.6215 35.6608 1.3759
-8.8040 22.1198 0.8803
-16.6509 32.9336 1.3646
-16.4714 26.4232 1.1513
-18.4508 24.4358 1.1322
-22.0973 24.3931 1.2170
-27.0044 24.9276 1.3589
-2.5317 1.9491 0.1181
-2.5352 1.6135 0.1111
-2.5383 1.3134 0.1057
-2.5411 1.0391 0.1015
-2.5438 0.7837 0.0984
-2.5463 0.5415 0.0963
-2.5487 0.3079 0.0949
-2.5511 0.0789 0.0944
-2.5535 -0.1493 0.0946
-2.5559 -0.3803 0.0955
