ply
format ascii 1.0
element vertex 2044
property float32 x
property float32 y
property float32 z
end_header
26.9026 24.2663 1.5632
27.2926 29.4455 1.7323
24.0375 31.0963 1.6958
24.6676 38.5990 1.9765
21.8624 42.0708 2.0457
14.6643 47.3321 2.1380
10.3124 48.1387 2.1242
5.9456 48.6421 2.1144
1.5755 48.8788 2.1101
-2.7965 48.8503 2.1112
-6.7813 45.9285 2.0032
-10.7131 44.5499 1.9770
-12.5717 37.2614 1.6968
-14.6958 33.3726 1.5734
-18.2032 32.9897 1.6257
-6.6586 9.8674 0.5136
-14.5145 17.8383 0.9923
-15.1902 15.5895 0.9391
-15.1986 13.0363 0.8640
-15.2058 10.8454 0.8059
-15.2122 8.9162 0.7608
-15.2179 7.1782 0.7260
-14.5557 5.3354 0.6689
-16.1576 4.3317 0.7218
-6.7019 1.1679 0.2935
-6.5114 0.5425 0.2819
-15.2418 -0.0958 0.6576
-15.2463 -1.4634 0.6609
-15.2509 -2.8556 0.6695
-15.2556 -4.2961 0.6838
-15.2606 -5.8123 0.7046
-15.2660 -7.4368 0.7327
-15.2718 -9.2109 0.7695
-14.6084 -10.6988 0.7813
-15.9397 -14.0234 0.9160
-21.8380 -22.9828 1.3679
-19.6089 -24.7275 1.3616
-17.1494 -26.1157 1.3480
-14.5778 -27.2225 1.3324
-12.0189 -28.2507 1.3246
-9.4113 -29.0962 1.3194
-6.7585 -29.7440 1.3161
-4.4605 -33.0824 1.4403
-1.4877 -33.3213 1.4391
1.4934 -33.3206 1.4391
4.4674 -33.0897 1.4406
7.4225 -32.6400 1.4442
10.3440 -31.9607 1.4494
13.2298 -31.0819 1.4575
16.0628 -29.9831 1.4676
18.8297 -28.6636 1.4797
19.6304 -24.7459 1.3628
22.4789 -23.6490 1.4078
24.8835 -21.8842 1.4298
27.2008 -19.9138 1.4545
25.7751 -15.5396 1.2986
25.7850 -12.5555 1.2374
27.6866 -10.5394 1.2782
35.2862 -9.9303 1.5816
36.9181 -6.9058 1.6205
38.3494 -3.6742 1.6622
39.5312 -0.2414 1.7057
39.8467 3.3268 1.7252
30.2379 5.2747 1.3244
26.6660 7.1539 1.1912
23.8558 8.7489 1.0963
24.6130 11.6149 1.1743
24.5654 14.4040 1.2287
26.8110 19.1298 1.4211
20.3416 17.4538 1.1565
27.3164 28.0443 1.6892
24.7544 30.4339 1.6927
24.3156 36.0471 1.8761
22.6627 41.0887 2.0246
27.3244 22.4957 1.7456
27.3352 26.9436 1.8930
25.7985 30.4305 1.9676
23.8802 33.8924 2.0448
21.3300 36.8768 2.1011
19.0078 40.9056 2.2246
15.1843 42.1748 2.2108
11.3034 43.1536 2.2001
7.3803 43.8425 2.1927
3.4289 44.2324 2.1881
-0.5338 44.3362 2.1868
-4.2409 41.6618 2.0654
-5.3510 27.6965 1.3913
-11.3162 39.3151 2.0177
-12.7579 32.9259 1.7416
-16.4806 33.3421 1.8344
-6.4962 10.6320 0.6145
-5.6016 7.5569 0.4639
-15.1603 17.0333 1.1246
-15.1945 14.2722 1.0281
-15.2023 11.9135 0.9526
-15.2091 9.8625 0.8940
-13.7151 7.2432 0.7650
-14.5532 6.0927 0.7781
-13.6902 4.3413 0.7083
-16.1601 3.5742 0.8163
-6.5796 0.8486 0.3272
-6.6442 0.2583 0.3279
-15.2440 -0.7712 0.7528
-15.2486 -2.1481 0.7595
-15.2532 -3.5611 0.7725
-15.2581 -5.0354 0.7924
-15.2632 -6.6007 0.8202
-15.2688 -8.2934 0.8570
-15.2749 -10.1608 0.9048
-16.2147 -13.0155 1.0255
-15.0350 -14.4567 1.0287
-7.1534 -8.2288 0.5378
-16.4724 -22.7739 1.3862
-14.2478 -23.9430 1.3741
-11.9365 -24.8765 1.3608
-6.8486 -18.3072 0.9640
-7.2449 -26.3241 1.3466
-4.8526 -26.7939 1.3430
-2.6706 -29.6734 1.4694
-0.0105 -29.7772 1.4686
2.6562 -29.7484 1.4730
5.3137 -29.4590 1.4764
7.9462 -28.9523 1.4807
10.5366 -28.2265 1.4859
13.0784 -27.3058 1.4932
15.5603 -26.1908 1.5025
17.9721 -24.8844 1.5139
18.9787 -21.8631 1.4279
20.7720 -20.0014 1.4222
23.2666 -18.7032 1.4723
25.2448 -16.8184 1.4961
27.1127 -14.7513 1.5223
28.8548 -12.5027 1.5510
30.4543 -10.0744 1.5820
31.8931 -7.4697 1.6155
33.1517 -4.6941 1.6513
34.2090 -1.7549 1.6894
35.0429 1.3376 1.7296
30.5188 3.9142 1.5175
29.8328 6.5762 1.5067
23.9145 7.5649 1.2371
23.9594 10.0108 1.2807
24.5900 12.9642 1.3710
24.1129 15.6121 1.4168
27.2975 21.3609 1.7095
27.3571 25.6600 1.8499
26.7162 29.9742 1.9803
24.2368 32.6488 2.0054
22.0904 36.0967 2.0872
19.3393 39.0559 2.1495
16.2507 41.8521 2.2143
12.3841 42.9114 2.2028
8.4712 43.6805 2.1945
4.5264 44.1561 2.1892
0.5651 44.3343 2.1868
-3.3984 44.2442 2.1886
-6.9110 41.2331 2.0620
-10.3878 39.7726 2.0274
-12.5851 35.0332 1.8359
-15.4725 33.3593 1.8136
-18.9832 32.8732 1.8722
-6.8299 9.7080 0.5854
-14.5168 17.1478 1.1081
-15.1922 14.9957 1.0528
-15.2003 12.5322 0.9716
-15.2073 10.4057 0.9088
-13.6793 7.6638 0.7733
-15.2191 6.8196 0.8225
-13.6890 4.7173 0.7141
-16.1587 3.9964 0.8210
-6.6404 1.0243 0.3314
-6.5365 0.4166 0.3230
-15.2428 -0.3927 0.7520
-15.2473 -1.7638 0.7570
-15.2519 -3.1644 0.7682
-15.2567 -4.6190 0.7862
-15.2618 -6.1557 0.8116
-15.2672 -7.8088 0.8457
-15.2732 -9.6223 0.8903
-14.6099 -11.1434 0.9062
-15.6481 -14.3170 1.0460
-19.0494 -20.8465 1.3927
-17.0465 -22.3781 1.3874
-14.8809 -23.6527 1.3782
-12.5813 -24.6355 1.3643
-7.3176 -18.1750 0.9663
-7.9005 -26.1543 1.3475
-5.5190 -26.6843 1.3439
-3.4065 -29.6090 1.4699
-0.7485 -29.7685 1.4686
1.9174 -29.7941 1.4725
4.5785 -29.5589 1.4752
7.2209 -29.1188 1.4796
9.8229 -28.4473 1.4843
12.3793 -27.5805 1.4910
14.8789 -26.5193 1.4997
17.3105 -25.2646 1.5105
18.9619 -22.9698 1.4690
20.1911 -20.4303 1.4167
22.7005 -19.1934 1.4661
24.7068 -17.3592 1.4892
26.6068 -15.3426 1.5148
28.3854 -13.1442 1.5428
30.0262 -10.7654 1.5732
31.5115 -8.2092 1.6060
32.8220 -5.4803 1.6412
33.9373 -2.5855 1.6786
34.8354 0.4657 1.7182
35.4938 3.6607 1.7598
30.6862 5.9709 1.5418
25.5605 7.3939 1.3123
24.4550 9.5131 1.2942
24.6030 12.2016 1.3544
24.5544 15.0477 1.4203
27.2718 20.2714 1.6759
27.0714 24.1591 1.7895
27.2499 29.0883 1.9658
24.0740 30.8040 1.9282
22.7934 35.2523 2.0704
19.8003 37.6129 2.0964
17.3123 41.5071 2.2181
13.4614 42.6468 2.2056
9.5598 43.4963 2.1964
5.6226 44.0562 2.1905
1.6639 44.3118 2.1870
-2.2998 44.2961 2.1876
-5.9022 41.4986 2.0673
-9.4449 40.2140 2.0373
-12.5696 37.9184 1.9702
-14.4863 33.3761 1.7945
-18.1519 33.3136 1.8711
-6.5862 9.8728 0.5853
-14.5139 18.0322 1.1416
-15.1897 15.7554 1.0794
-15.1982 13.1765 0.9921
-15.2054 10.9674 0.9247
-15.2118 9.0248 0.8723
-15.2176 7.2770 0.8319
-14.5554 5.4231 0.7661
-16.1573 4.4238 0.8262
-16.1623 2.9050 0.8099
-6.4724 0.5739 0.3205
-15.2415 -0.0148 0.7517
-15.2460 -1.3817 0.7550
-15.2506 -2.7718 0.7645
-15.2554 -4.2088 0.7805
-15.2603 -5.7196 0.8038
-15.2656 -7.3366 0.8353
-15.2715 -9.1004 0.8768
-14.6080 -10.5798 0.8896
-16.0193 -13.9433 1.0474
-14.6826 -15.2889 1.0454
-17.6126 -21.9697 1.3887
-15.5104 -23.3485 1.3825
-13.2231 -24.3809 1.3679
-10.8946 -25.2353 1.3556
-8.5529 -25.9707 1.3485
-6.1837 -26.5608 1.3450
-4.1412 -29.5292 1.4706
-1.4863 -29.7445 1.4688
1.1781 -29.8247 1.4721
3.8420 -29.6437 1.4742
6.4922 -29.2671 1.4785
9.1057 -28.6531 1.4828
11.6757 -27.8404 1.4889
14.1922 -26.8329 1.4971
16.6439 -25.6318 1.5073
18.9438 -24.1425 1.5135
19.6042 -20.8453 1.4113
22.1273 -19.6697 1.4602
24.1606 -17.8860 1.4826
26.0915 -15.9199 1.5074
27.9054 -13.7718 1.5348
29.5861 -11.4427 1.5645
31.1164 -8.9354 1.5967
32.4773 -6.2538 1.6312
33.6489 -3.4042 1.6680
34.6094 -0.3952 1.7070
35.3366 2.7614 1.7481
30.6836 5.1847 1.5348
27.1887 7.1397 1.3864
23.9258 8.6308 1.2544
24.6157 11.4568 1.3391
24.5684 14.2310 1.4003
25.6834 18.1201 1.5502
27.3412 23.2086 1.7688
27.3214 27.7529 1.9208
25.0234 30.4330 1.9432
23.4759 34.4064 2.0543
20.7547 37.1615 2.0993
18.3690 41.1396 2.2221
14.5347 42.3599 2.2088
10.6456 43.2898 2.1987
6.7168 43.9300 2.1918
2.7623 44.2687 2.1876
-1.2010 44.3273 2.1870
-4.8689 41.6065 2.0660
-5.7418 27.4914 1.3851
-11.8730 39.0297 2.0120
-7.1898 17.7578 0.9449
-17.1042 33.3315 1.8477
-6.4065 10.1390 0.5915
-22.7220 29.7086 1.8447
-15.1870 16.5548 1.1080
-15.1959 13.8490 1.0140
-15.2035 11.5494 0.9417
-15.2101 9.5412 0.8855
-14.2329 7.2449 0.7877
-14.5540 5.8373 0.7734
-14.1320 4.2484 0.7278
-16.1610 3.3202 0.8137
-6.5504 0.7448 0.3251
-6.7339 0.1604 0.3322
-15.2448 -1.0014 0.7535
-15.2493 -2.3828 0.7612
-15.2540 -3.8042 0.7754
-15.2589 -5.2916 0.7965
-15.2641 -6.8755 0.8257
-15.2698 -8.5939 0.8642
-15.1244 -10.3923 0.9050
-16.2161 -13.4228 1.0382
-14.6209 -14.4882 1.0152
-18.1706 -21.5487 1.3902
-16.1201 -23.0081 1.3855
-13.8618 -24.1126 1.3717
-5.6176 -12.1739 0.6613
-6.6737 -18.6920 0.9789
-6.8455 -26.4204 1.3461
-4.4864 -27.0908 1.3543
-2.2234 -29.7049 1.4691
0.4377 -29.7849 1.4691
3.1044 -29.7134 1.4734
5.7594 -29.3911 1.4771
8.3851 -28.8438 1.4815
10.9681 -28.0852 1.4870
13.5006 -27.1317 1.4946
15.9714 -25.9841 1.5043
18.3709 -24.6465 1.5161
19.0116 -21.2465 1.4061
21.1217 -19.7342 1.4256
23.6067 -18.3987 1.4761
25.5673 -16.4832 1.5003
25.7248 -13.4985 1.4328
29.1345 -12.1065 1.5560
30.7083 -9.6482 1.5875
32.1181 -7.0144 1.6214
19.9198 -2.5154 0.9902
34.3656 -1.2447 1.6960
35.1597 1.8723 1.7365
29.7802 4.2759 1.4838
30.6904 7.2512 1.5553
23.9186 7.9641 1.2433
24.6281 10.7282 1.3249
24.5819 13.4365 1.3817
24.4778 16.3763 1.4525
27.3137 22.0442 1.7311
27.3439 26.4322 1.8757
26.3106 30.4288 1.9840
24.1380 33.5593 2.0388
21.6534 36.6084 2.0977
19.3339 40.5692 2.2165
15.6038 42.0507 2.2121
11.7284 43.0611 2.2011
7.8092 43.7815 2.1934
3.8602 44.2049 2.1885
-0.1020 44.3380 2.1868
-4.0362 43.8891 2.1737
-7.5118 41.0211 2.0568
-10.9531 39.4968 2.0215
-12.5902 33.4564 1.7630
-16.0818 33.3489 1.8260
-19.6899 32.9421 1.8928
-5.5188 7.5988 0.4632
-14.8648 17.0323 1.1150
-15.1936 14.5524 1.0376
-15.2015 12.1537 0.9599
-15.2084 10.0738 0.8997
-13.6802 7.3960 0.7670
-15.2200 6.5468 0.8171
-13.6898 4.4883 0.7105
-16.1596 3.7396 0.8181
-6.6024 0.9170 0.3288
-6.5818 0.3201 0.3250
-15.2435 -0.6224 0.7524
-15.2481 -1.9968 0.7585
-15.2527 -3.4047 0.7708
-15.2575 -4.8710 0.7899
-15.2626 -6.4247 0.8167
-15.2682 -8.1015 0.8525
-15.2742 -9.9471 0.8990
-16.2139 -12.7572 1.0175
-15.3300 -14.4557 1.0392
-7.2192 -8.1430 0.5367
-16.6989 -22.6199 1.3867
-14.4970 -23.8306 1.3757
-12.1902 -24.7835 1.3622
-7.0104 -18.1978 0.9618
-7.5029 -26.2590 1.3469
-5.1146 -26.7525 1.3433
-2.9599 -29.6499 1.4696
-0.3005 -29.7756 1.4686
2.3660 -29.7682 1.4728
5.0250 -29.5001 1.4759
7.6616 -29.0195 1.4803
10.2567 -28.3151 1.4853
12.8042 -27.4155 1.4923
15.2933 -26.3216 1.5014
17.7127 -25.0353 1.5125
18.9722 -22.2905 1.4436
20.5446 -20.1715 1.4200
23.0451 -18.8974 1.4698
25.0344 -17.0325 1.4934
26.9151 -14.9853 1.5193
28.6717 -12.7564 1.5477
30.2876 -10.3474 1.5785
31.7448 -7.7618 1.6118
33.0240 -5.0045 1.6473
34.1043 -2.0826 1.6851
34.9636 0.9938 1.7251
30.5178 3.6124 1.5156
29.8251 6.2706 1.5031
24.2053 7.3983 1.2483
24.0727 9.7838 1.2816
24.5951 12.6623 1.3643
24.1118 15.2802 1.4079
27.2873 20.9278 1.6960
26.6902 24.5503 1.7885
26.8487 29.5386 1.9687
24.2484 32.0084 1.9805
22.3694 35.7648 2.0805
19.3424 38.1241 2.1084
16.6684 41.7192 2.2157
12.8078 42.8101 2.2039
8.8993 43.6108 2.1952
4.9574 44.1204 2.1897
0.9969 44.3280 2.1868
-2.9669 44.2671 2.1882
-6.5200 41.3670 2.0654
-10.0191 39.9480 2.0313
-12.5815 36.1249 1.8866
-15.0825 33.3660 1.8059
-18.5580 32.8718 1.8618
-6.7150 9.7449 0.5837
-14.5157 17.4890 1.1210
-15.1912 15.2897 1.0630
-15.1994 12.7822 0.9795
-15.2066 10.6241 0.9149
-13.6787 7.8394 0.7776
-15.2185 6.9980 0.8261
-13.6885 4.8668 0.7165
-16.1582 4.1637 0.8230
-6.6578 1.0935 0.3328
-6.5094 0.4785 0.3219
-15.2423 -0.2442 0.7518
-15.2468 -1.6134 0.7562
-15.2514 -3.0097 0.7667
-15.2562 -4.4571 0.7839
-15.2612 -5.9833 0.8085
-15.2666 -7.6219 0.8416
-15.2725 -9.4153 0.8849
-14.6091 -10.9194 0.8995
-15.7938 -14.1702 1.0465
-19.2609 -20.6700 1.3934
-17.2700 -22.2191 1.3879
-15.1288 -23.5348 1.3799
-12.8339 -24.5371 1.3657
-7.5911 -18.3367 0.9788
-8.1573 -26.0838 1.3479
-5.7805 -26.6374 1.3443
-3.6954 -29.5795 1.4702
-1.0384 -29.7609 1.4687
1.6270 -29.8079 1.4723
4.2892 -29.5940 1.4748
6.9352 -29.1801 1.4792
9.5415 -28.5299 1.4837
12.1034 -27.6844 1.4902
14.6097 -26.6443 1.4987
17.0493 -25.4106 1.5092
18.9549 -23.4223 1.4861
19.9612 -20.5950 1.4145
22.4761 -19.3822 1.4638
24.4932 -17.5678 1.4866
26.4054 -15.5711 1.5119
28.1980 -13.3924 1.5396
29.8546 -11.0332 1.5698
31.3578 -8.4962 1.6023
32.6884 -5.7857 1.6372
33.8259 -2.9086 1.6744
34.7488 0.1262 1.7138
35.4344 3.3062 1.7552
29.8500 5.5071 1.4970
26.6670 7.4334 1.3654
23.9303 9.0417 1.2617
24.6080 11.9070 1.3483
24.5599 14.7241 1.4123
26.8124 19.5275 1.6359
19.9822 17.4860 1.3096
27.3072 28.5864 1.9498
24.3501 30.5396 1.9264
23.0640 34.9202 2.0640
20.0783 37.2563 2.0873
17.7281 41.3654 2.2196
13.8836 42.5367 2.2068
9.9868 43.4178 2.1973
6.0528 44.0092 2.1910
2.0956 44.2973 2.1872
-1.8681 44.3108 2.1874
-5.4963 41.5435 2.0668
-9.0706 40.3830 2.0413
-12.4245 38.7385 2.0064
-14.1045 33.3827 1.7874
-17.7372 33.3207 1.8617
-6.5042 9.9585 0.5866
-23.0925 29.2694 1.8388
-15.1886 16.0645 1.0904
-15.1973 13.4372 1.0005
-15.2047 11.1935 0.9312
-15.2112 9.2258 0.8774
-15.2170 7.4596 0.8358
-14.5548 5.5849 0.7689
-16.1568 4.5932 0.8284
-16.1618 3.0676 0.8113
-6.5290 0.6430 0.3236
-6.9260 0.0607 0.3416
-15.2456 -1.2321 0.7544
-15.2501 -2.6185 0.7631
-15.2548 -4.0492 0.7784
-15.2598 -5.5505 0.8008
-15.2650 -7.1541 0.8314
-15.2708 -8.8996 0.8717
-14.6495 -10.3938 0.8859
-16.1655 -13.7961 1.0481
-14.6224 -14.9324 1.0308
-17.8328 -21.8058 1.3893
-15.7565 -23.2253 1.3842
-13.4743 -24.2771 1.3694
-11.1499 -25.1509 1.3569
-8.8083 -25.8948 1.3490
-6.4442 -26.5084 1.3455
-4.4294 -29.4936 1.4709
-1.7760 -29.7308 1.4689
0.8869 -29.8119 1.4710
3.5523 -29.6729 1.4739
6.2045 -29.3176 1.4780
8.8230 -28.7298 1.4823
11.3982 -27.9383 1.4882
13.9211 -26.9521 1.4961
16.3803 -25.7720 1.5061
18.7671 -24.4031 1.5183
19.3720 -21.0046 1.4093
21.9002 -19.8530 1.4579
23.9439 -18.0891 1.4800
25.8866 -16.1430 1.5046
27.7140 -14.0145 1.5317
29.4101 -11.7051 1.5612
30.9576 -9.2170 1.5931
32.3379 -6.5541 1.6273
19.9260 -2.2121 0.9888
34.5157 -0.7303 1.7027
35.2694 2.4109 1.7435
29.8702 4.7486 1.4917
30.6920 7.7409 1.5611
23.9229 8.3674 1.2500
24.6206 11.1687 1.3334
24.5737 13.9163 1.3928
25.9104 17.9050 1.5533
27.3303 22.7451 1.7537
27.3304 27.2265 1.9027
25.5228 30.4314 1.9589
23.7384 34.0738 2.0481
21.1274 36.9781 2.1005
18.7826 40.9891 2.2237
14.9553 42.2411 2.2101
11.0715 43.2026 2.1996
7.1463 43.8743 2.1924
3.1937 44.2461 2.1879
-0.7693 44.3340 2.1869
-4.4626 41.6432 2.0656
-5.4617 27.4848 1.3821
-11.5132 39.2150 2.0157
-6.9945 17.7708 0.9419
-16.6997 33.3384 1.8390
-6.3481 10.2666 0.5953
-5.6632 7.5559 0.4657
-15.1860 16.8807 1.1199
-15.1950 14.1215 1.0231
-15.2027 11.7841 0.9487
-15.2094 9.7485 0.8910
-13.8944 7.2438 0.7728
-14.5535 6.0023 0.7764
-13.6905 4.2615 0.7072
-16.1604 3.4844 0.8153
-6.5693 0.8118 0.3265
-6.6764 0.2241 0.3295
-15.2443 -0.8523 0.7530
-15.2488 -2.2308 0.7601
-15.2535 -3.6467 0.7735
-15.2584 -5.1255 0.7939
-15.2635 -6.6973 0.8221
-15.2691 -8.3989 0.8595
-15.2753 -10.2785 0.9080
-16.2152 -13.1581 1.0299
-14.8766 -14.4572 1.0231
-7.0778 -8.2297 0.5353
-16.3484 -22.8571 1.3860
-14.1117 -24.0034 1.3733
-5.7574 -12.1641 0.6637
-6.7685 -18.3901 0.9665
-7.1041 -26.3586 1.3464
-4.7096 -26.8155 1.3428
-2.5129 -29.6852 1.4693
0.1476 -29.7770 1.4686
2.8144 -29.7367 1.4732
5.4710 -29.4357 1.4766
8.1012 -28.9146 1.4810
10.6890 -28.1773 1.4863
13.2275 -27.2450 1.4937
15.7056 -26.1185 1.5031
18.1130 -24.8011 1.5147
18.9822 -21.6341 1.4195
20.8957 -19.9076 1.4234
23.3869 -18.5963 1.4736
25.3590 -16.7007 1.4976
27.2199 -14.6228 1.5239
28.9540 -12.3634 1.5527
30.5445 -9.9245 1.5840
31.9731 -7.3096 1.6176
33.2203 -4.5240 1.6535
34.2650 -1.5753 1.6917
35.0849 1.5259 1.7320
29.8790 3.9935 1.4867
30.6894 6.9361 1.5518
23.9160 7.7053 1.2392
23.9688 10.1645 1.2840
24.5871 13.1300 1.3747
24.1135 15.7948 1.4217
27.3032 21.6000 1.7170
27.3525 25.9300 1.8589
26.5931 30.1570 1.9830
24.2303 33.0047 2.0194
21.9371 36.2774 2.0909
19.3375 39.5793 2.1726
16.0225 41.9232 2.2135
12.1528 42.9651 2.2022
8.2376 43.7171 2.1941
4.2913 44.1742 2.1889
0.3297 44.3365 2.1867
-3.6337 44.2304 2.1888
-7.1235 41.1590 2.0601
-10.5879 39.6759 2.0253
-12.5869 34.4621 1.8095
-15.6866 33.3557 1.8179
-19.3988 33.1847 1.8958
-5.4772 7.6981 0.4660
-14.5742 17.0314 1.1056
-15.1927 14.8378 1.0474
-15.2007 12.3976 0.9674
-15.2077 10.2878 0.9055
-13.6796 7.5688 0.7711
-15.2194 6.7229 0.8206
-13.6893 4.6363 0.7128
-16.1590 3.9056 0.8199
-6.6290 0.9866 0.3305
-6.5513 0.3826 0.3237
-15.2431 -0.4738 0.7521
-15.2476 -1.8459 0.7575
-15.2522 -3.2490 0.7691
-15.2570 -4.7076 0.7875
-15.2621 -6.2503 0.8134
-15.2675 -7.9116 0.8481
-15.2735 -9.7362 0.8933
-14.6103 -11.2669 0.9099
-15.5687 -14.3969 1.0458
-7.3323 -8.1101 0.5392
-16.9242 -22.4639 1.3871
-14.7456 -23.7160 1.3773
-12.4434 -24.6883 1.3635
-7.1951 -18.1483 0.9628
-7.7603 -26.1918 1.3473
-5.3764 -26.7090 1.3437
-3.2490 -29.6241 1.4698
-0.5905 -29.7717 1.4686
2.0757 -29.7856 1.4726
4.7360 -29.5387 1.4754
7.3765 -29.0844 1.4798
9.9761 -28.4013 1.4846
12.5293 -27.5230 1.4915
15.0254 -26.4501 1.5003
17.4525 -25.1840 1.5112
18.9656 -22.7273 1.4599
20.3161 -20.3395 1.4178
22.8224 -19.0895 1.4674
24.8228 -17.2445 1.4907
26.7160 -15.2171 1.5164
28.4869 -13.0079 1.5445
30.1189 -10.6185 1.5751
31.5943 -8.0519 1.6080
32.8939 -5.3130 1.6433
33.9969 -2.4086 1.6809
34.8814 0.6516 1.7206
35.5248 3.8546 1.7624
30.6868 6.1403 1.5435
25.0668 7.3955 1.2890
24.2921 9.5985 1.2882
24.6002 12.3634 1.3579
24.3709 15.1138 1.4143
27.2772 20.5012 1.6829
26.9026 24.2663 1.7869
27.0951 29.2325 1.9658
24.0375 31.0963 1.9385
22.6446 35.4334 2.0740
19.5946 37.7068 2.0958
17.0852 41.5829 2.2172
13.2309 42.7053 2.2050
9.3268 43.5377 2.1960
5.3880 44.0803 2.1902
1.4285 44.3184 2.1869
-2.5352 44.2867 2.1878
-6.1234 41.4727 2.0676
-9.6481 40.1208 2.0352
-12.5717 37.2614 1.9395
-14.6958 33.3726 1.7985
-18.2032 32.9897 1.8583
-6.6308 9.8262 0.5846
-14.5145 17.8383 1.1342
-15.1902 15.5895 1.0735
-15.1986 13.0363 0.9876
-15.2058 10.8454 0.9212
-15.2122 8.9162 0.8696
-15.2179 7.1782 0.8299
-14.5557 5.3354 0.7646
-16.1576 4.3317 0.8250
-6.6753 1.1632 0.3342
-6.4843 0.5402 0.3209
-15.2418 -0.0958 0.7517
-15.2463 -1.4634 0.7554
-15.2509 -2.8556 0.7652
-15.2556 -4.2961 0.7817
-15.2606 -5.8123 0.8054
-15.2660 -7.4368 0.8375
-15.2718 -9.2109 0.8796
-14.6084 -10.6988 0.8930
-15.9397 -14.0234 1.0471
-19.4667 -20.4872 1.3938
-17.4921 -22.0582 1.3884
-15.3759 -23.4148 1.3815
-13.0859 -24.4366 1.3671
-10.7552 -25.2805 1.3550
-8.4135 -26.0112 1.3483
-6.0415 -26.5884 1.3448
-3.9839 -29.5476 1.4705
-1.3283 -29.7509 1.4688
1.3364 -29.8194 1.4722
3.9999 -29.6267 1.4744
6.6490 -29.2386 1.4788
9.2597 -28.6102 1.4831
11.8268 -27.7859 1.4894
14.3398 -26.7670 1.4976
16.7872 -25.5544 1.5079
18.9478 -23.8853 1.5037
19.7305 -20.7576 1.4124
22.2507 -19.5688 1.4614
24.2783 -17.7743 1.4840
26.2027 -15.7974 1.5090
28.0091 -13.6385 1.5365
29.6814 -11.2988 1.5664
31.2022 -8.7810 1.5987
32.5524 -6.0892 1.6333
33.7120 -3.2299 1.6703
34.6593 -0.2118 1.7094
35.3719 2.9532 1.7506
30.2344 5.2740 1.5137
26.6660 7.1539 1.3617
23.9274 8.7752 1.2570
24.6130 11.6149 1.3423
24.5654 14.4040 1.4045
26.8110 19.1298 1.6244
20.2703 17.3926 1.3173
27.3164 28.0443 1.9308
24.7543 30.4339 1.9348
23.3312 34.5880 2.0577
20.5489 37.2563 2.0984
27.2928 22.4697 1.9619
25.8714 25.5008 2.0160
23.9421 28.2408 2.0547
21.7862 30.9204 2.0992
19.3109 33.3860 2.1404
17.1147 36.8317 2.2539
13.7096 38.0787 2.2460
10.2271 39.0447 2.2400
6.6874 39.7263 2.2357
3.1103 40.1215 2.2333
-0.4843 40.2289 2.2328
-4.0589 39.8732 2.2243
-5.3293 27.5842 1.5592
-10.2032 35.4486 2.0472
-7.1895 18.5548 1.1043
-15.6146 31.5901 1.9556
-18.0160 29.4857 1.9176
-5.6015 7.5568 0.5220
-15.1603 17.0333 1.2655
-15.1945 14.2722 1.1569
-15.2023 11.9135 1.0719
-15.2091 9.8625 1.0060
-13.7151 7.2432 0.8608
-14.5532 6.0927 0.8756
-13.6902 4.3413 0.7971
-16.1601 3.5742 0.9185
-6.5583 0.8458 0.3670
-6.6099 0.2570 0.3671
-15.2440 -0.7712 0.8471
-15.2486 -2.1481 0.8546
-15.2532 -3.5611 0.8693
-15.2581 -5.0354 0.8917
-15.2632 -6.6007 0.9229
-15.2688 -8.2934 0.9643
-15.2749 -10.1607 1.0181
-16.2147 -13.0155 1.1539
-15.0350 -14.4567 1.1575
-7.1564 -8.2323 0.6054
-14.8689 -20.5570 1.4080
-12.9182 -21.7086 1.4019
-5.8248 -12.1393 0.7472
-6.8902 -18.4184 1.0913
-6.5565 -23.8225 1.3712
-4.4680 -24.6707 1.3914
-2.4150 -26.8327 1.4951
-0.0096 -27.0603 1.5017
2.4090 -26.9799 1.5032
4.8176 -26.7083 1.5061
7.1971 -26.2230 1.5091
9.5402 -25.5572 1.5139
11.8361 -24.7121 1.5206
14.0740 -23.6890 1.5292
16.2680 -22.5248 1.5420
18.4142 -21.2128 1.5589
19.0020 -18.2970 1.4639
20.5965 -16.5568 1.4666
22.7763 -15.1739 1.5188
24.4197 -13.2861 1.5428
25.9402 -11.2398 1.5689
27.3229 -9.0385 1.5971
28.5517 -6.6871 1.6274
29.6096 -4.1925 1.6596
30.4789 -1.5635 1.6937
31.1412 1.1887 1.7295
31.5779 4.0500 1.7668
29.8058 6.5702 1.6938
23.9854 7.5873 1.3961
23.9594 10.0108 1.4411
24.5900 12.9642 1.5427
24.1129 15.6121 1.5942
27.2975 21.3609 1.9236
26.3620 24.7266 2.0059
24.4954 27.4825 2.0431
22.4092 30.1869 2.0864
19.8372 32.4149 2.1091
18.0392 36.4304 2.2561
14.6621 37.7610 2.2481
11.1991 38.8052 2.2415
7.6733 39.5659 2.2367
4.1045 40.0407 2.2338
0.5128 40.2280 2.2327
-3.0821 40.1273 2.2335
-6.2531 37.3083 2.0994
-9.3742 35.8921 2.0587
-12.2728 34.1640 2.0146
-14.9111 32.1490 1.9667
-17.3716 30.0824 1.9279
-7.2611 10.3210 0.7003
-14.5168 17.1478 1.2469
-15.1922 14.9957 1.1847
-15.2003 12.5322 1.0933
-15.2073 10.4057 1.0226
-13.6793 7.6638 0.8702
-15.2191 6.8196 0.9255
-13.6890 4.7173 0.8035
-16.1587 3.9964 0.9238
-6.6144 1.0203 0.3714
-6.5101 0.4149 0.3620
-15.2428 -0.3927 0.8462
-15.2473 -1.7638 0.8518
-15.2519 -3.1644 0.8645
-15.2567 -4.6190 0.8846
-15.2618 -6.1557 0.9133
-15.2672 -7.8088 0.9517
-15.2732 -9.6223 1.0018
-14.6099 -11.1434 1.0197
-15.6481 -14.3170 1.1770
-17.1562 -18.7747 1.4114
-15.3858 -20.1980 1.4091
-13.4878 -21.4383 1.4056
-11.4148 -22.3515 1.3928
-7.3697 -18.3044 1.0951
-7.1554 -23.6876 1.3732
-4.9906 -24.1291 1.3674
-3.0803 -26.7736 1.4956
-0.6791 -27.0060 1.4992
1.7390 -27.0222 1.5027
4.1518 -26.8042 1.5053
6.5407 -26.3757 1.5081
8.8949 -25.7598 1.5124
11.2050 -24.9642 1.5186
13.4600 -23.9904 1.5266
15.6610 -22.8572 1.5377
17.8264 -21.5943 1.5540
18.9878 -19.2127 1.4991
20.0980 -16.9930 1.4606
22.3009 -15.6688 1.5126
23.9758 -13.8255 1.5359
25.5319 -11.8228 1.5615
26.9543 -9.6640 1.5891
28.2274 -7.3537 1.6188
29.3345 -4.8980 1.6505
30.2579 -2.3052 1.6841
30.9794 0.4141 1.7194
31.4805 3.2468 1.7563
29.8293 5.8042 1.6865
25.5605 7.3939 1.4767
24.4550 9.5131 1.4562
24.6030 12.2016 1.5241
24.5544 15.0477 1.5982
27.2718 20.2714 1.8858
19.9689 17.8207 1.4853
25.0373 26.7264 2.0324
23.0127 29.4461 2.0740
20.6195 31.8902 2.1075
18.9430 35.9845 2.2568
15.6084 37.4218 2.2502
12.1663 38.5440 2.2431
8.6559 39.3836 2.2378
5.0970 39.9378 2.2344
1.5097 40.2049 2.2328
-2.0863 40.1840 2.2331
-5.3244 37.4364 2.0985
-8.5304 36.3206 2.0705
-11.5033 34.7018 2.0289
-14.1950 32.7051 1.9786
-16.7109 30.6691 1.9383
-6.9837 10.4686 0.6984
-14.5139 18.0322 1.2846
-15.1897 15.7554 1.2146
-15.1982 13.1765 1.1163
-15.2054 10.9674 1.0405
-15.2118 9.0248 0.9816
-15.2176 7.2770 0.9361
-14.5554 5.4231 0.8620
-16.1573 4.4238 0.9297
-16.1623 2.9050 0.9113
-6.4456 0.5715 0.3591
-7.0262 -0.0068 0.3899
-15.2460 -1.3817 0.8496
-15.2506 -2.7718 0.8602
-15.2554 -4.2088 0.8783
-15.2603 -5.7196 0.9044
-15.2656 -7.3366 0.9400
-15.2715 -9.1004 0.9866
-14.6080 -10.5798 1.0010
-16.0193 -13.9433 1.1786
-14.6826 -15.2889 1.1764
-15.8953 -19.8275 1.4103
-14.0231 -21.1097 1.4064
-11.9942 -22.1150 1.3962
-9.8903 -22.9092 1.3848
-7.7528 -23.5410 1.3755
-5.5925 -24.0214 1.3688
-3.7445 -26.7002 1.4963
-1.3461 -26.9385 1.4969
1.0685 -27.0506 1.5024
3.4841 -26.8828 1.5044
5.8816 -26.5144 1.5072
8.2462 -25.9486 1.5110
10.5696 -25.2027 1.5167
12.8410 -24.2781 1.5242
15.0494 -23.1763 1.5336
17.2329 -21.9622 1.5492
18.9727 -20.1738 1.5369
19.5966 -17.4200 1.4551
21.8174 -16.1513 1.5065
23.5228 -14.3526 1.5292
25.1133 -12.3938 1.5542
26.5742 -10.2779 1.5812
27.8904 -8.0090 1.6104
29.0452 -5.5929 1.6415
30.0213 -3.0372 1.6746
30.8006 -0.3517 1.7094
31.3647 2.4510 1.7459
31.6949 5.3556 1.7839
27.1888 7.1397 1.5600
23.9977 8.6568 1.4158
24.6157 11.4568 1.5068
24.5684 14.2310 1.5757
25.6834 18.1201 1.7444
26.9516 22.8779 1.9619
25.5629 25.9667 2.0222
23.5968 28.6982 2.0619
21.3875 31.3458 2.1060
19.3071 34.5693 2.1974
16.5479 37.0611 2.2525
13.1283 38.2611 2.2449
9.6347 39.1794 2.2391
6.0873 39.8129 2.2352
2.5059 40.1597 2.2331
-1.0897 40.2187 2.2328
-4.3935 37.5439 2.0978
-5.7359 27.4629 1.5570
-10.6993 35.1722 2.0403
-7.4679 18.4445 1.1043
-16.0337 31.2454 1.9490
-18.3992 29.1188 1.9116
-20.5516 26.8708 1.8774
-15.1870 16.5548 1.2468
-15.1959 13.8490 1.1410
-15.2035 11.5494 1.0596
-15.2101 9.5412 0.9964
-14.2329 7.2449 0.8863
-14.5540 5.8373 0.8702
-14.1320 4.2484 0.8190
-16.1610 3.3202 0.9156
-6.5293 0.7424 0.3647
-6.6976 0.1595 0.3718
-15.2448 -1.0014 0.8479
-15.2493 -2.3828 0.8566
-15.2540 -3.8042 0.8725
-15.2589 -5.2916 0.8963
-15.2641 -6.8755 0.9291
-15.2698 -8.5939 0.9724
-15.1244 -10.3923 1.0184
-16.2161 -13.4228 1.1682
-14.6209 -14.4882 1.1423
-16.3916 -19.4391 1.4111
-14.5515 -20.7693 1.4074
-12.5702 -21.8659 1.3997
-5.6046 -12.1457 0.7423
-8.3482 -23.3821 1.3778
-6.1928 -23.9014 1.3702
-4.4072 -26.6127 1.4970
-2.0106 -26.8617 1.4949
0.3977 -27.0651 1.5022
2.8154 -26.9474 1.5036
5.2202 -26.6393 1.5065
7.5943 -26.1235 1.5098
9.9302 -25.4275 1.5149
12.2171 -24.5523 1.5219
14.4442 -23.4994 1.5308
16.6341 -22.3164 1.5447
18.7683 -20.9746 1.5620
19.0885 -17.8346 1.4498
20.8995 -16.2888 1.4705
23.0609 -14.8674 1.5227
24.6847 -12.9527 1.5471
26.1830 -10.8800 1.5735
27.5410 -8.6531 1.6021
28.7422 -6.2771 1.6327
19.9037 -2.5134 1.1134
30.6053 -1.1085 1.6996
31.2310 1.6631 1.7357
29.7802 4.2759 1.6697
31.7775 7.5080 1.8121
23.9899 7.9878 1.4032
24.6281 10.7282 1.4908
24.5819 13.4365 1.5547
24.4778 16.3763 1.6344
27.3137 22.0442 1.9479
26.0668 25.1976 2.0120
24.1617 27.9436 2.0501
22.0333 30.6331 2.0941
19.3554 32.7236 2.1100
17.4800 36.6791 2.2549
14.0845 37.9565 2.2468
10.6095 38.9532 2.2405
7.0751 39.6659 2.2361
3.5011 40.0924 2.2335
-0.0926 40.2312 2.2327
-3.6861 40.0820 2.2338
-6.7951 37.1079 2.0936
-9.8793 35.6246 2.0517
-12.5902 33.4564 1.9839
-15.3402 31.8110 1.9600
-17.7648 29.7213 1.9216
-5.5186 7.5986 0.5212
-14.8648 17.0323 1.2546
-15.1936 14.5524 1.1676
-15.2015 12.1537 1.0801
-15.2084 10.0738 1.0124
-13.6802 7.3960 0.8631
-15.2200 6.5468 0.9195
-13.6897 4.4883 0.7995
-16.1596 3.7396 0.9205
-6.5797 0.9138 0.3687
-6.5519 0.3187 0.3640
-15.2435 -0.6224 0.8467
-15.2481 -1.9968 0.8534
-15.2527 -3.4047 0.8673
-15.2575 -4.8710 0.8888
-15.2626 -6.4247 0.9190
-15.2682 -8.1015 0.9592
-15.2742 -9.9471 1.0116
-16.2139 -12.7572 1.1449
-15.3300 -14.4557 1.1694
-7.2022 -8.1238 0.6025
-15.0729 -20.4173 1.4084
-13.1427 -21.6044 1.4034
-11.0616 -22.4890 1.3909
-7.0482 -18.2959 1.0881
-6.7918 -23.7705 1.3720
-4.6326 -24.2313 1.3691
-2.6765 -26.8112 1.4953
-0.2729 -27.0405 1.5007
2.1458 -26.9982 1.5030
4.5565 -26.7497 1.5059
6.9396 -26.2846 1.5087
9.2871 -25.6384 1.5133
11.5887 -24.8128 1.5198
13.8334 -23.8090 1.5281
16.0301 -22.6570 1.5403
18.1840 -21.3643 1.5570
18.9965 -18.6516 1.4774
20.3992 -16.7278 1.4640
22.5905 -15.3698 1.5163
24.2464 -13.4995 1.5401
25.7811 -11.4703 1.5660
27.1795 -9.2856 1.5940
28.4259 -6.9503 1.6240
29.5032 -4.4709 1.6560
30.3940 -1.8560 1.6899
31.0797 0.8834 1.7255
31.5419 3.7336 1.7627
29.8344 6.2725 1.6919
24.2053 7.3983 1.4047
24.0727 9.7838 1.4421
24.5951 12.6623 1.5352
24.1118 15.2802 1.5842
27.2873 20.9278 1.9085
26.5487 24.4202 2.0019
24.7076 27.1828 2.0386
22.6487 29.8966 2.0815
20.1463 32.2111 2.1085
18.3955 36.2578 2.2564
15.0347 37.6303 2.2489
11.5798 38.7052 2.2421
8.0598 39.4969 2.2371
4.4947 40.0029 2.2340
0.9045 40.2216 2.2327
-2.6911 40.1522 2.2333
-5.8886 37.3612 2.0990
-9.0445 36.0623 2.0633
-11.9727 34.3768 2.0202
-14.6302 32.3654 1.9712
-17.1140 30.3141 1.9319
-7.1527 10.3802 0.6996
-14.5157 17.4890 1.2613
-15.1912 15.2897 1.1961
-15.1994 12.7822 1.1022
-15.2066 10.6241 1.0295
-13.6787 7.8394 0.8750
-15.2185 6.9980 0.9296
-13.6885 4.8668 0.8063
-16.1582 4.1637 0.9260
-6.6316 1.0892 0.3730
-6.4832 0.4766 0.3608
-15.2423 -0.2442 0.8460
-15.2468 -1.6134 0.8509
-15.2514 -3.0096 0.8627
-15.2562 -4.4571 0.8821
-15.2612 -5.9833 0.9097
-15.2666 -7.6219 0.9470
-15.2725 -9.4153 0.9957
-14.6091 -10.9194 1.0122
-15.7938 -14.1702 1.1776
-17.3392 -18.6076 1.4115
-15.5870 -20.0538 1.4096
-13.6990 -21.3106 1.4059
-11.6429 -22.2600 1.3941
-9.5327 -23.0268 1.3831
-7.3904 -23.6315 1.3741
-5.2273 -24.0883 1.3679
-3.3414 -26.7465 1.4959
-0.9414 -26.9810 1.4983
1.4757 -27.0350 1.5026
3.8896 -26.8367 1.5049
6.2820 -26.4318 1.5077
8.6404 -25.8356 1.5118
10.9558 -25.0596 1.5178
13.2174 -24.1051 1.5256
15.4212 -22.9840 1.5360
17.5939 -21.7404 1.5521
18.9820 -19.5846 1.5136
19.9018 -17.1622 1.4584
22.1119 -15.8598 1.5101
23.7989 -14.0340 1.5333
25.3686 -12.0486 1.5586
26.8063 -9.9066 1.5860
28.0965 -7.6126 1.6155
29.2225 -5.1722 1.6470
30.1668 -2.5939 1.6803
30.9112 0.1122 1.7155
31.4372 2.9333 1.7522
29.8594 5.5089 1.6851
26.6670 7.4334 1.5363
24.0027 9.0690 1.4240
24.6080 11.9070 1.5171
24.5599 14.7241 1.5892
26.8123 19.5275 1.8408
19.9608 17.4673 1.4720
25.2465 26.4291 2.0284
23.2446 29.1529 2.0692
20.9230 31.6786 2.1069
19.2952 35.8032 2.2572
15.9783 37.2826 2.2511
12.5449 38.4354 2.2438
9.0410 39.3060 2.2383
5.4865 39.8913 2.2347
1.9013 40.1898 2.2329
-1.6948 40.2003 2.2330
-4.9589 37.4811 2.0982
-8.1949 36.4847 2.0752
-11.1900 34.8904 2.0335
-13.9132 32.9299 1.9839
-16.4468 30.8967 1.9425
-18.7764 28.7484 1.9056
-20.8930 26.4816 1.8720
-15.1886 16.0645 1.2269
-15.1973 13.4372 1.1258
-15.2047 11.1935 1.0478
-15.2112 9.2258 0.9873
-15.2170 7.4596 0.9405
-14.5548 5.5849 0.8652
-16.1568 4.5932 0.9322
-16.1618 3.0676 0.9129
-6.5053 0.6407 0.3628
-6.8409 0.0600 0.3797
-15.2456 -1.2321 0.8488
-15.2501 -2.6185 0.8587
-15.2548 -4.0492 0.8759
-15.2598 -5.5505 0.9011
-15.2650 -7.1541 0.9356
-15.2708 -8.8996 0.9809
-14.6495 -10.3938 0.9968
-16.1655 -13.7961 1.1794
-14.6224 -14.9324 1.1598
-16.0934 -19.6789 1.4108
-14.2315 -20.9774 1.4068
-12.2208 -22.0187 1.3976
-5.5172 -12.4452 0.7555
-7.9869 -23.4801 1.3764
-5.8285 -23.9757 1.3693
-4.0050 -26.6675 1.4965
-1.6074 -26.9083 1.4960
0.8050 -27.0580 1.5023
3.2215 -26.9098 1.5041
5.6220 -26.5652 1.5069
7.9905 -26.0190 1.5105
10.3188 -25.2927 1.5160
12.5964 -24.3875 1.5233
14.8123 -23.3049 1.5325
16.9982 -22.1029 1.5474
18.9665 -20.5649 1.5526
19.3977 -17.5844 1.4530
21.6253 -16.3375 1.5041
23.3423 -14.5563 1.5267
24.9461 -12.6148 1.5514
26.4219 -10.5158 1.5782
27.7546 -8.2634 1.6071
28.9278 -5.8630 1.6380
19.9074 -2.2100 1.1116
30.7259 -0.6501 1.7056
31.3143 2.1405 1.7419
29.8702 4.7486 1.6785
31.7771 8.0146 1.8187
23.9946 8.3925 1.4107
24.6206 11.1687 1.5004
24.5737 13.9163 1.5673
25.9104 17.9050 1.7479
27.1731 22.6143 1.9619
25.7635 25.6656 2.0182
23.8212 28.4023 2.0572
21.6503 31.0764 2.1019
19.3096 33.7964 2.1602
16.9150 36.9135 2.2534
13.5048 38.1440 2.2456
10.0183 39.0931 2.2397
6.4758 39.7577 2.2355
2.8970 40.1358 2.2332
-0.6980 40.2262 2.2328
-4.0888 38.1545 2.1296
-5.4572 27.4623 1.5539
-10.3790 35.3517 2.0447
-7.0213 17.8389 1.0639
-15.7632 31.4689 1.9533
-18.1519 29.3566 1.9155
-5.6630 7.5555 0.5240
-15.1860 16.8807 1.2601
-15.1950 14.1215 1.1512
-15.2027 11.7841 1.0675
-15.2094 9.7485 1.0026
-13.8944 7.2438 0.8696
-14.5535 6.0023 0.8737
-13.6905 4.2615 0.7957
-16.1604 3.4844 0.9175
-6.5480 0.8092 0.3662
-6.6407 0.2229 0.3687
-15.2443 -0.8523 0.8473
-15.2488 -2.2308 0.8553
-15.2535 -3.6467 0.8704
-15.2584 -5.1255 0.8933
-15.2635 -6.6973 0.9250
-15.2691 -8.3989 0.9671
-15.2753 -10.2785 1.0218
-16.2152 -13.1581 1.1589
-14.8766 -14.4572 1.1512
-7.0696 -8.2201 0.6017
-14.7572 -20.6324 1.4078
-12.7955 -21.7647 1.4011
-5.7377 -12.1223 0.7443
-6.8233 -18.5389 1.0963
-6.4282 -23.8509 1.3709
-4.4637 -25.4158 1.4321
-2.2723 -26.8436 1.4950
0.1341 -27.0670 1.5021
2.5524 -26.9690 1.5034
4.9597 -26.6845 1.5063
7.3374 -26.1885 1.5093
9.6779 -25.5120 1.5143
11.9707 -24.6563 1.5211
14.2048 -23.6227 1.5297
16.3973 -22.4519 1.5429
18.5394 -21.1294 1.5600
19.0085 -18.1096 1.4570
20.7038 -16.4627 1.4679
22.8771 -15.0662 1.5202
24.5136 -13.1690 1.5443
26.0264 -11.1133 1.5705
27.4004 -8.9029 1.5989
28.6195 -6.5429 1.6293
29.6667 -4.0400 1.6616
30.5242 -1.4033 1.6958
31.1736 1.3558 1.7317
29.8790 3.9935 1.6729
31.7737 7.1812 1.8078
23.9870 7.7281 1.3986
23.9688 10.1645 1.4449
24.5871 13.1300 1.5469
24.1135 15.7948 1.5998
27.3032 21.6000 1.9321
26.2587 24.8931 2.0080
24.3784 27.6454 2.0456
22.2775 30.3446 2.0891
19.6679 32.5246 2.1094
17.8443 36.5230 2.2559
14.4585 37.8309 2.2476
10.9912 38.8584 2.2411
7.4622 39.6022 2.2365
3.8916 40.0599 2.2337
0.2991 40.2300 2.2327
-3.2954 40.1122 2.2336
-6.4454 37.2412 2.0975
-9.5531 35.7983 2.0562
-12.4353 34.0471 2.0116
-15.0632 32.0302 1.9643
-17.5110 29.9554 1.9256
-5.4771 7.6979 0.5243
-14.5742 17.0314 1.2440
-15.1927 14.8378 1.1785
-15.2007 12.3976 1.0886
-15.2077 10.2878 1.0190
-13.6796 7.5688 0.8676
-15.2194 6.7229 0.9234
-13.6893 4.6363 0.8021
-16.1590 3.9056 0.9226
-6.6050 0.9830 0.3706
-6.5248 0.3811 0.3627
-15.2431 -0.4738 0.8463
-15.2476 -1.8459 0.8524
-15.2522 -3.2490 0.8654
-15.2570 -4.7076 0.8861
-15.2621 -6.2503 0.9153
-15.2675 -7.9116 0.9543
-15.2735 -9.7362 1.0052
-14.6103 -11.2669 1.0239
-15.5686 -14.3969 1.1768
-17.0558 -18.8649 1.4114
-15.2757 -20.2759 1.4088
-13.3666 -21.4981 1.4049
-11.2903 -22.4005 1.3921
-7.2407 -18.2632 1.0903
-7.0272 -23.7173 1.3728
-4.8614 -24.1506 1.3672
-2.9379 -26.7874 1.4955
-0.5359 -27.0187 1.4997
1.8825 -27.0143 1.5028
4.2946 -26.7856 1.5055
6.6815 -26.3441 1.5083
9.0334 -25.7176 1.5127
11.3405 -24.9114 1.5190
13.5920 -23.9269 1.5271
15.7915 -22.7871 1.5386
17.9528 -21.5137 1.5550
18.9909 -19.0127 1.4913
20.2045 -16.8998 1.4618
22.4035 -15.5638 1.5139
24.0717 -13.7109 1.5374
25.6203 -11.6989 1.5631
27.0343 -9.5310 1.5908
28.2980 -7.2118 1.6206
29.3946 -4.7478 1.6524
30.3065 -2.1471 1.6861
31.0155 0.5793 1.7216
31.5029 3.4182 1.7586
31.7502 6.3531 1.7970
25.0667 7.3955 1.4504
24.2921 9.5985 1.4496
24.6002 12.3634 1.5280
24.3709 15.1138 1.5915
27.2772 20.5012 1.8937
26.7322 24.1125 1.9979
24.9219 26.8879 2.0346
22.8851 29.6053 2.0767
20.4531 32.0043 2.1079
18.7502 36.0819 2.2567
15.4062 37.4963 2.2497
11.9595 38.6018 2.2427
8.4456 39.4245 2.2376
4.8846 39.9617 2.2343
1.2961 40.2118 2.2328
-2.2998 40.1738 2.2332
-5.5236 37.4108 2.0987
-8.7124 36.2301 2.0680
-11.6697 34.5876 2.0258
-14.3476 32.5818 1.9757
-16.8538 30.5443 1.9360
-7.0443 10.4389 0.6989
-14.5145 17.8383 1.2763
-15.1902 15.5895 1.2080
-15.1986 13.0363 1.1112
-15.2058 10.8454 1.0365
-15.2122 8.9162 0.9786
-15.2179 7.1782 0.9338
-14.5557 5.3354 0.8604
-16.1576 4.3317 0.9284
-6.6489 1.1586 0.3746
-6.4574 0.5380 0.3596
-15.2418 -0.0958 0.8459
-15.2463 -1.4634 0.8500
-15.2509 -2.8556 0.8611
-15.2556 -4.2961 0.8796
-15.2606 -5.8123 0.9063
-15.2660 -7.4368 0.9424
-15.2718 -9.2109 0.9898
-14.6084 -10.6988 1.0049
-15.9397 -14.0234 1.1782
-17.5205 -18.4390 1.4116
-15.7868 -19.9078 1.4100
-13.9090 -21.1811 1.4063
-11.8703 -22.1667 1.3955
-9.7643 -22.9512 1.3842
-7.6250 -23.5735 1.3750
-5.4637 -24.0455 1.3685
-3.6023 -26.7171 1.4961
-1.2034 -26.9540 1.4973
1.2121 -27.0457 1.5024
3.6273 -26.8671 1.5046
6.0231 -26.4859 1.5074
8.3855 -25.9093 1.5113
10.7061 -25.1528 1.5171
12.9741 -24.2176 1.5247
15.1807 -23.1088 1.5344
17.3605 -21.8845 1.5502
18.9760 -19.9638 1.5286
19.7046 -17.3296 1.4563
21.9217 -16.0489 1.5078
23.6206 -14.2407 1.5307
25.2038 -12.2725 1.5557
26.6566 -10.1474 1.5829
27.9637 -7.8696 1.6122
29.1083 -5.4450 1.6434
30.0733 -2.8812 1.6766
30.8403 -0.1884 1.7116
31.3911 2.6208 1.7482
31.7068 5.5309 1.7862
26.6660 7.1539 1.5322
23.9994 8.8016 1.4186
24.6130 11.6149 1.5104
24.5654 14.4040 1.5804
26.8110 19.1298 1.8278
20.2454 17.3712 1.4805
25.4521 26.1303 2.0244
23.4733 28.8590 2.0645
21.2242 31.4641 2.1063
19.3056 35.0022 2.2184
24.8506 20.4591 1.9854
23.3153 22.9813 2.0192
21.5079 25.3695 2.0514
19.5077 27.6865 2.0890
18.3410 31.7092 2.2594
15.4522 33.2539 2.2617
12.4098 34.4687 2.2596
9.2760 35.4136 2.2579
6.0739 36.0822 2.2568
2.8272 36.4700 2.2562
-0.4403 36.5743 2.2560
-3.7048 36.3946 2.2564
-5.3127 27.4980 1.7274
-9.2342 32.0819 2.0591
-6.6534 17.1712 1.1358
-14.2006 28.7295 1.9766
-16.4134 26.8629 1.9417
-5.6013 7.5566 0.5802
-15.1603 17.0333 1.4064
-15.1945 14.2722 1.2858
-15.2023 11.9135 1.1913
-15.2091 9.8625 1.1180
-13.7151 7.2432 0.9566
-14.5532 6.0927 0.9731
-13.6902 4.3413 0.8858
-16.1601 3.5742 1.0208
-6.5370 0.8431 0.4065
-6.5750 0.2556 0.4058
-15.2440 -0.7712 0.9414
-15.2486 -2.1481 0.9498
-15.2532 -3.5611 0.9661
-15.2581 -5.0354 0.9910
-15.2632 -6.6007 1.0257
-15.2688 -8.2933 1.0717
-15.2749 -10.1607 1.1315
-16.2147 -13.0155 1.2824
-15.0350 -14.4567 1.2865
-7.1594 -8.2357 0.6731
-13.5484 -18.7313 1.4258
-11.7990 -19.8278 1.4231
-5.7975 -12.0824 0.8266
-6.8990 -18.4418 1.2144
-6.0090 -21.8334 1.3967
-4.3878 -24.2279 1.5186
-2.2129 -24.5881 1.5227
-0.0088 -24.7627 1.5273
2.2038 -24.6813 1.5283
4.4030 -24.4101 1.5299
6.5767 -23.9625 1.5326
8.7154 -23.3476 1.5371
10.8087 -22.5670 1.5433
12.8604 -21.6464 1.5529
14.8713 -20.5911 1.5666
16.8175 -19.3734 1.5823
18.6877 -17.9944 1.6001
19.0201 -15.2895 1.5052
20.3776 -13.5758 1.5102
22.2120 -12.0849 1.5596
23.5590 -10.2080 1.5836
24.7739 -8.1952 1.6094
25.8423 -6.0526 1.6370
26.7496 -3.7876 1.6663
27.4804 -1.4097 1.6972
28.0193 1.0695 1.7294
28.3509 3.6361 1.7629
28.4601 6.2736 1.7975
24.0567 7.6099 1.5562
23.9594 10.0108 1.6016
24.5900 12.9642 1.7145
24.1129 15.6121 1.7717
25.2274 19.7410 1.9758
23.7684 22.2940 2.0099
22.0357 24.7229 2.0427
20.1479 27.1408 2.0848
19.1093 31.2255 2.2580
16.2763 32.8703 2.2623
13.2634 34.1587 2.2601
10.1526 35.1791 2.2583
6.9671 35.9248 2.2571
3.7304 36.3908 2.2563
0.4662 36.5739 2.2560
-2.8014 36.4729 2.2562
-5.6514 33.7179 2.1087
-8.4917 32.5131 2.0726
-6.3714 17.7363 1.1624
-13.5539 29.2227 1.9868
-15.8189 27.3935 1.9511
-17.8948 25.4357 1.9182
-14.5168 17.1478 1.3857
-15.1922 14.9957 1.3166
-15.2003 12.5322 1.2151
-15.2073 10.4057 1.1365
-13.6793 7.6638 0.9671
-15.2191 6.8196 1.0286
-13.6890 4.7173 0.8930
-16.1587 3.9964 1.0267
-6.5885 1.0163 0.4112
-6.4839 0.4132 0.4007
-15.2428 -0.3927 0.9405
-15.2473 -1.7638 0.9467
-15.2519 -3.1644 0.9607
-15.2567 -4.6190 0.9832
-15.2618 -6.1557 1.0150
-15.2672 -7.8088 1.0577
-15.2732 -9.6223 1.1134
-14.6099 -11.1434 1.1333
-15.6481 -14.3170 1.3081
-15.5802 -17.0500 1.4245
-14.0077 -18.3888 1.4258
-12.2924 -19.5382 1.4237
-10.4456 -20.4538 1.4165
-7.4277 -18.4485 1.2266
-6.5559 -21.7030 1.3983
-4.5749 -22.1195 1.3932
-2.8184 -24.4973 1.5209
-0.6225 -24.7555 1.5273
1.5909 -24.7207 1.5279
3.7956 -24.5044 1.5294
5.9771 -24.1035 1.5317
8.1266 -23.5348 1.5357
10.2335 -22.7999 1.5414
12.2929 -21.9101 1.5495
14.3199 -20.8999 1.5626
16.2851 -19.7273 1.5778
18.1775 -18.3928 1.5950
19.0077 -16.0710 1.5352
19.9488 -14.0162 1.5037
21.8170 -12.5806 1.5533
23.1982 -10.7422 1.5768
24.4511 -8.7665 1.6021
25.5616 -6.6592 1.6292
26.5151 -4.4272 1.6580
27.2964 -2.0796 1.6885
27.8900 0.3728 1.7204
28.2806 2.9168 1.7535
28.4529 5.5364 1.7878
25.5605 7.3939 1.6411
24.4550 9.5131 1.6184
24.6030 12.2016 1.6938
24.5544 15.0477 1.7762
25.5829 19.0161 1.9661
19.9387 17.7938 1.6483
22.5432 24.0641 2.0338
20.7719 26.5788 2.0806
19.2788 29.8167 2.1900
17.0798 32.4451 2.2615
14.1094 33.8280 2.2607
11.0236 34.9235 2.2588
7.8564 35.7460 2.2574
4.6315 36.2899 2.2565
1.3725 36.5516 2.2560
-1.8966 36.5293 2.2561
-4.8135 33.8439 2.1084
-7.7342 32.9304 2.0864
-10.3958 31.3609 2.0378
-7.4411 17.1440 1.1527
-15.2098 27.9142 1.9607
-6.9720 10.4510 0.7749
-14.5139 18.0322 1.4277
-15.1897 15.7554 1.3498
-15.1982 13.1765 1.2406
-15.2054 10.9674 1.1563
-15.2118 9.0248 1.0909
-15.2176 7.2770 1.0404
-14.5554 5.4231 0.9580
-16.1573 4.4238 1.0332
-6.6322 1.1920 0.4156
-6.4190 0.5691 0.3975
-6.9438 -0.0068 0.4283
-15.2460 -1.3817 0.9442
-15.2506 -2.7718 0.9560
-15.2554 -4.2088 0.9761
-15.2603 -5.7196 1.0052
-15.2656 -7.3366 1.0446
-15.2715 -9.1004 1.0965
-14.6080 -10.5798 1.1125
-16.0193 -13.9433 1.3099
-14.6826 -15.2889 1.3074
-14.4584 -18.0351 1.4257
-12.7796 -19.2377 1.4245
-10.9736 -20.2332 1.4197
-9.0551 -20.9744 1.4091
-7.1021 -21.5652 1.4004
-5.1263 -22.0190 1.3944
-3.4211 -24.3943 1.5193
-1.2346 -24.7083 1.5258
0.9775 -24.7472 1.5275
3.1864 -24.5858 1.5291
5.3752 -24.2315 1.5309
7.5345 -23.7091 1.5344
9.6543 -23.0202 1.5396
11.7239 -22.1662 1.5466
13.7637 -21.1963 1.5588
15.7471 -20.0686 1.5733
17.6608 -18.7789 1.5900
18.9946 -16.8849 1.5675
19.5129 -14.4453 1.4974
21.0512 -12.8446 1.5210
22.8276 -11.2658 1.5701
24.1174 -9.3277 1.5949
25.2689 -7.2562 1.6215
26.2674 -5.0580 1.6499
27.0979 -2.7415 1.6799
27.7451 -0.3168 1.7114
28.1935 2.2032 1.7442
28.4279 4.8035 1.7782
27.1887 7.1397 1.7338
24.0701 8.6829 1.5782
24.6157 11.4568 1.6746
24.5684 14.2310 1.7512
25.6834 18.1201 1.9387
24.6115 20.8915 1.9911
23.0299 23.3936 2.0247
21.3791 26.0010 2.0762
19.2827 28.2610 2.1102
17.8683 31.9933 2.2602
14.9475 33.4769 2.2613
11.8882 34.6469 2.2593
8.7412 35.5457 2.2577
5.5299 36.1672 2.2567
2.2780 36.5074 2.2561
-0.9907 36.5640 2.2560
-4.1011 35.0457 2.1763
-5.7311 27.4402 1.7290
-9.6776 31.8135 2.0510
-6.9107 17.0683 1.1358
-14.5862 28.4247 1.9705
-16.7672 26.5361 1.9361
-18.7585 24.5263 1.9045
-15.1870 16.5548 1.3856
-15.1959 13.8490 1.2681
-15.2035 11.5494 1.1776
-15.2101 9.5412 1.1074
-14.2329 7.2449 0.9850
-14.5540 5.8373 0.9672
-14.1320 4.2484 0.9102
-16.1610 3.3202 1.0176
-6.5083 0.7400 0.4040
-6.6617 0.1587 0.4110
-15.2448 -1.0014 0.9423
-15.2493 -2.3828 0.9520
-15.2540 -3.8042 0.9697
-15.2589 -5.2916 0.9961
-15.2641 -6.8755 1.0326
-15.2698 -8.5939 1.0807
-15.1244 -10.3923 1.1318
-16.2161 -13.4228 1.2984
-14.6209 -14.4882 1.2695
-14.8967 -17.6662 1.4253
-13.2604 -18.9264 1.4253
-11.4965 -19.9983 1.4227
-5.5761 -12.0839 0.8208
-7.6464 -21.4165 1.4026
-5.6760 -21.9070 1.3958
-4.0215 -24.2835 1.5181
-1.8441 -24.6372 1.5238
0.3639 -24.7608 1.5273
2.5755 -24.6511 1.5287
4.7709 -24.3465 1.5302
6.9394 -23.8707 1.5332
9.0712 -23.2278 1.5380
11.1558 -22.4194 1.5445
13.2030 -21.4801 1.5551
15.2038 -20.3975 1.5691
17.1379 -19.1526 1.5852
18.9811 -17.7342 1.6022
19.0701 -14.8630 1.4912
20.6344 -13.3030 1.5142
22.4474 -11.7787 1.5635
23.7731 -9.8786 1.5878
24.9643 -7.8435 1.6140
26.0067 -5.6797 1.6418
19.8875 -2.5113 1.2364
27.5849 -0.9991 1.7025
28.0900 1.4959 1.7350
28.3852 4.0756 1.7687
28.4555 6.7231 1.8034
24.0616 8.0117 1.5642
24.6281 10.7283 1.6569
24.5819 13.4365 1.7279
24.4778 16.3763 1.8165
25.0012 20.1778 1.9816
23.4958 22.7124 2.0156
21.7177 25.1170 2.0480
19.7611 27.4741 2.0874
18.6444 31.5215 2.2588
15.7770 33.1056 2.2619
12.7460 34.3494 2.2598
9.6210 35.3240 2.2581
6.4253 36.0230 2.2569
3.1823 36.4415 2.2562
-0.0842 36.5768 2.2560
-3.3501 36.4279 2.2563
-6.1585 33.6315 2.1088
-8.9442 32.2529 2.0644
-6.5176 17.3195 1.1414
-13.9483 28.9246 1.9806
-16.1816 27.0725 1.9453
-5.5185 7.5984 0.5792
-14.8648 17.0323 1.3943
-15.1936 14.5524 1.2976
-15.2015 12.1536 1.2004
-15.2084 10.0738 1.1251
-13.6802 7.3960 0.9592
-15.2200 6.5468 1.0219
-13.6897 4.4883 0.8886
-16.1596 3.7396 1.0230
-6.5572 0.9107 0.4083
-6.5254 0.3174 0.4030
-15.2435 -0.6224 0.9410
-15.2481 -1.9968 0.9485
-15.2527 -3.4047 0.9639
-15.2575 -4.8710 0.9878
-15.2626 -6.4247 1.0214
-15.2682 -8.1015 1.0661
-15.2742 -9.9471 1.1242
-16.2139 -12.7572 1.2725
-15.3300 -14.4557 1.2996
-7.1872 -8.1069 0.6682
-13.7298 -18.5981 1.4258
-11.9935 -19.7154 1.4233
-10.1236 -20.5821 1.4147
-7.1576 -18.5798 1.2280
-6.2241 -21.7835 1.3973
-4.4496 -23.2743 1.4615
-2.4512 -24.5539 1.5219
-0.2499 -24.7614 1.5273
1.9630 -24.6983 1.5281
4.1646 -24.4487 1.5297
6.3415 -24.0194 1.5322
8.4845 -23.4227 1.5365
10.5832 -22.6600 1.5425
12.6379 -21.7515 1.5516
14.6553 -20.7139 1.5650
16.6090 -19.5139 1.5805
18.4881 -18.1524 1.5981
19.0153 -15.5930 1.5167
20.2100 -13.7502 1.5077
22.0578 -12.2810 1.5571
23.4185 -10.4191 1.5809
24.6484 -8.4209 1.6065
25.7335 -6.2920 1.6339
26.6591 -4.0399 1.6630
27.4099 -1.6738 1.6937
27.9704 0.7950 1.7259
28.3253 3.3528 1.7592
28.4594 5.9834 1.7937
24.2053 7.3983 1.5611
24.0727 9.7838 1.6027
24.5951 12.6623 1.7062
24.1118 15.2802 1.7606
25.3696 19.4570 1.9720
23.9407 22.0213 2.0063
22.2375 24.4655 2.0392
20.3950 26.9219 2.0832
19.2757 30.8193 2.2421
16.5953 32.7096 2.2623
13.5967 34.0312 2.2603
10.4955 35.0812 2.2585
7.3170 35.8571 2.2572
4.0847 36.3537 2.2563
0.8224 36.5677 2.2560
-2.4461 36.4976 2.2562
-5.3226 33.7698 2.1086
-8.1959 32.6787 2.0780
-10.8241 31.0791 2.0298
-13.2958 29.4134 1.9909
-15.5813 27.5993 1.9548
-7.1561 10.3851 0.7779
-14.5157 17.4890 1.4018
-15.1912 15.2897 1.3294
-15.1994 12.7822 1.2249
-15.2066 10.6241 1.1441
-13.6787 7.8394 0.9724
-15.2185 6.9981 1.0331
-13.6885 4.8668 0.8961
-16.1582 4.1637 1.0292
-6.6056 1.0849 0.4129
-6.4572 0.4747 0.3993
-15.2423 -0.2442 0.9402
-15.2468 -1.6134 0.9456
-15.2514 -3.0096 0.9588
-15.2562 -4.4571 0.9803
-15.2612 -5.9833 1.0110
-15.2666 -7.6219 1.0524
-15.2725 -9.4153 1.1066
-14.6091 -10.9194 1.1249
-15.7938 -14.1702 1.3087
-15.7438 -16.8956 1.4244
-14.1859 -18.2511 1.4257
-12.4846 -19.4214 1.4240
-10.6535 -20.3685 1.4177
-8.7286 -21.0844 1.4075
-6.7706 -21.6498 1.3991
-4.7918 -22.0814 1.3936
-3.0556 -24.4583 1.5203
-0.8634 -24.7454 1.5272
1.3500 -24.7327 1.5277
3.5564 -24.5379 1.5293
5.7410 -24.1552 1.5313
7.8944 -23.6048 1.5351
10.0064 -22.8880 1.5407
12.0688 -22.0103 1.5482
14.1019 -21.0178 1.5611
16.0743 -19.8629 1.5760
17.9753 -18.5460 1.5930
19.0026 -16.3869 1.5476
19.7783 -14.1861 1.5012
21.6593 -12.7724 1.5509
23.0537 -10.9492 1.5741
24.3213 -8.9882 1.5992
25.4480 -6.8950 1.6262
26.4193 -4.6761 1.6548
27.2201 -2.3405 1.6851
27.8349 0.1011 1.7168
28.2484 2.6357 1.7499
28.4452 5.2480 1.7840
26.6670 7.4334 1.7075
24.0891 9.1017 1.5883
24.6080 11.9070 1.6861
24.5599 14.7241 1.7662
25.7168 18.7296 1.9622
19.9394 17.4486 1.6342
22.7369 23.8020 2.0302
21.0125 26.3536 2.0789
19.2807 29.1921 2.1578
17.3910 32.2700 2.2610
14.4397 33.6925 2.2609
11.3640 34.8173 2.2590
8.2046 35.6698 2.2575
4.9849 36.2443 2.2565
1.7285 36.5368 2.2561
-1.5407 36.5455 2.2561
-4.4835 33.8879 2.1084
-7.4325 33.0905 2.0918
-10.1155 31.5402 2.0429
-7.2092 17.0629 1.1425
-14.9666 28.1160 1.9645
-17.1157 26.2058 1.9305
-19.0750 24.1772 1.8994
-15.1886 16.0645 1.3636
-15.1973 13.4372 1.2512
-15.2047 11.1935 1.1645
-15.2112 9.2258 1.0973
-15.2170 7.4596 1.0453
-14.5548 5.5849 0.9615
-16.1568 4.5932 1.0360
-16.1618 3.0676 1.0146
-6.4817 0.6384 0.4017
-6.7505 0.0592 0.4164
-15.2456 -1.2321 0.9434
-15.2501 -2.6185 0.9544
-15.2548 -4.0492 0.9735
-15.2598 -5.5505 1.0015
-15.2650 -7.1541 1.0398
-15.2708 -8.8996 1.0901
-14.6495 -10.3938 1.1079
-16.1655 -13.7961 1.3108
-14.6224 -14.9324 1.2890
-14.6325 -17.8925 1.4256
-12.9692 -19.1167 1.4248
-11.1800 -20.1434 1.4209
-5.4821 -12.3659 0.8343
-7.3161 -21.5081 1.4012
-5.3425 -21.9763 1.3949
-3.6570 -24.3506 1.5187
-1.4743 -24.6818 1.5250
0.7365 -24.7541 1.5274
2.9467 -24.6142 1.5290
5.1380 -24.2782 1.5306
7.3011 -23.7741 1.5339
9.4256 -23.1033 1.5390
11.5013 -22.2672 1.5458
13.5439 -21.3093 1.5573
15.5342 -20.1993 1.5717
17.4561 -18.9272 1.5881
18.9894 -17.2142 1.5808
19.3397 -14.6107 1.4950
20.8883 -13.0260 1.5183
22.6794 -11.4685 1.5675
23.9834 -9.5453 1.5921
25.1506 -7.4881 1.6185
26.1665 -5.3033 1.6467
19.8888 -2.2079 1.2342
27.6840 -0.5858 1.7079
28.1548 1.9245 1.7406
28.4132 4.5170 1.7745
28.4442 7.1740 1.8093
24.0667 8.4177 1.5726
24.6206 11.1687 1.6675
24.5737 13.9163 1.7418
25.9104 17.9050 1.9426
24.7671 20.6120 1.9874
23.2155 23.1272 2.0211
21.3921 25.5064 2.0532
19.3685 27.8012 2.0898
18.1747 31.8102 2.2597
15.2745 33.3334 2.2615
12.2261 34.5324 2.2595
9.0876 35.4611 2.2579
5.8822 36.1131 2.2568
2.6334 36.4841 2.2561
-0.6346 36.5716 2.2560
-3.8981 36.3750 2.2564
-5.4528 27.4397 1.7255
-9.3913 31.9877 2.0562
-6.7352 17.1120 1.1342
-14.3373 28.6224 1.9745
-16.5389 26.7480 1.9397
-5.6627 7.5552 0.5824
-15.1860 16.8807 1.4005
-15.1950 14.1215 1.2794
-15.2027 11.7841 1.1864
-15.2094 9.7485 1.1142
-13.8944 7.2438 0.9664
-14.5535 6.0023 0.9710
-13.6905 4.2615 0.8844
-16.1604 3.4844 1.0196
-6.5269 0.8066 0.4056
-6.6054 0.2217 0.4076
-15.2443 -0.8523 0.9417
-15.2488 -2.2308 0.9505
-15.2535 -3.6467 0.9673
-15.2584 -5.1255 0.9928
-15.2635 -6.6973 1.0281
-15.2691 -8.3989 1.0748
-15.2753 -10.2785 1.1356
-16.2152 -13.1581 1.2880
-14.8766 -14.4572 1.2795
-7.0567 -8.2052 0.6675
-13.4474 -18.8012 1.4257
-11.6925 -19.8884 1.4230
-5.7190 -12.0829 0.8245
-7.8597 -21.3549 1.4035
-5.8916 -21.8598 1.3964
-4.2587 -24.2481 1.5185
-2.0829 -24.6059 1.5231
0.1227 -24.7626 1.5273
2.3349 -24.6712 1.5285
4.5329 -24.3882 1.5300
6.7048 -23.9306 1.5328
8.8411 -23.3059 1.5374
10.9313 -22.5154 1.5437
12.9814 -21.5882 1.5537
14.9888 -20.5233 1.5675
16.9308 -19.2961 1.5833
18.7962 -17.9074 1.6012
19.0253 -15.1285 1.4992
20.4686 -13.4800 1.5116
22.2954 -11.9773 1.5610
23.6350 -10.0922 1.5851
24.8416 -8.0715 1.6110
25.9009 -5.9214 1.6387
26.7981 -3.6494 1.6681
