ply
format ascii 1.0
element vertex 1928
property float32 x
property float32 y
property float32 z
end_header
24.9542 21.2898 -13.4098
25.5604 26.0928 -14.9324
29.2332 35.7306 -18.8730
-9.3011 44.0513 -18.4057
-13.2190 43.1200 -18.4377
-12.5723 19.8055 -9.5903
-12.9008 16.7957 -8.6580
-13.1009 14.2226 -7.9051
-13.4060 12.1685 -7.4015
-13.5635 10.2612 -6.9529
-13.7939 8.6152 -6.6486
-13.9622 7.0732 -6.3985
-14.1195 5.6318 -6.2144
-14.2692 4.2604 -6.0879
-14.4141 2.9334 -6.0134
-14.5566 1.6282 -5.9880
-14.6990 0.3236 -6.0106
-14.8437 -1.0016 -6.0821
-14.9930 -2.3696 -6.2054
-5.7276 -1.4389 -2.4143
-18.8593 -6.5761 -8.1651
-24.6975 -11.1744 -11.0820
34.7163 -10.8701 -14.8719
35.0707 -7.6242 -14.6722
35.4184 -4.4391 -14.5927
40.8481 9.6867 -17.1623
32.0202 10.6900 -13.8004
32.3970 14.1423 -14.4512
30.2822 16.5817 -14.1141
26.0139 17.4312 -12.8015
25.8032 20.8549 -13.5632
25.3039 24.4930 -14.3969
29.6775 34.3675 -18.5633
-8.1140 44.2134 -18.3768
-11.9541 43.0462 -18.2638
-12.3918 20.7187 -9.8694
-12.8099 17.6284 -8.9085
-13.0250 14.9174 -8.0959
-13.2671 12.7019 -7.5087
-13.5520 10.8308 -7.0922
-13.7411 9.0988 -6.7374
-13.9134 7.5198 -6.4656
-14.0737 6.0520 -6.2629
-14.2253 4.6627 -6.1199
-14.3714 3.3249 -6.0304
-14.5143 2.0155 -5.9905
-14.6565 0.7128 -5.9988
-14.8003 -0.6039 -6.0556
-14.9480 -1.9567 -6.1630
-15.2065 -3.3932 -6.3695
-17.7077 -5.6512 -7.5988
-22.2311 -9.3547 -9.8602
34.7913 -11.9182 -15.0345
34.9662 -8.5810 -14.7187
35.3153 -5.3833 -14.6041
42.5269 8.8976 -17.7619
19.1236 5.8241 -8.1725
32.2812 13.0813 -14.2393
31.9312 16.3966 -14.6743
26.8264 16.9599 -12.9748
26.1756 20.0291 -13.4742
25.1497 23.0808 -13.9549
30.3253 33.2860 -18.4082
-10.9822 44.0570 -18.5621
-15.0149 43.3160 -18.7418
-12.3398 21.9351 -10.2889
-12.7136 18.5112 -9.1805
-13.0168 15.7332 -8.3479
-13.1987 13.3266 -7.6678
-13.4917 11.3833 -7.2165
-13.6118 9.5432 -6.7960
-13.8636 7.9761 -6.5387
-14.0270 6.4790 -6.3166
-14.1809 5.0694 -6.1566
-14.3284 3.7189 -6.0517
-14.4720 2.4033 -5.9973
-14.6142 1.1008 -5.9914
-14.7572 -0.2095 -6.0335
-14.9035 -1.5492 -6.1255
-15.0555 -2.9417 -6.2712
-16.7050 -4.8459 -7.1107
-20.3468 -7.9320 -8.9277
16.0258 -13.8903 -8.6699
34.8610 -9.5445 -14.7761
35.2120 -6.3296 -14.6258
34.8310 9.6039 -14.7707
32.1687 12.0505 -14.0434
32.5606 15.6404 -14.7672
28.2197 16.8078 -13.4278
26.1845 18.9540 -13.2147
25.0046 21.7519 -13.5487
28.5794 29.7416 -16.8624
-9.7557 44.1009 -18.4648
-13.6904 43.1715 -18.5151
-12.1433 22.9958 -10.6312
-12.6110 19.4505 -9.4767
-12.9325 16.5058 -8.5723
-13.1274 13.9792 -7.8397
-13.4291 11.9560 -7.3505
-13.6309 10.1076 -6.9373
-13.8126 8.4433 -6.6182
-13.9796 6.9138 -6.3757
-14.1360 5.4814 -6.1982
-14.2850 4.1159 -6.0775
-14.4295 2.7923 -6.0084
-14.5719 1.4881 -5.9881
-14.7144 0.1823 -6.0159
-14.8595 -1.1463 -6.0928
-15.0095 -2.5204 -6.2220
-5.7117 -1.4935 -2.4135
-19.3194 -6.9456 -8.3929
-25.2381 -11.7127 -11.3746
-5.0465 -20.4017 -8.5918
34.7550 -10.5163 -14.8444
35.1083 -7.2795 -14.6579
35.4693 -4.0994 -14.5968
40.5039 10.0174 -17.0573
32.0591 11.0468 -13.8624
32.4398 14.5340 -14.5319
29.7151 16.6446 -13.9238
26.0333 17.8093 -12.8947
25.3602 20.9032 -13.4354
25.3621 25.0263 -14.5662
29.3457 34.6513 -18.5633
-3.5509 18.3528 -7.6420
-12.3967 43.0302 -18.3067
-12.5016 20.4531 -9.7997
-12.8434 17.3217 -8.8155
-13.0529 14.6622 -8.0252
-13.3642 12.5508 -7.4950
-13.5733 10.6356 -7.0495
-13.7603 8.9224 -6.7044
-13.9312 7.3572 -6.4406
-14.0903 5.8993 -6.2448
-14.2413 4.5167 -6.1078
-14.3869 3.1831 -6.0237
-14.5296 1.8753 -5.9891
-14.6719 0.5722 -6.0026
-14.8159 -0.7474 -6.0646
-14.9642 -2.1054 -6.1778
-5.8275 -1.3593 -2.4463
-17.7649 -5.8583 -7.6472
-23.3466 -10.0895 -10.3975
34.7000 -11.5150 -14.9464
35.0041 -8.2340 -14.7006
35.3526 -5.0415 -14.5988
40.8792 8.9643 -17.1089
34.0331 10.7237 -14.5875
32.3227 13.4617 -14.3141
31.3166 16.4637 -14.4640
26.3927 17.0434 -12.8438
26.1534 20.4141 -13.5633
25.2044 23.5817 -14.1105
30.2564 33.8590 -18.5633
-11.4054 43.9494 -18.5621
-15.5021 43.3692 -18.8284
-12.3237 21.4218 -10.1032
-12.6792 18.0859 -9.0297
-12.9747 15.3787 -8.2256
-13.2239 13.0977 -7.6089
-13.5137 11.1812 -7.1704
-13.6315 9.3628 -6.7606
-13.8818 7.8099 -6.5115
-13.9670 6.2891 -6.2620
-14.1971 4.9217 -6.1428
-14.3440 3.5760 -6.0435
-14.4079 2.2505 -5.9615
-14.5492 0.9553 -5.9607
-14.6917 -0.3499 -6.0078
-14.8376 -1.6867 -6.1049
-14.9896 -3.0787 -6.2558
-17.0525 -5.1250 -7.2793
-21.5356 -8.6349 -9.4853
36.3643 -13.1505 -15.8083
34.8992 -9.1951 -14.7541
35.2494 -5.9869 -14.6167
34.3080 9.8157 -14.5882
32.2090 12.4201 -14.1125
32.6052 16.0496 -14.8567
27.7046 16.8641 -13.2592
26.1681 19.3284 -13.2996
25.0561 22.2236 -13.6918
28.6508 30.3956 -17.0762
25.0439 22.1115 -13.4181
28.6338 30.2400 -16.7265
-10.1346 44.2686 -18.2400
-14.0743 43.2761 -18.2775
-12.2350 22.7628 -10.3794
-12.6400 19.1848 -9.2275
-12.9563 16.2881 -8.3592
-13.1475 13.7959 -7.6542
-13.4467 11.7956 -7.1842
-13.5718 9.9100 -6.7495
-13.8268 8.3131 -6.4798
-13.9928 6.7928 -6.2473
-14.1485 5.3669 -6.0777
-14.2187 3.9839 -5.9307
-14.4084 2.6785 -5.8861
-14.5836 1.3811 -5.8835
-14.6551 0.0739 -5.8861
-14.8716 -1.2572 -5.9943
-15.0221 -2.6362 -6.1257
-5.7178 -1.5401 -2.3783
-19.3185 -7.1061 -8.2674
-26.2389 -12.4124 -11.6582
34.7844 -10.2467 -14.5643
35.1370 -7.0164 -14.3910
35.6104 -3.8506 -14.3859
37.5724 9.5860 -15.5740
32.0891 11.3217 -13.6669
32.4728 14.8363 -14.3392
29.2907 16.6909 -13.5403
26.2605 18.2496 -12.8441
25.0272 20.9396 -13.1062
25.4075 25.4425 -14.4415
29.3407 35.1664 -18.3947
-3.6746 18.2710 -7.4853
-12.7710 43.1350 -18.0681
-12.4825 20.0884 -9.4991
-12.8686 17.0915 -8.5928
-13.0739 14.4701 -7.8326
-13.3824 12.3840 -7.3232
-13.5894 10.4879 -6.8945
-13.7749 8.7887 -6.5627
-13.9447 7.2337 -6.3094
-14.1030 5.7831 -6.1221
-14.2534 4.4055 -5.9919
-14.3321 3.0606 -5.8861
-14.5413 1.7683 -5.8834
-14.6479 0.4634 -5.8861
-14.7466 -0.8526 -5.9327
-14.9767 -2.2196 -6.0809
-5.7698 -1.3907 -2.3838
-18.4233 -6.2260 -7.8107
-23.7441 -10.4691 -10.4224
-5.4572 -20.3726 -8.4709
34.6775 -11.2253 -14.6394
35.0330 -7.9696 -14.4301
35.3811 -4.7805 -14.3396
41.6704 9.4593 -17.1623
32.6115 10.5398 -13.7651
32.3547 13.7549 -14.1205
30.8589 16.5137 -14.0572
26.1840 17.1826 -12.5789
26.2548 20.8056 -13.4546
25.2470 23.9720 -13.9830
30.4694 34.6059 -18.5188
-7.8396 45.1603 -18.4094
-11.7538 43.9604 -18.2765
-15.8776 43.4102 -18.5649
-12.3833 21.1639 -9.8484
-12.7757 17.9416 -8.8463
-12.9967 15.1771 -8.0253
-13.3135 12.9940 -7.4719
-13.5304 11.0285 -7.0109
-13.7216 9.2770 -6.6525
-13.8194 7.6416 -6.3425
-14.0569 6.2056 -6.1715
-14.2093 4.8093 -6.0251
-14.2771 3.4481 -5.8991
-14.4959 2.1552 -5.8861
-14.6304 0.8527 -5.8861
-14.7035 -0.4584 -5.9084
-14.9318 -1.8087 -6.0410
-15.0024 -3.1965 -6.1608
-17.3294 -5.3474 -7.2840
-22.0037 -9.0109 -9.5499
35.9563 -12.7049 -15.3165
34.9283 -8.9287 -14.4797
35.2780 -5.7253 -14.3544
43.4744 8.6603 -17.8041
19.4688 5.7253 -8.1506
32.2402 12.7051 -13.9181
32.5636 16.3276 -14.6308
27.3195 16.9061 -12.9036
26.2660 19.7007 -13.1871
25.0962 22.5909 -13.5619
28.7454 30.9486 -16.9647
-10.5938 44.3107 -18.2985
-14.5320 43.2633 -18.3303
-12.2940 22.3543 -10.2466
-12.6154 18.7523 -9.0774
-12.9156 15.9202 -8.2337
-13.1733 13.5594 -7.5929
-13.4693 11.5881 -7.1364
-13.6644 9.7774 -6.7484
-13.8453 8.1439 -6.4515
-14.0100 6.6354 -6.2262
-14.1647 5.2178 -6.0628
-14.2343 3.8410 -5.9215
-14.4335 2.5398 -5.8861
-14.5989 1.2410 -5.8846
-14.6608 -0.0671 -5.8884
-14.8875 -1.4029 -6.0059
-15.0388 -2.7885 -6.1431
-5.7562 -1.6099 -2.4006
-20.1972 -7.6507 -8.6745
-26.7074 -12.9499 -11.9212
34.8228 -9.8950 -14.5399
35.1745 -6.6727 -14.3794
35.8922 -3.5322 -14.4854
35.7910 9.4991 -14.8727
32.1287 11.6844 -13.7310
32.5164 15.2360 -14.4225
28.7483 16.7501 -13.3634
26.3051 18.6584 -12.9531
25.0249 21.3502 -13.2119
25.4682 25.9986 -14.6175
29.2332 35.7306 -18.5419
-9.3615 44.3371 -18.2001
-13.2391 43.1858 -18.1419
-12.1021 23.4616 -10.6029
-12.5723 19.8055 -9.4220
-12.9008 16.7957 -8.5061
-13.1009 14.2226 -7.7665
-13.4060 12.1685 -7.2717
-13.5635 10.2612 -6.8310
-13.7939 8.6152 -6.5319
-13.9622 7.0732 -6.2863
-14.1195 5.6318 -6.1054
-14.2692 4.2604 -5.9811
-14.3609 2.9226 -5.8861
-14.5566 1.6282 -5.8830
-14.6517 0.3225 -5.8861
-14.8437 -1.0016 -5.9754
-14.9930 -2.3696 -6.0965
-5.7274 -1.4389 -2.3719
-18.8593 -6.5761 -8.0219
-24.6975 -11.1744 -10.8876
34.7163 -10.8701 -14.6110
35.0707 -7.6242 -14.4148
35.4184 -4.4391 -14.3367
39.4800 9.3622 -16.2965
32.0202 10.6900 -13.5583
32.3970 14.1423 -14.1977
30.2822 16.5817 -13.8665
26.0139 17.4312 -12.5769
25.8032 20.8549 -13.3253
25.3039 24.4931 -14.1443
30.2075 34.9812 -18.5633
-8.1140 44.2134 -18.0544
-11.9541 43.0462 -17.9434
-12.4601 20.8329 -9.7497
-12.8099 17.6284 -8.7522
-13.0250 14.9174 -7.9539
-13.3401 12.7718 -7.4176
-13.5520 10.8308 -6.9678
-13.7411 9.0988 -6.6192
-13.9134 7.5198 -6.3521
-14.0737 6.0520 -6.1530
-14.2253 4.6627 -6.0125
-14.2926 3.3067 -5.8921
-14.5143 2.0155 -5.8855
-14.6380 0.7119 -5.8861
-14.7191 -0.6006 -5.9167
-14.9480 -1.9567 -6.0549
-15.2065 -3.3932 -6.2578
-17.7077 -5.6512 -7.4655
-22.2311 -9.3547 -9.6872
-5.8154 -20.3236 -8.4904
34.7913 -11.9182 -14.7707
34.9662 -8.5810 -14.4605
35.3153 -5.3833 -14.3479
42.5269 8.8976 -17.4503
34.7461 10.5820 -14.5882
32.2812 13.0814 -13.9895
31.9312 16.3966 -14.4169
26.8264 16.9599 -12.7472
26.2978 20.1226 -13.2996
25.1497 23.0807 -13.7101
30.4688 33.4434 -18.1708
-11.0278 44.2398 -18.3122
-15.0149 43.3160 -18.4130
-12.3398 21.9351 -10.1084
-12.6666 18.4428 -8.9861
-12.9454 15.6469 -8.1564
-13.1987 13.3266 -7.5333
-13.4917 11.3833 -7.0899
-13.6868 9.5958 -6.7136
-13.8636 7.9762 -6.4240
-14.0270 6.4790 -6.2058
-14.1809 5.0694 -6.0486
-14.2498 3.6985 -5.9129
-14.4573 2.4008 -5.8861
-14.6139 1.1008 -5.8861
-14.6763 -0.2084 -5.8952
-14.9035 -1.5492 -6.0181
-15.0555 -2.9417 -6.1612
-16.7050 -4.8459 -6.9860
-20.3468 -7.9320 -8.7711
34.8610 -9.5445 -14.5169
35.2120 -6.3296 -14.3692
34.8871 9.6194 -14.5349
32.1687 12.0505 -13.7970
32.5606 15.6404 -14.5081
28.2197 16.8078 -13.1922
26.1845 18.9540 -12.9829
25.0046 21.7519 -13.3110
28.5794 29.7416 -16.5665
-9.7843 44.2303 -18.1941
-13.7112 43.2371 -18.2180
-12.2102 23.1225 -10.5022
-12.6110 19.4505 -9.3104
-12.9325 16.5058 -8.4219
-13.1274 13.9792 -7.7021
-13.4291 11.9560 -7.2216
-13.5563 10.0522 -6.7783
-13.8126 8.4433 -6.5021
-13.9796 6.9138 -6.2639
-14.1360 5.4814 -6.0895
-14.2850 4.1159 -5.9708
-14.3883 2.7844 -5.8861
-14.5719 1.4881 -5.8831
-14.6541 0.1816 -5.8861
-14.8595 -1.1463 -5.9859
-15.0095 -2.5204 -6.1128
-5.7115 -1.4934 -2.3711
-19.3194 -6.9456 -8.2457
-25.2381 -11.7127 -11.1751
34.7550 -10.5163 -14.5840
35.1083 -7.2794 -14.4008
35.4693 -4.0994 -14.3407
37.6067 9.3009 -15.5594
32.0591 11.0468 -13.6192
32.4398 14.5340 -14.2770
29.7151 16.6446 -13.6795
26.0333 17.8093 -12.6685
25.3602 20.9032 -13.1997
25.3621 25.0263 -14.3107
29.7446 35.1223 -18.4855
-8.5237 44.0549 -18.0223
-12.4157 43.0964 -18.0132
-12.5016 20.4531 -9.6278
-12.8434 17.3217 -8.6608
-13.0529 14.6622 -7.8844
-13.3642 12.5508 -7.3635
-13.5733 10.6356 -6.9258
-13.7603 8.9224 -6.5868
-13.9312 7.3572 -6.3276
-14.0903 5.8993 -6.1352
-14.2413 4.5167 -6.0006
-14.3092 3.1659 -5.8861
-14.5296 1.8753 -5.8841
-14.6441 0.5711 -5.8861
-14.7346 -0.7432 -5.9255
-14.9642 -2.1054 -6.0694
-5.8273 -1.3593 -2.4033
-17.7649 -5.8583 -7.5130
-23.3466 -10.0894 -10.2151
-5.6093 -20.3411 -8.4747
34.7000 -11.5150 -14.6842
35.0041 -8.2340 -14.4428
35.3526 -5.0415 -14.3427
42.2869 9.2730 -17.3877
34.0332 10.7237 -14.3316
32.3227 13.4617 -14.0630
31.3166 16.4637 -14.2102
26.3927 17.0434 -12.6185
26.2236 20.4689 -13.3611
25.2044 23.5817 -13.8630
30.4062 34.0266 -18.3279
-11.4940 44.2907 -18.3782
-15.5021 43.3692 -18.4981
-12.3237 21.4218 -9.9260
-12.7491 18.1857 -8.9202
-12.9747 15.3787 -8.0813
-13.2239 13.0977 -7.4755
-13.5137 11.1812 -7.0446
-13.7066 9.4144 -6.6786
-13.8818 7.8099 -6.3973
-13.9670 6.2891 -6.1522
-14.1971 4.9217 -6.0350
-14.2653 3.5564 -5.9049
-14.4079 2.2505 -5.8569
-14.5492 0.9553 -5.8561
-14.6917 -0.3499 -5.9024
-14.8376 -1.6868 -5.9978
-14.9896 -3.0787 -6.1461
-17.0525 -5.1250 -7.1516
-21.1349 -8.4742 -9.1455
16.3726 -13.9174 -8.6306
36.3643 -13.1505 -15.5310
34.8992 -9.1950 -14.4952
35.2494 -5.9869 -14.3603
44.5775 8.5399 -18.2297
34.9206 9.9909 -14.5882
32.2090 12.4201 -13.8649
32.6052 16.0496 -14.5961
27.7046 16.8641 -13.0266
26.2304 19.3744 -13.0974
25.0561 22.2236 -13.4516
28.6508 30.3956 -16.7766
25.1144 22.1738 -13.2168
28.6338 30.2400 -16.4293
-10.1346 44.2686 -17.9159
-14.0747 43.2766 -17.9530
-12.2350 22.7628 -10.1950
-12.5707 19.0796 -9.0138
-12.8852 16.1988 -8.1656
-13.1475 13.7959 -7.5182
-13.4467 11.7955 -7.0565
-13.6465 9.9645 -6.6661
-13.8268 8.3131 -6.3647
-13.9928 6.7928 -6.1363
-14.1485 5.3669 -5.9697
-14.2970 4.0058 -5.8574
-14.4413 2.6846 -5.7947
-14.5836 1.3811 -5.7790
-14.7262 0.0742 -5.8096
-14.8673 -1.2569 -5.8861
-15.0221 -2.6362 -6.0168
-5.7176 -1.5400 -2.3360
-19.3185 -7.1061 -8.1205
-26.2388 -12.4124 -11.4511
34.7844 -10.2467 -14.3056
35.1370 -7.0164 -14.1353
35.6104 -3.8506 -14.1303
37.5724 9.5860 -15.2973
32.0891 11.3217 -13.4241
32.4728 14.8364 -14.0844
29.2907 16.6909 -13.2997
26.2605 18.2496 -12.6159
25.0272 20.9396 -12.8733
25.4075 25.4425 -14.1849
29.3407 35.1664 -18.0679
-3.6742 18.2689 -7.3515
-12.7710 43.1350 -17.7471
-12.0907 24.0034 -10.6029
-12.4825 20.0884 -9.3303
-12.8686 17.0915 -8.4401
-13.0739 14.4701 -7.6934
-13.3824 12.3840 -7.1931
-13.5421 10.4514 -6.7484
-13.7749 8.7887 -6.4461
-13.9447 7.2337 -6.1973
-14.1030 5.7831 -6.0133
-14.2534 4.4055 -5.8855
-14.3987 3.0748 -5.8084
-14.5413 1.7683 -5.7789
-14.6836 0.4646 -5.7956
-14.8279 -0.8573 -5.8594
-14.9766 -2.2196 -5.9729
-5.7696 -1.3906 -2.3413
-18.4233 -6.2260 -7.6719
-23.7441 -10.4691 -10.2372
34.6775 -11.2253 -14.3793
35.0330 -7.9696 -14.1737
35.3811 -4.7805 -14.0848
41.9432 9.5212 -16.9677
32.6114 10.5398 -13.5205
32.3547 13.7549 -13.8696
30.8589 16.5137 -13.8075
26.1840 17.1826 -12.3553
26.2549 20.8056 -13.2155
25.2470 23.9720 -13.7345
30.6135 34.7697 -18.2759
-7.8396 45.1603 -18.0823
-11.7538 43.9604 -17.9517
-15.9013 43.4751 -18.2623
-12.4176 21.2225 -9.7002
-12.7757 17.9416 -8.6891
-12.9967 15.1771 -7.8827
-13.3135 12.9940 -7.3392
-13.5304 11.0285 -6.8863
-13.7216 9.2770 -6.5343
-13.8194 7.6416 -6.2298
-14.0569 6.2056 -6.0618
-14.1328 4.7834 -5.8861
-14.3558 3.4671 -5.8263
-14.4990 2.1557 -5.7828
-14.6412 0.8533 -5.7858
-14.7847 -0.4609 -5.8354
-14.8499 -1.7988 -5.9011
-15.0024 -3.1965 -6.0514
-17.3294 -5.3474 -7.1546
-21.5943 -8.8433 -9.2057
-6.0235 -20.3102 -8.3574
16.6554 -13.9482 -8.5704
35.9563 -12.7049 -15.0444
34.9283 -8.9287 -14.2224
35.2780 -5.7253 -14.0994
43.4744 8.6603 -17.4878
19.6251 5.7712 -8.0700
32.2402 12.7051 -13.6708
32.5637 16.3276 -14.3709
27.3195 16.9061 -12.6744
26.2660 19.7007 -12.9528
25.0962 22.5909 -13.3210
28.7454 30.9486 -16.6633
-10.5958 44.3189 -17.9767
-14.5539 43.3287 -18.0318
-12.2940 22.3543 -10.0645
-12.6154 18.7523 -8.9161
-12.9156 15.9202 -8.0875
-13.2460 13.6342 -7.4992
-13.4693 11.5881 -7.0096
-13.6668 9.7792 -6.6297
-13.8453 8.1439 -6.3368
-14.0100 6.6354 -6.1155
-14.0871 5.1892 -5.9225
-14.3127 3.8621 -5.8484
-14.4566 2.5439 -5.7908
-14.5989 1.2410 -5.7801
-14.7417 -0.0675 -5.8157
-14.8545 -1.3998 -5.8861
-15.0388 -2.7885 -6.0340
-5.7560 -1.6099 -2.3579
-20.1972 -7.6507 -8.5204
-26.7074 -12.9499 -11.7094
34.8228 -9.8950 -14.2816
35.1745 -6.6727 -14.1240
35.8922 -3.5322 -14.2280
35.7990 9.5012 -14.6118
32.1287 11.6844 -13.4871
32.5164 15.2360 -14.1662
28.7483 16.7501 -13.1259
26.3051 18.6584 -12.7229
25.0249 21.3502 -12.9772
25.4682 25.9986 -14.3578
29.3070 35.8209 -18.2585
-9.3615 44.3371 -17.8768
-13.2391 43.1858 -17.8196
-12.1607 23.5754 -10.4650
-12.5723 19.8055 -9.2546
-12.9008 16.7957 -8.3550
-13.1009 14.2226 -7.6285
-13.4060 12.1685 -7.1425
-13.5635 10.2612 -6.7096
-13.7939 8.6152 -6.4159
-13.9622 7.0732 -6.1746
-14.1195 5.6318 -5.9970
-14.2692 4.2604 -5.8748
-14.4141 2.9334 -5.8030
-14.5566 1.6282 -5.7784
-14.6990 0.3236 -5.8002
-14.8437 -1.0016 -5.8692
-14.9930 -2.3696 -5.9882
-5.7273 -1.4388 -2.3296
-18.8593 -6.5761 -7.8794
-24.6975 -11.1744 -10.6941
34.7163 -10.8701 -14.3514
35.0707 -7.6242 -14.1587
35.4184 -4.4391 -14.0820
38.7124 9.1802 -15.6957
32.0202 10.6900 -13.3174
32.3970 14.1423 -13.9454
30.2823 16.5817 -13.6202
26.0139 17.4312 -12.3535
25.8032 20.8549 -13.0886
25.3039 24.4931 -13.8930
30.2790 35.0640 -18.2766
-8.1140 44.2134 -17.7337
-11.9541 43.0462 -17.6245
-16.3729 43.4643 -18.3231
-12.4601 20.8330 -9.5765
-12.8099 17.6284 -8.5967
-13.0250 14.9174 -7.8126
-13.3401 12.7718 -7.2858
-13.4778 10.7715 -6.8065
-13.7411 9.0988 -6.5016
-13.9134 7.5198 -6.2393
-14.0737 6.0520 -6.0437
-14.1782 4.6472 -5.8861
-14.3714 3.3249 -5.8193
-14.5143 2.0155 -5.7809
-14.6565 0.7128 -5.7889
-14.8003 -0.6039 -5.8436
-14.8659 -1.9460 -5.9147
-15.2065 -3.3932 -6.1466
-17.7077 -5.6512 -7.3329
-22.2311 -9.3547 -9.5151
34.7913 -11.9182 -14.5083
34.9662 -8.5810 -14.2036
35.3153 -5.3833 -14.0929
42.5269 8.8976 -17.1403
34.9006 10.6290 -14.3928
32.2812 13.0814 -13.7410
31.9312 16.3966 -14.1607
26.8264 16.9599 -12.5207
26.3134 20.1346 -13.0711
25.1497 23.0807 -13.4665
30.4688 33.4434 -17.8480
-11.0602 44.3696 -18.0396
-15.0375 43.3812 -18.1131
-12.2722 21.8149 -9.8744
-12.7136 18.5112 -8.8592
-12.9454 15.6469 -8.0115
-13.1987 13.3266 -7.3995
-13.4917 11.3833 -6.9639
-13.6868 9.5958 -6.5943
-13.8636 7.9762 -6.3098
-14.0270 6.4790 -6.0955
-14.1032 5.0416 -5.9086
-14.3284 3.7189 -5.8399
-14.4720 2.4033 -5.7874
-14.6142 1.1008 -5.7817
-14.7572 -0.2095 -5.8224
-14.8404 -1.5427 -5.8861
-15.0555 -2.9417 -6.0518
-16.7050 -4.8459 -6.8619
-20.6964 -8.0683 -8.7633
-6.3831 -20.2553 -8.3782
34.8610 -9.5445 -14.2589
35.2120 -6.3296 -14.1139
35.6485 9.8293 -14.5882
32.1687 12.0505 -13.5519
32.5606 15.6405 -14.2503
28.2197 16.8078 -12.9578
24.9928 18.0914 -12.1718
25.0753 21.8133 -13.1115
28.5794 29.7416 -16.2722
-9.7843 44.2303 -17.8709
-13.7112 43.2371 -17.8943
-12.2102 23.1225 -10.3156
-12.6110 19.4505 -9.1450
-12.8615 16.4153 -8.2269
-13.1274 13.9792 -7.5653
-13.4291 11.9560 -7.0933
-13.6309 10.1076 -6.6946
-13.8126 8.4433 -6.3866
-13.9796 6.9138 -6.1526
-14.1360 5.4814 -5.9813
-14.2850 4.1159 -5.8648
-14.4295 2.7923 -5.7981
-14.5719 1.4881 -5.7786
-14.7144 0.1823 -5.8053
-14.8595 -1.1463 -5.8795
-15.0095 -2.5204 -6.0042
-5.7114 -1.4934 -2.3289
-19.3194 -6.9456 -8.0992
-25.2381 -11.7127 -10.9765
34.7550 -10.5163 -14.3249
35.1083 -7.2794 -14.1449
35.4693 -4.0994 -14.0859
37.6067 9.3009 -15.2830
32.0591 11.0468 -13.3772
32.4398 14.5340 -14.0233
29.7151 16.6446 -13.4365
26.0333 17.8093 -12.4436
25.3602 20.9032 -12.9652
25.3621 25.0263 -14.0565
29.7445 35.1223 -18.1571
-8.5237 44.0549 -17.7021
-12.4157 43.0964 -17.6932
-12.0038 24.2735 -10.6829
-12.5016 20.4531 -9.4567
-12.8434 17.3217 -8.5070
-13.0529 14.6622 -7.7443
-13.3642 12.5508 -7.2327
-13.4990 10.5773 -6.7655
-13.7603 8.9224 -6.4698
-13.9312 7.3572 -6.2152
-14.0903 5.8993 -6.0262
-14.2222 4.5107 -5.8861
-14.3869 3.1831 -5.8129
-14.5296 1.8753 -5.7795
-14.6719 0.5722 -5.7925
-14.8159 -0.7474 -5.8524
-14.8821 -2.0939 -5.9289
-5.8270 -1.3592 -2.3605
-17.7649 -5.8583 -7.3796
-23.3466 -10.0894 -10.0336
34.7000 -11.5150 -14.4233
35.0041 -8.2340 -14.1861
35.3526 -5.0415 -14.0878
42.4938 9.3183 -17.1623
34.2029 10.7772 -14.1472
32.3227 13.4617 -13.8131
31.3166 16.4637 -13.9578
26.3927 17.0434 -12.3943
26.3616 20.5766 -13.1928
25.2044 23.5817 -13.6167
30.5500 34.1876 -18.0874
-11.5277 44.4207 -18.1046
-15.5253 43.4342 -18.1967
-12.3237 21.4218 -9.7496
-12.7491 18.1857 -8.7617
-12.9747 15.3787 -7.9377
-13.2239 13.0977 -7.3426
-13.5137 11.1812 -6.9195
-13.7066 9.4144 -6.5599
-13.8818 7.8099 -6.2836
-13.9670 6.2891 -6.0429
-14.1192 4.8947 -5.8953
-14.3440 3.5760 -5.8319
-14.4079 2.2505 -5.7529
-14.5492 0.9553 -5.7521
-14.6917 -0.3499 -5.7976
-14.8376 -1.6867 -5.8912
-14.9896 -3.0787 -6.0369
-17.0525 -5.1250 -7.0245
-21.1970 -8.4992 -9.0095
-6.1759 -20.2759 -8.3618
16.5219 -14.0444 -8.5546
36.3643 -13.1505 -15.2551
34.8992 -9.1950 -14.2377
35.2494 -5.9869 -14.1052
44.5776 8.5399 -17.9058
35.5523 10.1717 -14.5882
32.2090 12.4201 -13.6186
32.6052 16.0496 -14.3368
27.7046 16.8641 -12.7952
24.8009 18.3185 -12.1636
25.1266 22.2861 -13.2498
28.6508 30.3956 -16.4785
25.1144 22.1738 -12.9789
28.6338 30.2400 -16.1335
-9.7858 42.7452 -16.9880
-14.0747 43.2766 -17.6298
-12.2350 22.7628 -10.0115
-12.6400 19.1848 -8.9004
-12.8852 16.1988 -8.0186
-13.2200 13.8720 -7.4236
-13.4467 11.7956 -6.9295
-13.6465 9.9645 -6.5461
-13.8268 8.3130 -6.2501
-13.9928 6.7928 -6.0258
-14.1485 5.3669 -5.8622
-14.2970 4.0058 -5.7520
-14.4413 2.6846 -5.6904
-14.5836 1.3811 -5.6750
-14.7262 0.0742 -5.7050
-14.8716 -1.2572 -5.7818
-14.9652 -2.6262 -5.8861
-5.7174 -1.5399 -2.2939
-19.3185 -7.1061 -7.9743
-26.2388 -12.4124 -11.2450
-6.7937 -20.1946 -8.2543
35.1535 -10.3554 -14.1971
35.1989 -7.0287 -13.9053
35.6754 -3.8577 -13.9013
37.5724 9.5860 -15.0219
32.0891 11.3217 -13.1824
32.4728 14.8364 -13.8308
29.2907 16.6909 -13.0603
25.6925 17.8549 -12.1208
25.0272 20.9396 -12.6416
25.4075 25.4425 -13.9296
29.3407 35.1664 -17.7426
-3.6738 18.2668 -7.2183
-12.7710 43.1350 -17.4276
-12.1099 24.0414 -10.4285
-12.4825 20.0884 -9.1623
-12.7980 16.9977 -8.2427
-13.0739 14.4701 -7.5549
-13.3824 12.3840 -7.0636
-13.5894 10.4879 -6.6501
-13.7749 8.7887 -6.3301
-13.9447 7.2337 -6.0858
-14.0579 5.7646 -5.8861
-14.2534 4.4055 -5.7795
-14.3987 3.0748 -5.7038
-14.5413 1.7683 -5.6748
-14.6836 0.4646 -5.6913
-14.8279 -0.8573 -5.7540
-14.9766 -2.2196 -5.8654
-5.7694 -1.3906 -2.2991
-18.4233 -6.2260 -7.5338
-23.7441 -10.4691 -10.0530
34.8658 -11.2863 -14.1971
35.0330 -7.9696 -13.9186
35.4422 -4.7888 -13.8552
41.9432 9.5212 -16.6623
32.2526 10.4239 -13.1311
32.3547 13.7549 -13.6200
30.8589 16.5137 -13.5589
26.1840 17.1826 -12.1330
26.2549 20.8056 -12.9776
25.2470 23.9719 -13.4873
28.9800 32.9143 -16.9892
-7.8396 45.1603 -17.7568
-11.7538 43.9604 -17.6286
-15.9013 43.4751 -17.9335
-12.4176 21.2225 -9.5256
-12.7757 17.9416 -8.5327
-12.9967 15.1771 -7.7408
-13.3135 12.9940 -7.2071
-13.5025 11.0058 -6.7484
-13.7216 9.2770 -6.4167
-13.8194 7.6416 -6.1176
-13.9799 6.1716 -5.9201
-14.2093 4.8093 -5.8115
-14.3558 3.4671 -5.7214
-14.4990 2.1557 -5.6787
-14.6412 0.8533 -5.6817
-14.7847 -0.4609 -5.7304
-14.9318 -1.8087 -5.8269
-15.0024 -3.1965 -5.9424
-17.3294 -5.3474 -7.0258
-21.5943 -8.8433 -9.0400
-7.9551 -20.0513 -8.3569
16.8178 -14.0843 -8.4982
35.9563 -12.7049 -14.7735
34.9283 -8.9287 -13.9664
35.3394 -5.7353 -13.8697
43.4842 8.6623 -17.1768
35.8076 10.5300 -14.4593
32.2402 12.7051 -13.4247
32.5637 16.3276 -14.1122
27.3195 16.9061 -12.4462
24.7466 18.5611 -11.9838
25.1666 22.6543 -13.1179
28.7454 30.9486 -16.3634
-10.2312 42.7938 -17.0456
-14.5539 43.3287 -17.7072
-12.2506 22.2753 -9.8484
-12.6154 18.7523 -8.7556
-12.9156 15.9202 -7.9419
-13.2460 13.6342 -7.3642
-13.4693 11.5881 -6.8834
-13.6668 9.7792 -6.5103
-13.8453 8.1439 -6.2228
-14.0100 6.6354 -6.0055
-14.1647 5.2178 -5.8479
-14.3127 3.8621 -5.7431
-14.4566 2.5439 -5.6866
-14.5989 1.2410 -5.6760
-14.7417 -0.0675 -5.7110
-14.8875 -1.4029 -5.7930
-14.9562 -2.7732 -5.8928
-5.7558 -1.6098 -2.3154
-20.1972 -7.6507 -8.3670
-26.7074 -12.9499 -11.4986
-6.5932 -20.2409 -8.2469
35.2515 -10.0169 -14.1971
35.2363 -6.6845 -13.8941
35.8922 -3.5322 -13.9719
36.3965 9.6598 -14.5882
32.1287 11.6844 -13.2443
32.5164 15.2360 -13.9112
28.7483 16.7501 -12.8897
25.2540 17.9128 -11.9946
25.0249 21.3502 -12.7436
25.4682 25.9987 -14.0993
29.3070 35.8209 -17.9298
-9.0703 42.9580 -17.0089
-13.2391 43.1858 -17.4988
-12.1607 23.5754 -10.2766
-12.5723 19.8055 -9.0880
-12.8301 16.7036 -8.1596
-13.1214 14.2449 -7.5029
-13.4060 12.1685 -7.0139
-13.5635 10.2612 -6.5888
-13.7939 8.6152 -6.3004
-13.9622 7.0732 -6.0635
-14.1127 5.6291 -5.8861
-14.2692 4.2604 -5.7691
-14.4141 2.9334 -5.6985
-14.5566 1.6282 -5.6744
-14.6990 0.3236 -5.6958
-14.8437 -1.0016 -5.7635
-14.9930 -2.3696 -5.8804
-5.7271 -1.4388 -2.2876
-18.8593 -6.5761 -7.7376
-24.6975 -11.1744 -10.5016
34.9728 -10.9504 -14.1971
35.0928 -7.6285 -13.9125
35.4794 -4.4467 -13.8523
38.7124 9.1802 -15.4132
32.0202 10.6900 -13.0777
32.3970 14.1423 -13.6944
30.2822 16.5817 -13.3750
26.0139 17.4312 -12.1311
25.8032 20.8549 -12.8529
25.3039 24.4931 -13.6429
28.9985 33.5811 -17.1886
-8.1140 44.2134 -17.4144
-11.9542 43.0462 -17.3073
-16.3973 43.5290 -18.0200
-11.9505 24.7621 -10.6516
-12.4601 20.8329 -9.4041
-12.8099 17.6284 -8.4419
-13.0250 14.9174 -7.6719
-13.3401 12.7718 -7.1546
-13.5520 10.8308 -6.7208
-13.7411 9.0988 -6.3846
-13.9134 7.5198 -6.1270
-13.9965 6.0188 -5.9024
-14.2253 4.6627 -5.7994
-14.3714 3.3249 -5.7146
-14.5143 2.0155 -5.6768
-14.6565 0.7128 -5.6847
-14.8003 -0.6039 -5.7384
-14.9480 -1.9567 -5.8403
-15.2065 -3.3932 -6.0359
-17.7077 -5.6512 -7.2009
-22.2311 -9.3547 -9.3438
-7.7644 -20.1333 -8.3596
17.0300 -13.9855 -8.5370
34.7913 -11.9182 -14.2471
34.9662 -8.5810 -13.9479
35.3766 -5.3927 -13.8633
43.3621 9.0724 -17.1623
32.4753 9.8904 -13.1515
32.2812 13.0814 -13.4936
31.9312 16.3966 -13.9058
26.8264 16.9599 -12.2953
24.6927 18.8944 -12.0452
25.2199 23.1452 -13.2611
29.3724 32.2401 -16.8961
-10.6796 42.8428 -17.1053
-15.0375 43.3812 -17.7870
-12.3398 21.9351 -9.7501
-12.7136 18.5112 -8.6997
-12.9454 15.6469 -7.8673
-13.1987 13.3266 -7.2663
-13.4178 11.3210 -6.8011
-13.6868 9.5958 -6.4756
-13.8636 7.9762 -6.1962
-14.0270 6.4790 -5.9858
-14.1809 5.0694 -5.8342
-14.3284 3.7189 -5.7348
-14.4720 2.4033 -5.6833
-14.6142 1.1008 -5.6776
-14.7572 -0.2095 -5.7176
-14.9035 -1.5492 -5.8047
-14.9728 -2.9255 -5.9102
-16.7050 -4.8459 -6.7383
-20.7279 -8.0805 -8.6186
35.3462 -9.6773 -14.1971
35.2736 -6.3406 -13.8841
36.3019 10.0095 -14.5882
32.1687 12.0505 -13.3079
32.5606 15.6404 -13.9938
28.2197 16.8078 -12.7246
24.9928 18.0914 -11.9527
25.0753 21.8134 -12.8754
28.7365 29.9051 -16.0671
-9.4682 42.8017 -16.9823
-13.7112 43.2371 -17.5722
-12.2102 23.1225 -10.1299
-12.6110 19.4505 -8.9804
-12.8615 16.4153 -8.0788
-13.1999 14.0564 -7.4701
-13.4291 11.9560 -6.9656
-13.6309 10.1076 -6.5740
-13.8126 8.4433 -6.2716
-13.9796 6.9138 -6.0419
-14.1360 5.4814 -5.8736
-14.2850 4.1159 -5.7592
-14.4295 2.7923 -5.6937
-14.5719 1.4881 -5.6745
-14.7144 0.1823 -5.7008
-14.8595 -1.1463 -5.7737
-14.9841 -2.5161 -5.8861
-5.7112 -1.4933 -2.2869
-19.3194 -6.9456 -7.9534
-25.2381 -11.7127 -10.7789
-6.9605 -20.1978 -8.2763
35.0765 -10.6136 -14.1971
35.1644 -7.2910 -13.9125
35.5353 -4.1070 -13.8581
37.6067 9.3009 -15.0079
32.0591 11.0468 -13.1364
32.4398 14.5340 -13.7709
29.7151 16.6446 -13.1946
26.0333 17.8094 -12.2196
25.3603 20.9032 -12.7318
25.3621 25.0263 -13.8034
29.7446 35.1223 -17.8302
-8.5237 44.0549 -17.3834
-12.4157 43.0964 -17.3747
-12.0699 24.4072 -10.5484
-12.5016 20.4531 -9.2865
-12.8434 17.3217 -8.3538
-13.0529 14.6622 -7.6049
-13.3642 12.5508 -7.1025
-13.5733 10.6356 -6.6803
-13.7603 8.9224 -6.3533
-13.9312 7.3572 -6.1033
-14.0151 5.8678 -5.8861
-14.2413 4.5167 -5.7879
-14.3869 3.1831 -5.7083
-14.5296 1.8753 -5.6755
-14.6719 0.5722 -5.6882
-14.8159 -0.7474 -5.7470
-14.9642 -2.1054 -5.8543
-5.8268 -1.3591 -2.3179
-17.7649 -5.8583 -7.2467
-23.3466 -10.0894 -9.8530
34.7820 -11.5422 -14.1971
35.0041 -8.2340 -13.9308
35.4138 -5.0502 -13.8582
43.2728 9.4891 -17.1623
32.4232 10.2164 -13.1696
32.3227 13.4617 -13.5645
31.3166 16.4637 -13.7065
26.3927 17.0434 -12.1711
24.7380 19.3093 -12.1574
25.2044 23.5817 -13.3716
29.0660 32.5268 -16.8990
-11.1310 42.8921 -17.1669
-15.5253 43.4342 -17.8691
-12.3237 21.4218 -9.5741
-12.7491 18.1857 -8.6040
-12.9747 15.3787 -7.7948
-13.2239 13.0977 -7.2105
-13.4397 11.1200 -6.7577
-13.7066 9.4144 -6.4418
-13.8818 7.8099 -6.1705
-13.9670 6.2891 -5.9341
-14.1971 4.9217 -5.8211
-14.3440 3.5760 -5.7270
-14.4079 2.2505 -5.6493
-14.5492 0.9553 -5.6485
-14.6917 -0.3499 -5.6932
-14.8376 -1.6868 -5.7851
-14.9896 -3.0787 -5.9282
-17.0525 -5.1250 -6.8981
-21.1348 -8.4742 -8.8213
36.3643 -13.1505 -14.9805
34.8992 -9.1950 -13.9814
35.3109 -5.9974 -13.8754
44.5776 8.5399 -17.5835
19.9012 5.6938 -8.0191
32.2090 12.4201 -13.3734
32.6052 16.0496 -14.0787
27.7046 16.8641 -12.5648
24.8009 18.3185 -11.9446
25.1266 22.2861 -13.0113
28.6508 30.3956 -16.1819
25.1144 22.1738 -12.7421
29.0458 30.6752 -16.0671
-9.7859 42.7452 -16.6781
-14.0746 43.2766 -17.3082
-12.2350 22.7628 -9.8288
-12.6400 19.1848 -8.7380
-12.8852 16.1988 -7.8723
-13.2200 13.8720 -7.2882
-13.3730 11.7310 -6.7658
-13.6465 9.9645 -6.4266
-13.8268 8.3131 -6.1361
-13.9224 6.7587 -5.8861
-14.1485 5.3669 -5.7553
-14.2970 4.0058 -5.6471
-14.4413 2.6846 -5.5866
-14.5836 1.3811 -5.5715
-14.7262 0.0742 -5.6010
-14.8716 -1.2572 -5.6764
-15.0221 -2.6362 -5.8007
-5.7172 -1.5399 -2.2519
-19.3185 -7.1061 -7.8288
-26.2388 -12.4124 -11.0398
35.8068 -10.5479 -14.1971
35.1989 -7.0288 -13.6516
35.6754 -3.8577 -13.6477
37.5724 9.5860 -14.7478
32.0891 11.3217 -12.9419
32.4728 14.8364 -13.5785
29.2907 16.6909 -12.8220
25.6925 17.8549 -11.8997
25.0272 20.9396 -12.4109
25.4075 25.4425 -13.6754
29.3407 35.1664 -17.4189
-3.6733 18.2647 -7.0858
-12.7515 43.0690 -17.0835
-12.1099 24.0414 -10.2383
-12.4699 20.0682 -8.9861
-12.7980 16.9977 -8.0924
-13.1460 14.5500 -7.4580
-13.3824 12.3840 -6.9347
-13.5894 10.4879 -6.5288
-13.7749 8.7887 -6.2146
-13.9447 7.2337 -5.9748
-14.1030 5.7831 -5.7973
-14.2534 4.4055 -5.6741
-14.3987 3.0748 -5.5998
-14.5413 1.7683 -5.5713
-14.6836 0.4646 -5.5875
-14.8279 -0.8573 -5.6490
-14.9766 -2.2196 -5.7584
-5.7691 -1.3905 -2.2570
-18.4233 -6.2260 -7.3963
-23.7441 -10.4691 -9.8696
-7.3776 -20.1420 -8.1584
35.5138 -11.4960 -14.1971
35.0951 -7.9837 -13.6889
35.4422 -4.7888 -13.6024
39.8797 9.0528 -15.5535
32.2526 10.4239 -12.8915
32.3547 13.7549 -13.3715
30.8589 16.5137 -13.3115
26.1840 17.1826 -11.9116
24.7731 19.6314 -12.0218
25.3170 24.0384 -13.2779
28.9800 32.9143 -16.6793
-7.8396 45.1603 -17.4329
-11.4783 42.9300 -16.9013
-15.9013 43.4751 -17.6064
-11.8955 25.2660 -10.6213
-12.4176 21.2225 -9.3518
-12.7757 17.9416 -8.3770
-12.9967 15.1771 -7.5996
-13.3135 12.9940 -7.0756
-13.5304 11.0285 -6.6390
-13.7216 9.2770 -6.2996
-13.8194 7.6416 -6.0060
-14.0569 6.2056 -5.8441
-14.2093 4.8093 -5.7054
-14.3558 3.4671 -5.6170
-14.4990 2.1557 -5.5751
-14.6412 0.8533 -5.5780
-14.7847 -0.4609 -5.6258
-14.9318 -1.8087 -5.7206
-15.0024 -3.1965 -5.8340
-17.3294 -5.3474 -6.8976
-21.5943 -8.8433 -8.8751
-7.9552 -20.0513 -8.2045
35.9563 -12.7049 -14.5040
34.9907 -8.9446 -13.7361
35.3394 -5.7353 -13.6166
44.2547 8.8158 -17.1623
33.2464 9.7769 -13.1801
32.2402 12.7051 -13.1798
32.5637 16.3276 -13.8547
27.3195 16.9061 -12.2192
24.7466 18.5611 -11.7652
25.1666 22.6543 -12.8785
28.7495 30.9531 -16.0671
-10.2312 42.7938 -16.7347
-14.5539 43.3287 -17.3842
-12.2940 22.3543 -9.7030
-12.6154 18.7523 -8.5959
-12.9156 15.9202 -7.7970
-13.2460 13.6342 -7.2298
-13.4506 11.5719 -6.7484
-13.6668 9.7792 -6.3916
-13.8453 8.1439 -6.1092
-13.9868 6.6244 -5.8861
-14.1647 5.2178 -5.7412
-14.3127 3.8621 -5.6383
-14.4566 2.5439 -5.5828
-14.5989 1.2410 -5.5725
-14.7417 -0.0675 -5.6068
-14.8875 -1.4029 -5.6873
-15.0388 -2.7885 -5.8172
-5.7556 -1.6098 -2.2730
-20.1972 -7.6507 -8.2144
-26.7074 -12.9499 -11.2889
35.9066 -10.2030 -14.1971
35.2363 -6.6844 -13.6406
36.0029 -3.5431 -13.7593
20.8290 5.5281 -8.1962
32.1287 11.6844 -13.0026
32.5164 15.2360 -13.6574
28.7482 16.7501 -12.6545
25.2539 17.9128 -11.7758
25.0249 21.3502 -12.5111
25.4682 25.9987 -13.8421
29.3070 35.8209 -17.6027
-9.0703 42.9580 -16.6986
-13.2189 43.1200 -17.1533
-12.1607 23.5754 -10.0891
-12.5723 19.8055 -8.9222
-12.8301 16.7036 -8.0107
-13.1732 14.3011 -7.3951
-13.4059 12.1685 -6.8860
-13.5635 10.2612 -6.4686
-13.7939 8.6152 -6.1855
-13.8857 7.0344 -5.9202
-14.1195 5.6318 -5.7816
-14.2692 4.2604 -5.6638
-14.4141 2.9334 -5.5946
-14.5566 1.6282 -5.5709
-14.6990 0.3236 -5.5919
-14.8437 -1.0016 -5.6584
-14.9930 -2.3696 -5.7731
-5.7270 -1.4388 -2.2459
-18.8593 -6.5761 -7.5964
-24.6975 -11.1744 -10.3100
-7.1655 -20.1612 -8.1379
35.6227 -11.1539 -14.1971
35.1327 -7.6376 -13.6743
35.4794 -4.4467 -13.5996
38.7124 9.1802 -15.1320
32.0202 10.6900 -12.8391
32.3970 14.1423 -13.4445
30.2823 16.5817 -13.1310
26.0139 17.4312 -11.9098
24.8199 20.0601 -12.1376
25.3039 24.4930 -13.3940
28.9985 33.5811 -16.8750
-8.1140 44.2134 -17.0967
-11.9357 42.9799 -16.9654
-16.3973 43.5290 -17.6912
-12.0163 24.8985 -10.5149
-12.4601 20.8329 -9.2325
-12.7397 17.5317 -8.2425
-13.0250 14.9174 -7.5320
-13.3401 12.7718 -7.0241
-13.5520 10.8308 -6.5981
-13.7411 9.0988 -6.2681
-13.9134 7.5198 -6.0152
-14.0737 6.0520 -5.8266
-14.2253 4.6627 -5.6936
-14.3714 3.3249 -5.6103
-14.5143 2.0155 -5.5733
-14.6565 0.7128 -5.5810
-14.8003 -0.6039 -5.6337
-14.9480 -1.9567 -5.7337
-15.2065 -3.3932 -5.9258
-17.7077 -5.6512 -7.0695
-22.2311 -9.3547 -9.1733
-7.7644 -20.1333 -8.2071
17.1157 -14.0559 -8.4235
35.3135 -12.0970 -14.1971
35.0286 -8.5963 -13.7179
35.3766 -5.3927 -13.6104
44.1679 9.2409 -17.1623
32.4753 9.8904 -12.9116
32.2812 13.0814 -13.2474
31.9312 16.3966 -13.6521
26.8264 16.9599 -12.0710
24.6927 18.8944 -11.8255
25.2199 23.1452 -13.0191
29.3725 32.2401 -16.5878
-10.6796 42.8428 -16.7932
-15.0375 43.3812 -17.4625
-12.3398 21.9351 -9.5722
-12.7136 18.5112 -8.5410
-12.9454 15.6469 -7.7238
-13.1987 13.3266 -7.1337
-13.4917 11.3833 -6.7138
-13.6868 9.5958 -6.3575
-13.8636 7.9762 -6.0832
-14.0270 6.4790 -5.8766
-14.1809 5.0694 -5.7278
-14.3284 3.7189 -5.6301
-14.4720 2.4033 -5.5796
-14.6142 1.1008 -5.5740
-14.7572 -0.2095 -5.6132
-14.9035 -1.5492 -5.6988
-15.0555 -2.9417 -5.8344
-16.7050 -4.8459 -6.6154
-20.7279 -8.0805 -8.4614
36.0031 -9.8571 -14.1971
35.2736 -6.3407 -13.6308
20.7947 5.7337 -8.2041
32.1687 12.0505 -13.0651
32.5606 15.6405 -13.7385
28.2197 16.8078 -12.4924
24.9928 18.0914 -11.7346
25.0753 21.8133 -12.6405
29.2705 30.4608 -16.0671
-9.4682 42.8017 -16.6725
-13.6904 43.1715 -17.2254
-12.1433 22.9958 -9.8906
-12.6110 19.4505 -8.8165
-12.8615 16.4153 -7.9314
-13.1999 14.0564 -7.3338
-13.3556 11.8905 -6.8010
-13.6309 10.1076 -6.4541
-13.8126 8.4433 -6.1572
-13.9030 6.8759 -5.8991
-14.1360 5.4814 -5.7664
-14.2850 4.1159 -5.6541
-14.4295 2.7923 -5.5899
-14.5719 1.4881 -5.5710
-14.7144 0.1823 -5.5968
-14.8595 -1.1463 -5.6684
-15.0095 -2.5204 -5.7885
-5.7111 -1.4933 -2.2451
-19.3194 -6.9456 -7.8083
-25.2381 -11.7127 -10.5823
-6.9718 -20.2306 -8.1385
35.7283 -10.8108 -14.1971
35.1702 -7.2923 -13.6610
35.5353 -4.1070 -13.6053
37.6067 9.3009 -14.7341
32.0591 11.0468 -12.8967
32.4398 14.5340 -13.5197
29.7151 16.6446 -12.9539
26.0333 17.8093 -11.9965
25.3603 20.9032 -12.4996
25.3621 25.0263 -13.5516
29.0812 34.3391 -17.1146
-8.5237 44.0549 -17.0663
-12.3967 43.0302 -17.0315
-12.0699 24.4072 -10.3559
-12.5016 20.4531 -9.1171
-12.7730 17.2267 -8.1564
-13.1171 14.7343 -7.5029
-13.3642 12.5508 -6.9729
-13.5733 10.6356 -6.5584
-13.7603 8.9224 -6.2374
-13.9312 7.3572 -5.9920
-14.0903 5.8993 -5.8098
-14.2413 4.5167 -5.6823
-14.3869 3.1831 -5.6041
-14.5296 1.8753 -5.5720
-14.6719 0.5722 -5.5845
-14.8159 -0.7474 -5.6422
-14.9642 -2.1054 -5.7475
-5.8266 -1.3591 -2.2755
-17.7649 -5.8583 -7.1145
-23.3466 -10.0894 -9.6732
35.4283 -11.7567 -14.1971
35.0663 -8.2487 -13.7009
35.4138 -5.0502 -13.6054
43.9607 9.6400 -17.1171
32.4232 10.2164 -12.9293
32.3227 13.4617 -13.3170
31.3166 16.4637 -13.4564
26.3927 17.0434 -11.9491
24.7380 19.3093 -11.9356
25.2745 23.6473 -13.1641
29.0660 32.5268 -16.5907
-11.1310 42.8921 -16.8537
-15.5253 43.4342 -17.5431
-12.3237 21.4218 -9.3995
-12.7491 18.1857 -8.4470
-12.9747 15.3787 -7.6526
-13.2239 13.0977 -7.0789
-13.5137 11.1812 -6.6709
-13.7066 9.4144 -6.3243
-13.8818 7.8099 -6.0579
-13.9670 6.2891 -5.8258
-14.1971 4.9217 -5.7149
-14.3440 3.5760 -5.6225
-14.4079 2.2505 -5.5462
-14.5492 0.9553 -5.5455
-14.6917 -0.3499 -5.5893
-14.8376 -1.6868 -5.6796
-14.9896 -3.0787 -5.8200
-17.0525 -5.1250 -6.7722
-21.3860 -8.5749 -8.7633
36.3643 -13.1505 -14.7072
34.9617 -9.2115 -13.7509
35.3109 -5.9974 -13.6223
44.5876 8.5418 -17.2666
20.1152 5.7550 -7.9575
32.2090 12.4201 -13.1294
32.6052 16.0496 -13.8218
27.7046 16.8641 -12.3356
24.8009 18.3185 -11.7267
25.1266 22.2861 -12.7739
28.9762 30.7409 -16.0671
25.1144 22.1738 -12.5064
29.5932 31.2532 -16.0671
-9.7858 42.7452 -16.3696
-14.0533 43.2111 -16.9623
-12.2350 22.7628 -9.6470
-12.6400 19.1848 -8.5764
-12.8852 16.1988 -7.7267
-13.2200 13.8720 -7.1534
-13.4467 11.7956 -6.6772
-13.6465 9.9645 -6.3078
-13.8268 8.3131 -6.0226
-13.9928 6.7928 -5.8065
-14.1485 5.3669 -5.6488
-14.2970 4.0058 -5.5426
-14.4413 2.6846 -5.4833
-14.5836 1.3811 -5.4684
-14.7262 0.0742 -5.4974
-14.8716 -1.2572 -5.5714
-15.0221 -2.6362 -5.6935
-5.7170 -1.5398 -2.2102
-19.3185 -7.1061 -7.6841
-26.2388 -12.4124 -10.8356
36.1011 -10.6346 -14.0491
35.1989 -7.0287 -13.3991
35.6754 -3.8577 -13.3952
37.8662 9.6610 -14.5882
32.0891 11.3217 -12.7026
32.4728 14.8364 -13.3274
29.2907 16.6909 -12.5849
25.6925 17.8549 -11.6796
24.9048 20.8372 -12.1218
25.4075 25.4425 -13.4225
29.1461 34.9332 -16.9834
-3.6729 18.2626 -6.9539
-12.7515 43.0690 -16.7675
-12.1099 24.0414 -10.0489
-12.4825 20.0884 -8.8288
-12.7980 16.9977 -7.9427
-13.1460 14.5500 -7.3201
-13.3092 12.3162 -6.7692
-13.5894 10.4879 -6.4080
-13.7749 8.7887 -6.0996
-13.9447 7.2337 -5.8642
-14.1030 5.7831 -5.6901
-14.2534 4.4055 -5.5692
-14.3987 3.0748 -5.4962
-14.5413 1.7683 -5.4683
-14.6836 0.4646 -5.4841
-14.8279 -0.8573 -5.5445
-14.9767 -2.2196 -5.6518
-5.7689 -1.3904 -2.2152
-18.4233 -6.2260 -7.2595
-23.7441 -10.4691 -9.6870
-7.3963 -20.1930 -8.0278
35.9902 -11.6503 -14.1215
35.0951 -7.9837 -13.4357
35.4422 -4.7888 -13.3508
39.8797 9.0528 -15.2658
32.2526 10.4239 -12.6531
32.3547 13.7549 -13.1242
30.8589 16.5137 -13.0654
26.1840 17.1826 -11.6912
24.7731 19.6314 -11.7995
25.3170 24.0384 -13.0324
28.9800 32.9143 -16.3708
-7.8396 45.1603 -17.1105
-11.4783 42.9300 -16.5887
-15.9013 43.4751 -17.2807
-11.9610 25.4052 -10.4823
-12.4176 21.2225 -9.1789
-12.7057 17.8432 -8.1770
-13.0684 15.2608 -7.5002
-13.3135 12.9940 -6.9447
-13.5304 11.0285 -6.5162
-13.7216 9.2770 -6.1831
-13.8194 7.6416 -5.8949
-14.0569 6.2056 -5.7360
-14.2093 4.8093 -5.5999
-14.3558 3.4671 -5.5131
-14.4990 2.1557 -5.4720
-14.6412 0.8533 -5.4748
-14.7847 -0.4609 -5.5218
-14.9318 -1.8087 -5.6148
-15.0024 -3.1965 -5.7261
-17.3294 -5.3474 -6.7701
-21.7242 -8.8964 -8.7633
-7.9831 -20.1218 -8.0810
35.9563 -12.7049 -14.2358
34.9907 -8.9446 -13.4820
35.3394 -5.7353 -13.3648
45.0886 8.9819 -17.1623
33.2464 9.7769 -12.9364
32.2402 12.7051 -12.9360
32.5637 16.3276 -13.5985
27.3195 16.9061 -11.9932
24.7466 18.5611 -11.5476
25.1666 22.6543 -12.6403
29.2912 31.5363 -16.0671
-10.2312 42.7938 -16.4251
-14.5320 43.2633 -17.0369
-12.2940 22.3543 -9.5236
-12.6154 18.7523 -8.4369
-12.9156 15.9202 -7.6528
-13.2460 13.6342 -7.0961
-13.4693 11.5881 -6.6328
-13.6668 9.7792 -6.2734
-13.8453 8.1439 -5.9963
-14.0100 6.6354 -5.7868
-14.1647 5.2178 -5.6350
-14.3127 3.8621 -5.5340
-14.4566 2.5439 -5.4796
-14.5989 1.2410 -5.4694
-14.7417 -0.0675 -5.5031
-14.8875 -1.4029 -5.5821
-15.0388 -2.7885 -5.7097
-5.7554 -1.6097 -2.2309
-20.1972 -7.6507 -8.0624
-26.7074 -12.9499 -11.0801
36.1409 -10.2696 -14.0255
35.2363 -6.6845 -13.3883
36.0029 -3.5431 -13.5048
20.8290 5.5281 -8.0446
32.1287 11.6843 -12.7621
32.5164 15.2360 -13.4048
28.7483 16.7501 -12.4204
25.2539 17.9128 -11.5580
25.0249 21.3502 -12.2797
25.4682 25.9986 -13.5861
29.3070 35.8209 -17.2771
-9.0703 42.9580 -16.3898
-13.2190 43.1200 -16.8361
-12.0943 23.4466 -9.8484
-12.5723 19.8055 -8.7572
-12.8301 16.7036 -7.8626
-13.1732 14.3011 -7.2583
-13.3858 12.1501 -6.7484
-13.5635 10.2612 -6.3490
-13.7939 8.6152 -6.0710
-13.9622 7.0732 -5.8427
-14.1195 5.6318 -5.6746
-14.2692 4.2604 -5.5591
-14.4141 2.9334 -5.4911
-14.5566 1.6282 -5.4679
-14.6990 0.3236 -5.4885
-14.8437 -1.0016 -5.5537
-14.9930 -2.3696 -5.6664
-5.7268 -1.4387 -2.2043
-18.8593 -6.5761 -7.4559
-24.6975 -11.1744 -10.1193
36.0304 -11.2816 -14.0941
35.1327 -7.6376 -13.4214
35.4794 -4.4467 -13.3481
38.7124 9.1802 -14.8521
32.0202 10.6900 -12.6016
32.3970 14.1423 -13.1959
30.2823 16.5817 -12.8881
26.0139 17.4312 -11.6895
24.8199 20.0601 -11.9131
25.3737 24.5607 -13.1826
28.9985 33.5812 -16.5629
-8.1140 44.2134 -16.7805
-11.9357 42.9799 -16.6516
-16.3973 43.5290 -17.3640
-12.0163 24.8985 -10.3204
-12.3918 20.7187 -9.0121
-12.7397 17.5317 -8.0900
-13.0969 14.9997 -7.4334
-13.3401 12.7718 -6.8942
-13.5520 10.8308 -6.4761
-13.7411 9.0988 -6.1521
-13.8715 7.4971 -5.8861
-14.0737 6.0520 -5.7189
-14.2253 4.6627 -5.5883
-14.3714 3.3249 -5.5065
-14.5143 2.0155 -5.4702
-14.6565 0.7128 -5.4777
-14.8003 -0.6039 -5.5295
-14.9480 -1.9567 -5.6277
-15.2065 -3.3932 -5.8162
-17.7077 -5.6512 -6.9387
-22.2454 -9.3607 -9.0095
-7.7459 -20.0854 -8.0361
35.9188 -12.3044 -14.1734
35.0286 -8.5963 -13.4642
35.3766 -5.3927 -13.3586
45.0002 9.4151 -17.1623
32.4753 9.8904 -12.6728
32.2812 13.0814 -13.0024
31.9312 16.3966 -13.3996
26.8264 16.9599 -11.8477
24.6927 18.8944 -11.6067
25.2199 23.1452 -12.7783
29.3724 32.2401 -16.2810
-10.6796 42.8428 -16.4826
-15.0149 43.3160 -17.1138
-12.3398 21.9351 -9.3951
-12.7136 18.5112 -8.3830
-12.9454 15.6469 -7.5809
-13.1987 13.3266 -7.0018
-13.4917 11.3833 -6.5896
-13.6868 9.5958 -6.2399
-13.8636 7.9762 -5.9707
-14.0270 6.4790 -5.7679
-14.1809 5.0694 -5.6218
-14.3284 3.7189 -5.5260
-14.4720 2.4033 -5.4764
-14.6142 1.1008 -5.4709
-14.7572 -0.2095 -5.5094
-14.9035 -1.5492 -5.5934
-15.0555 -2.9417 -5.7265
-16.7050 -4.8459 -6.4930
-20.7279 -8.0805 -8.3049
36.1806 -9.9057 -14.0033
35.2736 -6.3407 -13.3787
20.4050 5.6262 -7.9014
32.1687 12.0505 -12.8235
32.5606 15.6405 -13.4844
28.2197 16.8078 -12.2614
24.9928 18.0914 -11.5176
25.0753 21.8133 -12.4068
29.8221 31.0348 -16.0671
-9.4682 42.8017 -16.3641
-13.6904 43.1715 -16.9068
-12.2102 23.1225 -9.7612
-12.6110 19.4505 -8.6535
-12.8615 16.4153 -7.7847
-13.1999 14.0564 -7.1982
-13.4291 11.9560 -6.7120
-13.6309 10.1076 -6.3347
-13.8126 8.4433 -6.0433
-13.9796 6.9138 -5.8219
-14.1360 5.4814 -5.6598
-14.2850 4.1159 -5.5495
-14.4295 2.7923 -5.4865
-14.5719 1.4881 -5.4680
-14.7144 0.1823 -5.4933
-14.8595 -1.1463 -5.5635
-15.0095 -2.5204 -5.6815
-5.7109 -1.4933 -2.2036
-19.3194 -6.9456 -7.6638
-25.2381 -11.7127 -10.3865
36.0705 -10.9144 -14.0680
35.1702 -7.2923 -13.4083
35.5353 -4.1070 -13.3536
37.9362 9.3824 -14.5882
32.0591 11.0468 -12.6582
32.4398 14.5340 -13.2696
29.7151 16.6446 -12.7143
26.0333 17.8093 -11.7747
24.8677 20.4972 -12.0301
25.3621 25.0263 -13.3009
29.0812 34.3391 -16.7980
-8.5237 44.0549 -16.7506
-12.3967 43.0302 -16.7165
-16.8982 43.5834 -17.4497
-12.0699 24.4072 -10.1644
-12.5016 20.4531 -8.9485
-12.7730 17.2267 -8.0056
-13.1249 14.7431 -7.3685
-13.2911 12.4821 -6.8065
-13.5733 10.6356 -6.4371
-13.7603 8.9224 -6.1221
-13.9312 7.3572 -5.8812
-14.0903 5.8993 -5.7023
-14.2413 4.5167 -5.5772
-14.3869 3.1831 -5.5005
-14.5296 1.8753 -5.4689
-14.6719 0.5722 -5.4812
-14.8159 -0.7474 -5.5378
-14.9642 -2.1054 -5.6411
-5.8263 -1.3590 -2.2334
-17.7649 -5.8583 -6.9829
-23.3466 -10.0894 -9.4943
-7.5402 -20.1265 -8.0232
17.4602 -14.0597 -8.3684
35.9593 -11.9329 -14.1434
35.0663 -8.2487 -13.4475
35.4138 -5.0502 -13.3537
40.8165 8.9505 -15.5988
32.4232 10.2164 -12.6902
32.3227 13.4617 -13.0707
31.3166 16.4637 -13.2075
26.3927 17.0434 -11.7281
24.7380 19.3093 -11.7148
25.2745 23.6473 -12.9207
29.0660 32.5268 -16.2838
-11.1310 42.8921 -16.5420
-15.5021 43.3692 -17.1929
-11.9094 25.7858 -10.6029
-12.3237 21.4218 -9.2256
-12.6792 18.0859 -8.2453
-12.9747 15.3787 -7.5111
-13.2239 13.0977 -6.9480
-13.5137 11.1812 -6.5476
-13.7066 9.4144 -6.2073
-13.8057 7.7671 -5.9133
-13.9670 6.2891 -5.7181
-14.1971 4.9217 -5.6092
-14.3440 3.5760 -5.5185
-14.4079 2.2505 -5.4437
-14.5492 0.9553 -5.4429
-14.6917 -0.3499 -5.4860
-14.8376 -1.6868 -5.5746
-14.9896 -3.0787 -5.7124
-17.0525 -5.1250 -6.6470
-21.5356 -8.6349 -8.6614
36.3643 -13.1505 -14.4352
34.9617 -9.2115 -13.4966
35.3109 -5.9974 -13.3703
45.1534 8.6502 -17.1623
33.9166 9.7037 -13.1691
32.2090 12.4202 -12.8866
32.6052 16.0496 -13.5662
27.7046 16.8641 -12.1075
24.8009 18.3185 -11.5098
25.1266 22.2861 -12.5376
29.5222 31.3202 -16.0671
25.1144 22.1738 -12.2718
30.2786 31.9771 -16.1307
-9.7858 42.7452 -16.0625
-14.0533 43.2111 -16.6441
-12.2350 22.7628 -9.4661
-12.6400 19.1848 -8.4155
-12.8852 16.1988 -7.5818
-13.2200 13.8720 -7.0192
-13.4467 11.7956 -6.5520
-13.6465 9.9645 -6.1895
-13.7719 8.2800 -5.8861
-13.9928 6.7928 -5.6975
-14.1485 5.3669 -5.5429
-14.2970 4.0058 -5.4386
-14.4413 2.6846 -5.3804
-14.5836 1.3811 -5.3658
-14.7262 0.0742 -5.3942
-14.8716 -1.2572 -5.4669
-15.0221 -2.6362 -5.5867
-5.7168 -1.5398 -2.1687
-19.3185 -7.1061 -7.5399
-26.2389 -12.4124 -10.6324
36.2234 -10.6706 -13.8322
35.1989 -7.0287 -13.1478
35.6754 -3.8577 -13.1440
38.5901 9.8457 -14.5882
32.0891 11.3217 -12.4643
32.4728 14.8364 -13.0774
29.2907 16.6909 -12.3488
25.6925 17.8549 -11.4605
24.9048 20.8371 -11.8944
25.4771 25.5122 -13.2068
29.1461 34.9332 -16.6648
-3.6725 18.2605 -6.8227
-12.7515 43.0690 -16.4530
-12.0952 24.0122 -9.8484
-12.4825 20.0884 -8.6632
-12.7980 16.9977 -7.7937
-13.1460 14.5500 -7.1828
-13.3824 12.3840 -6.6788
-13.5894 10.4879 -6.2878
-13.7749 8.7887 -5.9852
-13.9447 7.2337 -5.7542
-14.1030 5.7831 -5.5833
-14.2534 4.4055 -5.4647
-14.3987 3.0748 -5.3931
-14.5413 1.7683 -5.3657
-14.6836 0.4646 -5.3813
-14.8279 -0.8573 -5.4405
-14.9766 -2.2196 -5.5458
-5.7687 -1.3904 -2.1736
-18.4233 -6.2260 -7.1234
-23.7441 -10.4691 -9.5053
17.7518 -14.0807 -8.2996
36.1897 -11.7148 -13.9334
35.0951 -7.9837 -13.1837
35.4422 -4.7888 -13.1004
39.8797 9.0528 -14.9795
32.2526 10.4239 -12.4157
32.3547 13.7549 -12.8780
30.8589 16.5137 -12.8203
26.1840 17.1826 -11.4720
24.7731 19.6314 -11.5781
25.3170 24.0384 -12.7879
28.9800 32.9144 -16.0637
-7.8396 45.1603 -16.7895
-11.4783 42.9300 -16.2775
-15.8776 43.4102 -16.9313
-11.9610 25.4052 -10.2856
-12.3893 21.1741 -8.9861
-12.7057 17.8432 -8.0236
-13.0684 15.2608 -7.3595
-13.2427 12.9249 -6.7782
-13.5304 11.0285 -6.3939
-13.7216 9.2770 -6.0671
-13.8194 7.6416 -5.7844
-14.0569 6.2056 -5.6284
-14.2093 4.8093 -5.4949
-14.3558 3.4671 -5.4097
-14.4990 2.1557 -5.3693
-14.6412 0.8533 -5.3721
-14.7847 -0.4609 -5.4182
-14.9318 -1.8087 -5.5095
-15.0024 -3.1965 -5.6187
-17.3294 -5.3474 -6.6431
-22.0037 -9.0109 -8.7096
-7.9754 -20.1024 -7.9218
35.9563 -12.7049 -13.9687
34.9907 -8.9447 -13.2291
35.3394 -5.7353 -13.1141
45.9506 9.1536 -17.1623
33.2464 9.7769 -12.6937
32.2402 12.7051 -12.6934
32.5637 16.3276 -13.3434
27.3195 16.9061 -11.7682
24.7466 18.5611 -11.3310
25.1666 22.6543 -12.4032
29.8440 32.1315 -16.0633
-10.2312 42.7938 -16.1170
-14.5320 43.2633 -16.7173
-12.2940 22.3543 -9.3449
-12.6077 18.7408 -8.2736
-12.9156 15.9202 -7.5092
-13.2460 13.6342 -6.9630
-13.4693 11.5881 -6.5084
-13.6668 9.7792 -6.1557
-13.8453 8.1439 -5.8838
-14.0100 6.6354 -5.6783
-14.1647 5.2178 -5.5293
-14.3127 3.8621 -5.4302
-14.4566 2.5439 -5.3768
-14.5989 1.2410 -5.3668
-14.7417 -0.0675 -5.3999
-14.8875 -1.4029 -5.4774
-15.0388 -2.7885 -5.6025
-5.7551 -1.6096 -2.1890
-20.1972 -7.6507 -7.9112
-26.7074 -12.9499 -10.8722
36.2634 -10.3044 -13.8090
35.2363 -6.6845 -13.1371
36.0029 -3.5431 -13.2515
20.8622 5.5369 -7.9063
32.1287 11.6844 -12.5228
32.5164 15.2360 -13.1534
28.7483 16.7501 -12.1874
25.2540 17.9128 -11.3412
24.9542 21.2898 -12.0153
25.4682 25.9987 -13.3312
29.2332 35.7306 -16.9103
-9.0703 42.9580 -16.0823
-13.2190 43.1200 -16.5203
-12.1607 23.5754 -9.7168
-12.5723 19.8055 -8.5929
-12.8301 16.7036 -7.7151
-13.1732 14.3011 -7.1221
-13.4060 12.1685 -6.6318
-13.5635 10.2612 -6.2299
-13.7183 8.5680 -5.9245
-13.9622 7.0732 -5.7331
-14.1195 5.6318 -5.5682
-14.2692 4.2604 -5.4548
-14.4141 2.9334 -5.3881
-14.5566 1.6282 -5.3653
-14.6990 0.3236 -5.3855
-14.8437 -1.0016 -5.4496
-14.9930 -2.3696 -5.5601
-5.7267 -1.4387 -2.1628
-18.8593 -6.5761 -7.3160
-24.6975 -11.1744 -9.9295
36.1525 -11.3198 -13.8765
35.1327 -7.6376 -13.1696
35.4794 -4.4467 -13.0977
38.7211 9.1822 -14.5768
32.0202 10.6900 -12.3653
32.3970 14.1423 -12.9483
30.2823 16.5817 -12.6463
26.0139 17.4312 -11.4702
24.8200 20.0602 -11.6896
25.3737 24.5607 -12.9353
28.9985 33.5811 -16.2522
-8.1140 44.2134 -16.4657
-11.9357 42.9799 -16.3392
-16.3729 43.4643 -17.0130
-12.0163 24.8985 -10.1268
-12.4601 20.8329 -8.8918
-12.7397 17.5317 -7.9383
-13.0969 14.9997 -7.2940
-13.3077 12.7407 -6.7484
-13.5520 10.8308 -6.3546
-13.7411 9.0988 -6.0367
-13.9134 7.5198 -5.7932
-14.0737 6.0520 -5.6116
-14.2253 4.6627 -5.4835
-14.3714 3.3249 -5.4032
