ply
format ascii 1.0
element vertex 2176
property float32 x
property float32 y
property float32 z
end_header
-0.6170 1.9075 0.3876
-0.7835 1.8419 0.3869
-0.9428 1.7611 0.3862
-1.0935 1.6658 0.3852
-1.2343 1.5571 0.3841
-1.3639 1.4360 0.3829
-7.0070 6.1680 1.8046
-7.4956 5.4931 1.7965
-7.9164 4.7784 1.7875
-8.2544 4.0251 1.7753
-8.5124 3.2464 1.7612
-8.6989 2.4542 1.7473
-8.8598 1.6637 1.7427
-8.9422 0.8634 1.7367
-7.3335 0.0505 1.4177
-8.8548 -0.7320 1.7176
-8.7025 -1.5103 1.7075
-8.4826 -2.2675 1.6974
-8.1979 -2.9977 1.6874
-7.8518 -3.6958 1.6776
-7.4481 -4.3569 1.6681
-6.9908 -4.9766 1.6589
-6.4842 -5.5510 1.6501
-5.9420 -6.0861 1.6443
-5.3579 -6.5710 1.6390
-4.7356 -7.0015 1.6340
-4.0803 -7.3755 1.6294
-0.7278 -1.6476 0.3482
-0.5767 -1.7025 0.3475
-0.4217 -1.7443 0.3469
-0.2641 -1.7727 0.3465
-0.1047 -1.7878 0.3462
0.0552 -1.7893 0.3461
0.2147 -1.7774 0.3461
0.3727 -1.7520 0.3463
0.5280 -1.7133 0.3466
0.6797 -1.6616 0.3470
0.8267 -1.5971 0.3477
0.9681 -1.5202 0.3484
1.1027 -1.4314 0.3493
1.2296 -1.3311 0.3503
1.3479 -1.2201 0.3515
7.3643 -5.5555 1.7833
7.8527 -4.8898 1.7883
8.2836 -4.1825 1.7939
8.6533 -3.4382 1.8000
8.9585 -2.6621 1.8067
9.1963 -1.8592 1.8138
9.3642 -1.0354 1.8213
9.4600 -0.1964 1.8292
9.4821 0.6516 1.8374
9.4348 1.5029 1.8469
9.3178 2.3528 1.8578
9.1245 3.1939 1.8688
8.8551 4.0190 1.8799
8.5105 4.8212 1.8909
8.0921 5.5932 1.9016
7.6088 6.3331 1.9137
7.0561 7.0297 1.9254
6.4378 7.6756 1.9366
5.7583 8.2643 1.9472
5.0229 8.7893 1.9570
4.2378 9.2447 1.9660
0.6674 1.8840 0.3864
0.4976 1.9397 0.3871
0.3229 1.9793 0.3877
0.1451 2.0022 0.3881
-0.0341 2.0081 0.3883
-0.2132 1.9971 0.3883
-0.3904 1.9692 0.3881
-0.5640 1.9246 0.3877
-0.7325 1.8639 0.3872
-0.8942 1.7878 0.3864
-1.0478 1.6969 0.3855
-1.1917 1.5922 0.3845
-1.3249 1.4748 0.3833
-1.4462 1.3460 0.3819
-7.3511 5.7072 1.7991
-7.7933 5.0041 1.7904
-8.1598 4.2630 1.7797
-8.4400 3.4898 1.7656
-8.6487 2.7011 1.7516
-8.8164 1.9101 1.7439
-8.9252 1.1123 1.7387
-8.9479 0.3099 1.7308
-7.6137 -0.4172 1.4741
-8.7572 -1.2707 1.7106
-8.5579 -2.0351 1.7005
-8.2930 -2.7743 1.6905
-7.9656 -3.4829 1.6806
-7.5793 -4.1560 1.6710
-7.1382 -4.7890 1.6617
-6.6464 -5.3778 1.6528
-6.1146 -5.9249 1.6459
-5.5436 -6.4263 1.6407
-4.9325 -6.8738 1.6355
-4.2869 -7.2656 1.6308
-3.6119 -7.5993 1.6266
-0.6240 -1.6868 0.3477
-0.4702 -1.7327 0.3471
-0.3132 -1.7653 0.3466
-0.1543 -1.7846 0.3463
0.0056 -1.7903 0.3461
0.1653 -1.7825 0.3461
0.3239 -1.7613 0.3462
0.4801 -1.7267 0.3465
0.6331 -1.6790 0.3469
0.7817 -1.6184 0.3474
0.9249 -1.5454 0.3482
1.0617 -1.4602 0.3490
1.1911 -1.3634 0.3500
1.3122 -1.2557 0.3511
7.2017 -5.7530 1.7819
7.7071 -5.1011 1.7867
8.1562 -4.4062 1.7921
8.5453 -3.6729 1.7981
8.8708 -2.9061 1.8045
9.1299 -2.1109 1.8115
9.3197 -1.2929 1.8189
9.4381 -0.4580 1.8267
9.4832 0.3878 1.8348
9.4555 1.2385 1.8435
9.3623 2.0897 1.8544
9.1927 2.9342 1.8654
8.9468 3.7651 1.8765
8.6254 4.5751 1.8875
8.2297 5.3573 1.8983
7.7664 6.1080 1.9100
7.2349 6.8186 1.9219
6.6365 7.4810 1.9332
5.9754 8.0881 1.9440
5.2568 8.6335 1.9540
4.4864 9.1111 1.9633
3.6709 9.5153 1.9716
0.5509 1.9242 0.3869
0.3775 1.9688 0.3875
0.2006 1.9969 0.3880
0.0216 2.0081 0.3882
-0.1577 2.0023 0.3883
-0.3357 1.9796 0.3882
-0.5106 1.9402 0.3878
-0.6809 1.8845 0.3873
-0.8449 1.8130 0.3867
-1.0011 1.7266 0.3858
-1.1482 1.6261 0.3848
-1.2848 1.5125 0.3836
-1.4099 1.3871 0.3823
-7.2001 5.9172 1.8016
-7.6634 5.2264 1.7932
-8.0577 4.4984 1.7840
-8.3607 3.7318 1.7699
-8.5916 2.9471 1.7559
-8.7628 2.1545 1.7444
-8.9014 1.3610 1.7408
-8.9518 0.5589 1.7339
-7.4026 -0.2000 1.4316
-8.8052 -1.0293 1.7138
-8.6269 -1.8003 1.7036
-8.3820 -2.5479 1.6936
-8.0736 -3.2666 1.6837
-7.7052 -3.9512 1.6740
-7.2807 -4.5970 1.6646
-6.8042 -5.2000 1.6555
-6.2829 -5.7590 1.6476
-5.7255 -6.2765 1.6423
-5.1260 -6.7408 1.6371
-4.4906 -7.1501 1.6322
-3.8243 -7.5021 1.6278
-0.6710 -1.6699 0.3479
-0.5183 -1.7199 0.3472
-0.3622 -1.7566 0.3467
-0.2038 -1.7800 0.3464
-0.0441 -1.7900 0.3461
0.1158 -1.7864 0.3461
0.2749 -1.7693 0.3461
0.4319 -1.7388 0.3464
0.5860 -1.6952 0.3467
0.7361 -1.6386 0.3473
0.8811 -1.5694 0.3479
1.0200 -1.4879 0.3487
1.1518 -1.3947 0.3497
1.2755 -1.2903 0.3507
1.3903 -1.1753 0.3519
7.5561 -5.3082 1.7851
8.0231 -4.6262 1.7904
8.4312 -3.9043 1.7962
8.7768 -3.1473 1.8025
9.0568 -2.3604 1.8093
9.2684 -1.5489 1.8166
9.4091 -0.7186 1.8242
9.4771 0.1245 1.8322
9.4709 0.9742 1.8405
9.3994 1.8259 1.8510
9.2535 2.6732 1.8620
9.0313 3.5091 1.8730
8.7332 4.3264 1.8841
8.3604 5.1180 1.8950
5.2270 8.2380 1.9485
4.4917 8.7120 1.9575
3.7119 9.1162 1.9658
0.5663 1.8483 0.3861
0.3997 1.8945 0.3867
0.2293 1.9249 0.3871
0.0567 1.9391 0.3874
-0.1166 1.9369 0.3875
-0.2890 1.9184 0.3874
-0.4587 1.8836 0.3872
-0.6243 1.8331 0.3867
-0.7841 1.7672 0.3861
-0.9368 1.6868 0.3853
-1.0809 1.5925 0.3844
-1.2153 1.4855 0.3833
-1.3387 1.3667 0.3821
-6.8546 5.8487 1.7996
-7.3166 5.1905 1.7916
-7.7129 4.4948 1.7828
-8.0357 3.7663 1.7724
-8.2756 3.0107 1.7587
-8.4462 2.2429 1.7453
-8.5971 1.4775 1.7421
-8.6574 0.7013 1.7347
-7.4362 -0.0634 1.4852
-8.5474 -0.8394 1.7152
-8.3902 -1.5897 1.7054
-8.1678 -2.3188 1.6957
-7.8832 -3.0213 1.6861
-7.5397 -3.6919 1.6766
-7.1408 -4.3263 1.6674
-6.6905 -4.9200 1.6586
-6.1929 -5.4694 1.6501
-5.6620 -5.9811 1.6448
-5.0895 -6.4422 1.6397
-4.4811 -6.8506 1.6349
-3.8416 -7.2039 1.6305
-0.6806 -1.6074 0.3486
-0.5334 -1.6585 0.3479
-0.3827 -1.6969 0.3474
-0.2295 -1.7223 0.3470
-0.0748 -1.7347 0.3468
0.0803 -1.7340 0.3467
0.2348 -1.7201 0.3467
0.3875 -1.6932 0.3469
0.5376 -1.6535 0.3472
0.6840 -1.6011 0.3477
0.8256 -1.5364 0.3483
0.9615 -1.4597 0.3491
1.0907 -1.3715 0.3500
1.2122 -1.2724 0.3510
1.3252 -1.1629 0.3521
7.2232 -5.2763 1.7864
7.6865 -4.6234 1.7914
8.0933 -3.9310 1.7969
8.4401 -3.2038 1.8029
8.7237 -2.4466 1.8095
8.9415 -1.6647 1.8164
9.0911 -0.8635 1.8238
9.1704 -0.0489 1.8315
9.1780 0.7730 1.8395
9.1190 1.5972 1.8489
8.9914 2.4184 1.8595
8.7899 3.2297 1.8702
8.5149 4.0241 1.8809
8.1675 4.7947 1.8915
7.7495 5.5348 1.9019
7.2688 6.2423 1.9135
6.7218 6.9063 1.9247
6.1124 7.5202 1.9354
5.4451 8.0775 1.9455
4.7250 8.5721 1.9548
3.9583 8.9985 1.9633
0.6170 1.8307 0.3858
0.4519 1.8818 0.3865
0.2825 1.9172 0.3870
0.1104 1.9364 0.3874
-0.0629 1.9393 0.3875
-0.2357 1.9259 0.3875
-0.4064 1.8961 0.3873
-0.5734 1.8504 0.3869
-0.7352 1.7893 0.3863
-0.8903 1.7132 0.3856
-1.0372 1.6232 0.3847
-1.1747 1.5200 0.3837
-1.3016 1.4047 0.3825
-1.4169 1.2785 0.3811
-7.1801 5.3991 1.7941
-7.5971 4.7143 1.7856
-7.9465 3.9969 1.7764
-8.2085 3.2468 1.7629
-8.4006 2.4822 1.7494
-8.5612 1.7170 1.7438
-8.6493 0.9428 1.7376
-7.3975 0.1421 1.4776
-8.5826 -0.6031 1.7183
-8.4461 -1.3589 1.7085
-8.2437 -2.0952 1.6987
-7.9781 -2.8064 1.6890
-7.6524 -3.4875 1.6795
-7.2703 -4.1335 1.6702
-6.8355 -4.7403 1.6613
-6.3522 -5.3039 1.6527
-5.8316 -5.8277 1.6465
-5.2712 -6.3046 1.6412
-4.6735 -6.7296 1.6363
-4.0431 -7.1003 1.6318
-0.7254 -1.5890 0.3488
-0.5795 -1.6440 0.3481
-0.4298 -1.6864 0.3476
-0.2772 -1.7158 0.3471
-0.1229 -1.7323 0.3468
0.0322 -1.7356 0.3467
0.1869 -1.7258 0.3467
0.3404 -1.7029 0.3468
0.4914 -1.6672 0.3471
0.6390 -1.6187 0.3475
0.7822 -1.5577 0.3481
0.9200 -1.4847 0.3488
1.0514 -1.4001 0.3497
1.1754 -1.3043 0.3507
1.2911 -1.1980 0.3517
7.0685 -5.4703 1.7850
7.5486 -4.8305 1.7898
7.9733 -4.1499 1.7951
8.3391 -3.4330 1.8010
8.6426 -2.6845 1.8074
8.8811 -1.9097 1.8142
9.0521 -1.1139 1.8215
9.1534 -0.3029 1.8290
9.1834 0.5175 1.8370
9.1436 1.3413 1.8456
9.0389 2.1643 1.8562
8.8603 2.9794 1.8669
8.6081 3.7797 1.8776
8.2830 4.5585 1.8882
7.8865 5.3088 1.8986
7.4252 6.0271 1.9099
6.8985 6.7053 1.9213
6.3080 7.3354 1.9322
5.6581 7.9110 1.9424
4.9538 8.4256 1.9520
4.2008 8.8738 1.9608
0.6671 1.8118 0.3856
0.5037 1.8676 0.3863
0.3355 1.9079 0.3869
0.1640 1.9322 0.3873
-0.0091 1.9402 0.3875
-0.1822 1.9318 0.3875
-0.3537 1.9071 0.3874
-0.5221 1.8663 0.3870
-0.6856 1.8099 0.3865
-0.8429 1.7384 0.3858
-0.9925 1.6526 0.3850
-1.1331 1.5534 0.3840
-1.2634 1.4417 0.3828
-1.3824 1.3188 0.3816
-7.0374 5.6039 1.7966
-7.4748 4.9307 1.7883
-7.8454 4.2226 1.7794
-8.1348 3.4816 1.7672
-8.3484 2.7206 1.7536
-8.5163 1.9552 1.7451
-8.6303 1.1837 1.7397
-8.6579 0.4067 1.7310
-7.5324 -0.3197 1.5057
-8.4956 -1.1261 1.7115
-8.3134 -1.8691 1.7017
-8.0671 -2.5887 1.6920
-7.7597 -3.2796 1.6824
-7.3947 -3.9370 1.6731
-6.9758 -4.5564 1.6640
-6.5071 -5.1338 1.6553
-5.9968 -5.6693 1.6481
-5.4494 -6.1620 1.6428
-4.8627 -6.6034 1.6378
-4.2420 -6.9912 1.6332
-3.5919 -7.3231 1.6290
-0.6253 -1.6283 0.3483
-0.4766 -1.6746 0.3477
-0.3248 -1.7081 0.3472
-0.1709 -1.7286 0.3469
-0.0160 -1.7360 0.3467
0.1390 -1.7302 0.3467
0.2930 -1.7114 0.3468
0.4448 -1.6796 0.3470
0.5936 -1.6351 0.3474
0.7383 -1.5780 0.3479
0.8779 -1.5087 0.3486
1.0113 -1.4276 0.3494
1.1377 -1.3352 0.3503
1.2561 -1.2321 0.3514
1.3657 -1.1188 0.3526
7.4054 -5.0336 1.7883
7.8477 -4.3652 1.7934
8.2321 -3.6591 1.7991
8.5553 -2.9199 1.8054
8.8142 -2.1526 1.8121
9.0064 -1.3628 1.8192
9.1295 -0.5558 1.8267
9.1818 0.2623 1.8345
9.1619 1.0854 1.8425
9.0793 1.9094 1.8529
8.9237 2.7277 1.8636
8.6942 3.5333 1.8743
8.3916 4.3196 1.8849
8.0171 5.0794 1.8954
7.5751 5.8079 1.9063
7.0689 6.4996 1.9178
6.4978 7.1454 1.9288
5.8659 7.7386 1.9393
5.1778 8.2728 1.9491
4.4394 8.7421 1.9581
3.6566 9.1414 1.9663
0.5550 1.8519 0.3861
0.3881 1.8971 0.3867
0.2175 1.9264 0.3872
0.0447 1.9395 0.3874
-0.1286 1.9361 0.3875
-0.3008 1.9165 0.3874
-0.4703 1.8806 0.3872
-0.6355 1.8290 0.3867
-0.7949 1.7621 0.3861
-0.9470 1.6807 0.3853
-1.0905 1.5855 0.3843
-1.2241 1.4776 0.3832
-1.3468 1.3581 0.3820
-6.8885 5.8047 1.7990
-7.3461 5.1437 1.7910
-7.7377 4.4457 1.7822
-8.0544 3.7147 1.7714
-8.2895 2.9581 1.7578
-8.4617 2.1913 1.7457
-8.6039 1.4242 1.7417
-8.6582 0.6478 1.7340
-7.4393 -0.1093 1.4859
-8.5387 -0.8917 1.7146
-8.3769 -1.6407 1.7048
-8.1502 -2.3682 1.6950
-7.8614 -3.0686 1.6854
-7.5139 -3.7369 1.6760
-7.1114 -4.3685 1.6668
-6.6577 -4.9593 1.6580
-6.1579 -5.5063 1.6498
-5.6238 -6.0145 1.6445
-5.0487 -6.4720 1.6393
-4.4380 -6.8768 1.6345
-3.7965 -7.2262 1.6302
-0.6706 -1.6113 0.3486
-0.5231 -1.6616 0.3479
-0.3722 -1.6991 0.3474
-0.2188 -1.7236 0.3470
-0.0641 -1.7351 0.3468
0.0910 -1.7334 0.3467
0.2453 -1.7187 0.3467
0.3980 -1.6909 0.3469
0.5478 -1.6502 0.3473
0.6939 -1.5970 0.3477
0.8352 -1.5315 0.3484
0.9706 -1.4540 0.3491
1.0993 -1.3651 0.3500
1.2203 -1.2652 0.3511
1.3327 -1.1550 0.3522
7.2569 -5.2327 1.7868
7.7164 -4.5769 1.7918
8.1192 -3.8820 1.7973
8.4617 -3.1525 1.8034
8.7409 -2.3934 1.8099
8.9541 -1.6100 1.8169
9.0988 -0.8077 1.8243
9.1732 0.0075 1.8320
9.1759 0.8298 1.8400
9.1126 1.6540 1.8496
8.9799 2.4747 1.8603
8.7733 3.2851 1.8709
8.4933 4.0780 1.8816
8.1409 4.8468 1.8922
7.7185 5.5849 1.9027
7.2332 6.2895 1.9143
6.6818 6.9503 1.9255
6.0682 7.5605 1.9361
5.3971 8.1136 1.9461
4.6736 8.6037 1.9554
3.9039 9.0253 1.9639
0.6058 1.8348 0.3859
0.4404 1.8848 0.3866
0.2707 1.9190 0.3871
0.0985 1.9372 0.3874
-0.0748 1.9389 0.3875
-0.2475 1.9243 0.3875
-0.4180 1.8935 0.3873
-0.5848 1.8467 0.3869
-0.7461 1.7845 0.3863
-0.9007 1.7075 0.3855
-1.0470 1.6165 0.3846
-1.1838 1.5124 0.3836
-1.3099 1.3964 0.3824
-1.4244 1.2695 0.3811
-7.2110 5.3531 1.7936
-7.6234 4.6659 1.7850
-7.9674 3.9461 1.7757
-8.2240 3.1945 1.7620
-8.4113 2.4291 1.7485
-8.5701 1.6640 1.7435
-8.6517 0.8891 1.7370
-7.4820 0.0976 1.4944
-8.5753 -0.6557 1.7176
-8.4342 -1.4103 1.7078
-8.2273 -2.1450 1.6980
-7.9575 -2.8544 1.6884
-7.6278 -3.5332 1.6789
-7.2420 -4.1767 1.6696
-6.8037 -4.7806 1.6607
-6.3172 -5.3410 1.6521
-5.7943 -5.8622 1.6461
-5.2312 -6.3356 1.6409
-4.6311 -6.7570 1.6360
-3.9986 -7.1238 1.6315
-0.7155 -1.5932 0.3488
-0.5693 -1.6473 0.3481
-0.4194 -1.6888 0.3475
-0.2666 -1.7174 0.3471
-0.1122 -1.7329 0.3468
0.0429 -1.7353 0.3467
0.1976 -1.7246 0.3467
0.3509 -1.7009 0.3468
0.5017 -1.6642 0.3471
0.6490 -1.6149 0.3476
0.7919 -1.5531 0.3482
0.9293 -1.4793 0.3489
1.0602 -1.3939 0.3497
1.1836 -1.2973 0.3507
1.2988 -1.1902 0.3518
7.1033 -5.4276 1.7853
7.5797 -4.7848 1.7902
8.0005 -4.1016 1.7955
8.3620 -3.3823 1.8014
8.6612 -2.6319 1.8079
8.8951 -1.8554 1.8147
9.0613 -1.0584 1.8220
9.1578 -0.2465 1.8296
9.1828 0.5742 1.8375
9.1388 1.3981 1.8464
9.0290 2.2208 1.8569
8.8453 3.0351 1.8676
8.5880 3.8342 1.8783
8.2579 4.6112 1.8889
7.8566 5.3593 1.8994
7.3910 6.0752 1.9107
6.8598 6.7503 1.9221
6.2651 7.3769 1.9329
5.6112 7.9484 1.9431
4.9034 8.4587 1.9526
4.1473 8.9021 1.9613
0.6560 1.8161 0.3856
0.4922 1.8709 0.3864
0.3237 1.9101 0.3869
0.1521 1.9333 0.3873
-0.0210 1.9401 0.3875
-0.1941 1.9306 0.3875
-0.3655 1.9048 0.3873
-0.5335 1.8629 0.3870
-0.6967 1.8054 0.3865
-0.8535 1.7329 0.3858
-1.0025 1.6462 0.3849
-1.1424 1.5461 0.3839
-1.2720 1.4336 0.3828
-1.3902 1.3099 0.3815
-7.0696 5.5588 1.7961
-7.5026 4.8829 1.7877
-7.8684 4.1727 1.7787
-8.1517 3.4296 1.7662
-8.3606 2.6677 1.7527
-8.5270 1.9024 1.7448
-8.6352 1.1302 1.7393
-8.6570 0.3533 1.7303
-7.5350 -0.3663 1.5066
-8.4852 -1.1780 1.7109
-8.2984 -1.9195 1.7011
-8.0478 -2.6373 1.6914
-7.7363 -3.3261 1.6818
-7.3675 -3.9810 1.6725
-6.9451 -4.5976 1.6634
-6.4731 -5.1719 1.6547
-5.9605 -5.7049 1.6478
-5.4101 -6.1941 1.6425
-4.8210 -6.6319 1.6375
-4.1981 -7.0159 1.6329
-3.5461 -7.3438 1.6287
-0.6152 -1.6319 0.3483
-0.4662 -1.6773 0.3477
-0.3143 -1.7099 0.3472
-0.1603 -1.7295 0.3469
-0.0053 -1.7360 0.3467
0.1497 -1.7294 0.3467
0.3035 -1.7096 0.3468
0.4552 -1.6770 0.3470
0.6037 -1.6315 0.3474
0.7481 -1.5736 0.3480
0.8873 -1.5035 0.3486
1.0203 -1.4216 0.3495
1.1462 -1.3284 0.3504
1.2640 -1.2246 0.3515
1.3729 -1.1106 0.3527
7.4376 -4.9889 1.7886
7.8761 -4.3177 1.7938
8.2563 -3.6091 1.7996
8.5752 -2.8678 1.8058
8.8297 -2.0988 1.8125
9.0171 -1.3076 1.8197
9.1354 -0.4997 1.8272
9.1827 0.3189 1.8350
9.1579 1.1422 1.8431
9.0710 1.9661 1.8536
8.9102 2.7837 1.8643
8.6757 3.5882 1.8750
8.3681 4.3728 1.8856
7.9887 5.1306 1.8961
7.5424 5.8568 1.9071
7.0316 6.5457 1.9186
6.4562 7.1881 1.9296
5.8202 7.7773 1.9400
5.1285 8.3073 1.9498
4.3867 8.7720 1.9587
3.6012 9.1662 1.9668
0.5436 1.8556 0.3862
0.3764 1.8997 0.3868
0.2056 1.9278 0.3872
0.0328 1.9398 0.3875
-0.1405 1.9353 0.3875
-0.3126 1.9145 0.3874
-0.4818 1.8776 0.3871
-0.6467 1.8249 0.3867
-0.8056 1.7570 0.3860
-0.9572 1.6746 0.3852
-1.1001 1.5785 0.3842
-1.2330 1.4698 0.3831
-1.3548 1.3494 0.3819
-6.9221 5.7605 1.7985
-7.3752 5.0967 1.7904
-7.7622 4.3964 1.7816
-8.0728 3.6631 1.7705
-8.3032 2.9055 1.7568
-8.4746 2.1391 1.7456
-8.6103 1.3708 1.7413
-8.6587 0.5942 1.7333
-7.4830 -0.1560 1.4948
-8.5297 -0.9439 1.7139
-8.3634 -1.6916 1.7041
-8.1322 -2.4174 1.6944
-7.8393 -3.1157 1.6847
-7.4879 -3.7816 1.6753
-7.0817 -4.4106 1.6662
-6.6246 -4.9985 1.6574
-6.1225 -5.5429 1.6494
-5.5854 -6.0477 1.6441
-5.0077 -6.5017 1.6390
-4.3947 -6.9026 1.6342
-3.7513 -7.2482 1.6299
-0.6606 -1.6152 0.3485
-0.5128 -1.6646 0.3479
-0.3617 -1.7012 0.3473
-0.2082 -1.7248 0.3470
-0.0534 -1.7354 0.3467
0.1016 -1.7328 0.3467
0.2559 -1.7172 0.3467
0.4084 -1.6885 0.3469
0.5580 -1.6470 0.3473
0.7038 -1.5929 0.3478
0.8447 -1.5265 0.3484
0.9797 -1.4482 0.3492
1.1079 -1.3585 0.3501
1.2283 -1.2579 0.3511
1.3401 -1.1470 0.3523
7.2903 -5.1888 1.7871
7.7460 -4.5302 1.7921
8.1447 -3.8328 1.7977
8.4830 -3.1011 1.8038
8.7578 -2.3401 1.8104
8.9662 -1.5552 1.8174
9.1062 -0.7519 1.8248
9.1757 0.0640 1.8326
9.1734 0.8865 1.8406
9.1058 1.7107 1.8504
8.9680 2.5310 1.8610
8.7564 3.3403 1.8717
8.4713 4.1319 1.8823
8.1140 4.8987 1.8929
7.6873 5.6347 1.9035
7.1973 6.3366 1.9151
6.6414 6.9941 1.9262
6.0238 7.6005 1.9368
5.3488 8.1495 1.9468
4.6220 8.6349 1.9560
3.8493 9.0517 1.9644
0.5945 1.8387 0.3859
0.4288 1.8877 0.3866
0.2589 1.9208 0.3871
0.0866 1.9378 0.3874
-0.0868 1.9385 0.3875
-0.2594 1.9227 0.3875
-0.4297 1.8908 0.3872
-0.5961 1.8429 0.3868
-0.7570 1.7796 0.3862
-0.9110 1.7016 0.3855
-1.0567 1.6097 0.3846
-1.1928 1.5048 0.3835
-1.3182 1.3880 0.3823
-6.7685 5.9580 1.8009
-7.2415 5.3069 1.7930
-7.6494 4.6172 1.7844
-7.9873 3.8949 1.7747
-8.2391 3.1421 1.7611
-8.4217 2.3760 1.7476
-8.5785 1.6109 1.7432
-8.6537 0.8355 1.7363
-7.4461 0.0513 1.4871
-8.5678 -0.7082 1.7169
-8.4221 -1.4617 1.7071
-8.2107 -2.1948 1.6974
-7.9367 -2.9022 1.6877
-7.6030 -3.5787 1.6782
-7.2134 -4.2196 1.6690
-6.7717 -4.8207 1.6601
-6.2820 -5.3780 1.6515
-5.7568 -5.8965 1.6458
-5.1910 -6.3663 1.6405
-4.5885 -6.7840 1.6357
-3.9539 -7.1470 1.6312
-0.7056 -1.5973 0.3487
-0.5591 -1.6506 0.3480
-0.4089 -1.6912 0.3475
-0.2560 -1.7189 0.3471
-0.1015 -1.7335 0.3468
0.0536 -1.7350 0.3467
0.2082 -1.7234 0.3467
0.3613 -1.6988 0.3469
0.5120 -1.6612 0.3472
0.6590 -1.6110 0.3476
0.8015 -1.5484 0.3482
0.9385 -1.4738 0.3489
1.0689 -1.3876 0.3498
1.1919 -1.2903 0.3508
1.3064 -1.1825 0.3519
7.1378 -5.3847 1.7857
7.6105 -4.7390 1.7905
8.0273 -4.0531 1.7959
8.3847 -3.3315 1.8019
8.6795 -2.5791 1.8083
8.9088 -1.8011 1.8152
9.0702 -1.0029 1.8225
9.1618 -0.1902 1.8301
9.1819 0.6309 1.8381
9.1336 1.4550 1.8471
9.0187 2.2773 1.8577
8.8299 3.0907 1.8684
8.5676 3.8885 1.8790
8.2325 4.6638 1.8896
7.8264 5.4096 1.9001
7.3565 6.1231 1.9115
6.8208 6.7952 1.9228
6.2218 7.4182 1.9336
5.5641 7.9856 1.9438
4.8527 8.4915 1.9533
4.0936 8.9300 1.9619
0.6449 1.8204 0.3857
0.4807 1.8741 0.3864
0.3120 1.9122 0.3869
0.1402 1.9343 0.3873
-0.0330 1.9400 0.3875
-0.2060 1.9293 0.3875
-0.3772 1.9024 0.3873
-0.5449 1.8594 0.3870
-0.7077 1.8009 0.3864
-0.8640 1.7274 0.3857
-1.0125 1.6397 0.3849
-1.1517 1.5387 0.3838
-1.2805 1.4254 0.3827
-1.3979 1.3010 0.3814
-7.1015 5.5134 1.7955
-7.5300 4.8350 1.7871
-7.8911 4.1227 1.7781
-8.1684 3.3775 1.7653
-8.3724 2.6148 1.7517
-8.5372 1.8496 1.7445
-8.6399 1.0767 1.7388
-7.4053 0.2565 1.4798
-7.5510 -0.4138 1.5103
-8.4744 -1.2297 1.7102
-8.2832 -1.9698 1.7004
-8.0283 -2.6857 1.6907
-7.7127 -3.3723 1.6811
-7.3401 -4.0248 1.6718
-6.9141 -4.6386 1.6628
-6.4388 -5.2099 1.6541
-5.9239 -5.7402 1.6474
-5.3707 -6.2259 1.6421
-4.7791 -6.6601 1.6371
-4.1540 -7.0403 1.6326
-3.5002 -7.3643 1.6284
-0.6050 -1.6354 0.3482
-0.4559 -1.6800 0.3476
-0.3037 -1.7117 0.3472
-0.1496 -1.7304 0.3469
0.0054 -1.7360 0.3467
0.1603 -1.7284 0.3467
0.3140 -1.7078 0.3468
0.4656 -1.6742 0.3471
0.6138 -1.6279 0.3475
0.7579 -1.5691 0.3480
0.8966 -1.4982 0.3487
1.0292 -1.4155 0.3495
1.1546 -1.3216 0.3505
1.2718 -1.2170 0.3516
1.3800 -1.1024 0.3527
7.4696 -4.9439 1.7889
7.9042 -4.2700 1.7942
8.2803 -3.5590 1.8000
8.5948 -2.8156 1.8063
8.8448 -2.0450 1.8130
9.0275 -1.2524 1.8202
9.1410 -0.4436 1.8277
9.1834 0.3756 1.8356
9.1543 1.1990 1.8438
9.0622 2.0227 1.8544
8.8964 2.8396 1.8650
8.6568 3.6430 1.8757
8.3442 4.4260 1.8864
7.9600 5.1817 1.8969
7.5094 5.9057 1.9079
6.9940 6.5915 1.9194
6.4142 7.2305 1.9303
5.7742 7.8158 1.9407
5.0789 8.3414 1.9504
4.3340 8.8014 1.9593
3.5457 9.1906 1.9673
0.5322 1.8591 0.3862
0.3648 1.9021 0.3868
0.1938 1.9292 0.3872
0.0208 1.9400 0.3875
-0.1524 1.9344 0.3875
-0.3243 1.9125 0.3874
-0.4933 1.8745 0.3871
-0.6578 1.8207 0.3866
-0.8163 1.7518 0.3860
-0.9673 1.6684 0.3852
-1.1095 1.5714 0.3842
-1.2417 1.4618 0.3831
-1.3627 1.3408 0.3818
-6.9554 5.7160 1.7980
-7.4040 5.0495 1.7898
-7.7864 4.3470 1.7810
-8.0909 3.6114 1.7695
-8.3165 2.8528 1.7559
-8.4871 2.0867 1.7455
-8.6164 1.3174 1.7408
-8.6589 0.5406 1.7327
-8.6242 -0.2330 1.7230
-8.5204 -0.9960 1.7132
-8.3495 -1.7424 1.7034
-8.1140 -2.4664 1.6937
-7.8169 -3.1627 1.6841
-7.4616 -3.8262 1.6747
-7.0518 -4.4525 1.6656
-6.5914 -5.0374 1.6568
-6.0869 -5.5793 1.6490
-5.5468 -6.0806 1.6437
-4.9665 -6.5310 1.6386
-4.3513 -6.9283 1.6339
-3.7059 -7.2699 1.6297
-0.6505 -1.6190 0.3485
-0.5025 -1.6675 0.3478
-0.3512 -1.7032 0.3473
-0.1976 -1.7260 0.3469
-0.0427 -1.7356 0.3467
0.1123 -1.7322 0.3467
0.2665 -1.7156 0.3467
0.4188 -1.6860 0.3470
0.5682 -1.6436 0.3473
0.7137 -1.5887 0.3478
0.8542 -1.5215 0.3485
0.9888 -1.4424 0.3493
1.1165 -1.3519 0.3502
1.2363 -1.2506 0.3512
1.3474 -1.1390 0.3524
7.3235 -5.1448 1.7874
7.7754 -4.4833 1.7925
8.1700 -3.7834 1.7981
8.5040 -3.0495 1.8043
8.7743 -2.2868 1.8109
8.9781 -1.5004 1.8179
9.1133 -0.6960 1.8253
9.1779 0.1206 1.8331
9.1705 0.9433 1.8411
9.0987 1.7675 1.8511
8.9558 2.5872 1.8617
8.7391 3.3955 1.8724
8.4490 4.1856 1.8831
8.0868 4.9505 1.8936
5.0557 7.9680 1.9451
4.3439 8.4252 1.9539
0.7037 1.7282 0.3846
0.5477 1.7877 0.3854
0.3866 1.8323 0.3860
0.2218 1.8617 0.3865
0.0548 1.8753 0.3867
-0.1128 1.8732 0.3868
-0.2795 1.8553 0.3867
-0.4436 1.8217 0.3865
-0.6038 1.7729 0.3861
-0.7584 1.7093 0.3855
-0.9061 1.6316 0.3847
-1.0457 1.5405 0.3838
-1.1757 1.4371 0.3827
-1.2953 1.3223 0.3815
-1.4033 1.1973 0.3802
-7.0763 5.0200 1.7884
-7.4608 4.3479 1.7800
-7.7793 3.6461 1.7709
-8.0178 2.9170 1.7587
-8.1902 2.1749 1.7467
-8.3296 1.4315 1.7421
-8.3822 0.6791 1.7334
-8.3640 -0.0713 1.7241
-8.2787 -0.8130 1.7147
-8.1278 -1.5400 1.7052
-7.9139 -2.2467 1.6957
-7.6395 -2.9278 1.6864
-7.3078 -3.5784 1.6772
-6.9223 -4.1939 1.6683
-6.4869 -4.7703 1.6597
-6.0054 -5.3038 1.6515
-5.4901 -5.7995 1.6461
-4.9354 -6.2472 1.6411
-4.3459 -6.6438 1.6364
-3.7259 -6.9870 1.6322
-0.6604 -1.5597 0.3491
-0.5176 -1.6094 0.3485
-0.3714 -1.6467 0.3480
-0.2227 -1.6714 0.3476
-0.0726 -1.6835 0.3473
0.0779 -1.6828 0.3472
0.2278 -1.6693 0.3473
0.3761 -1.6432 0.3475
0.5217 -1.6046 0.3478
0.6637 -1.5537 0.3482
0.8011 -1.4908 0.3488
0.9329 -1.4163 0.3496
1.0582 -1.3307 0.3504
1.1760 -1.2344 0.3514
1.2855 -1.1280 0.3525
7.0071 -5.1184 1.7886
7.4559 -4.4847 1.7935
7.8497 -3.8127 1.7988
8.1852 -3.1071 1.8047
8.4594 -2.3725 1.8110
8.6696 -1.6140 1.8177
8.8135 -0.8372 1.8249
8.8893 -0.0474 1.8323
8.8955 0.7492 1.8401
8.8360 1.5476 1.8491
8.7108 2.3430 1.8593
8.5141 3.1283 1.8697
8.2462 3.8970 1.8800
7.9083 4.6426 1.8903
7.5021 5.3582 1.9003
7.0347 6.0413 1.9114
6.5041 6.6827 1.9222
5.9134 7.2753 1.9325
5.2669 7.8132 1.9422
4.5697 8.2903 1.9513
3.8276 8.7015 1.9595
0.5968 1.7708 0.3852
0.4371 1.8201 0.3858
0.2733 1.8542 0.3863
0.1068 1.8728 0.3867
-0.0608 1.8756 0.3868
-0.2279 1.8625 0.3868
-0.3930 1.8338 0.3866
-0.5546 1.7897 0.3862
-0.7111 1.7306 0.3857
-0.8611 1.6572 0.3850
-1.0033 1.5702 0.3841
-1.1364 1.4705 0.3831
-1.2594 1.3591 0.3819
-1.3710 1.2372 0.3807
-6.9440 5.2216 1.7909
-7.3484 4.5600 1.7826
-7.6876 3.8667 1.7738
-7.9523 3.1455 1.7627
-8.1403 2.4052 1.7497
-8.2959 1.6638 1.7441
-8.3739 0.9127 1.7363
-7.3608 0.1414 1.5175
-8.3123 -0.5841 1.7176
-8.1815 -1.3163 1.7081
-7.9869 -2.0299 1.6986
-7.7309 -2.7195 1.6893
-7.4167 -3.3800 1.6800
-7.0475 -4.0069 1.6711
-6.6271 -4.5958 1.6624
-6.1595 -5.1430 1.6540
-5.6544 -5.6506 1.6477
-5.1115 -6.1136 1.6426
-4.5323 -6.5263 1.6378
-3.9213 -6.8864 1.6335
-0.7039 -1.5418 0.3494
-0.5624 -1.5953 0.3487
-0.4171 -1.6365 0.3481
-0.2690 -1.6651 0.3477
-0.1193 -1.6811 0.3474
0.0312 -1.6843 0.3472
0.1814 -1.6748 0.3472
0.3303 -1.6526 0.3474
0.4769 -1.6179 0.3477
0.6201 -1.5708 0.3481
0.7590 -1.5116 0.3486
0.8927 -1.4406 0.3493
1.0201 -1.3584 0.3502
1.1403 -1.2654 0.3511
1.2525 -1.1621 0.3522
1.3557 -1.0492 0.3534
7.3223 -4.6857 1.7919
7.7336 -4.0251 1.7971
8.0876 -3.3294 1.8028
8.3811 -2.6032 1.8090
8.6114 -1.8517 1.8156
8.7761 -1.0799 1.8226
8.8731 -0.2936 1.8300
8.9011 0.5016 1.8377
8.8603 1.2998 1.8459
8.7573 2.0969 1.8561
8.5828 2.8860 1.8665
8.3369 3.6607 1.8768
8.0206 4.4141 1.8871
7.6354 5.1397 1.8972
7.1865 5.8333 1.9079
6.6754 6.4885 1.9189
6.1029 7.0970 1.9294
5.4732 7.6525 1.9393
4.7911 8.1490 1.9485
4.0623 8.5812 1.9570
0.6452 1.7525 0.3849
0.4872 1.8064 0.3856
0.3245 1.8453 0.3862
0.1586 1.8687 0.3866
-0.0088 1.8764 0.3868
-0.1762 1.8683 0.3868
-0.3421 1.8444 0.3867
-0.5049 1.8050 0.3863
-0.6631 1.7505 0.3858
-0.8153 1.6814 0.3852
-0.9601 1.5986 0.3844
-1.0962 1.5027 0.3834
-1.2224 1.3949 0.3823
-1.3376 1.2761 0.3811
-6.8056 5.4194 1.7933
-7.2298 4.7690 1.7853
-7.5895 4.0849 1.7766
-7.8803 3.3726 1.7668
-8.0891 2.6361 1.7537
-8.2543 1.8950 1.7457
-8.3590 1.1465 1.7391
-8.3833 0.3938 1.7299
-7.4993 -0.3183 1.5472
-8.2291 -1.0908 1.7111
-8.0540 -1.8108 1.7016
-7.8167 -2.5083 1.6922
-7.5202 -3.1784 1.6829
-7.1677 -3.8162 1.6738
-6.7629 -4.4173 1.6650
-6.3095 -4.9778 1.6566
-5.8148 -5.4972 1.6494
-5.2841 -5.9751 1.6442
-4.7157 -6.4037 1.6393
-4.1141 -6.7804 1.6348
-0.7469 -1.5227 0.3496
-0.6067 -1.5800 0.3489
-0.4625 -1.6250 0.3483
-0.3152 -1.6576 0.3478
-0.1659 -1.6775 0.3475
-0.0155 -1.6847 0.3473
0.1349 -1.6792 0.3472
0.2843 -1.6609 0.3473
0.4317 -1.6300 0.3476
0.5761 -1.5867 0.3479
0.7164 -1.5312 0.3485
0.8518 -1.4639 0.3491
0.9812 -1.3851 0.3499
1.1038 -1.2954 0.3508
1.2186 -1.1952 0.3518
1.3247 -1.0852 0.3530
7.1836 -4.8828 1.7904
7.6119 -4.2341 1.7954
7.9840 -3.5488 1.8010
8.2966 -2.8316 1.8070
8.5468 -2.0873 1.8135
8.7321 -1.3213 1.8204
8.8503 -0.5388 1.8277
8.8999 0.2542 1.8352
8.8794 1.0519 1.8431
8.7969 1.8500 1.8529
8.6446 2.6424 1.8633
8.4208 3.4222 1.8736
8.1263 4.1830 1.8839
7.7622 4.9179 1.8941
7.3321 5.6215 1.9044
6.8408 6.2899 1.9155
6.2870 6.9135 1.9262
5.6745 7.4861 1.9363
5.0081 8.0016 1.9458
4.2932 8.4543 1.9545
0.6931 1.7328 0.3847
0.5368 1.7913 0.3854
0.3754 1.8349 0.3860
0.2103 1.8631 0.3865
0.0433 1.8757 0.3867
-0.1243 1.8725 0.3868
-0.2909 1.8535 0.3867
-0.4548 1.8188 0.3865
-0.6146 1.7690 0.3860
-0.7688 1.7044 0.3854
-0.9160 1.6257 0.3846
-1.0549 1.5338 0.3837
-1.1843 1.4296 0.3827
-1.3031 1.3140 0.3815
-6.6613 5.6133 1.7956
-7.1049 4.9748 1.7878
-7.4849 4.3004 1.7794
-7.7988 3.5968 1.7703
-8.0315 2.8661 1.7578
-8.2030 2.1243 1.7466
-8.3363 1.3799 1.7417
-8.3831 0.6272 1.7328
-8.3603 -0.1228 1.7235
-8.2704 -0.8637 1.7140
-8.1151 -1.5895 1.7045
-7.8969 -2.2945 1.6951
-7.6184 -2.9737 1.6857
-7.2829 -3.6220 1.6766
-6.8939 -4.2349 1.6677
-6.4551 -4.8085 1.6592
-5.9710 -5.3392 1.6511
-5.4530 -5.8319 1.6458
-4.8959 -6.2762 1.6407
-4.3041 -6.6692 1.6361
-3.6822 -7.0087 1.6319
-0.6507 -1.5635 0.3491
-0.5076 -1.6123 0.3484
-0.3612 -1.6488 0.3479
-0.2124 -1.6727 0.3476
-0.0622 -1.6838 0.3473
0.0883 -1.6822 0.3472
0.2381 -1.6679 0.3473
0.3862 -1.6409 0.3475
0.5316 -1.6014 0.3478
0.6734 -1.5497 0.3483
0.8104 -1.4860 0.3489
0.9418 -1.4108 0.3496
1.0666 -1.3244 0.3505
1.1838 -1.2274 0.3515
1.2927 -1.1204 0.3526
7.0397 -5.0761 1.7890
7.4848 -4.4396 1.7938
7.8748 -3.7651 1.7992
8.2061 -3.0573 1.8051
8.4760 -2.3209 1.8114
8.6817 -1.5610 1.8182
8.8209 -0.7831 1.8254
8.8919 0.0073 1.8329
8.8933 0.8042 1.8406
8.8297 1.6026 1.8498
8.6995 2.3975 1.8601
8.4979 3.1819 1.8704
8.2252 3.9493 1.8807
7.8825 4.6930 1.8910
7.4717 5.4063 1.9010
7.0001 6.0869 1.9121
6.4653 6.7252 1.9229
5.8706 7.3142 1.9332
5.2204 7.8480 1.9429
4.5199 8.3208 1.9518
3.7750 8.7272 1.9600
0.5859 1.7747 0.3852
0.4259 1.8229 0.3859
0.2618 1.8560 0.3864
0.0952 1.8735 0.3867
-0.0724 1.8752 0.3868
-0.2394 1.8610 0.3868
-0.4043 1.8312 0.3866
-0.5656 1.7861 0.3862
-0.7217 1.7260 0.3856
-0.8712 1.6516 0.3849
-1.0128 1.5637 0.3840
-1.1453 1.4632 0.3830
-1.2674 1.3510 0.3818
-1.3783 1.2284 0.3806
-6.9739 5.1771 1.7903
-7.3739 4.5132 1.7821
-7.7086 3.8179 1.7731
-7.9674 3.0949 1.7618
-8.1508 2.3538 1.7488
-8.3039 1.6123 1.7436
-8.3763 0.8608 1.7357
-7.4038 0.0966 1.5263
-8.3054 -0.6351 1.7170
-8.1701 -1.3661 1.7075
-7.9712 -2.0782 1.6980
-7.7111 -2.7660 1.6886
-7.3929 -3.4244 1.6794
-7.0201 -4.0487 1.6704
-6.5964 -4.6349 1.6618
-6.1256 -5.1791 1.6535
-5.6182 -5.6841 1.6474
-5.0727 -6.1437 1.6423
-4.4912 -6.5529 1.6375
-3.8781 -6.9092 1.6332
-0.6943 -1.5458 0.3493
-0.5524 -1.5985 0.3486
-0.4069 -1.6388 0.3481
-0.2587 -1.6666 0.3477
-0.1089 -1.6817 0.3474
0.0416 -1.6841 0.3472
0.1917 -1.6737 0.3473
0.3405 -1.6506 0.3474
0.4869 -1.6150 0.3477
0.6298 -1.5671 0.3481
0.7684 -1.5070 0.3487
0.9017 -1.4353 0.3494
1.0286 -1.3524 0.3502
1.1483 -1.2586 0.3512
1.2599 -1.1546 0.3523
1.3625 -1.0411 0.3534
7.3524 -4.6414 1.7922
7.7599 -3.9782 1.7975
8.1097 -3.2803 1.8032
8.3990 -2.5522 1.8094
8.6248 -1.7990 1.8161
8.7849 -1.0261 1.8231
8.8773 -0.2390 1.8305
8.9004 0.5566 1.8382
8.8555 1.3548 1.8466
8.7476 2.1516 1.8568
8.5681 2.9400 1.8672
8.3174 3.7134 1.8775
7.9963 4.4651 1.8878
7.6064 5.1885 1.8979
7.1533 5.8798 1.9087
6.6379 6.5320 1.9196
6.0613 7.1371 1.9301
5.4278 7.6886 1.9400
4.7424 8.1809 1.9492
4.0105 8.6085 1.9576
0.6345 1.7567 0.3850
0.4761 1.8096 0.3857
0.3131 1.8474 0.3862
0.1471 1.8697 0.3866
-0.0203 1.8763 0.3868
-0.1877 1.8671 0.3868
-0.3534 1.8422 0.3866
-0.5160 1.8017 0.3863
-0.6738 1.7462 0.3858
-0.8256 1.6762 0.3851
-0.9698 1.5924 0.3843
-1.1052 1.4957 0.3833
-1.2307 1.3870 0.3822
-1.3451 1.2675 0.3810
-6.8369 5.3758 1.7927
-7.2567 4.7229 1.7847
-7.6118 4.0366 1.7760
-7.8968 3.3223 1.7659
-8.1011 2.5849 1.7528
-8.2643 1.8438 1.7454
-8.3629 1.0946 1.7385
-7.4245 0.3030 1.5317
-7.5059 -0.3649 1.5490
-8.2190 -1.1410 1.7104
-8.0396 -1.8596 1.7009
-7.7982 -2.5555 1.6915
-7.4977 -3.2235 1.6823
-7.1415 -3.8588 1.6732
-6.7331 -4.4573 1.6644
-6.2765 -5.0149 1.6560
-5.7795 -5.5317 1.6490
-5.2461 -6.0063 1.6438
-4.6752 -6.4314 1.6389
-4.0715 -6.8044 1.6345
-0.7374 -1.5270 0.3495
-0.5969 -1.5835 0.3488
-0.4524 -1.6276 0.3482
-0.3050 -1.6594 0.3478
-0.1555 -1.6784 0.3474
-0.0051 -1.6847 0.3473
0.1452 -1.6783 0.3472
0.2945 -1.6591 0.3473
0.4417 -1.6274 0.3476
0.5859 -1.5832 0.3480
0.7259 -1.5269 0.3485
0.8609 -1.4588 0.3492
0.9899 -1.3793 0.3500
1.1120 -1.2888 0.3509
1.2262 -1.1879 0.3519
1.3316 -1.0773 0.3531
7.2148 -4.8394 1.7907
7.6394 -4.1880 1.7958
8.0075 -3.5004 1.8014
8.3159 -2.7811 1.8074
8.5617 -2.0352 1.8140
8.7424 -1.2678 1.8209
8.8560 -0.4844 1.8282
8.9007 0.3091 1.8358
8.8754 1.1069 1.8436
8.7887 1.9049 1.8537
8.6314 2.6966 1.8640
8.4028 3.4753 1.8743
8.1034 4.2345 1.8846
7.7346 4.9674 1.8948
7.3003 5.6689 1.9052
6.8046 6.3344 1.9163
6.2466 6.9547 1.9269
5.6302 7.5235 1.9370
4.9603 8.0348 1.9464
4.2423 8.4830 1.9550
0.6825 1.7373 0.3847
0.5258 1.7947 0.3855
0.3641 1.8373 0.3861
0.1989 1.8645 0.3865
0.0317 1.8760 0.3867
-0.1359 1.8717 0.3868
-0.3023 1.8516 0.3867
-0.4660 1.8159 0.3864
-0.6254 1.7650 0.3860
-0.7792 1.6994 0.3854
-0.9259 1.6198 0.3846
-1.0642 1.5270 0.3837
-1.1929 1.4219 0.3826
-1.3109 1.3057 0.3814
-6.6939 5.5706 1.7951
-7.1332 4.9294 1.7873
-7.5087 4.2528 1.7787
-7.8179 3.5474 1.7696
-8.0449 2.8151 1.7569
-8.2154 2.0736 1.7465
-8.3425 1.3282 1.7413
-8.3837 0.5753 1.7322
-8.3562 -0.1742 1.7228
-8.2617 -0.9142 1.7134
-8.1020 -1.6388 1.7039
-7.8795 -2.3422 1.6944
-7.5971 -3.0194 1.6851
-7.2578 -3.6654 1.6760
-6.8652 -4.2758 1.6671
-6.4231 -4.8464 1.6586
-5.9367 -5.3747 1.6507
-5.4158 -5.8641 1.6454
-4.8562 -6.3049 1.6404
-4.2621 -6.6943 1.6358
-3.6384 -7.0300 1.6316
-0.6410 -1.5673 0.3490
-0.4976 -1.6153 0.3484
-0.3510 -1.6509 0.3479
-0.2021 -1.6739 0.3475
-0.0518 -1.6841 0.3473
0.0986 -1.6817 0.3472
0.2484 -1.6664 0.3473
0.3963 -1.6386 0.3475
0.5415 -1.5983 0.3478
0.6830 -1.5457 0.3483
0.8196 -1.4812 0.3489
0.9506 -1.4052 0.3497
1.0749 -1.3180 0.3506
1.1916 -1.2203 0.3516
1.2999 -1.1126 0.3527
7.0721 -5.0335 1.7893
7.5135 -4.3943 1.7942
7.8995 -3.7174 1.7996
8.2267 -3.0074 1.8055
8.4923 -2.2692 1.8119
8.6934 -1.5079 1.8187
8.8280 -0.7289 1.8259
8.8943 0.0621 1.8334
8.8908 0.8592 1.8412
8.8230 1.6576 1.8505
8.6879 2.4520 1.8608
8.4813 3.2354 1.8711
8.2038 4.0014 1.8814
7.8564 4.7432 1.8917
7.4410 5.4541 1.9017
6.9653 6.1323 1.9129
6.4262 6.7674 1.9237
5.8275 7.3529 1.9339
5.1737 7.8826 1.9435
4.4699 8.3510 1.9524
3.7222 8.7527 1.9605
0.5750 1.7785 0.3853
0.4147 1.8257 0.3859
0.2504 1.8577 0.3864
0.0837 1.8741 0.3867
-0.0839 1.8747 0.3868
-0.2508 1.8595 0.3868
-0.4155 1.8286 0.3865
-0.5765 1.7824 0.3861
-0.7322 1.7213 0.3856
-0.8812 1.6460 0.3848
-1.0222 1.5572 0.3840
-1.1540 1.4558 0.3829
-1.2754 1.3429 0.3818
-1.3855 1.2196 0.3805
-7.0035 5.1325 1.7898
-7.3991 4.4662 1.7815
-7.7291 3.7690 1.7725
-7.9822 3.0442 1.7609
-8.1610 2.3024 1.7479
-8.3117 1.5607 1.7432
-8.3784 0.8090 1.7350
-7.8897 0.0543 1.6263
-8.2981 -0.6860 1.7163
-8.1584 -1.4159 1.7068
-7.9552 -2.1265 1.6973
-7.6910 -2.8124 1.6880
-7.3690 -3.4685 1.6788
-6.9925 -4.0904 1.6698
-6.5654 -4.6738 1.6612
-6.0916 -5.2149 1.6529
-5.5819 -5.7173 1.6470
-5.0337 -6.1735 1.6419
-4.4499 -6.5791 1.6372
-3.8348 -6.9317 1.6329
-0.6846 -1.5499 0.3492
-0.5425 -1.6017 0.3486
-0.3968 -1.6412 0.3480
-0.2485 -1.6681 0.3476
-0.0985 -1.6823 0.3474
0.0520 -1.6838 0.3472
0.2021 -1.6725 0.3473
0.3507 -1.6486 0.3474
0.4968 -1.6121 0.3477
0.6395 -1.5633 0.3482
0.7778 -1.5025 0.3487
0.9106 -1.4300 0.3494
1.0371 -1.3462 0.3503
1.1563 -1.2517 0.3512
1.2673 -1.1471 0.3523
6.9243 -5.2236 1.7879
7.3823 -4.5969 1.7926
7.7859 -3.9312 1.7978
8.1317 -3.2310 1.8036
8.4166 -2.5010 1.8099
8.6380 -1.7463 1.8165
8.7935 -0.9723 1.8236
8.8811 -0.1844 1.8310
8.8994 0.6115 1.8387
8.8504 1.4098 1.8473
8.7375 2.2063 1.8576
8.5531 2.9938 1.8679
8.2975 3.7659 1.8782
7.9716 4.5160 1.8885
7.5770 5.2372 1.8986
7.1199 5.9262 1.9094
6.6001 6.5753 1.9204
6.0194 7.1769 1.9308
5.3822 7.7246 1.9406
4.6933 8.2125 1.9498
3.9586 8.6354 1.9581
0.6238 1.7608 0.3850
0.4650 1.8127 0.3857
0.3017 1.8494 0.3863
0.1356 1.8707 0.3866
-0.0319 1.8762 0.3868
-0.1992 1.8659 0.3868
-0.3648 1.8399 0.3866
-0.5270 1.7984 0.3863
-0.6845 1.7418 0.3858
-0.8358 1.6708 0.3851
-0.9794 1.5861 0.3842
-1.1142 1.4885 0.3833
-1.2389 1.3791 0.3821
-1.3526 1.2589 0.3809
-6.8678 5.3320 1.7922
-7.2833 4.6766 1.7841
-7.6339 3.9883 1.7754
-7.9130 3.2719 1.7650
-8.1127 2.5337 1.7519
-8.2740 1.7926 1.7451
-8.3664 1.0427 1.7379
-7.3713 0.2553 1.5203
-7.5137 -0.4117 1.5511
-8.2087 -1.1912 1.7098
-8.0249 -1.9084 1.7003
-7.7793 -2.6024 1.6909
-7.4749 -3.2683 1.6816
-7.1149 -3.9013 1.6726
-6.7031 -4.4971 1.6638
-6.2434 -5.0517 1.6554
-5.7440 -5.5659 1.6487
-5.2079 -6.0372 1.6435
-4.6346 -6.4588 1.6386
-4.0288 -6.8281 1.6342
-0.7278 -1.5313 0.3495
-0.5871 -1.5869 0.3488
-0.4424 -1.6302 0.3482
-0.2947 -1.6611 0.3477
-0.1452 -1.6793 0.3474
0.0053 -1.6847 0.3473
0.1556 -1.6774 0.3472
0.3048 -1.6574 0.3474
0.4518 -1.6248 0.3476
0.5957 -1.5798 0.3480
0.7354 -1.5226 0.3485
0.8700 -1.4537 0.3492
0.9986 -1.3734 0.3500
1.1201 -1.2822 0.3509
1.2337 -1.1806 0.3520
1.3386 -1.0693 0.3531
7.2458 -4.7958 1.7911
7.6666 -4.1417 1.7962
8.0307 -3.4517 1.8018
8.3349 -2.7305 1.8079
8.5763 -1.9829 1.8144
8.7524 -1.2142 1.8214
8.8613 -0.4300 1.8287
8.9012 0.3640 1.8363
8.8711 1.1619 1.8442
8.7802 1.9598 1.8544
8.6180 2.7507 1.8647
8.3844 3.5284 1.8750
8.0802 4.2859 1.8853
7.7067 5.0168 1.8955
7.2682 5.7161 1.9060
6.7681 6.3787 1.9170
6.2059 6.9956 1.9276
5.5857 7.5607 1.9376
4.9123 8.0678 1.9470
4.1912 8.5115 1.9556
0.6719 1.7417 0.3848
0.5148 1.7982 0.3855
0.3528 1.8397 0.3861
0.1874 1.8658 0.3865
0.0202 1.8762 0.3868
-0.1474 1.8708 0.3868
-0.3137 1.8496 0.3867
-0.4771 1.8129 0.3864
-0.6362 1.7609 0.3859
-0.7896 1.6944 0.3853
-0.9357 1.6138 0.3845
-1.0734 1.5201 0.3836
-1.2013 1.4143 0.3825
-1.3186 1.2973 0.3813
-6.7262 5.5277 1.7946
-7.1611 4.8838 1.7867
-7.5321 4.2050 1.7781
-7.8367 3.4979 1.7690
-8.0579 2.7641 1.7559
-8.2271 2.0228 1.7463
-8.3479 1.2763 1.7407
-8.3840 0.5235 1.7315
-8.3519 -0.2256 1.7222
-8.2528 -0.9647 1.7127
-8.0887 -1.6880 1.7032
-7.8620 -2.3898 1.6938
-7.5755 -3.0650 1.6845
-7.2324 -3.7087 1.6754
-6.8363 -4.3164 1.6665
-6.3909 -4.8842 1.6580
-5.9022 -5.4100 1.6504
-5.3785 -5.8961 1.6450
-4.8162 -6.3335 1.6401
-4.2200 -6.7192 1.6355
-3.5944 -7.0511 1.6314
-0.6312 -1.5710 0.3490
-0.4876 -1.6181 0.3484
-0.3408 -1.6528 0.3479
-0.1917 -1.6750 0.3475
-0.0415 -1.6844 0.3473
0.1090 -1.6810 0.3472
0.2586 -1.6649 0.3473
0.4064 -1.6362 0.3475
0.5514 -1.5950 0.3479
0.6925 -1.5416 0.3484
0.8289 -1.4763 0.3490
0.9594 -1.3995 0.3497
1.0832 -1.3116 0.3506
1.1994 -1.2132 0.3516
1.3070 -1.1049 0.3528
7.1042 -4.9907 1.7896
7.5420 -4.3487 1.7945
7.9240 -3.6694 1.8000
8.2471 -2.9574 1.8059
8.5082 -2.2174 1.8124
8.7049 -1.4547 1.8192
8.8348 -0.6747 1.8264
8.8963 0.1169 1.8339
8.8880 0.9143 1.8417
8.8160 1.7126 1.8512
8.6760 2.5064 1.8615
8.4645 3.2888 1.8718
8.1821 4.0534 1.8822
7.8299 4.7932 1.8924
4.8948 7.7145 1.9420
4.2051 8.1560 1.9505
0.6813 1.6734 0.3840
0.5303 1.7308 0.3848
0.3743 1.7740 0.3854
0.2147 1.8023 0.3858
0.0531 1.8155 0.3861
-0.1092 1.8134 0.3862
-0.2705 1.7961 0.3861
-0.4295 1.7636 0.3858
-0.5845 1.7164 0.3854
-0.7343 1.6549 0.3848
-0.8774 1.5798 0.3841
-1.0125 1.4917 0.3832
-1.1386 1.3917 0.3822
-1.2545 1.2807 0.3811
-1.3592 1.1598 0.3798
-6.8508 4.8600 1.7854
-7.2241 4.2100 1.7772
-7.5337 3.5310 1.7685
-7.7750 2.8287 1.7586
-7.9465 2.1102 1.7476
-8.0731 1.3875 1.7412
-8.1233 0.6581 1.7323
-8.1071 -0.0691 1.7233
-8.0257 -0.7882 1.7141
-7.8808 -1.4932 1.7049
-7.6746 -2.1788 1.6958
-7.4097 -2.8398 1.6867
-7.0892 -3.4714 1.6778
-6.7163 -4.0691 1.6692
-6.2948 -4.6290 1.6608
-5.8288 -5.1478 1.6529
-5.3279 -5.6282 1.6473
-4.7901 -6.0632 1.6424
-4.2182 -6.4487 1.6379
-0.7756 -1.4545 0.3504
-0.6413 -1.5146 0.3496
-0.5027 -1.5629 0.3490
-0.3607 -1.5993 0.3485
-0.2163 -1.6233 0.3481
-0.0705 -1.6351 0.3479
0.0757 -1.6344 0.3478
0.2213 -1.6213 0.3478
0.3653 -1.5959 0.3480
0.5067 -1.5584 0.3483
0.6446 -1.5089 0.3488
0.7780 -1.4477 0.3493
0.9059 -1.3753 0.3501
1.0275 -1.2921 0.3509
1.1418 -1.1985 0.3518
1.2480 -1.0951 0.3529
1.3452 -0.9827 0.3541
7.2382 -4.3537 1.7954
7.6198 -3.7011 1.8006
7.9448 -3.0158 1.8063
8.2100 -2.3025 1.8124
8.4131 -1.5663 1.8190
8.5517 -0.8123 1.8259
8.6242 -0.0460 1.8332
8.6291 0.7268 1.8407
8.5694 1.5009 1.8492
8.4465 2.2719 1.8592
8.2544 3.0329 1.8692
7.9934 3.7776 1.8792
7.6646 4.4995 1.8891
7.2697 5.1922 1.8989
6.8147 5.8523 1.9093
6.2996 6.4725 1.9198
5.7265 7.0454 1.9298
5.0996 7.5650 1.9392
4.4239 8.0258 1.9479
3.7050 8.4227 1.9558
0.5778 1.7145 0.3846
0.4232 1.7621 0.3852
0.2645 1.7951 0.3857
0.1034 1.8130 0.3860
-0.0589 1.8157 0.3861
-0.2207 1.8031 0.3861
-0.3805 1.7753 0.3859
-0.5369 1.7326 0.3856
-0.6885 1.6755 0.3850
-0.8338 1.6045 0.3843
-0.9715 1.5204 0.3835
-1.1005 1.4240 0.3825
-1.2196 1.3163 0.3814
-1.3279 1.1983 0.3802
-6.7224 5.0549 1.7878
-7.1149 4.4151 1.7798
-7.4445 3.7444 1.7713
-7.7091 3.0493 1.7621
-7.8951 2.3328 1.7499
-8.0440 1.6133 1.7439
-8.1149 0.8845 1.7351
-7.3390 0.1410 1.5602
-8.0578 -0.5662 1.7170
-7.9324 -1.2762 1.7078
-7.7450 -1.9684 1.6986
-7.4980 -2.6376 1.6895
-7.1945 -3.2788 1.6805
-6.8375 -3.8875 1.6718
-6.4306 -4.4595 1.6634
-5.9778 -4.9913 1.6553
-5.4872 -5.4835 1.6489
-4.9608 -5.9333 1.6439
-4.3991 -6.3345 1.6393
-3.8063 -6.6845 1.6350
-0.6835 -1.4972 0.3498
-0.5461 -1.5492 0.3492
-0.4050 -1.5893 0.3486
-0.2613 -1.6172 0.3482
-0.1158 -1.6328 0.3479
0.0303 -1.6359 0.3478
0.1762 -1.6267 0.3478
0.3208 -1.6051 0.3479
0.4631 -1.5713 0.3482
0.6022 -1.5255 0.3486
0.7371 -1.4679 0.3491
0.8669 -1.3990 0.3498
0.9905 -1.3191 0.3506
1.1072 -1.2286 0.3515
1.2160 -1.1282 0.3526
1.3161 -1.0185 0.3537
7.1087 -4.5490 1.7939
7.5073 -3.9073 1.7989
7.8502 -3.2317 1.8045
8.1343 -2.5266 1.8105
8.3569 -1.7969 1.8169
8.5157 -1.0479 1.8237
8.6089 -0.2848 1.8309
8.6349 0.4866 1.8383
8.5934 1.2606 1.8461
8.4921 2.0334 1.8561
8.3214 2.7981 1.8661
8.0817 3.5486 1.8761
7.7738 4.2783 1.8861
7.3992 4.9807 1.8959
6.9622 5.6512 1.9060
6.4659 6.2848 1.9166
5.9103 6.8730 1.9268
5.2996 7.4098 1.9364
4.6385 7.8894 1.9453
3.9324 8.3066 1.9535
0.6247 1.6968 0.3843
0.4716 1.7489 0.3850
0.3141 1.7865 0.3856
0.1536 1.8091 0.3859
-0.0085 1.8165 0.3861
-0.1706 1.8086 0.3861
-0.3312 1.7855 0.3860
-0.4888 1.7474 0.3857
-0.6420 1.6947 0.3852
-0.7894 1.6280 0.3846
-0.9296 1.5479 0.3838
-1.0615 1.4552 0.3829
-1.1838 1.3508 0.3818
-1.2956 1.2359 0.3806
-6.5881 5.2462 1.7901
-6.9997 4.6173 1.7824
-7.3491 3.9555 1.7740
-7.6340 3.2672 1.7650
-7.8449 2.5565 1.7538
-8.0054 1.8379 1.7459
-8.1000 1.1110 1.7378
-8.1249 0.3817 1.7289
-7.4974 -0.3182 1.5951
-7.9781 -1.0575 1.7106
-7.8097 -1.7558 1.7014
-7.5809 -2.4327 1.6923
-7.2945 -3.0830 1.6833
-6.9538 -3.7023 1.6745
-6.5620 -4.2861 1.6660
-6.1230 -4.8307 1.6578
-5.6427 -5.3345 1.6505
-5.1282 -5.7988 1.6454
-4.5770 -6.2153 1.6407
-3.9934 -6.5814 1.6363
-0.7253 -1.4787 0.3501
-0.5892 -1.5343 0.3494
-0.4492 -1.5782 0.3488
-0.3061 -1.6098 0.3483
-0.1611 -1.6293 0.3480
-0.0150 -1.6363 0.3478
0.1310 -1.6309 0.3478
0.2761 -1.6131 0.3479
0.4193 -1.5831 0.3481
0.5595 -1.5410 0.3485
0.6958 -1.4870 0.3490
0.8272 -1.4216 0.3496
0.9528 -1.3450 0.3504
1.0718 -1.2578 0.3512
1.1831 -1.1604 0.3522
1.2860 -1.0535 0.3534
6.9741 -4.7405 1.7924
7.3894 -4.1103 1.7973
7.7499 -3.4448 1.8027
8.0526 -2.7483 1.8086
8.2945 -2.0257 1.8149
8.4734 -1.2821 1.8216
8.5871 -0.5228 1.8286
8.6341 0.2466 1.8360
8.6132 1.0204 1.8436
8.5309 1.7941 1.8530
8.3818 2.5620 1.8630
8.1634 3.3176 1.8730
7.8766 4.0544 1.8830
7.5225 4.7660 1.8929
7.1036 5.4463 1.9026
6.6264 6.0927 1.9134
6.0889 6.6957 1.9237
5.4948 7.2490 1.9335
4.8488 7.7470 1.9426
4.1560 8.1841 1.9510
0.6711 1.6778 0.3841
0.5197 1.7343 0.3848
0.3634 1.7764 0.3854
0.2036 1.8037 0.3858
0.0419 1.8158 0.3861
-0.1204 1.8127 0.3862
-0.2816 1.7943 0.3861
-0.4403 1.7608 0.3858
-0.5950 1.7126 0.3854
-0.7444 1.6502 0.3848
-0.8870 1.5741 0.3840
-1.0215 1.4852 0.3832
-1.1469 1.3844 0.3821
-1.2620 1.2727 0.3810
-1.3660 1.1511 0.3797
-6.8785 4.8163 1.7848
-7.2475 4.1640 1.7767
-7.5526 3.4833 1.7679
-7.7884 2.7793 1.7577
-7.9583 2.0610 1.7474
-8.0787 1.3372 1.7406
-8.1243 0.6078 1.7317
-8.1035 -0.1190 1.7226
-8.0177 -0.8373 1.7135
-7.8685 -1.5412 1.7043
-7.6582 -2.2252 1.6951
-7.3894 -2.8843 1.6861
-7.0652 -3.5137 1.6772
-6.6888 -4.1090 1.6686
-6.2640 -4.6661 1.6603
-5.7951 -5.1820 1.6524
-5.2920 -5.6597 1.6470
-4.7517 -6.0914 1.6421
-4.1777 -6.4734 1.6376
-0.7665 -1.4590 0.3503
-0.6319 -1.5183 0.3496
-0.4930 -1.5658 0.3489
-0.3508 -1.6013 0.3484
-0.2063 -1.6246 0.3481
-0.0604 -1.6354 0.3479
0.0858 -1.6339 0.3478
0.2313 -1.6200 0.3478
0.3751 -1.5937 0.3480
0.5163 -1.5553 0.3483
0.6539 -1.5050 0.3488
0.7870 -1.4431 0.3494
0.9145 -1.3699 0.3501
1.0356 -1.2860 0.3510
1.1494 -1.1917 0.3519
1.2550 -1.0877 0.3530
1.3516 -0.9746 0.3542
7.2662 -4.3099 1.7957
7.6441 -3.6548 1.8010
7.9650 -2.9675 1.8067
8.2261 -2.2525 1.8129
8.4247 -1.5148 1.8195
8.5589 -0.7598 1.8264
8.6267 0.0071 1.8337
8.6270 0.7801 1.8412
8.5631 1.5542 1.8499
8.4355 2.3247 1.8599
8.2386 3.0848 1.8699
7.9729 3.8282 1.8799
7.6395 4.5482 1.8898
7.2401 5.2387 1.8995
6.7811 5.8965 1.9101
6.2619 6.5136 1.9205
5.6850 7.0830 1.9305
5.0545 7.5987 1.9398
4.3757 8.0552 1.9485
0.7169 1.6574 0.3838
0.5673 1.7182 0.3846
0.4123 1.7649 0.3852
0.2535 1.7968 0.3857
0.0922 1.8137 0.3860
-0.0700 1.8153 0.3861
-0.2318 1.8016 0.3861
-0.3914 1.7728 0.3859
-0.5475 1.7291 0.3855
-0.6987 1.6710 0.3850
-0.8435 1.5991 0.3843
-0.9807 1.5141 0.3834
-1.1090 1.4169 0.3825
-1.2275 1.3084 0.3813
-1.3350 1.1898 0.3801
-6.7514 5.0119 1.7873
-7.1397 4.3698 1.7793
-7.4649 3.6972 1.7707
-7.7249 3.0007 1.7615
-7.9054 2.2830 1.7490
-8.0510 1.5632 1.7433
-8.1173 0.8342 1.7345
-7.3769 0.0962 1.5681
-8.0512 -0.6156 1.7163
-7.9215 -1.3246 1.7071
-7.7299 -2.0153 1.6980
-7.4789 -2.6827 1.6889
-7.1715 -3.3218 1.6799
-6.8110 -3.9281 1.6712
-6.4008 -4.4975 1.6628
-5.9450 -5.0264 1.6548
-5.4521 -5.5160 1.6485
-4.9232 -5.9626 1.6436
-4.3592 -6.3603 1.6390
-3.7645 -6.7066 1.6348
-0.6742 -1.5012 0.3498
-0.5365 -1.5524 0.3491
-0.3952 -1.5916 0.3486
-0.2513 -1.6187 0.3482
-0.1058 -1.6334 0.3479
0.0404 -1.6357 0.3478
0.1862 -1.6256 0.3478
0.3307 -1.6032 0.3479
0.4728 -1.5685 0.3482
0.6117 -1.5219 0.3486
0.7462 -1.4636 0.3492
0.8756 -1.3938 0.3499
0.9988 -1.3132 0.3507
1.1149 -1.2220 0.3516
1.2232 -1.1209 0.3527
1.3226 -1.0106 0.3538
7.1379 -4.5059 1.7942
7.5328 -3.8618 1.7993
7.8717 -3.1840 1.8049
8.1516 -2.4770 1.8109
8.3699 -1.7459 1.8174
8.5243 -0.9957 1.8242
8.6128 -0.2319 1.8314
8.6342 0.5399 1.8388
8.5886 1.3140 1.8468
8.4825 2.0864 1.8568
8.3071 2.8504 1.8668
8.0626 3.5996 1.8768
7.7501 4.3276 1.8868
7.3710 5.0280 1.8965
6.9299 5.6962 1.9067
6.4294 6.3269 1.9173
5.8700 6.9117 1.9275
5.2556 7.4447 1.9370
4.5912 7.9201 1.9459
3.8822 8.3330 1.9540
0.6144 1.7009 0.3844
0.4609 1.7520 0.3851
0.3031 1.7885 0.3856
0.1424 1.8101 0.3859
-0.0197 1.8164 0.3861
-0.1817 1.8075 0.3861
-0.3422 1.7834 0.3860
-0.4995 1.7443 0.3857
-0.6524 1.6906 0.3852
-0.7993 1.6229 0.3845
-0.9390 1.5419 0.3837
-1.0702 1.4483 0.3828
-1.1918 1.3433 0.3817
-1.3028 1.2276 0.3805
-6.6184 5.2040 1.7896
-7.0258 4.5727 1.7818
-7.3708 3.9088 1.7734
-7.6512 3.2190 1.7644
-7.8566 2.5069 1.7529
-8.0146 1.7881 1.7454
-8.1039 1.0607 1.7372
-7.3793 0.3011 1.5698
-7.5054 -0.3649 1.5972
-7.9685 -1.1062 1.7100
-7.7958 -1.8032 1.7008
-7.5630 -2.4784 1.6917
-7.2728 -3.1268 1.6827
-6.9284 -3.7437 1.6739
-6.5332 -4.3250 1.6654
-6.0911 -4.8667 1.6572
-5.6085 -5.3680 1.6502
-5.0913 -5.8291 1.6451
-4.5377 -6.2422 1.6404
-3.9520 -6.6048 1.6360
-0.7160 -1.4829 0.3500
-0.5797 -1.5377 0.3493
-0.4394 -1.5807 0.3487
-0.2962 -1.6116 0.3483
-0.1511 -1.6301 0.3480
-0.0050 -1.6363 0.3478
0.1411 -1.6301 0.3478
0.2861 -1.6114 0.3479
0.4290 -1.5806 0.3481
0.5690 -1.5376 0.3485
0.7050 -1.4829 0.3490
0.8360 -1.4167 0.3496
0.9612 -1.3393 0.3504
1.0797 -1.2514 0.3513
1.1905 -1.1533 0.3523
1.2927 -1.0458 0.3534
7.0044 -4.6983 1.7927
7.4161 -4.0655 1.7977
7.7727 -3.3977 1.8031
8.0712 -2.6993 1.8090
8.3089 -1.9751 1.8153
8.4833 -1.2302 1.8220
8.5925 -0.4700 1.8291
8.6348 0.2999 1.8365
8.6092 1.0737 1.8441
8.5229 1.8473 1.8537
8.3690 2.6146 1.8637
8.1458 3.3691 1.8737
7.8543 4.1044 1.8837
7.4956 4.8140 1.8935
7.0727 5.4921 1.9034
6.5913 6.1358 1.9141
6.0497 6.7355 1.9244
5.4519 7.2852 1.9341
4.8024 7.7791 1.9432
4.1066 8.2119 1.9516
0.6609 1.6821 0.3841
0.5091 1.7376 0.3849
0.3525 1.7788 0.3854
0.1925 1.8050 0.3858
0.0307 1.8161 0.3861
-0.1315 1.8119 0.3862
-0.2926 1.7925 0.3860
-0.4511 1.7580 0.3858
-0.6055 1.7088 0.3853
-0.7544 1.6454 0.3847
-0.8965 1.5684 0.3840
-1.0305 1.4787 0.3831
-1.1552 1.3770 0.3821
-1.2696 1.2646 0.3809
-1.3727 1.1424 0.3796
-6.9059 4.7724 1.7843
-7.2706 4.1179 1.7761
-7.5712 3.4355 1.7672
-7.8015 2.7299 1.7569
-7.9697 2.0116 1.7471
-8.0840 1.2870 1.7400
-8.1250 0.5576 1.7311
-8.0997 -0.1689 1.7220
-8.0094 -0.8863 1.7129
-7.8560 -1.5890 1.7037
-7.6415 -2.2715 1.6945
-7.3688 -2.9287 1.6855
-7.0408 -3.5558 1.6766
-6.6610 -4.1486 1.6680
-6.2331 -4.7030 1.6597
-5.7613 -5.2159 1.6519
-5.2559 -5.6910 1.6466
-4.7132 -6.1193 1.6418
-4.1370 -6.4978 1.6373
-0.7574 -1.4635 0.3503
-0.6225 -1.5220 0.3495
-0.4833 -1.5687 0.3489
-0.3409 -1.6033 0.3484
-0.1962 -1.6257 0.3481
-0.0503 -1.6357 0.3478
0.0958 -1.6333 0.3478
0.2412 -1.6185 0.3478
0.3849 -1.5915 0.3480
0.5259 -1.5522 0.3484
0.6633 -1.5011 0.3488
0.7960 -1.4384 0.3494
0.9231 -1.3645 0.3502
1.0437 -1.2798 0.3510
1.1570 -1.1848 0.3520
1.2620 -1.0802 0.3531
6.8660 -4.8868 1.7913
7.2940 -4.2659 1.7961
7.6681 -3.6085 1.8013
7.9849 -2.9190 1.8071
8.2418 -2.2023 1.8133
8.4361 -1.4633 1.8199
8.5657 -0.7073 1.8269
8.6289 0.0602 1.8342
8.6245 0.8335 1.8417
8.5566 1.6075 1.8506
8.4242 2.3775 1.8606
8.2225 3.1367 1.8706
7.9520 3.8786 1.8806
7.6140 4.5969 1.8905
7.2102 5.2850 1.9002
6.7473 5.9404 1.9108
6.2240 6.5545 1.9212
5.6432 7.1203 1.9312
5.0092 7.6321 1.9405
4.3272 8.0844 1.9491
0.7068 1.6620 0.3839
0.5568 1.7219 0.3847
0.4015 1.7676 0.3853
0.2424 1.7985 0.3857
0.0810 1.8143 0.3860
-0.0812 1.8149 0.3861
-0.2428 1.8001 0.3861
-0.4023 1.7703 0.3859
-0.5581 1.7256 0.3855
-0.7089 1.6665 0.3849
-0.8532 1.5937 0.3842
-0.9898 1.5078 0.3834
-1.1175 1.4098 0.3824
-1.2352 1.3006 0.3813
-1.3420 1.1813 0.3800
-6.7801 4.9688 1.7867
-7.1642 4.3243 1.7787
-7.4849 3.6499 1.7700
-7.7402 2.9519 1.7608
-7.9154 2.2331 1.7481
-8.0577 1.5131 1.7427
-8.1194 0.7839 1.7339
-7.9207 0.0545 1.6836
-8.0443 -0.6650 1.7157
-7.9102 -1.3728 1.7065
-7.7144 -2.0621 1.6973
-7.4595 -2.7277 1.6882
-7.1483 -3.3647 1.6793
-6.7843 -3.9686 1.6706
-6.3708 -4.5353 1.6622
-5.9121 -5.0613 1.6543
-5.4169 -5.5483 1.6482
-4.8854 -5.9916 1.6432
-4.3191 -6.3858 1.6387
-3.7224 -6.7286 1.6345
-0.6648 -1.5051 0.3497
-0.5269 -1.5555 0.3491
-0.3854 -1.5939 0.3485
-0.2413 -1.6201 0.3482
-0.0957 -1.6339 0.3479
0.0505 -1.6354 0.3478
0.1962 -1.6244 0.3478
0.3406 -1.6012 0.3480
0.4825 -1.5657 0.3482
0.6211 -1.5183 0.3487
0.7553 -1.4591 0.3492
0.8843 -1.3886 0.3499
1.0070 -1.3072 0.3507
1.1227 -1.2153 0.3517
1.2303 -1.1136 0.3527
1.3291 -1.0027 0.3539
7.1668 -4.4627 1.7945
7.5580 -3.8161 1.7997
7.8929 -3.1361 1.8053
8.1687 -2.4273 1.8113
8.3826 -1.6947 1.8178
8.5325 -0.9434 1.8247
8.6165 -0.1789 1.8319
8.6331 0.5932 1.8394
8.5836 1.3673 1.8475
8.4727 2.1394 1.8574
8.2924 2.9026 1.8675
8.0433 3.6506 1.8775
7.7261 4.3769 1.8874
7.3425 5.0750 1.8972
6.8974 5.7410 1.9075
6.3927 6.3688 1.9181
5.8293 6.9502 1.9281
5.2114 7.4794 1.9376
4.5437 7.9507 1.9465
3.8318 8.3590 1.9545
0.6040 1.7048 0.3844
0.4502 1.7550 0.3851
0.2921 1.7905 0.3856
0.1313 1.8110 0.3860
-0.0309 1.8163 0.3861
-0.1928 1.8063 0.3861
-0.3531 1.7812 0.3860
-0.5102 1.7410 0.3856
-0.6627 1.6864 0.3851
-0.8092 1.6177 0.3845
-0.9483 1.5358 0.3837
-1.0789 1.4415 0.3827
-1.1998 1.3356 0.3816
-1.3101 1.2193 0.3804
-6.6485 5.1617 1.7891
-7.0516 4.5279 1.7813
