ply
format ascii 1.0
element vertex 1927
property float32 x
property float32 y
property float32 z
end_header
24.0207 24.0729 -12.2197
27.6917 33.2150 -15.5388
25.5324 36.8750 -16.1164
-11.5433 38.9800 -14.6078
-15.4951 39.1056 -15.1146
-13.3149 21.4294 -9.0655
-13.5186 17.9569 -8.0765
-13.7589 15.2309 -7.3753
-13.8834 12.8505 -6.7977
-13.9406 10.7620 -6.3282
-14.0462 8.9651 -5.9876
-14.2195 7.3798 -5.7566
-14.3080 5.8709 -5.5572
-14.3912 4.4521 -5.4129
-14.4709 3.0945 -5.3173
-14.4685 1.7640 -5.2374
-14.5447 0.4651 -5.2290
-14.7020 -0.8446 -5.2915
-14.7806 -2.1846 -5.3688
-14.8622 -3.5755 -5.4927
-14.9483 -5.0442 -5.6689
-15.0410 -6.6232 -5.9054
-17.0112 -9.3850 -6.9811
17.2887 -16.4671 -8.5793
36.5543 -11.8831 -13.8115
35.3604 -8.0914 -13.0343
36.4060 -4.9672 -13.2028
46.3561 6.1762 -16.8042
35.1224 7.9207 -12.9374
31.3350 10.0774 -11.8274
31.5268 13.3482 -12.3020
27.7697 14.8070 -11.3083
25.1516 16.4502 -10.7990
23.8085 18.8068 -10.9021
23.8812 22.6034 -11.8154
27.1681 30.7565 -14.7458
26.4438 35.9518 -16.0366
-10.6818 40.2611 -14.9674
-14.1757 38.9931 -14.9084
-18.3957 39.2743 -15.5836
-13.2686 22.7818 -9.4733
-13.5327 19.0869 -8.4073
-13.6376 15.9922 -7.5521
-13.8558 13.5800 -6.9713
-13.9810 11.4452 -6.4924
-14.0910 9.5709 -6.1208
-14.1897 7.8868 -5.8334
-14.2021 6.3072 -5.5838
-14.2863 4.8709 -5.4236
-14.4457 3.5235 -5.3429
-14.5077 2.1909 -5.2721
-14.5204 0.8801 -5.2271
-14.5967 -0.4208 -5.2471
-14.6742 -1.7421 -5.3098
-14.7542 -3.1065 -5.4178
-14.9202 -4.5643 -5.6065
-15.0105 -6.1040 -5.8226
-14.8935 -7.6702 -6.0196
-22.8540 -14.4856 -9.7227
36.3642 -12.9811 -13.8742
35.2990 -9.1459 -13.1027
35.4281 -5.8691 -12.9037
46.2769 4.8248 -16.7186
39.9778 7.8227 -14.6375
31.2766 9.0814 -11.7026
31.4638 12.2739 -12.1356
29.5653 14.6957 -11.8636
24.9541 15.3215 -10.5219
24.8057 18.4687 -11.1125
23.8032 21.2739 -11.4713
26.9354 28.7919 -14.1672
27.2981 34.9744 -15.9421
24.8089 38.4176 -16.4326
-10.1593 43.2390 -15.9600
-12.8928 38.8896 -14.7220
-17.0102 39.1937 -15.3525
-13.1554 24.1483 -9.8812
-13.4049 20.0998 -8.6812
-13.5817 16.8805 -7.7852
-13.8116 14.3329 -7.1522
-13.9007 12.0588 -6.6124
-14.0572 10.1466 -6.2295
-14.1592 8.4080 -5.9172
-14.2521 6.8233 -5.6778
-14.3385 5.3506 -5.4992
-14.4203 3.9569 -5.3731
-14.4990 2.6152 -5.2939
-14.4960 1.2951 -5.2295
-14.5722 -0.0036 -5.2362
-14.7301 -1.3233 -5.3142
-14.8096 -2.6789 -5.4078
-14.8926 -4.0945 -5.5499
-14.9809 -5.5988 -5.7467
-14.9935 -7.1874 -5.9746
-19.0922 -11.3501 -7.9811
-5.8326 -5.0649 -2.7757
-3.4112 -24.0461 -8.7269
36.3797 -14.1708 -14.0290
35.2370 -10.2124 -13.1826
35.4288 -6.9144 -12.9707
46.1983 3.4860 -16.6475
20.3034 3.3738 -7.3956
32.4951 8.4366 -12.0634
31.4024 11.2274 -11.9832
31.5610 14.5786 -12.4921
25.9252 14.9153 -10.7473
24.9339 17.4798 -10.9417
23.7296 20.0186 -11.1556
26.8356 27.0907 -13.7019
27.4966 33.2264 -15.4972
25.3978 36.9679 -16.1164
-11.6853 38.9375 -14.6077
-15.6642 39.1155 -15.1403
-13.0643 25.7026 -10.3602
-13.3485 21.3098 -9.0354
-13.5260 17.8310 -8.0420
-13.7650 15.1265 -7.3490
-13.9030 12.7748 -6.7844
-13.9901 10.7191 -6.3329
-14.0502 8.8957 -5.9754
-14.2232 7.3160 -5.7473
-14.3115 5.8115 -5.5503
-14.3946 4.3957 -5.4081
-14.4741 3.0400 -5.3144
-14.4716 1.7108 -5.2363
-14.5478 0.4121 -5.2295
-14.7051 -0.8986 -5.2938
-14.7838 -2.2401 -5.3729
-14.8656 -3.6337 -5.4989
-14.9520 -5.1062 -5.6773
-15.0449 -6.6905 -5.9165
-17.2548 -9.6016 -7.0954
17.4177 -16.4693 -8.6134
36.5628 -11.7387 -13.7985
35.3681 -7.9576 -13.0264
38.2581 -5.0779 -13.8677
46.1204 2.1575 -16.5904
46.3663 6.3496 -16.8161
34.6551 7.9481 -12.7758
31.3425 10.2060 -11.8442
31.5350 13.4874 -12.3243
27.5514 14.8199 -11.2413
25.1596 16.5866 -10.8283
23.6599 18.8298 -10.8654
23.8915 22.7787 -11.8614
28.6416 32.6636 -15.6101
26.3079 36.0414 -16.0337
-10.8239 40.2053 -14.9611
-14.3538 39.0393 -14.9460
-18.5755 39.2848 -15.6145
-13.3218 22.6825 -9.4522
-13.4664 18.8474 -8.3234
-13.6957 15.9424 -7.5521
-13.7851 13.4126 -6.9111
-13.9858 11.3643 -6.4753
-14.0952 9.4989 -6.1075
-14.1936 7.8214 -5.8232
-14.2056 6.2469 -5.5762
-14.3684 4.8406 -5.4481
-14.4489 3.4685 -5.3394
-14.5269 2.1397 -5.2762
-14.5235 0.8271 -5.2271
-14.5998 -0.4741 -5.2489
-14.6774 -1.7968 -5.3133
-14.7575 -3.1634 -5.4232
-14.9238 -4.6249 -5.6141
-15.0144 -6.1694 -5.8327
-15.5347 -8.0722 -6.2906
-23.3216 -14.9014 -9.9446
36.4959 -12.8784 -13.9065
35.3069 -9.0107 -13.0933
35.4358 -5.7378 -12.8988
46.2869 4.9964 -16.7287
39.9489 7.9685 -14.6375
31.2839 9.2073 -11.7179
31.4718 12.4092 -12.1560
29.3250 14.7098 -11.7886
24.8932 15.4093 -10.5199
24.7383 18.5590 -11.1125
23.8129 21.4392 -11.5136
27.0186 29.0925 -14.2666
27.3149 35.2600 -16.0268
24.8289 38.7578 -16.5393
-10.1921 42.6798 -15.7672
-13.0534 38.8990 -14.7434
-17.1847 39.2039 -15.3809
-13.2391 24.0924 -9.8780
-13.4763 20.0483 -8.6801
-13.5886 16.7635 -7.7540
-13.8174 14.2347 -7.1283
-13.9478 12.0109 -6.6140
-14.0616 10.0720 -6.2151
-14.1631 8.3407 -5.9061
-14.2558 6.7613 -5.6694
-14.3419 5.2924 -5.4931
-14.4235 3.9014 -5.3690
-14.5022 2.5613 -5.2917
-14.4991 1.2421 -5.2290
-14.5753 -0.0567 -5.2373
-14.7333 -1.3778 -5.3171
-14.8129 -2.7352 -5.4126
-14.8961 -4.1539 -5.5568
-14.9846 -5.6625 -5.7560
-14.9976 -7.2567 -5.9867
-19.8142 -11.8773 -8.3009
-5.8227 -5.0936 -2.7798
-3.3234 -24.0573 -8.7265
36.3968 -14.0248 -14.0156
35.2450 -10.0757 -13.1718
35.4365 -6.7820 -12.9644
46.2083 3.6561 -16.6557
43.8449 7.4501 -15.9805
32.4641 8.5549 -12.0634
31.4102 11.3595 -12.0019
31.2947 14.5942 -12.4077
25.7280 14.9268 -10.6880
24.9423 17.6215 -10.9735
23.7387 20.1749 -11.1944
26.8480 27.3014 -13.7589
27.3025 33.2378 -15.4560
25.2630 37.0602 -16.1164
-11.8296 38.9025 -14.6107
-15.8338 39.1253 -15.1664
-13.0885 25.5197 -10.3056
-13.4069 21.2307 -9.0225
-13.5333 17.7063 -8.0079
-13.7711 15.0229 -7.3230
-13.9082 12.6864 -6.7643
-14.0267 10.6663 -6.3319
-14.0543 8.8267 -5.9634
-14.2270 7.2525 -5.7380
-14.3150 5.7522 -5.5435
-14.3979 4.3394 -5.4034
-14.4773 2.9857 -5.3115
-14.4748 1.6578 -5.2352
-14.5509 0.3591 -5.2301
-14.7083 -0.9526 -5.2962
-14.7871 -2.2958 -5.3771
-14.8690 -3.6920 -5.5051
-14.9556 -5.1683 -5.6858
-15.0489 -6.7581 -5.9277
-17.5065 -9.8254 -7.2136
36.5712 -11.5947 -13.7856
35.3759 -7.8240 -13.0187
39.3857 -5.0816 -14.2696
46.1303 2.3265 -16.5969
46.3765 6.5233 -16.8283
34.1994 7.9748 -12.6184
31.3501 10.3350 -11.8613
31.5432 13.6271 -12.3468
27.3355 14.8325 -11.1752
25.0270 16.6304 -10.7973
23.6685 18.9779 -10.9010
23.9019 22.9555 -11.9081
28.6568 32.9223 -15.6836
26.2085 36.1813 -16.0534
-10.9865 40.2243 -14.9831
-14.5190 39.0489 -14.9698
-18.7560 39.2952 -15.6458
-13.3318 22.5114 -9.4011
-13.4742 18.7138 -8.2860
-13.7223 15.8559 -7.5348
-13.8667 13.3940 -6.9275
-13.9905 11.2838 -6.4585
-14.0219 9.3754 -6.0609
-14.1974 7.7562 -5.8131
-14.2668 6.2118 -5.5913
-14.3718 4.7834 -5.4427
-14.4522 3.4136 -5.3359
-14.4503 2.0746 -5.2456
-14.5266 0.7742 -5.2272
-14.6835 -0.5304 -5.2796
-14.7617 -1.8618 -5.3463
-14.8424 -3.2382 -5.4587
-14.9273 -4.6857 -5.6218
-15.0182 -6.2351 -5.8430
-15.7320 -8.2476 -6.3827
-23.3405 -15.0337 -9.9760
36.5045 -12.7319 -13.8920
35.3147 -8.8758 -13.0842
35.5476 -5.6231 -12.9320
46.2970 5.1682 -16.7391
39.9196 8.1140 -14.6375
31.2913 9.3335 -11.7333
31.4797 12.5451 -12.1766
29.0985 14.7291 -11.7190
24.9091 15.5450 -10.5504
24.6704 18.6491 -11.1125
23.8227 21.6057 -11.5563
27.1956 29.4979 -14.4167
27.3318 35.5489 -16.1127
24.8491 39.1023 -16.6476
-10.2241 42.1339 -15.5792
-13.7272 40.4176 -15.3379
-17.3598 39.2141 -15.4096
-13.2500 23.9056 -9.8211
-13.4848 19.9037 -8.6388
-13.5954 16.6476 -7.7232
-13.8231 14.1372 -7.1046
-13.9528 11.9269 -6.5957
-14.0659 9.9978 -6.2009
-14.1670 8.2736 -5.8951
-14.2594 6.6995 -5.6611
-14.3453 5.2344 -5.4871
-14.4268 3.8458 -5.3650
-14.5053 2.5074 -5.2894
-14.5022 1.1892 -5.2285
-14.5784 -0.1099 -5.2386
-14.7365 -1.4323 -5.3201
-14.8162 -2.7917 -5.4175
-14.8996 -4.2134 -5.5638
-14.9884 -5.7264 -5.7654
-15.0017 -7.3262 -5.9990
-20.1595 -12.1843 -8.4641
-5.8127 -5.1224 -2.7839
-3.2359 -24.0698 -8.7267
36.3137 -13.8411 -13.9642
35.2529 -9.9391 -13.1611
35.4442 -6.6495 -12.9582
46.2183 3.8266 -16.6643
42.9600 7.4609 -15.6677
32.4327 8.6732 -12.0634
31.4180 11.4919 -12.0208
31.0320 14.6097 -12.3246
25.5330 14.9383 -10.6295
24.9506 17.7641 -11.0056
23.7480 20.3323 -11.2336
26.8605 27.5141 -13.8166
27.2727 33.4493 -15.5080
25.1278 37.1519 -16.1164
-10.1256 43.8126 -15.8459
-4.8137 14.6990 -5.4504
-16.8364 39.1836 -15.0284
-13.2167 24.4727 -9.8011
-13.4591 20.3413 -8.5950
-13.5748 16.9984 -7.6657
-13.8058 14.4318 -7.0378
-13.8613 12.1135 -6.4869
-14.0528 10.2216 -6.1234
-14.1552 8.4755 -5.8139
-14.2485 6.8855 -5.5765
-14.3351 5.4089 -5.3991
-14.3379 3.9906 -5.2445
-14.4163 2.6546 -5.1655
-14.4929 1.3481 -5.1291
-14.5691 0.0495 -5.1340
-14.6460 -1.2620 -5.1802
-14.8063 -2.6226 -5.2987
-14.8892 -4.0352 -5.4360
-14.9772 -5.5352 -5.6267
-15.0182 -7.1320 -5.8586
-19.1470 -11.2884 -7.8325
-5.8535 -5.0457 -2.7232
36.4377 -14.3466 -13.7996
35.2291 -10.3494 -12.9388
35.3597 -7.0348 -12.7045
46.1883 3.3161 -16.3180
20.2901 3.2957 -7.2437
33.1662 8.4819 -12.0634
31.3947 11.0958 -11.7337
31.5917 14.4533 -12.2422
26.1247 14.9036 -10.5986
25.0568 17.4300 -10.7558
23.7205 19.8635 -10.9025
24.0207 24.0728 -11.9837
27.6917 33.2150 -15.2387
26.0353 37.6013 -16.1164
-11.5433 38.9800 -14.3257
-15.4951 39.1056 -14.8227
-21.1898 42.0675 -16.5984
-13.3215 21.4399 -8.8947
-13.5186 17.9569 -7.9205
-13.7589 15.2309 -7.2328
-13.8978 12.8638 -6.6733
-13.9406 10.7620 -6.2060
-14.0462 8.9651 -5.8719
-14.2195 7.3798 -5.6454
-14.3080 5.8709 -5.4499
-14.3912 4.4521 -5.3084
-14.3915 3.0775 -5.1860
-14.4685 1.7640 -5.1363
-14.5447 0.4651 -5.1280
-14.6213 -0.8400 -5.1608
-14.6994 -2.1726 -5.2361
-14.8622 -3.5755 -5.3867
-14.9483 -5.0441 -5.5594
-15.0410 -6.6232 -5.7913
-17.0112 -9.3850 -6.8463
-4.1981 -24.0049 -8.5874
36.5543 -11.8831 -13.5448
35.2985 -8.0772 -12.7602
36.1128 -4.9272 -12.8436
46.3561 6.1762 -16.4796
35.1224 7.9207 -12.6875
31.3350 10.0774 -11.5990
31.5268 13.3482 -12.0644
27.7697 14.8070 -11.0898
25.1516 16.4502 -10.5904
23.8085 18.8068 -10.6915
23.8812 22.6034 -11.5872
27.1681 30.7565 -14.4610
26.4438 35.9518 -15.7269
-10.6818 40.2611 -14.6783
-14.1652 38.9642 -14.6096
-18.3957 39.2743 -15.2826
-13.2686 22.7818 -9.2904
-13.4585 18.9821 -8.1997
-13.7093 16.0763 -7.4452
-13.7797 13.5054 -6.7991
-13.9810 11.4452 -6.3670
-14.0135 9.5183 -5.9696
-14.1897 7.8868 -5.7207
-14.2021 6.3072 -5.4759
-14.2863 4.8709 -5.3189
-14.3665 3.5041 -5.2110
-14.4441 2.1813 -5.1476
-14.5204 0.8801 -5.1262
-14.5967 -0.4208 -5.1458
-14.6742 -1.7421 -5.2073
-14.7542 -3.1065 -5.3132
-14.9202 -4.5643 -5.4982
-15.0105 -6.1040 -5.7101
-14.8936 -7.6702 -5.9034
-22.1955 -14.0683 -9.2602
36.3642 -12.9811 -13.6062
35.2368 -9.1298 -12.8270
35.4281 -5.8691 -12.6545
46.2769 4.8248 -16.3957
40.7651 7.9768 -14.6375
31.2766 9.0814 -11.4766
31.4638 12.2739 -11.9012
29.5653 14.6957 -11.6345
24.9541 15.3215 -10.3187
25.0005 18.6137 -10.9834
23.8032 21.2739 -11.2497
26.9354 28.7919 -13.8935
27.3664 35.0619 -15.6733
24.8107 38.4203 -16.1164
-10.1593 43.2391 -15.6518
-12.8928 38.8896 -14.4376
-17.0102 39.1937 -15.0560
-13.1554 24.1483 -9.6903
-13.4049 20.0998 -8.5135
-13.5817 16.8805 -7.6348
-13.8116 14.3329 -7.0141
-13.9007 12.0588 -6.4847
-14.0572 10.1466 -6.1092
-14.1592 8.4080 -5.8029
-14.2521 6.8233 -5.5682
-14.3385 5.3506 -5.3930
-14.3412 3.9352 -5.2404
-14.4194 2.6009 -5.1632
-14.4960 1.2951 -5.1285
-14.5722 -0.0036 -5.1350
-14.6492 -1.3161 -5.1830
-14.8096 -2.6789 -5.3034
-14.8926 -4.0945 -5.4427
-14.9809 -5.5988 -5.6357
-14.9935 -7.1874 -5.8592
-19.0922 -11.3501 -7.8269
-5.8325 -5.0647 -2.7220
36.3797 -14.1708 -13.7579
35.1743 -10.1945 -12.9050
35.3674 -6.9024 -12.6981
46.1983 3.4860 -16.3259
20.3006 3.3734 -7.2517
33.1350 8.6028 -12.0634
31.4024 11.2274 -11.7518
31.5610 14.5786 -12.2509
25.9252 14.9153 -10.5397
25.0651 17.5717 -10.7868
23.7296 20.0186 -10.9401
24.2003 24.4303 -12.1177
27.4966 33.2264 -15.1978
25.8980 37.6960 -16.1164
-11.6853 38.9375 -14.3256
-15.6642 39.1155 -14.8479
-13.0643 25.7026 -10.1601
-13.3977 21.3883 -8.8935
-13.5260 17.8310 -7.8867
-13.7650 15.1265 -7.2070
-13.9030 12.7748 -6.6534
-13.9901 10.7191 -6.2106
-14.1277 8.9448 -5.8923
-14.2232 7.3160 -5.6362
-14.3115 5.8115 -5.4431
-14.3946 4.3957 -5.3037
-14.3947 3.0234 -5.1832
-14.4716 1.7108 -5.1351
-14.5478 0.4121 -5.1285
-14.6244 -0.8936 -5.1630
-14.7027 -2.2278 -5.2402
-14.8656 -3.6337 -5.3927
-14.9520 -5.1062 -5.5676
-15.0449 -6.6905 -5.8022
-17.2548 -9.6016 -6.9583
-4.1123 -24.0299 -8.5909
17.5218 -16.5678 -8.4976
36.5628 -11.7387 -13.5320
35.3064 -7.9437 -12.7525
38.2581 -5.0779 -13.5999
46.1204 2.1575 -16.2700
46.3663 6.3496 -16.4913
34.6552 7.9481 -12.5291
31.3425 10.2060 -11.6155
31.5350 13.4873 -12.0862
27.5514 14.8199 -11.0241
25.1596 16.5866 -10.6192
23.6599 18.8298 -10.6555
23.8915 22.7787 -11.6323
27.1251 30.9341 -14.4980
26.3079 36.0414 -15.7240
-10.8239 40.2053 -14.6722
-14.3297 38.9739 -14.6327
-18.5755 39.2848 -15.3130
-13.3218 22.6826 -9.2696
-13.4664 18.8474 -8.1626
-13.7158 15.9657 -7.4171
-13.7851 13.4126 -6.7776
-13.9858 11.3643 -6.3503
-14.0177 9.4467 -5.9566
-14.1936 7.8214 -5.7107
-14.2056 6.2469 -5.4685
-14.3684 4.8406 -5.3429
-14.3697 3.4495 -5.2075
-14.4472 2.1280 -5.1459
-14.5235 0.8271 -5.1262
-14.5998 -0.4741 -5.1475
-14.6774 -1.7968 -5.2107
-14.7575 -3.1634 -5.3185
-14.9238 -4.6249 -5.5057
-15.0144 -6.1694 -5.7201
-15.5347 -8.0722 -6.1691
-23.3216 -14.9014 -9.7526
36.4959 -12.8784 -13.6379
35.2447 -8.9948 -12.8178
35.4358 -5.7378 -12.6497
46.2869 4.9964 -16.4056
40.7357 8.1254 -14.6375
31.2839 9.2073 -11.4916
31.4718 12.4092 -11.9212
29.3250 14.7098 -11.5609
24.8932 15.4093 -10.3168
24.9772 18.7382 -11.0032
23.8129 21.4392 -11.2912
27.0186 29.0925 -13.9910
27.3831 35.3480 -15.7565
24.8289 38.7578 -16.2199
-10.1921 42.6798 -15.4626
-13.0534 38.8990 -14.4587
-17.1847 39.2039 -15.0839
-13.2391 24.0924 -9.6872
-13.4763 20.0483 -8.5125
-13.5886 16.7635 -7.6042
-13.8174 14.2347 -6.9906
-13.9478 12.0109 -6.4862
-14.0616 10.0720 -6.0951
-14.1631 8.3407 -5.7920
-14.2558 6.7613 -5.5599
-14.3419 5.2924 -5.3870
-14.3444 3.8800 -5.2364
-14.4226 2.5472 -5.1610
-14.4991 1.2421 -5.1280
-14.5753 -0.0567 -5.1362
-14.6524 -1.3702 -5.1858
-14.8129 -2.7352 -5.3081
-14.8961 -4.1539 -5.4495
-14.9846 -5.6625 -5.6448
-14.9976 -7.2567 -5.8711
-19.8142 -11.8773 -8.1406
-5.8225 -5.0934 -2.7260
36.3968 -14.0248 -13.7449
35.1823 -10.0577 -12.8944
35.3752 -6.7703 -12.6920
46.2083 3.6561 -16.3341
43.6649 7.4195 -15.6075
33.1035 8.7234 -12.0634
31.4102 11.3595 -11.7701
31.2947 14.5942 -12.1680
25.7280 14.9268 -10.4816
25.0734 17.7142 -10.8182
23.7387 20.1749 -10.9782
27.0932 27.5508 -13.6164
27.3025 33.2378 -15.1574
25.7605 37.7901 -16.1164
-11.8296 38.9025 -14.3285
-15.8338 39.1253 -14.8735
-13.0885 25.5197 -10.1066
-13.4069 21.2307 -8.8482
-13.5333 17.7063 -7.8533
-13.7711 15.0229 -7.1815
-13.9082 12.6864 -6.6337
-14.0267 10.6663 -6.2096
-14.1317 8.8754 -5.8805
-14.2270 7.2525 -5.6272
-14.3150 5.7522 -5.4364
-14.3979 4.3394 -5.2990
-14.3978 2.9693 -5.1804
-14.4748 1.6578 -5.1340
-14.5509 0.3591 -5.1291
-14.6276 -0.9473 -5.1653
-14.7059 -2.2832 -5.2442
-14.8690 -3.6920 -5.3987
-14.9556 -5.1683 -5.5760
-15.0489 -6.7581 -5.8132
-17.5065 -9.8254 -7.0742
-4.0266 -24.0562 -8.5950
17.5794 -16.5014 -8.4963
36.5712 -11.5947 -13.5194
35.3142 -7.8104 -12.7450
39.3856 -5.0816 -13.9940
46.1303 2.3265 -16.2763
46.3765 6.5233 -16.5033
34.1994 7.9748 -12.3747
31.3501 10.3350 -11.6322
31.5432 13.6270 -12.1083
27.3355 14.8325 -10.9594
25.0270 16.6304 -10.5887
23.7357 19.0318 -10.7208
23.9019 22.9555 -11.6781
27.0817 31.1127 -14.5353
26.2085 36.1813 -15.7433
-10.9865 40.2243 -14.6937
-14.4947 38.9835 -14.6561
-18.7560 39.2952 -15.3436
-13.3318 22.5114 -9.2195
-13.4742 18.7138 -8.1260
-13.7223 15.8559 -7.3893
-13.8667 13.3940 -6.7937
-13.9905 11.2838 -6.3337
-14.0219 9.3754 -5.9439
-14.1974 7.7562 -5.7009
-14.2668 6.2118 -5.4833
-14.3718 4.7834 -5.3376
-14.3729 3.3949 -5.2042
-14.4503 2.0746 -5.1443
-14.5266 0.7742 -5.1262
-14.6029 -0.5274 -5.1492
-14.6806 -1.8515 -5.2142
-14.8424 -3.2382 -5.3533
-14.9273 -4.6857 -5.5132
-15.0182 -6.2351 -5.7302
-15.7320 -8.2476 -6.2594
-23.3405 -15.0336 -9.7833
36.5045 -12.7319 -13.6236
35.2526 -8.8602 -12.8089
35.4845 -5.6131 -12.6597
46.2970 5.1682 -16.4158
40.7059 8.2738 -14.6375
31.2913 9.3335 -11.5067
31.4797 12.5451 -11.9414
29.0985 14.7291 -11.4927
24.9091 15.5450 -10.3466
24.8020 18.7485 -10.9560
23.8227 21.6057 -11.3331
27.1956 29.4979 -14.1382
27.3774 35.6083 -15.8279
24.8491 39.1023 -16.3260
-10.2241 42.1339 -15.2783
-13.2146 38.9084 -14.4800
-17.3598 39.2141 -15.1120
-13.2500 23.9056 -9.6314
-13.4848 19.9037 -8.4719
-13.5954 16.6476 -7.5741
-13.8231 14.1372 -6.9674
-13.9528 11.9269 -6.4683
-14.0659 9.9978 -6.0812
-14.1670 8.2736 -5.7813
-14.2594 6.6995 -5.5518
-14.3453 5.2344 -5.3811
-14.3477 3.8247 -5.2325
-14.4257 2.4936 -5.1588
-14.5022 1.1892 -5.1275
-14.5784 -0.1099 -5.1374
-14.6555 -1.4244 -5.1887
-14.8162 -2.7917 -5.3129
-14.8996 -4.2134 -5.4563
-14.9884 -5.7264 -5.6540
-15.0017 -7.3262 -5.8831
-20.1595 -12.1843 -8.3006
-5.8126 -5.1222 -2.7301
36.3137 -13.8411 -13.6945
35.1903 -9.9215 -12.8840
35.3829 -6.6380 -12.6860
46.2183 3.8266 -16.3424
42.9600 7.4609 -15.3651
33.0715 8.8440 -12.0634
31.4180 11.4919 -11.7886
31.0320 14.6097 -12.0865
25.5330 14.9383 -10.4242
25.0797 17.8560 -10.8489
23.7480 20.3323 -11.0166
26.9926 27.6494 -13.6164
27.2727 33.4493 -15.2084
25.6227 37.8837 -16.1164
-10.1256 43.8125 -15.5352
-4.8135 14.6985 -5.3433
-16.8088 39.1193 -14.7096
-13.2167 24.4727 -9.6089
-13.4591 20.3413 -8.4265
-13.6412 17.0815 -7.5521
-13.8058 14.4318 -6.8998
-13.8613 12.1135 -6.3597
-13.9756 10.1654 -5.9704
-14.1552 8.4755 -5.6999
-14.2485 6.8855 -5.4672
-14.3351 5.4089 -5.2933
-14.3379 3.9906 -5.1417
-14.4163 2.6546 -5.0642
-14.4929 1.3481 -5.0286
-14.5691 0.0495 -5.0333
-14.6460 -1.2620 -5.0786
-14.7250 -2.6082 -5.1663
-14.8892 -4.0352 -5.3294
-14.9772 -5.5352 -5.5163
-15.0182 -7.1320 -5.7438
-19.1470 -11.2884 -7.6789
-5.8533 -5.0455 -2.6698
36.4377 -14.3466 -13.5290
35.1663 -10.3310 -12.6625
35.3597 -7.0348 -12.4553
46.1883 3.3161 -15.9980
20.2878 3.2953 -7.1008
33.8296 8.6516 -12.0634
31.3947 11.0958 -11.5036
31.5917 14.4533 -12.0022
26.1247 14.9036 -10.3908
25.0568 17.4300 -10.5449
23.7873 19.9194 -10.7188
24.0207 24.0729 -11.7487
27.1573 32.5741 -14.6516
26.1217 37.7261 -15.8528
-11.5433 38.9800 -14.0448
-15.4694 39.0407 -14.5079
-21.1898 42.0675 -16.2729
-13.3215 21.4399 -8.7203
-13.5186 17.9569 -7.7652
-13.7589 15.2309 -7.0910
-13.8978 12.8638 -6.5424
-13.9406 10.7620 -6.0843
-14.0462 8.9651 -5.7568
-14.2195 7.3798 -5.5347
-14.3080 5.8709 -5.3430
-14.3123 4.4277 -5.1758
-14.3915 3.0775 -5.0843
-14.4685 1.7640 -5.0355
-14.5447 0.4651 -5.0274
-14.6213 -0.8400 -5.0596
-14.6994 -2.1726 -5.1335
-14.8622 -3.5755 -5.2810
-14.9483 -5.0442 -5.4504
-15.0410 -6.6232 -5.6778
-17.0112 -9.3850 -6.7120
35.1029 -11.4113 -12.7519
35.2985 -8.0772 -12.5100
36.1128 -4.9272 -12.5917
46.3561 6.1762 -16.1565
35.1224 7.9207 -12.4387
31.3350 10.0774 -11.3716
31.5269 13.3482 -11.8278
27.7697 14.8070 -10.8724
25.1516 16.4502 -10.3828
23.8085 18.8068 -10.4819
23.8812 22.6034 -11.3599
27.1681 30.7565 -14.1775
26.4438 35.9518 -15.4185
-10.6818 40.2611 -14.3905
-14.1652 38.9642 -14.3232
-18.3957 39.2743 -14.9830
-13.2686 22.7818 -9.1082
-13.4585 18.9821 -8.0389
-13.7093 16.0763 -7.2992
-13.8558 13.5800 -6.7026
-13.9810 11.4452 -6.2422
-14.0910 9.5709 -5.8849
-14.1897 7.8868 -5.6085
-14.2021 6.3072 -5.3686
-14.2863 4.8709 -5.2146
-14.3665 3.5041 -5.1088
-14.4441 2.1813 -5.0467
-14.5204 0.8801 -5.0256
-14.5967 -0.4208 -5.0449
-14.6742 -1.7421 -5.1052
-14.7542 -3.1065 -5.2090
-14.9202 -4.5643 -5.3904
-15.0105 -6.1040 -5.5981
-14.8935 -7.6702 -5.7876
-22.1955 -14.0683 -9.0786
-4.9029 -23.9765 -8.4547
35.0386 -12.5079 -12.8532
35.2368 -9.1298 -12.5754
35.4281 -5.8691 -12.4064
46.2769 4.8249 -16.0742
41.5990 8.1400 -14.6440
31.2766 9.0814 -11.2516
31.4638 12.2739 -11.6678
29.5653 14.6957 -11.4063
24.9541 15.3215 -10.1164
25.1320 18.7116 -10.8247
23.8032 21.2739 -11.0291
26.9354 28.7919 -13.6211
27.3664 35.0619 -15.3660
25.3069 39.1888 -16.1164
-10.1593 43.2390 -15.3448
-12.8928 38.8896 -14.1545
-16.9823 39.1295 -14.7366
-13.1554 24.1483 -9.5003
-13.3939 20.0833 -8.3398
-13.6567 16.9737 -7.5264
-13.7358 14.2542 -6.8388
-13.9007 12.0588 -6.3576
-13.9799 10.0909 -5.9565
-14.1592 8.4080 -5.6891
-14.2521 6.8233 -5.4590
-14.3385 5.3506 -5.2873
-14.3412 3.9352 -5.1377
-14.4194 2.6009 -5.0620
-14.4960 1.2951 -5.0280
-14.5722 -0.0036 -5.0343
-14.6492 -1.3161 -5.0813
-14.7282 -2.6641 -5.1708
-14.8926 -4.0945 -5.3360
-14.9809 -5.5988 -5.5252
-14.9935 -7.1874 -5.7443
-19.0922 -11.3501 -7.6734
-5.8323 -5.0646 -2.6686
36.3797 -14.1708 -13.4881
35.1743 -10.1942 -12.6520
35.3674 -6.9024 -12.4491
46.1983 3.4860 -16.0058
20.2978 3.3729 -7.1086
33.7978 8.7748 -12.0634
31.4024 11.2274 -11.5214
31.5610 14.5786 -12.0106
25.9252 14.9153 -10.3330
25.0651 17.5717 -10.5753
23.7963 20.0749 -10.7557
24.2003 24.4303 -11.8801
27.1726 32.8350 -14.7243
26.1406 38.0491 -15.9484
-11.6853 38.9375 -14.0447
-15.6383 39.0506 -14.5326
-13.0643 25.7026 -9.9609
-13.3977 21.3883 -8.7191
-13.5260 17.8310 -7.7320
-13.7650 15.1265 -7.0657
-13.9030 12.7748 -6.5229
-13.9901 10.7191 -6.0888
-14.1277 8.9448 -5.7768
-14.2232 7.3160 -5.5257
-14.3115 5.8115 -5.3364
-14.3156 4.3716 -5.1711
-14.3947 3.0234 -5.0815
-14.4716 1.7108 -5.0344
-14.5478 0.4121 -5.0279
-14.6244 -0.8936 -5.0618
-14.7027 -2.2278 -5.1374
-14.8656 -3.6337 -5.2869
-14.9520 -5.1062 -5.4585
-15.0449 -6.6905 -5.6884
-17.2548 -9.6016 -6.8219
35.1111 -11.2726 -12.7399
35.3064 -7.9437 -12.5024
38.2581 -5.0779 -13.3332
46.1204 2.1575 -15.9509
46.3663 6.3496 -16.1680
34.6551 7.9481 -12.2834
31.3425 10.2060 -11.3877
31.5350 13.4874 -11.8492
27.5513 14.8199 -10.8080
25.1596 16.5866 -10.4109
23.6598 18.8298 -10.4465
23.8915 22.7787 -11.4042
27.1251 30.9341 -14.2137
26.3079 36.0414 -15.4157
-10.8239 40.2053 -14.3845
-14.3297 38.9739 -14.3458
-18.5755 39.2848 -15.0127
-13.2487 22.5582 -9.0380
-13.4664 18.8474 -8.0026
-13.7158 15.9657 -7.2717
-13.7851 13.4126 -6.6447
-13.9858 11.3643 -6.2257
-14.0952 9.4989 -5.8721
-14.1936 7.8214 -5.5988
-14.2056 6.2469 -5.3613
-14.2896 4.8140 -5.2093
-14.3697 3.4495 -5.1054
-14.4472 2.1280 -5.0450
-14.5235 0.8271 -5.0256
-14.5998 -0.4741 -5.0465
-14.6774 -1.7968 -5.1085
-14.7575 -3.1634 -5.2142
-14.9238 -4.6249 -5.3977
-15.0144 -6.1694 -5.6079
-15.5347 -8.0722 -6.0482
-23.3216 -14.9014 -9.5613
-4.8186 -24.0095 -8.4601
35.0469 -12.3671 -12.8396
35.2447 -8.9948 -12.5665
35.4358 -5.7378 -12.4017
46.2869 4.9964 -16.0839
38.7703 7.7334 -13.6581
31.2839 9.2073 -11.2662
31.4718 12.4093 -11.6874
29.3250 14.7098 -11.3342
24.8932 15.4094 -10.1145
24.9772 18.7382 -10.7874
23.8129 21.4392 -11.0698
27.0186 29.0925 -13.7167
27.3831 35.3480 -15.4475
25.1639 39.2808 -16.1164
-10.1921 42.6798 -15.1595
-13.0534 38.8990 -14.1751
-17.1566 39.1397 -14.7639
-13.2391 24.0924 -9.4972
-13.4024 19.9383 -8.2998
-13.6636 16.8561 -7.4963
-13.7415 14.1565 -6.8159
-13.9478 12.0109 -6.3590
-13.9843 10.0167 -5.9427
-14.1631 8.3407 -5.6784
-14.2558 6.7613 -5.4509
-14.3419 5.2924 -5.2814
-14.3444 3.8800 -5.1337
-14.4226 2.5472 -5.0598
-14.4991 1.2421 -5.0275
-14.5753 -0.0567 -5.0355
-14.6524 -1.3702 -5.0841
-14.7315 -2.7202 -5.1754
-14.8961 -4.1539 -5.3426
-14.9846 -5.6625 -5.5341
-14.9976 -7.2567 -5.7560
-19.8142 -11.8773 -7.9810
-5.8224 -5.0933 -2.6725
36.3968 -14.0248 -13.4754
35.1823 -10.0577 -12.6416
35.3752 -6.7702 -12.4431
46.2083 3.6561 -16.0138
43.6649 7.4195 -15.3014
33.7656 8.8979 -12.0634
31.4102 11.3595 -11.5393
31.2947 14.5942 -11.9294
25.7280 14.9268 -10.2760
25.0734 17.7142 -10.6060
23.8054 20.2316 -10.7931
27.6352 28.1018 -13.6164
27.3025 33.2378 -14.8602
26.1598 38.3758 -16.0453
-11.8296 38.9025 -14.0475
-15.8076 39.0605 -14.5577
-13.0764 25.4960 -9.8992
-13.4069 21.2307 -8.6747
-13.5333 17.7063 -7.6993
-13.7711 15.0229 -7.0407
-13.9082 12.6864 -6.5036
-14.0267 10.6663 -6.0878
-14.1317 8.8754 -5.7652
-14.2270 7.2525 -5.5169
-14.3150 5.7522 -5.3298
-14.3189 4.3156 -5.1666
-14.3978 2.9693 -5.0788
-14.4748 1.6578 -5.0334
-14.5509 0.3591 -5.0285
-14.6276 -0.9473 -5.0641
-14.7059 -2.2832 -5.1414
-14.8690 -3.6920 -5.2929
-14.9556 -5.1683 -5.4666
-15.0489 -6.7581 -5.6992
-17.5065 -9.8254 -6.9355
35.1192 -11.1343 -12.7280
35.3142 -7.8104 -12.4950
40.0805 -5.1713 -13.9616
46.1303 2.3265 -15.9572
46.3765 6.5233 -16.1797
34.2097 7.9772 -12.1357
31.3501 10.3350 -11.4041
31.5432 13.6271 -11.8709
27.3356 14.8325 -10.7445
25.0270 16.6304 -10.3811
23.7357 19.0318 -10.5106
23.9019 22.9555 -11.4491
27.0817 31.1127 -14.2503
26.2085 36.1813 -15.4346
-10.9865 40.2243 -14.4057
-14.4947 38.9835 -14.3687
-18.7560 39.2952 -15.0427
-13.3269 22.5032 -9.0354
-13.4742 18.7138 -7.9667
-13.7223 15.8559 -7.2444
-13.8667 13.3940 -6.6605
-13.9905 11.2838 -6.2095
-14.0219 9.3754 -5.8273
-14.1974 7.7562 -5.5891
-14.2668 6.2118 -5.3758
-14.2930 4.7572 -5.2042
-14.3729 3.3949 -5.1021
-14.4503 2.0746 -5.0434
-14.5266 0.7742 -5.0257
-14.6029 -0.5274 -5.0483
-14.6806 -1.8515 -5.1120
-14.7609 -3.2205 -5.2195
-14.9273 -4.6857 -5.4051
-15.0182 -6.2351 -5.6178
-15.7320 -8.2476 -6.1367
-23.3405 -15.0336 -9.5915
35.0551 -12.2264 -12.8262
35.2526 -8.8602 -12.5577
35.4845 -5.6131 -12.4115
46.2970 5.1682 -16.0939
38.7790 7.8821 -13.6712
31.2913 9.3335 -11.2811
31.4797 12.5452 -11.7073
29.0985 14.7291 -11.2673
24.9091 15.5450 -10.1438
24.8020 18.7485 -10.7412
23.8227 21.6057 -11.1108
27.1956 29.4979 -13.8610
27.3999 35.6374 -15.5302
25.0206 39.3722 -16.1164
-10.2241 42.1339 -14.9787
-13.2146 38.9084 -14.1961
-17.3598 39.2141 -14.8157
-13.2500 23.9056 -9.4426
-13.4108 19.7945 -8.2602
-13.6704 16.7395 -7.4665
-13.7560 14.0686 -6.7977
-13.9528 11.9269 -6.3414
-14.0033 9.9533 -5.9354
-14.1670 8.2736 -5.6679
-14.2594 6.6995 -5.4429
-14.2667 5.2057 -5.2467
-14.3477 3.8247 -5.1299
-14.4257 2.4936 -5.0577
-14.5022 1.1892 -5.0270
-14.5784 -0.1099 -5.0366
-14.6555 -1.4244 -5.0870
-14.7348 -2.7764 -5.1801
-14.8996 -4.2134 -5.3493
-14.9884 -5.7264 -5.5432
-15.0017 -7.3262 -5.7677
-20.1595 -12.1844 -8.1379
-5.8124 -5.1221 -2.6765
-5.4360 -23.9726 -8.4922
36.3137 -13.8411 -13.4259
35.1903 -9.9215 -12.6314
35.3829 -6.6380 -12.4372
46.2183 3.8266 -16.0220
42.9600 7.4609 -15.0638
33.7330 9.0209 -12.0634
31.4180 11.4919 -11.5575
31.0320 14.6097 -11.8495
25.5329 14.9383 -10.2198
25.0819 17.8575 -10.6370
23.8080 20.3834 -10.8279
27.5325 28.2025 -13.6164
27.2727 33.4493 -14.9102
26.1351 38.6414 -16.1164
-10.1256 43.8126 -15.2258
-4.8133 14.6980 -5.2367
-16.8088 39.1193 -14.4166
-13.2167 24.4727 -9.4176
-13.3853 20.2297 -8.2134
-13.6497 17.0922 -7.4063
-13.8058 14.4317 -6.7624
-13.8613 12.1135 -6.2330
-14.0528 10.2216 -5.8838
-14.1552 8.4755 -5.5864
-14.2485 6.8855 -5.3583
-14.2565 5.3793 -5.1594
-14.3379 3.9906 -5.0393
-14.4163 2.6546 -4.9634
-14.4929 1.3481 -4.9284
-14.5691 0.0495 -4.9331
-14.6460 -1.2620 -4.9774
-14.7250 -2.6082 -5.0634
-14.8074 -4.0130 -5.1946
-14.9772 -5.5352 -5.4065
-15.0182 -7.1320 -5.6294
-19.1470 -11.2884 -7.5259
-5.8532 -5.0454 -2.6165
-5.6955 -23.9023 -8.3198
18.3639 -16.5168 -8.3630
36.4377 -14.3466 -13.2595
35.1663 -10.3310 -12.4103
35.3597 -7.0348 -12.2073
46.1883 3.3161 -15.6794
20.2855 3.2949 -6.9586
34.5170 8.8274 -12.0634
31.3947 11.0958 -11.2745
31.5917 14.4533 -11.7631
26.1247 14.9036 -10.1839
23.6077 16.4220 -9.7372
23.7873 19.9194 -10.5053
24.0207 24.0728 -11.5147
27.1573 32.5741 -14.3598
26.2591 37.9245 -15.6188
-11.5433 38.9800 -13.7650
-15.4694 39.0407 -14.2189
-21.1898 42.0675 -15.9488
-13.3215 21.4399 -8.5466
-13.5186 17.9569 -7.6105
-13.7589 15.2309 -6.9498
-13.8978 12.8638 -6.4121
-13.9406 10.7620 -5.9631
-14.0462 8.9651 -5.6421
-14.2195 7.3798 -5.4245
-14.2295 5.8387 -5.2079
-14.3123 4.4276 -5.0727
-14.3915 3.0775 -4.9831
-14.4685 1.7640 -4.9353
-14.5447 0.4651 -4.9273
-14.6213 -0.8400 -4.9589
-14.6994 -2.1726 -5.0312
-14.7805 -3.5558 -5.1474
-14.9483 -5.0441 -5.3418
-15.0410 -6.6232 -5.5647
-17.0112 -9.3850 -6.5784
37.8268 -16.1562 -13.9273
35.1029 -11.4113 -12.4980
35.2985 -8.0772 -12.2608
36.1128 -4.9272 -12.3409
46.3561 6.1762 -15.8347
35.1272 7.9217 -12.1926
31.3350 10.0774 -11.1451
31.5269 13.3482 -11.5922
27.7697 14.8070 -10.6559
25.1516 16.4502 -10.1760
23.8085 18.8068 -10.2731
23.8812 22.6034 -11.1337
27.1681 30.7565 -13.8951
26.4438 35.9518 -15.1115
-10.6818 40.2611 -14.1039
-14.1652 38.9642 -14.0379
-18.3659 39.2106 -14.6608
-13.2686 22.7818 -8.9268
-13.4585 18.9821 -7.8788
-13.7093 16.0763 -7.1539
-13.8558 13.5800 -6.5691
-13.9810 11.4452 -6.1178
-14.0910 9.5709 -5.7676
-14.1897 7.8868 -5.4968
-14.2021 6.3072 -5.2616
-14.2863 4.8709 -5.1107
-14.3665 3.5041 -5.0070
-14.4441 2.1813 -4.9461
-14.5204 0.8801 -4.9256
-14.5967 -0.4208 -4.9444
-14.6742 -1.7421 -5.0035
-14.7542 -3.1065 -5.1052
-14.9202 -4.5643 -5.2830
-15.0105 -6.1040 -5.4867
-14.8935 -7.6702 -5.6724
-22.1955 -14.0682 -8.8978
-7.1281 -23.7948 -8.4105
37.7529 -17.4161 -14.0776
35.0386 -12.5079 -12.5972
35.2368 -9.1298 -12.3250
35.4281 -5.8691 -12.1593
46.2769 4.8248 -15.7541
41.9589 8.2104 -14.4765
31.2766 9.0814 -11.0275
31.4638 12.2739 -11.4354
29.5653 14.6957 -11.1792
24.9541 15.3215 -9.9149
25.1320 18.7116 -10.6091
23.8437 21.3097 -10.8279
27.4733 29.3668 -13.6164
27.3664 35.0619 -15.0599
25.6190 39.6721 -15.9902
-10.1593 43.2391 -15.0393
-12.8928 38.8896 -13.8726
-16.9823 39.1295 -14.4431
-13.1554 24.1483 -9.3111
-13.3939 20.0833 -8.1737
-13.6567 16.9737 -7.3765
-13.8116 14.3329 -6.7396
-13.9007 12.0588 -6.2309
-14.0572 10.1466 -5.8701
-14.1592 8.4080 -5.5758
-14.2521 6.8233 -5.3503
-14.2599 5.3213 -5.1536
-14.3412 3.9352 -5.0354
-14.4194 2.6009 -4.9611
-14.4960 1.2951 -4.9278
-14.5722 -0.0036 -4.9341
-14.6492 -1.3161 -4.9801
-14.7282 -2.6641 -5.0678
-14.8108 -4.0720 -5.2010
-14.9809 -5.5988 -5.4151
-14.9935 -7.1874 -5.6299
-19.0922 -11.3501 -7.5206
-5.8322 -5.0644 -2.6154
-5.6080 -23.9215 -8.3193
18.5230 -16.5382 -8.4079
36.3797 -14.1708 -13.2195
35.1743 -10.1942 -12.4000
35.3674 -6.9024 -12.2012
46.1983 3.4860 -15.6870
20.2950 3.3724 -6.9660
34.4846 8.9532 -12.0634
31.4024 11.2275 -11.2919
31.5610 14.5786 -11.7714
25.9252 14.9153 -10.1272
25.0651 17.5717 -10.3647
23.7963 20.0749 -10.5415
24.2003 24.4303 -11.6434
27.1726 32.8350 -14.4311
26.2781 38.2492 -15.7130
-11.6853 38.9375 -13.7650
-15.6383 39.0506 -14.2432
-13.0643 25.7026 -9.7625
-13.3977 21.3883 -8.5455
-13.5260 17.8310 -7.5780
-13.7650 15.1265 -6.9250
-13.9030 12.7748 -6.3930
-13.9451 10.6846 -5.9484
-14.1277 8.9448 -5.6617
-14.2232 7.3160 -5.4157
-14.2330 5.7796 -5.2014
-14.3156 4.3716 -5.0682
-14.3947 3.0234 -4.9803
-14.4716 1.7108 -4.9342
-14.5478 0.4121 -4.9278
-14.6244 -0.8937 -4.9610
-14.7027 -2.2278 -5.0351
-14.7839 -3.6137 -5.1532
-14.9520 -5.1062 -5.3498
-15.0449 -6.6905 -5.5751
-17.2548 -9.6016 -6.6860
37.8361 -15.9974 -13.9092
35.1111 -11.2726 -12.4861
35.3064 -7.9437 -12.2534
37.4153 -4.9660 -12.7798
46.1204 2.1575 -15.6332
46.3663 6.3496 -15.8460
34.6655 7.9505 -12.0423
31.3425 10.2060 -11.1609
31.5350 13.4874 -11.6132
27.5513 14.8199 -10.5927
25.1596 16.5866 -10.2036
23.6598 18.8298 -10.2385
23.8915 22.7787 -11.1771
27.1251 30.9341 -13.9306
26.3079 36.0414 -15.1087
-10.8239 40.2053 -14.0980
-14.3297 38.9739 -14.0601
-18.5454 39.2212 -14.6899
-13.3218 22.6825 -8.9069
-13.4664 18.8474 -7.8432
-13.7158 15.9657 -7.1268
-13.7851 13.4126 -6.5124
-13.9858 11.3643 -6.1018
-14.0952 9.4989 -5.7552
-14.1936 7.8214 -5.4873
-14.2056 6.2469 -5.2545
-14.2896 4.8140 -5.1056
-14.3697 3.4495 -5.0037
-14.4472 2.1280 -4.9445
-14.5235 0.8271 -4.9256
-14.5998 -0.4741 -4.9460
-14.6774 -1.7968 -5.0068
-14.7575 -3.1634 -5.1104
-14.9238 -4.6249 -5.2902
-15.0144 -6.1694 -5.4962
-15.5347 -8.0722 -5.9277
-22.6496 -14.4720 -9.1009
-7.0232 -23.7593 -8.3889
37.7624 -17.2538 -14.0576
35.0469 -12.3671 -12.5839
35.2447 -8.9948 -12.3162
35.4358 -5.7378 -12.1547
46.2869 4.9964 -15.7636
38.8292 7.7452 -13.4064
31.2839 9.2073 -11.0419
31.4718 12.4093 -11.4547
29.3250 14.7098 -11.1085
24.8932 15.4093 -9.9130
24.9772 18.7382 -10.5726
23.8129 21.4392 -10.8493
27.3661 29.4667 -13.6164
27.3831 35.3479 -15.1398
25.4220 39.6836 -15.9574
-10.1921 42.6798 -14.8575
-13.0534 38.8990 -13.8928
-17.1566 39.1397 -14.4698
-13.2391 24.0924 -9.3081
-13.4024 19.9383 -8.1345
-13.6636 16.8561 -7.3470
-13.8174 14.2347 -6.7171
-13.9478 12.0109 -6.2324
-14.0616 10.0720 -5.8566
-14.1631 8.3407 -5.5654
-14.2558 6.7613 -5.3423
-14.2633 5.2634 -5.1478
-14.3444 3.8800 -5.0315
-14.4226 2.5472 -4.9590
-14.4991 1.2421 -4.9273
-14.5753 -0.0567 -4.9352
-14.6524 -1.3702 -4.9829
-14.7315 -2.7202 -5.0724
-14.8143 -4.1311 -5.2074
-14.9846 -5.6625 -5.4239
-14.9976 -7.2567 -5.6413
-19.8142 -11.8773 -7.8220
-5.8222 -5.0931 -2.6192
-5.5239 -23.9556 -8.3241
35.1843 -13.5576 -12.7671
35.1823 -10.0577 -12.3898
35.3752 -6.7702 -12.1953
46.2083 3.6561 -15.6948
43.6649 7.4195 -14.9967
34.1716 9.0049 -11.9654
31.4102 11.3595 -11.3095
31.2947 14.5942 -11.6919
25.7280 14.9268 -10.0714
25.0734 17.7142 -10.3948
23.8054 20.2316 -10.5782
28.1967 28.6729 -13.6164
27.1881 33.0986 -14.5032
26.2974 38.5776 -15.8084
-11.8296 38.9025 -13.7678
-15.8076 39.0605 -14.2677
-13.0885 25.5197 -9.7111
-13.4069 21.2307 -8.5020
-13.5444 17.7209 -7.5521
-13.7711 15.0229 -6.9005
-13.9082 12.6864 -6.3741
-13.9534 10.6105 -5.9354
-14.1317 8.8754 -5.6504
-14.2270 7.2525 -5.4070
-14.2365 5.7207 -5.1950
-14.3189 4.3156 -5.0637
-14.3978 2.9693 -4.9776
-14.4748 1.6578 -4.9331
-14.5509 0.3591 -4.9284
-14.6276 -0.9473 -4.9632
-14.7059 -2.2832 -5.0390
-14.7873 -3.6717 -5.1590
-14.9556 -5.1683 -5.3578
-15.0489 -6.7581 -5.5857
-17.5065 -9.8254 -6.7974
37.8454 -15.8390 -13.8913
35.1192 -11.1343 -12.4745
35.3142 -7.8104 -12.2462
40.2406 -5.1919 -13.7382
46.1303 2.3265 -15.6394
46.3765 6.5233 -15.8575
34.6970 8.0909 -12.0634
31.3501 10.3350 -11.1770
31.5432 13.6271 -11.6345
27.3356 14.8325 -10.5305
23.9529 15.9167 -9.7377
23.7357 19.0318 -10.3013
23.9019 22.9555 -11.2210
27.0817 31.1127 -13.9665
26.2085 36.1813 -15.1272
-10.9865 40.2243 -14.1186
-14.4947 38.9835 -14.0825
-18.7257 39.2317 -14.7193
-13.3318 22.5114 -8.8587
-13.4742 18.7138 -7.8080
-13.7223 15.8559 -7.1001
-13.8667 13.3940 -6.5278
-13.9905 11.2838 -6.0858
-14.0219 9.3754 -5.7113
-14.1974 7.7562 -5.4778
-14.2668 6.2118 -5.2687
-14.2930 4.7572 -5.1006
-14.3729 3.3949 -5.0005
-14.4503 2.0746 -4.9430
-14.5266 0.7742 -4.9256
-14.6029 -0.5274 -4.9477
-14.6806 -1.8515 -5.0102
-14.7609 -3.2204 -5.1155
-14.9273 -4.6857 -5.2975
-15.0182 -6.2351 -5.5059
-15.7320 -8.2476 -6.0144
-23.3405 -15.0337 -9.4005
-6.9424 -23.8045 -8.3959
37.7719 -17.0921 -14.0379
35.0551 -12.2264 -12.5707
35.2526 -8.8602 -12.3076
35.4845 -5.6131 -12.1643
46.2970 5.1682 -15.7733
38.1072 7.7456 -13.1668
31.2913 9.3335 -11.0564
31.4797 12.5451 -11.4741
29.0985 14.7291 -11.0429
24.9091 15.5450 -9.9419
24.8019 18.7485 -10.5272
23.8227 21.6057 -10.8896
27.8488 30.2064 -13.9112
27.3999 35.6374 -15.2209
25.2258 39.6951 -15.9250
-10.2241 42.1338 -14.6804
-13.2146 38.9084 -13.9133
-17.3314 39.1499 -14.4969
-13.2500 23.9056 -9.2545
-13.4108 19.7945 -8.0957
-13.6704 16.7395 -7.3178
-13.8231 14.1372 -6.6948
-13.9528 11.9269 -6.2151
-14.0659 9.9978 -5.8432
-14.1670 8.2736 -5.5550
-14.2594 6.6995 -5.3345
-14.2667 5.2057 -5.1422
-14.3477 3.8247 -5.0277
-14.4257 2.4936 -4.9569
-14.5022 1.1892 -4.9269
-14.5784 -0.1099 -4.9363
-14.6555 -1.4244 -4.9857
-14.7348 -2.7764 -5.0769
-14.8178 -4.1903 -5.2140
-14.9884 -5.7264 -5.4328
-15.0017 -7.3262 -5.6529
-20.1595 -12.1843 -7.9758
-5.8122 -5.1219 -2.6231
35.1212 -13.3866 -12.7264
35.1903 -9.9215 -12.3798
35.3829 -6.6380 -12.1895
46.2183 3.8266 -15.7029
42.9682 7.4623 -14.7666
33.7629 9.0289 -11.8337
31.4180 11.4919 -11.3273
31.0320 14.6097 -11.6135
25.5330 14.9383 -10.0163
25.0819 17.8575 -10.4252
23.8146 20.3893 -10.6152
28.0919 28.7756 -13.6164
27.2037 33.3647 -14.5763
26.2300 38.7816 -15.8527
-10.1256 43.8126 -14.9177
-4.8132 14.6974 -5.1306
-16.8088 39.1193 -14.1249
-13.2167 24.4727 -9.2270
-13.3853 20.2297 -8.0471
-13.6497 17.0922 -7.2565
-13.8058 14.4318 -6.6255
-13.8613 12.1135 -6.1069
-14.0528 10.2216 -5.7647
-14.1552 8.4755 -5.4733
-14.1704 6.8478 -5.2210
-14.2565 5.3793 -5.0550
-14.3379 3.9906 -4.9373
-14.4163 2.6546 -4.8629
-14.4929 1.3481 -4.8287
-14.5691 0.0495 -4.8332
-14.6460 -1.2620 -4.8767
-14.7250 -2.6082 -4.9610
-14.8074 -4.0130 -5.0895
-14.9772 -5.5352 -5.2970
-15.0182 -7.1320 -5.5154
-19.1470 -11.2884 -7.3736
-5.8530 -5.0452 -2.5635
37.6675 -18.8710 -13.9764
36.4377 -14.3466 -12.9912
35.1663 -10.3310 -12.1592
35.3597 -7.0348 -11.9602
46.5693 3.3434 -15.4888
20.2832 3.2946 -6.8170
35.0172 8.9553 -11.9906
31.3947 11.0958 -11.0463
31.5917 14.4533 -11.5251
26.1247 14.9036 -9.9778
23.6077 16.4220 -9.5402
23.7873 19.9194 -10.2927
24.0207 24.0729 -11.2817
27.1573 32.5741 -14.0692
26.2591 37.9245 -15.3027
-11.6503 39.3411 -13.6114
-15.4694 39.0407 -13.9312
-21.2228 42.1330 -15.6504
-13.3215 21.4399 -8.3737
-13.5932 18.0560 -7.4976
-13.7357 15.2052 -6.7977
-13.8978 12.8638 -6.2824
-13.9406 10.7620 -5.8425
-14.0462 8.9651 -5.5280
-14.2195 7.3798 -5.3147
-14.2295 5.8387 -5.1025
-14.3123 4.4276 -4.9700
-14.3915 3.0775 -4.8822
-14.4685 1.7640 -4.8354
-14.5447 0.4651 -4.8276
-14.6213 -0.8400 -4.8585
-14.6994 -2.1726 -4.9294
-14.7805 -3.5558 -5.0433
-14.8662 -5.0164 -5.2050
-15.0410 -6.6232 -5.4521
-17.0112 -9.3850 -6.4452
-6.4052 -23.8391 -8.1890
37.8268 -16.1562 -13.6455
35.1029 -11.4113 -12.2450
35.2985 -8.0772 -12.0127
36.1128 -4.9272 -12.0912
47.3846 2.0436 -15.7342
46.3561 6.1762 -15.5142
35.3161 7.9643 -12.0101
31.3350 10.0774 -10.9195
31.5269 13.3482 -11.3576
27.7697 14.8070 -10.4402
24.1506 15.7955 -9.5733
23.8085 18.8068 -10.0652
23.8812 22.6034 -10.9084
27.1682 30.7565 -13.6139
26.4438 35.9518 -14.8057
-10.6818 40.2611 -13.8185
-14.1652 38.9642 -13.7538
-18.3659 39.2106 -14.3641
-13.2686 22.7818 -8.7461
-13.4585 18.9821 -7.7194
-13.7093 16.0763 -7.0091
-13.8558 13.5800 -6.4362
-13.9042 11.3824 -5.9611
-14.0910 9.5709 -5.6509
-14.1897 7.8868 -5.3856
-14.2021 6.3072 -5.1552
-14.2863 4.8709 -5.0073
-14.3665 3.5041 -4.9057
-14.4441 2.1813 -4.8461
-14.5204 0.8801 -4.8259
-14.5967 -0.4208 -4.8444
-14.6742 -1.7421 -4.9023
-14.7542 -3.1065 -5.0019
-14.8382 -4.5392 -5.1477
-15.0105 -6.1040 -5.3756
-14.8936 -7.6702 -5.5576
-22.4370 -14.2213 -8.8125
-7.1280 -23.7948 -8.2403
37.7529 -17.4161 -13.7927
35.0386 -12.5079 -12.3423
35.2368 -9.1298 -12.0756
35.4281 -5.8691 -11.9132
46.2769 4.8248 -15.4353
39.2431 7.6790 -13.2655
31.2766 9.0814 -10.8043
31.4638 12.2739 -11.2040
29.5653 14.6957 -10.9529
24.9541 15.3215 -9.7142
25.1320 18.7116 -10.3944
23.8695 21.3331 -10.6202
28.2374 30.1836 -13.7119
27.2981 34.9744 -14.7184
25.6190 39.6721 -15.6666
-10.1593 43.2390 -14.7349
-12.9113 38.9454 -13.6114
-16.9823 39.1295 -14.1508
-13.1554 24.1483 -9.1227
-13.3939 20.0833 -8.0083
-13.6567 16.9737 -7.2272
-13.8116 14.3329 -6.6032
-13.9007 12.0588 -6.1049
-14.0572 10.1466 -5.7513
-14.1592 8.4080 -5.4630
-14.1740 6.7859 -5.2132
-14.2599 5.3213 -5.0493
-14.3412 3.9352 -4.9335
-14.4194 2.6009 -4.8607
-14.4960 1.2951 -4.8281
-14.5722 -0.0036 -4.8342
-14.6492 -1.3161 -4.8793
-14.7282 -2.6641 -4.9653
-14.8108 -4.0720 -5.0957
-14.9809 -5.5988 -5.3055
-14.9935 -7.1874 -5.5160
-19.0922 -11.3501 -7.3684
-5.8320 -5.0643 -2.5624
18.5686 -16.5789 -8.2581
37.6773 -18.7045 -13.9547
36.3797 -14.1708 -12.9520
35.1743 -10.1942 -12.1490
35.3674 -6.9024 -11.9543
46.5568 3.5130 -15.4888
20.2922 3.3720 -6.8241
34.5895 8.9804 -11.8553
31.4024 11.2274 -11.0634
31.5610 14.5786 -11.5332
25.9252 14.9153 -9.9223
23.5812 16.5314 -9.5538
23.7963 20.0749 -10.3282
24.2003 24.4303 -11.4078
27.1726 32.8350 -14.1390
26.2781 38.2492 -15.3950
-11.7936 39.2983 -13.6114
-15.6383 39.0506 -13.9550
-13.0643 25.7026 -9.5649
-13.3242 21.2710 -8.3266
-13.6006 17.9294 -7.4656
-13.7650 15.1265 -6.7849
-13.9030 12.7748 -6.2636
-13.9901 10.7191 -5.8468
-14.1277 8.9448 -5.5472
-14.2232 7.3161 -5.3061
-14.2330 5.7796 -5.0962
-14.3156 4.3716 -4.9656
-14.3947 3.0234 -4.8795
-14.4716 1.7108 -4.8343
-14.5478 0.4121 -4.8281
-14.6244 -0.8936 -4.8606
-14.7027 -2.2278 -4.9332
-14.7839 -3.6137 -5.0489
-14.8698 -5.0781 -5.2127
-15.0449 -6.6905 -5.4623
-17.2548 -9.6016 -6.5507
-6.3163 -23.8548 -8.1864
37.5999 -20.0246 -14.1322
37.8361 -15.9974 -13.6277
35.1111 -11.2726 -12.2335
35.3064 -7.9437 -12.0055
37.4153 -4.9660 -12.5211
46.6382 2.1817 -15.4888
46.3663 6.3496 -15.5253
35.4435 8.1289 -12.0634
31.3425 10.2060 -10.9351
31.5350 13.4874 -11.3782
27.5514 14.8199 -10.3784
24.0516 15.8562 -9.5569
23.6598 18.8298 -10.0314
23.8915 22.7787 -10.9509
27.1251 30.9341 -13.6487
26.3079 36.0414 -14.8029
-10.8239 40.2053 -13.8128
-14.3297 38.9739 -13.7756
-18.5454 39.2212 -14.3926
-13.3218 22.6825 -8.7266
-13.4664 18.8474 -7.6845
-13.7158 15.9657 -6.9826
-13.7851 13.4126 -6.3806
-13.9089 11.3018 -5.9454
-14.0952 9.4989 -5.6387
-14.1936 7.8214 -5.3762
-14.2056 6.2469 -5.1481
-14.2896 4.8140 -5.0023
-14.3697 3.4495 -4.9025
-14.4472 2.1280 -4.8445
-14.5235 0.8271 -4.8259
-14.5998 -0.4741 -4.8459
-14.6774 -1.7968 -4.9055
-14.7575 -3.1634 -5.0069
-14.8418 -4.5995 -5.1547
-15.0144 -6.1694 -5.3850
-15.0797 -7.8357 -5.6377
-22.6496 -14.4720 -8.9167
-7.0232 -23.7593 -8.2192
37.7624 -17.2538 -13.7731
35.0469 -12.3671 -12.3292
35.2447 -8.9948 -12.0670
35.4358 -5.7378 -11.9087
46.2869 4.9964 -15.4446
38.6669 7.7128 -13.0802
31.2839 9.2073 -10.8184
31.4718 12.4093 -11.2229
29.3250 14.7098 -10.8837
24.8932 15.4094 -9.7123
24.9772 18.7382 -10.3586
23.8791 21.4988 -10.6593
28.0425 30.1950 -13.6706
27.3831 35.3480 -14.8335
25.4220 39.6836 -15.6345
-10.1921 42.6798 -14.5569
-13.0534 38.8990 -13.6117
-17.1566 39.1397 -14.1770
-13.1665 23.9603 -9.0697
-13.4024 19.9383 -7.9699
-13.6636 16.8561 -7.1983
-13.8174 14.2347 -6.5811
-13.9478 12.0109 -6.1063
-14.0616 10.0720 -5.7381
-14.1631 8.3407 -5.4527
-14.1776 6.7242 -5.2055
-14.2633 5.2634 -5.0436
-14.3444 3.8800 -4.9297
-14.4226 2.5472 -4.8586
-14.4991 1.2421 -4.8276
-14.5753 -0.0567 -4.8353
-14.6524 -1.3702 -4.8820
-14.7315 -2.7202 -4.9697
-14.8143 -4.1311 -5.1020
-14.9846 -5.6625 -5.3141
-14.9976 -7.2567 -5.5272
-19.8142 -11.8773 -7.6637
-5.8220 -5.0930 -2.5661
18.6605 -16.5392 -8.2721
37.6870 -18.5385 -13.9332
35.1843 -13.5576 -12.5087
35.1823 -10.0577 -12.1391
35.3752 -6.7703 -11.9485
46.2083 3.6561 -15.3772
43.6780 7.4218 -14.6976
34.1716 9.0049 -11.7232
31.4102 11.3595 -11.0806
31.2947 14.5942 -11.4552
25.7280 14.9268 -9.8676
23.5545 16.6411 -9.5675
23.8054 20.2316 -10.3641
28.2872 28.7649 -13.3836
27.1881 33.0986 -14.2097
26.2974 38.5776 -15.4885
-11.9368 39.2551 -13.6114
-15.8076 39.0605 -13.9790
-13.0885 25.5197 -9.5146
-13.3334 21.1142 -8.2842
-13.6080 17.8041 -7.4340
-13.7711 15.0229 -6.7608
-13.9082 12.6864 -6.2451
-14.0267 10.6663 -5.8458
-14.1317 8.8754 -5.5360
-14.2270 7.2525 -5.2976
-14.2365 5.7207 -5.0899
-14.3189 4.3156 -4.9612
-14.3978 2.9693 -4.8769
-14.4748 1.6578 -4.8333
-14.5509 0.3591 -4.8286
-14.6276 -0.9473 -4.8628
-14.7059 -2.2832 -4.9370
-14.7873 -3.6717 -5.0546
-14.8735 -5.1399 -5.2205
-15.0489 -6.7581 -5.4727
-17.5065 -9.8254 -6.6598
-6.2275 -23.8705 -8.1839
37.6099 -19.8542 -14.1086
37.8454 -15.8390 -13.6102
35.1192 -11.1343 -12.2221
35.3142 -7.8104 -11.9984
40.2406 -5.1919 -13.4602
46.6299 2.3517 -15.4888
46.3765 6.5233 -15.5366
35.4137 8.2580 -12.0634
31.3501 10.3350 -10.9508
31.5432 13.6271 -11.3990
27.3356 14.8325 -10.3174
23.9530 15.9167 -9.5406
23.7357 19.0318 -10.0928
23.9019 22.9555 -10.9940
27.0817 31.1127 -13.6839
26.2085 36.1813 -14.8211
-10.9865 40.2243 -13.8330
-14.4947 38.9835 -13.7976
-18.7257 39.2317 -14.4214
-13.3318 22.5114 -8.6794
-13.4742 18.7138 -7.6500
-13.7223 15.8559 -6.9564
-13.8667 13.3940 -6.3957
-13.9264 11.2321 -5.9354
-14.0219 9.3754 -5.5957
-14.1974 7.7562 -5.3669
-14.2091 6.1867 -5.1412
-14.2930 4.7572 -4.9973
-14.3729 3.3949 -4.8993
-14.4503 2.0746 -4.8429
-14.5266 0.7742 -4.8259
-14.6029 -0.5274 -4.8476
-14.6806 -1.8515 -4.9088
-14.7609 -3.2204 -5.0120
-14.8453 -4.6599 -5.1618
-15.0182 -6.2351 -5.3945
-15.2713 -8.0061 -5.7201
-23.1254 -14.8951 -9.1254
-6.9424 -23.8045 -8.2260
37.7719 -17.0921 -13.7538
35.0551 -12.2264 -12.3163
35.2526 -8.8602 -12.0585
35.4845 -5.6131 -11.9181
46.2970 5.1682 -15.4541
38.1072 7.7456 -12.9003
31.2913 9.3335 -10.8326
31.4797 12.5451 -11.2419
29.0985 14.7291 -10.8194
24.9091 15.5450 -9.7409
24.8020 18.7485 -10.3142
23.8888 21.6657 -10.6988
27.8488 30.2064 -13.6297
27.3999 35.6374 -14.9129
25.2258 39.6951 -15.6027
-10.2241 42.1339 -14.3833
-13.2146 38.9084 -13.6318
-17.3314 39.1499 -14.2035
-13.2035 23.8216 -9.0354
-13.4108 19.7945 -7.9319
-13.6704 16.7395 -7.1697
-13.8231 14.1372 -6.5593
-13.9528 11.9269 -6.0894
-14.0659 9.9978 -5.7249
-14.1670 8.2735 -5.4426
-14.1812 6.6627 -5.1979
-14.2667 5.2057 -5.0381
-14.3477 3.8247 -4.9260
-14.4257 2.4936 -4.8566
-14.5022 1.1892 -4.8272
-14.5784 -0.1099 -4.8364
-14.6555 -1.4244 -4.8848
-14.7348 -2.7764 -4.9742
-14.8178 -4.1903 -5.1085
-14.9884 -5.7264 -5.3228
-15.0017 -7.3262 -5.5385
-20.1595 -12.1843 -7.8144
-5.8121 -5.1218 -2.5700
18.7952 -16.5367 -8.3050
37.6968 -18.3728 -13.9119
35.1212 -13.3866 -12.4689
35.1903 -9.9215 -12.1293
35.3829 -6.6380 -11.9428
46.2183 3.8266 -15.3851
43.4721 7.5498 -14.6375
33.8449 9.0508 -11.6224
31.4180 11.4919 -11.0981
31.0320 14.6097 -11.3785
25.5330 14.9383 -9.8136
23.5383 16.7586 -9.5856
23.8146 20.3893 -10.4004
28.3003 28.9890 -13.4398
27.2037 33.3647 -14.2813
26.3169 38.9101 -15.5834
-10.1256 43.8125 -14.6108
-4.8130 14.6969 -5.0249
-16.8088 39.1193 -13.8343
-13.2141 24.4678 -9.0354
-13.3853 20.2297 -7.8816
-13.6497 17.0922 -7.1072
-13.8058 14.4318 -6.4893
-13.8613 12.1135 -5.9813
-14.0528 10.2216 -5.6461
-14.1552 8.4755 -5.3607
-14.1704 6.8478 -5.1136
-14.2565 5.3793 -4.9510
-14.3379 3.9906 -4.8357
-14.4163 2.6546 -4.7629
-14.4929 1.3481 -4.7294
-14.5691 0.0495 -4.7338
-14.6460 -1.2620 -4.7764
-14.7250 -2.6082 -4.8589
-14.8074 -4.0130 -4.9848
-14.8949 -5.5048 -5.1596
-15.0182 -7.1320 -5.4020
-19.1470 -11.2884 -7.2220
-5.8528 -5.0451 -2.5107
37.6675 -18.8710 -13.6890
36.4377 -14.3466 -12.7240
35.1663 -10.3310 -11.9091
35.3597 -7.0348 -11.7142
20.2547 3.2900 -6.6674
31.7604 8.1224 -10.6517
31.3947 11.0958 -10.8191
31.5917 14.4533 -11.2880
26.1247 14.9036 -9.7725
23.6077 16.4220 -9.3439
23.7873 19.9194 -10.0810
24.0207 24.0729 -11.0496
27.1573 32.5740 -13.7798
25.4011 36.6854 -14.4983
-11.8949 40.1673 -13.6114
-15.4694 39.0407 -13.6446
-21.2228 42.1330 -15.3285
-13.3149 21.4294 -8.1974
-13.5932 18.0560 -7.3434
-13.7589 15.2309 -6.6691
-13.8978 12.8638 -6.1531
-13.9406 10.7620 -5.7223
-14.0462 8.9651 -5.4142
-14.1415 7.3393 -5.1768
-14.2295 5.8387 -4.9975
-14.3123 4.4276 -4.8678
-14.3915 3.0775 -4.7818
-14.4685 1.7640 -4.7359
-14.5447 0.4651 -4.7283
-14.6213 -0.8400 -4.7586
-14.6994 -2.1726 -4.8280
-14.7805 -3.5558 -4.9395
-14.8662 -5.0164 -5.0979
-15.0410 -6.6232 -5.3399
-17.0112 -9.3850 -6.3127
37.5898 -20.1955 -13.8648
37.8268 -16.1562 -13.3648
35.1029 -11.4113 -11.9932
35.2985 -8.0772 -11.7656
36.1128 -4.9272 -11.8425
46.3561 6.1762 -15.1951
36.5971 8.2532 -12.1897
31.3350 10.0774 -10.6949
31.5269 13.3482 -11.1240
27.7697 14.8070 -10.2255
24.1506 15.7955 -9.3764
23.8085 18.8068 -9.8582
23.9470 22.6656 -10.7134
27.7359 31.3992 -13.6125
26.4438 35.9518 -14.5010
-10.6818 40.2611 -13.5342
-14.1757 38.9931 -13.4809
-18.3659 39.2106 -14.0686
-13.2686 22.7818 -8.5662
-13.4584 18.9821 -7.5606
-13.6341 15.9881 -6.8272
-13.8558 13.5800 -6.3038
-13.9810 11.4452 -5.8707
-14.0910 9.5709 -5.5347
-14.1120 7.8435 -5.2459
-14.2021 6.3072 -5.0491
-14.2863 4.8709 -4.9043
-14.3665 3.5041 -4.8048
-14.4441 2.1813 -4.7464
-14.5204 0.8801 -4.7266
-14.5967 -0.4208 -4.7447
-14.6742 -1.7421 -4.8014
-14.7542 -3.1065 -4.8990
-14.8382 -4.5392 -5.0418
-14.9280 -6.0704 -5.2361
-14.8935 -7.6702 -5.4432
-22.8540 -14.4856 -8.7917
-7.1525 -23.8764 -8.0985
37.7529 -17.4161 -13.5090
35.0386 -12.5079 -12.0884
35.2368 -9.1298 -11.8272
35.4281 -5.8691 -11.6682
46.2769 4.8248 -15.1178
39.2431 7.6790 -12.9927
31.2766 9.0814 -10.5821
31.4638 12.2739 -10.9735
29.5653 14.6957 -10.7276
24.9541 15.3215 -9.5144
23.5853 17.5601 -9.5541
23.8695 21.3331 -10.4018
28.3793 30.3353 -13.4973
27.2981 34.9744 -14.4156
25.6190 39.6721 -15.3443
-10.1593 43.2390 -14.4318
-13.1825 39.7634 -13.6114
