ply
format ascii 1.0
element vertex 2176
property float32 x
property float32 y
property float32 z
end_header
9.1954 -2.2733 1.7707
4.5377 -0.6999 0.8583
4.5166 -0.2882 0.8460
4.7144 0.1207 0.8816
9.4030 1.0852 1.7694
9.2577 1.9173 1.7673
9.0355 2.7311 1.7645
8.7389 3.5193 1.7611
8.3709 4.2749 1.7570
7.9353 4.9913 1.7524
7.4366 5.6625 1.7473
6.8796 6.2830 1.7416
6.2700 6.8477 1.7356
5.6160 7.3559 1.7300
1.0422 1.6522 0.3652
0.8906 1.7384 0.3651
0.7319 1.8107 0.3651
0.5674 1.8687 0.3651
0.3985 1.9117 0.3650
0.2264 1.9396 0.3650
0.0525 1.9520 0.3650
-0.1219 1.9490 0.3650
-0.2952 1.9304 0.3651
-0.4663 1.8965 0.3651
-0.6336 1.8475 0.3651
-0.7960 1.7838 0.3651
-0.9520 1.7059 0.3652
-5.6033 8.2198 1.8596
-6.2082 7.5583 1.8284
-6.4031 6.5122 1.7072
-6.9646 5.9203 1.7087
-7.4708 5.2797 1.7101
-7.9174 4.5955 1.7113
-8.3007 3.8733 1.7123
-8.6143 3.1178 1.7125
-8.8581 2.3371 1.7125
-9.0313 1.5377 1.7125
-9.1324 0.7260 1.7125
-9.1608 -0.0915 1.7125
-9.1161 -0.9082 1.7125
-8.9988 -1.7177 1.7125
-8.8097 -2.5135 1.7125
-8.5504 -3.2893 1.7125
-8.2209 -4.0378 1.7121
-7.8231 -4.7520 1.7110
-7.3624 -5.4267 1.7097
-6.8421 -6.0556 1.7080
-6.8316 -7.2312 1.8596
-6.1608 -7.8136 1.8600
-1.0730 -1.6436 0.3669
-0.9222 -1.7330 0.3670
-0.7641 -1.8085 0.3670
-0.5997 -1.8696 0.3670
-0.4306 -1.9157 0.3670
-0.2580 -1.9466 0.3671
-0.0834 -1.9618 0.3671
0.0919 -1.9614 0.3671
0.2665 -1.9453 0.3670
0.4389 -1.9137 0.3670
0.6078 -1.8668 0.3670
0.7718 -1.8049 0.3670
0.9296 -1.7287 0.3669
1.0800 -1.6387 0.3669
5.7903 -7.2782 1.7386
6.4602 -6.7786 1.7504
7.0692 -6.2018 1.7579
7.6002 -5.5510 1.7593
8.0821 -4.8612 1.7630
8.4983 -4.1281 1.7661
8.8446 -3.3583 1.7685
9.1178 -2.5585 1.7702
4.6048 -0.8582 0.8756
4.5105 -0.4295 0.8470
4.5764 -0.0257 0.8555
9.4353 0.7915 1.7700
9.3173 1.6282 1.7681
9.1218 2.4493 1.7656
8.8509 3.2472 1.7623
8.5074 4.0149 1.7585
8.0950 4.7458 1.7541
7.6177 5.4335 1.7491
7.0806 6.0722 1.7437
6.4886 6.6570 1.7377
5.5295 6.7922 1.6372
1.0933 1.6189 0.3652
0.9444 1.7098 0.3651
0.7881 1.7870 0.3651
0.6255 1.8501 0.3651
0.4580 1.8984 0.3650
0.2868 1.9316 0.3650
0.1134 1.9495 0.3650
-0.0610 1.9518 0.3650
-0.2348 1.9387 0.3650
-0.4068 1.9101 0.3651
-0.5756 1.8663 0.3651
-0.7399 1.8077 0.3651
-0.8983 1.7347 0.3652
-1.0496 1.6479 0.3652
-6.0711 7.8805 1.8596
-6.2321 6.7471 1.7170
-6.7744 6.1329 1.7082
-7.3004 5.5087 1.7096
-7.7684 4.8392 1.7109
-8.1742 4.1296 1.7120
-8.5128 3.3852 1.7125
-8.7809 2.6124 1.7125
-8.9789 1.8187 1.7125
-9.1053 1.0106 1.7125
-9.1592 0.1945 1.7125
-9.1400 -0.6233 1.7125
-9.0480 -1.4360 1.7125
-8.8838 -2.2374 1.7125
-8.6489 -3.0208 1.7125
-8.3445 -3.7800 1.7124
-7.9694 -4.5066 1.7114
-7.5304 -5.1959 1.7102
-7.0304 -5.8413 1.7086
-6.4946 -6.4584 1.7121
-6.4004 -7.6161 1.8597
-5.6994 -8.1621 1.8609
-0.9758 -1.7033 0.3669
-0.8201 -1.7837 0.3670
-0.6578 -1.8499 0.3670
-0.4902 -1.9013 0.3670
-0.3187 -1.9375 0.3671
-0.1446 -1.9583 0.3671
0.0307 -1.9633 0.3671
0.2057 -1.9527 0.3670
0.3790 -1.9265 0.3670
0.5493 -1.8849 0.3670
0.7152 -1.8282 0.3670
0.8753 -1.7569 0.3669
1.0284 -1.6717 0.3669
5.5521 -7.4443 1.7360
6.2298 -6.9593 1.7460
6.8694 -6.4168 1.7572
7.4172 -5.7807 1.7579
7.9209 -5.1075 1.7618
8.3606 -4.3888 1.7651
8.7318 -3.6310 1.7678
9.0309 -2.8409 1.7697
9.2548 -2.0255 1.7710
4.5202 -0.5733 0.8517
4.5734 -0.1685 0.8555
9.4580 0.4968 1.7704
9.3674 1.3372 1.7688
9.1988 2.1646 1.7665
8.9539 2.9714 1.7635
8.6355 3.7505 1.7599
8.2467 4.4950 1.7557
7.7916 5.1985 1.7509
7.2748 5.8549 1.7456
6.7014 6.4591 1.7399
6.0769 7.0061 1.7337
5.4035 7.4867 1.7259
0.9974 1.6796 0.3651
0.8435 1.7616 0.3651
0.6829 1.8297 0.3651
0.5170 1.8832 0.3651
0.3469 1.9217 0.3650
0.1741 1.9450 0.3650
-0.0000 1.9528 0.3650
-0.1742 1.9450 0.3650
-0.3470 1.9218 0.3651
-0.5171 1.8833 0.3651
-0.6831 1.8299 0.3651
-0.8437 1.7618 0.3652
-0.9976 1.6798 0.3652
-5.8223 8.0661 1.8596
-6.2178 7.1679 1.7738
-6.5777 6.3393 1.7077
-7.1230 5.7323 1.7091
-7.6117 5.0780 1.7104
-8.0397 4.3817 1.7116
-8.4031 3.6491 1.7125
-8.6951 2.8851 1.7125
-8.9177 2.0980 1.7125
-9.0693 1.2943 1.7125
-9.1486 0.4802 1.7125
-9.1550 -0.3378 1.7125
-9.0884 -1.1530 1.7125
-8.9493 -1.9591 1.7125
-8.7389 -2.7495 1.7125
-8.4588 -3.5180 1.7125
-8.1079 -4.2567 1.7118
-7.6909 -4.9596 1.7107
-7.2118 -5.6211 1.7092
-6.6746 -6.2353 1.7074
-6.6347 -7.4124 1.8596
-5.9493 -7.9776 1.8603
-1.0285 -1.6719 0.3669
-0.8753 -1.7572 0.3670
-0.7152 -1.8284 0.3670
-0.5493 -1.8851 0.3670
-0.3789 -1.9266 0.3670
-0.2056 -1.9528 0.3671
-0.0306 -1.9634 0.3671
0.1446 -1.9582 0.3671
0.3187 -1.9374 0.3670
0.4902 -1.9012 0.3670
0.6578 -1.8497 0.3670
0.8201 -1.7835 0.3669
0.9758 -1.7030 0.3669
5.3112 -7.6054 1.7341
5.9929 -7.1305 1.7412
6.6529 -6.6152 1.7538
7.2317 -6.0081 1.7575
7.7520 -5.3482 1.7605
8.2145 -4.6447 1.7640
8.6101 -3.8999 1.7669
8.9347 -3.1202 1.7691
9.1853 -2.3129 1.7706
4.5432 -0.7209 0.8599
4.5158 -0.3078 0.8461
4.6917 0.0998 0.8772
9.4080 1.0446 1.7695
9.2665 1.8774 1.7674
9.0480 2.6923 1.7647
8.7549 3.4819 1.7613
8.3903 4.2392 1.7572
7.9579 4.9577 1.7526
7.4621 5.6312 1.7475
6.9078 6.2542 1.7419
6.3005 6.8218 1.7359
5.3211 6.9076 1.6300
1.0493 1.6477 0.3652
0.8981 1.7345 0.3651
0.7397 1.8076 0.3651
0.5755 1.8662 0.3651
0.4067 1.9100 0.3650
0.2347 1.9386 0.3650
0.0609 1.9518 0.3650
-0.1134 1.9495 0.3650
-0.2869 1.9317 0.3651
-0.4581 1.8985 0.3651
-0.6256 1.8502 0.3651
-0.7882 1.7872 0.3651
-0.9446 1.7100 0.3652
-5.5677 8.2439 1.8596
-6.2066 7.6232 1.8376
-6.3748 6.5397 1.7072
-6.9387 5.9501 1.7086
-7.4476 5.3117 1.7100
-7.8973 4.6294 1.7112
-8.2837 3.9090 1.7122
-8.6008 3.1550 1.7125
-8.8479 2.3753 1.7125
-9.0245 1.5766 1.7125
-9.1292 0.7654 1.7125
-9.1611 -0.0519 1.7125
-9.1199 -0.8688 1.7125
-9.0061 -1.6789 1.7125
-8.8205 -2.4754 1.7125
-8.5645 -3.2523 1.7125
-8.2385 -4.0024 1.7122
-7.8438 -4.7184 1.7111
-7.3861 -5.3951 1.7098
-6.8685 -6.0263 1.7081
-6.7609 -7.0948 1.8320
-6.1938 -7.7861 1.8598
-1.0801 -1.6390 0.3669
-0.9297 -1.7290 0.3670
-0.7718 -1.8052 0.3670
-0.6078 -1.8670 0.3670
-0.4389 -1.9138 0.3670
-0.2664 -1.9454 0.3671
-0.0919 -1.9615 0.3671
0.0835 -1.9618 0.3671
0.2581 -1.9465 0.3670
0.4307 -1.9156 0.3670
0.5998 -1.8694 0.3670
0.7640 -1.8083 0.3670
0.9222 -1.7327 0.3669
1.0729 -1.6433 0.3669
5.7574 -7.3013 1.7381
6.4287 -6.8041 1.7498
7.0426 -6.2325 1.7580
7.5754 -5.5831 1.7591
8.0603 -4.8956 1.7629
8.4797 -4.1645 1.7660
8.8296 -3.3962 1.7684
4.5009 -0.2482 0.8714
4.8893 0.1674 0.9457
9.0673 1.1258 1.7663
8.9202 1.9278 1.7642
8.6991 2.7116 1.7615
8.4065 3.4700 1.7581
8.0454 4.1966 1.7542
7.6194 4.8849 1.7497
7.1328 5.5291 1.7446
6.5905 6.1240 1.7392
5.9984 6.6657 1.7335
5.3521 7.1371 1.7246
0.9940 1.6064 0.3652
0.8467 1.6885 0.3651
0.6927 1.7571 0.3651
0.5331 1.8118 0.3651
0.3694 1.8520 0.3651
0.2027 1.8775 0.3651
0.0344 1.8881 0.3651
-0.1341 1.8837 0.3651
-0.3016 1.8643 0.3651
-0.4667 1.8301 0.3651
-0.6281 1.7813 0.3651
-0.7846 1.7184 0.3652
-0.9349 1.6417 0.3652
-5.4867 7.9013 1.8596
-6.1696 7.3805 1.8596
-6.2457 6.2434 1.7072
-6.7818 5.6649 1.7082
-7.2656 5.0412 1.7095
-7.6914 4.3760 1.7107
-8.0556 3.6746 1.7116
-8.3552 2.9428 1.7124
-8.5848 2.1859 1.7125
-8.7456 1.4115 1.7125
-8.8366 0.6258 1.7125
-8.8572 -0.1649 1.7125
-8.8072 -0.9543 1.7125
-8.6870 -1.7360 1.7125
-8.4975 -2.5039 1.7125
-8.2385 -3.2512 1.7122
-7.9117 -3.9710 1.7113
-7.5214 -4.6580 1.7102
-7.0707 -5.3065 1.7090
-6.5630 -5.9104 1.7074
-6.5455 -7.0493 1.8596
-5.8914 -7.6060 1.8598
-1.0237 -1.5981 0.3669
-0.8772 -1.6833 0.3669
-0.7236 -1.7550 0.3670
-0.5643 -1.8126 0.3670
-0.4004 -1.8558 0.3670
-0.2332 -1.8842 0.3670
-0.0642 -1.8975 0.3670
0.1053 -1.8956 0.3670
0.2739 -1.8786 0.3670
0.4404 -1.8466 0.3670
0.6033 -1.7998 0.3670
0.7613 -1.7387 0.3669
0.9133 -1.6637 0.3669
1.0579 -1.5753 0.3668
5.6348 -6.9585 1.7309
6.2911 -6.4882 1.7471
6.8845 -5.9354 1.7572
7.3862 -5.2975 1.7571
7.8450 -4.6268 1.7607
8.2400 -3.9151 1.7636
8.5673 -3.1686 1.7658
8.8237 -2.3940 1.7674
4.5622 -0.8095 0.8957
4.4715 -0.3869 0.8676
4.6486 0.0140 0.8987
9.1010 0.8426 1.7669
8.9801 1.6493 1.7650
8.7847 2.4402 1.7625
8.5167 3.2083 1.7594
8.1791 3.9467 1.7556
7.7753 4.6491 1.7513
7.3094 5.3093 1.7464
6.7860 5.9221 1.7411
6.2102 6.4823 1.7354
5.4380 6.7988 1.6830
1.0437 1.5747 0.3652
0.8990 1.6613 0.3652
0.7472 1.7347 0.3651
0.5894 1.7943 0.3651
0.4270 1.8396 0.3651
0.2612 1.8703 0.3651
0.0933 1.8861 0.3651
-0.0753 1.8870 0.3651
-0.2433 1.8728 0.3651
-0.4094 1.8437 0.3651
-0.5722 1.8000 0.3651
-0.7306 1.7419 0.3652
-0.8831 1.6700 0.3652
-1.0287 1.5848 0.3652
-5.9363 7.5694 1.8596
-6.2203 6.6187 1.7559
-6.5999 5.8721 1.7077
-7.1029 5.2641 1.7091
-7.5494 4.6128 1.7103
-7.9355 3.9234 1.7113
-8.2580 3.2016 1.7122
-8.5124 2.4527 1.7125
-8.6973 1.6837 1.7125
-8.8128 0.9012 1.7125
-8.8580 0.1116 1.7125
-8.8327 -0.6790 1.7125
-8.7369 -1.4641 1.7125
-8.5715 -2.2376 1.7125
-8.3372 -2.9930 1.7124
-8.0332 -3.7229 1.7116
-7.6648 -4.4221 1.7106
-7.2349 -5.0847 1.7095
-6.7466 -5.7047 1.7080
-6.5244 -6.6010 1.7942
-6.1253 -7.4177 1.8597
-1.0731 -1.5653 0.3669
-0.9293 -1.6550 0.3669
-0.7780 -1.7315 0.3670
-0.6205 -1.7941 0.3670
-0.4581 -1.8424 0.3670
-0.2919 -1.8760 0.3670
-0.1234 -1.8946 0.3670
0.0461 -1.8980 0.3670
0.2152 -1.8863 0.3670
0.3825 -1.8595 0.3670
0.5468 -1.8178 0.3670
0.7067 -1.7617 0.3669
0.8609 -1.6914 0.3669
1.0082 -1.6077 0.3668
5.4109 -7.1258 1.7297
6.0692 -6.6633 1.7424
6.6839 -6.1364 1.7541
7.2150 -5.5237 1.7566
7.6917 -4.8662 1.7595
8.1094 -4.1681 1.7626
8.4608 -3.4330 1.7651
8.7423 -2.6674 1.7669
8.9512 -1.8782 1.7681
4.4930 -0.5304 0.8746
4.5419 -0.1281 0.8784
9.1254 0.5584 1.7674
9.0309 1.3688 1.7657
8.8613 2.1661 1.7635
8.6184 2.9429 1.7605
8.3048 3.6925 1.7570
7.9237 4.4081 1.7529
7.4790 5.0838 1.7482
6.9751 5.7137 1.7430
6.4170 6.2928 1.7374
5.8161 6.8236 1.7333
1.0924 1.5414 0.3652
0.9504 1.6325 0.3652
0.8010 1.7106 0.3651
0.6451 1.7751 0.3651
0.4842 1.8254 0.3651
0.3194 1.8613 0.3651
0.1522 1.8823 0.3651
-0.0163 1.8884 0.3651
-0.1847 1.8794 0.3651
-0.3516 1.8556 0.3651
-0.5158 1.8169 0.3651
-0.6758 1.7638 0.3651
-0.8306 1.6967 0.3652
-0.9787 1.6161 0.3652
-5.6972 7.7509 1.8596
-6.2101 7.0355 1.8141
-6.4115 6.0734 1.7072
-6.9334 5.4818 1.7086
-7.4001 4.8450 1.7099
-7.8077 4.1683 1.7110
-8.1528 3.4571 1.7119
-8.4317 2.7172 1.7125
-8.6405 1.9543 1.7125
-8.7804 1.1758 1.7125
-8.8502 0.3879 1.7125
-8.8496 -0.4030 1.7125
-8.7784 -1.1908 1.7125
-8.6372 -1.9690 1.7125
-8.4271 -2.7316 1.7125
-8.1469 -3.4710 1.7119
-7.8007 -4.1816 1.7110
-7.3919 -4.8576 1.7099
-6.9236 -5.4932 1.7085
-6.4010 -6.0841 1.7072
-6.3535 -7.2227 1.8596
-5.6854 -7.7626 1.8601
-0.9804 -1.6251 0.3669
-0.8317 -1.7063 0.3669
-0.6762 -1.7738 0.3670
-0.5153 -1.8272 0.3670
-0.3503 -1.8659 0.3670
-0.1825 -1.8898 0.3670
-0.0132 -1.8985 0.3670
0.1562 -1.8921 0.3670
0.3243 -1.8706 0.3670
0.4898 -1.8341 0.3670
0.6514 -1.7829 0.3669
0.8078 -1.7175 0.3669
0.9576 -1.6384 0.3669
5.1819 -7.2855 1.7283
5.8363 -6.8238 1.7358
6.4765 -6.3295 1.7506
7.0410 -5.7477 1.7571
7.5308 -5.1002 1.7583
7.9708 -4.4166 1.7616
8.3458 -3.6937 1.7643
8.6521 -2.9380 1.7664
8.8866 -2.1563 1.7678
4.5289 -0.6786 0.8853
4.5001 -0.2677 0.8715
4.8646 0.1455 0.9408
9.0725 1.0867 1.7664
8.9290 1.8894 1.7643
8.7115 2.6742 1.7616
8.4223 3.4341 1.7583
8.0643 4.1623 1.7544
7.6414 4.8526 1.7499
7.1576 5.4991 1.7449
6.6179 6.0965 1.7394
6.0274 6.6400 1.7336
5.3858 7.1178 1.7255
1.0010 1.6021 0.3652
0.8540 1.6848 0.3651
0.7002 1.7541 0.3651
0.5409 1.8095 0.3651
0.3774 1.8504 0.3651
0.2108 1.8767 0.3651
0.0426 1.8880 0.3651
-0.1260 1.8843 0.3651
-0.2936 1.8656 0.3651
-0.4588 1.8321 0.3651
-0.6204 1.7840 0.3651
-0.7772 1.7217 0.3652
-0.9278 1.6457 0.3652
-1.0710 1.5566 0.3653
-6.1377 7.4070 1.8596
-6.2364 6.2881 1.7120
-6.7571 5.6939 1.7082
-7.2435 5.0723 1.7095
-7.6722 4.4090 1.7106
-8.0395 3.7092 1.7116
-8.3422 2.9787 1.7124
-8.5753 2.2229 1.7125
-8.7394 1.4492 1.7125
-8.8338 0.6639 1.7125
-8.8578 -0.1267 1.7125
-8.8112 -0.9163 1.7125
-8.6944 -1.6985 1.7125
-8.5082 -2.4672 1.7125
-8.2526 -3.2156 1.7122
-7.9289 -3.9369 1.7113
-7.5416 -4.6257 1.7103
-7.0939 -5.2761 1.7091
-6.5888 -5.8823 1.7075
-6.5758 -7.0209 1.8596
-5.9238 -7.5800 1.8597
-1.0306 -1.5937 0.3669
-0.8845 -1.6795 0.3669
-0.7312 -1.7518 0.3670
-0.5721 -1.8102 0.3670
-0.4084 -1.8541 0.3670
-0.2414 -1.8832 0.3670
-0.0724 -1.8972 0.3670
0.0971 -1.8961 0.3670
0.2658 -1.8798 0.3670
0.4324 -1.8485 0.3670
0.5955 -1.8024 0.3670
0.7538 -1.7420 0.3669
0.9061 -1.6676 0.3669
1.0511 -1.5799 0.3668
5.6041 -6.9821 1.7307
6.2610 -6.5131 1.7465
6.8571 -5.9636 1.7568
7.3625 -5.3288 1.7570
7.8242 -4.6602 1.7605
8.2224 -3.9504 1.7634
8.5531 -3.2054 1.7657
8.8130 -2.4320 1.7674
4.5675 -0.8308 0.8975
4.4664 -0.4059 0.8670
4.6104 -0.0060 0.8913
9.1049 0.8034 1.7670
8.9877 1.6106 1.7651
8.7958 2.4025 1.7626
8.5313 3.1718 1.7595
8.1970 3.9118 1.7558
7.7963 4.6160 1.7515
7.3333 5.2785 1.7467
6.8125 5.8936 1.7414
6.2391 6.4565 1.7357
5.5079 6.8256 1.6955
1.0505 1.5702 0.3652
0.9062 1.6574 0.3652
0.7546 1.7315 0.3651
0.5972 1.7917 0.3651
0.4349 1.8378 0.3651
0.2693 1.8692 0.3651
0.1015 1.8857 0.3651
-0.0671 1.8873 0.3651
-0.2352 1.8738 0.3651
-0.4014 1.8455 0.3651
-0.5645 1.8024 0.3651
-0.7230 1.7451 0.3652
-0.8759 1.6738 0.3652
-1.0219 1.5892 0.3652
-5.9035 7.5949 1.8596
-6.2189 6.6748 1.7636
-6.5742 5.9003 1.7077
-7.0799 5.2945 1.7090
-7.5292 4.6452 1.7102
-7.9183 3.9575 1.7113
-8.2440 3.2371 1.7121
-8.5018 2.4895 1.7125
-8.6899 1.7212 1.7125
-8.8088 0.9393 1.7125
-8.8575 0.1498 1.7125
-8.8355 -0.6408 1.7125
-8.7432 -1.4264 1.7125
-8.5811 -2.2005 1.7125
-8.3502 -2.9570 1.7124
-8.0494 -3.6883 1.7116
-7.6840 -4.3891 1.7107
-7.2570 -5.0536 1.7095
-6.7715 -5.6758 1.7081
-6.4939 -6.5136 1.7781
-6.1570 -7.3910 1.8596
-1.0798 -1.5607 0.3669
-0.9364 -1.6510 0.3669
-0.7855 -1.7281 0.3670
-0.6283 -1.7914 0.3670
-0.4660 -1.8404 0.3670
-0.3000 -1.8747 0.3670
-0.1316 -1.8940 0.3670
0.0379 -1.8982 0.3670
0.2070 -1.8872 0.3670
0.3745 -1.8611 0.3670
0.5390 -1.8202 0.3670
0.6991 -1.7647 0.3669
0.8536 -1.6951 0.3669
1.0013 -1.6120 0.3669
5.3796 -7.1483 1.7295
6.0373 -6.6860 1.7415
6.6557 -6.1636 1.7536
7.1914 -5.5550 1.7566
7.6699 -4.8989 1.7593
8.0907 -4.2027 1.7625
8.4454 -3.4693 1.7650
8.7304 -2.7050 1.7669
8.9428 -1.9168 1.7680
4.4983 -0.5508 0.8761
4.5366 -0.1476 0.8775
9.1280 0.5190 1.7674
9.0372 1.3299 1.7658
8.8712 2.1280 1.7636
8.6318 2.9060 1.7607
8.3216 3.6570 1.7572
7.9436 4.3744 1.7531
7.5019 5.0521 1.7484
7.0008 5.6844 1.7433
6.4451 6.2660 1.7377
5.8456 6.7986 1.7333
1.0990 1.5367 0.3652
0.9575 1.6284 0.3652
0.8083 1.7071 0.3651
0.6528 1.7723 0.3651
0.4921 1.8233 0.3651
0.3275 1.8599 0.3651
0.1603 1.8816 0.3651
-0.0082 1.8884 0.3651
-0.1766 1.8802 0.3651
-0.3436 1.8571 0.3651
-0.5079 1.8191 0.3651
-0.6682 1.7667 0.3651
-0.8232 1.7003 0.3652
-0.9717 1.6203 0.3652
-5.6637 7.7755 1.8596
-6.2086 7.0953 1.8226
-6.3916 6.1066 1.7089
-6.9094 5.5114 1.7086
-7.3788 4.8768 1.7098
-7.7894 4.2018 1.7109
-8.1376 3.4922 1.7119
-8.4199 2.7535 1.7125
-8.6320 1.9916 1.7125
-8.7752 1.2137 1.7125
-8.8485 0.4261 1.7125
-8.8512 -0.3648 1.7125
-8.7834 -1.1528 1.7125
-8.6456 -1.9317 1.7125
-8.4388 -2.6951 1.7125
-8.1620 -3.4359 1.7119
-7.8189 -4.1480 1.7110
-7.4130 -4.8259 1.7100
-6.9476 -5.4635 1.7086
-6.4272 -6.0564 1.7072
-6.3847 -7.1952 1.8596
-5.7188 -7.7378 1.8600
-0.9874 -1.6209 0.3669
-0.8390 -1.7027 0.3669
-0.6839 -1.7709 0.3670
-0.5232 -1.8249 0.3670
-0.3584 -1.8644 0.3670
-0.1906 -1.8890 0.3670
-0.0214 -1.8985 0.3670
0.1480 -1.8928 0.3670
0.3163 -1.8719 0.3670
0.4819 -1.8362 0.3670
0.6437 -1.7857 0.3670
0.8004 -1.7210 0.3669
0.9506 -1.6426 0.3669
5.1498 -7.3069 1.7281
5.7978 -6.8383 1.7331
6.4470 -6.3553 1.7501
7.0164 -5.7782 1.7571
7.5080 -5.1322 1.7581
7.9510 -4.4506 1.7615
8.3292 -3.7294 1.7642
8.6389 -2.9752 1.7663
8.8770 -2.1945 1.7677
4.5343 -0.6994 0.8869
4.4987 -0.2871 0.8714
4.8402 0.1239 0.9360
9.0775 1.0476 1.7665
8.9377 1.8510 1.7644
8.7237 2.6368 1.7618
8.4379 3.3980 1.7585
8.0832 4.1279 1.7546
7.6632 4.8202 1.7501
7.1823 5.4689 1.7451
6.6452 6.0688 1.7397
6.0570 6.6151 1.7339
5.4192 7.0981 1.7264
1.0079 1.5978 0.3652
0.8612 1.6811 0.3652
0.7078 1.7511 0.3651
0.5488 1.8071 0.3651
0.3854 1.8488 0.3651
0.2189 1.8757 0.3651
0.0507 1.8878 0.3651
-0.1178 1.8848 0.3651
-0.2855 1.8668 0.3651
-0.4509 1.8340 0.3651
-0.6127 1.7867 0.3651
-0.7697 1.7250 0.3652
-0.9206 1.6497 0.3652
-1.0643 1.5612 0.3653
-6.1056 7.4334 1.8596
-6.2306 6.3367 1.7179
-6.7322 5.7227 1.7081
-7.2213 5.1034 1.7094
-7.6529 4.4419 1.7106
-8.0232 3.7438 1.7116
-8.3291 3.0146 1.7124
-8.5656 2.2599 1.7125
-8.7331 1.4869 1.7125
-8.8309 0.7020 1.7125
-8.8583 -0.0885 1.7125
-8.8151 -0.8782 1.7125
-8.7016 -1.6610 1.7125
-8.5188 -2.4305 1.7125
-8.2666 -3.1801 1.7122
-7.9461 -3.9028 1.7114
-7.5617 -4.5933 1.7104
-7.1168 -5.2457 1.7091
-6.6145 -5.8541 1.7075
-6.6061 -6.9925 1.8596
-5.9564 -7.5544 1.8597
-1.0375 -1.5892 0.3669
-0.8917 -1.6756 0.3669
-0.7388 -1.7486 0.3670
-0.5799 -1.8077 0.3670
-0.4164 -1.8523 0.3670
-0.2495 -1.8821 0.3670
-0.0806 -1.8969 0.3670
0.0889 -1.8965 0.3670
0.2577 -1.8809 0.3670
0.4244 -1.8504 0.3670
0.5877 -1.8050 0.3670
0.7463 -1.7452 0.3669
0.8989 -1.6715 0.3669
1.0443 -1.5844 0.3668
5.5734 -7.0055 1.7306
6.2308 -6.5379 1.7459
6.8296 -5.9917 1.7563
7.3387 -5.3599 1.7568
7.8033 -4.6936 1.7604
8.2047 -3.9855 1.7633
8.5387 -3.2421 1.7656
8.8021 -2.4699 1.7673
4.7628 -0.8876 0.9366
4.4652 -0.4252 0.8671
4.5766 -0.0257 0.8847
9.1086 0.7641 1.7670
8.9951 1.5719 1.7652
8.8067 2.3647 1.7628
8.5457 3.1352 1.7597
8.2147 3.8768 1.7560
7.8172 4.5829 1.7517
7.3570 5.2475 1.7469
6.8390 5.8651 1.7417
6.2680 6.4306 1.7360
5.6525 6.9433 1.7308
1.0573 1.5656 0.3652
0.9133 1.6535 0.3652
0.7621 1.7282 0.3651
0.6049 1.7891 0.3651
0.4429 1.8359 0.3651
0.2773 1.8680 0.3651
0.1096 1.8853 0.3651
-0.0590 1.8875 0.3651
-0.2271 1.8748 0.3651
-0.3934 1.8472 0.3651
-0.5567 1.8049 0.3651
-0.7155 1.7482 0.3652
-0.8687 1.6776 0.3652
-1.0150 1.5936 0.3652
-5.8707 7.6203 1.8596
-6.2176 6.7313 1.7714
-6.5484 5.9283 1.7076
-7.0567 5.3248 1.7090
-7.5088 4.6775 1.7102
-7.9010 3.9915 1.7112
-8.2297 3.2726 1.7121
-8.4909 2.5261 1.7125
-8.6824 1.7587 1.7125
-8.8047 0.9772 1.7125
-8.8568 0.1880 1.7125
-8.8382 -0.6027 1.7125
-8.7492 -1.3886 1.7125
-8.5905 -2.1635 1.7125
-8.3631 -2.9210 1.7125
-8.0655 -3.6536 1.7117
-7.7031 -4.3560 1.7107
-7.2790 -5.0224 1.7096
-6.7963 -5.6468 1.7081
-6.4639 -6.4278 1.7622
-6.1889 -7.3644 1.8596
-1.0865 -1.5560 0.3669
-0.9435 -1.6469 0.3669
-0.7929 -1.7247 0.3670
-0.6360 -1.7887 0.3670
-0.4740 -1.8384 0.3670
-0.3081 -1.8734 0.3670
-0.1398 -1.8934 0.3670
0.0297 -1.8984 0.3670
0.1989 -1.8881 0.3670
0.3665 -1.8627 0.3670
0.5311 -1.8225 0.3670
0.6915 -1.7677 0.3669
0.8463 -1.6988 0.3669
0.9943 -1.6163 0.3669
5.3481 -7.1707 1.7293
6.0052 -6.7085 1.7406
6.6274 -6.1907 1.7532
7.1676 -5.5862 1.7567
7.6479 -4.9315 1.7592
8.0719 -4.2373 1.7624
8.4299 -3.5055 1.7649
8.7183 -2.7426 1.7668
8.9343 -1.9553 1.7680
4.5037 -0.5712 0.8776
4.5313 -0.1670 0.8766
9.1305 0.4796 1.7675
9.0433 1.2910 1.7659
8.8809 2.0898 1.7637
8.6450 2.8689 1.7608
8.3381 3.6214 1.7574
7.9634 4.3406 1.7533
7.5247 5.0204 1.7487
7.0263 5.6549 1.7436
6.4732 6.2392 1.7380
5.8751 6.7735 1.7333
1.1057 1.5319 0.3652
0.9645 1.6242 0.3652
0.8157 1.7036 0.3651
0.6604 1.7694 0.3651
0.4999 1.8212 0.3651
0.3355 1.8584 0.3651
0.1684 1.8809 0.3651
-0.0000 1.8885 0.3651
-0.1685 1.8810 0.3651
-0.3356 1.8585 0.3651
-0.5001 1.8213 0.3651
-0.6606 1.7696 0.3651
-0.8159 1.7038 0.3652
-0.9647 1.6244 0.3652
-5.6301 7.7998 1.8596
-6.2071 7.1557 1.8312
-6.3587 6.1283 1.7072
-6.8853 5.5410 1.7085
-7.3575 4.9084 1.7098
-7.7710 4.2353 1.7109
-8.1222 3.5272 1.7118
-8.4080 2.7898 1.7125
-8.6233 2.0288 1.7125
-8.7699 1.2515 1.7125
-8.8466 0.4643 1.7125
-8.8527 -0.3266 1.7125
-8.7883 -1.1150 1.7125
-8.6538 -1.8944 1.7125
-8.4504 -2.6587 1.7125
-8.1770 -3.4007 1.7120
-7.8369 -4.1144 1.7111
-7.4340 -4.7940 1.7100
-6.9714 -5.4337 1.7087
-6.4533 -6.0286 1.7072
-6.4156 -7.1676 1.8596
-5.7520 -7.7130 1.8600
-0.9944 -1.6166 0.3669
-0.8463 -1.6990 0.3669
-0.6915 -1.7679 0.3670
-0.5311 -1.8227 0.3670
-0.3664 -1.8628 0.3670
-0.1988 -1.8881 0.3670
-0.0296 -1.8984 0.3670
0.1399 -1.8934 0.3670
0.3082 -1.8733 0.3670
0.4740 -1.8382 0.3670
0.6360 -1.7885 0.3670
0.7929 -1.7245 0.3669
0.9435 -1.6467 0.3669
5.1176 -7.3283 1.7279
5.7651 -6.8594 1.7322
6.4174 -6.3811 1.7495
6.9916 -5.8086 1.7572
7.4850 -5.1640 1.7579
7.9311 -4.4845 1.7613
8.3125 -3.7651 1.7641
8.6256 -3.0123 1.7662
8.8672 -2.2328 1.7677
4.5396 -0.7203 0.8885
4.4934 -0.3062 0.8707
4.8160 0.1025 0.9312
9.0824 1.0085 1.7666
8.9461 1.8125 1.7646
8.7357 2.5993 1.7619
8.4533 3.3619 1.7586
8.1018 4.0934 1.7548
7.6850 4.7877 1.7503
7.2069 5.4387 1.7454
6.6723 6.0410 1.7400
6.0865 6.5900 1.7342
5.4518 7.0772 1.7270
1.0148 1.5934 0.3652
0.8685 1.6774 0.3652
0.7154 1.7480 0.3651
0.5566 1.8047 0.3651
0.3933 1.8471 0.3651
0.2270 1.8748 0.3651
0.0589 1.8875 0.3651
-0.1097 1.8853 0.3651
-0.2774 1.8681 0.3651
-0.4430 1.8360 0.3651
-0.6050 1.7893 0.3651
-0.7623 1.7283 0.3652
-0.9135 1.6537 0.3652
-1.0575 1.5658 0.3653
-6.0735 7.4597 1.8596
-6.2258 6.3868 1.7242
-6.7071 5.7515 1.7080
-7.1989 5.1343 1.7093
-7.6334 4.4748 1.7105
-8.0068 3.7783 1.7115
-8.3159 3.0505 1.7123
-8.5558 2.2969 1.7125
-8.7266 1.5246 1.7125
-8.8278 0.7401 1.7125
-8.8586 -0.0502 1.7125
-8.8188 -0.8401 1.7125
-8.7087 -1.6234 1.7125
-8.5292 -2.3937 1.7125
-8.2804 -3.1444 1.7123
-7.9630 -3.8686 1.7114
-7.5817 -4.5607 1.7104
-7.1397 -5.2151 1.7092
-6.6400 -5.8258 1.7076
-6.6362 -6.9639 1.8596
-5.9889 -7.5285 1.8597
-1.0443 -1.5847 0.3669
-0.8989 -1.6717 0.3669
-0.7463 -1.7454 0.3670
-0.5877 -1.8052 0.3670
-0.4244 -1.8505 0.3670
-0.2576 -1.8810 0.3670
-0.0888 -1.8965 0.3670
0.0807 -1.8969 0.3670
0.2496 -1.8820 0.3670
0.4164 -1.8522 0.3670
0.5799 -1.8075 0.3670
0.7388 -1.7484 0.3669
0.8917 -1.6754 0.3669
1.0374 -1.5889 0.3668
5.5425 -7.0288 1.7304
6.2004 -6.5626 1.7453
6.8020 -6.0196 1.7559
7.3147 -5.3910 1.7566
7.7823 -4.7268 1.7602
8.1868 -4.0206 1.7632
8.5242 -3.2787 1.7655
4.4836 -0.2473 0.8968
4.9091 0.1680 0.9810
8.7633 1.0881 1.7636
8.6215 1.8633 1.7616
8.4083 2.6209 1.7589
8.1260 3.3542 1.7557
7.7775 4.0568 1.7519
7.3663 4.7226 1.7475
6.8965 5.3460 1.7427
6.3728 5.9218 1.7374
5.8063 6.4522 1.7335
1.0973 1.4632 0.3653
0.9623 1.5551 0.3652
0.8196 1.6345 0.3652
0.6705 1.7010 0.3651
0.5161 1.7539 0.3651
0.3576 1.7928 0.3651
0.1962 1.8175 0.3651
0.0333 1.8278 0.3651
-0.1298 1.8235 0.3651
-0.2920 1.8047 0.3651
-0.4518 1.7716 0.3651
-0.6081 1.7244 0.3652
-0.7595 1.6634 0.3652
-0.9050 1.5892 0.3652
-1.0433 1.5024 0.3653
-5.9719 7.1440 1.8596
-6.2196 6.2173 1.7563
-6.5623 5.4815 1.7076
-7.0302 4.8779 1.7089
-7.4421 4.2341 1.7100
-7.7944 3.5554 1.7109
-8.0841 2.8473 1.7117
-8.3088 2.1156 1.7123
-8.4654 1.3663 1.7125
-8.5535 0.6057 1.7125
-8.5735 -0.1596 1.7125
-8.5251 -0.9237 1.7125
-8.4087 -1.6804 1.7125
-8.2233 -2.4231 1.7121
-7.9713 -3.1457 1.7114
-7.6551 -3.8423 1.7106
-7.2776 -4.5071 1.7096
-6.8419 -5.1348 1.7084
-6.3521 -5.7205 1.7072
-6.3358 -6.8234 1.8596
-5.7020 -7.3615 1.8596
-0.9909 -1.5468 0.3669
-0.8490 -1.6292 0.3669
-0.7004 -1.6986 0.3669
-0.5461 -1.7544 0.3670
-0.3875 -1.7962 0.3670
-0.2257 -1.8237 0.3670
-0.0622 -1.8366 0.3670
0.1019 -1.8348 0.3670
0.2651 -1.8183 0.3670
0.4262 -1.7873 0.3670
0.5839 -1.7420 0.3669
0.7369 -1.6829 0.3669
0.8839 -1.6102 0.3669
1.0239 -1.5248 0.3668
5.4423 -6.7208 1.7271
6.0738 -6.2641 1.7425
6.6491 -5.7325 1.7533
7.1443 -5.1240 1.7558
7.5828 -4.4722 1.7581
7.9641 -3.7841 1.7609
8.2802 -3.0624 1.7631
8.5277 -2.3137 1.7647
4.7261 -0.8386 0.9586
4.5129 -0.3905 0.9046
4.7350 0.0142 0.9456
8.7958 0.8144 1.7641
8.6793 1.5940 1.7624
8.4908 2.3586 1.7599
8.2323 3.1012 1.7569
7.9066 3.8152 1.7533
7.5168 4.4945 1.7491
7.0670 5.1333 1.7444
6.5616 5.7263 1.7393
6.0074 6.2706 1.7343
5.3975 6.7481 1.7258
1.0104 1.5243 0.3652
0.8703 1.6082 0.3652
0.7233 1.6793 0.3652
0.5706 1.7370 0.3651
0.4134 1.7808 0.3651
0.2529 1.8106 0.3651
0.0904 1.8259 0.3651
-0.0729 1.8267 0.3651
-0.2355 1.8129 0.3651
-0.3963 1.7848 0.3651
-0.5539 1.7425 0.3652
-0.7072 1.6863 0.3652
-0.8549 1.6166 0.3652
-0.9958 1.5341 0.3653
-5.7461 7.3269 1.8596
-6.2101 6.6078 1.8110
-6.3914 5.6861 1.7085
-6.8729 5.0937 1.7085
-7.3048 4.4633 1.7096
-7.6783 3.7962 1.7106
-7.9902 3.0977 1.7115
-8.2378 2.3736 1.7121
-8.4186 1.6298 1.7125
-8.5305 0.8724 1.7125
-8.5743 0.1080 1.7125
-8.5497 -0.6572 1.7125
-8.4570 -1.4172 1.7125
-8.2958 -2.1656 1.7123
-8.0667 -2.8958 1.7117
-7.7727 -3.6022 1.7109
-7.4163 -4.2787 1.7100
-7.0006 -4.9200 1.7089
-6.5286 -5.5204 1.7075
-6.5067 -6.5831 1.8486
-5.9289 -7.1799 1.8596
-1.0386 -1.5151 0.3669
-0.8994 -1.6019 0.3669
-0.7530 -1.6759 0.3669
-0.6006 -1.7365 0.3670
-0.4434 -1.7832 0.3670
-0.2825 -1.8157 0.3670
-0.1195 -1.8337 0.3670
0.0446 -1.8371 0.3670
0.2082 -1.8257 0.3670
0.3702 -1.7998 0.3670
0.5293 -1.7595 0.3669
0.6840 -1.7051 0.3669
0.8333 -1.6371 0.3669
0.9759 -1.5561 0.3668
5.2263 -6.8826 1.7259
5.8547 -6.4278 1.7364
6.4552 -5.9263 1.7501
6.9827 -5.3458 1.7563
7.4348 -4.7037 1.7570
7.8381 -4.0287 1.7600
8.1774 -3.3180 1.7624
8.4492 -2.5780 1.7642
8.6508 -1.8152 1.7653
4.5588 -0.5382 0.9168
4.6145 -0.1302 0.9219
8.8193 0.5396 1.7646
8.7282 1.3229 1.7631
8.5647 2.0936 1.7608
8.3304 2.8446 1.7580
8.0278 3.5693 1.7546
7.6600 4.2614 1.7506
7.2308 4.9150 1.7461
6.7443 5.5246 1.7411
6.2053 6.0851 1.7357
5.6205 6.5941 1.7304
1.0575 1.4921 0.3652
0.9201 1.5803 0.3652
0.7754 1.6559 0.3652
0.6245 1.7183 0.3651
0.4687 1.7671 0.3651
0.3092 1.8018 0.3651
0.1473 1.8222 0.3651
-0.0158 1.8280 0.3651
-0.1788 1.8194 0.3651
-0.3404 1.7963 0.3651
-0.4993 1.7589 0.3651
-0.6542 1.7075 0.3652
-0.8040 1.6425 0.3652
-0.9474 1.5644 0.3653
-5.5147 7.5026 1.8596
-6.1619 6.9808 1.8596
-6.2332 5.9042 1.7147
-6.7089 5.3043 1.7080
-7.1603 4.6880 1.7092
-7.5546 4.0332 1.7103
-7.8883 3.3450 1.7112
-8.1587 2.6292 1.7119
-8.3634 1.8916 1.7125
-8.4991 1.1381 1.7125
-8.5667 0.3755 1.7125
-8.5661 -0.3901 1.7125
-8.4971 -1.1526 1.7125
-8.3602 -1.9058 1.7125
-8.1543 -2.6431 1.7119
-7.8827 -3.3585 1.7112
-7.5478 -4.0461 1.7103
-7.1524 -4.7003 1.7093
-6.6997 -5.3156 1.7080
-6.3425 -6.0285 1.7476
-6.1500 -6.9913 1.8596
-1.0853 -1.4819 0.3668
-0.9490 -1.5730 0.3669
-0.8050 -1.6515 0.3669
-0.6545 -1.7169 0.3669
-0.4988 -1.7685 0.3670
-0.3391 -1.8060 0.3670
-0.1766 -1.8291 0.3670
-0.0128 -1.8376 0.3670
0.1512 -1.8313 0.3670
0.3139 -1.8105 0.3670
0.4741 -1.7752 0.3669
0.6305 -1.7257 0.3669
0.7818 -1.6624 0.3669
0.9269 -1.5858 0.3668
1.0645 -1.4966 0.3668
5.6308 -6.5835 1.7301
6.2533 -6.1114 1.7462
6.8106 -5.5596 1.7558
7.2794 -4.9300 1.7558
7.7043 -4.2689 1.7591
8.0663 -3.5700 1.7617
8.3620 -2.8395 1.7637
8.5885 -2.0839 1.7650
4.6256 -0.6931 0.9341
4.4828 -0.2666 0.8969
4.8842 0.1461 0.9759
8.7683 1.0503 1.7637
8.6300 1.8262 1.7617
8.4202 2.5848 1.7591
8.1412 3.3194 1.7559
7.7958 4.0237 1.7521
7.3875 4.6914 1.7477
6.9205 5.3169 1.7429
6.3993 5.8951 1.7377
5.8357 6.4289 1.7340
1.1036 1.4585 0.3653
0.9690 1.5509 0.3652
0.8267 1.6310 0.3652
0.6779 1.6981 0.3651
0.5237 1.7516 0.3651
0.3653 1.7913 0.3651
0.2041 1.8167 0.3651
0.0412 1.8276 0.3651
-0.1220 1.8241 0.3651
-0.2842 1.8060 0.3651
-0.4442 1.7735 0.3651
-0.6006 1.7270 0.3652
-0.7523 1.6667 0.3652
-0.8981 1.5931 0.3652
-1.0368 1.5069 0.3653
-5.9410 7.1697 1.8596
-6.2184 6.2699 1.7636
-6.5384 5.5096 1.7076
-7.0089 4.9080 1.7088
-7.4235 4.2661 1.7099
-7.7788 3.5889 1.7109
-8.0716 2.8821 1.7117
-8.2994 2.1514 1.7123
-8.4594 1.4028 1.7125
-8.5508 0.6426 1.7125
-8.5741 -0.1226 1.7125
-8.5290 -0.8869 1.7125
-8.4159 -1.6441 1.7125
-8.2338 -2.3876 1.7121
-7.9849 -3.1113 1.7115
-7.6718 -3.8093 1.7106
-7.2972 -4.4758 1.7096
-6.8643 -5.1054 1.7085
-6.3767 -5.6930 1.7072
-6.3652 -6.7960 1.8596
-5.7337 -7.3368 1.8596
-0.9975 -1.5425 0.3669
-0.8561 -1.6255 0.3669
-0.7077 -1.6956 0.3669
-0.5537 -1.7520 0.3670
-0.3952 -1.7945 0.3670
-0.2336 -1.8227 0.3670
-0.0701 -1.8363 0.3670
0.0940 -1.8352 0.3670
0.2573 -1.8194 0.3670
0.4185 -1.7891 0.3670
0.5764 -1.7445 0.3669
0.7296 -1.6860 0.3669
0.8770 -1.6140 0.3669
1.0173 -1.5292 0.3668
5.4127 -6.7436 1.7270
6.0438 -6.2872 1.7417
6.6227 -5.7598 1.7529
7.1223 -5.1550 1.7559
7.5628 -4.5045 1.7580
7.9472 -3.8181 1.7608
8.2664 -3.0980 1.7630
8.5174 -2.3504 1.7646
4.7561 -0.8651 0.9654
4.5058 -0.4094 0.9036
4.7119 -0.0062 0.9410
8.7995 0.7764 1.7642
8.6866 1.5566 1.7625
8.5015 2.3221 1.7601
8.2464 3.0659 1.7570
7.9238 3.7814 1.7535
7.5371 4.4625 1.7493
7.0901 5.1034 1.7447
6.5873 5.6987 1.7395
6.0345 6.2448 1.7343
5.4293 6.7282 1.7266
1.0169 1.5200 0.3652
0.8772 1.6044 0.3652
0.7305 1.6761 0.3652
0.5781 1.7345 0.3651
0.4210 1.7790 0.3651
0.2607 1.8094 0.3651
0.0982 1.8255 0.3651
-0.0650 1.8270 0.3651
-0.2277 1.8139 0.3651
-0.3886 1.7865 0.3651
-0.5464 1.7448 0.3652
-0.6999 1.6893 0.3652
-0.8479 1.6203 0.3652
-0.9892 1.5384 0.3653
-5.7144 7.3516 1.8596
-6.2087 6.6638 1.8190
-6.3618 5.7096 1.7072
-6.8506 5.1231 1.7084
-7.2852 4.4947 1.7096
-7.6616 3.8292 1.7106
-7.9765 3.1321 1.7114
-8.2273 2.4091 1.7121
-8.4115 1.6661 1.7125
-8.5266 0.9092 1.7125
-8.5737 0.1450 1.7125
-8.5525 -0.6203 1.7125
-8.4631 -1.3807 1.7125
-8.3052 -2.1298 1.7123
-8.0793 -2.8611 1.7117
-7.7884 -3.5687 1.7110
-7.4349 -4.2468 1.7100
-7.0220 -4.8899 1.7089
-6.5527 -5.4924 1.7076
-6.4764 -6.4961 1.8320
-5.9598 -7.1542 1.8596
-1.0451 -1.5106 0.3669
-0.9063 -1.5980 0.3669
-0.7603 -1.6726 0.3669
-0.6081 -1.7339 0.3670
-0.4510 -1.7813 0.3670
-0.2904 -1.8145 0.3670
-0.1274 -1.8332 0.3670
0.0366 -1.8372 0.3670
0.2004 -1.8266 0.3670
0.3625 -1.8014 0.3670
0.5217 -1.7617 0.3669
0.6767 -1.7080 0.3669
0.8262 -1.6407 0.3669
0.9692 -1.5603 0.3668
5.1960 -6.9044 1.7258
5.8240 -6.4498 1.7355
6.4276 -5.9524 1.7496
6.9598 -5.3761 1.7564
7.4137 -4.7353 1.7569
7.8201 -4.0622 1.7599
8.1625 -3.3531 1.7623
8.4376 -2.6143 1.7641
8.6427 -1.8525 1.7653
4.5689 -0.5594 0.9193
4.6065 -0.1498 0.9205
8.8218 0.5016 1.7647
8.7343 1.2853 1.7631
8.5743 2.0567 1.7610
8.3433 2.8088 1.7582
8.0440 3.5350 1.7548
7.6793 4.2288 1.7508
7.2529 4.8844 1.7463
6.7690 5.4962 1.7414
6.2325 6.0593 1.7360
5.6507 6.5719 1.7310
1.0639 1.4876 0.3652
0.9269 1.5763 0.3652
0.7825 1.6526 0.3652
0.6319 1.7156 0.3651
0.4764 1.7651 0.3651
0.3170 1.8004 0.3651
0.1552 1.8215 0.3651
-0.0079 1.8281 0.3651
-0.1710 1.8201 0.3651
-0.3326 1.7977 0.3651
-0.4917 1.7610 0.3651
-0.6469 1.7103 0.3652
-0.7969 1.6459 0.3652
-0.9407 1.5685 0.3653
-5.4822 7.5264 1.8596
-6.1317 7.0074 1.8596
-6.2277 5.9504 1.7202
-6.6857 5.3330 1.7080
-7.1398 4.7188 1.7092
-7.5369 4.0656 1.7103
-7.8736 3.3789 1.7112
-8.1471 2.6643 1.7119
-8.3550 1.9277 1.7124
-8.4941 1.1748 1.7125
-8.5650 0.4125 1.7125
-8.5677 -0.3531 1.7125
-8.5020 -1.1159 1.7125
-8.3684 -1.8698 1.7125
-8.1658 -2.6079 1.7120
-7.8973 -3.3245 1.7112
-7.5654 -4.0135 1.7104
-7.1729 -4.6695 1.7093
-6.7229 -5.2868 1.7081
-6.3282 -5.9631 1.7365
-6.1801 -6.9647 1.8596
-1.0917 -1.4772 0.3668
-0.9557 -1.5688 0.3669
-0.8121 -1.6480 0.3669
-0.6619 -1.7140 0.3669
-0.5064 -1.7663 0.3670
-0.3468 -1.8045 0.3670
-0.1845 -1.8283 0.3670
-0.0207 -1.8375 0.3670
0.1433 -1.8320 0.3670
0.3061 -1.8118 0.3670
0.4665 -1.7772 0.3670
0.6231 -1.7284 0.3669
0.7747 -1.6657 0.3669
0.9200 -1.5898 0.3668
1.0580 -1.5012 0.3668
5.5995 -6.6044 1.7292
6.2249 -6.1364 1.7457
6.7850 -5.5877 1.7554
7.2574 -4.9609 1.7557
7.6852 -4.3018 1.7589
8.0503 -3.6046 1.7616
8.3493 -2.8754 1.7636
8.5792 -2.1209 1.7649
4.6320 -0.7145 0.9360
4.4820 -0.2860 0.8969
4.8596 0.1244 0.9708
8.7732 1.0125 1.7638
8.6383 1.7890 1.7618
8.4320 2.5486 1.7592
8.1562 3.2846 1.7560
7.8139 3.9904 1.7523
7.4086 4.6600 1.7480
6.9444 5.2877 1.7432
6.4256 5.8683 1.7379
5.8635 6.4038 1.7341
5.2296 6.8497 1.7211
0.9757 1.5467 0.3652
0.8337 1.6274 0.3652
0.6852 1.6951 0.3651
0.5312 1.7494 0.3651
0.3731 1.7897 0.3651
0.2119 1.8158 0.3651
0.0491 1.8274 0.3651
-0.1141 1.8246 0.3651
-0.2764 1.8072 0.3651
-0.4365 1.7754 0.3651
-0.5932 1.7296 0.3652
-0.7451 1.6699 0.3652
-0.8912 1.5970 0.3652
-1.0302 1.5113 0.3653
-5.9101 7.1953 1.8596
-6.2171 6.3230 1.7710
-6.5143 5.5375 1.7075
-6.9874 4.9381 1.7088
-7.4048 4.2979 1.7099
-7.7630 3.6224 1.7109
-8.0589 2.9168 1.7116
-8.2900 2.1872 1.7123
-8.4533 1.4393 1.7125
-8.5480 0.6795 1.7125
-8.5745 -0.0856 1.7125
-8.5327 -0.8501 1.7125
-8.4229 -1.6078 1.7125
-8.2441 -2.3521 1.7122
-7.9984 -3.0769 1.7115
-7.6884 -3.7762 1.7107
-7.3167 -4.4444 1.7097
-6.8865 -5.0759 1.7085
-6.4012 -5.6654 1.7072
-6.3944 -6.7685 1.8596
-5.7653 -7.3120 1.8596
-1.0042 -1.5382 0.3669
-0.8631 -1.6218 0.3669
-0.7150 -1.6925 0.3669
-0.5613 -1.7496 0.3670
-0.4030 -1.7928 0.3670
-0.2415 -1.8217 0.3670
-0.0780 -1.8360 0.3670
0.0860 -1.8356 0.3670
0.2494 -1.8205 0.3670
0.4108 -1.7909 0.3670
0.5688 -1.7470 0.3669
0.7223 -1.6892 0.3669
0.8700 -1.6178 0.3669
1.0107 -1.5336 0.3668
5.3831 -6.7663 1.7268
6.0137 -6.3102 1.7409
6.5963 -5.7870 1.7525
7.1003 -5.1858 1.7560
7.5426 -4.5367 1.7578
7.9301 -3.8521 1.7607
8.2526 -3.1335 1.7629
8.5069 -2.3870 1.7645
4.7865 -0.8920 0.9724
4.5080 -0.4293 0.9044
4.6891 -0.0264 0.9365
8.8032 0.7385 1.7643
8.6937 1.5192 1.7626
8.5121 2.2855 1.7602
8.2603 3.0305 1.7572
7.9409 3.7476 1.7536
7.5572 4.4305 1.7495
7.1130 5.0735 1.7449
6.6128 5.6711 1.7398
6.0613 6.2186 1.7343
5.4603 6.7071 1.7273
1.0235 1.5156 0.3652
0.8841 1.6006 0.3652
0.7378 1.6730 0.3652
0.5856 1.7320 0.3651
0.4287 1.7772 0.3651
0.2685 1.8083 0.3651
0.1061 1.8250 0.3651
-0.0571 1.8272 0.3651
-0.2198 1.8149 0.3651
-0.3809 1.7881 0.3651
-0.5389 1.7472 0.3652
-0.6926 1.6923 0.3652
-0.8409 1.6239 0.3652
-0.9825 1.5427 0.3653
-5.6826 7.3762 1.8596
-6.2073 6.7201 1.8270
-6.3371 5.7370 1.7072
-6.8282 5.1524 1.7084
-7.2655 4.5259 1.7095
-7.6448 3.8621 1.7105
-7.9628 3.1664 1.7114
-8.2167 2.4445 1.7121
-8.4043 1.7024 1.7125
-8.5226 0.9459 1.7125
-8.5730 0.1820 1.7125
-8.5551 -0.5834 1.7125
-8.4690 -1.3441 1.7125
-8.3144 -2.0940 1.7124
-8.0917 -2.8262 1.7118
-7.8039 -3.5351 1.7110
-7.4534 -4.2148 1.7101
-7.0433 -4.8597 1.7090
-6.5766 -5.4643 1.7076
-6.4467 -6.4107 1.8157
-5.9906 -7.1285 1.8596
-1.0516 -1.5060 0.3668
-0.9132 -1.5940 0.3669
-0.7675 -1.6693 0.3669
-0.6156 -1.7312 0.3670
-0.4587 -1.7793 0.3670
-0.2982 -1.8132 0.3670
-0.1353 -1.8326 0.3670
0.0287 -1.8374 0.3670
0.1925 -1.8274 0.3670
0.3547 -1.8029 0.3670
0.5141 -1.7640 0.3669
0.6693 -1.7109 0.3669
0.8191 -1.6443 0.3669
0.9624 -1.5644 0.3668
5.1657 -6.9261 1.7256
5.7932 -6.4717 1.7347
6.3999 -5.9782 1.7490
6.9368 -5.4063 1.7564
7.3926 -4.7668 1.7567
7.8019 -4.0956 1.7598
8.1475 -3.3881 1.7622
8.4259 -2.6506 1.7641
8.6345 -1.8897 1.7652
4.5790 -0.5807 0.9218
4.5986 -0.1695 0.9190
8.8242 0.4635 1.7647
8.7402 1.2477 1.7632
8.5836 2.0198 1.7611
8.3561 2.7730 1.7583
8.0600 3.5006 1.7549
7.6983 4.1961 1.7510
7.2748 4.8537 1.7466
6.7937 5.4677 1.7416
6.2595 6.0332 1.7363
5.6807 6.5493 1.7314
1.0703 1.4830 0.3652
0.9337 1.5723 0.3652
0.7896 1.6492 0.3652
0.6393 1.7129 0.3651
0.4840 1.7630 0.3651
0.3248 1.7991 0.3651
0.1630 1.8208 0.3651
-0.0000 1.8281 0.3651
-0.1631 1.8209 0.3651
-0.3249 1.7991 0.3651
-0.4841 1.7631 0.3651
-0.6395 1.7130 0.3652
-0.7898 1.6493 0.3652
-0.9339 1.5725 0.3653
-1.0706 1.4831 0.3653
-6.1014 7.0338 1.8596
-6.2248 5.9993 1.7266
-6.6624 5.3616 1.7079
-7.1191 4.7494 1.7091
-7.5191 4.0980 1.7102
-7.8588 3.4128 1.7111
-8.1354 2.6994 1.7119
-8.3465 1.9637 1.7124
-8.4889 1.2114 1.7125
-8.5632 0.4494 1.7125
-8.5691 -0.3161 1.7125
-8.5068 -1.0792 1.7125
-8.3765 -1.8336 1.7125
-8.1771 -2.5727 1.7120
-7.9117 -3.2904 1.7113
-7.5828 -3.9810 1.7104
-7.1932 -4.6386 1.7094
-6.7459 -5.2580 1.7081
-6.3161 -5.9005 1.7262
-6.2101 -6.9380 1.8596
-1.0981 -1.4724 0.3668
-0.9625 -1.5647 0.3669
-0.8192 -1.6445 0.3669
-0.6693 -1.7111 0.3669
-0.5140 -1.7641 0.3670
-0.3546 -1.8030 0.3670
-0.1924 -1.8275 0.3670
-0.0286 -1.8374 0.3670
0.1354 -1.8326 0.3670
0.2983 -1.8131 0.3670
0.4588 -1.7792 0.3670
0.6156 -1.7311 0.3669
0.7675 -1.6691 0.3669
0.9132 -1.5938 0.3668
1.0516 -1.5058 0.3668
5.5662 -6.6228 1.7278
6.1964 -6.1613 1.7451
6.7593 -5.6156 1.7550
7.2352 -4.9917 1.7555
7.6659 -4.3345 1.7588
8.0342 -3.6390 1.7614
8.3364 -2.9113 1.7635
8.5697 -2.1579 1.7649
4.6385 -0.7360 0.9380
4.5435 -0.3096 0.9095
4.8352 0.1029 0.9659
8.7779 0.9747 1.7638
8.6465 1.7518 1.7619
8.4435 2.5124 1.7594
8.1711 3.2497 1.7562
7.8320 3.9571 1.7525
7.4296 4.6286 1.7482
6.9681 5.2584 1.7434
6.4519 5.8414 1.7382
5.8912 6.3786 1.7341
5.2618 6.8306 1.7220
0.9823 1.5425 0.3652
0.8407 1.6238 0.3652
0.6925 1.6922 0.3651
0.5388 1.7471 0.3651
0.3808 1.7881 0.3651
0.2198 1.8149 0.3651
0.0570 1.8272 0.3651
-0.1062 1.8250 0.3651
-0.2686 1.8084 0.3651
-0.4288 1.7773 0.3651
-0.5857 1.7321 0.3652
-0.7379 1.6731 0.3652
-0.8843 1.6008 0.3652
-1.0237 1.5157 0.3653
-5.8789 7.2207 1.8596
-6.2158 6.3765 1.7784
-6.4901 5.5654 1.7075
-6.9658 4.9680 1.7087
-7.3860 4.3297 1.7098
-7.7471 3.6558 1.7108
-8.0461 2.9515 1.7116
-8.2803 2.2229 1.7122
-8.4470 1.4757 1.7125
-8.5450 0.7164 1.7125
-8.5748 -0.0486 1.7125
-8.5363 -0.8132 1.7125
-8.4297 -1.5714 1.7125
-8.2544 -2.3166 1.7122
-8.0118 -3.0424 1.7115
-7.7048 -3.7431 1.7107
-7.3360 -4.4129 1.7097
-6.9086 -5.0463 1.7086
-6.4347 -5.6457 1.7096
-6.4236 -6.7408 1.8596
-5.7968 -7.2870 1.8596
-1.0108 -1.5338 0.3669
-0.8701 -1.6181 0.3669
-0.7223 -1.6894 0.3669
-0.5688 -1.7472 0.3670
-0.4107 -1.7911 0.3670
-0.2493 -1.8206 0.3670
-0.0860 -1.8356 0.3670
0.0781 -1.8359 0.3670
0.2415 -1.8216 0.3670
0.4030 -1.7927 0.3670
0.5613 -1.7495 0.3669
0.7150 -1.6923 0.3669
0.8630 -1.6216 0.3669
1.0041 -1.5379 0.3668
5.3533 -6.7888 1.7266
5.9835 -6.3330 1.7400
6.5697 -5.8140 1.7521
7.0781 -5.2166 1.7560
7.5223 -4.5688 1.7577
7.9128 -3.8860 1.7606
8.2385 -3.1689 1.7629
4.6041 -0.2539 0.9505
4.9503 0.1695 1.0210
8.4784 1.0527 1.7610
8.3415 1.8027 1.7591
8.1356 2.5359 1.7565
7.8629 3.2456 1.7534
7.5262 3.9258 1.7497
7.1289 4.5704 1.7455
6.6749 5.1741 1.7408
6.1686 5.7320 1.7357
5.6155 6.2402 1.7304
1.0632 1.4178 0.3653
0.9324 1.5068 0.3652
0.7942 1.5838 0.3652
0.6497 1.6482 0.3652
0.5001 1.6994 0.3652
0.3465 1.7372 0.3651
0.1902 1.7611 0.3651
0.0323 1.7711 0.3651
-0.1258 1.7669 0.3651
-0.2829 1.7487 0.3651
-0.4378 1.7166 0.3652
-0.5892 1.6709 0.3652
-0.7359 1.6118 0.3652
-0.8769 1.5399 0.3653
-1.0109 1.4557 0.3653
-5.7861 6.9217 1.8596
-6.2097 6.2074 1.8098
-6.3565 5.3095 1.7072
-6.8091 4.7245 1.7083
-7.2079 4.1009 1.7094
-7.5490 3.4435 1.7103
-7.8295 2.7576 1.7110
-8.0470 2.0490 1.7116
-8.1996 1.3234 1.7120
-8.2861 0.5868 1.7123
-8.3057 -0.1546 1.7123
-8.2582 -0.8948 1.7122
-8.1440 -1.6275 1.7119
-7.9642 -2.3468 1.7114
-7.7202 -3.0466 1.7108
-7.4142 -3.7213 1.7100
-7.0487 -4.3653 1.7090
-6.6269 -4.9733 1.7079
-6.2633 -5.6405 1.7374
-6.1386 -6.6111 1.8596
-1.0897 -1.4068 0.3668
-0.9600 -1.4986 0.3668
-0.8226 -1.5784 0.3669
-0.6786 -1.6456 0.3669
-0.5291 -1.6997 0.3669
-0.3754 -1.7402 0.3670
-0.2187 -1.7668 0.3670
-0.0602 -1.7793 0.3670
0.0987 -1.7775 0.3670
0.2568 -1.7616 0.3669
0.4129 -1.7316 0.3669
0.5657 -1.6877 0.3669
0.7139 -1.6304 0.3669
0.8564 -1.5600 0.3668
0.9920 -1.4772 0.3668
5.2518 -6.4856 1.7202
5.8653 -6.0490 1.7368
6.4281 -5.5420 1.7495
6.9209 -4.9638 1.7556
7.3370 -4.3272 1.7558
7.7056 -3.6612 1.7585
8.0110 -2.9629 1.7606
8.2503 -2.2384 1.7621
4.7494 -0.8428 0.9943
4.5632 -0.3948 0.9441
4.7536 0.0143 0.9799
8.5097 0.7879 1.7616
8.3972 1.5422 1.7598
8.2153 2.2820 1.7575
7.9656 3.0007 1.7546
7.6509 3.6918 1.7511
7.2744 4.3495 1.7470
6.8397 4.9681 1.7425
6.3511 5.5426 1.7376
5.8193 6.0743 1.7339
1.1070 1.3840 0.3653
0.9790 1.4770 0.3653
0.8433 1.5583 0.3652
0.7008 1.6271 0.3652
0.5529 1.6830 0.3652
0.4005 1.7256 0.3651
0.2450 1.7544 0.3651
0.0876 1.7692 0.3651
-0.0706 1.7700 0.3651
-0.2282 1.7567 0.3651
-0.3840 1.7294 0.3652
-0.5368 1.6884 0.3652
-0.6853 1.6339 0.3652
-0.8284 1.5664 0.3653
-0.9649 1.4865 0.3653
-5.5673 7.0989 1.8596
-6.1783 6.5741 1.8596
-6.2288 5.5419 1.7185
-6.6568 4.9335 1.7079
-7.0750 4.3229 1.7090
-7.4365 3.6767 1.7100
-7.7385 3.0002 1.7108
-7.9782 2.2988 1.7114
-8.1537 1.5785 1.7119
-8.2635 0.8451 1.7122
-8.3065 0.1046 1.7123
-8.2824 -0.6367 1.7123
-8.1914 -1.3727 1.7120
-8.0344 -2.0973 1.7116
-7.8126 -2.8046 1.7110
-7.5280 -3.4887 1.7103
-7.1830 -4.1441 1.7093
-6.7804 -4.7653 1.7083
-6.3244 -5.3477 1.7072
-6.3419 -6.4163 1.8596
-5.7444 -6.9564 1.8596
-1.0062 -1.4678 0.3668
-0.8714 -1.5519 0.3669
-0.7296 -1.6236 0.3669
-0.5819 -1.6823 0.3669
-0.4295 -1.7276 0.3669
-0.2737 -1.7591 0.3670
-0.1157 -1.7765 0.3670
0.0432 -1.7798 0.3670
0.2018 -1.7688 0.3670
0.3587 -1.7436 0.3669
0.5128 -1.7046 0.3669
0.6627 -1.6519 0.3669
0.8073 -1.5861 0.3668
0.9455 -1.5075 0.3668
1.0760 -1.4170 0.3667
5.6543 -6.2079 1.7308
6.2392 -5.7280 1.7458
6.7597 -5.1751 1.7548
7.1939 -4.5513 1.7547
7.5838 -3.8979 1.7576
7.9116 -3.2102 1.7599
8.1743 -2.4941 1.7616
8.3693 -1.7561 1.7627
4.5935 -0.5423 0.9534
4.6401 -0.1309 0.9568
8.5323 0.5221 1.7620
8.4445 1.2799 1.7605
8.2866 2.0256 1.7584
8.0604 2.7524 1.7557
7.7681 3.4538 1.7523
7.4128 4.1239 1.7485
6.9979 4.7567 1.7441
6.5277 5.3472 1.7393
6.0097 5.8934 1.7350
5.4340 6.3754 1.7267
1.0246 1.4458 0.3653
0.8915 1.5313 0.3652
0.7513 1.6045 0.3652
0.6051 1.6650 0.3652
0.4542 1.7122 0.3651
0.2996 1.7459 0.3651
0.1427 1.7656 0.3651
-0.0153 1.7713 0.3651
-0.1733 1.7629 0.3651
-0.3298 1.7405 0.3652
-0.4838 1.7043 0.3652
-0.6339 1.6545 0.3652
-0.7790 1.5915 0.3652
-0.9180 1.5158 0.3653
-1.0497 1.4281 0.3653
-5.9701 6.7636 1.8596
-6.2175 5.8895 1.7653
-6.4980 5.1376 1.7075
-6.9351 4.5406 1.7086
-7.3168 3.9062 1.7097
-7.6399 3.2397 1.7105
-7.9017 2.5464 1.7112
-8.0998 1.8320 1.7118
-8.2327 1.1025 1.7121
-8.2991 0.3638 1.7123
-8.2984 -0.3779 1.7123
-8.2308 -1.1165 1.7121
-8.0967 -1.8458 1.7118
-7.8974 -2.5598 1.7112
-7.6345 -3.2527 1.7105
-7.3102 -3.9187 1.7097
-6.9274 -4.5524 1.7087
-6.4893 -5.1486 1.7075
-6.3289 -6.0155 1.7998
-5.9586 -6.7738 1.8596
-1.0515 -1.4357 0.3668
-0.9194 -1.5239 0.3669
-0.7798 -1.6000 0.3669
-0.6341 -1.6633 0.3669
-0.4832 -1.7133 0.3669
-0.3285 -1.7497 0.3670
-0.1711 -1.7720 0.3670
-0.0124 -1.7802 0.3670
0.1465 -1.7742 0.3670
0.3041 -1.7540 0.3669
0.4593 -1.7198 0.3669
0.6108 -1.6718 0.3669
0.7575 -1.6105 0.3669
0.8980 -1.5364 0.3668
1.0313 -1.4500 0.3668
5.4360 -6.3557 1.7239
6.0431 -5.9060 1.7417
6.5847 -5.3751 1.7521
7.0504 -4.7749 1.7552
7.4544 -4.1304 1.7567
7.8043 -3.4541 1.7592
8.0901 -2.7472 1.7611
8.3090 -2.0161 1.7624
4.6392 -0.6951 0.9669
4.5984 -0.2735 0.9495
4.9041 0.1467 1.0113
8.4832 1.0162 1.7611
8.3497 1.7668 1.7592
8.1471 2.5010 1.7567
7.8776 3.2120 1.7536
7.5439 3.8937 1.7499
7.1494 4.5401 1.7457
6.6980 5.1460 1.7411
6.1942 5.7062 1.7360
5.6442 6.2179 1.7310
1.0693 1.4132 0.3653
0.9389 1.5027 0.3652
0.8010 1.5803 0.3652
0.6568 1.6454 0.3652
0.5074 1.6973 0.3652
0.3540 1.7357 0.3651
0.1977 1.7603 0.3651
0.0400 1.7709 0.3651
-0.1182 1.7675 0.3651
-0.2754 1.7499 0.3651
-0.4304 1.7185 0.3652
-0.5820 1.6734 0.3652
-0.7290 1.6149 0.3652
-0.8702 1.5437 0.3653
-1.0046 1.4601 0.3653
-5.7562 6.9466 1.8596
-6.2084 6.2599 1.8173
-6.3335 5.3369 1.7072
-6.7885 4.7537 1.7083
-7.1899 4.1318 1.7093
-7.5339 3.4759 1.7102
-7.8173 2.7913 1.7110
-8.0379 2.0836 1.7116
-8.1937 1.3587 1.7120
-8.2835 0.6226 1.7123
-8.3063 -0.1188 1.7123
-8.2620 -0.8591 1.7122
-8.1511 -1.5924 1.7119
-7.9744 -2.3124 1.7114
-7.7334 -3.0133 1.7108
-7.4303 -3.6894 1.7100
-7.0677 -4.3350 1.7090
-6.6485 -4.9449 1.7079
-6.2553 -5.5846 1.7285
-6.1671 -6.5846 1.8596
-1.0957 -1.4021 0.3668
-0.9664 -1.4944 0.3668
-0.8294 -1.5748 0.3669
-0.6857 -1.6427 0.3669
-0.5364 -1.6974 0.3669
-0.3829 -1.7386 0.3670
-0.2263 -1.7658 0.3670
-0.0679 -1.7790 0.3670
0.0910 -1.7779 0.3670
0.2492 -1.7627 0.3669
0.4054 -1.7333 0.3669
0.5584 -1.6901 0.3669
0.7069 -1.6334 0.3669
0.8496 -1.5637 0.3668
0.9856 -1.4815 0.3668
5.2235 -6.5079 1.7201
5.8364 -6.0714 1.7359
6.4023 -5.5681 1.7490
6.8997 -4.9938 1.7556
7.3176 -4.3585 1.7556
7.6892 -3.6942 1.7584
7.9977 -2.9973 1.7605
8.2403 -2.2739 1.7620
4.7798 -0.8695 1.0014
4.5577 -0.4142 0.9433
4.7304 -0.0062 0.9751
8.5133 0.7512 1.7616
8.4043 1.5061 1.7599
8.2256 2.2467 1.7576
7.9792 2.9665 1.7547
7.6676 3.6591 1.7512
7.2939 4.3186 1.7472
6.8620 4.9392 1.7427
6.3759 5.5159 1.7378
5.8470 6.0507 1.7344
5.2446 6.4993 1.7215
0.9854 1.4728 0.3653
0.8500 1.5546 0.3652
0.7079 1.6241 0.3652
0.5601 1.6806 0.3652
0.4080 1.7238 0.3651
0.2526 1.7533 0.3651
0.0952 1.7688 0.3651
-0.0630 1.7703 0.3651
-0.2206 1.7576 0.3651
-0.3765 1.7310 0.3652
-0.5295 1.6907 0.3652
-0.6782 1.6369 0.3652
-0.8216 1.5700 0.3653
-0.9585 1.4906 0.3653
-5.5366 7.1229 1.8596
-6.1499 6.6006 1.8596
-6.2247 5.5866 1.7240
-6.6352 4.9620 1.7078
-7.0560 4.3533 1.7090
-7.4204 3.7087 1.7099
-7.7253 3.0335 1.7108
-7.9681 2.3332 1.7114
-8.1468 1.6136 1.7119
-8.2597 0.8807 1.7122
-8.3059 0.1405 1.7123
-8.2851 -0.6009 1.7123
-8.1974 -1.3373 1.7120
-8.0435 -2.0627 1.7116
-7.8248 -2.7709 1.7110
-7.5432 -3.4563 1.7103
-7.2010 -4.1132 1.7094
-6.8012 -4.7361 1.7083
-6.3474 -5.3204 1.7072
-6.3696 -6.3889 1.8596
-5.7743 -6.9316 1.8596
-1.0126 -1.4635 0.3668
-0.8781 -1.5481 0.3669
-0.7366 -1.6204 0.3669
-0.5891 -1.6798 0.3669
-0.4370 -1.7257 0.3669
-0.2813 -1.7579 0.3670
-0.1234 -1.7760 0.3670
0.0355 -1.7799 0.3670
0.1941 -1.7696 0.3670
0.3512 -1.7452 0.3669
0.5054 -1.7068 0.3669
0.6556 -1.6548 0.3669
0.8005 -1.5895 0.3668
0.9389 -1.5116 0.3668
1.0699 -1.4217 0.3668
5.6248 -6.2292 1.7300
6.2126 -5.7532 1.7453
6.7359 -5.2031 1.7544
7.1746 -4.5825 1.7548
7.5663 -3.9303 1.7575
7.8973 -3.2441 1.7598
8.1632 -2.5293 1.7616
8.3615 -1.7922 1.7627
4.5997 -0.5632 0.9552
4.6342 -0.1507 0.9557
8.5348 0.4853 1.7621
8.4504 1.2436 1.7606
8.2959 1.9900 1.7585
8.0729 2.7178 1.7558
7.7837 3.4206 1.7525
7.4313 4.0923 1.7487
7.0193 4.7271 1.7444
6.5516 5.3197 1.7396
6.0352 5.8675 1.7350
5.4638 6.3545 1.7274
1.0309 1.4414 0.3653
0.8981 1.5274 0.3652
0.7582 1.6013 0.3652
0.6123 1.6624 0.3652
0.4616 1.7103 0.3651
0.3072 1.7446 0.3651
0.1503 1.7650 0.3651
-0.0077 1.7714 0.3651
-0.1657 1.7636 0.3651
-0.3223 1.7419 0.3651
-0.4764 1.7063 0.3652
-0.6268 1.6572 0.3652
-0.7722 1.5948 0.3652
-0.9114 1.5198 0.3653
-1.0435 1.4326 0.3653
-5.9409 6.7893 1.8596
-6.2163 5.9395 1.7722
-6.4756 5.1654 1.7074
-6.9152 4.5703 1.7086
-7.2997 3.9377 1.7096
-7.6257 3.2726 1.7105
-7.8905 2.5804 1.7112
-8.0917 1.8669 1.7117
-8.2278 1.1380 1.7121
-8.2974 0.3996 1.7123
-8.3000 -0.3421 1.7123
-8.2356 -1.0809 1.7121
-8.1047 -1.8108 1.7118
-7.9085 -2.5257 1.7113
-7.6486 -3.2198 1.7106
-7.3273 -3.8872 1.7097
-6.9472 -4.5226 1.7087
-6.5117 -5.1207 1.7075
-6.3156 -5.9513 1.7887
-5.9878 -6.7480 1.8596
-1.0577 -1.4311 0.3668
-0.9259 -1.5199 0.3669
-0.7867 -1.5966 0.3669
-0.6412 -1.6606 0.3669
-0.4906 -1.7112 0.3669
-0.3360 -1.7482 0.3670
-0.1788 -1.7713 0.3670
-0.0201 -1.7802 0.3670
0.1388 -1.7748 0.3670
0.2965 -1.7553 0.3669
0.4519 -1.7218 0.3669
0.6036 -1.6745 0.3669
0.7505 -1.6138 0.3669
0.8914 -1.5402 0.3668
1.0251 -1.4544 0.3668
5.4045 -6.3744 1.7226
6.0149 -5.9293 1.7410
6.5600 -5.4023 1.7517
7.0299 -4.8054 1.7553
7.4359 -4.1622 1.7565
7.7889 -3.4875 1.7591
8.0778 -2.7819 1.7610
8.3000 -2.0519 1.7624
4.6456 -0.7166 0.9689
4.5927 -0.2931 0.9486
4.8793 0.1249 1.0061
8.4879 0.9796 1.7612
8.3577 1.7309 1.7593
8.1584 2.4660 1.7568
7.8921 3.1782 1.7537
7.5614 3.8615 1.7501
7.1698 4.5098 1.7459
6.7211 5.1177 1.7413
6.2197 5.6802 1.7362
5.6727 6.1954 1.7315
1.0754 1.4086 0.3653
0.9454 1.4987 0.3652
0.8078 1.5769 0.3652
0.6639 1.6425 0.3652
0.5147 1.6951 0.3652
0.3615 1.7341 0.3651
0.2053 1.7594 0.3651
0.0476 1.7707 0.3651
-0.1105 1.7679 0.3651
-0.2678 1.7511 0.3651
-0.4229 1.7203 0.3652
-0.5747 1.6759 0.3652
-0.7220 1.6181 0.3652
-0.8635 1.5474 0.3653
-0.9982 1.4644 0.3653
-5.7262 6.9714 1.8596
-6.2071 6.3128 1.8249
-6.3104 5.3642 1.7072
-6.7677 4.7828 1.7082
-7.1718 4.1627 1.7093
-7.5186 3.5083 1.7102
-7.8051 2.8250 1.7110
-8.0287 2.1183 1.7116
-8.1877 1.3941 1.7120
-8.2807 0.6583 1.7122
-8.3067 -0.0829 1.7123
-8.2657 -0.8235 1.7122
-8.1579 -1.5572 1.7119
-7.9844 -2.2780 1.7115
-7.7465 -2.9800 1.7108
-7.4464 -3.6574 1.7100
-7.0865 -4.3046 1.7091
-6.6700 -4.9163 1.7080
-6.2515 -5.5329 1.7208
-6.1955 -6.5579 1.8596
-5.5859 -7.0845 1.8596
-0.9729 -1.4902 0.3668
-0.8362 -1.5712 0.3669
-0.6927 -1.6397 0.3669
-0.5438 -1.6951 0.3669
-0.3904 -1.7369 0.3670
-0.2339 -1.7648 0.3670
-0.0756 -1.7787 0.3670
0.0834 -1.7783 0.3670
0.2416 -1.7637 0.3669
0.3980 -1.7351 0.3669
0.5511 -1.6925 0.3669
0.6998 -1.6365 0.3669
0.8429 -1.5674 0.3668
0.9792 -1.4858 0.3668
5.1950 -6.5299 1.7200
5.8074 -6.0937 1.7351
6.3764 -5.5941 1.7485
6.8783 -5.0237 1.7557
7.2981 -4.3897 1.7555
7.6727 -3.7271 1.7583
7.9843 -3.0316 1.7604
8.2301 -2.3094 1.7620
4.8106 -0.8965 1.0087
4.5614 -0.4343 0.9445
