ply
format ascii 1.0
element vertex 1920
property float32 x
property float32 y
property float32 z
end_header
26.3139 0.2744 -21.9893
25.1121 2.5151 -21.0888
22.7994 4.3662 -19.3975
22.3526 6.3940 -19.4272
22.3471 8.6163 -20.0133
22.4031 11.0270 -20.8650
-12.8496 13.4154 -15.5226
-12.8441 11.2094 -14.2451
-12.8454 9.3294 -13.2659
-12.8412 7.6757 -12.5010
-12.8375 6.1911 -11.9094
-13.6014 5.1191 -12.1438
-16.2467 4.5065 -14.0884
-5.6642 0.5214 -4.7531
23.6645 -14.5603 -23.2174
22.4594 -11.1887 -20.9671
22.3906 -8.7565 -20.0896
26.3338 -7.6694 -22.9189
26.3276 -5.1728 -22.4201
26.3215 -2.7636 -22.1153
26.3156 -0.4005 -21.9921
25.1141 1.8662 -21.0433
23.7916 3.9267 -20.1493
22.3542 5.7786 -19.2933
22.3487 7.9648 -19.8253
22.4052 10.3230 -20.6135
-12.8514 14.1252 -15.9573
-12.8456 11.8045 -14.5778
-12.8467 9.8432 -13.5236
-12.8424 8.1305 -12.7010
-12.8385 6.6026 -12.0635
-13.6025 5.5218 -12.2671
-13.9775 4.2660 -12.2115
-19.4869 4.0889 -16.6379
-5.7154 0.6743 -4.8090
22.4616 -11.9182 -21.2475
22.4541 -9.4522 -20.3575
24.2882 -7.7547 -21.3047
25.0693 -5.5969 -21.4637
26.3232 -3.4484 -22.1838
26.3173 -1.0761 -22.0093
25.1160 1.2198 -21.0118
25.0430 3.4761 -21.1267
22.3557 5.1712 -19.1738
22.3503 7.3251 -19.6535
22.4073 9.6353 -20.3813
22.3998 12.1064 -21.2763
-12.8533 14.8764 -16.4280
-12.8471 12.4285 -14.9365
-12.8420 10.3730 -13.7943
-12.8435 8.6004 -12.9161
-12.8396 7.0252 -12.2298
-13.0656 5.6983 -11.9109
-13.7142 4.5732 -12.0800
-17.2937 4.0944 -14.8502
22.4003 -12.6323 -21.4890
22.4562 -10.1386 -20.5884
22.7617 -7.9160 -20.1372
26.3311 -6.5917 -22.6814
26.3250 -4.1377 -22.2674
26.3190 -1.7531 -22.0411
26.3131 0.6022 -21.9932
25.1112 2.8313 -21.1160
22.5250 4.6052 -19.2113
22.3519 6.6960 -19.4975
22.3463 8.9372 -20.1107
22.4020 11.3752 -20.9943
-12.8488 13.0844 -15.3236
-12.8434 10.9301 -14.0923
-12.8448 9.0867 -13.1474
-12.8407 7.4599 -12.4091
-12.8665 6.0087 -11.8659
-13.6010 4.9265 -12.0876
-16.3015 4.3038 -14.0884
-5.7217 0.4549 -4.7962
23.6635 -14.1565 -23.0416
22.4583 -10.8411 -20.8384
22.4354 -8.4534 -20.0337
26.3329 -7.3146 -22.8371
26.3267 -4.8329 -22.3664
26.3826 -2.4383 -22.1394
26.3148 -0.0728 -21.9889
25.1131 2.1809 -21.0637
23.8362 4.2397 -20.2303
22.3534 6.0764 -19.3565
22.3479 8.2796 -19.9145
22.4042 10.6627 -20.7331
-12.8505 13.7757 -15.7419
-12.8448 11.5120 -14.4131
-12.8460 9.5912 -13.3961
-12.8418 7.9078 -12.6020
-12.8380 6.4015 -11.9872
-13.6020 5.3252 -12.2059
-14.2835 4.1657 -12.4326
-20.7546 4.0857 -17.6756
-5.6583 0.5962 -4.7543
22.4605 -11.5615 -21.1087
22.3914 -9.0992 -20.1963
26.3348 -8.0480 -23.0102
26.3285 -5.5347 -22.4811
26.3224 -3.1154 -22.1487
26.3165 -0.7478 -21.9991
25.1151 1.5335 -21.0254
24.0055 3.6373 -20.2881
22.3550 5.4652 -19.2301
22.3495 7.6344 -19.7349
22.4063 9.9672 -20.4917
22.3704 12.4529 -21.3940
-12.8523 14.5061 -16.1946
-12.8464 12.1217 -14.7589
-12.8413 10.1108 -13.6572
-12.8430 8.3702 -12.8097
-12.8391 6.8186 -12.1475
-13.2224 5.5718 -11.9896
-13.8043 4.4130 -12.1100
-18.5751 4.1541 -15.9049
22.3994 -12.2666 -21.3399
22.4552 -9.8033 -20.4739
23.2477 -7.7619 -20.4801
25.0701 -5.9453 -21.5298
26.3241 -3.8023 -22.2249
26.3182 -1.4240 -22.0238
26.3123 0.9302 -22.0004
25.1102 3.1483 -21.1465
22.4331 4.8782 -19.1833
22.3511 7.0002 -19.5713
22.3455 9.2614 -20.2122
22.4010 11.7279 -21.1286
-12.8487 13.0650 -15.1213
-12.8433 10.9137 -13.9080
-12.8447 9.0725 -12.9768
-12.8407 7.4472 -12.2492
-12.8713 5.9994 -11.7185
-13.6009 4.9151 -11.9339
-16.5103 4.3459 -14.0884
-5.7298 0.4513 -4.7429
22.4022 -13.3795 -21.5323
22.4582 -10.8207 -20.5715
22.4423 -8.4371 -19.7849
25.0726 -6.9446 -21.4689
26.3267 -4.8128 -22.0848
26.3868 -2.4190 -21.8657
26.3147 -0.0533 -21.7149
25.1131 2.1997 -20.8026
23.7335 4.2394 -19.8949
22.3534 6.0940 -19.1192
22.3479 8.2984 -19.6718
22.4041 10.6830 -20.4821
-12.8505 13.7552 -15.5335
-12.8448 11.4950 -14.2242
-12.8460 9.5764 -13.2219
-12.8418 7.8948 -12.4394
-12.8380 6.3897 -11.8335
-13.6019 5.3136 -12.0504
-14.3026 4.1598 -12.2916
-20.8346 4.0855 -17.5201
-5.6562 0.5918 -4.6930
23.6655 -14.9704 -23.1081
22.4604 -11.5405 -20.8378
22.3914 -9.0799 -19.9387
26.3347 -8.0268 -22.7184
26.3284 -5.5143 -22.1976
26.3224 -3.0956 -21.8709
26.3164 -0.7284 -21.7246
25.1150 1.5521 -20.7644
23.9925 3.6535 -20.0268
22.4719 5.5114 -19.0934
22.3495 7.6528 -19.4940
22.3437 9.9592 -20.1867
22.4693 12.5297 -21.2296
-12.8523 14.4845 -15.9796
-12.8463 12.1037 -14.5649
-12.8413 10.0954 -13.4792
-12.8429 8.3567 -12.6440
-12.8391 6.8064 -11.9915
-13.2318 5.5642 -11.8450
-13.8102 4.4036 -11.9615
-18.6387 4.1540 -15.7580
22.4627 -12.2798 -21.1252
22.3931 -9.7565 -20.1565
23.1267 -7.7024 -20.1148
25.1302 -5.9398 -21.3088
26.3241 -3.7825 -21.9457
26.3181 -1.4046 -21.7486
25.2968 0.9130 -20.8885
25.1101 3.1672 -20.8850
22.6059 4.9333 -19.0934
22.3511 7.0183 -19.3320
22.3454 9.2806 -19.9665
22.4009 11.7489 -20.8734
-13.6231 16.1702 -17.4480
-12.8479 12.7427 -14.9324
-12.8427 10.6405 -13.7626
-12.8441 8.8344 -12.8641
-12.8401 7.2347 -12.1618
-12.9526 5.8421 -11.7253
-13.6286 4.7341 -11.9055
-16.5632 4.1399 -14.0884
22.4012 -13.0031 -21.3740
22.4572 -10.4776 -20.4494
22.5600 -8.1622 -19.7975
25.0718 -6.6093 -21.3960
26.3258 -4.4746 -22.0356
26.3559 -2.0856 -21.8169
26.3139 0.2744 -21.7154
25.1121 2.5151 -20.8262
22.7994 4.3662 -19.1559
22.3526 6.3940 -19.1852
22.3471 8.6163 -19.7640
22.4031 11.0270 -20.6051
-12.8496 13.4154 -15.3293
-12.8441 11.2094 -14.0677
-12.8454 9.3294 -13.1007
-12.8412 7.6757 -12.3453
-12.8375 6.1911 -11.7611
-13.6014 5.1191 -11.9925
-14.7837 4.1007 -12.6601
-5.6640 0.5214 -4.6937
23.6645 -14.5603 -22.9282
22.4594 -11.1887 -20.7059
22.3906 -8.7565 -19.8394
25.0735 -7.3024 -21.5503
26.3276 -5.1728 -22.1408
26.3215 -2.7636 -21.8399
26.3156 -0.4005 -21.7181
25.1141 1.8663 -20.7812
23.7916 3.9267 -19.8984
22.4016 5.7908 -19.0934
22.3487 7.9648 -19.5783
22.4052 10.3230 -20.3568
-12.8514 14.1252 -15.7585
-12.8456 11.8045 -14.3962
-12.8467 9.8432 -13.3551
-12.8424 8.1305 -12.5428
-12.8385 6.6026 -11.9133
-13.6025 5.5218 -12.1143
-13.9775 4.2660 -12.0594
-19.4869 4.0889 -16.4307
-5.7146 0.6742 -4.7484
23.6666 -15.4119 -23.3056
22.4616 -11.9182 -20.9829
22.3923 -9.4261 -20.0485
24.3137 -7.7628 -21.0614
25.0693 -5.5969 -21.1964
26.3232 -3.4484 -21.9075
26.3173 -1.0761 -21.7352
25.1160 1.2198 -20.7501
25.0430 3.4761 -20.8636
22.5427 5.2144 -19.0934
22.3503 7.3251 -19.4087
22.3446 9.6083 -20.0712
22.3998 12.1064 -21.0113
-12.8533 14.8764 -16.2234
-12.8471 12.4285 -14.7504
-12.8420 10.3730 -13.6224
-12.8435 8.6004 -12.7552
-12.8396 7.0252 -12.0775
-13.0656 5.6983 -11.7625
-13.7142 4.5732 -11.9295
-17.2937 4.0944 -14.6653
22.4638 -12.6681 -21.2816
22.4562 -10.1386 -20.3319
22.7617 -7.9160 -19.8864
25.0710 -6.2762 -21.3269
26.3250 -4.1377 -21.9900
26.3190 -1.7531 -21.7665
26.3131 0.6022 -21.7192
25.1112 2.8313 -20.8530
22.6690 4.6346 -19.0934
22.3519 6.6960 -19.2546
22.3463 8.9372 -19.8602
22.4020 11.3752 -20.7328
-12.8488 13.0844 -15.1327
-12.8434 10.9301 -13.9168
-12.8448 9.0867 -12.9836
-12.8407 7.4599 -12.2545
-12.8665 6.0087 -11.7181
-13.6010 4.9265 -11.9371
-16.5071 4.3581 -14.0884
-5.7212 0.4548 -4.7360
22.4022 -13.4020 -21.5418
22.4583 -10.8411 -20.5788
22.4354 -8.4534 -19.7842
25.0727 -6.9646 -21.4733
26.3267 -4.8329 -22.0878
26.3826 -2.4383 -21.8637
26.3148 -0.0728 -21.7150
25.1131 2.1810 -20.8013
23.8362 4.2397 -19.9783
22.3534 6.0764 -19.1154
22.3479 8.2796 -19.6665
22.4042 10.6627 -20.4749
-12.8505 13.7757 -15.5459
-12.8448 11.5121 -14.2336
-12.8460 9.5912 -13.2292
-12.8418 7.9078 -12.4451
-12.8380 6.4015 -11.8379
-13.6020 5.3252 -12.0539
-14.2835 4.1657 -12.2778
-20.7547 4.0857 -17.4554
-5.6580 0.5962 -4.6949
23.6656 -14.9948 -23.1189
22.4605 -11.5615 -20.8457
22.3914 -9.0991 -19.9448
26.3348 -8.0480 -22.7236
26.3285 -5.5347 -22.2011
26.3224 -3.1154 -21.8728
26.3165 -0.7478 -21.7251
25.1151 1.5335 -20.7635
24.0055 3.6373 -20.0354
22.4760 5.4948 -19.0934
22.3495 7.6344 -19.4891
22.3438 9.9394 -20.1801
22.4572 12.5012 -21.2095
-12.8523 14.5061 -15.9929
-12.8464 12.1217 -14.5751
-12.8413 10.1108 -13.4871
-12.8430 8.3702 -12.6501
-12.8391 6.8186 -11.9962
-13.2224 5.5718 -11.8403
-13.8043 4.4130 -11.9592
-18.5751 4.1541 -15.7068
22.4627 -12.3013 -21.1337
22.3931 -9.7762 -20.1630
23.0707 -7.7028 -20.0710
25.1258 -5.9584 -21.3088
26.3241 -3.8023 -21.9481
26.3182 -1.4240 -21.7495
25.8654 0.9144 -21.3575
25.1102 3.1483 -20.8831
22.6095 4.9166 -19.0934
22.3511 7.0002 -19.3276
22.3455 9.2614 -19.9605
22.4010 11.7279 -20.8654
-12.8487 13.0650 -14.9325
-12.8433 10.9137 -13.7343
-12.8447 9.0725 -12.8148
-12.8407 7.4472 -12.0963
-12.8713 5.9994 -11.5722
-13.6009 4.9151 -11.7849
-16.5938 4.3679 -13.9829
-5.7293 0.4512 -4.6832
22.4459 -13.4053 -21.3050
22.4582 -10.8207 -20.3146
22.4423 -8.4371 -19.5378
25.1359 -6.9622 -21.2544
26.3267 -4.8128 -21.8090
26.3868 -2.4190 -21.5927
26.4064 -0.0535 -21.5185
25.1131 2.1997 -20.5429
23.7335 4.2394 -19.6464
22.6054 6.1628 -19.0934
22.3479 8.2984 -19.4262
22.3420 10.6533 -20.1702
-12.8505 13.7552 -15.3395
-12.8448 11.4950 -14.0466
-12.8460 9.5764 -13.0569
-12.8418 7.8948 -12.2841
-12.8380 6.3897 -11.6858
-13.6019 5.3136 -11.8999
-14.3026 4.1598 -12.1381
-20.8346 4.0855 -17.3013
-5.6559 0.5917 -4.6342
23.6655 -14.9704 -22.8195
22.4604 -11.5405 -20.5776
22.3914 -9.0799 -19.6898
25.0744 -7.6426 -21.3611
26.3284 -5.5143 -21.9205
26.3224 -3.0956 -21.5978
26.4081 -0.7310 -21.5281
25.1150 1.5521 -20.5052
23.9925 3.6535 -19.7767
22.7560 5.5810 -19.0934
22.3495 7.6528 -19.2506
22.3437 9.9592 -19.9346
22.4693 12.5297 -20.9646
-12.8523 14.4845 -15.7801
-12.8463 12.1037 -14.3831
-12.8413 10.0954 -13.3110
-12.8429 8.3567 -12.4862
-12.8391 6.8064 -11.8418
-13.2318 5.5642 -11.6971
-13.8102 4.4036 -11.8121
-18.6387 4.1540 -15.5613
23.6677 -15.8358 -23.2057
22.4627 -12.2798 -20.8614
22.3931 -9.7565 -19.9048
23.1267 -7.7024 -19.8636
25.1339 -5.9408 -21.0459
26.3241 -3.7825 -21.6717
26.4098 -1.4095 -21.5519
25.2968 0.9130 -20.6277
25.1101 3.1671 -20.6243
22.8917 4.9957 -19.0934
22.3543 7.0194 -19.0934
22.3454 9.2806 -19.7172
22.4009 11.7489 -20.6128
-13.6231 16.1702 -17.2301
-12.8479 12.7428 -14.7460
-12.8427 10.6405 -13.5908
-12.8441 8.8344 -12.7035
-12.8401 7.2347 -12.0100
-12.9526 5.8421 -11.5789
-13.6286 4.7341 -11.7568
-16.5933 4.1475 -13.9378
22.4649 -13.0401 -21.1672
22.3948 -10.4485 -20.1380
22.5600 -8.1622 -19.5503
25.1353 -6.6261 -21.1824
26.3258 -4.4746 -21.7605
26.3845 -2.0878 -21.5678
26.4056 0.2754 -21.5190
25.1121 2.5151 -20.5661
23.0123 4.4070 -19.0934
22.5269 6.4438 -19.0934
22.3471 8.6163 -19.5173
22.4031 11.0270 -20.3478
-12.8496 13.4154 -15.1379
-12.8441 11.2094 -13.8921
-12.8454 9.3294 -12.9371
-12.8412 7.6757 -12.1912
-12.8375 6.1911 -11.6143
-13.6014 5.1191 -11.8428
-14.7837 4.1007 -12.5021
-5.6638 0.5213 -4.6349
23.6645 -14.5603 -22.6420
22.4594 -11.1887 -20.4474
22.3906 -8.7565 -19.5917
25.1060 -7.3117 -21.3088
26.3276 -5.1728 -21.8644
26.3270 -2.7642 -21.5717
26.4072 -0.4019 -21.5217
25.1141 1.8663 -20.5218
23.7916 3.9267 -19.6500
22.6848 5.8640 -19.0934
22.3487 7.9649 -19.3339
22.3429 10.2943 -20.0467
22.8601 13.1235 -21.4801
-12.8514 14.1252 -15.5618
-12.8456 11.8045 -14.2165
-12.8467 9.8432 -13.1884
-12.8424 8.1305 -12.3862
-12.8385 6.6026 -11.7645
-13.6025 5.5218 -11.9631
-13.9775 4.2660 -11.9089
-19.5807 4.1086 -16.3037
-5.7137 0.6741 -4.6884
23.6666 -15.4119 -23.0147
22.4616 -11.9182 -20.7209
22.3923 -9.4261 -19.7982
24.3136 -7.7628 -20.7984
25.0693 -5.5969 -20.9318
26.3232 -3.4484 -21.6340
26.4089 -1.0799 -21.5385
25.1160 1.2198 -20.4911
25.0430 3.4761 -20.6031
22.8277 5.2803 -19.0934
22.3503 7.3251 -19.1664
22.3446 9.6084 -19.8206
22.3998 12.1064 -20.7490
-12.8533 14.8764 -16.0208
-12.8471 12.4285 -14.5663
-12.8420 10.3730 -13.4524
-12.8435 8.6004 -12.5960
-12.8396 7.0252 -11.9267
-13.0656 5.6983 -11.6157
-13.7142 4.5732 -11.7806
-17.2937 4.0944 -14.4822
22.4638 -12.6681 -21.0159
22.3940 -10.1105 -20.0225
22.7617 -7.9160 -19.6381
25.1346 -6.2922 -21.1141
26.3250 -4.1377 -21.7155
26.4084 -1.7590 -21.5678
26.4047 0.6043 -21.5228
25.1112 2.8313 -20.5926
22.9556 4.6932 -19.0934
22.4449 6.7239 -19.0934
22.3463 8.9373 -19.6123
22.4020 11.3752 -20.4740
-12.8488 13.0844 -14.9438
-12.8434 10.9301 -13.7430
-12.8448 9.0867 -12.8215
-12.8407 7.4599 -12.1015
-12.8665 6.0087 -11.5718
-13.6010 4.9265 -11.7880
-16.5939 4.3810 -13.9856
-5.7207 0.4548 -4.6765
22.4360 -13.4222 -21.3050
22.4583 -10.8411 -20.3219
22.4354 -8.4534 -19.5372
25.1360 -6.9822 -21.2588
26.3267 -4.8329 -21.8120
26.3826 -2.4383 -21.5907
26.4064 -0.0730 -21.5186
25.1131 2.1809 -20.5416
23.8362 4.2397 -19.7289
22.6100 6.1461 -19.0934
22.3479 8.2797 -19.4209
22.3420 10.6331 -20.1632
-12.8505 13.7757 -15.3518
-12.8448 11.5120 -14.0559
-12.8460 9.5912 -13.0641
-12.8418 7.9078 -12.2897
-12.8380 6.4015 -11.6901
-13.6020 5.3252 -11.9034
-14.2835 4.1657 -12.1245
-20.7546 4.0857 -17.2375
-5.6578 0.5961 -4.6360
23.6656 -14.9948 -22.8303
22.4605 -11.5615 -20.5855
22.3914 -9.0992 -19.6958
25.0744 -7.6629 -21.3659
26.3285 -5.5347 -21.9239
26.3224 -3.1154 -21.5997
26.4081 -0.7504 -21.5286
25.1151 1.5335 -20.5043
24.0055 3.6373 -19.7853
22.7602 5.5642 -19.0934
22.3495 7.6344 -19.2458
22.3438 9.9394 -19.9281
22.4572 12.5012 -20.9447
-12.8523 14.5061 -15.7933
-12.8464 12.1216 -14.3931
-12.8413 10.1108 -13.3187
-12.8430 8.3702 -12.4922
-12.8391 6.8186 -11.8465
-13.2224 5.5718 -11.6925
-13.8043 4.4130 -11.8099
-18.5751 4.1541 -15.5107
23.6677 -15.8612 -23.2172
22.4627 -12.3013 -20.8699
22.3931 -9.7762 -19.9113
23.0707 -7.7028 -19.8205
25.1339 -5.9605 -21.0496
26.3241 -3.8023 -21.6741
26.4098 -1.4290 -21.5528
25.8655 0.9144 -21.0908
25.1102 3.1483 -20.6224
22.8954 4.9787 -19.0934
22.3595 7.0028 -19.0934
22.3455 9.2614 -19.7113
22.4010 11.7279 -20.6049
-12.8487 13.0650 -14.7456
-12.8433 10.9137 -13.5624
-12.8447 9.0725 -12.6544
-12.8407 7.4472 -11.9449
-12.8713 5.9994 -11.4274
-13.6009 4.9151 -11.6374
-16.5938 4.3679 -13.8079
-5.7288 0.4512 -4.6242
22.4661 -13.4176 -21.0572
22.3957 -10.7906 -20.0045
22.4423 -8.4371 -19.2933
25.1359 -6.9622 -20.9884
26.3702 -4.8207 -21.5717
26.5047 -2.4298 -21.4177
25.0554 -0.0508 -20.1620
25.0498 2.1941 -20.2346
23.7335 4.2394 -19.4006
22.8920 6.2409 -19.0934
22.3479 8.2984 -19.1830
22.3420 10.6533 -19.9178
-12.8505 13.7552 -15.1475
-12.8448 11.4950 -13.8708
-12.8460 9.5764 -12.8934
-12.8418 7.8948 -12.1304
-12.8380 6.3897 -11.5395
-13.6019 5.3136 -11.7510
-14.3026 4.1598 -11.9862
-20.8346 4.0855 -17.0848
-5.6557 0.5917 -4.5760
23.6655 -14.9704 -22.5339
22.4604 -11.5405 -20.3201
22.3914 -9.0799 -19.4434
25.1373 -7.6618 -21.1467
26.3284 -5.5143 -21.6461
26.4140 -3.1064 -21.4018
25.0570 -0.6936 -20.1710
25.0514 1.5482 -20.1972
23.9925 3.6535 -19.5292
23.0445 5.6518 -19.0934
22.3495 7.6528 -19.0097
22.3437 9.9592 -19.6851
22.4693 12.5297 -20.7022
-12.8523 14.4845 -15.5826
-12.8463 12.1037 -14.2030
-12.8413 10.0954 -13.1443
-12.8429 8.3567 -12.3299
-12.8391 6.8064 -11.6936
-13.2318 5.5642 -11.5507
-13.8102 4.4036 -11.6643
-18.3595 4.0917 -15.1363
23.6677 -15.8359 -22.9153
22.4627 -12.2798 -20.6003
22.3931 -9.7565 -19.6557
23.1267 -7.7024 -19.6150
25.1339 -5.9408 -20.7825
26.4157 -3.7957 -21.4750
26.4640 -1.4124 -21.3258
25.0530 0.9042 -20.1732
25.1101 3.1671 -20.3661
23.1818 5.0590 -19.0934
22.6376 7.1083 -19.0934
22.3454 9.2806 -19.4705
22.4009 11.7489 -20.3548
-13.6231 16.1702 -17.0145
-12.8479 12.7427 -14.5614
-12.8427 10.6405 -13.4207
-12.8441 8.8344 -12.5445
-12.8401 7.2347 -11.8597
-12.9526 5.8421 -11.4340
-13.6286 4.7341 -11.6097
-16.5933 4.1475 -13.7634
22.4649 -13.0401 -20.9023
22.3948 -10.4485 -19.8859
22.5600 -8.1622 -19.3056
25.1353 -6.6261 -20.9173
26.4175 -4.4902 -21.5630
26.5103 -2.0978 -21.3994
25.0546 0.2613 -20.1624
25.1121 2.5151 -20.3087
23.3039 4.4628 -19.0934
22.8125 6.5255 -19.0934
22.3471 8.6163 -19.2730
22.3411 10.9965 -20.0376
-12.8496 13.4154 -14.9484
-12.8441 11.2094 -13.7182
-12.8454 9.3294 -12.7752
-12.8412 7.6757 -12.0386
-12.8375 6.1911 -11.4689
-13.6014 5.1191 -11.6946
-14.7837 4.1007 -12.3456
-5.6635 0.5213 -4.5767
23.6645 -14.5603 -22.3586
22.3966 -11.1574 -20.1350
22.3906 -8.7565 -19.3465
25.1367 -7.3208 -21.0678
26.3276 -5.1728 -21.5908
26.4132 -2.7732 -21.3714
25.0562 -0.3813 -20.1650
25.0506 1.8615 -20.2137
23.7916 3.9267 -19.4040
22.9723 5.9383 -19.0934
22.3487 7.9648 -19.0919
22.3429 10.2943 -19.7958
22.9651 13.1838 -21.3086
-12.8514 14.1252 -15.3670
-12.8456 11.8045 -14.0386
-12.8467 9.8432 -13.0233
-12.8424 8.1305 -12.2312
-12.8385 6.6026 -11.6173
-13.6025 5.5218 -11.8133
-13.9775 4.2660 -11.7598
-19.7805 4.1505 -16.2639
-5.7129 0.6740 -4.6291
23.6666 -15.4119 -22.7266
22.4616 -11.9182 -20.4616
22.3923 -9.4261 -19.5504
24.3137 -7.7628 -20.5382
25.0693 -5.5969 -20.6698
26.4149 -3.4604 -21.4376
25.0578 -1.0246 -20.1808
25.0522 1.2167 -20.1832
25.0430 3.4761 -20.3453
23.1170 5.3473 -19.0934
22.3503 7.3251 -18.9265
22.3446 9.6083 -19.5725
22.3998 12.1064 -20.4893
-12.8533 14.8764 -15.8203
-12.8471 12.4285 -14.3840
-12.8420 10.3730 -13.2840
-12.8435 8.6004 -12.4383
-12.8396 7.0252 -11.7774
-13.0656 5.6983 -11.4703
-13.7142 4.5732 -11.6331
-17.2937 4.0944 -14.3009
23.6688 -16.2927 -23.1225
22.4638 -12.6681 -20.7528
22.3940 -10.1105 -19.7718
22.7617 -7.9160 -19.3923
25.1346 -6.2922 -20.8499
26.4166 -4.1522 -21.5184
26.4429 -1.7613 -21.3257
25.0538 0.5734 -20.1660
25.1112 2.8313 -20.3349
23.2466 4.7527 -19.0934
22.7294 6.8091 -19.0934
22.3463 8.9372 -19.3668
22.3402 11.3439 -20.1620
-12.8488 13.0844 -14.7568
-12.8434 10.9301 -13.5710
-12.8448 9.0867 -12.6610
-12.8407 7.4599 -11.9500
-12.8665 6.0087 -11.4270
-13.6010 4.9265 -11.6405
-16.5939 4.3810 -13.8106
-5.7202 0.4548 -4.6176
22.4662 -13.4402 -21.0666
22.3957 -10.8109 -20.0116
22.4354 -8.4534 -19.2927
25.1360 -6.9822 -20.9927
26.3666 -4.8402 -21.5717
26.5059 -2.4497 -21.4201
25.0554 -0.0693 -20.1621
25.0498 2.1755 -20.2334
23.8362 4.2397 -19.4820
22.8966 6.2240 -19.0934
22.3479 8.2797 -19.1778
22.3420 10.6331 -19.9108
-12.8505 13.7757 -15.1596
-12.8448 11.5120 -13.8800
-12.8460 9.5912 -12.9006
-12.8418 7.9078 -12.1359
-12.8380 6.4015 -11.5438
-13.6020 5.3252 -11.7544
-14.2835 4.1657 -11.9727
-20.7546 4.0857 -17.0217
-5.6575 0.5961 -4.5778
23.6656 -14.9948 -22.5445
22.4605 -11.5615 -20.3278
22.3914 -9.0992 -19.4492
25.1374 -7.6821 -21.1515
26.3285 -5.5347 -21.6495
26.4141 -3.1262 -21.4037
25.0570 -0.7120 -20.1715
25.0514 1.5296 -20.1963
24.0055 3.6373 -19.5376
23.0486 5.6348 -19.0934
22.3495 7.6344 -19.0049
22.3438 9.9394 -19.6787
22.4572 12.5012 -20.6825
-12.8523 14.5061 -15.5956
-12.8464 12.1217 -14.2130
-12.8413 10.1108 -13.1520
-12.8430 8.3702 -12.3358
-12.8391 6.8186 -11.6982
-13.2224 5.5718 -11.5461
-13.8043 4.4130 -11.6621
-18.2967 4.0919 -15.0870
23.6677 -15.8612 -22.9266
22.4627 -12.3013 -20.6087
22.3931 -9.7762 -19.6621
23.0707 -7.7028 -19.5724
25.1339 -5.9605 -20.7861
26.4158 -3.8155 -21.4773
26.4629 -1.4319 -21.3258
25.0530 0.8857 -20.1727
25.1102 3.1483 -20.3643
23.1856 5.0419 -19.0934
22.6429 7.0916 -19.0934
22.3455 9.2614 -19.4646
22.4010 11.7279 -20.3470
-12.8487 13.0650 -14.5606
-12.8433 10.9137 -13.3922
-12.8447 9.0725 -12.4956
-12.8407 7.4472 -11.7950
-12.8713 5.9994 -11.2839
-13.7158 4.9566 -11.5884
-16.5938 4.3679 -13.6346
-5.7283 0.4512 -4.5658
22.4661 -13.4176 -20.7929
22.3957 -10.7905 -19.7534
22.4423 -8.4371 -19.0512
25.1359 -6.9622 -20.7250
26.4183 -4.8295 -21.3399
26.5047 -2.4298 -21.1489
25.0554 -0.0508 -19.9090
25.0498 2.1941 -19.9807
23.7335 4.2394 -19.1571
23.1829 6.3202 -19.0934
22.3479 8.2984 -18.9423
22.3420 10.6533 -19.6678
-12.8505 13.7552 -14.9574
-12.8448 11.4950 -13.6967
-12.8460 9.5764 -12.7316
-12.8418 7.8948 -11.9781
-12.8380 6.3897 -11.3947
-13.6019 5.3136 -11.6035
-14.3026 4.1598 -11.8358
-20.8346 4.0855 -16.8704
-5.6554 0.5917 -4.5183
23.6655 -14.9704 -22.2511
22.3975 -11.5082 -20.0088
22.3914 -9.0799 -19.1994
25.1373 -7.6618 -20.8813
26.4201 -5.5335 -21.4489
25.2144 -2.9653 -20.1734
25.0570 -0.6936 -19.9179
25.0514 1.5482 -19.9437
23.9925 3.6535 -19.2841
23.3374 5.7236 -19.0934
22.3944 7.6683 -18.8088
22.3437 9.9592 -19.4381
22.4693 12.5297 -20.4424
-12.8523 14.4845 -15.3870
-12.8463 12.1037 -14.0248
-12.8413 10.0954 -12.9794
-12.8429 8.3567 -12.1751
-12.8391 6.8064 -11.5468
-13.2318 5.5642 -11.4058
-13.8947 4.4306 -11.5884
-18.3595 4.0917 -14.9463
23.6677 -15.8359 -22.6277
22.4627 -12.2798 -20.3418
22.3931 -9.7565 -19.4090
23.1267 -7.7024 -19.3688
25.1339 -5.9409 -20.5217
25.0643 -3.6015 -20.1206
25.1047 -1.3398 -19.9766
25.0530 0.9042 -19.9200
25.0473 3.1592 -20.0603
23.4765 5.1233 -19.0934
22.9253 7.1987 -19.0934
22.3454 9.2806 -19.2261
22.3393 11.7166 -20.0441
-13.6231 16.1702 -16.8009
-12.8479 12.7427 -14.3787
-12.8427 10.6405 -13.2523
-12.8441 8.8344 -12.3870
-12.8401 7.2347 -11.7108
-12.9526 5.8421 -11.2905
-13.7765 4.7854 -11.5884
-16.5933 4.1475 -13.5906
23.7205 -16.7675 -23.0818
22.4649 -13.0401 -20.6400
22.3948 -10.4485 -19.6364
22.5600 -8.1622 -19.0633
25.1353 -6.6261 -20.6548
25.0659 -4.2604 -20.2030
26.5103 -2.0978 -21.1309
25.0546 0.2613 -19.9094
25.0490 2.5088 -20.0034
23.6001 4.5196 -19.0934
23.1024 6.6084 -19.0934
22.3471 8.6163 -19.0311
22.3411 10.9965 -19.7861
-12.8496 13.4154 -14.7608
-12.8441 11.2094 -13.5460
-12.8454 9.3294 -12.6149
-12.8412 7.6757 -11.8875
-12.8375 6.1911 -11.3250
-13.6492 5.1371 -11.5884
-14.7837 4.1007 -12.1906
-5.6633 0.5213 -4.5191
23.6645 -14.5603 -22.0780
22.3966 -11.1574 -19.8824
22.3906 -8.7565 -19.1037
25.1367 -7.3208 -20.8034
26.4192 -5.1908 -21.3940
26.6908 -2.8024 -21.3250
25.0562 -0.3813 -19.9119
25.0506 1.8615 -19.9600
23.7916 3.9267 -19.1605
23.2643 6.0138 -19.0934
22.3487 7.9648 -18.8523
22.3429 10.2943 -19.5474
-12.8514 14.1252 -15.1741
-12.8456 11.8045 -13.8624
-12.8467 9.8432 -12.8599
-12.8424 8.1305 -12.0777
-12.8385 6.6026 -11.4715
-13.6025 5.5218 -11.6651
-13.9775 4.2660 -11.6123
-19.7805 4.1505 -16.0598
-5.7121 0.6739 -4.5703
23.6666 -15.4119 -22.4414
22.3984 -11.8847 -20.1480
22.3923 -9.4261 -19.3051
24.1169 -7.7000 -20.1163
25.0693 -5.5969 -20.4104
25.1143 -3.2900 -20.1263
25.0578 -1.0246 -19.9275
25.0522 1.2167 -19.9299
25.0430 3.4761 -20.0899
23.4108 5.4152 -19.0934
22.4142 7.3460 -18.7424
22.3446 9.6083 -19.3269
22.3384 12.0732 -20.1767
-12.8533 14.8764 -15.6218
-12.8471 12.4285 -14.2034
-12.8420 10.3730 -13.1173
-12.8435 8.6004 -12.2822
-12.8396 7.0252 -11.6296
-13.0656 5.6983 -11.3264
-13.8350 4.6135 -11.5884
-17.2937 4.0944 -14.1214
23.6688 -16.2927 -22.8323
22.4638 -12.6681 -20.4924
22.3940 -10.1105 -19.5237
22.7617 -7.9160 -19.1489
25.1346 -6.2922 -20.5882
25.0651 -3.9397 -20.1612
25.2112 -1.6793 -20.0771
25.0538 0.5734 -19.9129
25.0482 2.8242 -20.0293
23.5420 4.8131 -19.0934
23.0183 6.8957 -19.0934
22.3463 8.9372 -19.1238
22.3402 11.3439 -19.9089
-12.8488 13.0844 -14.5716
-12.8434 10.9301 -13.4007
-12.8448 9.0867 -12.5022
-12.8407 7.4599 -11.8001
-12.8665 6.0087 -11.2836
-13.7122 4.9668 -11.5884
-16.5939 4.3810 -13.6373
-5.7197 0.4547 -4.5592
22.4662 -13.4402 -20.8022
22.3957 -10.8109 -19.7605
22.4354 -8.4534 -19.0506
25.1360 -6.9822 -20.7292
26.4184 -4.8497 -21.3428
26.5059 -2.4497 -21.1513
25.0554 -0.0693 -19.9091
25.0498 2.1755 -19.9794
23.8362 4.2397 -19.2375
23.1876 6.3031 -19.0934
22.3479 8.2796 -18.9372
22.3420 10.6331 -19.6609
-12.8505 13.7757 -14.9694
-12.8448 11.5120 -13.7058
-12.8460 9.5912 -12.7387
-12.8418 7.9078 -11.9836
-12.8380 6.4015 -11.3989
-13.6020 5.3252 -11.6069
-14.2835 4.1657 -11.8225
-20.7546 4.0857 -16.8081
-5.6573 0.5961 -4.5202
23.6656 -14.9948 -22.2616
22.3975 -11.5291 -20.0164
22.3914 -9.0992 -19.2051
25.1374 -7.6821 -20.8860
26.4202 -5.5539 -21.4523
25.2072 -2.9834 -20.1694
25.0570 -0.7120 -19.9183
25.0514 1.5296 -19.9429
24.0055 3.6373 -19.2924
23.3416 5.7064 -19.0934
22.4001 7.6518 -18.8088
22.3438 9.9394 -19.4317
22.4572 12.5012 -20.4230
-12.8523 14.5061 -15.3999
-12.8464 12.1216 -14.0346
-12.8413 10.1108 -12.9870
-12.8430 8.3702 -12.1810
-12.8391 6.8186 -11.5514
-13.2224 5.5718 -11.4012
-13.8914 4.4408 -11.5884
-18.2967 4.0919 -14.8976
23.6677 -15.8612 -22.6389
22.4627 -12.3013 -20.3500
22.3931 -9.7762 -19.4153
23.0707 -7.7028 -19.3267
25.1339 -5.9605 -20.5253
25.0643 -3.6203 -20.1227
25.1106 -1.3587 -19.9820
25.0530 0.8857 -19.9195
25.0474 3.1405 -20.0584
23.4802 5.1059 -19.0934
22.9307 7.1817 -19.0934
22.3455 9.2614 -19.2203
22.3394 11.6956 -20.0364
-12.8487 13.0650 -14.3773
-12.8433 10.9137 -13.2237
-12.8447 9.0725 -12.3383
-12.8407 7.4472 -11.6466
-12.8713 5.9994 -11.1419
-13.8906 5.0198 -11.5884
-15.5713 4.0987 -12.6333
-5.7279 0.4511 -4.5080
22.4661 -13.4176 -20.5313
22.3957 -10.7905 -19.5048
22.4423 -8.4371 -18.8114
25.1359 -6.9622 -20.4641
25.0667 -4.5825 -19.9932
26.5047 -2.4298 -20.8827
25.0554 -0.0508 -19.6584
25.0498 2.1941 -19.7292
23.7335 4.2394 -18.9160
23.4784 6.4007 -19.0934
22.4112 8.3219 -18.7569
22.3420 10.6533 -19.4203
-12.8505 13.7552 -14.7692
-12.8448 11.4950 -13.5243
-12.8460 9.5764 -12.5714
-12.8418 7.8948 -11.8274
-12.8380 6.3897 -11.2513
-13.7574 5.3743 -11.5884
-14.3026 4.1598 -11.6868
-20.8346 4.0855 -16.6581
-5.6552 0.5917 -4.4613
23.6655 -14.9704 -21.9711
22.3975 -11.5082 -19.7570
22.3914 -9.0799 -18.9577
25.1373 -7.6618 -20.6185
25.0684 -5.2504 -20.0954
25.2144 -2.9653 -19.9195
25.0570 -0.6936 -19.6672
25.0514 1.5482 -19.6927
23.9925 3.6535 -19.0414
23.6348 5.7966 -19.0934
22.4132 7.6746 -18.5877
22.3437 9.9592 -19.1934
22.3827 12.4814 -20.1073
-12.8523 14.4845 -15.1933
-12.8463 12.1037 -13.8483
-12.8413 10.0954 -12.8160
-12.8429 8.3567 -12.0219
-12.8391 6.8064 -11.4015
-13.2318 5.5642 -11.2622
-14.0718 4.4871 -11.5884
-18.3595 4.0917 -14.7582
23.6677 -15.8359 -22.3429
22.3993 -12.2451 -20.0291
22.3931 -9.7565 -19.1648
23.1267 -7.7024 -19.1251
25.0701 -5.9257 -20.2119
25.0643 -3.6015 -19.8673
25.1047 -1.3398 -19.7252
25.0530 0.9042 -19.6693
25.0473 3.1592 -19.8078
23.7067 5.1735 -19.0380
23.0313 7.2319 -18.9402
22.3454 9.2806 -18.9841
22.3393 11.7166 -19.7918
-13.6263 16.1740 -16.5934
-12.8479 12.7428 -14.1977
-12.8427 10.6405 -13.0855
-12.8441 8.8344 -12.2311
-12.8401 7.2347 -11.5634
-12.9526 5.8421 -11.1484
-13.9521 4.8464 -11.5884
-16.5933 4.1475 -13.4196
23.7205 -16.7675 -22.7913
22.4649 -13.0401 -20.3802
22.3948 -10.4485 -19.3892
22.5600 -8.1622 -18.8234
25.1353 -6.6261 -20.3948
25.0659 -4.2604 -19.9487
25.6483 -2.0296 -20.1865
25.0546 0.2613 -19.6588
25.0490 2.5088 -19.7517
23.7083 4.5403 -18.9395
23.3969 6.6927 -19.0934
22.3675 8.6242 -18.8088
22.3411 10.9965 -19.5371
-12.8496 13.4154 -14.5751
-12.8441 11.2094 -13.3755
-12.8454 9.3294 -12.4561
-12.8412 7.6757 -11.7379
-12.8375 6.1911 -11.1824
-13.8232 5.2026 -11.5884
-14.7837 4.1007 -12.0372
-5.6631 0.5213 -4.4620
23.6645 -14.5603 -21.8001
22.3966 -11.1574 -19.6321
22.3906 -8.7565 -18.8632
25.1367 -7.3208 -20.5416
25.0676 -4.9252 -20.0440
25.5251 -2.6800 -20.1370
25.0562 -0.3813 -19.6613
25.0506 1.8615 -19.7088
23.7916 3.9267 -18.9193
23.5608 6.0905 -19.0934
22.4122 7.9875 -18.6679
22.3429 10.2943 -19.3014
-12.8514 14.1252 -14.9832
-12.8456 11.8045 -13.6879
-12.8467 9.8432 -12.6980
-12.8424 8.1305 -11.9257
-12.8385 6.6026 -11.3271
-13.6025 5.5218 -11.5183
-14.1265 4.3115 -11.5884
-19.7805 4.1505 -15.8577
-5.7113 0.6738 -4.5121
23.6666 -15.4119 -22.1589
22.3984 -11.8847 -19.8944
22.3923 -9.4261 -19.0621
24.1169 -7.7000 -19.8631
25.0693 -5.5969 -20.1535
25.1143 -3.2900 -19.8730
25.0578 -1.0246 -19.6767
25.0522 1.2167 -19.6791
25.0430 3.4761 -19.8370
23.7059 5.4835 -19.0907
22.4142 7.3460 -18.5065
22.3446 9.6084 -19.0837
22.3384 12.0733 -19.9227
-12.8533 14.8764 -15.4252
-12.8471 12.4285 -14.0247
-12.8420 10.3730 -12.9522
-12.8435 8.6004 -12.1277
-12.8396 7.0252 -11.4833
-13.0656 5.6983 -11.1838
-14.0114 4.6723 -11.5884
-17.2937 4.0944 -13.9437
23.6688 -16.2927 -22.5449
22.4003 -12.6323 -20.1773
22.3940 -10.1105 -19.2780
22.7617 -7.9160 -18.9079
25.1346 -6.2922 -20.3291
25.0651 -3.9397 -19.9075
25.2112 -1.6793 -19.8244
25.0538 0.5734 -19.6623
25.0482 2.8242 -19.7773
23.7075 4.8469 -18.9856
23.3117 6.9836 -19.0934
22.3463 8.9372 -18.8831
22.3402 11.3439 -19.6584
-12.8488 13.0844 -14.3882
-12.8434 10.9301 -13.2320
-12.8448 9.0867 -12.3448
-12.8407 7.4599 -11.6516
-12.8665 6.0087 -11.1416
-13.8869 5.0301 -11.5884
-15.5251 4.0988 -12.5983
-5.7193 0.4547 -4.5015
22.4662 -13.4402 -20.5404
22.3957 -10.8109 -19.5118
22.4354 -8.4534 -18.8108
25.1360 -6.9822 -20.4683
25.0668 -4.6016 -19.9960
26.5059 -2.4497 -20.8851
25.0554 -0.0693 -19.6585
25.0498 2.1755 -19.7280
23.8362 4.2397 -18.9954
23.4831 6.3834 -19.0934
22.4113 8.3031 -18.7519
22.3420 10.6331 -19.4135
-12.8505 13.7757 -14.7810
-12.8448 11.5121 -13.5333
-12.8460 9.5912 -12.5783
-12.8418 7.9078 -11.8328
-12.8380 6.4015 -11.2555
-13.7534 5.3845 -11.5884
-14.2835 4.1657 -11.6737
-20.7546 4.0857 -16.5966
-5.6570 0.5961 -4.4631
23.6656 -14.9948 -21.9814
22.3975 -11.5291 -19.7645
22.3914 -9.0992 -18.9634
25.1374 -7.6821 -20.6232
25.0684 -5.2698 -20.0985
25.2072 -2.9834 -19.9155
25.0570 -0.7120 -19.6676
25.0514 1.5296 -19.6919
24.0055 3.6373 -19.0496
23.6391 5.7791 -19.0934
22.4132 7.6561 -18.5830
22.3438 9.9394 -19.1872
22.3704 12.4529 -20.0880
-12.8523 14.5061 -15.2060
-12.8464 12.1217 -13.8580
-12.8413 10.1108 -12.8235
-12.8430 8.3702 -12.0277
-12.8391 6.8186 -11.4060
-13.2224 5.5718 -11.2577
-14.0685 4.4974 -11.5884
-18.2967 4.0919 -14.7101
23.6677 -15.8612 -22.3540
22.3994 -12.2666 -20.0373
22.3931 -9.7762 -19.1710
23.0707 -7.7028 -19.0835
25.0701 -5.9453 -20.2155
25.0643 -3.6203 -19.8695
25.1106 -1.3587 -19.7305
25.0530 0.8857 -19.6688
25.0474 3.1405 -19.8060
23.7067 5.1552 -19.0350
23.0915 7.2321 -18.9853
22.3455 9.2614 -18.9784
22.3394 11.6956 -19.7842
-12.8487 13.0650 -14.1958
-12.8433 10.9137 -13.0568
-12.8447 9.0725 -12.1826
-12.8407 7.4472 -11.4995
-12.8713 5.9994 -11.0013
-14.0682 5.0840 -11.5884
-15.5713 4.0987 -12.4739
-5.7274 0.4511 -4.4507
22.4022 -13.3795 -20.2144
22.3957 -10.7905 -19.2586
22.4993 -8.4585 -18.6211
25.0726 -6.9446 -20.1549
25.0667 -4.5825 -19.7408
26.5047 -2.4298 -20.6191
25.0554 -0.0508 -19.4103
25.0498 2.1941 -19.4802
23.7335 4.2394 -18.6772
23.7035 6.4621 -19.0331
22.4112 8.3219 -18.5201
22.3420 10.6533 -19.1751
-12.8505 13.7552 -14.5828
-12.8448 11.4950 -13.3536
-12.8460 9.5764 -12.4127
-12.8418 7.8948 -11.6781
-12.8380 6.3896 -11.1093
-13.9332 5.4431 -11.5884
-14.3635 4.1775 -11.5884
-20.8346 4.0855 -16.4478
-5.6550 0.5916 -4.4048
23.6655 -14.9704 -21.6937
22.3975 -11.5082 -19.5076
22.4531 -9.1049 -18.7700
25.1373 -7.6618 -20.3582
25.0684 -5.2504 -19.8417
25.2144 -2.9653 -19.6680
25.0570 -0.6936 -19.4189
25.0514 1.5482 -19.4442
23.9925 3.6535 -18.8011
23.7051 5.8138 -18.9084
22.4132 7.6746 -18.3531
22.3437 9.9592 -18.9511
22.3827 12.4814 -19.8535
-12.8523 14.4845 -15.0015
-12.8463 12.1037 -13.6735
-12.8413 10.0954 -12.6542
-12.8429 8.3567 -11.8702
-12.8391 6.8064 -11.2576
-13.2318 5.5642 -11.1201
-14.2517 4.5444 -11.5884
-18.3595 4.0917 -14.5719
23.6677 -15.8359 -22.0609
22.3993 -12.2452 -19.7763
22.3931 -9.7565 -18.9228
23.1267 -7.7024 -18.8837
25.0701 -5.9257 -19.9568
25.0643 -3.6015 -19.6165
25.1047 -1.3398 -19.4762
25.0530 0.9042 -19.4210
25.0473 3.1592 -19.5577
23.7067 5.1735 -18.7977
23.0312 7.2319 -18.7011
22.4083 9.3067 -18.7972
22.3393 11.7166 -19.5420
-13.8005 16.3808 -16.5934
-12.8479 12.7427 -14.0185
-12.8427 10.6405 -12.9203
-12.8441 8.8344 -12.0767
-12.8401 7.2347 -11.4175
-12.9526 5.8421 -11.0077
-14.1305 4.9084 -11.5884
-16.5933 4.1475 -13.2502
23.7205 -16.7675 -22.5036
22.4012 -13.0031 -20.0658
22.3948 -10.4485 -19.1445
22.6162 -8.1825 -18.6321
25.0718 -6.6093 -20.0865
25.0659 -4.2604 -19.6969
25.6483 -2.0296 -19.9317
25.0546 0.2613 -19.4107
25.0490 2.5088 -19.5024
23.8720 4.5716 -18.8296
23.6960 6.7782 -19.0934
22.4103 8.6406 -18.6069
22.3411 10.9965 -19.2905
-12.8496 13.4154 -14.3911
-12.8441 11.2094 -13.2067
-12.8454 9.3294 -12.2989
-12.8412 7.6757 -11.5897
-12.8375 6.1911 -11.0413
-14.0000 5.2691 -11.5884
-14.7837 4.1007 -11.8853
-5.6628 0.5212 -4.4055
23.7116 -14.5893 -21.5678
22.3966 -11.1574 -19.3843
22.4521 -8.7805 -18.6763
25.0735 -7.3024 -20.2313
25.0676 -4.9252 -19.7910
25.5251 -2.6800 -19.8828
25.0562 -0.3813 -19.4131
25.0506 1.8615 -19.4600
23.7916 3.9267 -18.6805
23.7043 6.1276 -18.9672
22.4122 7.9875 -18.4323
22.3429 10.2943 -19.0577
-12.8514 14.1252 -14.7940
-12.8456 11.8045 -13.5151
-12.8467 9.8432 -12.5377
-12.8424 8.1305 -11.7751
-12.8385 6.6026 -11.1841
-13.6025 5.5218 -11.3729
-14.3071 4.3666 -11.5884
-19.7805 4.1505 -15.6575
-5.7105 0.6737 -4.4546
23.6666 -15.4119 -21.8792
22.3984 -11.8847 -19.6433
22.3923 -9.4261 -18.8215
24.1169 -7.7000 -19.6124
25.0693 -5.5969 -19.8991
25.1143 -3.2900 -19.6221
25.0578 -1.0246 -19.4283
25.0522 1.2167 -19.4306
25.0430 3.4761 -19.5867
23.7059 5.4835 -18.8497
22.4142 7.3460 -18.2729
22.3446 9.6083 -18.8427
22.3384 12.0733 -19.6712
-12.8533 14.8764 -15.2305
-12.8471 12.4285 -13.8477
-12.8420 10.3730 -12.7887
-12.8435 8.6004 -11.9746
-12.8396 7.0252 -11.3383
-13.0656 5.6983 -11.0426
-14.1905 4.7320 -11.5884
-17.3391 4.1051 -13.8038
23.6688 -16.2927 -22.2603
22.4003 -12.6323 -19.9226
22.3940 -10.1105 -19.0346
22.8349 -7.9415 -18.7293
25.0710 -6.2762 -20.0217
25.0651 -3.9397 -19.6562
25.2112 -1.6793 -19.5742
25.0538 0.5734 -19.4141
25.0482 2.8242 -19.5276
23.8133 4.8686 -18.8296
23.6097 7.0728 -19.0934
22.4093 8.9624 -18.6973
22.3402 11.3439 -19.4102
-12.8488 13.0844 -14.2066
-12.8434 10.9301 -13.0650
-12.8448 9.0867 -12.1890
-12.8407 7.4599 -11.5045
-12.8665 6.0087 -11.0010
-14.0645 5.0944 -11.5884
-15.5251 4.0988 -12.4393
-5.7188 0.4546 -4.4443
22.4022 -13.4020 -20.2234
22.3957 -10.8109 -19.2655
22.4924 -8.4749 -18.6206
25.0727 -6.9646 -20.1591
25.0668 -4.6016 -19.7436
26.5059 -2.4497 -20.6215
25.0554 -0.0693 -19.4103
25.0498 2.1755 -19.4790
23.8362 4.2397 -18.7556
23.7035 6.4434 -19.0293
22.4113 8.3031 -18.5151
22.3420 10.6331 -19.1684
-12.8505 13.7757 -14.5944
-12.8448 11.5120 -13.3625
-12.8460 9.5912 -12.4196
-12.8418 7.9078 -11.6834
-12.8380 6.4015 -11.1134
-13.9292 5.4534 -11.5884
-14.3604 4.1881 -11.5884
-20.7547 4.0857 -16.3871
-5.6568 0.5960 -4.4065
23.6656 -14.9948 -21.7039
22.3975 -11.5291 -19.5150
22.4531 -9.1242 -18.7756
25.1374 -7.6821 -20.3628
25.0684 -5.2698 -19.8448
25.2072 -2.9834 -19.6641
25.0570 -0.7120 -19.4193
25.0514 1.5296 -19.4433
24.0055 3.6373 -18.8092
23.7051 5.7953 -18.9050
22.4132 7.6561 -18.3485
22.3438 9.9394 -18.9450
22.3704 12.4529 -19.8344
-12.8523 14.5061 -15.0141
-12.8464 12.1216 -13.6830
-12.8413 10.1108 -12.6616
-12.8430 8.3702 -11.8759
-12.8391 6.8186 -11.2620
-13.2224 5.5718 -11.1156
-14.2483 4.5549 -11.5884
-18.2967 4.0919 -14.5245
23.6677 -15.8612 -22.0718
22.3994 -12.2666 -19.7843
22.3931 -9.7762 -18.9290
23.0707 -7.7028 -18.8426
25.0701 -5.9453 -19.9603
25.0643 -3.6203 -19.6187
25.1106 -1.3587 -19.4814
25.0530 0.8857 -19.4205
25.0474 3.1405 -19.5560
23.7067 5.1552 -18.7947
23.0915 7.2321 -18.7456
22.4083 9.2874 -18.7915
22.3394 11.6956 -19.5345
-12.8487 13.0650 -14.0161
-12.8433 10.9137 -12.8914
-12.8447 9.0725 -12.0283
-12.8407 7.4472 -11.3539
-12.8713 5.9994 -10.8620
-14.2487 5.1492 -11.5884
-15.5713 4.0987 -12.3159
-5.7269 0.4510 -4.3940
22.4022 -13.3795 -19.9584
22.3957 -10.7905 -19.0147
22.4993 -8.4585 -18.3853
25.0726 -6.9446 -19.8997
25.0667 -4.5825 -19.4909
26.5047 -2.4298 -20.3580
25.0554 -0.0508 -19.1645
25.0498 2.1941 -19.2335
23.7335 4.2394 -18.4407
22.3534 6.0941 -17.7217
22.4112 8.3219 -18.2856
22.3420 10.6533 -18.9323
-12.8505 13.7552 -14.3981
-12.8448 11.4950 -13.1845
-12.8460 9.5764 -12.2555
-12.8418 7.8948 -11.5302
-12.8380 6.3897 -10.9686
-13.9606 5.4537 -11.4641
-14.5477 4.2310 -11.5884
-20.9169 4.1017 -16.3036
-5.6547 0.5916 -4.3488
23.7573 -15.0284 -21.5021
22.3975 -11.5082 -19.2606
22.4531 -9.1049 -18.5323
25.0744 -7.6426 -20.0501
25.0684 -5.2504 -19.5904
25.2144 -2.9653 -19.4190
25.0570 -0.6936 -19.1730
25.0514 1.5482 -19.1979
23.9925 3.6535 -18.5630
22.3549 5.4827 -17.6057
22.4132 7.6746 -18.1207
22.4062 9.9870 -18.7635
22.3827 12.4814 -19.6020
-12.8523 14.4845 -14.8116
-12.8463 12.1037 -13.5003
-12.8413 10.0954 -12.4940
-12.8429 8.3567 -11.7198
-12.8391 6.8064 -11.1150
-13.2318 5.5642 -10.9792
-14.4345 4.6027 -11.5884
-18.3595 4.0917 -14.3874
23.6677 -15.8359 -21.7815
22.3993 -12.2451 -19.5259
22.4551 -9.7836 -18.7350
23.3062 -7.7622 -18.7892
25.0701 -5.9257 -19.7041
25.0643 -3.6015 -19.3681
25.1047 -1.3398 -19.2295
25.0530 0.9042 -19.1751
25.0473 3.1592 -19.3101
22.4281 4.8945 -17.5586
23.0312 7.2319 -18.4643
22.4083 9.3067 -18.5592
22.3393 11.7166 -19.2945
-13.9775 16.5909 -16.5934
-12.8479 12.7427 -13.8410
-12.8427 10.6405 -12.7567
-12.8441 8.8344 -11.9238
-12.8401 7.2347 -11.2729
-12.9526 5.8421 -10.8683
-14.3117 4.9713 -11.5884
-16.5933 4.1475 -13.0824
23.7205 -16.7675 -22.2187
22.4012 -13.0031 -19.8117
22.3948 -10.4485 -18.9021
22.6162 -8.1825 -18.3961
25.0718 -6.6093 -19.8321
25.0659 -4.2604 -19.4475
25.6483 -2.0296 -19.6793
25.0546 0.2613 -19.1649
25.0490 2.5088 -19.2554
23.9857 4.5934 -18.6796
23.7027 6.7801 -18.8569
22.4103 8.6406 -18.3712
22.3411 10.9965 -19.0462
-12.8496 13.4154 -14.2088
-12.8441 11.2094 -13.0395
-12.8454 9.3294 -12.1431
-12.8412 7.6757 -11.4430
-12.8375 6.1911 -10.9015
-14.1795 5.3367 -11.5884
-14.7837 4.1007 -11.7348
-5.6626 0.5212 -4.3496
22.4032 -13.7842 -20.1196
22.3966 -11.1574 -19.1388
22.4521 -8.7805 -18.4398
25.0735 -7.3024 -19.9751
25.0676 -4.9252 -19.5404
25.5251 -2.6800 -19.6310
25.0562 -0.3813 -19.1673
25.0506 1.8615 -19.2136
23.7916 3.9267 -18.4440
22.3542 5.7786 -17.6604
22.4122 7.9874 -18.1989
22.3429 10.2943 -18.8164
22.8601 13.1235 -20.1617
-12.8514 14.1252 -14.6067
-12.8456 11.8045 -13.3440
-12.8467 9.8432 -12.3790
-12.8424 8.1305 -11.6260
-12.8385 6.6026 -11.0425
-13.6025 5.5218 -11.2289
-14.4907 4.4226 -11.5884
-19.4869 4.0889 -15.2297
-5.7097 0.6736 -4.3975
23.6666 -15.4119 -21.6022
22.3984 -11.8847 -19.3945
22.4541 -9.4522 -18.6345
24.1169 -7.7000 -19.3640
25.0693 -5.5969 -19.6471
25.1143 -3.2900 -19.3736
25.0578 -1.0246 -19.1823
25.0522 1.2167 -19.1846
25.0430 3.4761 -19.3386
22.3557 5.1712 -17.5510
22.4142 7.3460 -18.0415
22.4073 9.6353 -18.6563
22.3384 12.0733 -19.4221
-12.8533 14.8764 -15.0376
-12.8471 12.4285 -13.6723
-12.8420 10.3730 -12.6267
-12.8435 8.6004 -11.8229
-12.8396 7.0252 -11.1947
-13.0656 5.6983 -10.9028
-14.3725 4.7927 -11.5884
-17.5591 4.1572 -13.8019
23.6688 -16.2927 -21.9784
22.4003 -12.6323 -19.6703
22.4073 -10.1167 -18.8048
22.8349 -7.9415 -18.4922
25.0710 -6.2762 -19.7681
25.0651 -3.9397 -19.4073
25.2112 -1.6793 -19.3263
25.0538 0.5734 -19.1683
25.0482 2.8242 -19.2803
22.5250 4.6052 -17.5853
23.7019 7.1004 -18.9252
22.4093 8.9624 -18.4605
22.3402 11.3439 -19.1644
-12.8488 13.0844 -14.0267
-12.8434 10.9301 -12.8996
-12.8448 9.0867 -12.0346
-12.8407 7.4599 -11.3588
-12.8665 6.0087 -10.8616
-14.2449 5.1597 -11.5884
-15.5251 4.0988 -12.2818
-5.7183 0.4546 -4.3876
22.4022 -13.4020 -19.9673
22.3957 -10.8109 -19.0215
22.4924 -8.4749 -18.3848
25.0727 -6.9646 -19.9038
25.0668 -4.6016 -19.4935
26.5059 -2.4497 -20.3603
25.0554 -0.0693 -19.1645
25.0498 2.1755 -19.2323
23.8363 4.2397 -18.5181
22.3534 6.0764 -17.7182
22.4113 8.3031 -18.2807
22.3420 10.6331 -18.9257
-12.8505 13.7757 -14.4096
-12.8448 11.5120 -13.1933
-12.8460 9.5912 -12.2623
-12.8418 7.9078 -11.5354
-12.8380 6.4015 -10.9727
-13.9304 5.4538 -11.4426
-14.5446 4.2418 -11.5884
-20.9138 4.1171 -16.3036
-5.6566 0.5960 -4.3506
23.7573 -15.0530 -21.5122
22.3975 -11.5291 -19.2679
22.4531 -9.1242 -18.5379
25.0744 -7.6629 -20.0546
25.0684 -5.2698 -19.5935
25.2072 -2.9834 -19.4151
25.0570 -0.7120 -19.1734
25.0514 1.5296 -19.1971
24.0055 3.6373 -18.5710
22.3550 5.4652 -17.6025
22.4132 7.6561 -18.1161
22.4063 9.9672 -18.7574
22.3704 12.4529 -19.5833
-12.8523 14.5061 -14.8240
-12.8464 12.1217 -13.5098
-12.8413 10.1108 -12.5013
-12.8430 8.3702 -11.7255
-12.8391 6.8186 -11.1194
-13.2224 5.5718 -10.9749
-14.4311 4.6133 -11.5884
-18.2967 4.0919 -14.3405
23.6677 -15.8612 -21.7923
22.3994 -12.2666 -19.5338
22.4552 -9.8033 -18.7410
23.2477 -7.7619 -18.7467
25.0701 -5.9453 -19.7076
25.0643 -3.6203 -19.3702
25.1106 -1.3587 -19.2347
25.0530 0.8857 -19.1746
25.0474 3.1405 -19.3083
22.4331 4.8782 -17.5597
23.0915 7.2321 -18.5082
22.4083 9.2874 -18.5536
22.3394 11.6956 -19.2871
-12.8487 13.0650 -13.8380
-12.8433 10.9137 -12.7276
-12.8447 9.0725 -11.8755
-12.8407 7.4472 -11.2097
-12.8713 5.9994 -10.7240
-14.4320 5.2154 -11.5884
-15.5713 4.0987 -12.1594
-5.7264 0.4510 -4.3378
22.4022 -13.3795 -19.7048
22.4335 -10.8089 -18.8048
22.4993 -8.4585 -18.1517
25.0726 -6.9446 -19.6469
25.0667 -4.5825 -19.2432
26.5047 -2.4298 -20.0994
25.2785 -0.0512 -19.0895
25.0498 2.1941 -18.9891
23.7335 4.2394 -18.2064
22.3534 6.0940 -17.4966
22.4112 8.3219 -18.0533
22.4041 10.6830 -18.7438
-12.8505 13.7552 -14.2152
-12.8448 11.4950 -13.0170
-12.8460 9.5764 -12.0998
-12.8418 7.8948 -11.3837
-12.8380 6.3897 -10.8292
-13.9682 5.4567 -11.3246
-14.7350 4.2855 -11.5884
-21.1450 4.1464 -16.2720
-5.6545 0.5916 -4.2934
22.4041 -14.1725 -20.0198
22.3975 -11.5082 -19.0158
22.4531 -9.1049 -18.2968
25.0744 -7.6426 -19.7953
25.0684 -5.2504 -19.3415
25.2144 -2.9653 -19.1723
25.2689 -0.6994 -19.0895
25.0514 1.5482 -18.9540
23.9925 3.6535 -18.3271
22.3549 5.4827 -17.3820
22.4132 7.6746 -17.8904
22.4062 9.9870 -18.5251
22.3827 12.4814 -19.3530
-12.8523 14.4845 -14.6234
-12.8463 12.1037 -13.3288
-12.8413 10.0954 -12.3353
-12.8429 8.3567 -11.5709
-12.8391 6.8064 -10.9738
-13.2318 5.5642 -10.8398
-14.6202 4.6619 -11.5884
-18.3595 4.0917 -14.2046
23.7371 -15.8823 -21.5678
22.3993 -12.2451 -19.2778
22.4551 -9.7836 -18.4969
23.3062 -7.7622 -18.5505
25.0701 -5.9257 -19.4537
25.0643 -3.6015 -19.1220
25.2427 -1.3472 -19.0895
25.2621 0.9117 -19.0895
25.0473 3.1592 -19.0647
22.4281 4.8945 -17.3355
22.3511 7.0183 -17.6913
22.4083 9.3067 -18.3234
22.3393 11.7166 -19.0494
-14.1574 16.8044 -16.5934
-12.8479 12.7427 -13.6651
-12.8427 10.6405 -12.5946
-12.8441 8.8344 -11.7723
-12.8401 7.2347 -11.1297
-12.9526 5.8421 -10.7302
-14.4959 5.0353 -11.5884
-16.5933 4.1475 -12.9162
23.7205 -16.7675 -21.9364
22.4012 -13.0031 -19.5600
22.4572 -10.4776 -18.7139
22.6162 -8.1825 -18.1624
25.0718 -6.6093 -19.5802
25.0659 -4.2604 -19.2004
25.6483 -2.0296 -19.4293
25.2772 0.2636 -19.0895
25.0490 2.5088 -19.0107
22.7994 4.3662 -17.5302
22.3526 6.3940 -17.5570
22.4103 8.6406 -18.1378
22.3464 10.9991 -18.8087
-12.8496 13.4154 -14.0283
-12.8441 11.2094 -12.8738
-12.8454 9.3294 -11.9888
-12.8412 7.6757 -11.2976
-12.8375 6.1911 -10.7629
-14.3620 5.4054 -11.5884
-14.7872 4.1016 -11.5884
-5.6624 0.5212 -4.2941
22.4032 -13.7842 -19.8640
22.3966 -11.1574 -18.8957
22.4521 -8.7805 -18.2055
25.0735 -7.3024 -19.7213
25.0676 -4.9252 -19.2921
25.5251 -2.6800 -19.3816
25.2757 -0.3847 -19.0895
25.0506 1.8615 -18.9695
23.7916 3.9267 -18.2096
22.3542 5.7786 -17.4360
22.4122 7.9875 -17.9677
22.4052 10.3230 -18.6291
22.8602 13.1236 -19.9057
-12.8514 14.1252 -14.4211
-12.8456 11.8045 -13.1745
-12.8467 9.8432 -12.2217
-12.8424 8.1305 -11.4783
-12.8385 6.6026 -10.9022
-13.6025 5.5218 -11.0862
-14.6771 4.4795 -11.5884
-19.4868 4.0889 -15.0362
-5.7089 0.6735 -4.3411
22.4052 -14.5905 -20.1910
22.3984 -11.8847 -19.1481
22.4541 -9.4522 -18.3977
24.1169 -7.7000 -19.1180
25.0693 -5.5969 -19.3975
25.1143 -3.2900 -19.1275
25.2575 -1.0328 -19.0895
25.0522 1.2167 -18.9409
25.0430 3.4761 -19.0929
22.3557 5.1712 -17.3280
22.3503 7.3256 -17.7615
22.4073 9.6353 -18.4193
22.3384 12.0733 -19.1754
-12.8533 14.8764 -14.8465
-12.8471 12.4285 -13.4986
-12.8420 10.3730 -12.4663
-12.8435 8.6004 -11.6727
-12.8396 7.0252 -11.0525
-13.0656 5.6983 -10.7643
-14.5575 4.8544 -11.5884
-17.5591 4.1572 -13.6265
23.6688 -16.2927 -21.6992
22.4003 -12.6323 -19.4203
22.4562 -10.1386 -18.6064
22.8349 -7.9415 -18.2572
25.0710 -6.2762 -19.5170
25.0651 -3.9397 -19.1607
25.2227 -1.6801 -19.0895
25.2720 0.5784 -19.0895
25.0482 2.8242 -19.0354
22.5250 4.6052 -17.3619
22.3519 6.6960 -17.6205
22.4093 8.9624 -18.2260
22.3402 11.3439 -18.9209
-12.8488 13.0844 -13.8484
-12.8434 10.9301 -12.7357
-12.8448 9.0867 -11.8817
-12.8407 7.4599 -11.2145
-12.8665 6.0087 -10.7236
-14.4282 5.2261 -11.5884
-15.5251 4.0988 -12.1257
-5.7179 0.4546 -4.3315
22.4022 -13.4020 -19.7136
22.4255 -10.8253 -18.8048
22.4924 -8.4749 -18.1512
25.0727 -6.9646 -19.6509
25.0668 -4.6016 -19.2459
26.5059 -2.4497 -20.1016
25.2785 -0.0699 -19.0895
25.0498 2.1755 -18.9879
23.8362 4.2397 -18.2828
22.3534 6.0764 -17.4931
22.4113 8.3031 -18.0484
22.4042 10.6627 -18.7372
-12.8505 13.7757 -14.2265
-12.8448 11.5121 -13.0256
-12.8460 9.5912 -12.1065
-12.8418 7.9078 -11.3889
-12.8380 6.4015 -10.8332
-13.9641 5.4670 -11.3246
-14.7318 4.2964 -11.5884
-21.0641 4.1466 -16.2121
-5.6563 0.5960 -4.2951
22.4042 -14.1956 -20.0292
22.3975 -11.5291 -19.0231
22.4531 -9.1242 -18.3024
25.0744 -7.6629 -19.7998
25.0684 -5.2698 -19.3446
25.2072 -2.9834 -19.1684
25.2684 -0.7180 -19.0895
25.0514 1.5296 -18.9532
24.0055 3.6373 -18.3350
22.3550 5.4652 -17.3789
22.4132 7.6561 -17.8859
22.4063 9.9672 -18.5191
22.3704 12.4529 -19.3345
-12.8523 14.5061 -14.6356
-12.8464 12.1217 -13.3381
-12.8413 10.1108 -12.3425
-12.8430 8.3702 -11.5765
-12.8391 6.8186 -10.9781
-13.2224 5.5718 -10.8354
-14.6168 4.6727 -11.5884
-18.2967 4.0919 -14.1583
23.7254 -15.8998 -21.5678
22.3994 -12.2666 -19.2856
22.4552 -9.8033 -18.5029
23.2478 -7.7619 -18.5086
25.0701 -5.9453 -19.4572
25.0643 -3.6203 -19.1241
25.2417 -1.3658 -19.0895
25.2628 0.8931 -19.0895
25.0474 3.1405 -19.0630
22.4331 4.8782 -17.3366
22.3511 7.0002 -17.6872
22.4083 9.2874 -18.3178
22.3394 11.6956 -19.0421
-12.8487 13.0650 -13.6615
-12.8433 10.9137 -12.5653
-12.8447 9.0725 -11.7241
-12.8407 7.4472 -11.0667
-12.8713 5.9994 -10.5872
-14.6184 5.2828 -11.5884
-15.5713 4.0987 -12.0044
-5.7260 0.4510 -4.2821
22.4022 -13.3795 -19.4536
22.4582 -10.8207 -18.5856
22.4993 -8.4585 -17.9203
25.0726 -6.9446 -19.3964
25.1927 -4.6055 -19.0934
26.5047 -2.4298 -19.8431
25.6050 -0.0519 -19.0895
25.1131 2.1997 -18.7944
23.7335 4.2394 -17.9742
22.3534 6.0940 -17.2735
22.4112 8.3219 -17.8231
22.4041 10.6829 -18.5048
-12.8505 13.7552 -14.0339
-12.8448 11.4950 -12.8510
-12.8460 9.5764 -11.9455
-12.8418 7.8948 -11.2385
-12.8380 6.3897 -10.6912
-14.1486 5.5272 -11.3246
-14.9253 4.3408 -11.5884
-21.1450 4.1464 -16.0646
-5.6542 0.5916 -4.2385
22.4041 -14.1725 -19.7645
22.4350 -11.5278 -18.8049
22.4531 -9.1049 -18.0635
25.0744 -7.6426 -19.5429
25.0684 -5.2504 -19.0949
25.4350 -2.9913 -19.0934
25.5953 -0.7085 -19.0895
25.1150 1.5521 -18.7599
23.9925 3.6535 -18.0934
22.3549 5.4827 -17.1603
22.3495 7.6528 -17.6121
22.4062 9.9870 -18.2889
22.3827 12.4814 -19.1062
-12.8523 14.4845 -14.4369
-12.8463 12.1037 -13.1589
-12.8413 10.0954 -12.1780
-12.8429 8.3567 -11.4234
-12.8391 6.8064 -10.8339
-13.2318 5.5642 -10.7015
-14.8090 4.7221 -11.5884
-18.3595 4.0917 -14.0235
22.4062 -14.9918 -20.0990
22.3993 -12.2451 -19.0320
22.4551 -9.7836 -18.2611
23.3062 -7.7622 -18.3140
25.0701 -5.9257 -19.2057
25.3499 -3.6425 -19.0934
25.5687 -1.3646 -19.0895
25.2969 0.9130 -18.8720
25.0473 3.1592 -18.8217
22.4281 4.8945 -17.1145
22.3511 7.0183 -17.4657
22.4083 9.3067 -18.0898
22.3419 11.7180 -18.8086
-12.8479 12.7428 -13.4909
-12.8427 10.6405 -12.4340
-12.8441 8.8344 -11.6222
-12.8401 7.2347 -10.9878
-12.9526 5.8421 -10.5934
-14.6831 5.1003 -11.5884
-16.3900 4.0967 -12.5953
23.7205 -16.7675 -21.6567
22.4012 -13.0031 -19.3106
22.4572 -10.4776 -18.4753
22.6162 -8.1825 -17.9308
25.0718 -6.6093 -19.3305
25.2481 -4.2914 -19.0934
25.6483 -2.0296 -19.1815
25.6037 0.2670 -19.0895
25.0977 2.5140 -18.8049
22.7994 4.3662 -17.3066
22.3526 6.3940 -17.3331
22.4103 8.6407 -17.9066
22.4031 11.0270 -18.6159
-12.8496 13.4154 -13.8494
-12.8441 11.2094 -12.7097
-12.8454 9.3294 -11.8360
-12.8412 7.6757 -11.1535
-12.8375 6.1911 -10.6257
-14.4870 5.4524 -11.5402
-14.9782 4.1546 -11.5884
-5.6622 0.5212 -4.2392
22.4032 -13.7842 -19.6107
22.4594 -11.1887 -18.7070
22.4521 -8.7805 -17.9734
25.0735 -7.3024 -19.4699
25.1298 -4.9374 -19.0934
25.5251 -2.6800 -19.1345
25.6021 -0.3897 -19.0895
25.1141 1.8662 -18.7751
23.7916 3.9267 -17.9775
22.3542 5.7786 -17.2137
22.3487 7.9648 -17.6883
22.4052 10.3230 -18.3916
22.8602 13.1236 -19.6519
-12.8514 14.1252 -14.2372
-12.8456 11.8045 -13.0065
-12.8467 9.8432 -12.0658
-12.8424 8.1305 -11.3320
-12.8385 6.6026 -10.7632
-13.6025 5.5217 -10.9448
-14.8667 4.5374 -11.5884
-19.4869 4.0889 -14.8445
-5.7081 0.6734 -4.2851
22.4052 -14.5905 -19.9335
22.3984 -11.8847 -18.9040
