ply
format ascii 1.0
element vertex 1942
property float32 x
property float32 y
property float32 z
end_header
-6.4814 -6.2050 -4.2629
-4.3583 -7.2870 -4.0339
-3.6450 -7.5530 -3.9843
-0.0680 -25.3220 -12.0302
2.1412 -24.6334 -11.7471
4.2438 -23.8504 -11.5090
6.2788 -23.0925 -11.3693
8.3053 -22.4133 -11.3558
10.2891 -21.6162 -11.3736
12.3519 -20.9063 -11.5363
16.9944 -23.6527 -13.8368
8.2962 6.4550 -4.9939
7.9168 10.6020 -6.2862
-7.6450 -5.7903 -4.5562
-4.6096 -7.2709 -4.0900
-3.8401 -7.4554 -3.9842
1.5040 -24.7503 -11.7802
3.6406 -24.0750 -11.5678
5.6915 -23.3112 -11.4002
7.7226 -22.6303 -11.3601
9.7268 -21.8840 -11.3775
11.7533 -21.1293 -11.4868
13.7632 -20.2467 -11.6309
18.6286 -22.7367 -13.9645
7.5683 4.5968 -4.2069
-7.9063 -5.6707 -4.6224
-4.0462 -7.3776 -3.9975
-1.7371 -7.3044 -3.5670
0.8710 -25.1064 -11.9349
3.0307 -24.3021 -11.6351
5.0737 -23.4072 -11.3787
7.1389 -22.8477 -11.3721
9.1427 -22.1015 -11.3630
11.1594 -21.3505 -11.4453
13.2220 -20.5823 -11.6222
18.0006 -23.1744 -13.9410
16.8607 2.7601 -8.1169
7.5340 4.3118 -4.1240
-7.3350 -5.9995 -4.5020
-6.4878 -6.3539 -4.3143
-4.2625 -7.3141 -4.0218
-3.5705 -7.6184 -3.9972
0.2192 -25.2840 -12.0125
2.4133 -24.5320 -11.7111
4.5053 -23.7530 -11.4859
6.5343 -22.9974 -11.3582
8.5148 -22.2012 -11.2966
10.5693 -21.5702 -11.4118
12.6150 -20.8084 -11.5606
17.2986 -23.5081 -13.8663
16.7286 2.2935 -8.0219
8.2290 6.5540 -4.9979
-7.5442 -5.8500 -4.5355
-6.5860 -6.1227 -4.2722
-4.4920 -7.2666 -4.0586
-3.7540 -7.4961 -3.9829
1.7873 -24.7652 -11.7962
3.9046 -23.9767 -11.5411
5.9483 -23.2156 -11.3857
7.9770 -22.5356 -11.3573
9.9823 -21.7888 -11.3862
12.0140 -21.0322 -11.5074
16.6036 -23.8385 -13.8017
8.0440 10.4493 -6.2649
-7.7859 -5.7194 -4.5897
-3.9561 -7.4116 -3.9914
-1.6507 -7.3084 -3.5596
1.1518 -25.0018 -11.8906
3.2804 -24.0750 -11.5434
5.3591 -23.4350 -11.4211
7.3939 -22.7527 -11.3660
9.3975 -22.0066 -11.3684
11.4181 -21.2541 -11.4624
13.4891 -20.4829 -11.6518
18.3096 -23.0275 -13.9768
7.5162 4.4157 -4.1415
-7.2739 -6.0887 -4.5066
-4.1671 -7.3407 -4.0102
-2.0828 -8.2209 -4.0290
0.5056 -25.2425 -11.9948
2.6839 -24.4313 -11.6768
4.7658 -23.6560 -11.4644
6.7535 -22.7817 -11.2888
8.8141 -22.2238 -11.3583
10.8264 -21.4744 -11.4254
12.8792 -20.7100 -11.5864
17.6041 -23.3629 -13.8976
16.7415 2.4892 -8.0411
-7.4472 -5.9113 -4.5172
-6.5248 -6.2054 -4.2779
-4.3882 -7.2824 -4.0393
-3.6696 -7.5403 -3.9840
-0.1518 -25.3532 -12.0452
2.0617 -24.6630 -11.7579
4.1676 -23.8788 -11.5160
6.2044 -23.1202 -11.3728
8.2314 -22.4408 -11.3559
10.2382 -21.6935 -11.3964
12.2112 -20.8247 -11.4690
16.9062 -23.6946 -13.8287
8.3429 6.4473 -5.0092
7.9140 10.5255 -6.2563
7.9904 10.4508 -6.1509
-7.7835 -5.7573 -4.5266
-3.9428 -7.4459 -3.9394
-1.6301 -7.3302 -3.5110
1.2330 -24.9716 -11.6899
3.3752 -24.1738 -11.4123
5.4341 -23.4071 -11.2352
7.4679 -22.7251 -11.1843
9.4716 -21.9790 -11.1901
11.4935 -21.2260 -11.2859
13.5670 -20.4539 -11.4759
18.3996 -22.9847 -13.7659
7.5558 4.4725 -4.1053
-8.0234 -5.6179 -4.5796
-4.1669 -7.3972 -3.9696
-3.4439 -7.6376 -3.9173
-2.0534 -8.2184 -3.9607
0.5882 -25.2117 -11.7911
2.7622 -24.4021 -11.4823
4.8414 -23.6278 -11.2769
6.8475 -22.8221 -11.1406
8.8881 -22.1963 -11.1792
10.9013 -21.4465 -11.2486
12.9562 -20.6813 -11.4105
17.6932 -23.3205 -13.6867
16.8289 2.5591 -7.9590
-8.3289 -5.5147 -4.6705
-6.5087 -6.2312 -4.2130
-3.6412 -7.5451 -3.9171
-0.0684 -25.4562 -11.9023
2.1412 -24.6334 -11.5610
4.2438 -23.8504 -11.3266
6.2788 -23.0925 -11.1891
8.3053 -22.4133 -11.1759
10.2891 -21.6162 -11.1934
12.3519 -20.9063 -11.3535
16.9944 -23.6527 -13.6176
8.2960 6.4548 -4.9146
7.9164 10.6014 -6.1863
-31.0308 30.8202 -20.4489
-7.6916 -5.8256 -4.5113
-3.8481 -7.4710 -3.9293
1.5040 -24.7503 -11.5936
3.6406 -24.0750 -11.3844
5.6915 -23.3112 -11.2195
7.7226 -22.6303 -11.1801
9.7268 -21.8840 -11.1972
11.7533 -21.1293 -11.3047
13.7632 -20.2467 -11.4466
18.6286 -22.7367 -13.7432
7.5626 4.5933 -4.1371
-7.9116 -5.6746 -4.5523
-4.0656 -7.4129 -3.9530
-3.3628 -7.6897 -3.9241
-1.7371 -7.3042 -3.5104
0.8710 -25.1064 -11.7458
3.0307 -24.3021 -11.4507
5.0737 -23.4072 -11.1984
7.1389 -22.8477 -11.1919
9.1427 -22.1015 -11.1830
11.1594 -21.3505 -11.2639
13.2220 -20.5823 -11.4380
18.0006 -23.1744 -13.7201
16.8553 2.7592 -7.9857
7.6266 4.3648 -4.1086
-8.1781 -5.5493 -4.6209
-6.4878 -6.3539 -4.2459
-4.3094 -7.3946 -4.0017
-3.5526 -7.5801 -3.9141
0.2198 -25.3489 -11.8525
2.4133 -24.5320 -11.5255
4.5053 -23.7530 -11.3039
6.5343 -22.9974 -11.1782
8.5148 -22.2012 -11.1176
10.5693 -21.5702 -11.2310
12.6150 -20.8084 -11.3774
17.2986 -23.5081 -13.6465
8.2287 6.5538 -4.9186
-32.3744 31.4326 -21.0977
-7.6117 -5.9023 -4.5035
-6.6471 -6.1796 -4.2435
-3.7570 -7.5021 -3.9229
1.7873 -24.7652 -11.6093
3.9046 -23.9767 -11.3582
5.9483 -23.2156 -11.2053
7.9770 -22.5356 -11.1773
9.9822 -21.7888 -11.2058
12.0140 -21.0322 -11.3250
16.6036 -23.8385 -13.5830
7.6373 4.7583 -4.2072
8.0437 10.4489 -6.1654
-7.8123 -5.7388 -4.5323
-3.9705 -7.4386 -3.9424
-1.6506 -7.3082 -3.5031
1.1518 -25.0018 -11.7022
3.2804 -24.0750 -11.3605
5.3591 -23.4350 -11.2401
7.3939 -22.7527 -11.1858
9.3975 -22.0066 -11.1883
11.4181 -21.2541 -11.2808
13.4891 -20.4829 -11.4671
18.3096 -23.0275 -13.7553
7.5652 4.4445 -4.1024
-8.0562 -5.6013 -4.5877
-4.1969 -7.3933 -3.9750
-3.4684 -7.6247 -3.9165
-2.0828 -8.2209 -3.9652
0.5056 -25.2425 -11.8047
2.6839 -24.4313 -11.4918
4.7658 -23.6560 -11.2828
6.7535 -22.7817 -11.1099
8.8141 -22.2238 -11.1783
10.8264 -21.4744 -11.2444
12.8792 -20.7100 -11.4028
17.6041 -23.3629 -13.6774
16.8360 2.5033 -7.9583
-6.5328 -6.2130 -4.2153
-3.6673 -7.5355 -3.9184
-0.1518 -25.3532 -11.8543
2.0617 -24.6630 -11.5716
4.1676 -23.8788 -11.3335
6.2044 -23.1202 -11.1925
8.2314 -22.4408 -11.1760
10.2382 -21.6935 -11.2158
12.2112 -20.8247 -11.2872
16.9062 -23.6946 -13.6095
8.3425 6.4470 -4.9296
7.9136 10.5249 -6.1568
7.6148 4.7792 -4.1362
7.9901 10.4504 -6.0523
-3.9735 -7.5039 -3.9065
-3.2434 -7.7228 -3.8537
-1.6301 -7.3300 -3.4547
1.2330 -24.9716 -11.5028
3.3752 -24.1738 -11.2296
5.4341 -23.4071 -11.0554
7.4679 -22.7251 -11.0053
9.4716 -21.9790 -11.0109
11.4935 -21.2260 -11.1053
13.5670 -20.4539 -11.2922
18.3996 -22.9847 -13.5456
7.6195 4.5103 -4.0736
-8.0573 -5.6416 -4.5253
-3.4424 -7.6344 -3.8529
-2.0534 -8.2184 -3.8973
0.5882 -25.2117 -11.6024
2.7622 -24.4021 -11.2985
4.8414 -23.6278 -11.0964
6.8475 -22.8221 -10.9623
8.8881 -22.1963 -11.0002
10.9013 -21.4465 -11.0685
12.9562 -20.6813 -11.2279
17.6932 -23.3205 -13.4676
-8.3008 -5.4960 -4.5802
-6.5064 -6.2290 -4.1441
-3.6511 -7.5655 -3.8648
-0.0684 -25.4562 -11.7118
2.1412 -24.6334 -11.3759
4.2438 -23.8504 -11.1453
6.2788 -23.0925 -11.0100
8.3053 -22.4133 -10.9969
10.2891 -21.6162 -11.0142
12.3519 -20.9063 -11.1718
16.9944 -23.6527 -13.3996
8.2957 6.4546 -4.8358
7.9160 10.6009 -6.0869
-8.6203 -5.3904 -4.6775
-3.8707 -7.5148 -3.8890
-3.1590 -7.7678 -3.8580
1.5040 -24.7503 -11.4080
3.6406 -24.0750 -11.2022
5.6915 -23.3112 -11.0399
7.7226 -22.6303 -11.0011
9.7268 -21.8840 -11.0179
11.7533 -21.1293 -11.1238
13.7632 -20.2467 -11.2634
18.6286 -22.7367 -13.5232
7.5883 4.6090 -4.0847
-7.9695 -5.7161 -4.5121
-3.3531 -7.6673 -3.8501
-1.7370 -7.3040 -3.4541
0.8710 -25.1064 -11.5577
3.0307 -24.3021 -11.2674
5.0737 -23.4072 -11.0191
7.1389 -22.8477 -11.0128
9.1427 -22.1015 -11.0040
11.1594 -21.3505 -11.0836
13.2220 -20.5823 -11.2549
18.0006 -23.1744 -13.5004
16.8863 2.7643 -7.8723
-8.1881 -5.5561 -4.5525
-6.4878 -6.3539 -4.1779
-3.5581 -7.5918 -3.8574
0.2198 -25.3489 -11.6628
2.4133 -24.5320 -11.3410
4.5053 -23.7530 -11.1229
6.5343 -22.9974 -10.9993
8.5148 -22.2012 -10.9396
10.5693 -21.5702 -11.0512
12.6150 -20.8084 -11.1953
17.2986 -23.5081 -13.4281
8.2284 6.5536 -4.8396
-8.4598 -5.4246 -4.6235
-6.6432 -6.1759 -4.1731
-3.7731 -7.5344 -3.8767
1.7873 -24.7652 -11.4234
3.9046 -23.9767 -11.1763
5.9483 -23.2156 -11.0259
7.9770 -22.5356 -10.9984
9.9822 -21.7888 -11.0264
12.0140 -21.0322 -11.1437
16.6036 -23.8385 -13.3655
7.6051 4.7382 -4.1224
8.0435 10.4486 -6.0665
-4.0035 -7.5005 -3.9116
-3.2679 -7.7097 -3.8525
-1.6505 -7.3079 -3.4469
1.1518 -25.0018 -11.5149
3.2804 -24.0750 -11.1786
5.3591 -23.4350 -11.0602
7.3939 -22.7527 -11.0068
9.3975 -22.0066 -11.0091
11.4181 -21.2541 -11.1002
13.4891 -20.4829 -11.2836
18.3096 -23.0275 -13.5351
7.6290 4.4820 -4.0708
-8.0867 -5.6225 -4.5314
-3.4685 -7.6248 -3.8539
-2.0828 -8.2209 -3.9017
0.5056 -25.2425 -11.6157
2.6839 -24.4313 -11.3078
4.7658 -23.6560 -11.1021
6.7535 -22.7817 -10.9321
8.8141 -22.2238 -10.9994
10.8264 -21.4744 -11.0644
12.8792 -20.7100 -11.2203
17.6041 -23.3629 -13.4584
-8.3346 -5.4789 -4.5888
-6.5305 -6.2109 -4.1463
-3.6785 -7.5586 -3.8675
-0.1518 -25.3532 -11.6645
2.0617 -24.6630 -11.3864
4.1676 -23.8788 -11.1520
6.2044 -23.1202 -11.0134
8.2314 -22.4408 -10.9971
10.2382 -21.6935 -11.0363
12.2112 -20.8247 -11.1065
16.9062 -23.6946 -13.3917
8.3421 6.4466 -4.8504
7.9132 10.5244 -6.0580
7.6361 4.7926 -4.0807
7.9899 10.4501 -5.9541
-8.7118 -5.3110 -4.6182
-3.2434 -7.7229 -3.7914
-1.6300 -7.3297 -3.3987
1.2330 -24.9716 -11.3167
3.3752 -24.1738 -11.0479
5.4341 -23.4071 -10.8765
7.4679 -22.7251 -10.8272
9.4716 -21.9790 -10.8328
11.4935 -21.2260 -10.9256
13.5670 -20.4539 -11.1095
18.3996 -22.9847 -13.3264
-3.4532 -7.6582 -3.8024
-2.0534 -8.2184 -3.8342
0.5882 -25.2117 -11.4147
2.7622 -24.4021 -11.1157
4.8414 -23.6278 -10.9169
6.8475 -22.8221 -10.7849
8.8881 -22.1963 -10.8222
10.9013 -21.4465 -10.8894
12.9562 -20.6813 -11.0462
17.6932 -23.3205 -13.2497
-8.3379 -5.5206 -4.5263
-6.5161 -6.2382 -4.0831
-3.6754 -7.6159 -3.8276
-2.9586 -7.8545 -3.7990
-0.0684 -25.4562 -11.5223
2.1412 -24.6334 -11.1919
4.2438 -23.8504 -10.9650
6.2788 -23.0925 -10.8319
8.3053 -22.4133 -10.8190
10.2891 -21.6162 -10.8360
12.3519 -20.9063 -10.9910
16.9944 -23.6527 -13.1828
7.6869 4.9470 -4.1376
8.2955 6.4544 -4.7575
7.9157 10.6004 -5.9882
-31.6178 31.4032 -20.1705
-8.5868 -5.3695 -4.5840
-3.1540 -7.7555 -3.7895
1.5040 -24.7503 -11.2234
3.6406 -24.0750 -11.0210
5.6915 -23.3112 -10.8613
7.7226 -22.6303 -10.8232
9.7268 -21.8840 -10.8397
11.7533 -21.1293 -10.9438
13.7632 -20.2467 -11.0812
18.6286 -22.7367 -13.3044
7.6509 4.6469 -4.0517
-34.0314 29.7646 -20.4640
-3.3591 -7.6810 -3.7946
-1.7370 -7.3038 -3.3981
0.8710 -25.1064 -11.3707
3.0307 -24.3021 -11.0851
5.0737 -23.4072 -10.8409
7.1389 -22.8477 -10.8346
9.1427 -22.1015 -10.8259
11.1594 -21.3505 -10.9043
13.2220 -20.5823 -11.0728
18.0006 -23.1744 -13.2820
16.8839 2.7639 -7.7439
-8.2525 -5.5998 -4.5141
-6.4878 -6.3539 -4.1103
-3.5751 -7.6282 -3.8132
-2.8856 -7.9328 -3.8208
0.2198 -25.3489 -11.4741
2.4133 -24.5320 -11.1575
4.5053 -23.7530 -10.9430
6.5343 -22.9974 -10.8213
8.5148 -22.2012 -10.7627
10.5693 -21.5702 -10.8724
12.6149 -20.8084 -11.0141
17.2986 -23.5081 -13.2108
8.2281 6.5533 -4.7612
-32.2923 31.3528 -20.3723
-8.4716 -5.4322 -4.5551
-6.6517 -6.1838 -4.1108
-3.8216 -7.6311 -3.8630
-3.0676 -7.7957 -3.7919
1.7873 -24.7652 -11.2386
3.9046 -23.9767 -10.9955
5.9483 -23.2156 -10.8475
7.9770 -22.5356 -10.8205
9.9822 -21.7888 -10.8480
12.0140 -21.0322 -10.9635
16.6036 -23.8385 -13.1493
7.6311 4.7544 -4.0696
8.0432 10.4482 -5.9682
-31.8160 32.5400 -20.5989
-8.7524 -5.2962 -4.6304
-3.2694 -7.7135 -3.7920
-1.6505 -7.3077 -3.3910
1.1518 -25.0018 -11.3286
3.2804 -24.0750 -10.9978
5.3591 -23.4350 -10.8812
7.3939 -22.7527 -10.8287
9.3975 -22.0066 -10.8310
11.4181 -21.2541 -10.9206
13.4891 -20.4829 -11.1010
18.3096 -23.0275 -13.3161
-3.4806 -7.6515 -3.8048
-2.0828 -8.2209 -3.8386
0.5056 -25.2425 -11.4278
2.6839 -24.4313 -11.1249
4.7658 -23.6560 -10.9225
6.7535 -22.7817 -10.7552
8.8141 -22.2238 -10.8214
10.8264 -21.4744 -10.8854
12.8792 -20.7100 -11.0388
17.6041 -23.3629 -13.2407
-8.3679 -5.5009 -4.5327
-6.5388 -6.2188 -4.0845
-3.7052 -7.6133 -3.8324
-2.9832 -7.8412 -3.7974
-0.1518 -25.3532 -11.4758
2.0617 -24.6630 -11.2021
4.1676 -23.8788 -10.9716
6.2044 -23.1202 -10.8352
8.2314 -22.4408 -10.8192
10.2382 -21.6935 -10.8577
12.2112 -20.8247 -10.9269
16.9062 -23.6946 -13.1750
7.6483 4.8865 -4.1081
8.3417 6.4463 -4.7717
7.9128 10.5240 -5.9597
7.6721 4.8152 -4.0329
7.9896 10.4497 -5.8566
-8.7317 -5.3232 -4.5531
-3.2544 -7.7491 -3.7420
-1.6300 -7.3295 -3.3430
1.2330 -24.9716 -11.1316
3.3752 -24.1738 -10.8673
5.4341 -23.4071 -10.6987
7.4679 -22.7251 -10.6502
9.4716 -21.9790 -10.6556
11.4935 -21.2260 -10.7470
13.5670 -20.4539 -10.9278
18.3996 -22.9847 -13.1085
-9.0147 -5.1790 -4.6288
-3.4781 -7.7133 -3.7672
-2.7579 -7.9421 -3.7432
-2.0534 -8.2184 -3.7715
0.5882 -25.2117 -11.2280
2.7622 -24.4021 -10.9339
4.8413 -23.6278 -10.7384
6.8475 -22.8221 -10.6086
8.8881 -22.1963 -10.6453
10.9013 -21.4465 -10.7114
12.9562 -20.6813 -10.8656
17.6932 -23.3205 -13.0331
-44.8452 -2.1772 -19.9899
-6.5315 -6.2530 -4.0258
-2.9543 -7.8432 -3.7315
-0.0684 -25.4562 -11.3339
2.1412 -24.6334 -11.0088
4.2438 -23.8504 -10.7857
6.2788 -23.0925 -10.6547
8.3053 -22.4133 -10.6421
10.2891 -21.6162 -10.6588
12.3519 -20.9063 -10.8113
16.9944 -23.6527 -12.9673
7.6797 4.9424 -4.0661
8.2952 6.4543 -4.6795
7.9153 10.5999 -5.8900
-32.1830 31.9645 -20.1953
-8.6263 -5.3942 -4.5298
-3.1603 -7.7710 -3.7351
1.5040 -24.7503 -11.0399
3.6406 -24.0750 -10.8407
5.6915 -23.3112 -10.6837
7.7226 -22.6303 -10.6462
9.7268 -21.8840 -10.6624
11.7533 -21.1293 -10.7648
13.7632 -20.2467 -10.9000
18.6286 -22.7367 -13.0869
7.7495 4.7069 -4.0369
-8.8823 -5.2380 -4.5911
-3.3762 -7.7203 -3.7516
-2.6840 -8.0222 -3.7663
-1.7369 -7.3035 -3.3424
0.8710 -25.1064 -11.1848
3.0307 -24.3021 -10.9038
5.0737 -23.4072 -10.6636
7.1389 -22.8477 -10.6574
9.1427 -22.1015 -10.6489
11.1594 -21.3505 -10.7260
13.2220 -20.5823 -10.8918
18.0006 -23.1744 -13.0648
16.8814 2.7635 -7.6161
-6.4878 -6.3539 -4.0431
-2.8674 -7.8826 -3.7345
0.2198 -25.3489 -11.2865
2.4133 -24.5320 -10.9751
4.5053 -23.7530 -10.7641
6.5343 -22.9974 -10.6444
8.5148 -22.2012 -10.5867
10.5693 -21.5702 -10.6946
12.6150 -20.8084 -10.8340
17.2986 -23.5081 -12.9948
7.7624 5.1211 -4.1404
8.2278 6.5531 -4.6832
-8.5410 -5.4767 -4.5173
-6.5700 -6.1079 -3.9940
-3.0699 -7.8016 -3.7327
1.7873 -24.7652 -11.0548
3.9046 -23.9767 -10.8157
5.9483 -23.2156 -10.6701
7.9770 -22.5356 -10.6435
9.9822 -21.7888 -10.6706
12.0140 -21.0322 -10.7842
16.6036 -23.8385 -12.9343
7.6821 4.7861 -4.0298
8.0429 10.4478 -5.8704
-8.7626 -5.3024 -4.5600
-3.2818 -7.7427 -3.7442
-1.6504 -7.3074 -3.3354
1.1518 -25.0018 -11.1433
3.2804 -24.0750 -10.8179
5.3591 -23.4350 -10.7033
7.3939 -22.7527 -10.6516
9.3975 -22.0066 -10.6539
11.4181 -21.2541 -10.7420
13.4891 -20.4829 -10.9195
18.3096 -23.0275 -13.0984
-9.0571 -5.1637 -4.6418
-3.5078 -7.7113 -3.7718
-2.7826 -7.9287 -3.7412
-2.0828 -8.2209 -3.7758
0.5056 -25.2425 -11.2409
2.6839 -24.4313 -10.9429
4.7658 -23.6560 -10.7439
6.7535 -22.7817 -10.5794
8.8141 -22.2238 -10.6445
10.8264 -21.4744 -10.7074
12.8792 -20.7100 -10.8583
17.6041 -23.3629 -13.0242
-33.0889 31.4043 -20.3110
-44.8253 -2.0279 -19.9779
-6.5027 -6.1844 -3.9955
-2.9804 -7.8338 -3.7317
-0.1518 -25.3532 -11.2882
2.0617 -24.6630 -11.0190
4.1676 -23.8788 -10.7922
6.2044 -23.1202 -10.6580
8.2314 -22.4408 -10.6422
10.2382 -21.6935 -10.6802
12.2112 -20.8247 -10.7482
16.9062 -23.6946 -12.9596
7.6746 4.9034 -4.0548
8.3413 6.4460 -4.6935
7.9126 10.5237 -5.8621
7.7377 4.8564 -4.0001
7.9893 10.4494 -5.7595
-45.7178 -0.5096 -20.0196
-8.8330 -5.3849 -4.5298
-3.2788 -7.8072 -3.7078
-2.5567 -8.0309 -3.6904
-1.6299 -7.3292 -3.2876
1.2330 -24.9716 -10.9476
3.3752 -24.1738 -10.6876
5.4341 -23.4071 -10.5218
7.4679 -22.7251 -10.4741
9.4716 -21.9790 -10.4795
11.4935 -21.2260 -10.5693
13.5670 -20.4539 -10.7472
18.3996 -22.9847 -12.8918
-31.2264 33.4228 -20.0282
-45.3186 -3.3836 -19.8988
-9.0302 -5.1879 -4.5601
-2.7539 -7.9306 -3.6760
-2.0534 -8.2184 -3.7092
0.5882 -25.2117 -11.0424
2.7622 -24.4021 -10.7531
4.8413 -23.6278 -10.5608
6.8475 -22.8221 -10.4332
8.8881 -22.1963 -10.4693
10.9013 -21.4465 -10.5343
12.9562 -20.6813 -10.6859
17.6932 -23.3205 -12.8176
-33.0548 31.1651 -19.8923
-44.8452 -2.1772 -19.6594
-9.3308 -5.0425 -4.6441
-6.5106 -6.2330 -3.9466
-2.9604 -7.8594 -3.6774
-0.0684 -25.4562 -11.1465
2.1412 -24.6334 -10.8268
4.2438 -23.8504 -10.6073
6.2788 -23.0925 -10.4786
8.3053 -22.4133 -10.4662
10.2891 -21.6162 -10.4826
12.3519 -20.9063 -10.6326
16.9944 -23.6527 -12.7529
7.7062 4.9594 -4.0127
8.2950 6.4541 -4.6020
7.9149 10.5993 -5.7923
-45.7673 -1.0297 -20.0448
-3.1769 -7.8119 -3.6926
1.5040 -24.7503 -10.8574
3.6406 -24.0750 -10.6615
5.6915 -23.3112 -10.5071
7.7226 -22.6303 -10.4702
9.7268 -21.8840 -10.4862
11.7533 -21.1293 -10.5869
13.7632 -20.2467 -10.7198
18.6286 -22.7367 -12.8705
-34.3016 30.0009 -19.9538
-45.5652 -3.9227 -20.0253
-8.9218 -5.2613 -4.5353
-2.6668 -7.9706 -3.6802
-1.7369 -7.3033 -3.2871
0.8710 -25.1064 -10.9999
3.0307 -24.3021 -10.7235
5.0737 -23.4072 -10.4873
7.1389 -22.8477 -10.4812
9.1427 -22.1015 -10.4729
11.1594 -21.3505 -10.5486
13.2220 -20.5823 -10.7117
18.0006 -23.1744 -12.8488
16.8790 2.7631 -7.4891
-45.0049 -2.6976 -19.7416
-9.1881 -5.1010 -4.6016
-6.4878 -6.3539 -3.9763
-2.8698 -7.8892 -3.6759
0.2198 -25.3489 -11.0999
2.4133 -24.5320 -10.7936
4.5053 -23.7530 -10.5861
6.5343 -22.9974 -10.4684
8.5148 -22.2012 -10.4116
10.5693 -21.5702 -10.5178
12.6150 -20.8084 -10.6549
17.2986 -23.5081 -12.7800
7.7242 5.0959 -4.0519
8.2275 6.5529 -4.6056
-44.9742 -1.5233 -19.7041
-6.6377 -6.1708 -3.9684
-3.0820 -7.8321 -3.6854
1.7873 -24.7652 -10.8721
3.9046 -23.9767 -10.6369
5.9483 -23.2156 -10.4937
7.9770 -22.5356 -10.4675
9.9823 -21.7888 -10.4942
12.0140 -21.0322 -10.6059
16.6036 -23.8385 -12.7204
7.7477 4.8271 -3.9970
8.0426 10.4475 -5.7731
-45.7630 -0.3590 -20.0387
-8.8351 -5.3463 -4.5218
-3.3085 -7.8057 -3.7122
-2.5816 -8.0173 -3.6880
-1.6504 -7.3072 -3.2802
1.1518 -25.0018 -10.9591
3.2804 -24.0750 -10.6391
5.3591 -23.4350 -10.5263
7.3939 -22.7527 -10.4755
9.3975 -22.0066 -10.4778
11.4181 -21.2541 -10.5644
13.4891 -20.4829 -10.7390
18.3096 -23.0275 -12.8818
-31.0628 33.4685 -19.9940
-45.2475 -3.2281 -19.8628
-9.0619 -5.1664 -4.5675
-2.7800 -7.9213 -3.6759
-2.0828 -8.2209 -3.7134
0.5056 -25.2425 -11.0551
2.6839 -24.4313 -10.7620
4.7658 -23.6560 -10.5663
6.7535 -22.7817 -10.4045
8.8141 -22.2238 -10.4685
10.8264 -21.4744 -10.5304
12.8792 -20.7100 -10.6787
17.6041 -23.3629 -12.8089
-44.8253 -2.0279 -19.6476
-9.3763 -5.0271 -4.6584
-6.5351 -6.2152 -3.9490
-2.9878 -7.8533 -3.6792
-0.1518 -25.3532 -11.1016
2.0617 -24.6630 -10.8368
4.1676 -23.8788 -10.6138
6.2044 -23.1202 -10.4818
8.2314 -22.4408 -10.4663
10.2382 -21.6935 -10.5036
12.2112 -20.8247 -10.5705
16.9062 -23.6946 -12.7453
7.7131 4.9279 -4.0078
8.3408 6.4457 -4.6156
7.9124 10.5234 -5.7650
7.8699 4.9393 -4.0004
7.9890 10.4490 -5.6631
-45.7178 -0.5096 -19.6849
-2.5525 -8.0177 -3.6227
-1.6299 -7.3290 -3.2325
1.2330 -24.9716 -10.7645
3.3752 -24.1738 -10.5089
5.4341 -23.4071 -10.3459
7.4679 -22.7251 -10.2990
9.4716 -21.9790 -10.3042
11.4935 -21.2260 -10.3925
13.5670 -20.4539 -10.5675
18.3996 -22.9847 -12.6762
-34.1604 30.5690 -19.7367
-45.3186 -3.3836 -19.5661
-9.1275 -5.2438 -4.5322
-2.7593 -7.9462 -3.6216
-2.0534 -8.2184 -3.6472
0.5882 -25.2117 -10.8578
2.7622 -24.4021 -10.5733
4.8414 -23.6278 -10.3842
6.8475 -22.8221 -10.2587
8.8881 -22.1963 -10.2942
10.9013 -21.4465 -10.3581
12.9562 -20.6813 -10.5073
17.6932 -23.3205 -12.6033
7.8232 5.3274 -4.0751
-44.8452 -2.1772 -19.3307
-9.2405 -4.9937 -4.5222
-6.5054 -6.2280 -3.8775
-2.9759 -7.9005 -3.6348
-2.2778 -8.2030 -3.6654
-0.0684 -25.4562 -10.9601
2.1412 -24.6334 -10.6458
4.2438 -23.8504 -10.4300
6.2788 -23.0925 -10.3034
8.3053 -22.4133 -10.2912
10.2891 -21.6162 -10.3073
12.3519 -20.9063 -10.4548
16.9944 -23.6527 -12.5396
7.7692 4.9999 -3.9778
8.2948 6.4539 -4.5250
7.9145 10.5988 -5.6952
-45.7667 -1.0300 -19.7097
-9.6696 -4.9050 -4.6682
-2.4655 -8.0598 -3.6289
1.5040 -24.7503 -10.6758
3.6406 -24.0750 -10.4832
5.6915 -23.3112 -10.3314
7.7226 -22.6303 -10.2951
9.7268 -21.8840 -10.3108
11.7533 -21.1293 -10.4098
13.7632 -20.2467 -10.5405
18.6286 -22.7367 -12.6553
-31.6798 33.1455 -19.7406
-45.5652 -3.9227 -19.6905
-2.6688 -7.9765 -3.6214
-1.7368 -7.3031 -3.2320
0.8710 -25.1064 -10.8160
3.0307 -24.3021 -10.5442
5.0737 -23.4072 -10.3119
7.1389 -22.8477 -10.3060
9.1427 -22.1015 -10.2977
11.1594 -21.3505 -10.3723
13.2220 -20.5823 -10.5326
18.0006 -23.1744 -12.6340
16.8766 2.7627 -7.3629
-45.0049 -2.6976 -19.4115
-9.2263 -5.1222 -4.5435
-6.4878 -6.3539 -3.9098
-2.8810 -7.9200 -3.6285
0.2198 -25.3489 -10.9143
2.4133 -24.5320 -10.6132
4.5053 -23.7530 -10.4091
6.5343 -22.9974 -10.2934
8.5148 -22.2012 -10.2375
10.5693 -21.5702 -10.3419
12.6149 -20.8084 -10.4768
17.2986 -23.5081 -12.5663
7.7510 5.1136 -3.9980
8.2273 6.5527 -4.5284
-44.9743 -1.5233 -19.3746
-9.3360 -4.8699 -4.5335
-6.6460 -6.1785 -3.9069
-3.1073 -7.8966 -3.6536
-2.3796 -8.1071 -3.6377
1.7873 -24.7652 -10.6903
3.9046 -23.9767 -10.4591
5.9483 -23.2156 -10.3183
7.9770 -22.5356 -10.2925
9.9823 -21.7888 -10.3187
12.0140 -21.0322 -10.4285
16.5308 -23.7340 -12.4529
8.0424 10.4471 -5.6764
-45.7630 -0.3590 -19.7036
-2.5787 -8.0084 -3.6223
-1.6503 -7.3069 -3.2252
1.1518 -25.0018 -10.7759
3.2804 -24.0750 -10.4612
5.3591 -23.4350 -10.3503
7.3939 -22.7527 -10.3004
9.3975 -22.0066 -10.3026
11.4181 -21.2541 -10.3878
13.4891 -20.4829 -10.5594
18.3096 -23.0275 -12.6665
-45.2475 -3.2281 -19.5307
-9.1354 -5.2083 -4.5275
-2.7867 -7.9403 -3.6231
-2.0828 -8.2209 -3.6513
0.5056 -25.2425 -10.8702
2.6839 -24.4313 -10.5821
4.7658 -23.6560 -10.3896
6.7535 -22.7817 -10.2305
8.8141 -22.2238 -10.2934
10.8264 -21.4744 -10.3543
12.8792 -20.7100 -10.5002
17.6041 -23.3629 -12.5947
7.7783 5.2594 -4.0426
-44.8253 -2.0279 -19.3191
-9.2738 -4.9722 -4.5305
-6.5296 -6.2100 -3.8797
-3.0054 -7.8997 -3.6390
-2.3001 -8.1787 -3.6579
-0.1518 -25.3532 -10.9159
2.0617 -24.6630 -10.6556
4.1676 -23.8788 -10.4363
6.2044 -23.1202 -10.3065
8.2314 -22.4408 -10.2913
10.2382 -21.6935 -10.3280
12.2112 -20.8247 -10.3937
16.9062 -23.6946 -12.5322
7.7794 4.9703 -3.9746
8.3404 6.4454 -4.5382
7.9121 10.5231 -5.6685
7.9888 10.4487 -5.5671
-31.9566 32.4687 -19.2826
-45.7178 -0.5096 -19.3519
-9.7954 -4.8298 -4.6226
-2.5570 -8.0317 -3.5676
-1.6298 -7.3287 -3.1778
1.2330 -24.9716 -10.5824
3.3752 -24.1738 -10.3312
5.4341 -23.4071 -10.1709
7.4679 -22.7251 -10.1248
9.4716 -21.9790 -10.1300
11.4935 -21.2260 -10.2168
13.5670 -20.4539 -10.3887
18.3190 -22.8839 -12.4072
-45.3186 -3.3836 -19.2351
-2.7733 -7.9863 -3.5783
-2.0534 -8.2184 -3.5855
0.5882 -25.2117 -10.6741
2.7622 -24.4021 -10.3945
4.8414 -23.6278 -10.2086
6.8475 -22.8221 -10.0852
8.8881 -22.1963 -10.1201
10.9013 -21.4465 -10.1829
12.9562 -20.6813 -10.3295
17.6156 -23.2183 -12.3358
7.8006 5.3121 -3.9946
-44.8452 -2.1772 -19.0037
-9.2266 -4.9862 -4.4391
-6.5118 -6.2341 -3.8156
-2.2623 -8.1472 -3.5789
-0.0684 -25.4562 -10.7747
2.1412 -24.6334 -10.4657
4.2438 -23.8504 -10.2536
6.2788 -23.0925 -10.1291
8.3053 -22.4133 -10.1171
10.2891 -21.6162 -10.1330
12.3519 -20.9063 -10.2780
16.9199 -23.5490 -12.2735
7.8643 5.0612 -3.9584
8.2945 6.4537 -4.4483
7.9141 10.5983 -5.5986
-45.7667 -1.0300 -19.3763
-9.6584 -4.8994 -4.5840
-2.4666 -8.0635 -3.5691
1.5040 -24.7503 -10.4952
3.6406 -24.0750 -10.3059
5.6915 -23.3112 -10.1566
7.7226 -22.6303 -10.1210
9.7268 -21.8840 -10.1364
11.7533 -21.1293 -10.2338
13.7632 -20.2467 -10.3622
18.6286 -22.7367 -12.4412
-45.5652 -3.9227 -19.3574
-2.6787 -8.0062 -3.5734
-1.7368 -7.3029 -3.1773
0.8710 -25.1064 -10.6330
3.0307 -24.3021 -10.3659
5.0737 -23.4072 -10.1375
7.1389 -22.8477 -10.1317
9.1427 -22.1015 -10.1236
11.1594 -21.3505 -10.1968
13.2220 -20.5823 -10.3544
17.9217 -23.0728 -12.3658
16.8742 2.7623 -7.2373
-45.0049 -2.6976 -19.0831
-9.2270 -5.1226 -4.4669
-6.4878 -6.3539 -3.8437
-2.9043 -7.9840 -3.5960
-2.1750 -8.1928 -3.5878
0.2198 -25.3489 -10.7297
2.4133 -24.5320 -10.4336
4.5053 -23.7530 -10.2330
6.5343 -22.9974 -10.1193
8.5148 -22.2012 -10.0644
10.5693 -21.5702 -10.1670
12.6150 -20.8084 -10.2996
17.2227 -23.4051 -12.2996
7.8005 5.1463 -3.9555
8.2270 6.5525 -4.4517
-32.9237 31.9659 -19.4231
-44.9743 -1.5233 -19.0469
-9.3897 -4.8979 -4.4825
-6.6492 -6.1815 -3.8427
-2.3762 -8.0953 -3.5710
1.7873 -24.7652 -10.5095
3.9046 -23.9767 -10.2822
5.9483 -23.2156 -10.1438
7.9770 -22.5356 -10.1184
9.9822 -21.7888 -10.1442
12.0140 -21.0322 -10.2522
16.5530 -23.7658 -12.2587
8.0421 10.4468 -5.5802
-45.7630 -0.3590 -19.3705
-45.8149 -4.4688 -19.4838
-9.8427 -4.8128 -4.6374
-2.5843 -8.0258 -3.5688
-1.6503 -7.3067 -3.1706
1.1518 -25.0018 -10.5936
3.2804 -24.0750 -10.2843
5.3591 -23.4350 -10.1753
7.3939 -22.7527 -10.1261
9.3975 -22.0066 -10.1283
11.4181 -21.2541 -10.2121
13.4891 -20.4829 -10.3808
18.2293 -22.9266 -12.3976
-45.2475 -3.2281 -19.2003
-2.8025 -7.9854 -3.5820
-2.0828 -8.2209 -3.5895
0.5056 -25.2425 -10.6864
2.6839 -24.4313 -10.4031
4.7658 -23.6560 -10.2139
6.7535 -22.7817 -10.0574
8.8141 -22.2238 -10.1193
10.8264 -21.4744 -10.1791
12.8792 -20.7100 -10.3226
17.5269 -23.2604 -12.3274
7.7958 5.2712 -3.9832
-44.8253 -2.0279 -18.9924
-9.2566 -4.9630 -4.4456
-6.5349 -6.2151 -3.8172
-2.2875 -8.1341 -3.5764
-0.1518 -25.3532 -10.7313
2.0617 -24.6630 -10.4754
4.1676 -23.8788 -10.2598
6.2044 -23.1202 -10.1322
8.2314 -22.4408 -10.1172
10.2382 -21.6935 -10.1533
12.2112 -20.8247 -10.2179
16.8321 -23.5907 -12.2662
8.3400 6.4450 -4.4613
7.9119 10.5228 -5.5724
7.9885 10.4483 -5.4716
-45.7178 -0.5096 -19.0207
-45.8881 -4.6290 -19.1872
-9.8298 -4.8468 -4.5595
-2.5698 -8.0719 -3.5241
-1.6298 -7.3285 -3.1233
1.2330 -24.9716 -10.4013
3.3752 -24.1738 -10.1543
5.4341 -23.4071 -9.9968
7.4679 -22.7251 -9.9515
9.4716 -21.9790 -9.9566
11.4935 -21.2260 -10.0419
13.5670 -20.4539 -10.2109
18.3190 -22.8839 -12.1948
-45.3186 -3.3836 -18.9059
-10.1486 -4.6799 -4.6493
-2.0534 -8.2184 -3.5241
0.5882 -25.2117 -10.4914
2.7622 -24.4021 -10.2166
4.8414 -23.6278 -10.0339
6.8475 -22.8221 -9.9126
8.8881 -22.1963 -9.9469
10.9013 -21.4465 -10.0086
12.9562 -20.6813 -10.1527
17.6157 -23.2183 -12.1246
7.8273 5.3302 -3.9396
-45.3757 -2.2030 -18.8994
-9.2382 -4.9924 -4.3686
-6.5305 -6.2520 -3.7611
-2.2632 -8.1506 -3.5191
-0.0684 -25.4562 -10.5903
2.1412 -24.6334 -10.2866
4.2438 -23.8504 -10.0780
6.2788 -23.0925 -9.9557
8.3053 -22.4133 -9.9439
10.2891 -21.6161 -9.9595
12.3519 -20.9063 -10.1020
16.9199 -23.5490 -12.0634
8.2943 6.4535 -4.3720
7.9137 10.5978 -5.5025
-45.7667 -1.0300 -19.0446
-9.7299 -4.9357 -4.5388
-2.4750 -8.0911 -3.5200
1.5040 -24.7503 -10.3156
3.6406 -24.0750 -10.1295
5.6915 -23.3112 -9.9828
7.7226 -22.6303 -9.9477
9.7268 -21.8840 -9.9629
11.7533 -21.1293 -10.0586
13.7632 -20.2467 -10.1849
18.6749 -22.7933 -12.2587
-45.5652 -3.9227 -19.0261
-9.9941 -4.7470 -4.6029
-2.6994 -8.0679 -3.5393
-1.7367 -7.3027 -3.1228
0.8710 -25.1064 -10.4510
3.0307 -24.3021 -10.1885
5.0737 -23.4072 -9.9640
7.1389 -22.8477 -9.9582
9.1427 -22.1015 -9.9503
11.1594 -21.3505 -10.0223
13.2220 -20.5823 -10.1772
17.9217 -23.0728 -12.1542
16.8718 2.7619 -7.1124
7.8486 5.4762 -3.9814
-45.3478 -2.7181 -18.8994
-9.2270 -5.1226 -4.3905
-6.4878 -6.3539 -3.7779
-2.1723 -8.1825 -3.5220
0.2198 -25.3489 -10.5460
2.4133 -24.5320 -10.2550
4.5053 -23.7530 -10.0579
6.5343 -22.9974 -9.9460
8.5148 -22.2012 -9.8921
10.5693 -21.5702 -9.9930
12.6149 -20.8084 -10.1233
17.2227 -23.4051 -12.0890
7.8680 5.1908 -3.9214
8.2267 6.5522 -4.3753
-45.4031 -1.5378 -18.8994
-6.6609 -6.1924 -3.7836
-2.3805 -8.1100 -3.5163
1.7873 -24.7652 -10.3296
3.9046 -23.9767 -10.1062
5.9483 -23.2156 -9.9701
7.9770 -22.5356 -9.9452
9.9823 -21.7888 -9.9706
12.0140 -21.0322 -10.0767
16.5308 -23.7340 -12.0327
8.0418 10.4464 -5.4845
-31.9564 32.6836 -19.0163
-45.7630 -0.3590 -19.0388
-45.8149 -4.4688 -19.1503
-9.8639 -4.8232 -4.5679
-2.5978 -8.0676 -3.5260
-1.6502 -7.3064 -3.1162
1.1518 -25.0018 -10.4123
3.2804 -24.0750 -10.1082
5.3591 -23.4350 -10.0011
7.3939 -22.7527 -9.9528
9.3975 -22.0066 -9.9550
11.4181 -21.2541 -10.0373
13.4891 -20.4829 -10.2031
18.2293 -22.9266 -12.1854
-45.3140 -3.2329 -18.8994
-10.1988 -4.6622 -4.6652
-2.0827 -8.2202 -3.5278
0.5056 -25.2425 -10.5035
2.6839 -24.4313 -10.2250
4.7658 -23.6560 -10.0391
6.7535 -22.7817 -9.8853
8.8141 -22.2238 -9.9461
10.8264 -21.4744 -10.0049
12.8792 -20.7100 -10.1459
17.5269 -23.2604 -12.1164
7.8276 5.2927 -3.9309
-45.3828 -2.0531 -18.8994
-9.2656 -4.9678 -4.3738
-6.5565 -6.2356 -3.7642
-2.2896 -8.1414 -3.5183
-0.1518 -25.3532 -10.5476
2.0617 -24.6630 -10.2961
4.1676 -23.8788 -10.0842
6.2044 -23.1202 -9.9588
8.2314 -22.4408 -9.9440
10.2382 -21.6935 -9.9795
12.2112 -20.8247 -10.0430
16.8321 -23.5907 -12.0562
8.3396 6.4447 -4.3847
7.9117 10.5225 -5.4769
7.9882 10.4480 -5.3766
-45.7178 -0.5096 -18.6911
-45.8881 -4.6290 -18.8548
-2.6073 -8.1897 -3.5136
-1.6297 -7.3282 -3.0691
1.2330 -24.9716 -10.2211
3.3752 -24.1738 -9.9784
5.4341 -23.4071 -9.8236
7.4679 -22.7251 -9.7791
9.4716 -21.9790 -9.7841
11.4935 -21.2260 -9.8679
13.5670 -20.4539 -10.0340
18.3633 -22.9393 -12.0125
-34.4081 30.7907 -18.8762
-46.1018 -3.4420 -18.8994
-10.1635 -4.6868 -4.5755
-2.0534 -8.2184 -3.4630
0.5882 -25.2117 -10.3096
2.7622 -24.4021 -10.0396
4.8414 -23.6278 -9.8600
6.8475 -22.8221 -9.7408
8.8881 -22.1963 -9.7745
10.9013 -21.4465 -9.8352
12.9562 -20.6813 -9.9768
17.6932 -23.3205 -11.9670
7.8807 5.3666 -3.8978
-32.6267 30.7615 -18.3318
-46.1758 -2.2418 -18.8994
-10.5484 -4.5354 -4.6940
-9.2637 -5.0062 -4.3047
-6.5863 -6.3054 -3.7275
-2.2706 -8.1773 -3.4694
-0.0683 -25.4562 -10.4068
2.1412 -24.6334 -10.1084
4.2438 -23.8504 -9.9034
6.2788 -23.0925 -9.7832
8.3053 -22.4133 -9.7717
10.2891 -21.6162 -9.7870
12.3519 -20.9063 -9.9270
16.9944 -23.6527 -11.9066
8.2941 6.4534 -4.2962
7.9133 10.5973 -5.4069
-45.7667 -1.0300 -18.7147
-2.4926 -8.1485 -3.4836
1.5040 -24.7503 -10.1369
3.6406 -24.0750 -9.9540
5.6915 -23.3112 -9.8098
7.7226 -22.6303 -9.7754
9.7268 -21.8840 -9.7903
11.7533 -21.1293 -9.8843
13.7632 -20.2467 -10.0084
18.6286 -22.7367 -12.0164
-46.0598 -3.9653 -18.8994
-10.0505 -4.7738 -4.5487
-1.7367 -7.3025 -3.0686
0.8710 -25.1064 -10.2699
3.0307 -24.3021 -10.0119
5.0737 -23.4072 -9.7914
7.1389 -22.8477 -9.7857
9.1427 -22.1015 -9.7779
11.1594 -21.3505 -9.8486
13.2220 -20.5823 -10.0009
18.0006 -23.1744 -11.9962
16.8694 2.7615 -6.9882
7.8712 5.4920 -3.9237
-46.1473 -2.7660 -18.8994
-10.3435 -4.5871 -4.6257
-9.2270 -5.1226 -4.3144
-6.5191 -6.3846 -3.7303
-2.1762 -8.1973 -3.4672
0.2198 -25.3489 -10.3633
2.4133 -24.5320 -10.0774
4.5053 -23.7530 -9.8836
6.5343 -22.9974 -9.7737
8.5148 -22.2012 -9.7207
10.5693 -21.5702 -9.8198
12.6149 -20.8084 -9.9479
17.2986 -23.5081 -11.9319
8.2264 6.5520 -4.2994
-45.9689 -1.5570 -18.8034
-9.2749 -4.8380 -4.2765
-6.6780 -6.2082 -3.7275
-2.3925 -8.1508 -3.4727
1.7873 -24.7652 -10.1506
3.9046 -23.9767 -9.9311
5.9483 -23.2156 -9.7974
7.9770 -22.5356 -9.7729
9.9822 -21.7888 -9.7978
12.0140 -21.0322 -9.9021
16.6036 -23.8385 -11.8763
8.0415 10.4461 -5.3893
-45.7630 -0.3590 -18.7091
-45.8149 -4.4688 -18.8185
-1.6502 -7.3062 -3.0621
1.1518 -25.0018 -10.2319
3.2804 -24.0750 -9.9331
5.3591 -23.4350 -9.8278
7.3939 -22.7527 -9.7804
9.3975 -22.0066 -9.7825
11.4181 -21.2541 -9.8634
13.4891 -20.4829 -10.0263
18.2875 -22.9998 -12.0125
7.9435 5.6777 -3.9916
-46.1129 -3.2899 -18.8994
-10.1988 -4.6622 -4.5844
-2.0828 -8.2209 -3.4670
0.5056 -25.2425 -10.3215
2.6839 -24.4313 -10.0479
4.7658 -23.6560 -9.8651
6.7535 -22.7817 -9.7140
8.8141 -22.2238 -9.7738
10.8264 -21.4744 -9.8316
12.8792 -20.7100 -9.9701
17.6041 -23.3629 -11.9589
7.8927 5.3367 -3.8950
-46.1829 -2.0893 -18.8994
-9.2011 -4.9332 -4.2680
-6.6070 -6.2837 -3.7275
-2.2980 -8.1714 -3.4701
-0.1518 -25.3532 -10.3649
2.0617 -24.6630 -10.1177
4.1676 -23.8788 -9.9095
6.2044 -23.1202 -9.7862
8.2314 -22.4408 -9.7718
10.2382 -21.6935 -9.8066
12.2112 -20.8247 -9.8690
16.9062 -23.6946 -11.8995
8.3392 6.4444 -4.3085
7.9115 10.5222 -5.3818
7.9880 10.4476 -5.2821
-45.7178 -0.5096 -18.3632
-45.9617 -4.6364 -18.5537
-1.6297 -7.3280 -3.0151
1.2330 -24.9716 -10.0418
3.3752 -24.1738 -9.8034
5.4341 -23.4071 -9.6512
7.4679 -22.7251 -9.6075
9.4716 -21.9790 -9.6124
11.4935 -21.2260 -9.6948
13.5670 -20.4539 -9.8580
18.3996 -22.9847 -11.8251
7.9239 5.7032 -3.9212
-34.5508 30.9183 -18.6219
-2.0534 -8.2184 -3.4023
0.5882 -25.2117 -10.1288
2.7622 -24.4021 -9.8634
4.8414 -23.6278 -9.6870
6.8475 -22.8221 -9.5700
8.8881 -22.1963 -9.6031
10.9013 -21.4465 -9.6627
12.9562 -20.6813 -9.8018
17.6932 -23.3205 -11.7571
7.9465 5.4114 -3.8614
-32.4368 30.5825 -17.9053
-10.5140 -4.5206 -4.5966
-9.2312 -4.9887 -4.2144
-2.2859 -8.2324 -3.4315
-0.0683 -25.4562 -10.2243
2.1412 -24.6334 -9.9311
4.2438 -23.8504 -9.7297
6.2788 -23.0925 -9.6116
8.3053 -22.4133 -9.6002
10.2891 -21.6162 -9.6153
12.3519 -20.9063 -9.7529
16.9944 -23.6527 -11.6977
8.2938 6.4532 -4.2207
7.9130 10.5968 -5.3118
-45.7667 -1.0300 -18.3864
1.5040 -24.7503 -9.9591
3.6406 -24.0750 -9.7794
5.6915 -23.3112 -9.6377
7.7226 -22.6303 -9.6039
9.7268 -21.8840 -9.6186
11.7533 -21.1293 -9.7109
13.7632 -20.2467 -9.8328
18.6286 -22.7367 -11.8056
-34.7911 30.4290 -18.5640
-1.7366 -7.3023 -3.0147
0.8710 -25.1064 -10.0898
3.0307 -24.3021 -9.8363
5.0737 -23.4072 -9.6196
7.1389 -22.8477 -9.6141
9.1427 -22.1015 -9.6064
11.1594 -21.3505 -9.6759
13.2220 -20.5823 -9.8254
18.0006 -23.1744 -11.7857
16.8670 2.7611 -6.8646
7.9049 5.5155 -3.8714
-10.3853 -4.6056 -4.5629
-9.2270 -5.1226 -4.2388
-2.1871 -8.2385 -3.4235
0.2198 -25.3489 -10.1815
2.4134 -24.5320 -9.9006
4.5054 -23.7530 -9.7102
6.5343 -22.9974 -9.6023
8.5148 -22.2012 -9.5502
10.5693 -21.5702 -9.6476
12.6150 -20.8084 -9.7734
17.2986 -23.5081 -11.7226
8.2262 6.5518 -4.2238
-46.2788 -1.5675 -18.5981
-10.7252 -4.4263 -4.6601
-9.3572 -4.8810 -4.2388
-2.4287 -8.2745 -3.4636
1.7873 -24.7652 -9.9725
3.9046 -23.9767 -9.7568
5.9483 -23.2156 -9.6255
7.9770 -22.5356 -9.6015
9.9823 -21.7888 -9.6259
12.0140 -21.0322 -9.7284
16.6036 -23.8385 -11.6680
8.0413 10.4457 -5.2946
-45.7630 -0.3590 -18.3807
-45.8884 -4.4760 -18.5181
-1.6501 -7.3060 -3.0083
1.1518 -25.0018 -10.0524
3.2804 -24.0750 -9.7589
5.3591 -23.4350 -9.6554
7.3939 -22.7527 -9.6088
9.3975 -22.0066 -9.6109
11.4181 -21.2541 -9.6903
13.4891 -20.4829 -9.8504
18.3096 -23.0275 -11.8160
7.9159 5.6579 -3.9080
-10.2976 -4.7074 -4.5476
-2.0828 -8.2209 -3.4062
0.5056 -25.2425 -10.1404
2.6839 -24.4313 -9.8716
4.7659 -23.6560 -9.6921
6.7535 -22.7817 -9.5436
8.8141 -22.2238 -9.6024
10.8264 -21.4744 -9.6591
12.8792 -20.7100 -9.7952
17.6041 -23.3629 -11.7491
7.9948 5.4058 -3.8762
-33.5572 31.8487 -18.5818
-10.5575 -4.4981 -4.6091
-9.2616 -4.9657 -4.2208
-2.3151 -8.2321 -3.4346
-0.1518 -25.3532 -10.1830
2.0617 -24.6630 -9.9402
4.1676 -23.8788 -9.7356
6.2044 -23.1202 -9.6146
8.2314 -22.4408 -9.6003
10.2382 -21.6935 -9.6346
12.2112 -20.8247 -9.6959
16.9062 -23.6946 -11.6908
8.3388 6.4441 -4.2327
7.9113 10.5219 -5.2873
7.9877 10.4473 -5.1881
-34.9853 29.7054 -18.1059
-45.7178 -0.5096 -18.0370
-45.9617 -4.6364 -18.2241
-11.0931 -4.2860 -4.6916
-1.6296 -7.3277 -2.9614
1.2330 -24.9716 -9.8634
3.3752 -24.1738 -9.6292
5.4341 -23.4071 -9.4798
7.4679 -22.7251 -9.4368
9.4716 -21.9790 -9.4416
11.4935 -21.2260 -9.5225
13.5670 -20.4539 -9.6828
18.3996 -22.9847 -11.6150
7.9487 5.7210 -3.8635
-34.5732 30.9384 -18.3030
-2.0534 -8.2184 -3.3418
0.5882 -25.2117 -9.9488
2.7622 -24.4021 -9.6882
4.8413 -23.6278 -9.5149
6.8475 -22.8221 -9.3999
8.8881 -22.1963 -9.4325
10.9013 -21.4465 -9.4910
12.9562 -20.6813 -9.6277
17.6932 -23.3205 -11.5482
-32.2500 30.4064 -17.4860
-46.4256 -2.2539 -18.3366
-10.5972 -4.5564 -4.5507
-9.2286 -4.9873 -4.1383
-0.0684 -25.4562 -10.0426
2.1412 -24.6334 -9.7546
4.2438 -23.8504 -9.5568
6.2788 -23.0925 -9.4408
8.3053 -22.4133 -9.4297
10.2891 -21.6162 -9.4444
12.3519 -20.9063 -9.5796
16.9944 -23.6527 -11.4899
8.2936 6.4530 -4.1456
7.9126 10.5963 -5.2171
-35.2324 29.2333 -18.0608
-45.7667 -1.0300 -18.0597
-46.2157 -5.1927 -18.3470
-10.8868 -4.3490 -4.6249
1.5040 -24.7503 -9.7821
3.6406 -24.0750 -9.6057
5.6915 -23.3112 -9.4665
7.7226 -22.6303 -9.4332
9.7268 -21.8840 -9.4477
11.7533 -21.1293 -9.5384
13.7632 -20.2467 -9.6581
18.6286 -22.7367 -11.5959
8.0237 5.9145 -3.9324
-1.7366 -7.3021 -2.9611
0.8710 -25.1064 -9.9105
3.0307 -24.3021 -9.6615
5.0737 -23.4072 -9.4487
7.1389 -22.8477 -9.4432
9.1427 -22.1015 -9.4357
11.1594 -21.3505 -9.5040
13.2220 -20.5823 -9.6509
18.0006 -23.1744 -11.5763
16.8358 2.7560 -6.7302
7.9713 5.5619 -3.8345
-33.6625 31.0237 -18.0596
-9.2270 -5.1226 -4.1634
-2.2153 -8.3445 -3.4060
0.2198 -25.3489 -10.0006
2.4133 -24.5320 -9.7247
4.5053 -23.7530 -9.5377
6.5343 -22.9974 -9.4317
8.5148 -22.2012 -9.3805
10.5693 -21.5702 -9.4762
12.6150 -20.8084 -9.5997
17.2986 -23.5081 -11.5143
8.2259 6.5516 -4.1486
-46.2788 -1.5675 -18.2676
-10.7393 -4.4321 -4.5833
-9.3988 -4.9026 -4.1820
-0.4531 -26.1216 -10.3066
1.7873 -24.7652 -9.7954
3.9046 -23.9767 -9.5835
5.9483 -23.2156 -9.4545
7.9770 -22.5356 -9.4309
9.9822 -21.7888 -9.4549
12.0140 -21.0322 -9.5555
16.6036 -23.8385 -11.4607
8.0410 10.4454 -5.2003
-34.9135 29.8432 -18.1196
-45.7630 -0.3590 -18.0542
-45.8884 -4.4760 -18.1891
-1.6500 -7.3057 -2.9547
1.1518 -25.0018 -9.8738
3.2804 -24.0750 -9.5855
5.3591 -23.4350 -9.4839
7.3939 -22.7527 -9.4381
9.3975 -22.0066 -9.4401
11.4181 -21.2541 -9.5182
13.4891 -20.4829 -9.6754
18.3096 -23.0275 -11.6061
7.9434 5.6776 -3.8519
-2.0828 -8.2209 -3.3456
0.5056 -25.2425 -9.9602
2.6839 -24.4313 -9.6962
4.7658 -23.6560 -9.5199
6.7535 -22.7817 -9.3740
8.8141 -22.2238 -9.4318
10.8264 -21.4744 -9.4875
12.8792 -20.7100 -9.6212
17.6041 -23.3629 -11.5403
-46.3539 -2.0971 -18.3055
-10.6238 -4.5263 -4.5557
-9.2580 -4.9637 -4.1442
-0.1518 -25.3532 -10.0021
2.0617 -24.6630 -9.7636
4.1676 -23.8788 -9.5627
6.2044 -23.1202 -9.4437
8.2314 -22.4408 -9.4298
10.2382 -21.6935 -9.4634
12.2112 -20.8247 -9.5236
16.9062 -23.6946 -11.4831
8.3384 6.4438 -4.1573
7.9110 10.5216 -5.1932
7.9874 10.4469 -5.0945
-34.8164 29.5619 -17.6941
-45.7178 -0.5096 -17.7123
-45.9617 -4.6364 -17.8960
-11.0693 -4.2768 -4.5972
-1.6295 -7.3275 -2.9080
1.2330 -24.9716 -9.6858
3.3752 -24.1738 -9.4558
5.4341 -23.4071 -9.3091
7.4679 -22.7251 -9.2669
9.4716 -21.9790 -9.2717
11.4935 -21.2260 -9.3511
13.5670 -20.4539 -9.5085
18.3996 -22.9847 -11.4060
7.9833 5.7460 -3.8105
-34.2516 30.6506 -17.8063
-2.0534 -8.2184 -3.2817
0.5882 -25.2117 -9.7697
2.7622 -24.4021 -9.5138
4.8414 -23.6278 -9.3436
6.8475 -22.8221 -9.2307
8.8881 -22.1963 -9.2627
10.9013 -21.4465 -9.3202
12.9562 -20.6813 -9.4544
17.6932 -23.3205 -11.3403
5.8896 22.3335 -8.9478
-32.0663 30.2331 -17.0733
-44.8452 -2.1772 -17.3936
-9.2461 -4.9967 -4.0716
-0.0683 -25.4562 -9.8618
2.1412 -24.6334 -9.5790
4.2438 -23.8504 -9.3848
6.2788 -23.0925 -9.2709
8.3053 -22.4133 -9.2599
10.2891 -21.6162 -9.2744
12.3519 -20.9063 -9.4071
16.9944 -23.6527 -11.2830
8.2934 6.4528 -4.0708
7.9122 10.5958 -5.1230
6.4496 22.1079 -8.9216
-35.0627 29.0925 -17.6502
-45.7667 -1.0300 -17.7346
-46.2157 -5.1927 -18.0167
-10.9410 -4.3707 -4.5643
1.5040 -24.7503 -9.6060
3.6406 -24.0750 -9.4327
5.6915 -23.3112 -9.2961
7.7226 -22.6303 -9.2634
9.7268 -21.8840 -9.2776
11.7533 -21.1293 -9.3667
13.7632 -20.2467 -9.4843
18.6286 -22.7367 -11.3871
7.9949 5.8933 -3.8478
-34.2650 29.9689 -17.6352
-46.5328 0.1633 -18.0270
-11.2939 -4.1744 -4.6646
-1.7365 -7.3019 -2.9077
0.8710 -25.1064 -9.7321
3.0307 -24.3021 -9.4876
5.0737 -23.4072 -9.2786
7.1389 -22.8477 -9.2732
9.1427 -22.1015 -9.2658
11.1594 -21.3505 -9.3329
13.2220 -20.5823 -9.4771
18.0006 -23.1744 -11.3679
16.8358 2.7560 -6.6090
8.0778 5.6362 -3.8158
5.6559 22.4790 -8.9798
-33.4645 30.8412 -17.6302
-45.0049 -2.6975 -17.4663
-9.2270 -5.1226 -4.0885
0.2198 -25.3489 -9.8206
2.4133 -24.5320 -9.5496
4.5053 -23.7530 -9.3660
6.5343 -22.9974 -9.2619
8.5148 -22.2012 -9.2117
10.5693 -21.5702 -9.3056
12.6149 -20.8084 -9.4269
17.2986 -23.5081 -11.3070
8.2256 6.5514 -4.0738
6.2046 22.2029 -8.9310
-44.9742 -1.5233 -17.4331
-0.4566 -26.3225 -10.1989
1.7873 -24.7652 -9.6190
3.9046 -23.9767 -9.4110
5.9483 -23.2156 -9.2843
7.9770 -22.5356 -9.2611
9.9822 -21.7888 -9.2847
12.0140 -21.0322 -9.3835
16.6036 -23.8385 -11.2544
8.0407 10.4450 -5.1065
-34.7448 29.6990 -17.7074
-45.7630 -0.3590 -17.7292
-45.8884 -4.4760 -17.8616
-11.1159 -4.2527 -4.6107
-1.6500 -7.3055 -2.9014
1.1518 -25.0018 -9.6960
3.2804 -24.0750 -9.4129
5.3591 -23.4350 -9.3131
7.3939 -22.7527 -9.2682
9.3975 -22.0066 -9.2702
11.4181 -21.2541 -9.3468
13.4891 -20.4829 -9.5013
18.3096 -23.0275 -11.3972
7.9958 5.7150 -3.8075
-31.0481 33.4527 -17.6812
-2.0828 -8.2209 -3.2854
0.5056 -25.2425 -9.7810
2.6839 -24.4313 -9.5217
4.7658 -23.6560 -9.3485
6.7535 -22.7817 -9.2053
8.8141 -22.2238 -9.2620
10.8264 -21.4744 -9.3167
12.8792 -20.7100 -9.4480
17.6041 -23.3629 -11.3326
5.9607 22.3041 -8.9439
-44.8253 -2.0279 -17.3832
-9.2733 -4.9719 -4.0763
-0.1518 -25.3532 -9.8221
2.0617 -24.6630 -9.5878
4.1676 -23.8788 -9.3905
6.2044 -23.1202 -9.2737
8.2314 -22.4408 -9.2600
10.2382 -21.6935 -9.2930
12.2112 -20.8247 -9.3522
16.9062 -23.6946 -11.2764
8.3380 6.4435 -4.0823
7.9108 10.5213 -5.0996
8.1096 6.1632 -3.8740
7.9872 10.4466 -5.0014
8.5991 21.2452 -8.7170
-34.6498 29.4205 -17.2882
-45.7178 -0.5096 -17.3891
-45.8881 -4.6290 -17.5414
-11.2044 -4.3290 -4.5684
-1.6295 -7.3273 -2.8549
1.2330 -24.9716 -9.5091
3.3752 -24.1738 -9.2833
5.4341 -23.4071 -9.1393
7.4679 -22.7251 -9.0979
9.4716 -21.9790 -9.1025
11.4935 -21.2260 -9.1805
13.5670 -20.4539 -9.3350
18.3996 -22.9847 -11.1979
8.0511 5.7948 -3.7728
5.3431 22.6329 -8.8447
-31.4604 33.6733 -17.5270
-34.0868 30.5031 -17.3973
-45.3186 -3.3836 -17.2842
-11.4691 -4.0917 -4.6314
-2.0534 -8.2184 -3.2218
0.5882 -25.2117 -9.5915
2.7622 -24.4021 -9.3402
4.8413 -23.6278 -9.1732
6.8475 -22.8221 -9.0623
8.8881 -22.1963 -9.0937
10.9013 -21.4465 -9.1501
12.9562 -20.6813 -9.2819
17.6932 -23.3205 -11.1334
28.1817 12.5538 -11.7338
7.8330 21.6445 -8.7546
5.8792 22.2941 -8.7691
-31.8855 30.0627 -16.6674
-44.8452 -2.1772 -17.0763
-9.2251 -4.9854 -3.9882
-0.0684 -25.4562 -9.6819
2.1412 -24.6334 -9.4043
4.2438 -23.8504 -9.2136
6.2788 -23.0925 -9.1017
8.3053 -22.4133 -9.0910
10.2891 -21.6162 -9.1052
12.3519 -20.9063 -9.2355
16.9944 -23.6527 -11.0772
8.2932 6.4527 -3.9965
7.9118 10.5953 -5.0293
8.3652 21.3616 -8.7253
6.4411 22.0787 -8.7473
-34.8954 28.9536 -17.2456
-45.7667 -1.0300 -17.4110
-46.2157 -5.1927 -17.6880
-0.7756 -27.0202 -10.2809
1.5040 -24.7503 -9.4308
3.6406 -24.0750 -9.2606
5.6915 -23.3112 -9.1265
7.7226 -22.6303 -9.0944
9.7268 -21.8840 -9.1083
11.7533 -21.1293 -9.1958
13.7632 -20.2467 -9.3112
18.6286 -22.7367 -11.1794
8.0229 5.9139 -3.7908
8.9079 21.1133 -8.7156
-34.3327 30.0281 -17.3477
-46.5328 0.1633 -17.6981
-45.5652 -3.9227 -17.3941
-11.3139 -4.1818 -4.5876
-1.7365 -7.3017 -2.8545
0.8710 -25.1064 -9.5546
3.0307 -24.3021 -9.3145
5.0737 -23.4072 -9.1093
7.1389 -22.8477 -9.1041
9.1427 -22.1015 -9.0968
11.1594 -21.3505 -9.1626
13.2220 -20.5823 -9.3042
18.0006 -23.1744 -11.1606
16.8358 2.7560 -6.4885
5.6347 22.3949 -8.7830
-33.2697 30.6617 -17.2078
-45.0049 -2.6975 -17.1476
-9.2270 -5.1226 -4.0139
0.2198 -25.3489 -9.6414
2.4133 -24.5320 -9.3754
4.5053 -23.7530 -9.1951
6.5343 -22.9974 -9.0929
8.5148 -22.2012 -9.0436
10.5693 -21.5702 -9.1358
12.6149 -20.8084 -9.2549
17.2986 -23.5081 -11.1008
8.2253 6.5512 -3.9994
8.1307 21.4779 -8.7345
6.1933 22.1625 -8.7521
-33.4391 32.4664 -17.7264
-44.9742 -1.5233 -17.1151
-9.3059 -4.8542 -3.9919
-0.4566 -26.3225 -10.0129
1.7873 -24.7652 -9.4435
3.9046 -23.9767 -9.2393
5.9483 -23.2156 -9.1149
7.9770 -22.5356 -9.0922
9.9822 -21.7888 -9.1153
12.0140 -21.0322 -9.2123
16.6036 -23.8385 -11.0490
8.0581 6.0823 -3.8398
8.0405 10.4447 -5.0132
8.6669 21.2113 -8.7148
-34.5785 29.5568 -17.3011
-45.7630 -0.3590 -17.4058
-45.8149 -4.4688 -17.5077
-11.2001 -4.2849 -4.5609
-1.6499 -7.3053 -2.8484
1.1518 -25.0018 -9.5191
3.2804 -24.0750 -9.2412
5.3591 -23.4350 -9.1432
7.3939 -22.7527 -9.0991
9.3975 -22.0066 -9.1011
11.4181 -21.2541 -9.1763
13.4891 -20.4829 -9.3279
18.3096 -23.0275 -11.1892
8.0637 5.7635 -3.7697
5.3905 22.5012 -8.8001
-31.2008 33.6172 -17.4441
-45.2475 -3.2282 -17.2529
-11.5221 -4.0679 -4.6473
-2.0828 -8.2209 -3.2255
0.5056 -25.2425 -9.6025
2.6839 -24.4313 -9.3480
4.7658 -23.6560 -9.1779
6.7535 -22.7817 -9.0374
8.8141 -22.2238 -9.0930
10.8264 -21.4744 -9.1467
12.8792 -20.7100 -9.2756
17.6041 -23.3629 -11.1259
28.2592 12.4766 -11.7489
7.9000 21.6065 -8.7498
5.9500 22.2643 -8.7650
-44.8253 -2.0279 -17.0661
-9.2687 -4.9695 -3.9999
-0.1518 -25.3532 -9.6429
2.0617 -24.6630 -9.4129
4.1676 -23.8788 -9.2192
6.2044 -23.1202 -9.1045
8.2314 -22.4408 -9.0911
10.2382 -21.6935 -9.1235
12.2112 -20.8247 -9.1816
16.9062 -23.6946 -11.0706
8.3376 6.4432 -4.0076
7.9106 10.5210 -5.0064
29.2297 11.7325 -11.7576
8.0764 6.1380 -3.7868
7.9869 10.4462 -4.9088
-34.4856 29.2811 -16.8880
-45.7178 -0.5096 -17.0675
-45.8881 -4.6290 -17.2170
-1.6294 -7.3270 -2.8020
-1.1053 -27.5834 -10.3051
1.2330 -24.9716 -9.3332
3.3752 -24.1738 -9.1116
5.4341 -23.4071 -8.9702
7.4287 -22.6057 -8.8827
9.4218 -21.8634 -8.8872
11.4935 -21.2260 -9.0107
13.5670 -20.4539 -9.1624
18.3996 -22.9847 -10.9908
8.1591 5.8725 -3.7527
-31.6159 33.8397 -17.2878
-34.6783 31.0324 -17.3719
-45.3186 -3.3836 -16.9645
-11.5340 -4.1149 -4.5715
-2.0534 -8.2184 -3.1622
0.5882 -25.2117 -9.4141
2.7622 -24.4021 -9.1675
4.8413 -23.6278 -9.0035
6.8475 -22.8221 -8.8947
8.8414 -22.0796 -8.8786
10.9013 -21.4465 -8.9809
12.9562 -20.6813 -9.1102
17.6932 -23.3205 -10.9275
9.6801 20.7435 -8.5452
5.9948 22.7323 -8.7761
-31.7075 29.8949 -16.2678
-44.8452 -2.1772 -16.7604
-11.9119 -3.9036 -4.6794
-9.2295 -4.9877 -3.9163
-0.0683 -25.4562 -9.5028
2.1412 -24.6334 -9.2303
4.2438 -23.8504 -9.0432
6.2457 -22.9708 -8.8863
8.2617 -22.2955 -8.8759
10.2585 -21.5519 -8.9102
12.3519 -20.9063 -9.0647
16.9944 -23.6527 -10.8723
29.0421 12.0419 -11.7364
8.2929 6.4525 -3.9224
7.9115 10.5948 -4.9360
-34.7305 28.8168 -16.8466
-45.7666 -1.0300 -17.0890
-46.1421 -5.1844 -17.3332
-0.7756 -27.0202 -10.0908
1.5040 -24.7503 -9.2563
3.6406 -24.0750 -9.0894
5.6615 -23.1883 -8.9105
7.6820 -22.5113 -8.8793
9.6756 -21.7689 -8.8929
11.7533 -21.1293 -9.0257
13.7632 -20.2467 -9.1390
18.6286 -22.7367 -10.9726
8.0757 5.9529 -3.7452
-34.1695 29.8854 -16.9459
-46.5328 0.1633 -17.3708
-45.5652 -3.9227 -17.0724
-1.7364 -7.3015 -2.8017
0.8710 -25.1064 -9.3778
3.0307 -24.3021 -9.1423
5.0737 -23.4072 -8.9408
7.1014 -22.7276 -8.8887
9.0946 -21.9853 -8.8816
11.1594 -21.3505 -8.9931
13.2220 -20.5823 -9.1321
18.0006 -23.1744 -10.9541
16.8694 2.7615 -6.3811
9.4499 20.8652 -8.5506
5.7498 22.8524 -8.7967
-33.0780 30.4851 -16.7922
-45.0049 -2.6976 -16.8305
-11.7154 -3.9871 -4.6197
-9.2270 -5.1226 -3.9397
0.2198 -25.3489 -9.4631
2.4133 -24.5320 -9.2020
4.5053 -23.7530 -9.0251
6.4998 -22.8761 -8.8777
8.5148 -22.2012 -8.8763
10.5138 -21.4568 -8.9197
12.6150 -20.8084 -9.0837
17.2986 -23.5081 -10.8954
28.5148 12.2046 -11.5786
8.2251 6.5509 -3.9253
9.9891 20.6118 -8.5503
6.3119 22.5870 -8.7548
-44.9743 -1.5233 -16.7985
-46.3997 -5.7478 -17.4534
-9.3744 -4.8899 -3.9469
-0.4566 -26.3225 -9.8277
1.7873 -24.7652 -9.2689
3.9046 -23.9767 -9.0684
5.9169 -23.0932 -8.8992
7.9351 -22.4171 -8.8771
9.9298 -21.6743 -8.8997
12.0140 -21.0322 -9.0419
16.6036 -23.8385 -10.8447
29.3444 11.6662 -11.7882
8.0706 6.0917 -3.7746
8.0402 10.4443 -4.9203
-34.4145 29.4166 -16.9006
-45.7630 -0.3590 -17.0839
-45.8149 -4.4688 -17.1839
-1.6499 -7.3050 -2.7956
-1.2044 -27.7646 -10.3743
1.1518 -25.0018 -9.3431
3.2804 -24.0750 -9.0703
5.3591 -23.4350 -8.9741
7.3550 -22.6331 -8.8839
9.3481 -21.8909 -8.8858
11.4181 -21.2541 -9.0066
13.4891 -20.4829 -9.1554
18.3096 -23.0275 -10.9823
9.2319 21.0155 -8.5687
-31.3542 33.7826 -17.2056
-34.6447 31.2090 -17.4065
-45.2475 -3.2281 -16.9338
-11.5663 -4.0835 -4.5789
-2.0828 -8.2209 -3.1658
0.5056 -25.2425 -9.4249
2.6839 -24.4313 -9.1751
4.7658 -23.6560 -9.0082
6.7535 -22.7817 -8.8702
8.7678 -22.1070 -8.8779
10.8264 -21.4744 -8.9776
12.8792 -20.7100 -9.1041
17.6041 -23.3629 -10.9201
28.2472 12.4713 -11.5267
9.7469 20.7080 -8.5438
6.0649 22.6940 -8.7690
-33.7900 32.0696 -17.3904
-44.8253 -2.0279 -16.7504
-9.2599 -4.9648 -3.9222
-0.1518 -25.3532 -9.4645
2.0617 -24.6630 -9.2388
4.1676 -23.8788 -9.0487
6.1717 -22.9983 -8.8890
8.1881 -22.3229 -8.8760
10.1844 -21.5794 -8.9077
12.2112 -20.8247 -9.0118
16.9062 -23.6946 -10.8659
29.0357 11.9271 -11.7178
8.3372 6.4429 -3.9333
7.9104 10.5207 -4.9137
29.2032 11.7219 -11.5266
8.1050 6.1598 -3.7289
7.9866 10.4459 -4.8165
10.4553 20.3811 -8.3905
-34.3237 29.1437 -16.4934
-45.7178 -0.5096 -16.7474
-45.8881 -4.6290 -16.8940
-1.6294 -7.3268 -2.7493
-1.1123 -27.7564 -10.1752
1.2330 -24.9716 -9.1582
3.3574 -24.0464 -8.8936
5.4054 -23.2837 -8.7556
