ply
format ascii 1.0
element vertex 2175
property float32 x
property float32 y
property float32 z
end_header
-2.8538 -0.5544 0.4880
-2.7935 -0.8071 0.4881
-2.7108 -1.0534 0.4882
-2.6064 -1.2915 0.4883
-2.4812 -1.5193 0.4884
-2.3361 -1.7350 0.4885
-2.3623 -2.1064 0.5313
-2.3999 -2.5595 0.5890
-2.4470 -3.1281 0.6667
-2.5089 -3.8763 0.7751
-1.0195 -1.9344 0.3671
-0.8429 -2.0179 0.3671
-0.6594 -2.0852 0.3671
-0.4707 -2.1359 0.3672
-0.2781 -2.1695 0.3672
-0.0833 -2.1857 0.3672
0.1121 -2.1843 0.3672
0.3066 -2.1655 0.3672
0.4987 -2.1294 0.3671
0.6867 -2.0762 0.3671
0.8692 -2.0064 0.3671
1.0447 -1.9205 0.3670
5.7646 -8.6545 1.7456
6.5439 -8.1424 1.7536
7.2647 -7.5466 1.7584
7.9322 -6.8877 1.7635
8.5387 -6.1689 1.7683
9.0764 -5.3947 1.7725
9.5402 -4.5717 1.7759
9.9251 -3.7074 1.7786
10.2273 -2.8096 1.7805
4.6677 -0.8432 0.7962
4.5643 -0.4088 0.7693
4.8027 0.0003 0.8062
10.5606 0.9472 1.7799
10.4214 1.8838 1.7778
10.1948 2.8020 1.7749
9.8836 3.6933 1.7712
9.4910 4.5496 1.7669
9.0213 5.3634 1.7618
8.4793 6.1277 1.7562
7.8706 6.8360 1.7500
7.2014 7.4827 1.7434
5.4893 6.8319 1.4712
5.7115 8.5771 1.7299
1.0388 1.9103 0.3650
0.8641 1.9951 0.3650
0.6825 2.0641 0.3650
0.4954 2.1167 0.3649
0.3045 2.1524 0.3649
0.1111 2.1709 0.3649
-0.0831 2.1722 0.3649
-0.2767 2.1562 0.3649
-0.4681 2.1230 0.3650
-0.6558 2.0729 0.3650
-0.8383 2.0063 0.3650
-1.0142 1.9237 0.3651
-6.0201 9.2985 1.8595
-6.2667 8.0090 1.7071
-6.9628 7.4242 1.7086
-7.6054 6.7798 1.7104
-8.1877 6.0793 1.7119
-8.7005 5.3259 1.7125
-8.4676 4.1943 1.5863
-9.5089 3.6938 1.7125
-9.8007 2.8302 1.7125
-10.0142 1.9440 1.7125
-10.1478 1.0423 1.7125
-2.9057 0.0377 0.4878
-2.8980 -0.2219 0.4879
-2.8671 -0.4798 0.4880
-2.8134 -0.7340 0.4881
-2.7372 -0.9824 0.4882
-2.6390 -1.2230 0.4883
-2.5198 -1.4540 0.4884
-2.3804 -1.6734 0.4885
-2.3527 -1.9902 0.5173
-2.3881 -2.4175 0.5704
-2.4320 -2.9473 0.6415
-2.4889 -3.6340 0.7394
-1.0696 -1.9071 0.3671
-0.8951 -1.9952 0.3671
-0.7135 -2.0673 0.3671
-0.5262 -2.1229 0.3672
-0.3346 -2.1615 0.3672
-0.1403 -2.1827 0.3672
0.0551 -2.1865 0.3672
0.2501 -2.1728 0.3672
0.4430 -2.1417 0.3671
0.6324 -2.0934 0.3671
0.8167 -2.0284 0.3671
0.9943 -1.9472 0.3670
5.5307 -8.7916 1.7436
6.3196 -8.2972 1.7508
7.0733 -7.7418 1.7604
7.7433 -7.0860 1.7620
8.3686 -6.3846 1.7670
8.9270 -5.6258 1.7713
9.4129 -4.8163 1.7750
9.8212 -3.9633 1.7779
10.1479 -3.0744 1.7800
4.8042 -0.9978 0.8237
4.5603 -0.5286 0.7707
4.7573 -0.1237 0.7989
5.0855 0.3228 0.8554
10.4711 1.6122 1.7785
10.2698 2.5367 1.7758
9.9829 3.4366 1.7724
9.6137 4.3039 1.7682
9.1659 5.1309 1.7634
8.6445 5.9103 1.7579
8.0547 6.6356 1.7519
7.4025 7.3008 1.7454
6.6943 7.9007 1.7384
5.0001 7.1005 1.4578
1.0883 1.8826 0.3650
0.9158 1.9720 0.3650
0.7360 2.0457 0.3650
0.5504 2.1031 0.3649
0.3605 2.1437 0.3649
0.1677 2.1673 0.3649
-0.0265 2.1736 0.3649
-0.2204 2.1627 0.3649
-0.4126 2.1345 0.3649
-0.6015 2.0893 0.3650
-0.7857 2.0274 0.3650
-0.9637 1.9495 0.3651
-5.7757 9.4523 1.8595
-6.2231 8.3953 1.7543
-6.7649 7.6008 1.7081
-7.4240 6.9737 1.7099
-8.0244 6.2891 1.7115
-8.5587 5.5508 1.7125
-8.4738 4.4761 1.6088
-9.4094 3.9404 1.7125
-9.7236 3.0847 1.7125
-9.9601 2.2044 1.7125
-10.1171 1.3065 1.7125
-2.9036 0.1134 0.4878
-2.9026 -0.1463 0.4879
-2.8785 -0.4049 0.4880
-2.8314 -0.6603 0.4881
-2.7617 -0.9106 0.4882
-2.6699 -1.1537 0.4883
-2.5567 -1.3877 0.4883
-2.4231 -1.6107 0.4884
-2.3436 -1.8799 0.5044
-2.3770 -2.2840 0.5534
-2.4181 -2.7796 0.6185
-2.4706 -3.4129 0.7073
-2.5413 -4.2666 0.8337
-0.9468 -1.9711 0.3671
-0.7671 -2.0480 0.3671
-0.5813 -2.1084 0.3671
-0.3908 -2.1520 0.3672
-0.1971 -2.1783 0.3672
-0.0019 -2.1872 0.3672
0.1934 -2.1786 0.3672
0.3871 -2.1525 0.3671
0.5776 -2.1092 0.3671
0.7635 -2.0491 0.3671
0.9433 -1.9725 0.3670
5.2930 -8.9215 1.7414
6.0940 -8.4492 1.7488
6.8576 -7.9102 1.7574
7.5493 -7.2789 1.7604
8.1929 -6.5953 1.7656
8.7715 -5.8526 1.7701
9.2790 -5.0572 1.7740
9.7104 -4.2161 1.7771
10.0613 -3.3368 1.7795
5.1172 -1.2027 0.8824
4.5971 -0.6547 0.7795
4.5715 -0.2383 0.7685
4.9505 0.1848 0.8316
10.5133 1.3392 1.7791
10.3374 2.2693 1.7767
10.0752 3.1772 1.7734
9.7296 4.0549 1.7695
9.3043 4.8943 1.7648
8.8039 5.6883 1.7596
8.2334 6.4300 1.7537
7.5988 7.1133 1.7473
6.9062 7.7328 1.7405
5.1256 6.8899 1.4416
5.3727 8.7589 1.7249
0.9669 1.9475 0.3650
0.7891 2.0259 0.3650
0.6051 2.0881 0.3649
0.4162 2.1336 0.3649
0.2241 2.1622 0.3649
0.0302 2.1736 0.3649
-0.1640 2.1676 0.3649
-0.3568 2.1445 0.3649
-0.5469 2.1042 0.3650
-0.7326 2.0472 0.3650
-0.9125 1.9738 0.3650
-5.5274 9.5996 1.8595
-6.2124 8.8543 1.8157
-6.5623 7.7721 1.7076
-7.2376 7.1628 1.7094
-7.8557 6.4944 1.7110
-8.4111 5.7720 1.7125
-8.4565 4.7529 1.6285
-9.3035 4.1843 1.7125
-9.6399 3.3371 1.7125
-9.8993 2.4632 1.7125
-10.0796 1.5697 1.7125
-3.6836 0.2402 0.6197
-2.9053 -0.0706 0.4879
-2.8879 -0.3297 0.4879
-2.8475 -0.5863 0.4880
-2.7843 -0.8383 0.4881
-2.6989 -1.0837 0.4882
-2.5919 -1.3206 0.4883
-2.4641 -1.5469 0.4884
-2.3349 -1.7750 0.4924
-2.3666 -2.1583 0.5377
-2.4052 -2.6234 0.5975
-2.4538 -3.2101 0.6783
-2.5182 -3.9876 0.7917
-0.9978 -1.9457 0.3671
-0.8202 -2.0272 0.3671
-0.6361 -2.0925 0.3671
-0.4467 -2.1411 0.3672
-0.2538 -2.1725 0.3672
-0.0589 -2.1865 0.3672
0.1365 -2.1829 0.3672
0.3308 -2.1619 0.3672
0.5225 -2.1236 0.3671
0.7099 -2.0683 0.3671
0.8916 -1.9965 0.3671
1.0661 -1.9087 0.3670
5.8638 -8.5934 1.7464
6.6386 -8.0735 1.7546
7.3512 -7.4674 1.7591
8.0117 -6.8010 1.7642
8.6098 -6.0749 1.7689
9.1386 -5.2942 1.7729
9.5927 -4.4656 1.7763
9.9675 -3.5967 1.7788
10.2591 -2.6952 1.7806
4.6306 -0.7831 0.7884
4.5666 -0.3576 0.7689
4.8342 0.0544 0.8116
10.5480 1.0651 1.7797
10.3977 1.9999 1.7775
10.1605 2.9152 1.7745
9.8388 3.8025 1.7707
9.4363 4.6539 1.7663
8.9573 5.4619 1.7612
8.4067 6.2195 1.7555
7.7901 6.9204 1.7492
7.1137 7.5590 1.7425
5.3965 6.8725 1.4669
5.6132 8.6374 1.7292
1.0174 1.9217 0.3650
0.8417 2.0047 0.3650
0.6593 2.0716 0.3650
0.4717 2.1221 0.3649
0.2804 2.1556 0.3649
0.0868 2.1721 0.3649
-0.1074 2.1712 0.3649
-0.3008 2.1530 0.3649
-0.4918 2.1177 0.3650
-0.6790 2.0655 0.3650
-0.8607 1.9969 0.3650
-1.0357 1.9123 0.3651
-6.1238 9.2306 1.8595
-6.3559 7.9384 1.7071
-7.0463 7.3468 1.7089
-7.6817 6.6951 1.7106
-8.2561 5.9880 1.7121
-8.7595 5.2282 1.7125
-8.6094 4.1452 1.6041
-9.5496 3.5872 1.7125
-9.8317 2.7204 1.7125
-10.0353 1.8319 1.7125
-10.1588 0.9288 1.7125
-2.9060 0.0052 0.4878
-2.8954 -0.2543 0.4879
-2.8617 -0.5118 0.4880
-2.8051 -0.7654 0.4881
-2.7261 -1.0129 0.4882
-2.6253 -1.2525 0.4883
-2.5034 -1.4821 0.4884
-2.3616 -1.7000 0.4885
-2.3568 -2.0393 0.5232
-2.3931 -2.4773 0.5782
-2.4383 -3.0232 0.6520
-2.4973 -3.7352 0.7543
-1.0482 -1.9190 0.3671
-0.8728 -2.0051 0.3671
-0.6904 -2.0752 0.3671
-0.5024 -2.1286 0.3672
-0.3104 -2.1651 0.3672
-0.1159 -2.1842 0.3672
0.0796 -2.1858 0.3672
0.2744 -2.1699 0.3672
0.4670 -2.1366 0.3671
0.6558 -2.0862 0.3671
0.8393 -2.0191 0.3671
1.0160 -1.9359 0.3670
5.6315 -8.7335 1.7445
6.4150 -8.2298 1.7517
7.1660 -7.6692 1.7620
7.8250 -7.0016 1.7627
5.3509 -8.4365 1.7404
6.1090 -7.9596 1.7480
6.8304 -7.4207 1.7570
7.4752 -6.7901 1.7593
8.0733 -6.1122 1.7641
8.6069 -5.3797 1.7682
9.0705 -4.5989 1.7717
9.4594 -3.7767 1.7744
9.7698 -2.9205 1.7764
4.7523 -0.9687 0.8449
4.5393 -0.5092 0.7958
4.7536 -0.1061 0.8283
10.1756 0.6836 1.7767
10.0634 1.5875 1.7748
9.8669 2.4759 1.7722
9.5884 3.3405 1.7689
9.2309 4.1736 1.7649
8.7982 4.9678 1.7602
8.2947 5.7162 1.7549
7.7256 6.4126 1.7491
7.0967 7.0511 1.7428
6.4141 7.6270 1.7361
4.9466 7.0799 1.5046
1.0421 1.8181 0.3651
0.8755 1.9037 0.3650
0.7020 1.9741 0.3650
0.5230 2.0287 0.3650
0.3398 2.0672 0.3650
0.1539 2.0893 0.3650
-0.0332 2.0947 0.3650
-0.2201 2.0834 0.3650
-0.4052 2.0555 0.3650
-0.5871 2.0113 0.3650
-0.7644 1.9511 0.3650
-0.9356 1.8752 0.3651
-5.5991 9.0876 1.8595
-6.2130 8.3172 1.8086
-6.5434 7.2975 1.7075
-7.1758 6.6909 1.7092
-7.7514 6.0290 1.7108
-8.2653 5.3173 1.7121
-8.4178 4.4068 1.6553
-9.0809 3.7635 1.7125
-9.3806 2.9378 1.7125
-9.6054 2.0887 1.7125
-9.7535 1.2229 1.7125
-2.7984 0.0989 0.4878
-2.7966 -0.1513 0.4879
-2.7724 -0.4004 0.4880
-2.7261 -0.6464 0.4881
-2.6580 -0.8873 0.4882
-2.5686 -1.1213 0.4883
-2.4587 -1.3463 0.4883
-2.3291 -1.5607 0.4884
-2.3448 -1.8952 0.5252
-2.3786 -2.3025 0.5767
-2.4200 -2.8026 0.6451
-2.4731 -3.4431 0.7385
-1.0713 -1.8139 0.3670
-0.9052 -1.9025 0.3670
-0.7319 -1.9759 0.3671
-0.5526 -2.0335 0.3671
-0.3689 -2.0748 0.3671
-0.1822 -2.0995 0.3671
0.0060 -2.1074 0.3671
0.1941 -2.0984 0.3671
0.3806 -2.0726 0.3671
0.5641 -2.0302 0.3671
0.7430 -1.9715 0.3670
0.9159 -1.8971 0.3670
1.0814 -1.8075 0.3669
5.8933 -8.1076 1.7462
6.6232 -7.5831 1.7540
7.2957 -6.9826 1.7593
7.9053 -6.3158 1.7627
8.4583 -5.5986 1.7671
8.9428 -4.8312 1.7707
9.3540 -4.0203 1.7737
9.6876 -3.1732 1.7759
9.9404 -2.2976 1.7774
4.5729 -0.6340 0.8043
4.5545 -0.2205 0.7944
4.9062 0.2013 0.8554
10.1049 1.3252 1.7755
9.9328 2.2189 1.7731
9.6780 3.0913 1.7699
9.3431 3.9344 1.7661
8.9319 4.7406 1.7616
8.4485 5.5031 1.7565
7.8980 6.2152 1.7509
7.2860 6.8712 1.7447
6.6183 7.4658 1.7381
5.4199 7.3419 1.5898
1.0892 1.7904 0.3651
0.9249 1.8803 0.3650
0.7533 1.9551 0.3650
0.5757 2.0144 0.3650
0.3935 2.0577 0.3650
0.2083 2.0845 0.3650
0.0214 2.0948 0.3650
-0.1657 2.0884 0.3650
-0.3515 2.0654 0.3650
-0.5345 2.0259 0.3650
-0.7133 1.9703 0.3650
-0.8864 1.8989 0.3651
-1.0525 1.8125 0.3651
-6.1630 8.7151 1.8595
-6.3495 7.4639 1.7071
-6.9970 6.8737 1.7087
-7.5897 6.2274 1.7103
-8.1221 5.5296 1.7117
-8.4147 4.6886 1.6781
-8.9797 3.9989 1.7125
-9.3008 3.1813 1.7125
-9.5477 2.3383 1.7125
-9.7183 1.4767 1.7125
-3.0442 0.1872 0.5313
-2.7994 -0.0783 0.4879
-2.7817 -0.3280 0.4880
-2.7418 -0.5751 0.4880
-2.6800 -0.8177 0.4881
-2.5968 -1.0539 0.4882
-2.4928 -1.2817 0.4883
-2.3689 -1.4994 0.4884
-2.3361 -1.7895 0.5127
-2.3681 -2.1757 0.5602
-2.4069 -2.6449 0.6230
-2.4561 -3.2379 0.7080
-2.5213 -4.0255 0.8275
-0.9545 -1.8782 0.3670
-0.7831 -1.9561 0.3671
-0.6054 -2.0184 0.3671
-0.4228 -2.0645 0.3671
-0.2368 -2.0940 0.3671
-0.0490 -2.1068 0.3671
0.1393 -2.1028 0.3671
0.3265 -2.0818 0.3671
0.5110 -2.0442 0.3671
0.6913 -1.9903 0.3671
0.8662 -1.9204 0.3670
1.0340 -1.8352 0.3670
5.6705 -8.2446 1.7432
6.4146 -7.7426 1.7516
7.1128 -7.1720 1.7597
7.7320 -6.5146 1.7614
8.3039 -5.8132 1.7659
8.8089 -5.0598 1.7697
9.2419 -4.2608 1.7729
9.5985 -3.4235 1.7753
9.8752 -2.5554 1.7770
4.6060 -0.7614 0.8133
4.5496 -0.3393 0.7948
4.8351 0.0723 0.8424
10.1392 1.0617 1.7760
9.9916 1.9601 1.7738
9.7607 2.8396 1.7709
9.4488 3.6920 1.7673
9.0595 4.5097 1.7630
8.5966 5.2857 1.7581
8.0652 6.0131 1.7526
7.4705 6.6860 1.7465
6.8184 7.2990 1.7401
5.3489 6.8639 1.5160
5.3646 8.3220 1.7249
0.9736 1.8556 0.3651
0.8040 1.9349 0.3650
0.6280 1.9988 0.3650
0.4470 2.0467 0.3650
0.2625 2.0784 0.3650
0.0760 2.0935 0.3650
-0.1112 2.0920 0.3650
-0.2975 2.0738 0.3650
-0.4815 2.0391 0.3650
-0.6617 1.9881 0.3650
-0.8366 1.9213 0.3651
-1.0049 1.8392 0.3651
-5.9337 8.8728 1.8595
-6.2271 7.7189 1.7277
-6.8135 7.0517 1.7083
-7.4229 6.4215 1.7099
-7.9733 5.7381 1.7114
-8.4593 5.0067 1.7125
-8.5577 4.0815 1.6517
-9.2148 3.4226 1.7125
-9.4835 2.5864 1.7125
-9.6765 1.7295 1.7125
-9.7923 0.8588 1.7125
-2.8004 -0.0053 0.4879
-2.7892 -0.2554 0.4879
-2.7557 -0.5034 0.4880
-2.7003 -0.7475 0.4881
-2.6233 -0.9858 0.4882
-2.5252 -1.2162 0.4883
-2.4070 -1.4371 0.4884
-2.3277 -1.6887 0.5010
-2.3581 -2.0558 0.5450
-2.3947 -2.4975 0.6028
-2.4404 -3.0488 0.6803
-2.5001 -3.7695 0.7880
-1.0031 -1.8527 0.3670
-0.8338 -1.9350 0.3671
-0.6578 -2.0019 0.3671
-0.4765 -2.0527 0.3671
-0.2913 -2.0871 0.3671
-0.1039 -2.1048 0.3671
0.0845 -2.1057 0.3671
0.2721 -2.0897 0.3671
0.4575 -2.0569 0.3671
0.6392 -2.0077 0.3671
0.8158 -1.9424 0.3670
0.9859 -1.8616 0.3670
5.4475 -8.3800 1.7412
6.2003 -7.8941 1.7487
6.9184 -7.3495 1.7584
7.5534 -6.7085 1.7599
8.1438 -6.0234 1.7646
8.6688 -5.2845 1.7687
9.1233 -4.4981 1.7721
9.5027 -3.6712 1.7747
9.8030 -2.8113 1.7766
4.6940 -0.9023 0.8327
4.5442 -0.4583 0.7957
4.7730 -0.0531 0.8316
10.1662 0.7973 1.7765
10.0434 1.6997 1.7745
9.8365 2.5856 1.7718
9.5479 3.4467 1.7684
9.1808 4.2753 1.7643
8.7389 5.0641 1.7596
8.2269 5.8064 1.7542
7.6501 6.4957 1.7484
7.0141 7.1267 1.7420
6.3252 7.6944 1.7352
4.8706 7.1399 1.5057
1.0217 1.8296 0.3651
0.8542 1.9133 0.3650
0.6799 1.9818 0.3650
0.5002 2.0344 0.3650
0.3166 2.0709 0.3650
0.1305 2.0908 0.3650
-0.0567 2.0942 0.3650
-0.2434 2.0808 0.3650
-0.4282 2.0509 0.3650
-0.6096 2.0046 0.3650
-0.7862 1.9424 0.3651
-0.9566 1.8647 0.3651
-5.7004 9.0244 1.8595
-6.2174 8.1318 1.7833
-6.6255 7.2248 1.7078
-7.2511 6.6110 1.7094
-7.8192 5.9426 1.7109
-8.3250 5.2250 1.7123
-8.4204 4.2889 1.6463
-9.1224 3.6616 1.7125
-9.4129 2.8327 1.7125
-9.6282 1.9811 1.7125
-9.7666 1.1137 1.7125
-2.7994 0.0676 0.4878
-2.7947 -0.1826 0.4879
-2.7678 -0.4314 0.4880
-2.7187 -0.6769 0.4881
-2.6479 -0.9170 0.4882
-2.5560 -1.1500 0.4883
-2.4435 -1.3738 0.4884
-2.3198 -1.5923 0.4902
-2.3487 -1.9422 0.5309
-2.3833 -2.3592 0.5842
-2.4259 -2.8738 0.6552
-2.4808 -3.5367 0.7526
-1.0510 -1.8258 0.3670
-0.8839 -1.9126 0.3671
-0.7097 -1.9840 0.3671
-0.5298 -2.0396 0.3671
-0.3456 -2.0788 0.3671
-0.1587 -2.1014 0.3671
0.0295 -2.1072 0.3671
0.2175 -2.0961 0.3671
0.4038 -2.0682 0.3671
0.5867 -2.0237 0.3671
0.7650 -1.9631 0.3670
0.9370 -1.8867 0.3670
5.2211 -8.5092 1.7392
5.9864 -8.0448 1.7469
6.7127 -7.5142 1.7553
7.3726 -6.8999 1.7591
7.9781 -6.2290 1.7633
8.5228 -5.5052 1.7676
8.9984 -4.7320 1.7711
9.4000 -3.9161 1.7740
9.7237 -3.0650 1.7761
4.8044 -1.0540 0.8569
4.5589 -0.5802 0.8006
4.7280 -0.1759 0.8242
4.9036 0.2562 0.8554
10.0880 1.4379 1.7752
9.9054 2.3294 1.7727
9.6404 3.1986 1.7695
9.2958 4.0374 1.7656
8.8752 4.8386 1.7610
8.3832 5.5951 1.7558
7.8247 6.3005 1.7501
7.2053 6.9491 1.7439
6.5312 7.5357 1.7372
5.3411 7.4072 1.5909
1.0690 1.8024 0.3651
0.9038 1.8905 0.3650
0.7313 1.9634 0.3650
0.5531 2.0207 0.3650
0.3705 2.0619 0.3650
0.1849 2.0867 0.3650
-0.0021 2.0949 0.3650
-0.1891 2.0864 0.3650
-0.3746 2.0613 0.3650
-0.5571 2.0198 0.3650
-0.7353 1.9622 0.3650
-0.9076 1.8889 0.3651
-1.0728 1.8006 0.3651
-6.2068 8.5721 1.8437
-6.4330 7.3928 1.7072
-7.0743 6.7958 1.7089
-7.6597 6.1428 1.7105
-8.1842 5.4390 1.7119
-8.4152 4.5662 1.6679
-9.0239 3.8982 1.7125
-9.3359 3.0771 1.7125
-9.5733 2.2314 1.7125
-9.7342 1.3679 1.7125
-2.7966 0.1406 0.4878
-2.7984 -0.1096 0.4879
-2.7779 -0.3591 0.4880
-2.7353 -0.6057 0.4881
-2.6708 -0.8477 0.4881
-2.5849 -1.0829 0.4882
-2.4784 -1.3096 0.4883
-2.3520 -1.5258 0.4884
-2.3398 -1.8343 0.5179
-2.3725 -2.2292 0.5671
-2.4124 -2.7112 0.6322
-2.4632 -3.3238 0.7207
-1.0982 -1.7978 0.3670
-0.9334 -1.8888 0.3670
-0.7612 -1.9648 0.3671
-0.5828 -2.0251 0.3671
-0.3997 -2.0691 0.3671
-0.2134 -2.0966 0.3671
-0.0254 -2.1072 0.3671
0.1628 -2.1011 0.3671
0.3497 -2.0780 0.3671
0.5338 -2.0384 0.3671
0.7136 -1.9824 0.3670
0.8876 -1.9106 0.3670
1.0544 -1.8235 0.3670
5.7668 -8.1870 1.7446
6.5039 -7.6740 1.7524
7.1919 -7.0913 1.7595
7.8070 -6.4299 1.7620
8.3708 -5.7217 1.7664
8.8671 -4.9621 1.7702
9.2908 -4.1580 1.7733
9.6376 -3.3164 1.7756
9.9040 -2.4450 1.7772
4.5918 -0.7064 0.8093
4.5517 -0.2883 0.7946
4.8819 0.1276 0.8508
10.1254 1.1749 1.7758
9.9673 2.0714 1.7735
9.7260 2.9479 1.7705
9.4043 3.7964 1.7668
9.0055 4.6093 1.7624
8.5338 5.3795 1.7574
7.9941 6.1004 1.7518
7.3919 6.7661 1.7458
6.7331 7.3713 1.7392
6.0240 7.9112 1.7323
5.2630 8.3684 1.7222
0.9528 1.8663 0.3651
0.7823 1.9437 0.3650
0.6056 2.0057 0.3650
0.4241 2.0516 0.3650
0.2393 2.0812 0.3650
0.0525 2.0943 0.3650
-0.1346 2.0906 0.3650
-0.3207 2.0703 0.3650
-0.5043 2.0336 0.3650
-0.6839 1.9806 0.3650
-0.8580 1.9119 0.3651
-1.0254 1.8279 0.3651
-6.0326 8.8059 1.8595
-6.2419 7.5627 1.7083
-6.8929 6.9759 1.7085
-7.4951 6.3387 1.7101
-8.0378 5.6492 1.7115
-8.5148 4.9118 1.7125
-8.8057 4.0795 1.6907
-9.2525 3.3194 1.7125
-9.5119 2.4802 1.7125
-9.6953 1.6211 1.7125
-9.8013 0.7492 1.7125
-2.8002 -0.0367 0.4879
-2.7862 -0.2865 0.4879
-2.7500 -0.5342 0.4880
-2.6918 -0.7777 0.4881
-2.6121 -1.0151 0.4882
-2.5115 -1.2444 0.4883
-2.3909 -1.4639 0.4884
-2.3313 -1.7314 0.5059
-2.3623 -2.1064 0.5514
-2.3999 -2.5595 0.6112
-2.4470 -3.1281 0.6919
-2.5089 -3.8763 0.8044
-0.9823 -1.8638 0.3670
-0.8121 -1.9442 0.3671
-0.6353 -2.0091 0.3671
-0.4535 -2.0579 0.3671
-0.2680 -2.0903 0.3671
-0.0803 -2.1059 0.3671
0.1080 -2.1046 0.3671
0.2954 -2.0865 0.3671
0.4805 -2.0516 0.3671
0.6617 -2.0004 0.3671
0.8375 -1.9331 0.3670
1.0066 -1.8504 0.3670
5.5434 -8.3224 1.7420
6.2927 -7.8299 1.7500
7.0056 -7.2774 1.7598
7.6306 -6.6259 1.7605
8.2132 -5.9338 1.7652
8.7297 -5.1886 1.7691
9.1750 -4.3967 1.7724
9.5446 -3.5653 1.7750
9.8348 -2.7018 1.7768
4.6373 -0.8377 0.8209
4.5467 -0.4072 0.7952
4.7925 0.0003 0.8349
10.1555 0.9109 1.7763
10.0221 1.8117 1.7742
9.8048 2.6948 1.7714
9.5062 3.5523 1.7679
9.1295 4.3763 1.7637
8.6786 5.1597 1.7589
8.1582 5.8956 1.7535
7.5736 6.5780 1.7476
6.9306 7.2013 1.7412
5.4479 6.7804 1.5153
5.4960 8.2535 1.7275
1.0011 1.8409 0.3651
0.8327 1.9227 0.3650
0.6577 1.9892 0.3650
0.4775 2.0399 0.3650
0.2934 2.0743 0.3650
0.1071 2.0922 0.3650
-0.0801 2.0934 0.3650
-0.2667 2.0780 0.3650
-0.4511 2.0460 0.3650
-0.6320 1.9977 0.3650
-0.8079 1.9335 0.3651
-0.9774 1.8539 0.3651
-5.8010 8.9601 1.8595
-6.2216 7.9514 1.7589
-6.7067 7.1511 1.7080
-7.3254 6.5302 1.7096
-7.8860 5.8553 1.7111
-8.3837 5.1320 1.7124
-8.4261 4.1738 1.6381
-9.1628 3.5594 1.7125
-9.4440 2.7272 1.7125
-9.6497 1.8733 1.7125
-9.7784 1.0044 1.7125
-2.8000 0.0363 0.4878
-2.7926 -0.2138 0.4879
-2.7628 -0.4623 0.4880
-2.7110 -0.7073 0.4881
-2.6376 -0.9466 0.4882
-2.5430 -1.1785 0.4883
-2.4281 -1.4011 0.4884
-2.3231 -1.6332 0.4947
-2.3527 -1.9902 0.5368
-2.3881 -2.4175 0.5920
-2.4320 -2.9473 0.6657
-2.4889 -3.6340 0.7673
-1.0305 -1.8375 0.3670
-0.8625 -1.9224 0.3671
-0.6875 -1.9919 0.3671
-0.5070 -2.0454 0.3671
-0.3224 -2.0826 0.3671
-0.1352 -2.1031 0.3671
0.0531 -2.1067 0.3671
0.2410 -2.0935 0.3671
0.4269 -2.0635 0.3671
0.6093 -2.0170 0.3671
0.7869 -1.9544 0.3670
0.9581 -1.8761 0.3670
5.3188 -8.4548 1.7401
6.0788 -7.9810 1.7477
6.8012 -7.4441 1.7566
7.4491 -6.8168 1.7591
8.0499 -6.1414 1.7639
8.5862 -5.4110 1.7681
9.0528 -4.6320 1.7715
9.4449 -3.8114 1.7743
9.7586 -2.9564 1.7764
4.7719 -0.9911 0.8491
4.5422 -0.5265 0.7966
4.7472 -0.1235 0.8273
5.0210 0.3187 0.8765
10.0697 1.5504 1.7749
9.8767 2.4396 1.7723
9.6015 3.3053 1.7690
9.2472 4.1399 1.7650
8.8175 4.9359 1.7604
8.3168 5.6863 1.7552
7.7504 6.3849 1.7494
7.1238 7.0260 1.7431
6.4433 7.6045 1.7364
4.9867 7.0814 1.5088
1.0488 1.8143 0.3651
0.8826 1.9004 0.3650
0.7093 1.9715 0.3650
0.5305 2.0268 0.3650
0.3474 2.0659 0.3650
0.1616 2.0887 0.3650
-0.0255 2.0948 0.3650
-0.2124 2.0842 0.3650
-0.3976 2.0570 0.3650
-0.5797 2.0135 0.3650
-0.7572 1.9539 0.3650
-0.9287 1.8787 0.3651
-5.5655 9.1083 1.8595
-6.2115 8.3796 1.8171
-6.5161 7.3213 1.7075
-7.1508 6.7171 1.7092
-7.7288 6.0574 1.7107
-8.2453 5.3476 1.7121
-8.4169 4.4460 1.6583
-9.0669 3.7970 1.7125
-9.3697 2.9724 1.7125
-9.5976 2.1242 1.7125
-9.7489 1.2589 1.7125
-2.7980 0.1093 0.4878
-2.7971 -0.1409 0.4879
-2.7738 -0.3901 0.4880
-2.7284 -0.6363 0.4881
-2.6612 -0.8775 0.4882
-2.5727 -1.1118 0.4882
-2.4636 -1.3372 0.4883
-2.3348 -1.5521 0.4884
-2.3436 -1.8799 0.5234
-2.3770 -2.2840 0.5743
-2.4181 -2.7796 0.6418
-2.4706 -3.4130 0.7340
-1.0780 -1.8100 0.3670
-0.9123 -1.8992 0.3670
-0.7391 -1.9732 0.3671
-0.5601 -2.0315 0.3671
-0.3765 -2.0734 0.3671
-0.1899 -2.0988 0.3671
-0.0018 -2.1074 0.3671
0.1863 -2.0991 0.3671
0.3729 -2.0740 0.3671
0.5565 -2.0323 0.3671
0.7357 -1.9743 0.3670
0.9089 -1.9005 0.3670
1.0748 -1.8115 0.3670
5.8625 -8.1281 1.7459
6.5935 -7.6056 1.7536
7.2701 -7.0097 1.7594
7.8811 -6.3443 1.7626
8.4368 -5.6293 1.7669
8.9242 -4.8638 1.7706
9.3385 -4.0546 1.7736
9.6754 -3.2088 1.7758
9.9316 -2.3343 1.7773
4.5776 -0.6519 0.8055
4.5538 -0.2373 0.7944
4.9069 0.1832 0.8554
10.1102 1.2879 1.7755
9.9416 2.1824 1.7732
9.6901 3.0558 1.7701
9.3585 3.9002 1.7663
8.9503 4.7081 1.7618
8.4699 5.4725 1.7567
7.9220 6.1869 1.7511
7.3124 6.8453 1.7450
6.6470 7.4425 1.7384
5.4519 7.3285 1.5912
1.0958 1.7864 0.3651
0.9318 1.8768 0.3650
0.7605 1.9523 0.3650
0.5831 2.0123 0.3650
0.4011 2.0562 0.3650
0.2160 2.0838 0.3650
0.0291 2.0947 0.3650
-0.1580 2.0890 0.3650
-0.3439 2.0666 0.3650
-0.5270 2.0278 0.3650
-0.7060 1.9729 0.3650
-0.8794 1.9022 0.3651
-1.0458 1.8163 0.3651
-6.1307 8.7379 1.8595
-6.3219 7.4873 1.7071
-6.9713 6.8992 1.7087
-7.5664 6.2552 1.7103
-8.1013 5.5594 1.7117
-8.4200 4.7324 1.6827
-8.9649 4.0320 1.7125
-9.2890 3.2156 1.7125
-9.5390 2.3736 1.7125
-9.7128 1.5126 1.7125
-3.6832 0.2401 0.6430
-2.7997 -0.0680 0.4879
-2.7829 -0.3177 0.4880
-2.7439 -0.5650 0.4880
-2.6830 -0.8078 0.4881
-2.6007 -1.0443 0.4882
-2.4975 -1.2725 0.4883
-2.3744 -1.4906 0.4884
-2.3349 -1.7750 0.5109
-2.3666 -2.1583 0.5580
-2.4052 -2.6234 0.6200
-2.4538 -3.2101 0.7039
-2.5182 -3.9877 0.8216
-0.9614 -1.8747 0.3670
-0.7903 -1.9532 0.3671
-0.6128 -2.0161 0.3671
-0.4304 -2.0629 0.3671
-0.2446 -2.0932 0.3671
-0.0567 -2.1066 0.3671
0.1315 -2.1033 0.3671
0.3188 -2.0830 0.3671
0.5034 -2.0461 0.3671
0.6840 -1.9928 0.3671
0.8591 -1.9236 0.3670
1.0272 -1.8390 0.3670
5.6388 -8.2637 1.7428
6.3845 -7.7645 1.7512
7.0865 -7.1985 1.7598
7.7070 -6.5424 1.7612
8.2815 -5.8433 1.7657
8.7894 -5.0919 1.7696
9.2255 -4.2947 1.7728
9.5854 -3.4588 1.7753
9.8654 -2.5918 1.7770
4.6108 -0.7797 0.8146
4.5489 -0.3562 0.7949
4.8150 0.0542 0.8389
10.1435 1.0243 1.7761
9.9994 1.9233 1.7739
9.7718 2.8037 1.7710
9.4633 3.6574 1.7674
9.0770 4.4767 1.7632
8.6172 5.2545 1.7583
8.0884 5.9841 1.7528
7.4962 6.6594 1.7468
6.8464 7.2749 1.7403
5.3642 6.8314 1.5132
5.3973 8.3052 1.7255
0.9805 1.8520 0.3651
0.8111 1.9319 0.3650
0.6354 1.9964 0.3650
0.4546 2.0451 0.3650
0.2702 2.0774 0.3650
0.0837 2.0932 0.3650
-0.1035 2.0924 0.3650
-0.2899 2.0749 0.3650
-0.4740 2.0408 0.3650
-0.6543 1.9905 0.3650
-0.8295 1.9244 0.3651
-0.9981 1.8429 0.3651
-5.9009 8.8947 1.8595
-6.2258 7.7758 1.7353
-6.7871 7.0766 1.7082
-7.3988 6.4486 1.7098
-7.9518 5.7674 1.7113
-8.4407 5.0379 1.7125
-8.4928 4.0891 1.6421
-9.2021 3.4567 1.7125
-9.4739 2.6214 1.7125
-9.6701 1.7652 1.7125
-9.7891 0.8950 1.7125
-2.8003 0.0050 0.4878
-2.7901 -0.2450 0.4879
-2.7576 -0.4932 0.4880
-2.7030 -0.7376 0.4881
-2.6269 -0.9761 0.4882
-2.5297 -1.2069 0.4883
-2.4123 -1.4282 0.4884
-2.3266 -1.6748 0.4994
-2.3568 -2.0393 0.5429
-2.3931 -2.4774 0.6001
-2.4383 -3.0232 0.6766
-2.4973 -3.7352 0.7828
-1.0099 -1.8489 0.3670
-0.8409 -1.9319 0.3671
-0.6652 -1.9994 0.3671
-0.4841 -2.0510 0.3671
-0.2990 -2.0861 0.3671
-0.1116 -2.1045 0.3671
0.0767 -2.1060 0.3671
0.2644 -2.0907 0.3671
0.4499 -2.0586 0.3671
0.6318 -2.0101 0.3671
0.8087 -1.9454 0.3670
0.9790 -1.8652 0.3670
5.4156 -8.3988 1.7410
6.1702 -7.9158 1.7485
6.8894 -7.3731 1.7579
7.5277 -6.7355 1.7597
5.1478 -8.1163 1.7354
5.8785 -7.6592 1.7434
6.5737 -7.1418 1.7527
7.2088 -6.5481 1.7585
7.7764 -5.8874 1.7612
8.2896 -5.1814 1.7652
8.7355 -4.4291 1.7685
9.1096 -3.6370 1.7711
9.4081 -2.8123 1.7730
4.7114 -0.9604 0.8682
4.5231 -0.5073 0.8218
4.7435 -0.1058 0.8567
9.7988 0.6583 1.7733
9.6911 1.5288 1.7715
9.5025 2.3844 1.7690
9.2349 3.2173 1.7658
8.8913 4.0200 1.7619
8.4753 4.7855 1.7574
7.9912 5.5071 1.7524
7.4438 6.1787 1.7468
6.8388 6.7948 1.7407
6.1818 7.3508 1.7343
4.9307 7.0571 1.5545
1.0055 1.7543 0.3651
0.8448 1.8369 0.3651
0.6774 1.9048 0.3650
0.5046 1.9575 0.3650
0.3279 1.9947 0.3650
0.1485 2.0159 0.3650
-0.0321 2.0212 0.3650
-0.2124 2.0103 0.3650
-0.3910 1.9834 0.3650
-0.5665 1.9407 0.3651
-0.7376 1.8826 0.3651
-0.9028 1.8094 0.3651
-1.0609 1.7218 0.3652
-6.1632 8.2506 1.8595
-6.3117 7.0391 1.7071
-6.9205 6.4529 1.7085
-7.4754 5.8144 1.7100
-7.9708 5.1278 1.7113
-8.4022 4.3986 1.7125
-8.7614 3.6310 1.7125
-9.0505 2.8344 1.7125
-9.2674 2.0152 1.7125
-9.4103 1.1798 1.7125
-2.7000 0.0955 0.4878
-2.6982 -0.1460 0.4879
-2.6749 -0.3863 0.4880
-2.6302 -0.6237 0.4881
-2.5644 -0.8561 0.4882
-2.4782 -1.0818 0.4883
-2.3722 -1.2989 0.4883
-2.3164 -1.5522 0.5035
-2.3448 -1.8952 0.5444
-2.3786 -2.3025 0.5977
-2.4200 -2.8026 0.6686
-2.4731 -3.4431 0.7655
-1.0335 -1.7499 0.3670
-0.8733 -1.8354 0.3670
-0.7060 -1.9062 0.3670
-0.5331 -1.9618 0.3671
-0.3558 -2.0016 0.3671
-0.1757 -2.0254 0.3671
0.0058 -2.0330 0.3671
0.1872 -2.0243 0.3671
0.3672 -1.9994 0.3671
0.5441 -1.9586 0.3670
0.7167 -1.9020 0.3670
0.8836 -1.8302 0.3670
1.0433 -1.7438 0.3669
5.6711 -7.8019 1.7416
6.3743 -7.2981 1.7497
7.0373 -6.7353 1.7589
7.6148 -6.0837 1.7599
8.1467 -5.3924 1.7641
8.6127 -4.6529 1.7676
9.0082 -3.8717 1.7704
9.3291 -3.0558 1.7726
9.5722 -2.2125 1.7740
4.5537 -0.6313 0.8301
4.5369 -0.2197 0.8202
4.7892 0.1965 0.8655
9.7310 1.2761 1.7721
9.5657 2.1369 1.7698
9.3209 2.9772 1.7668
8.9992 3.7895 1.7631
8.6039 4.5665 1.7588
8.1391 5.3015 1.7539
7.6097 5.9883 1.7485
7.0208 6.6212 1.7425
6.3784 7.1951 1.7362
5.4266 7.3510 1.6498
1.0509 1.7276 0.3651
0.8924 1.8143 0.3651
0.7268 1.8865 0.3650
0.5555 1.9437 0.3650
0.3797 1.9855 0.3650
0.2010 2.0114 0.3650
0.0206 2.0213 0.3650
-0.1599 2.0151 0.3650
-0.3392 1.9929 0.3650
-0.5158 1.9548 0.3650
-0.6883 1.9011 0.3651
-0.8553 1.8323 0.3651
-1.0156 1.7488 0.3652
-5.9461 8.4085 1.8595
-6.2252 7.3177 1.7348
-6.7482 6.6293 1.7081
-7.3196 6.0058 1.7096
-7.8327 5.3327 1.7110
-8.2833 4.6154 1.7122
-8.6637 3.8582 1.7125
-8.9736 3.0694 1.7125
-9.2117 2.2560 1.7125
-9.3764 1.4247 1.7125
-3.0439 0.1872 0.5507
-2.7010 -0.0756 0.4879
-2.6839 -0.3164 0.4880
-2.6454 -0.5549 0.4881
-2.5857 -0.7889 0.4881
-2.5054 -1.0168 0.4882
-2.4051 -1.2366 0.4883
-2.3089 -1.4614 0.4934
-2.3361 -1.7895 0.5314
-2.3681 -2.1757 0.5807
-2.4069 -2.6449 0.6457
-2.4561 -3.2379 0.7338
-1.0788 -1.7223 0.3670
-0.9208 -1.8120 0.3670
-0.7555 -1.8871 0.3670
-0.5840 -1.9472 0.3671
-0.4079 -1.9916 0.3671
-0.2285 -2.0201 0.3671
-0.0472 -2.0325 0.3671
0.1344 -2.0286 0.3671
0.3149 -2.0084 0.3671
0.4929 -1.9721 0.3670
0.6669 -1.9201 0.3670
0.8356 -1.8527 0.3670
0.9975 -1.7705 0.3669
5.4594 -7.9376 1.7395
6.1726 -7.4506 1.7470
6.8524 -6.9095 1.7571
7.4480 -6.2754 1.7586
7.9982 -5.5992 1.7629
8.4839 -4.8731 1.7666
8.9004 -4.1034 1.7697
9.2434 -3.2969 1.7720
9.5095 -2.4608 1.7736
4.5864 -0.7582 0.8394
4.5320 -0.3380 0.8206
4.7370 0.0708 0.8554
9.7639 1.0224 1.7727
9.6222 1.8877 1.7706
9.4004 2.7348 1.7677
9.1007 3.5560 1.7643
8.7265 4.3440 1.7601
8.2815 5.0919 1.7554
7.7704 5.7933 1.7501
7.1984 6.4425 1.7443
6.5709 7.0341 1.7381
5.3351 6.8461 1.5672
1.0956 1.6996 0.3651
0.9394 1.7904 0.3651
0.7758 1.8670 0.3651
0.6060 1.9286 0.3650
0.4314 1.9749 0.3650
0.2533 2.0055 0.3650
0.0733 2.0201 0.3650
-0.1073 2.0186 0.3650
-0.2871 2.0010 0.3650
-0.4646 1.9675 0.3650
-0.6385 1.9183 0.3651
-0.8072 1.8539 0.3651
-0.9696 1.7746 0.3651
-5.7249 8.5606 1.8595
-6.2160 7.7051 1.7876
-6.5713 6.8010 1.7076
-7.1587 6.1929 1.7092
-7.6894 5.5338 1.7106
-8.1586 4.8288 1.7118
-8.5515 4.0785 1.7107
-8.8905 3.3022 1.7125
-9.1498 2.4954 1.7125
-9.3360 1.6686 1.7125
-9.4477 0.8285 1.7125
-2.7019 -0.0052 0.4879
-2.6911 -0.2464 0.4879
-2.6588 -0.4857 0.4880
-2.6053 -0.7212 0.4881
-2.5310 -0.9511 0.4882
-2.4364 -1.1734 0.4883
-2.3223 -1.3865 0.4884
-2.3277 -1.6887 0.5193
-2.3581 -2.0558 0.5649
-2.3947 -2.4975 0.6248
-2.4404 -3.0488 0.7051
-2.5001 -3.7695 0.8167
-0.9677 -1.7873 0.3670
-0.8044 -1.8667 0.3670
-0.6346 -1.9313 0.3671
-0.4597 -1.9803 0.3671
-0.2811 -2.0135 0.3671
-0.1002 -2.0306 0.3671
0.0815 -2.0314 0.3671
0.2625 -2.0159 0.3671
0.4414 -1.9843 0.3671
0.6167 -1.9369 0.3670
0.7871 -1.8739 0.3670
0.9511 -1.7959 0.3669
5.2408 -8.0622 1.7363
5.9670 -7.5970 1.7443
6.6585 -7.0734 1.7541
7.2809 -6.4665 1.7583
7.8442 -5.8018 1.7617
8.3492 -5.0897 1.7656
8.7864 -4.3320 1.7688
9.1512 -3.5354 1.7714
9.4400 -2.7072 1.7732
4.6524 -0.8942 0.8554
4.5268 -0.4565 0.8215
4.7628 -0.0530 0.8601
9.7899 0.7678 1.7731
9.6719 1.6369 1.7712
9.4732 2.4901 1.7686
9.1960 3.3196 1.7653
8.8431 4.1180 1.7614
8.4183 4.8783 1.7568
7.9260 5.5940 1.7517
7.3712 6.2589 1.7461
6.7593 6.8678 1.7399
6.0963 7.4159 1.7334
4.8528 7.1138 1.5549
0.9858 1.7654 0.3651
0.8242 1.8462 0.3651
0.6560 1.9122 0.3650
0.4827 1.9630 0.3650
0.3055 1.9982 0.3650
0.1259 2.0175 0.3650
-0.0547 2.0207 0.3650
-0.2349 2.0078 0.3650
-0.4132 1.9789 0.3650
-0.5882 1.9343 0.3651
-0.7586 1.8742 0.3651
-0.9230 1.7992 0.3651
-5.4998 8.7069 1.8595
-6.2060 8.1169 1.8449
-6.3937 6.9719 1.7081
-6.9931 6.3758 1.7087
-7.5408 5.7310 1.7102
-8.0284 5.0388 1.7115
-8.4162 4.2867 1.7054
-8.8014 3.5328 1.7125
-9.0817 2.7330 1.7125
-9.2894 1.9114 1.7125
-9.4229 1.0745 1.7125
-2.7010 0.0653 0.4878
-2.6965 -0.1761 0.4879
-2.6704 -0.4162 0.4880
-2.6231 -0.6531 0.4881
-2.5547 -0.8848 0.4882
-2.4660 -1.1095 0.4883
-2.3575 -1.3254 0.4883
-2.3198 -1.5923 0.5080
-2.3487 -1.9422 0.5503
-2.3833 -2.3592 0.6055
-2.4259 -2.8738 0.6791
-2.4808 -3.5367 0.7801
-1.0139 -1.7614 0.3670
-0.8527 -1.8451 0.3670
-0.6847 -1.9140 0.3670
-0.5111 -1.9676 0.3671
-0.3334 -2.0055 0.3671
-0.1531 -2.0273 0.3671
0.0285 -2.0328 0.3671
0.2099 -2.0221 0.3671
0.3895 -1.9952 0.3671
0.5660 -1.9523 0.3670
0.7380 -1.8938 0.3670
0.9040 -1.8202 0.3670
1.0627 -1.7320 0.3669
5.7607 -7.7416 1.7424
6.4585 -7.2297 1.7505
7.1115 -6.6555 1.7587
7.6848 -6.0000 1.7605
8.2088 -5.3024 1.7645
8.6662 -4.5573 1.7680
9.0525 -3.7713 1.7707
9.3638 -2.9516 1.7728
4.8573 -1.0656 0.8979
4.5397 -0.5777 0.8263
4.7180 -0.1755 0.8525
4.8463 0.2532 0.8763
9.7147 1.3847 1.7719
9.5394 2.2434 1.7695
9.2848 3.0806 1.7664
8.9536 3.8888 1.7626
8.5494 4.6609 1.7582
8.0763 5.3902 1.7533
7.5391 6.0706 1.7478
6.9432 6.6963 1.7418
6.2945 7.2626 1.7354
5.3494 7.4187 1.6515
1.0315 1.7392 0.3651
0.8721 1.8241 0.3651
0.7057 1.8945 0.3650
0.5337 1.9498 0.3650
0.3575 1.9896 0.3650
0.1785 2.0135 0.3650
-0.0020 2.0214 0.3650
-0.1824 2.0132 0.3650
-0.3614 1.9890 0.3650
-0.5376 1.9489 0.3650
-0.7095 1.8933 0.3651
-0.8758 1.8226 0.3651
-1.0351 1.7374 0.3652
-6.0398 8.3414 1.8595
-6.2347 7.1649 1.7150
-6.8227 6.5541 1.7083
-7.3871 5.9241 1.7098
-7.8926 5.2452 1.7111
-8.3351 4.5228 1.7123
-8.7063 3.7610 1.7125
-9.0073 2.9688 1.7125
-9.2364 2.1529 1.7125
-9.3917 1.3198 1.7125
-2.6982 0.1356 0.4878
-2.7000 -0.1058 0.4879
-2.6802 -0.3465 0.4880
-2.6391 -0.5844 0.4881
-2.5768 -0.8178 0.4882
-2.4940 -1.0448 0.4882
-2.3912 -1.2635 0.4883
-2.3121 -1.5000 0.4976
-2.3398 -1.8343 0.5368
-2.3725 -2.2292 0.5878
-2.4124 -2.7112 0.6553
-2.4632 -3.3238 0.7470
-1.0594 -1.7343 0.3670
-0.9005 -1.8222 0.3670
-0.7343 -1.8955 0.3670
-0.5622 -1.9536 0.3671
-0.3856 -1.9961 0.3671
-0.2059 -2.0226 0.3671
-0.0245 -2.0329 0.3671
0.1571 -2.0269 0.3671
0.3374 -2.0047 0.3671
0.5150 -1.9665 0.3670
0.6884 -1.9125 0.3670
0.8563 -1.8432 0.3670
1.0172 -1.7592 0.3669
5.5509 -7.8804 1.7405
6.2597 -7.3859 1.7482
6.9344 -6.8374 1.7584
7.5202 -6.1937 1.7591
8.0626 -5.5110 1.7634
8.5399 -4.7791 1.7670
8.9474 -4.0043 1.7700
9.2810 -3.1937 1.7723
9.5372 -2.3545 1.7738
4.5723 -0.7034 0.8353
4.5342 -0.2872 0.8204
4.7359 0.1238 0.8554
9.7506 1.1314 1.7724
9.5988 1.9948 1.7702
9.3671 2.8391 1.7673
9.0579 3.6565 1.7638
8.6746 4.4399 1.7596
8.2211 5.1824 1.7548
7.7021 5.8776 1.7494
7.1228 6.5198 1.7436
6.4888 7.1039 1.7373
5.8099 7.6300 1.7317
1.0765 1.7118 0.3651
0.9193 1.8008 0.3651
0.7548 1.8755 0.3651
0.5843 1.9353 0.3650
0.4092 1.9796 0.3650
0.2309 2.0082 0.3650
0.0507 2.0208 0.3650
-0.1299 2.0173 0.3650
-0.3095 1.9977 0.3650
-0.4866 1.9622 0.3650
-0.6599 1.9111 0.3651
-0.8279 1.8448 0.3651
-0.9894 1.7637 0.3652
-5.8203 8.4960 1.8595
-6.2200 7.5361 1.7644
-6.6477 6.7279 1.7078
-7.2283 6.1131 1.7094
-7.7515 5.4479 1.7108
-8.2128 4.7376 1.7120
-8.6054 3.9866 1.7125
-8.9269 3.2026 1.7125
-9.1771 2.3929 1.7125
-9.3541 1.5641 1.7125
-9.4564 0.7228 1.7125
-2.7017 -0.0354 0.4879
-2.6882 -0.2765 0.4880
-2.6533 -0.5154 0.4880
-2.5971 -0.7504 0.4881
-2.5202 -0.9794 0.4882
-2.4232 -1.2006 0.4883
-2.3067 -1.4124 0.4884
-2.3313 -1.7314 0.5243
-2.3623 -2.1064 0.5715
-2.3999 -2.5595 0.6335
-2.4470 -3.1281 0.7171
-2.5089 -3.8763 0.8337
-0.9477 -1.7980 0.3670
-0.7834 -1.8756 0.3670
-0.6129 -1.9382 0.3671
-0.4375 -1.9853 0.3671
-0.2585 -2.0165 0.3671
-0.0775 -2.0316 0.3671
0.1042 -2.0303 0.3671
0.2850 -2.0129 0.3671
0.4635 -1.9793 0.3671
0.6383 -1.9298 0.3670
0.8080 -1.8649 0.3670
0.9711 -1.7851 0.3669
5.3350 -8.0096 1.7377
6.0557 -7.5349 1.7455
6.7422 -7.0038 1.7554
7.3521 -6.3840 1.7581
7.9110 -5.7154 1.7622
8.4077 -4.9972 1.7660
8.8361 -4.2343 1.7692
9.1915 -3.4334 1.7717
9.4706 -2.6017 1.7734
4.6073 -0.8323 0.8454
4.5291 -0.4056 0.8211
4.7375 0.0003 0.8554
9.7796 0.8771 1.7729
9.6514 1.7447 1.7710
9.4428 2.5953 1.7683
9.1559 3.4214 1.7649
8.7938 4.2154 1.7609
8.3603 4.9704 1.7562
7.8599 5.6801 1.7510
7.2976 6.3383 1.7453
6.6789 6.9398 1.7391
5.4349 6.7641 1.5668
5.2884 7.9418 1.7229
0.9660 1.7763 0.3651
0.8035 1.8553 0.3651
0.6346 1.9194 0.3650
0.4607 1.9683 0.3650
0.2831 2.0015 0.3650
0.1033 2.0188 0.3650
-0.0773 2.0199 0.3650
-0.2573 2.0051 0.3650
-0.4353 1.9742 0.3650
-0.6098 1.9276 0.3651
-0.7795 1.8657 0.3651
-0.9431 1.7888 0.3651
-5.5969 8.6448 1.8595
-6.2104 7.9370 1.8197
-6.4683 6.8970 1.7073
-7.0648 6.2979 1.7089
-7.6052 5.6468 1.7104
-8.0849 4.9491 1.7117
-8.4166 4.1690 1.6960
-8.8404 3.4341 1.7125
-9.1117 2.6312 1.7125
-9.3102 1.8073 1.7125
-9.4343 0.9691 1.7125
-2.7016 0.0350 0.4879
-2.6944 -0.2063 0.4879
-2.6657 -0.4461 0.4880
-2.6157 -0.6824 0.4881
-2.5447 -0.9133 0.4882
-2.4535 -1.1370 0.4883
-2.3426 -1.3517 0.4884
-2.3231 -1.6332 0.5128
-2.3527 -1.9902 0.5564
-2.3881 -2.4175 0.6136
-2.4320 -2.9473 0.6900
-2.4889 -3.6340 0.7953
-0.9942 -1.7727 0.3670
-0.8320 -1.8545 0.3670
-0.6632 -1.9216 0.3671
-0.4891 -1.9732 0.3671
-0.3110 -2.0091 0.3671
-0.1304 -2.0289 0.3671
0.0512 -2.0324 0.3671
0.2325 -2.0196 0.3671
0.4118 -1.9907 0.3671
0.5878 -1.9458 0.3670
0.7591 -1.8854 0.3670
0.9243 -1.8099 0.3670
1.0820 -1.7199 0.3669
5.8494 -7.6798 1.7431
6.5452 -7.1638 1.7521
7.1848 -6.5749 1.7585
7.7539 -5.9155 1.7610
8.2697 -5.2116 1.7650
8.7185 -4.4610 1.7684
9.0956 -3.6705 1.7710
9.3973 -2.8470 1.7730
4.7341 -0.9832 0.8731
4.5242 -0.5244 0.8224
4.7372 -0.1232 0.8557
9.8015 0.6221 1.7734
9.6972 1.4931 1.7716
9.5118 2.3495 1.7691
9.2475 3.1835 1.7659
8.9070 3.9876 1.7621
8.4939 4.7547 1.7576
8.0125 5.4782 1.7526
7.4677 6.1520 1.7470
6.8648 6.7705 1.7410
6.2099 7.3290 1.7345
4.9607 7.0445 1.5557
1.0120 1.7506 0.3651
0.8516 1.8337 0.3651
0.6844 1.9023 0.3650
0.5119 1.9556 0.3650
0.3352 1.9935 0.3650
0.1559 2.0154 0.3650
-0.0246 2.0213 0.3650
-0.2050 2.0110 0.3650
-0.3837 1.9848 0.3650
-0.5594 1.9428 0.3650
-0.7306 1.8853 0.3651
-0.8961 1.8127 0.3651
-1.0545 1.7257 0.3652
-6.1327 8.2733 1.8595
-6.2856 7.0624 1.7071
-6.8964 6.4781 1.7085
-7.4536 5.8417 1.7100
-7.9516 5.1571 1.7113
-8.3859 4.4296 1.7125
-8.7479 3.6634 1.7125
-9.0400 2.8678 1.7125
-9.2599 2.0494 1.7125
-9.4059 1.2146 1.7125
-2.6996 0.1054 0.4878
-2.6987 -0.1360 0.4879
-2.6763 -0.3764 0.4880
-2.6324 -0.6139 0.4881
-2.5676 -0.8466 0.4882
-2.4822 -1.0726 0.4882
-2.3769 -1.2902 0.4883
-2.3153 -1.5391 0.5020
-2.3436 -1.8800 0.5425
-2.3771 -2.2840 0.5952
-2.4181 -2.7796 0.6652
-2.4706 -3.4130 0.7608
-1.0400 -1.7461 0.3670
-0.8801 -1.8322 0.3670
-0.7131 -1.9036 0.3670
-0.5403 -1.9598 0.3671
-0.3632 -2.0003 0.3671
-0.1832 -2.0248 0.3671
-0.0017 -2.0330 0.3671
0.1797 -2.0250 0.3671
0.3598 -2.0008 0.3671
0.5369 -1.9606 0.3670
0.7097 -1.9046 0.3670
0.8768 -1.8335 0.3670
1.0368 -1.7476 0.3669
5.6414 -7.8216 1.7413
6.3460 -7.3201 1.7493
7.0126 -6.7615 1.7589
7.5915 -6.1112 1.7597
8.1260 -5.4220 1.7639
8.5948 -4.6843 1.7674
8.9933 -3.9047 1.7703
9.3173 -3.0901 1.7725
9.5637 -2.2478 1.7739
4.5583 -0.6491 0.8314
4.5362 -0.2364 0.8202
4.7706 0.1781 0.8620
9.7361 1.2402 1.7722
9.5742 2.1017 1.7699
9.3326 2.9430 1.7669
9.0139 3.7566 1.7633
8.6216 4.5352 1.7590
8.1596 5.2721 1.7541
7.6328 5.9609 1.7487
7.0463 6.5961 1.7428
6.4059 7.1726 1.7365
5.4665 7.3481 1.6537
1.0573 1.7237 0.3651
0.8991 1.8110 0.3651
0.7338 1.8838 0.3650
0.5627 1.9417 0.3650
0.3871 1.9841 0.3650
0.2084 2.0106 0.3650
0.0281 2.0212 0.3650
-0.1525 2.0157 0.3650
-0.3318 1.9941 0.3650
-0.5085 1.9567 0.3650
-0.6812 1.9036 0.3651
-0.8485 1.8354 0.3651
-1.0091 1.7526 0.3652
-5.9150 8.4304 1.8595
-6.2239 7.3713 1.7420
-6.7234 6.6539 1.7080
-7.2971 6.0325 1.7095
-7.8128 5.3614 1.7109
-8.2660 4.6459 1.7121
-8.6494 3.8901 1.7125
-8.9622 3.1025 1.7125
-9.2033 2.2901 1.7125
-9.3710 1.4594 1.7125
-3.6828 0.2401 0.6664
-2.7012 -0.0656 0.4879
-2.6850 -0.3065 0.4880
-2.6474 -0.5451 0.4881
-2.5886 -0.7794 0.4881
-2.5092 -1.0075 0.4882
-2.4096 -1.2277 0.4883
-2.3079 -1.4489 0.4920
-2.3349 -1.7750 0.5296
-2.3666 -2.1583 0.5783
-2.4052 -2.6234 0.6426
-2.4538 -3.2101 0.7296
-1.0851 -1.7183 0.3670
-0.9275 -1.8086 0.3670
-0.7624 -1.8843 0.3670
-0.5912 -1.9450 0.3671
-0.4152 -1.9901 0.3671
-0.2359 -2.0193 0.3671
-0.0547 -2.0323 0.3671
0.1269 -2.0290 0.3671
0.3075 -2.0095 0.3671
0.4856 -1.9739 0.3670
0.6598 -1.9225 0.3670
0.8287 -1.8558 0.3670
0.9910 -1.7741 0.3669
5.4286 -7.9557 1.7391
6.1438 -7.4717 1.7466
6.8252 -6.9331 1.7567
7.4240 -6.3022 1.7584
7.9767 -5.6282 1.7627
8.4652 -4.9041 1.7665
8.8846 -4.1360 1.7696
9.2307 -3.3308 1.7719
9.5000 -2.4958 1.7736
4.5911 -0.7764 0.8408
4.5313 -0.3548 0.8207
4.7372 0.0533 0.8554
9.7680 0.9864 1.7727
9.6297 1.8522 1.7707
9.4111 2.7002 1.7679
9.1146 3.5226 1.7644
8.7434 4.3122 1.7603
8.3013 5.0619 1.7556
7.7928 5.7653 1.7503
7.2231 6.4168 1.7446
6.5979 7.0109 1.7383
5.3490 6.8120 1.5639
1.1019 1.6956 0.3651
0.9460 1.7870 0.3651
0.7827 1.8641 0.3651
0.6131 1.9264 0.3650
0.4387 1.9733 0.3650
0.2607 2.0045 0.3650
0.0808 2.0198 0.3650
-0.0999 2.0190 0.3650
-0.2797 2.0021 0.3650
-0.4573 1.9692 0.3650
-0.6314 1.9207 0.3651
-0.8004 1.8568 0.3651
-0.9631 1.7782 0.3651
-5.6932 8.5817 1.8595
-6.2146 7.7619 1.7954
-6.5458 6.8250 1.7075
-7.1355 6.2191 1.7091
-7.6686 5.5619 1.7105
-8.1405 4.8587 1.7118
-8.4820 4.0839 1.6998
-8.8783 3.3350 1.7125
-9.1405 2.5292 1.7125
-9.3298 1.7031 1.7125
-9.4446 0.8635 1.7125
-2.7019 0.0048 0.4879
-2.6920 -0.2364 0.4879
-2.6606 -0.4759 0.4880
-2.6079 -0.7116 0.4881
-2.5344 -0.9417 0.4882
-2.4407 -1.1644 0.4883
-2.3274 -1.3779 0.4884
-2.3266 -1.6748 0.5176
-2.3568 -2.0393 0.5628
-2.3931 -2.4774 0.6219
-2.4383 -3.0232 0.7013
-2.4973 -3.7352 0.8113
-0.9743 -1.7837 0.3670
-0.8113 -1.8638 0.3670
-0.6417 -1.9289 0.3671
-0.4670 -1.9786 0.3671
-0.2885 -2.0124 0.3671
-0.1077 -2.0302 0.3671
0.0740 -2.0317 0.3671
0.2550 -2.0169 0.3671
0.4340 -1.9860 0.3671
0.6095 -1.9391 0.3670
0.7801 -1.8768 0.3670
0.9444 -1.7994 0.3669
5.2100 -8.0800 1.7360
5.9375 -7.6173 1.7439
6.6306 -7.0962 1.7536
7.2572 -6.4935 1.7584
1.0512 -1.6573 0.3669
5.6566 -7.3701 1.7367
6.3325 -6.8798 1.7479
6.9618 -6.3237 1.7581
7.5000 -5.6782 1.7585
7.9943 -4.9969 1.7623
8.4238 -4.2710 1.7655
8.7840 -3.5070 1.7681
9.0715 -2.7117 1.7699
4.8414 -0.9869 0.9236
4.5069 -0.5055 0.8478
4.5750 -0.1021 0.8554
9.4482 0.6347 1.7702
9.3447 1.4742 1.7684
9.1632 2.2993 1.7660
8.9058 3.1027 1.7629
8.5751 3.8771 1.7592
8.1746 4.6157 1.7549
7.7085 5.3122 1.7500
7.1813 5.9608 1.7446
6.5984 6.5560 1.7388
5.9653 7.0933 1.7325
4.9307 7.0571 1.6093
0.9713 1.6947 0.3651
0.8161 1.7745 0.3651
0.6544 1.8401 0.3651
0.4875 1.8910 0.3650
0.3167 1.9269 0.3650
0.1434 1.9475 0.3650
-0.0310 1.9525 0.3650
-0.2052 1.9420 0.3650
-0.3777 1.9160 0.3651
-0.5473 1.8748 0.3651
-0.7125 1.8186 0.3651
-0.8721 1.7479 0.3652
-1.0248 1.6633 0.3652
-5.9533 7.9696 1.8595
-6.2232 6.9404 1.7426
-6.6823 6.2307 1.7079
-7.2179 5.6140 1.7093
-7.6960 4.9510 1.7106
-8.1125 4.2470 1.7117
-8.4629 3.5073 1.7125
-8.7422 2.7379 1.7125
-8.9517 1.9465 1.7125
-9.0897 1.1397 1.7125
-2.6081 0.0922 0.4878
-2.6064 -0.1410 0.4879
-2.5838 -0.3732 0.4880
-2.5406 -0.6024 0.4881
-2.4771 -0.8270 0.4882
-2.3938 -1.0450 0.4883
-2.2918 -1.2549 0.4884
-2.3164 -1.5522 0.5212
-2.3448 -1.8952 0.5636
-2.3786 -2.3025 0.6188
-2.4200 -2.8026 0.6922
-2.4731 -3.4431 0.7924
-0.9982 -1.6902 0.3669
-0.8435 -1.7727 0.3670
-0.6819 -1.8411 0.3670
-0.5149 -1.8948 0.3670
-0.3437 -1.9332 0.3670
-0.1697 -1.9562 0.3671
0.0056 -1.9636 0.3671
0.1808 -1.9552 0.3670
0.3546 -1.9312 0.3670
0.5256 -1.8917 0.3670
0.6923 -1.8370 0.3670
0.8534 -1.7677 0.3669
1.0077 -1.6842 0.3669
5.4578 -7.5085 1.7352
6.1378 -7.0274 1.7442
6.7858 -6.4946 1.7558
7.3443 -5.8676 1.7572
7.8567 -5.2004 1.7613
8.3055 -4.4869 1.7646
8.6863 -3.7334 1.7674
8.9954 -2.9465 1.7694
9.2296 -2.1333 1.7708
4.5328 -0.6284 0.8554
4.5194 -0.2188 0.8458
4.8629 0.1995 0.9098
9.3830 1.2305 1.7690
9.2241 2.0606 1.7668
8.9886 2.8711 1.7639
8.6789 3.6547 1.7603
8.2984 4.4044 1.7562
7.8509 5.1138 1.7515
7.3411 5.7769 1.7462
6.7738 6.3882 1.7405
6.1548 6.9429 1.7344
5.4887 7.4351 1.7276
1.0152 1.6689 0.3652
0.8621 1.7526 0.3651
0.7021 1.8224 0.3651
0.5366 1.8777 0.3651
0.3668 1.9180 0.3650
0.1941 1.9431 0.3650
0.0199 1.9526 0.3650
-0.1545 1.9467 0.3650
-0.3276 1.9252 0.3651
-0.4982 1.8884 0.3651
-0.6649 1.8365 0.3651
-0.8262 1.7700 0.3651
-0.9811 1.6894 0.3652
-5.7435 8.1220 1.8595
-6.2144 7.3051 1.7928
-6.5159 6.4011 1.7075
-7.0674 5.7989 1.7089
-7.5627 5.1488 1.7103
-7.9976 4.4562 1.7114
-8.3683 3.7266 1.7124
-8.6679 2.9648 1.7125
-8.8979 2.1792 1.7125
-9.0569 1.3762 1.7125
-3.0436 0.1871 0.5700
-2.6090 -0.0730 0.4879
-2.5925 -0.3057 0.4880
-2.5553 -0.5360 0.4881
-2.4977 -0.7621 0.4881
-2.4201 -0.9822 0.4882
-2.3231 -1.1945 0.4883
-2.3089 -1.4614 0.5108
-2.3361 -1.7895 0.5501
-2.3681 -2.1757 0.6011
-2.4069 -2.6449 0.6685
-2.4561 -3.2379 0.7597
-1.0419 -1.6635 0.3669
-0.8894 -1.7501 0.3670
-0.7297 -1.8227 0.3670
-0.5641 -1.8807 0.3670
-0.3940 -1.9236 0.3670
-0.2207 -1.9511 0.3671
-0.0456 -1.9631 0.3671
0.1298 -1.9593 0.3671
0.3042 -1.9398 0.3670
0.4761 -1.9048 0.3670
0.6442 -1.8545 0.3670
0.8071 -1.7894 0.3669
0.9635 -1.7100 0.3669
5.2552 -7.6408 1.7335
5.9399 -7.1696 1.7404
6.6034 -6.6583 1.7530
7.1902 -6.0581 1.7576
7.7136 -5.4000 1.7601
8.1815 -4.6994 1.7637
8.5825 -3.9569 1.7667
8.9129 -3.1790 1.7689
9.1691 -2.3727 1.7705
4.5516 -0.7524 0.8624
4.5146 -0.3367 0.8463
4.6614 0.0697 0.8715
9.4146 0.9858 1.7695
9.2785 1.8202 1.7675
9.0650 2.6372 1.7648
8.7767 3.4294 1.7614
8.4165 4.1897 1.7575
7.9881 4.9115 1.7529
7.4959 5.5887 1.7478
6.9449 6.2156 1.7422
6.3403 6.7872 1.7362
5.3351 6.8461 1.6225
1.0584 1.6419 0.3652
0.9075 1.7296 0.3651
0.7494 1.8035 0.3651
0.5854 1.8631 0.3651
0.4167 1.9078 0.3650
0.2447 1.9374 0.3650
0.0708 1.9515 0.3650
-0.1037 1.9500 0.3650
-0.2774 1.9330 0.3650
-0.4488 1.9007 0.3651
-0.6168 1.8532 0.3651
-0.7798 1.7909 0.3651
-0.9367 1.7143 0.3652
-5.5299 8.2690 1.8595
-6.2049 7.6914 1.8473
-6.3457 6.5675 1.7071
-6.9122 5.9797 1.7085
-7.4244 5.3430 1.7099
-7.8773 4.6622 1.7111
-8.2670 3.9428 1.7121
-8.5877 3.1897 1.7125
-8.8381 2.4104 1.7125
-9.0180 1.6118 1.7125
-9.1259 0.8003 1.7125
-2.6099 -0.0050 0.4879
-2.5995 -0.2380 0.4880
-2.5683 -0.4692 0.4880
-2.5166 -0.6967 0.4881
-2.4447 -0.9187 0.4882
-2.3534 -1.1335 0.4883
-2.3017 -1.3742 0.5011
-2.3277 -1.6887 0.5376
-2.3581 -2.0558 0.5848
-2.3947 -2.4975 0.6468
-2.4404 -3.0488 0.7300
-1.0849 -1.6358 0.3669
-0.9347 -1.7263 0.3670
-0.7769 -1.8030 0.3670
-0.6129 -1.8653 0.3670
-0.4440 -1.9127 0.3670
-0.2715 -1.9447 0.3671
-0.0968 -1.9612 0.3671
0.0787 -1.9620 0.3671
0.2535 -1.9471 0.3670
0.4263 -1.9166 0.3670
0.5956 -1.8707 0.3670
0.7602 -1.8099 0.3670
0.9186 -1.7346 0.3669
1.0696 -1.6455 0.3669
5.7425 -7.3112 1.7379
6.4149 -6.8147 1.7495
7.0314 -6.2449 1.7579
7.5653 -5.5956 1.7590
8.0517 -4.9083 1.7627
8.4727 -4.1773 1.7659
8.8241 -3.4091 1.7683
9.1022 -2.6104 1.7701
4.6327 -0.8905 0.8819
4.5094 -0.4548 0.8472
4.5759 -0.0509 0.8554
9.4396 0.7403 1.7700
9.3262 1.5784 1.7682
9.1351 2.4012 1.7657
8.8684 3.2013 1.7625
8.5287 3.9716 1.7587
8.1198 4.7053 1.7543
7.6457 5.3962 1.7494
7.1113 6.0383 1.7439
6.5218 6.6265 1.7380
5.8856 7.1596 1.7325
1.1009 1.6138 0.3652
0.9523 1.7054 0.3651
0.7962 1.7834 0.3651
0.6338 1.8473 0.3651
0.4663 1.8963 0.3650
0.2951 1.9303 0.3650
0.1216 1.9489 0.3650
-0.0528 1.9520 0.3650
-0.2269 1.9396 0.3650
-0.3991 1.9117 0.3651
-0.5682 1.8686 0.3651
-0.7328 1.8105 0.3651
-0.8916 1.7381 0.3652
-1.0434 1.6518 0.3652
-6.0420 7.9025 1.8595
-6.2268 6.7900 1.7222
-6.7523 6.1563 1.7081
-7.2809 5.5335 1.7095
-7.7515 4.8650 1.7108
-8.1601 4.1563 1.7119
-8.5016 3.4124 1.7125
-8.7723 2.6399 1.7125
-8.9729 1.8463 1.7125
-9.1019 1.0379 1.7125
-2.6090 0.0630 0.4879
-2.6047 -0.1701 0.4879
-2.5795 -0.4020 0.4880
-2.5337 -0.6308 0.4881
-2.4677 -0.8546 0.4882
-2.3820 -1.0717 0.4883
-2.2947 -1.2901 0.4921
-2.3198 -1.5923 0.5260
-2.3487 -1.9422 0.5697
-2.3833 -2.3592 0.6269
-2.4259 -2.8738 0.7030
-2.4808 -3.5368 0.8076
-0.9793 -1.7013 0.3669
-0.8236 -1.7821 0.3670
-0.6613 -1.8486 0.3670
-0.4936 -1.9004 0.3670
-0.3220 -1.9370 0.3671
-0.1479 -1.9580 0.3671
0.0275 -1.9634 0.3671
0.2027 -1.9530 0.3670
0.3762 -1.9271 0.3670
0.5467 -1.8856 0.3670
0.7128 -1.8291 0.3670
0.8731 -1.7580 0.3669
1.0264 -1.6728 0.3669
5.5436 -7.4498 1.7359
6.2219 -6.9649 1.7458
6.8627 -6.4227 1.7570
7.4118 -5.7868 1.7578
7.9164 -5.1135 1.7617
8.3570 -4.3947 1.7650
8.7290 -3.6366 1.7677
9.0288 -2.8460 1.7696
9.2535 -2.0301 1.7709
4.5207 -0.5753 0.8519
4.5730 -0.1701 0.8554
9.4578 0.4941 1.7704
9.3674 1.3352 1.7688
9.1988 2.1633 1.7665
8.9538 2.9708 1.7635
8.6351 3.7505 1.7599
8.2460 4.4955 1.7556
7.7905 5.1995 1.7508
7.2731 5.8564 1.7455
6.6991 6.4608 1.7398
6.0739 7.0081 1.7336
5.3997 7.4885 1.7258
0.9965 1.6801 0.3651
0.8424 1.7621 0.3651
0.6817 1.8301 0.3651
0.5156 1.8836 0.3651
0.3454 1.9220 0.3650
0.1724 1.9451 0.3650
-0.0019 1.9527 0.3650
-0.1762 1.9448 0.3650
-0.3492 1.9214 0.3651
-0.5193 1.8827 0.3651
-0.6854 1.8290 0.3651
-0.8460 1.7607 0.3652
-0.9999 1.6783 0.3652
-5.8340 8.0573 1.8595
-6.2183 7.1461 1.7708
-6.5879 6.3286 1.7077
-7.1326 5.7201 1.7091
-7.6206 5.0644 1.7104
-8.0476 4.3668 1.7116
-8.4098 3.6329 1.7125
-8.7005 2.8677 1.7125
-8.9218 2.0795 1.7125
-9.0718 1.2748 1.7125
-2.6064 0.1310 0.4878
-2.6081 -0.1022 0.4879
-2.5890 -0.3347 0.4880
-2.5492 -0.5645 0.4881
-2.4890 -0.7900 0.4882
-2.4090 -1.0092 0.4882
-2.3097 -1.2204 0.4883
-2.3121 -1.5000 0.5152
-2.3398 -1.8343 0.5558
-2.3725 -2.2292 0.6086
-2.4124 -2.7112 0.6784
-2.4632 -3.3238 0.7733
-1.0233 -1.6751 0.3669
-0.8697 -1.7600 0.3670
-0.7092 -1.8307 0.3670
-0.5430 -1.8869 0.3670
-0.3724 -1.9279 0.3670
-0.1988 -1.9535 0.3671
-0.0237 -1.9634 0.3671
0.1517 -1.9577 0.3670
0.3258 -1.9362 0.3670
0.4974 -1.8993 0.3670
0.6649 -1.8472 0.3670
0.8270 -1.7802 0.3669
0.9825 -1.6991 0.3669
5.3426 -7.5847 1.7343
6.0233 -7.1070 1.7415
6.6822 -6.5887 1.7542
7.2568 -5.9767 1.7574
7.7757 -5.3149 1.7606
8.2354 -4.6086 1.7641
8.6278 -3.8613 1.7670
8.9491 -3.0795 1.7691
9.1959 -2.2702 1.7706
4.5372 -0.6980 0.8581
4.5167 -0.2861 0.8460
4.7197 0.1233 0.8826
9.4019 1.0909 1.7693
9.2559 1.9236 1.7672
9.0330 2.7378 1.7644
8.7355 3.5264 1.7610
8.3665 4.2822 1.7569
7.9299 4.9988 1.7523
7.4301 5.6700 1.7471
6.8720 6.2903 1.7415
6.2612 6.8547 1.7354
5.6059 7.3621 1.7298
1.0400 1.6536 0.3652
0.8881 1.7396 0.3651
0.7292 1.8118 0.3651
0.5645 1.8695 0.3651
0.3953 1.9124 0.3650
0.2230 1.9400 0.3650
0.0490 1.9521 0.3650
-0.1255 1.9487 0.3650
-0.2990 1.9298 0.3650
-0.4701 1.8955 0.3651
-0.6375 1.8462 0.3651
-0.7998 1.7821 0.3651
-0.9558 1.7038 0.3652
-5.6220 8.2066 1.8595
-6.2091 7.5228 1.8234
-6.4190 6.4964 1.7072
-6.9794 5.9026 1.7087
-7.4844 5.2602 1.7100
-7.9296 4.5742 1.7112
-8.3112 3.8504 1.7123
-8.6228 3.0935 1.7125
-8.8645 2.3114 1.7125
-9.0355 1.5108 1.7125
-9.1343 0.6982 1.7125
-2.6097 -0.0342 0.4879
-2.5967 -0.2671 0.4880
-2.5629 -0.4979 0.4880
-2.5087 -0.7248 0.4881
-2.4344 -0.9460 0.4882
-2.3406 -1.1597 0.4883
-2.3048 -1.4112 0.5052
-2.3313 -1.7314 0.5428
-2.3623 -2.1064 0.5917
-2.3999 -2.5595 0.6559
-2.4470 -3.1281 0.7424
-1.0665 -1.6478 0.3669
-0.9153 -1.7366 0.3670
-0.7567 -1.8116 0.3670
-0.5920 -1.8720 0.3670
-0.4225 -1.9175 0.3670
-0.2497 -1.9476 0.3671
-0.0748 -1.9622 0.3671
0.1006 -1.9610 0.3671
0.2753 -1.9441 0.3670
0.4477 -1.9116 0.3670
0.6165 -1.8639 0.3670
0.7804 -1.8013 0.3670
0.9379 -1.7242 0.3669
5.1377 -7.7134 1.7324
5.8277 -7.2512 1.7390
6.4965 -6.7486 1.7511
7.1002 -6.1652 1.7578
7.6296 -5.5121 1.7595
8.1081 -4.8191 1.7632
8.5206 -4.0831 1.7662
8.8629 -3.3106 1.7686
9.1317 -2.5086 1.7703
4.5792 -0.8272 0.8699
4.5116 -0.4041 0.8467
4.5915 0.0003 0.8583
9.4297 0.8458 1.7698
9.3065 1.6823 1.7679
9.1058 2.5027 1.7653
8.8298 3.2995 1.7620
8.4813 4.0656 1.7582
8.0640 4.7942 1.7537
7.5821 5.4793 1.7487
7.0404 6.1149 1.7432
6.4444 6.6961 1.7373
5.4349 6.7641 1.6220
1.0827 1.6260 0.3652
0.9332 1.7159 0.3651
0.7762 1.7922 0.3651
0.6130 1.8542 0.3651
0.4451 1.9014 0.3650
0.2735 1.9335 0.3650
0.0998 1.9502 0.3650
-0.0747 1.9513 0.3650
-0.2486 1.9369 0.3650
-0.4205 1.9071 0.3651
