ply
format ascii 1.0
element vertex 2176
property float32 x
property float32 y
property float32 z
end_header
0.2573 1.1466 0.3818
0.1541 1.1658 0.3821
0.0494 1.1754 0.3822
-0.0557 1.1751 0.3822
-0.1603 1.1650 0.3821
-0.2634 1.1453 0.3818
-0.3642 1.1161 0.3815
-0.4617 1.0776 0.3809
-0.5551 1.0304 0.3803
-0.6436 0.9747 0.3795
-0.7263 0.9113 0.3786
-0.8027 0.8407 0.3777
-0.8720 0.7635 0.3766
-0.9338 0.6806 0.3755
-0.9876 0.5926 0.3742
-1.0330 0.5004 0.3730
-1.0698 0.4047 0.3716
-5.4844 1.5316 1.8502
-5.5992 1.0360 1.8502
-5.6693 0.5322 1.8502
-5.6942 0.0241 1.8502
-5.6736 -0.4842 1.8502
-5.6078 -0.9887 1.8502
-1.0754 -0.2906 0.3620
-1.0415 -0.3840 0.3607
-0.9995 -0.4738 0.3594
-0.9501 -0.5592 0.3582
-0.8936 -0.6398 0.3571
-0.8305 -0.7148 0.3560
-0.7613 -0.7840 0.3551
-0.6866 -0.8467 0.3542
-0.6069 -0.9026 0.3534
-0.5229 -0.9513 0.3527
-0.4352 -0.9925 0.3521
-0.3445 -1.0260 0.3517
-0.2512 -1.0516 0.3513
-0.1563 -1.0690 0.3510
-0.0602 -1.0783 0.3509
0.0362 -1.0793 0.3509
0.1325 -1.0720 0.3510
0.2277 -1.0565 0.3512
0.3214 -1.0329 0.3515
0.4128 -1.0014 0.3519
0.5013 -0.9620 0.3525
0.5862 -0.9151 0.3531
0.6670 -0.8609 0.3539
0.7429 -0.7999 0.3547
0.8135 -0.7323 0.3556
0.8781 -0.6586 0.3566
0.9362 -0.5794 0.3577
0.9874 -0.4952 0.3589
1.0312 -0.4064 0.3601
1.0671 -0.3139 0.3614
5.1542 -1.0273 1.7076
5.2355 -0.5643 1.7110
5.2684 -0.0948 1.7121
5.2545 0.3757 1.7117
5.1935 0.8421 1.7095
5.0848 1.2989 1.7052
0.8638 0.7338 0.3760
0.7971 0.8103 0.3771
0.7235 0.8805 0.3781
0.6436 0.9438 0.3790
0.5579 0.9995 0.3797
0.4673 1.0471 0.3804
0.3725 1.0863 0.3810
0.2744 1.1164 0.3814
0.1738 1.1374 0.3817
0.0717 1.1488 0.3819
-0.0312 1.1508 0.3819
-0.1337 1.1431 0.3818
-0.2351 1.1259 0.3816
-0.3343 1.0994 0.3812
-0.4305 1.0639 0.3807
-0.5229 1.0196 0.3801
-0.6107 0.9670 0.3794
-0.6930 0.9066 0.3786
-0.7693 0.8391 0.3776
-0.8388 0.7650 0.3766
-0.9011 0.6851 0.3755
-0.9556 0.6000 0.3743
-1.0020 0.5107 0.3731
-1.0400 0.4178 0.3718
-1.0693 0.3221 0.3705
-5.4623 1.1256 1.8502
-5.5410 0.6336 1.8502
-5.5754 0.1366 1.8502
-5.5654 -0.3616 1.8502
-1.0832 -0.1684 0.3637
-1.0600 -0.2635 0.3623
-1.0286 -0.3557 0.3610
-0.9893 -0.4446 0.3598
-0.9426 -0.5293 0.3586
-0.8888 -0.6095 0.3575
-0.8284 -0.6843 0.3565
-0.7619 -0.7535 0.3555
-0.6899 -0.8164 0.3546
-0.6130 -0.8728 0.3538
-0.5316 -0.9222 0.3531
-0.4464 -0.9643 0.3525
-0.3580 -0.9989 0.3520
-0.2672 -1.0258 0.3517
-0.1744 -1.0447 0.3514
-0.0804 -1.0557 0.3512
0.0141 -1.0585 0.3512
0.1085 -1.0532 0.3512
0.2022 -1.0398 0.3514
0.2944 -1.0185 0.3517
0.3846 -0.9892 0.3521
0.4720 -0.9523 0.3526
0.5561 -0.9080 0.3532
0.6362 -0.8564 0.3539
0.7117 -0.7980 0.3547
0.7820 -0.7332 0.3556
0.8467 -0.6623 0.3566
0.9051 -0.5858 0.3577
0.9567 -0.5043 0.3588
1.0012 -0.4183 0.3600
1.0382 -0.3284 0.3612
1.0671 -0.2353 0.3625
1.0878 -0.1396 0.3638
5.1427 -0.1968 1.7073
5.1396 0.2629 1.7072
1.0982 0.1553 0.3679
1.0840 0.2536 0.3693
1.0609 0.3506 0.3707
1.0290 0.4455 0.3720
0.9885 0.5374 0.3733
0.9397 0.6255 0.3745
0.8829 0.7091 0.3757
0.8185 0.7874 0.3768
0.7469 0.8596 0.3778
0.6688 0.9250 0.3787
0.5849 0.9832 0.3795
0.4957 1.0334 0.3802
0.4021 1.0751 0.3808
0.3050 1.1081 0.3813
0.2050 1.1319 0.3816
0.1032 1.1463 0.3818
0.0005 1.1512 0.3819
-0.1022 1.1465 0.3818
-0.2040 1.1322 0.3817
-0.3040 1.1086 0.3813
-0.4012 1.0758 0.3809
-0.4949 1.0341 0.3803
-0.5842 0.9840 0.3796
-0.6683 0.9260 0.3788
-0.7465 0.8606 0.3779
-0.8181 0.7885 0.3769
-0.8827 0.7103 0.3759
-0.9397 0.6267 0.3747
-0.9886 0.5386 0.3735
-1.0292 0.4467 0.3722
-1.0612 0.3518 0.3709
-5.4293 1.2756 1.8502
-5.5215 0.7859 1.8502
-5.5696 0.2900 1.8502
-5.5732 -0.2082 1.8502
-1.0887 -0.1387 0.3641
-1.0680 -0.2344 0.3627
-1.0391 -0.3276 0.3614
-1.0022 -0.4176 0.3602
-0.9577 -0.5037 0.3590
-0.9061 -0.5853 0.3578
-0.8477 -0.6618 0.3568
-0.7830 -0.7328 0.3558
-0.7127 -0.7977 0.3549
-0.6372 -0.8562 0.3541
-0.5571 -0.9078 0.3533
-0.4730 -0.9522 0.3527
-0.3856 -0.9891 0.3522
-0.2954 -1.0184 0.3518
-0.2032 -1.0398 0.3515
-0.1095 -1.0531 0.3513
-0.0151 -1.0585 0.3512
0.0795 -1.0557 0.3512
0.1734 -1.0448 0.3513
0.2662 -1.0259 0.3516
0.3571 -0.9991 0.3520
0.4454 -0.9645 0.3524
0.5306 -0.9224 0.3530
0.6119 -0.8731 0.3537
0.6889 -0.8167 0.3545
0.7609 -0.7538 0.3553
0.8274 -0.6848 0.3563
0.8878 -0.6099 0.3573
0.9416 -0.5299 0.3584
0.9883 -0.4452 0.3596
1.0276 -0.3565 0.3608
1.0591 -0.2643 0.3621
1.0824 -0.1693 0.3634
5.1342 -0.3383 1.7069
5.1455 0.1213 1.7075
5.1101 0.5796 1.7061
1.0893 0.2234 0.3689
1.0689 0.3209 0.3702
1.0398 0.4165 0.3716
1.0019 0.5094 0.3729
0.9556 0.5988 0.3741
0.9012 0.6839 0.3753
0.8391 0.7639 0.3764
0.7697 0.8380 0.3775
0.6936 0.9056 0.3784
0.6113 0.9661 0.3793
0.5237 1.0188 0.3800
0.4314 1.0632 0.3806
0.3352 1.0989 0.3811
0.2361 1.1256 0.3815
0.1348 1.1429 0.3818
0.0322 1.1507 0.3819
-0.0706 1.1490 0.3819
-0.1728 1.1376 0.3817
-0.2734 1.1169 0.3815
-0.3716 1.0868 0.3810
-0.4665 1.0479 0.3805
-0.5572 1.0003 0.3799
-0.6429 0.9447 0.3791
-0.7230 0.8815 0.3782
-0.7968 0.8114 0.3773
-0.8636 0.7350 0.3762
-0.9229 0.6530 0.3751
-0.9744 0.5662 0.3739
-1.0176 0.4754 0.3726
-1.0523 0.3813 0.3713
-1.0782 0.2849 0.3700
-5.4977 0.9377 1.8502
-5.5595 0.4433 1.8502
-5.5768 -0.0547 1.8502
-5.5497 -0.5522 1.8502
-1.0753 -0.2052 0.3631
-1.0489 -0.2992 0.3618
-1.0144 -0.3903 0.3606
-0.9722 -0.4776 0.3593
-0.9227 -0.5607 0.3582
-0.8664 -0.6388 0.3571
-0.8036 -0.7116 0.3561
-0.7349 -0.7784 0.3551
-0.6610 -0.8389 0.3543
-0.5822 -0.8926 0.3535
-0.4993 -0.9393 0.3529
-0.4128 -0.9785 0.3523
-0.3234 -1.0102 0.3519
-0.2318 -1.0340 0.3515
-0.1385 -1.0499 0.3513
-0.0442 -1.0577 0.3512
0.0504 -1.0574 0.3512
0.1446 -1.0490 0.3513
0.2378 -1.0326 0.3515
0.3293 -1.0082 0.3518
0.4185 -0.9760 0.3523
0.5047 -0.9362 0.3528
0.5873 -0.8890 0.3535
0.6657 -0.8348 0.3542
0.7393 -0.7739 0.3551
0.8075 -0.7067 0.3560
0.8698 -0.6336 0.3570
0.9257 -0.5551 0.3581
0.9747 -0.4718 0.3592
1.0163 -0.3842 0.3604
1.0502 -0.2930 0.3617
1.0761 -0.1988 0.3630
1.0935 -0.1024 0.3644
5.1470 -0.0204 1.7075
5.1260 0.4388 1.7067
1.0938 0.1931 0.3685
1.0762 0.2910 0.3698
1.0497 0.3873 0.3712
1.0145 0.4812 0.3725
0.9708 0.5717 0.3737
0.9188 0.6582 0.3750
0.8590 0.7398 0.3761
0.7918 0.8158 0.3772
0.7177 0.8855 0.3781
0.6373 0.9482 0.3790
0.5512 1.0034 0.3798
0.4603 1.0504 0.3805
0.3652 1.0889 0.3810
0.2669 1.1183 0.3814
0.1661 1.1386 0.3817
0.0639 1.1493 0.3819
-0.0389 1.1505 0.3819
-0.1414 1.1421 0.3818
-0.2426 1.1243 0.3816
-0.3417 1.0971 0.3812
-0.4377 1.0608 0.3807
-0.5297 1.0159 0.3801
-0.6171 0.9627 0.3793
-0.6990 0.9018 0.3785
-0.7748 0.8337 0.3776
-0.8438 0.7592 0.3765
-0.9055 0.6788 0.3754
-0.9594 0.5934 0.3742
-1.0052 0.5038 0.3730
-1.0425 0.4106 0.3717
-1.0712 0.3148 0.3704
-5.4698 1.0887 1.8502
-5.5452 0.5962 1.8502
-5.5762 0.0989 1.8502
-5.5628 -0.3992 1.8502
-1.0817 -0.1757 0.3636
-1.0579 -0.2705 0.3622
-1.0259 -0.3626 0.3610
-0.9860 -0.4511 0.3597
-0.9387 -0.5356 0.3585
-0.8844 -0.6153 0.3574
-0.8236 -0.6898 0.3564
-0.7567 -0.7585 0.3554
-0.6843 -0.8209 0.3545
-0.6069 -0.8768 0.3538
-0.5253 -0.9257 0.3531
-0.4398 -0.9672 0.3525
-0.3513 -1.0012 0.3520
-0.2602 -1.0275 0.3516
-0.1673 -1.0458 0.3514
-0.0733 -1.0561 0.3512
0.0212 -1.0584 0.3512
0.1156 -1.0525 0.3512
0.2092 -1.0385 0.3514
0.3013 -1.0165 0.3517
0.3913 -0.9867 0.3521
0.4785 -0.9492 0.3526
0.5623 -0.9043 0.3533
0.6420 -0.8523 0.3540
0.7172 -0.7934 0.3548
0.7871 -0.7280 0.3557
0.8513 -0.6567 0.3567
0.9092 -0.5798 0.3577
0.9604 -0.4979 0.3589
1.0043 -0.4116 0.3601
1.0406 -0.3215 0.3613
1.0690 -0.2281 0.3626
1.0891 -0.1323 0.3639
5.1441 -0.1621 1.7074
5.1374 0.2976 1.7072
1.0974 0.1628 0.3680
1.0825 0.2610 0.3694
1.0588 0.3579 0.3708
1.0262 0.4526 0.3721
0.9851 0.5442 0.3734
0.9357 0.6320 0.3746
0.8783 0.7152 0.3758
0.8133 0.7930 0.3768
0.7412 0.8648 0.3778
0.6627 0.9297 0.3788
0.5783 0.9872 0.3796
0.4888 1.0368 0.3803
0.3949 1.0779 0.3808
0.2975 1.1102 0.3813
0.1974 1.1333 0.3816
0.0955 1.1470 0.3818
-0.0072 1.1512 0.3819
-0.1099 1.1457 0.3818
-0.2116 1.1308 0.3816
-0.3115 1.1064 0.3813
-0.4085 1.0729 0.3809
-0.5018 1.0306 0.3803
-0.5907 0.9799 0.3796
-0.6744 0.9213 0.3788
-0.7521 0.8554 0.3779
-0.8233 0.7828 0.3769
-0.8873 0.7041 0.3758
-0.9436 0.6202 0.3746
-0.9920 0.5318 0.3734
-1.0319 0.4396 0.3721
-1.0633 0.3446 0.3708
-5.4378 1.2389 1.8502
-5.5266 0.7486 1.8502
-5.5714 0.2524 1.8502
-5.5717 -0.2458 1.8502
-1.0874 -0.1460 0.3640
-1.0661 -0.2416 0.3626
-1.0366 -0.3346 0.3613
-0.9991 -0.4243 0.3601
-0.9541 -0.5100 0.3589
-0.9019 -0.5913 0.3578
-0.8430 -0.6674 0.3567
-0.7779 -0.7379 0.3557
-0.7072 -0.8024 0.3548
-0.6313 -0.8603 0.3540
-0.5509 -0.9114 0.3533
-0.4665 -0.9552 0.3527
-0.3788 -0.9916 0.3521
-0.2885 -1.0203 0.3517
-0.1961 -1.0410 0.3514
-0.1024 -1.0538 0.3512
-0.0079 -1.0585 0.3512
0.0866 -1.0551 0.3512
0.1805 -1.0436 0.3514
0.2731 -1.0241 0.3516
0.3638 -0.9967 0.3520
0.4519 -0.9616 0.3525
0.5368 -0.9189 0.3531
0.6179 -0.8690 0.3537
0.6945 -0.8122 0.3545
0.7661 -0.7488 0.3554
0.8322 -0.6793 0.3564
0.8921 -0.6041 0.3574
0.9453 -0.5237 0.3585
0.9916 -0.4387 0.3597
1.0303 -0.3496 0.3609
1.0611 -0.2572 0.3622
1.0838 -0.1620 0.3635
5.1367 -0.3036 1.7070
5.1445 0.1560 1.7074
5.1055 0.6140 1.7059
1.0881 0.2308 0.3690
1.0670 0.3282 0.3704
1.0372 0.4237 0.3717
0.9987 0.5163 0.3730
0.9518 0.6054 0.3742
0.8968 0.6901 0.3754
0.8341 0.7697 0.3765
0.7642 0.8434 0.3775
0.6876 0.9105 0.3785
0.6049 0.9703 0.3793
0.5169 1.0224 0.3801
0.4243 1.0662 0.3807
0.3278 1.1012 0.3812
0.2285 1.1272 0.3815
0.1270 1.1438 0.3818
0.0245 1.1509 0.3819
-0.0784 1.1484 0.3819
-0.1805 1.1364 0.3817
-0.2810 1.1149 0.3814
-0.3789 1.0842 0.3810
-0.4735 1.0446 0.3805
-0.5639 0.9964 0.3798
-0.6492 0.9402 0.3790
-0.7288 0.8765 0.3782
-0.8021 0.8058 0.3772
-0.8683 0.7290 0.3761
-0.9271 0.6466 0.3750
-0.9780 0.5595 0.3738
-1.0205 0.4684 0.3725
-1.0545 0.3741 0.3712
-1.0798 0.2775 0.3699
-5.5039 0.9005 1.8502
-5.5623 0.4057 1.8502
-5.5763 -0.0923 1.8502
-5.5459 -0.5896 1.8502
-1.0736 -0.2124 0.3630
-1.0465 -0.3062 0.3617
-1.0115 -0.3970 0.3605
-0.9687 -0.4841 0.3593
-0.9187 -0.5668 0.3581
-0.8618 -0.6445 0.3570
-0.7986 -0.7168 0.3560
-0.7295 -0.7832 0.3551
-0.6552 -0.8432 0.3542
-0.5761 -0.8964 0.3535
-0.4929 -0.9425 0.3528
-0.4062 -0.9812 0.3523
-0.3166 -1.0123 0.3518
-0.2248 -1.0355 0.3515
-0.1314 -1.0508 0.3513
-0.0371 -1.0580 0.3512
0.0575 -1.0570 0.3512
0.1517 -1.0480 0.3513
0.2448 -1.0310 0.3515
0.3361 -1.0060 0.3519
0.4251 -0.9732 0.3523
0.5111 -0.9329 0.3529
0.5934 -0.8852 0.3535
0.6714 -0.8304 0.3543
0.7446 -0.7690 0.3551
0.8124 -0.7014 0.3561
0.8743 -0.6278 0.3571
0.9297 -0.5490 0.3582
0.9781 -0.4653 0.3593
1.0192 -0.3774 0.3605
1.0525 -0.2860 0.3618
1.0777 -0.1916 0.3631
1.0945 -0.0950 0.3645
5.1470 0.0144 1.7075
5.1225 0.4734 1.7066
1.0928 0.2006 0.3686
1.0745 0.2984 0.3699
1.0473 0.3945 0.3713
1.0115 0.4881 0.3726
0.9671 0.5784 0.3738
0.9146 0.6645 0.3750
0.8542 0.7458 0.3762
0.7864 0.8213 0.3772
0.7118 0.8905 0.3782
0.6310 0.9527 0.3791
0.5445 1.0072 0.3798
0.4532 1.0536 0.3805
0.3579 1.0914 0.3810
0.2593 1.1202 0.3814
0.1585 1.1397 0.3817
0.0561 1.1498 0.3819
-0.0467 1.1502 0.3819
-0.1491 1.1411 0.3818
-0.2502 1.1225 0.3815
-0.3491 1.0946 0.3812
-0.4448 1.0577 0.3806
-0.5365 1.0121 0.3800
-0.6235 0.9583 0.3793
-0.7049 0.8969 0.3784
-0.7802 0.8283 0.3775
-0.8487 0.7533 0.3765
-0.9098 0.6725 0.3753
-0.9632 0.5868 0.3742
-1.0083 0.4968 0.3729
-1.0450 0.4034 0.3716
-1.0730 0.3075 0.3703
-5.4770 1.0517 1.8502
-5.5491 0.5587 1.8502
-5.5768 0.0612 1.8502
-5.5600 -0.4367 1.8502
-1.0802 -0.1829 0.3635
-1.0557 -0.2776 0.3621
-1.0231 -0.3694 0.3609
-0.9827 -0.4577 0.3596
-0.9349 -0.5418 0.3585
-0.8801 -0.6211 0.3573
-0.8187 -0.6952 0.3563
-0.7514 -0.7634 0.3554
-0.6786 -0.8254 0.3545
-0.6009 -0.8807 0.3537
-0.5189 -0.9291 0.3530
-0.4332 -0.9701 0.3524
-0.3445 -1.0035 0.3520
-0.2533 -1.0292 0.3516
-0.1603 -1.0469 0.3514
-0.0662 -1.0566 0.3512
0.0284 -1.0582 0.3512
0.1227 -1.0517 0.3513
0.2162 -1.0371 0.3514
0.3082 -1.0145 0.3518
0.3980 -0.9841 0.3522
0.4849 -0.9461 0.3527
0.5684 -0.9006 0.3533
0.6479 -0.8480 0.3540
0.7226 -0.7886 0.3549
0.7922 -0.7229 0.3558
0.8559 -0.6511 0.3568
0.9133 -0.5738 0.3578
0.9639 -0.4916 0.3590
1.0073 -0.4049 0.3602
1.0431 -0.3145 0.3614
1.0708 -0.2209 0.3627
1.0902 -0.1250 0.3640
5.1452 -0.1274 1.7074
5.1350 0.3323 1.7071
1.0966 0.1702 0.3681
1.0810 0.2684 0.3695
1.0566 0.3651 0.3709
1.0234 0.4596 0.3722
0.9817 0.5510 0.3735
0.9316 0.6385 0.3747
0.8736 0.7213 0.3758
0.8081 0.7987 0.3769
0.7355 0.8699 0.3779
0.6565 0.9343 0.3788
0.5717 0.9913 0.3796
0.4818 1.0402 0.3803
0.3877 1.0807 0.3809
0.2900 1.1123 0.3813
0.1897 1.1347 0.3817
0.0878 1.1477 0.3818
-0.0150 1.1511 0.3819
-0.1177 1.1449 0.3818
-0.2193 1.1293 0.3816
-0.3189 1.1042 0.3813
-0.4157 1.0700 0.3808
-0.5087 1.0271 0.3802
-0.5972 0.9758 0.3795
-0.6805 0.9166 0.3787
-0.7577 0.8501 0.3778
-0.8284 0.7770 0.3768
-0.8918 0.6980 0.3757
-0.9476 0.6137 0.3745
-0.9953 0.5249 0.3733
-1.0346 0.4325 0.3720
-1.0653 0.3373 0.3707
-5.4460 1.2021 1.8502
-5.5316 0.7113 1.8502
-5.5730 0.2148 1.8502
-5.5699 -0.2835 1.8502
-1.0861 -0.1533 0.3639
-1.0642 -0.2487 0.3625
-1.0340 -0.3415 0.3612
-0.9960 -0.4309 0.3600
-0.9504 -0.5163 0.3588
-0.8977 -0.5972 0.3577
-0.8383 -0.6729 0.3566
-0.7728 -0.7430 0.3556
-0.7016 -0.8070 0.3547
-0.6253 -0.8644 0.3539
-0.5446 -0.9149 0.3532
-0.4600 -0.9582 0.3526
-0.3721 -0.9940 0.3521
-0.2816 -1.0221 0.3517
-0.1891 -1.0423 0.3514
-0.0952 -1.0545 0.3512
-0.0008 -1.0586 0.3512
0.0937 -1.0545 0.3512
0.1876 -1.0424 0.3514
0.2801 -1.0223 0.3516
0.3706 -0.9943 0.3520
0.4585 -0.9586 0.3525
0.5431 -0.9154 0.3531
0.6239 -0.8650 0.3538
0.7001 -0.8076 0.3546
0.7713 -0.7438 0.3555
0.8369 -0.6738 0.3564
0.8963 -0.5982 0.3575
0.9491 -0.5174 0.3586
0.9947 -0.4321 0.3598
1.0329 -0.3427 0.3610
1.0631 -0.2501 0.3623
1.0851 -0.1547 0.3636
5.1389 -0.2690 1.7071
5.1431 0.1908 1.7074
1.0996 0.1398 0.3677
1.0868 0.2383 0.3691
1.0651 0.3355 0.3705
1.0346 0.4308 0.3718
0.9954 0.5232 0.3731
0.9479 0.6120 0.3743
0.8923 0.6963 0.3755
0.8291 0.7755 0.3766
0.7586 0.8487 0.3776
0.6815 0.9152 0.3786
0.5984 0.9745 0.3794
0.5100 1.0260 0.3801
0.4171 1.0692 0.3807
0.3204 1.1035 0.3812
0.2209 1.1288 0.3816
0.1193 1.1447 0.3818
0.0167 1.1511 0.3819
-0.0861 1.1479 0.3819
-0.1881 1.1351 0.3817
-0.2885 1.1129 0.3814
-0.3862 1.0815 0.3810
-0.4805 1.0412 0.3804
-0.5705 0.9924 0.3798
-0.6554 0.9356 0.3790
-0.7346 0.8714 0.3781
-0.8073 0.8002 0.3771
-0.8730 0.7229 0.3760
-0.9312 0.6402 0.3749
-0.9815 0.5527 0.3737
-1.0234 0.4614 0.3724
-1.0568 0.3669 0.3711
-1.0814 0.2701 0.3698
-5.5099 0.8633 1.8502
-5.5649 0.3681 1.8502
-5.5756 -0.1300 1.8502
-5.5417 -0.6271 1.8502
-1.0718 -0.2195 0.3629
-1.0442 -0.3132 0.3616
-1.0085 -0.4037 0.3604
-0.9652 -0.4905 0.3592
-0.9146 -0.5728 0.3580
-0.8573 -0.6502 0.3569
-0.7936 -0.7221 0.3559
-0.7241 -0.7880 0.3550
-0.6493 -0.8474 0.3542
-0.5699 -0.9001 0.3534
-0.4864 -0.9457 0.3528
-0.3995 -0.9838 0.3523
-0.3097 -1.0143 0.3518
-0.2178 -1.0369 0.3515
-0.1243 -1.0516 0.3513
-0.0299 -1.0582 0.3512
0.0647 -1.0567 0.3512
0.1588 -1.0470 0.3513
0.2517 -1.0294 0.3516
0.3429 -1.0038 0.3519
0.4317 -0.9704 0.3524
0.5174 -0.9295 0.3529
0.5994 -0.8813 0.3536
0.6771 -0.8260 0.3543
0.7500 -0.7641 0.3552
0.8173 -0.6960 0.3561
0.8787 -0.6221 0.3572
0.9336 -0.5428 0.3583
0.9815 -0.4588 0.3594
1.0220 -0.3706 0.3606
1.0547 -0.2789 0.3619
1.0793 -0.1844 0.3632
1.0954 -0.0876 0.3646
5.1468 0.0491 1.7075
5.1187 0.5080 1.7064
1.0917 0.2080 0.3687
1.0727 0.3057 0.3700
1.0449 0.4017 0.3714
1.0084 0.4951 0.3727
0.9634 0.5851 0.3739
0.9103 0.6709 0.3751
0.8493 0.7517 0.3763
0.7810 0.8268 0.3773
0.7059 0.8955 0.3783
0.6246 0.9571 0.3791
0.5378 1.0110 0.3799
0.4462 1.0568 0.3805
0.3506 1.0939 0.3811
0.2518 1.1220 0.3815
0.1508 1.1408 0.3817
0.0484 1.1501 0.3819
-0.0545 1.1499 0.3819
-0.1568 1.1400 0.3818
-0.2578 1.1207 0.3815
-0.3564 1.0921 0.3811
-0.4518 1.0546 0.3806
-0.5433 1.0083 0.3800
-0.6298 0.9540 0.3792
-0.7109 0.8919 0.3784
-0.7856 0.8228 0.3774
-0.8536 0.7474 0.3764
-0.9141 0.6662 0.3752
-0.9669 0.5801 0.3741
-1.0114 0.4899 0.3728
-1.0474 0.3963 0.3715
-1.0747 0.3001 0.3702
-5.4840 1.0147 1.8502
-5.5527 0.5212 1.8502
-5.5771 0.0236 1.8502
-5.5569 -0.4743 1.8502
-1.0787 -0.1902 0.3634
-1.0536 -0.2846 0.3620
-1.0203 -0.3762 0.3608
-0.9793 -0.4642 0.3595
-0.9310 -0.5479 0.3584
-0.8756 -0.6269 0.3573
-0.8139 -0.7005 0.3562
-0.7461 -0.7683 0.3553
-0.6729 -0.8298 0.3544
-0.5949 -0.8846 0.3537
-0.5126 -0.9324 0.3530
-0.4266 -0.9729 0.3524
-0.3376 -1.0057 0.3519
-0.2463 -1.0308 0.3516
-0.1532 -1.0479 0.3513
-0.0590 -1.0570 0.3512
0.0355 -1.0580 0.3512
0.1298 -1.0509 0.3513
0.2232 -1.0357 0.3515
0.3151 -1.0125 0.3518
0.4047 -0.9815 0.3522
0.4914 -0.9429 0.3527
0.5746 -0.8969 0.3534
0.6537 -0.8438 0.3541
0.7281 -0.7839 0.3549
0.7972 -0.7176 0.3558
0.8605 -0.6454 0.3568
0.9174 -0.5678 0.3579
0.9675 -0.4852 0.3590
1.0103 -0.3982 0.3603
1.0454 -0.3075 0.3615
1.0726 -0.2138 0.3628
1.0914 -0.1176 0.3641
5.1461 -0.0926 1.7074
5.1324 0.3669 1.7070
1.0957 0.1777 0.3683
1.0795 0.2758 0.3696
0.8459 0.7186 0.3758
0.7805 0.7934 0.3768
0.7084 0.8621 0.3778
0.6301 0.9240 0.3787
0.5462 0.9785 0.3794
0.4575 1.0251 0.3801
0.3647 1.0634 0.3806
0.2686 1.0929 0.3811
0.1702 1.1134 0.3814
0.0701 1.1246 0.3815
-0.0305 1.1265 0.3816
-0.1309 1.1190 0.3815
-0.2301 1.1022 0.3812
-0.3273 1.0763 0.3809
-0.4215 1.0415 0.3804
-0.5119 0.9981 0.3798
-0.5979 0.9467 0.3791
-0.6785 0.8877 0.3783
-0.7532 0.8216 0.3774
-0.8213 0.7491 0.3764
-0.8824 0.6709 0.3753
-0.9358 0.5876 0.3742
-0.9814 0.5001 0.3729
-1.0186 0.4092 0.3717
-1.0474 0.3155 0.3704
-1.0675 0.2200 0.3691
-1.0790 0.1234 0.3677
-1.0817 0.0265 0.3664
-1.0758 -0.0699 0.3650
-1.0614 -0.1650 0.3637
-1.0387 -0.2582 0.3624
-1.0080 -0.3486 0.3611
-0.9696 -0.4357 0.3599
-0.9239 -0.5188 0.3588
-0.8712 -0.5974 0.3577
-0.8121 -0.6708 0.3566
-0.7470 -0.7387 0.3557
-0.6764 -0.8004 0.3548
-0.6010 -0.8557 0.3541
-0.5212 -0.9042 0.3534
-0.4377 -0.9455 0.3528
-0.3511 -0.9795 0.3523
-0.2620 -1.0058 0.3519
-0.1710 -1.0244 0.3517
-0.0789 -1.0351 0.3515
0.0138 -1.0379 0.3515
0.1064 -1.0327 0.3515
0.1982 -1.0196 0.3517
0.2887 -0.9986 0.3520
0.3771 -0.9700 0.3524
0.4628 -0.9337 0.3529
0.5452 -0.8902 0.3535
0.6237 -0.8397 0.3542
0.6977 -0.7824 0.3549
0.7666 -0.7188 0.3558
0.8299 -0.6492 0.3568
0.8871 -0.5742 0.3578
0.9377 -0.4943 0.3589
0.9813 -0.4099 0.3601
1.0174 -0.3218 0.3613
1.0457 -0.2305 0.3626
1.0659 -0.1368 0.3639
1.0778 -0.0413 0.3652
1.0812 0.0553 0.3666
1.0758 0.1521 0.3679
1.0618 0.2484 0.3692
1.0391 0.3434 0.3706
1.0078 0.4363 0.3719
0.9681 0.5263 0.3731
0.9203 0.6126 0.3743
0.8646 0.6944 0.3755
0.8014 0.7710 0.3765
0.7313 0.8416 0.3775
0.6548 0.9057 0.3784
0.5726 0.9625 0.3792
0.4853 1.0116 0.3799
0.3937 1.0525 0.3805
0.2985 1.0848 0.3809
0.2007 1.1080 0.3813
0.1011 1.1221 0.3815
0.0005 1.1269 0.3816
-0.1000 1.1223 0.3815
-0.1997 1.1084 0.3813
-0.2976 1.0852 0.3810
-0.3928 1.0531 0.3806
-0.4845 1.0124 0.3800
-0.5719 0.9634 0.3793
-0.6543 0.9066 0.3786
-0.7309 0.8427 0.3777
-0.8011 0.7721 0.3767
-0.8644 0.6955 0.3757
-0.9202 0.6138 0.3745
-0.9682 0.5275 0.3733
-1.0080 0.4375 0.3721
-1.0394 0.3446 0.3708
-1.0623 0.2496 0.3695
-1.0764 0.1532 0.3681
-1.0818 0.0563 0.3668
-1.0785 -0.0403 0.3654
-1.0667 -0.1359 0.3641
-1.0466 -0.2297 0.3628
-1.0183 -0.3211 0.3615
-0.9822 -0.4093 0.3603
-0.9387 -0.4937 0.3591
-0.8881 -0.5737 0.3580
-0.8309 -0.6488 0.3570
-0.7676 -0.7184 0.3560
-0.6987 -0.7821 0.3551
-0.6247 -0.8394 0.3543
-0.5462 -0.8900 0.3536
-0.4638 -0.9336 0.3530
-0.3780 -0.9698 0.3524
-0.2896 -0.9985 0.3520
-0.1992 -1.0195 0.3517
-0.1074 -1.0327 0.3515
-0.0148 -1.0379 0.3515
0.0779 -1.0352 0.3515
0.1701 -1.0245 0.3516
0.2610 -1.0059 0.3519
0.3501 -0.9796 0.3522
0.4367 -0.9457 0.3527
0.5202 -0.9044 0.3533
0.6000 -0.8560 0.3539
0.6754 -0.8007 0.3547
0.7460 -0.7390 0.3555
0.8111 -0.6713 0.3565
0.8702 -0.5979 0.3575
0.9229 -0.5194 0.3586
0.9687 -0.4364 0.3597
1.0071 -0.3493 0.3609
1.0379 -0.2590 0.3622
1.0606 -0.1659 0.3635
1.0751 -0.0708 0.3648
1.0810 0.0255 0.3661
1.0784 0.1223 0.3675
1.0671 0.2189 0.3688
1.0470 0.3144 0.3702
1.0184 0.4080 0.3715
0.9813 0.4989 0.3727
0.9359 0.5864 0.3740
0.8825 0.6697 0.3751
0.8216 0.7480 0.3762
0.7536 0.8205 0.3772
0.6791 0.8867 0.3782
0.5985 0.9458 0.3790
0.5127 0.9974 0.3797
0.4223 1.0408 0.3803
0.3282 1.0758 0.3808
0.2311 1.1018 0.3812
0.1319 1.1188 0.3814
0.0315 1.1264 0.3816
-0.0691 1.1247 0.3815
-0.1692 1.1136 0.3814
-0.2677 1.0933 0.3811
-0.3638 1.0639 0.3807
-0.4567 1.0258 0.3802
-0.5455 0.9793 0.3796
-0.6295 0.9249 0.3788
-0.7079 0.8631 0.3780
-0.7802 0.7945 0.3770
-0.8456 0.7197 0.3760
-0.9038 0.6395 0.3749
-0.9543 0.5545 0.3737
-0.9967 0.4656 0.3725
-1.0307 0.3735 0.3712
-1.0562 0.2790 0.3699
-1.0730 0.1830 0.3685
-1.0811 0.0862 0.3672
-1.0805 -0.0106 0.3659
-1.0713 -0.1066 0.3645
-1.0537 -0.2010 0.3632
-1.0279 -0.2932 0.3619
-0.9942 -0.3825 0.3607
-0.9529 -0.4681 0.3595
-0.9044 -0.5496 0.3583
-0.8492 -0.6262 0.3573
-0.7878 -0.6975 0.3563
-0.7205 -0.7631 0.3554
-0.6480 -0.8224 0.3545
-0.5708 -0.8751 0.3538
-0.4895 -0.9209 0.3531
-0.4048 -0.9594 0.3526
-0.3171 -0.9905 0.3522
-0.2273 -1.0139 0.3518
-0.1358 -1.0295 0.3516
-0.0433 -1.0371 0.3515
0.0494 -1.0368 0.3515
0.1418 -1.0286 0.3516
0.2332 -1.0125 0.3518
0.3229 -0.9885 0.3521
0.4103 -0.9569 0.3525
0.4948 -0.9179 0.3531
0.5758 -0.8716 0.3537
0.6526 -0.8185 0.3544
0.7248 -0.7587 0.3553
0.7916 -0.6928 0.3562
0.8526 -0.6211 0.3572
0.9074 -0.5441 0.3582
0.9553 -0.4624 0.3594
0.9961 -0.3765 0.3606
1.0292 -0.2871 0.3618
1.0545 -0.1948 0.3631
1.0715 -0.1003 0.3644
1.0801 -0.0043 0.3657
1.0801 0.0925 0.3671
1.0715 0.1892 0.3684
1.0541 0.2851 0.3698
1.0281 0.3794 0.3711
0.9936 0.4712 0.3723
0.9507 0.5599 0.3736
0.8998 0.6445 0.3748
0.8412 0.7244 0.3759
0.7753 0.7988 0.3769
0.7027 0.8670 0.3779
0.6239 0.9284 0.3787
0.5397 0.9823 0.3795
0.4506 1.0283 0.3801
0.3575 1.0659 0.3807
0.2613 1.0948 0.3811
0.1626 1.1145 0.3814
0.0625 1.1251 0.3815
-0.0381 1.1262 0.3816
-0.1384 1.1180 0.3815
-0.2375 1.1006 0.3812
-0.3345 1.0739 0.3809
-0.4285 1.0385 0.3804
-0.5186 0.9945 0.3798
-0.6042 0.9425 0.3791
-0.6844 0.8829 0.3782
-0.7586 0.8163 0.3773
-0.8262 0.7434 0.3763
-0.8867 0.6647 0.3752
-0.9396 0.5811 0.3741
-0.9845 0.4934 0.3729
-1.0211 0.4022 0.3716
-1.0492 0.3083 0.3703
-1.0687 0.2127 0.3690
-1.0795 0.1161 0.3676
-1.0816 0.0192 0.3663
-1.0750 -0.0771 0.3649
-1.0600 -0.1721 0.3636
-1.0367 -0.2651 0.3623
-1.0054 -0.3553 0.3611
-0.9664 -0.4422 0.3598
-0.9201 -0.5250 0.3587
-0.8669 -0.6031 0.3576
-0.8073 -0.6762 0.3566
-0.7418 -0.7435 0.3556
-0.6709 -0.8048 0.3548
-0.5951 -0.8596 0.3540
-0.5150 -0.9076 0.3533
-0.4312 -0.9484 0.3527
-0.3444 -0.9817 0.3523
-0.2552 -1.0075 0.3519
-0.1641 -1.0255 0.3516
-0.0719 -1.0356 0.3515
0.0208 -1.0378 0.3515
0.1134 -1.0320 0.3515
0.2051 -1.0183 0.3517
0.2954 -0.9967 0.3520
0.3837 -0.9675 0.3524
0.4691 -0.9307 0.3529
0.5513 -0.8866 0.3535
0.6294 -0.8356 0.3542
0.7031 -0.7778 0.3550
0.7716 -0.7137 0.3559
0.8345 -0.6437 0.3569
0.8912 -0.5684 0.3579
0.9413 -0.4881 0.3590
0.9843 -0.4034 0.3602
1.0198 -0.3150 0.3614
1.0475 -0.2235 0.3627
1.0671 -0.1296 0.3640
1.0784 -0.0340 0.3653
1.0811 0.0626 0.3667
1.0751 0.1594 0.3680
1.0604 0.2557 0.3693
1.0371 0.3505 0.3707
1.0051 0.4432 0.3720
0.9648 0.5330 0.3732
0.9163 0.6189 0.3744
0.8600 0.7004 0.3755
0.7963 0.7765 0.3766
0.7258 0.8467 0.3776
0.6488 0.9102 0.3785
0.5662 0.9665 0.3793
0.4785 1.0150 0.3800
0.3866 1.0553 0.3805
0.2912 1.0868 0.3810
0.1932 1.1094 0.3813
0.0935 1.1228 0.3815
-0.0071 1.1269 0.3816
-0.1076 1.1216 0.3815
-0.2072 1.1069 0.3813
-0.3049 1.0831 0.3810
-0.3999 1.0503 0.3805
-0.4913 1.0090 0.3800
-0.5783 0.9594 0.3793
-0.6603 0.9020 0.3785
-0.7364 0.8375 0.3776
-0.8061 0.7665 0.3766
-0.8688 0.6895 0.3756
-0.9241 0.6074 0.3744
-0.9715 0.5208 0.3732
-1.0107 0.4306 0.3720
-1.0415 0.3375 0.3707
-1.0636 0.2423 0.3694
-1.0771 0.1459 0.3680
-1.0818 0.0490 0.3667
-1.0779 -0.0476 0.3653
-1.0655 -0.1431 0.3640
-1.0447 -0.2367 0.3627
-1.0159 -0.3279 0.3614
-0.9792 -0.4158 0.3602
-0.9351 -0.4999 0.3590
-0.8840 -0.5796 0.3579
-0.8264 -0.6542 0.3569
-0.7626 -0.7234 0.3559
-0.6933 -0.7866 0.3550
-0.6189 -0.8434 0.3542
-0.5401 -0.8935 0.3535
-0.4574 -0.9366 0.3529
-0.3715 -0.9723 0.3524
-0.2829 -1.0004 0.3520
-0.1923 -1.0208 0.3517
-0.1004 -1.0333 0.3515
-0.0078 -1.0380 0.3515
0.0849 -1.0346 0.3515
0.1770 -1.0233 0.3516
0.2678 -1.0042 0.3519
0.3567 -0.9773 0.3523
0.4431 -0.9428 0.3527
0.5264 -0.9010 0.3533
0.6058 -0.8520 0.3540
0.6809 -0.7963 0.3548
0.7511 -0.7341 0.3556
0.8157 -0.6659 0.3566
0.8744 -0.5921 0.3576
0.9266 -0.5133 0.3587
0.9718 -0.4299 0.3598
1.0097 -0.3426 0.3610
1.0399 -0.2520 0.3623
1.0620 -0.1588 0.3636
1.0758 -0.0636 0.3649
1.0811 0.0328 0.3662
1.0779 0.1296 0.3676
1.0659 0.2261 0.3689
1.0452 0.3215 0.3703
1.0159 0.4150 0.3716
0.9781 0.5057 0.3728
0.9321 0.5929 0.3740
0.8782 0.6758 0.3752
0.8167 0.7537 0.3763
0.7482 0.8258 0.3773
0.6732 0.8914 0.3782
0.5922 0.9500 0.3790
0.5060 1.0009 0.3798
0.4153 1.0438 0.3804
0.3209 1.0780 0.3809
0.2236 1.1034 0.3812
0.1244 1.1197 0.3815
0.0239 1.1266 0.3816
-0.0767 1.1242 0.3815
-0.1767 1.1124 0.3814
-0.2750 1.0914 0.3811
-0.3709 1.0614 0.3807
-0.4635 1.0226 0.3802
-0.5520 0.9755 0.3795
-0.6356 0.9205 0.3788
-0.7136 0.8581 0.3779
-0.7853 0.7890 0.3769
-0.8503 0.7138 0.3759
-0.9079 0.6332 0.3748
-0.9578 0.5479 0.3736
-0.9995 0.4587 0.3724
-1.0329 0.3664 0.3711
-1.0577 0.2718 0.3698
-1.0739 0.1757 0.3684
-1.0813 0.0789 0.3671
-1.0801 -0.0179 0.3658
-1.0702 -0.1138 0.3644
-1.0520 -0.2081 0.3631
-1.0256 -0.3001 0.3618
-0.9913 -0.3891 0.3606
-0.9495 -0.4744 0.3594
-0.9005 -0.5555 0.3583
-0.8448 -0.6318 0.3572
-0.7829 -0.7027 0.3562
-0.7152 -0.7678 0.3553
-0.6423 -0.8266 0.3545
-0.5648 -0.8788 0.3537
-0.4833 -0.9241 0.3531
-0.3982 -0.9621 0.3526
-0.3104 -0.9925 0.3521
-0.2204 -1.0153 0.3518
-0.1288 -1.0303 0.3516
-0.0363 -1.0374 0.3515
0.0564 -1.0365 0.3515
0.1487 -1.0277 0.3516
0.2400 -1.0109 0.3518
0.3296 -0.9864 0.3521
0.4168 -0.9542 0.3526
0.5011 -0.9146 0.3531
0.5818 -0.8678 0.3538
0.6583 -0.8142 0.3545
0.7300 -0.7539 0.3553
0.7964 -0.6875 0.3563
0.8570 -0.6154 0.3572
0.9112 -0.5381 0.3583
0.9587 -0.4561 0.3595
0.9988 -0.3699 0.3606
1.0314 -0.2803 0.3619
1.0560 -0.1877 0.3632
1.0724 -0.0931 0.3645
1.0804 0.0030 0.3658
1.0798 0.0998 0.3672
1.0705 0.1965 0.3685
1.0525 0.2923 0.3699
1.0258 0.3864 0.3712
0.9906 0.4781 0.3724
0.9471 0.5664 0.3737
0.8956 0.6508 0.3749
0.8364 0.7303 0.3760
0.7700 0.8042 0.3770
0.6970 0.8719 0.3779
0.6177 0.9327 0.3788
0.5331 0.9861 0.3796
0.4437 1.0315 0.3802
0.3504 1.0684 0.3807
0.2539 1.0966 0.3811
0.1551 1.1157 0.3814
0.0549 1.1255 0.3815
-0.0457 1.1259 0.3816
-0.1460 1.1170 0.3814
-0.2449 1.0989 0.3812
-0.3417 1.0716 0.3808
-0.4354 1.0355 0.3803
-0.5252 0.9909 0.3797
-0.6104 0.9383 0.3790
-0.6902 0.8781 0.3782
-0.7639 0.8110 0.3772
-0.8310 0.7376 0.3762
-0.8910 0.6586 0.3751
-0.9432 0.5747 0.3740
-0.9875 0.4866 0.3728
-1.0235 0.3952 0.3715
-1.0510 0.3012 0.3702
-1.0698 0.2054 0.3689
-1.0799 0.1087 0.3675
-1.0814 0.0119 0.3662
-1.0742 -0.0844 0.3648
-1.0585 -0.1793 0.3635
-1.0346 -0.2720 0.3622
-1.0027 -0.3620 0.3610
-0.9632 -0.4486 0.3598
-0.9163 -0.5310 0.3586
-0.8627 -0.6088 0.3575
-0.8026 -0.6815 0.3565
-0.7366 -0.7484 0.3556
-0.6653 -0.8092 0.3547
-0.5892 -0.8635 0.3539
-0.5088 -0.9109 0.3533
-0.4248 -0.9511 0.3527
-0.3377 -0.9840 0.3522
-0.2483 -1.0091 0.3519
-0.1572 -1.0265 0.3516
-0.0649 -1.0361 0.3515
0.0278 -1.0376 0.3515
0.1204 -1.0312 0.3515
0.2120 -1.0169 0.3517
0.3022 -0.9948 0.3520
0.3902 -0.9650 0.3524
0.4755 -0.9276 0.3529
0.5573 -0.8830 0.3536
0.6352 -0.8314 0.3543
0.7085 -0.7732 0.3551
0.7766 -0.7086 0.3560
0.8390 -0.6382 0.3569
0.8952 -0.5624 0.3580
0.9448 -0.4818 0.3591
0.9872 -0.3969 0.3603
1.0222 -0.3082 0.3615
1.0493 -0.2165 0.3628
1.0683 -0.1224 0.3641
1.0789 -0.0267 0.3654
1.0809 0.0699 0.3668
1.0743 0.1667 0.3681
1.0590 0.2629 0.3694
1.0349 0.3576 0.3708
1.0024 0.4501 0.3721
0.9614 0.5396 0.3733
0.9123 0.6253 0.3745
0.8555 0.7063 0.3756
0.7912 0.7820 0.3767
0.7202 0.8517 0.3777
0.6428 0.9148 0.3785
0.5597 0.9705 0.3793
0.4717 1.0184 0.3800
0.3795 1.0580 0.3806
0.2839 1.0889 0.3810
0.1857 1.1108 0.3813
0.0859 1.1235 0.3815
-0.0147 1.1268 0.3816
-0.1152 1.1208 0.3815
-0.2146 1.1054 0.3813
-0.3122 1.0809 0.3810
-0.4069 1.0475 0.3805
-0.4980 1.0055 0.3799
-0.5847 0.9553 0.3792
-0.6662 0.8974 0.3784
-0.7419 0.8324 0.3775
-0.8111 0.7609 0.3766
-0.8733 0.6835 0.3755
-0.9280 0.6010 0.3743
-0.9748 0.5141 0.3731
-1.0133 0.4236 0.3719
-1.0435 0.3304 0.3706
-1.0650 0.2351 0.3693
-1.0778 0.1386 0.3679
-1.0819 0.0417 0.3666
-1.0773 -0.0548 0.3652
-1.0642 -0.1502 0.3639
-1.0428 -0.2437 0.3626
-1.0134 -0.3346 0.3613
-0.9761 -0.4223 0.3601
-0.9315 -0.5061 0.3589
-0.8799 -0.5854 0.3578
-0.8218 -0.6597 0.3568
-0.7576 -0.7284 0.3558
-0.6878 -0.7911 0.3550
-0.6131 -0.8475 0.3542
-0.5340 -0.8970 0.3535
-0.4510 -0.9395 0.3529
-0.3648 -0.9747 0.3524
-0.2761 -1.0022 0.3520
-0.1854 -1.0220 0.3517
-0.0934 -1.0340 0.3515
-0.0007 -1.0380 0.3515
0.0919 -1.0340 0.3515
0.1839 -1.0222 0.3517
0.2746 -1.0024 0.3519
0.3634 -0.9750 0.3523
0.4495 -0.9399 0.3528
0.5325 -0.8975 0.3534
0.6117 -0.8480 0.3540
0.6864 -0.7918 0.3548
0.7562 -0.7292 0.3557
0.8204 -0.6605 0.3566
0.8786 -0.5863 0.3577
0.9303 -0.5071 0.3587
0.9749 -0.4235 0.3599
1.0123 -0.3359 0.3611
1.0418 -0.2451 0.3624
1.0633 -0.1516 0.3637
1.0765 -0.0563 0.3650
1.0812 0.0401 0.3663
1.0773 0.1369 0.3677
1.0646 0.2334 0.3690
1.0433 0.3286 0.3704
1.0133 0.4219 0.3717
0.9749 0.5124 0.3729
0.9283 0.5993 0.3741
0.8738 0.6819 0.3753
0.8118 0.7593 0.3764
0.7428 0.8310 0.3774
0.6672 0.8961 0.3783
0.5859 0.9541 0.3791
0.4993 1.0045 0.3798
0.4083 1.0467 0.3804
0.3137 1.0803 0.3809
0.2162 1.1050 0.3812
0.1168 1.1205 0.3815
0.0163 1.1268 0.3816
-0.0843 1.1236 0.3815
-0.1842 1.1112 0.3814
-0.2824 1.0894 0.3811
-0.3781 1.0587 0.3807
-0.4704 1.0193 0.3801
-0.5585 0.9716 0.3795
-0.6417 0.9160 0.3787
-0.7192 0.8531 0.3778
-0.7905 0.7836 0.3769
-0.8549 0.7079 0.3758
-0.9119 0.6269 0.3747
-0.9612 0.5413 0.3735
-1.0023 0.4519 0.3723
-1.0351 0.3594 0.3710
-1.0593 0.2646 0.3697
-1.0747 0.1684 0.3683
-1.0815 0.0715 0.3670
-1.0796 -0.0252 0.3657
-1.0691 -0.1210 0.3643
-1.0503 -0.2151 0.3630
-1.0233 -0.3069 0.3617
-0.9884 -0.3957 0.3605
-0.9460 -0.4807 0.3593
-0.8965 -0.5615 0.3582
-0.8403 -0.6373 0.3571
-0.7780 -0.7078 0.3561
-0.7099 -0.7725 0.3552
-0.6366 -0.8308 0.3544
-0.5588 -0.8825 0.3537
-0.4769 -0.9272 0.3530
-0.3917 -0.9646 0.3525
-0.3037 -0.9945 0.3521
-0.2135 -1.0167 0.3518
-0.1218 -1.0311 0.3516
-0.0293 -1.0376 0.3515
0.0634 -1.0361 0.3515
0.1557 -1.0267 0.3516
0.2468 -1.0094 0.3518
0.3363 -0.9842 0.3522
0.4233 -0.9515 0.3526
0.5073 -0.9113 0.3532
0.5877 -0.8640 0.3538
0.6639 -0.8098 0.3546
0.7352 -0.7491 0.3554
0.8012 -0.6823 0.3563
0.8613 -0.6098 0.3573
0.9151 -0.5320 0.3584
0.9619 -0.4497 0.3595
1.0016 -0.3632 0.3607
1.0335 -0.2734 0.3620
1.0576 -0.1807 0.3633
1.0733 -0.0859 0.3646
1.0807 0.0103 0.3659
1.0794 0.1071 0.3673
1.0694 0.2038 0.3686
1.0508 0.2995 0.3700
1.0235 0.3934 0.3713
0.9876 0.4849 0.3725
0.9435 0.5730 0.3738
0.8914 0.6569 0.3749
0.8317 0.7360 0.3760
0.7648 0.8095 0.3771
0.6912 0.8767 0.3780
0.6115 0.9370 0.3789
0.5265 0.9898 0.3796
0.4368 1.0346 0.3802
0.3432 1.0709 0.3808
0.2465 1.0983 0.3811
0.1476 1.1167 0.3814
0.0473 1.1259 0.3815
-0.0533 1.1256 0.3816
-0.1535 1.1160 0.3814
-0.2523 1.0971 0.3812
-0.3489 1.0691 0.3808
-0.4423 1.0324 0.3803
-0.5319 0.9872 0.3797
-0.6166 0.9340 0.3789
-0.6960 0.8733 0.3781
-0.7692 0.8057 0.3772
-0.8358 0.7318 0.3762
-0.8952 0.6524 0.3751
-0.9469 0.5681 0.3739
-0.9905 0.4798 0.3727
-1.0259 0.3881 0.3714
-1.0527 0.2940 0.3701
-1.0709 0.1981 0.3688
-1.0804 0.1014 0.3674
-1.0811 0.0046 0.3661
-1.0733 -0.0916 0.3647
-1.0570 -0.1863 0.3634
-1.0325 -0.2789 0.3621
-1.0000 -0.3687 0.3609
-0.9599 -0.4549 0.3597
-0.9125 -0.5371 0.3585
-0.8583 -0.6145 0.3574
-0.7978 -0.6867 0.3564
-0.7314 -0.7532 0.3555
-0.6597 -0.8135 0.3546
-0.5832 -0.8673 0.3539
-0.5026 -0.9142 0.3532
-0.4183 -0.9539 0.3527
-0.3311 -0.9861 0.3522
-0.2415 -1.0107 0.3519
-0.1502 -1.0275 0.3516
-0.0579 -1.0365 0.3515
0.0348 -1.0374 0.3515
0.1273 -1.0304 0.3516
0.2189 -1.0155 0.3517
0.3089 -0.9928 0.3521
0.3968 -0.9624 0.3525
0.4818 -0.9245 0.3530
0.5634 -0.8794 0.3536
0.6409 -0.8272 0.3543
0.7138 -0.7685 0.3551
0.7815 -0.7035 0.3560
0.8435 -0.6327 0.3570
0.8992 -0.5565 0.3581
0.9483 -0.4755 0.3592
0.9902 -0.3903 0.3604
1.0245 -0.3014 0.3616
1.0510 -0.2095 0.3629
1.0694 -0.1153 0.3642
1.0793 -0.0194 0.3655
1.0807 0.0773 0.3669
1.0734 0.1740 0.3682
1.0574 0.2701 0.3695
0.8286 0.7039 0.3756
0.7645 0.7771 0.3766
0.6938 0.8444 0.3776
0.6171 0.9050 0.3784
0.5349 0.9583 0.3792
0.4480 1.0039 0.3798
0.3571 1.0414 0.3803
0.2631 1.0702 0.3808
0.1666 1.0903 0.3810
0.0687 1.1013 0.3812
-0.0299 1.1031 0.3812
-0.1282 1.0958 0.3811
-0.2253 1.0793 0.3809
-0.3205 1.0540 0.3806
-0.4128 1.0199 0.3801
-0.5014 0.9775 0.3795
-0.5855 0.9272 0.3788
-0.6645 0.8694 0.3781
-0.7377 0.8047 0.3772
-0.8045 0.7337 0.3762
-0.8644 0.6572 0.3751
-0.9168 0.5757 0.3740
-0.9614 0.4900 0.3728
-0.9980 0.4009 0.3716
-1.0263 0.3092 0.3703
-1.0461 0.2156 0.3690
-1.0574 0.1209 0.3677
-1.0601 0.0260 0.3664
-1.0544 -0.0685 0.3650
-1.0404 -0.1618 0.3637
-1.0182 -0.2531 0.3625
-0.9882 -0.3418 0.3612
-0.9506 -0.4272 0.3600
-0.9058 -0.5087 0.3589
-0.8542 -0.5858 0.3578
-0.7963 -0.6578 0.3568
-0.7325 -0.7243 0.3559
-0.6633 -0.7849 0.3550
-0.5894 -0.8392 0.3543
-0.5111 -0.8868 0.3536
-0.4293 -0.9274 0.3530
-0.3443 -0.9607 0.3526
-0.2569 -0.9865 0.3522
-0.1677 -1.0048 0.3519
-0.0774 -1.0153 0.3518
0.0136 -1.0180 0.3517
0.1044 -1.0129 0.3518
0.1945 -1.0001 0.3520
0.2831 -0.9795 0.3522
0.3698 -0.9513 0.3526
0.4539 -0.9158 0.3531
0.5347 -0.8731 0.3537
0.6117 -0.8235 0.3544
0.6842 -0.7673 0.3552
0.7518 -0.7048 0.3560
0.8138 -0.6366 0.3570
0.8699 -0.5630 0.3580
0.9194 -0.4846 0.3591
0.9621 -0.4019 0.3602
0.9974 -0.3155 0.3614
1.0251 -0.2260 0.3626
1.0448 -0.1341 0.3639
1.0564 -0.0404 0.3652
1.0596 0.0542 0.3665
1.0543 0.1491 0.3679
1.0405 0.2435 0.3692
1.0182 0.3365 0.3705
0.9874 0.4275 0.3717
0.9485 0.5156 0.3730
0.9015 0.6001 0.3741
0.8469 0.6802 0.3753
0.7850 0.7552 0.3763
0.7163 0.8243 0.3773
0.6414 0.8870 0.3782
0.5608 0.9427 0.3789
0.4753 0.9907 0.3796
0.3855 1.0307 0.3802
0.2923 1.0623 0.3806
0.1965 1.0851 0.3810
0.0990 1.0989 0.3812
0.0005 1.1035 0.3812
-0.0980 1.0990 0.3812
-0.1956 1.0854 0.3810
-0.2914 1.0627 0.3807
-0.3847 1.0313 0.3803
-0.4745 0.9914 0.3797
-0.5601 0.9435 0.3791
-0.6408 0.8880 0.3783
-0.7158 0.8253 0.3774
-0.7847 0.7562 0.3765
-0.8467 0.6813 0.3755
-0.9014 0.6013 0.3743
-0.9485 0.5168 0.3732
-0.9876 0.4287 0.3720
-1.0185 0.3377 0.3707
-1.0409 0.2446 0.3694
-1.0548 0.1501 0.3681
-1.0602 0.0552 0.3668
-1.0571 -0.0395 0.3655
-1.0456 -0.1332 0.3641
-1.0259 -0.2252 0.3629
-0.9983 -0.3148 0.3616
-0.9630 -0.4013 0.3604
-0.9204 -0.4840 0.3593
-0.8708 -0.5625 0.3582
-0.8148 -0.6362 0.3571
-0.7527 -0.7045 0.3562
-0.6852 -0.7669 0.3553
-0.6126 -0.8232 0.3545
-0.5357 -0.8729 0.3538
-0.4549 -0.9156 0.3532
-0.3708 -0.9512 0.3527
-0.2841 -0.9794 0.3523
-0.1954 -1.0000 0.3520
-0.1053 -1.0129 0.3518
-0.0145 -1.0180 0.3517
0.0764 -1.0153 0.3518
0.1668 -1.0049 0.3519
0.2560 -0.9866 0.3521
0.3434 -0.9608 0.3525
0.4283 -0.9275 0.3530
0.5102 -0.8870 0.3535
0.5884 -0.8395 0.3542
0.6624 -0.7853 0.3549
0.7315 -0.7247 0.3557
0.7953 -0.6582 0.3567
0.8533 -0.5862 0.3577
0.9049 -0.5093 0.3587
0.9497 -0.4278 0.3598
0.9873 -0.3425 0.3610
1.0174 -0.2539 0.3623
1.0396 -0.1626 0.3635
1.0537 -0.0694 0.3648
1.0595 0.0250 0.3661
1.0568 0.1199 0.3675
1.0457 0.2145 0.3688
1.0260 0.3080 0.3701
0.9978 0.3997 0.3714
0.9614 0.4888 0.3726
0.9168 0.5745 0.3738
0.8645 0.6560 0.3749
0.8048 0.7327 0.3760
0.7382 0.8037 0.3770
0.6651 0.8684 0.3779
0.5862 0.9263 0.3787
0.5021 0.9768 0.3794
0.4136 1.0193 0.3800
0.3214 1.0535 0.3805
0.2263 1.0790 0.3809
0.1292 1.0956 0.3811
0.0309 1.1031 0.3812
-0.0677 1.1014 0.3812
-0.1656 1.0905 0.3811
-0.2621 1.0707 0.3808
-0.3563 1.0419 0.3804
-0.4472 1.0046 0.3799
-0.5342 0.9591 0.3793
-0.6165 0.9059 0.3786
-0.6934 0.8454 0.3777
-0.7642 0.7782 0.3768
-0.8283 0.7050 0.3758
-0.8854 0.6264 0.3747
-0.9349 0.5432 0.3735
-0.9765 0.4562 0.3723
-1.0099 0.3660 0.3711
-1.0349 0.2734 0.3698
-1.0514 0.1793 0.3685
-1.0594 0.0845 0.3672
-1.0589 -0.0104 0.3659
-1.0500 -0.1045 0.3645
-1.0328 -0.1971 0.3633
-1.0076 -0.2875 0.3620
-0.9746 -0.3750 0.3608
-0.9342 -0.4590 0.3596
-0.8868 -0.5388 0.3585
-0.8327 -0.6140 0.3574
-0.7725 -0.6840 0.3565
-0.7066 -0.7483 0.3556
-0.6355 -0.8065 0.3547
-0.5598 -0.8583 0.3540
-0.4801 -0.9032 0.3534
-0.3970 -0.9410 0.3528
-0.3111 -0.9715 0.3524
-0.2229 -0.9945 0.3521
-0.1332 -1.0097 0.3519
-0.0425 -1.0173 0.3518
0.0484 -1.0170 0.3517
0.1391 -1.0089 0.3518
0.2287 -0.9931 0.3521
0.3167 -0.9696 0.3524
0.4024 -0.9386 0.3528
0.4853 -0.9002 0.3533
0.5647 -0.8548 0.3539
0.6400 -0.8027 0.3547
0.7107 -0.7440 0.3555
0.7763 -0.6793 0.3564
0.8361 -0.6090 0.3573
0.8897 -0.5335 0.3584
0.9366 -0.4534 0.3595
0.9765 -0.3692 0.3607
1.0089 -0.2815 0.3619
1.0336 -0.1910 0.3631
1.0502 -0.0983 0.3644
1.0586 -0.0042 0.3657
1.0586 0.0906 0.3670
1.0500 0.1854 0.3684
1.0329 0.2794 0.3697
1.0074 0.3717 0.3710
0.9735 0.4617 0.3722
0.9314 0.5485 0.3734
0.8814 0.6314 0.3746
0.8240 0.7096 0.3757
0.7594 0.7824 0.3767
0.6883 0.8492 0.3776
0.6111 0.9093 0.3785
0.5285 0.9621 0.3792
0.4413 1.0071 0.3799
0.3501 1.0439 0.3804
0.2558 1.0721 0.3808
0.1593 1.0914 0.3811
0.0612 1.1017 0.3812
-0.0373 1.1029 0.3812
-0.1356 1.0948 0.3811
-0.2326 1.0777 0.3809
-0.3276 1.0517 0.3806
-0.4196 1.0170 0.3801
-0.5079 0.9740 0.3795
-0.5917 0.9231 0.3788
-0.6703 0.8647 0.3780
-0.7430 0.7996 0.3771
-0.8093 0.7281 0.3761
-0.8686 0.6512 0.3750
-0.9204 0.5693 0.3739
-0.9645 0.4834 0.3727
-1.0005 0.3940 0.3715
-1.0281 0.3021 0.3702
-1.0473 0.2084 0.3689
-1.0579 0.1137 0.3676
-1.0600 0.0188 0.3663
-1.0537 -0.0756 0.3649
-1.0390 -0.1687 0.3637
-1.0162 -0.2599 0.3624
-0.9856 -0.3483 0.3611
-0.9475 -0.4335 0.3600
-0.9021 -0.5147 0.3588
-0.8501 -0.5914 0.3578
-0.7917 -0.6630 0.3568
-0.7274 -0.7291 0.3558
-0.6579 -0.7893 0.3550
-0.5836 -0.8430 0.3542
-0.5051 -0.8901 0.3536
-0.4229 -0.9301 0.3530
-0.3378 -0.9629 0.3525
-0.2503 -0.9882 0.3522
-0.1610 -1.0059 0.3519
-0.0705 -1.0158 0.3518
0.0204 -1.0179 0.3517
0.1112 -1.0122 0.3518
0.2012 -0.9988 0.3520
0.2898 -0.9776 0.3523
0.3763 -0.9489 0.3527
0.4601 -0.9128 0.3532
0.5407 -0.8696 0.3537
0.6173 -0.8194 0.3544
0.6895 -0.7627 0.3552
0.7567 -0.6999 0.3561
0.8183 -0.6312 0.3570
0.8738 -0.5573 0.3581
0.9229 -0.4785 0.3591
0.9650 -0.3955 0.3603
0.9998 -0.3088 0.3615
1.0269 -0.2191 0.3627
1.0460 -0.1270 0.3640
1.0569 -0.0333 0.3653
1.0595 0.0614 0.3666
1.0536 0.1562 0.3680
1.0391 0.2505 0.3693
1.0161 0.3435 0.3706
0.9848 0.4343 0.3718
0.9452 0.5221 0.3731
0.8977 0.6063 0.3742
0.8425 0.6861 0.3753
0.7800 0.7606 0.3764
0.7108 0.8293 0.3774
0.6355 0.8915 0.3782
0.5545 0.9466 0.3790
0.4686 0.9940 0.3797
0.3786 1.0334 0.3802
0.2852 1.0643 0.3807
0.1892 1.0864 0.3810
0.0915 1.0995 0.3812
-0.0069 1.1035 0.3812
-0.1054 1.0983 0.3812
-0.2029 1.0840 0.3810
-0.2986 1.0607 0.3807
-0.3916 1.0286 0.3802
-0.4811 0.9881 0.3797
-0.5664 0.9396 0.3790
-0.6467 0.8835 0.3782
-0.7213 0.8203 0.3774
-0.7896 0.7508 0.3764
-0.8511 0.6754 0.3754
-0.9053 0.5950 0.3743
-0.9518 0.5102 0.3731
-0.9903 0.4219 0.3719
-1.0205 0.3307 0.3706
-1.0423 0.2375 0.3693
-1.0555 0.1430 0.3680
-1.0603 0.0480 0.3667
-1.0565 -0.0466 0.3654
-1.0444 -0.1402 0.3640
-1.0241 -0.2320 0.3628
-0.9959 -0.3214 0.3615
-0.9600 -0.4077 0.3603
-0.9169 -0.4901 0.3592
-0.8668 -0.5683 0.3581
-0.8103 -0.6415 0.3571
-0.7478 -0.7094 0.3561
-0.6799 -0.7714 0.3552
-0.6070 -0.8272 0.3545
-0.5297 -0.8763 0.3538
-0.4486 -0.9186 0.3532
-0.3643 -0.9536 0.3527
-0.2775 -0.9812 0.3523
-0.1886 -1.0012 0.3520
-0.0985 -1.0136 0.3518
-0.0076 -1.0181 0.3517
0.0833 -1.0148 0.3518
0.1736 -1.0037 0.3519
0.2627 -0.9849 0.3522
0.3499 -0.9586 0.3525
0.4346 -0.9247 0.3530
0.5162 -0.8836 0.3536
0.5941 -0.8356 0.3542
0.6678 -0.7809 0.3550
0.7365 -0.7199 0.3558
0.7999 -0.6530 0.3567
0.8574 -0.5806 0.3577
0.9085 -0.5033 0.3588
0.9528 -0.4215 0.3599
0.9899 -0.3359 0.3611
1.0193 -0.2470 0.3624
1.0410 -0.1556 0.3636
1.0544 -0.0623 0.3649
1.0596 0.0321 0.3662
1.0563 0.1270 0.3676
1.0445 0.2216 0.3689
1.0241 0.3150 0.3702
0.9953 0.4066 0.3714
0.9583 0.4954 0.3727
0.9131 0.5808 0.3739
0.8603 0.6620 0.3750
0.8000 0.7382 0.3761
0.7329 0.8088 0.3771
0.6593 0.8731 0.3780
0.5800 0.9304 0.3788
0.4956 0.9803 0.3795
0.4067 1.0222 0.3801
0.3143 1.0557 0.3805
0.2190 1.0806 0.3809
0.1218 1.0965 0.3811
0.0234 1.1033 0.3812
-0.0751 1.1009 0.3812
-0.1730 1.0893 0.3811
-0.2693 1.0688 0.3808
-0.3633 1.0394 0.3804
-0.4540 1.0015 0.3799
-0.5406 0.9554 0.3792
-0.6225 0.9015 0.3785
-0.6989 0.8405 0.3777
-0.7692 0.7729 0.3767
-0.8329 0.6992 0.3757
-0.8894 0.6203 0.3746
-0.9383 0.5368 0.3735
-0.9793 0.4494 0.3722
-1.0120 0.3590 0.3710
-1.0364 0.2664 0.3697
-1.0523 0.1722 0.3684
-1.0597 0.0773 0.3671
-1.0586 -0.0175 0.3658
-1.0490 -0.1115 0.3644
-1.0312 -0.2040 0.3632
-1.0054 -0.2942 0.3619
-0.9718 -0.3815 0.3607
-0.9309 -0.4652 0.3595
-0.8829 -0.5447 0.3584
-0.8284 -0.6195 0.3574
-0.7677 -0.6891 0.3564
-0.7014 -0.7529 0.3555
-0.6299 -0.8107 0.3547
-0.5539 -0.8619 0.3540
-0.4740 -0.9063 0.3533
-0.3906 -0.9436 0.3528
-0.3045 -0.9735 0.3524
-0.2162 -0.9959 0.3521
-0.1263 -1.0106 0.3519
-0.0356 -1.0175 0.3517
0.0553 -1.0167 0.3517
0.1459 -1.0080 0.3519
0.2354 -0.9916 0.3521
0.3233 -0.9675 0.3524
0.4088 -0.9359 0.3528
0.4914 -0.8970 0.3534
0.5706 -0.8511 0.3540
0.6456 -0.7984 0.3547
0.7159 -0.7393 0.3555
0.7810 -0.6742 0.3564
0.8403 -0.6035 0.3574
0.8935 -0.5276 0.3585
0.9399 -0.4471 0.3596
0.9792 -0.3626 0.3608
1.0111 -0.2747 0.3620
1.0352 -0.1840 0.3632
1.0512 -0.0912 0.3645
1.0589 0.0030 0.3658
1.0582 0.0978 0.3671
1.0490 0.1925 0.3685
1.0313 0.2864 0.3698
1.0051 0.3786 0.3711
0.9706 0.4684 0.3723
0.9279 0.5549 0.3735
0.8774 0.6375 0.3747
0.8193 0.7153 0.3758
0.7543 0.7877 0.3768
0.6826 0.8540 0.3777
0.6050 0.9135 0.3785
0.5221 0.9657 0.3793
0.4345 1.0101 0.3799
0.3431 1.0463 0.3804
0.2486 1.0738 0.3808
0.1519 1.0925 0.3811
0.0538 1.1021 0.3812
-0.0448 1.1026 0.3812
-0.1430 1.0939 0.3811
-0.2399 1.0761 0.3809
-0.3346 1.0494 0.3805
-0.4264 1.0140 0.3800
-0.5144 0.9704 0.3794
-0.5978 0.9189 0.3787
-0.6760 0.8600 0.3779
-0.7483 0.7944 0.3770
-0.8140 0.7225 0.3760
-0.8728 0.6451 0.3750
-0.9240 0.5630 0.3738
-0.9675 0.4767 0.3726
-1.0028 0.3872 0.3714
-1.0298 0.2951 0.3701
-1.0484 0.2013 0.3688
-1.0583 0.1066 0.3675
-1.0598 0.0116 0.3662
-1.0528 -0.0827 0.3648
-1.0376 -0.1757 0.3636
-1.0142 -0.2667 0.3623
-0.9830 -0.3549 0.3611
-0.9443 -0.4398 0.3599
-0.8984 -0.5207 0.3587
-0.8459 -0.5970 0.3577
-0.7870 -0.6682 0.3567
-0.7224 -0.7339 0.3558
-0.6524 -0.7936 0.3549
-0.5778 -0.8468 0.3542
-0.4990 -0.8934 0.3535
-0.4166 -0.9329 0.3530
-0.3313 -0.9651 0.3525
-0.2436 -0.9898 0.3522
-0.1541 -1.0069 0.3519
-0.0636 -1.0162 0.3518
0.0273 -1.0178 0.3517
0.1181 -1.0115 0.3518
0.2080 -0.9974 0.3520
0.2964 -0.9757 0.3523
0.3827 -0.9464 0.3527
0.4663 -0.9098 0.3532
0.5466 -0.8660 0.3538
0.6229 -0.8154 0.3545
0.6948 -0.7582 0.3553
0.7615 -0.6949 0.3562
0.8227 -0.6258 0.3571
0.8778 -0.5515 0.3581
0.9263 -0.4724 0.3592
0.9679 -0.3891 0.3604
1.0021 -0.3021 0.3616
1.0286 -0.2122 0.3628
1.0471 -0.1200 0.3641
1.0574 -0.0262 0.3654
1.0593 0.0685 0.3667
1.0528 0.1634 0.3681
1.0377 0.2576 0.3694
1.0141 0.3504 0.3707
0.9821 0.4410 0.3719
0.9419 0.5286 0.3731
0.8937 0.6125 0.3743
0.8380 0.6919 0.3754
0.7750 0.7660 0.3765
0.7054 0.8342 0.3774
0.6295 0.8959 0.3783
0.5482 0.9504 0.3791
0.4620 0.9973 0.3797
0.3716 1.0361 0.3803
0.2780 1.0663 0.3807
0.1819 1.0877 0.3810
0.0841 1.1001 0.3812
-0.0144 1.1034 0.3812
-0.1128 1.0975 0.3812
-0.2102 1.0825 0.3810
-0.3057 1.0585 0.3806
-0.3985 1.0258 0.3802
-0.4877 0.9847 0.3796
-0.5726 0.9356 0.3790
-0.6525 0.8789 0.3782
-0.7267 0.8153 0.3773
-0.7945 0.7453 0.3763
-0.8554 0.6695 0.3753
-0.9091 0.5888 0.3742
-0.9550 0.5037 0.3730
-0.9928 0.4151 0.3718
-1.0224 0.3237 0.3705
-1.0436 0.2303 0.3692
-1.0562 0.1358 0.3679
-1.0603 0.0409 0.3666
-1.0559 -0.0537 0.3653
-1.0431 -0.1472 0.3640
-1.0222 -0.2389 0.3627
-0.9934 -0.3281 0.3614
-0.9570 -0.4140 0.3602
-0.9133 -0.4962 0.3591
-0.8628 -0.5740 0.3580
-0.8058 -0.6468 0.3570
-0.7429 -0.7143 0.3560
-0.6745 -0.7758 0.3552
-0.6013 -0.8311 0.3544
-0.5237 -0.8798 0.3537
-0.4423 -0.9215 0.3531
-0.3578 -0.9559 0.3526
-0.2708 -0.9830 0.3523
-0.1818 -1.0024 0.3520
-0.0916 -1.0142 0.3518
-0.0007 -1.0181 0.3517
0.0901 -1.0142 0.3518
0.1804 -1.0026 0.3519
0.2693 -0.9832 0.3522
0.3564 -0.9562 0.3526
0.4409 -0.9219 0.3530
0.5223 -0.8802 0.3536
0.5999 -0.8317 0.3543
0.6731 -0.7765 0.3550
0.7415 -0.7150 0.3559
0.8045 -0.6477 0.3568
0.8615 -0.5749 0.3578
0.9121 -0.4972 0.3589
0.9558 -0.4152 0.3600
0.9924 -0.3293 0.3612
1.0213 -0.2402 0.3624
1.0423 -0.1486 0.3637
1.0551 -0.0552 0.3650
1.0596 0.0393 0.3663
1.0557 0.1342 0.3677
1.0432 0.2287 0.3690
1.0222 0.3220 0.3703
0.9928 0.4134 0.3715
0.9551 0.5020 0.3728
0.9094 0.5871 0.3740
0.8560 0.6679 0.3751
0.7952 0.7438 0.3762
0.7275 0.8139 0.3771
0.6535 0.8776 0.3780
0.5738 0.9344 0.3788
0.4890 0.9837 0.3795
0.3999 1.0250 0.3801
0.3072 1.0579 0.3806
0.2117 1.0821 0.3809
0.1144 1.0973 0.3811
0.0160 1.1034 0.3812
-0.0825 1.1003 0.3812
-0.1803 1.0881 0.3810
-0.2765 1.0669 0.3808
-0.3702 1.0368 0.3803
-0.4607 0.9983 0.3798
-0.5470 0.9516 0.3792
-0.6285 0.8972 0.3784
-0.7045 0.8356 0.3776
-0.7743 0.7675 0.3766
-0.8374 0.6934 0.3756
-0.8933 0.6141 0.3745
-0.9417 0.5303 0.3734
-0.9820 0.4427 0.3721
-1.0142 0.3521 0.3709
-1.0379 0.2593 0.3696
-1.0532 0.1650 0.3683
-1.0599 0.0701 0.3670
-1.0581 -0.0247 0.3657
-1.0479 -0.1186 0.3643
-1.0295 -0.2109 0.3631
-1.0031 -0.3009 0.3618
-0.9690 -0.3879 0.3606
-0.9275 -0.4713 0.3594
-0.8790 -0.5505 0.3583
-0.8240 -0.6249 0.3573
-0.7629 -0.6941 0.3563
-0.6961 -0.7575 0.3554
-0.6243 -0.8148 0.3546
-0.5480 -0.8655 0.3539
-0.4678 -0.9094 0.3533
-0.3842 -0.9461 0.3528
-0.2979 -0.9755 0.3524
-0.2094 -0.9973 0.3520
-0.1195 -1.0114 0.3518
-0.0288 -1.0177 0.3517
0.0622 -1.0163 0.3518
0.1527 -1.0070 0.3519
0.2421 -0.9900 0.3521
0.3298 -0.9654 0.3524
0.4152 -0.9332 0.3529
0.4976 -0.8938 0.3534
0.5764 -0.8474 0.3541
0.6510 -0.7942 0.3548
0.7210 -0.7346 0.3556
0.7857 -0.6690 0.3565
0.8446 -0.5979 0.3575
0.8972 -0.5217 0.3585
0.9431 -0.4409 0.3597
0.9819 -0.3561 0.3608
1.0132 -0.2680 0.3621
1.0367 -0.1771 0.3633
1.0520 -0.0842 0.3646
1.0591 0.0101 0.3659
1.0578 0.1050 0.3672
1.0480 0.1997 0.3686
1.0296 0.2934 0.3699
1.0028 0.3855 0.3712
0.9676 0.4750 0.3724
0.9243 0.5613 0.3736
0.8732 0.6435 0.3748
0.8147 0.7210 0.3758
0.7491 0.7929 0.3768
0.6770 0.8587 0.3778
0.5989 0.9177 0.3786
0.5156 0.9694 0.3793
0.4277 1.0132 0.3799
0.3361 1.0487 0.3804
0.2414 1.0756 0.3808
0.1445 1.0936 0.3811
0.0464 1.1025 0.3812
-0.0522 1.1022 0.3812
-0.1503 1.0928 0.3811
-0.2471 1.0744 0.3809
-0.3417 1.0470 0.3805
-0.4332 1.0110 0.3800
-0.5209 0.9668 0.3794
-0.6039 0.9147 0.3787
-0.6817 0.8553 0.3779
-0.7535 0.7891 0.3769
-0.8187 0.7168 0.3759
-0.8769 0.6391 0.3749
-0.9276 0.5566 0.3737
-0.9705 0.4701 0.3725
-1.0052 0.3803 0.3713
-1.0315 0.2881 0.3700
-1.0494 0.1942 0.3687
-1.0588 0.0994 0.3674
-1.0596 0.0045 0.3661
-1.0520 -0.0898 0.3648
-1.0361 -0.1827 0.3635
-1.0121 -0.2734 0.3622
-0.9803 -0.3615 0.3610
-0.9411 -0.4460 0.3598
-0.8947 -0.5266 0.3587
-0.8416 -0.6025 0.3576
-0.7823 -0.6734 0.3566
-0.7173 -0.7386 0.3557
-0.6470 -0.7978 0.3549
-0.5720 -0.8506 0.3541
-0.4929 -0.8966 0.3535
-0.4103 -0.9356 0.3529
-0.3247 -0.9672 0.3525
-0.2369 -0.9914 0.3521
-0.1473 -1.0079 0.3519
-0.0568 -1.0166 0.3518
0.0342 -1.0176 0.3517
0.1249 -1.0107 0.3518
0.2147 -0.9961 0.3520
0.3030 -0.9738 0.3523
0.3891 -0.9439 0.3527
0.4725 -0.9067 0.3532
0.5525 -0.8624 0.3538
0.6285 -0.8113 0.3545
0.7000 -0.7536 0.3553
0.7663 -0.6899 0.3562
0.8271 -0.6204 0.3572
0.8817 -0.5457 0.3582
0.9297 -0.4662 0.3593
0.9707 -0.3826 0.3605
1.0044 -0.2954 0.3617
1.0303 -0.2053 0.3629
1.0482 -0.1130 0.3642
1.0579 -0.0190 0.3655
1.0591 0.0757 0.3668
1.0519 0.1706 0.3682
1.0362 0.2647 0.3695
0.8119 0.6897 0.3754
0.7491 0.7615 0.3764
0.6798 0.8273 0.3773
0.6046 0.8866 0.3782
0.5241 0.9389 0.3789
0.4389 0.9835 0.3795
0.3499 1.0202 0.3800
0.2577 1.0484 0.3804
0.1632 1.0680 0.3807
0.0673 1.0788 0.3809
-0.0293 1.0806 0.3809
-0.1256 1.0734 0.3808
-0.2207 1.0573 0.3806
-0.3139 1.0325 0.3803
-0.4044 0.9992 0.3798
-0.4912 0.9577 0.3793
-0.5737 0.9084 0.3786
-0.6511 0.8518 0.3778
-0.7228 0.7885 0.3769
-0.7883 0.7190 0.3760
