ply
format ascii 1.0
element vertex 2124
property float32 x
property float32 y
property float32 z
end_header
12.3937 4.5724 1.8013
11.8986 5.6416 1.7956
11.3037 6.6541 1.7886
10.6160 7.6005 1.7803
9.8437 8.4722 1.7709
8.9958 9.2617 1.7605
5.3429 6.5864 1.1564
4.7211 7.0171 1.1532
6.1160 11.1176 1.7302
5.0617 11.5314 1.7172
3.9969 11.8885 1.7102
2.9157 12.1771 1.7074
1.9803 13.4935 1.8596
0.4192 7.4229 1.0138
-0.1797 5.4622 0.7452
-0.9715 7.9113 1.0868
-2.8629 13.3341 1.8596
-4.0407 13.0257 1.8596
-5.1863 12.6134 1.8596
-6.2130 11.9515 1.8367
-6.7464 10.5553 1.7081
-7.6720 9.9259 1.7106
-8.5363 9.2126 1.7126
-9.3239 8.4146 1.7126
-10.0372 7.5495 1.7126
-10.6700 6.6239 1.7125
-8.5225 4.2892 1.3010
-11.6669 4.6189 1.7110
-12.0286 3.5589 1.7105
-12.2953 2.4714 1.7101
-12.4650 1.3648 1.7098
-12.5364 0.2477 1.7097
-12.5089 -0.8714 1.7098
-12.3829 -1.9838 1.7100
-12.1592 -3.0809 1.7104
-11.8394 -4.1542 1.7109
-11.4261 -5.1955 1.7115
-8.4321 -4.7839 1.3219
-10.3276 -7.1472 1.7126
-9.6352 -8.0282 1.7101
-8.8661 -8.8409 1.7073
-8.7600 -10.4528 1.8596
-7.8005 -11.2033 1.8614
-6.7805 -11.8723 1.8643
-5.7082 -12.4590 1.8687
-4.5823 -12.9412 1.8720
-3.4156 -13.3207 1.8751
-2.2177 -13.5950 1.8782
-0.9980 -13.7612 1.8813
0.2336 -13.8176 1.8844
1.4673 -13.7632 1.8873
2.6930 -13.5978 1.8901
3.9005 -13.3224 1.8928
5.0799 -12.9387 1.8954
6.2414 -12.4898 1.9038
7.3611 -11.9332 1.9118
8.4378 -11.2849 1.9213
9.4555 -10.5375 1.9305
9.5437 -8.8938 1.7788
10.3404 -8.0394 1.7860
10.0604 -6.4705 1.6310
11.6742 -6.1112 1.7968
12.1981 -5.0562 1.8005
12.6199 -3.9543 1.8033
12.9350 -2.8158 1.8051
4.6685 -0.5868 0.6416
4.7908 -0.1713 0.6537
13.2556 0.7107 1.8101
13.1330 1.8892 1.8092
12.8953 3.0489 1.8068
12.5454 4.1780 1.8030
12.0877 5.2648 1.7978
11.5277 6.2988 1.7912
10.8723 7.2699 1.7834
10.1293 8.1692 1.7744
9.3074 8.9889 1.7644
8.4160 9.7223 1.7534
4.8639 6.7529 1.1348
6.4811 10.9384 1.7337
5.4510 11.4127 1.7246
4.3774 11.7617 1.7112
3.3055 12.0850 1.7084
2.4105 13.4233 1.8596
0.7019 7.9209 1.0843
-0.0050 5.4652 0.7452
-0.6722 7.4303 1.0173
-2.4353 13.4188 1.8596
-3.6223 13.1482 1.8596
-4.7805 12.7727 1.8596
-5.9006 12.2955 1.8596
-6.4022 10.7598 1.7072
-7.3471 10.1609 1.7098
-8.2354 9.4783 1.7121
-9.0502 8.7082 1.7126
-9.7908 7.8664 1.7126
-10.4534 6.9617 1.7126
-8.5233 4.6368 1.3230
-11.5149 4.9901 1.7112
-11.9100 3.9419 1.7106
-12.2109 2.8633 1.7102
-12.4155 1.7625 1.7099
-12.5222 0.6482 1.7098
-12.5301 -0.4711 1.7098
-12.4393 -1.5869 1.7099
-12.2504 -2.6905 1.7102
-11.9648 -3.7733 1.7107
-11.5846 -4.8270 1.7113
-11.1127 -5.8434 1.7120
-10.5507 -6.8135 1.7126
-9.8927 -7.7207 1.7111
-9.1496 -8.5581 1.7083
-9.0896 -10.1674 1.8596
-8.1510 -10.9435 1.8606
-7.1498 -11.6386 1.8625
-6.0991 -12.2617 1.8674
-4.9905 -12.7805 1.8708
-3.8373 -13.1968 1.8740
-2.6495 -13.5091 1.8771
-1.4365 -13.7143 1.8802
-0.2080 -13.8102 1.8833
1.0261 -13.7954 1.8863
2.2558 -13.6697 1.8891
3.4710 -13.4335 1.8919
4.6616 -13.0883 1.8945
5.8296 -12.6625 1.9008
6.9657 -12.1445 1.9090
8.0584 -11.5283 1.9179
9.0987 -10.8163 1.9273
8.1579 -8.1047 1.5680
10.0641 -8.3542 1.7835
10.8096 -7.4512 1.7902
11.4629 -6.4755 1.7952
12.0220 -5.4397 1.7993
12.4810 -4.3534 1.8024
12.8347 -3.2268 1.8045
4.7096 -0.7456 0.6502
4.6579 -0.3158 0.6366
4.9868 0.1077 0.6801
13.1902 1.4689 1.8097
12.9934 2.6367 1.8078
12.6833 3.7781 1.8045
12.2636 4.8813 1.7998
11.7395 5.9354 1.7937
11.1174 6.9301 1.7863
10.4048 7.8561 1.7777
9.6101 8.7051 1.7681
8.7425 9.4701 1.7574
5.0909 6.6118 1.1378
6.8410 10.7469 1.7371
5.8226 11.2511 1.7274
4.7538 11.6226 1.7122
3.6922 11.9804 1.7094
2.6919 12.6514 1.7637
0.9734 8.0496 1.1056
0.1696 5.4625 0.7452
-0.4333 7.4287 1.0147
-2.0052 13.4898 1.8596
-3.2003 13.2572 1.8596
-4.3699 12.9190 1.8596
-5.5046 12.4778 1.8596
-6.2270 11.2703 1.7557
-7.0150 10.3851 1.7089
-7.9244 9.7319 1.7113
-8.7673 8.9931 1.7126
-9.5344 8.1753 1.7126
-10.2255 7.2924 1.7126
-10.8331 6.3502 1.7122
-8.8611 4.1813 1.3360
-11.7792 4.3211 1.7108
-12.1142 3.2524 1.7103
-12.3534 2.1586 1.7100
-12.4953 1.0481 1.7098
-12.5386 -0.0704 1.7097
-12.4831 -1.1885 1.7098
-12.3292 -2.2974 1.7101
-12.0780 -3.3886 1.7105
-11.7314 -4.4537 1.7110
-11.2920 -5.4844 1.7117
-8.4055 -5.0549 1.3374
-10.1403 -7.4049 1.7121
-9.4240 -8.2662 1.7093
-9.4099 -9.8717 1.8596
-8.4929 -10.6728 1.8598
-7.5162 -11.4013 1.8620
-6.4821 -12.0497 1.8657
-5.3932 -12.6069 1.8697
-4.2545 -13.0596 1.8729
-3.0780 -13.4095 1.8760
-1.8729 -13.6533 1.8791
-0.6489 -13.7885 1.8822
0.5844 -13.8135 1.8852
1.8168 -13.7275 1.8881
3.0383 -13.5307 1.8909
4.2389 -13.2243 1.8936
5.4114 -12.8173 1.8971
6.5642 -12.3425 1.9062
7.6719 -11.7585 1.9144
8.7334 -11.0826 1.9240
8.0169 -8.4907 1.5923
9.1932 -8.1412 1.6744
9.4313 -6.9561 1.5980
11.2395 -6.8321 1.7935
11.8331 -5.8168 1.7979
12.3286 -4.7474 1.8014
12.7204 -3.6340 1.8039
4.8708 -0.9315 0.6762
4.6440 -0.4644 0.6364
4.8357 -0.0501 0.6594
13.2326 1.0468 1.8100
13.0771 2.2211 1.8087
12.8071 3.3733 1.8059
12.4261 4.4915 1.8017
11.9387 5.5644 1.7960
11.3509 6.5815 1.7891
10.6698 7.5331 1.7810
9.9035 8.4105 1.7717
9.0608 9.2063 1.7613
5.4441 6.6214 1.1689
4.7363 6.9405 1.1457
6.1917 11.0816 1.7309
5.1445 11.5132 1.7195
4.0757 11.8634 1.7104
2.9964 12.1591 1.7076
2.0692 13.4801 1.8596
0.4683 7.4226 1.0141
-0.1437 5.4633 0.7452
-0.9163 7.8909 1.0832
-2.7749 13.3527 1.8596
-3.9547 13.0520 1.8596
-5.1030 12.6473 1.8596
-6.2091 12.1389 1.8592
-6.6759 10.5984 1.7080
-7.6056 9.9753 1.7104
-8.4754 9.2687 1.7126
-9.2682 8.4759 1.7126
-9.9872 7.6155 1.7126
-10.6265 6.6944 1.7125
-8.5217 4.3594 1.3052
-11.6365 4.6959 1.7110
-12.0051 3.6382 1.7105
-12.2789 2.5524 1.7101
-12.4558 1.4469 1.7098
-12.5345 0.3303 1.7097
-12.5143 -0.7889 1.7098
-12.3956 -1.9021 1.7100
-12.1790 -3.0006 1.7103
-11.8663 -4.0760 1.7108
-11.4597 -5.1199 1.7115
-8.4389 -4.7145 1.3181
-10.3745 -7.0789 1.7126
-9.6891 -7.9655 1.7103
-8.9254 -8.7834 1.7075
-8.8287 -10.3947 1.8596
-7.8735 -11.1506 1.8613
-6.8573 -11.8250 1.8639
-5.7893 -12.4193 1.8684
-4.6669 -12.9091 1.8717
-3.5029 -13.2963 1.8749
-2.3070 -13.5784 1.8780
-1.0886 -13.7527 1.8811
0.1425 -13.8173 1.8842
1.3764 -13.7710 1.8871
2.6029 -13.6138 1.8899
3.8122 -13.3465 1.8926
4.9940 -12.9707 1.8952
6.1569 -12.5266 1.9032
7.2801 -11.9778 1.9113
8.3601 -11.3362 1.9206
9.3826 -10.5960 1.9298
9.4819 -8.9537 1.7783
10.2842 -8.1052 1.7855
9.9363 -6.4837 1.6178
11.6316 -6.1869 1.7964
12.1629 -5.1358 1.8003
12.5923 -4.0370 1.8031
12.9155 -2.9009 1.8050
4.6793 -0.6195 0.6436
4.6633 -0.1975 0.6364
5.2265 0.2457 0.7134
13.1460 1.8027 1.8093
12.9167 2.9642 1.8070
12.5750 4.0959 1.8033
12.1250 5.1863 1.7982
11.5724 6.2245 1.7917
10.9238 7.2006 1.7840
10.1870 8.1055 1.7751
9.3706 8.9313 1.7651
8.4839 9.6712 1.7542
4.9025 6.7128 1.1334
6.5558 10.8999 1.7344
5.5263 11.3767 1.7246
4.4554 11.7340 1.7115
3.3855 12.0645 1.7086
2.4990 13.4071 1.8596
0.7543 7.9179 1.0845
0.0310 5.4651 0.7452
-0.6228 7.4300 1.0167
-2.3468 13.4346 1.8596
-3.5356 13.1718 1.8596
-4.6962 12.8040 1.8596
-5.8194 12.3341 1.8596
-6.3311 10.8017 1.7072
-7.2792 10.2080 1.7096
-8.1719 9.5315 1.7120
-8.9926 8.7677 1.7126
-9.7387 7.9308 1.7126
-10.4072 7.0307 1.7126
-10.9892 6.0725 1.7120
-11.4820 5.0661 1.7113
-11.8840 4.0204 1.7107
-12.1920 2.9438 1.7102
-12.4037 1.8444 1.7099
-12.5176 0.7308 1.7098
-12.5329 -0.3885 1.7098
-12.4494 -1.5049 1.7099
-12.2677 -2.6096 1.7102
-11.9891 -3.6942 1.7106
-11.6158 -4.7504 1.7112
-11.1506 -5.7698 1.7119
-10.5954 -6.7438 1.7126
-9.9446 -7.6563 1.7113
-9.2069 -8.4987 1.7085
-9.1564 -10.1073 1.8596
-8.2222 -10.8885 1.8605
-7.2258 -11.5903 1.8624
-6.1789 -12.2195 1.8671
-5.0740 -12.7457 1.8706
-3.9237 -13.1696 1.8737
-2.7382 -13.4896 1.8769
-1.5267 -13.7028 1.8800
-0.2990 -13.8068 1.8831
0.9350 -13.8003 1.8861
2.1654 -13.6828 1.8889
3.3820 -13.4547 1.8917
4.5747 -13.1175 1.8943
5.7440 -12.6963 1.9001
6.8834 -12.1865 1.9084
7.9792 -11.5768 1.9172
9.0240 -10.8723 1.9266
8.0615 -8.1152 1.5597
10.0059 -8.4179 1.7830
10.0920 -7.0552 1.6790
11.4178 -6.5497 1.7948
11.9841 -5.5181 1.7990
12.4506 -4.4352 1.8022
12.8123 -3.3111 1.8044
4.7263 -0.7802 0.6532
4.6550 -0.3465 0.6365
4.9543 0.0744 0.6756
13.2002 1.3819 1.8098
13.0119 2.5512 1.8080
12.7100 3.6950 1.8048
12.2982 4.8015 1.8002
11.7816 5.8595 1.7942
11.1665 6.8590 1.7869
10.4603 7.7903 1.7784
9.6714 8.6452 1.7688
8.8088 9.4166 1.7582
5.1500 6.5980 1.1413
4.7544 7.3614 1.1949
5.8991 11.2172 1.7281
4.8309 11.5924 1.7125
3.7716 11.9573 1.7096
2.7040 12.3092 1.7185
1.7265 13.5283 1.8596
0.2056 5.4613 0.7452
-0.3842 7.4284 1.0143
-1.9162 13.5027 1.8596
-3.1128 13.2780 1.8596
-4.2846 12.9475 1.8596
-5.4222 12.5138 1.8596
-6.2235 11.4415 1.7760
-6.9456 10.4300 1.7087
-7.8593 9.7830 1.7111
-8.7078 9.0507 1.7126
-9.4803 8.2378 1.7126
-10.1772 7.3596 1.7126
-10.7913 6.4217 1.7123
-8.7155 4.1831 1.3182
-11.7508 4.3987 1.7109
-12.0927 3.3322 1.7104
-12.3391 2.2400 1.7100
-12.4882 1.1305 1.7098
-12.5388 0.0122 1.7097
-12.4906 -1.1061 1.7098
-12.3439 -2.2160 1.7101
-12.0998 -3.3088 1.7105
-11.7602 -4.3761 1.7110
-11.3275 -5.4096 1.7117
-8.4125 -4.9839 1.3333
-10.1901 -7.3388 1.7123
-9.4795 -8.2049 1.7095
-9.4747 -9.8095 1.8596
-8.5623 -10.6156 1.8597
-7.5907 -11.3508 1.8619
-6.5601 -12.0043 1.8653
-5.4754 -12.5693 1.8694
-4.3400 -13.0296 1.8726
-3.1659 -13.3872 1.8758
-1.9627 -13.6390 1.8789
-0.7397 -13.7823 1.8820
0.4932 -13.8154 1.8850
1.7261 -13.7376 1.8879
2.9487 -13.5490 1.8907
4.1512 -13.2506 1.8934
5.3241 -12.8463 1.8961
6.4806 -12.3816 1.9056
7.5913 -11.8043 1.9137
8.6570 -11.1360 1.9233
8.8626 -9.5113 1.7727
9.1356 -8.1984 1.6737
10.4978 -7.8501 1.7874
11.1920 -6.9047 1.7931
11.7926 -5.8938 1.7976
12.2954 -4.8281 1.8012
12.6951 -3.7176 1.8037
4.9145 -0.9736 0.6831
4.6411 -0.4950 0.6364
4.8239 -0.0818 0.6579
13.2395 0.9595 1.8100
13.0925 2.1350 1.8088
12.8309 3.2893 1.8061
12.4579 4.4104 1.8020
11.9782 5.4870 1.7965
11.3976 6.5086 1.7897
10.7231 7.4653 1.7816
9.9627 8.3485 1.7724
9.1254 9.1505 1.7621
5.5475 6.6572 1.1816
4.7535 6.8679 1.1389
6.2672 11.0452 1.7316
5.2262 11.4919 1.7214
4.1543 11.8377 1.7107
3.0768 12.1406 1.7078
2.1580 13.4662 1.8596
0.5174 7.4223 1.0145
-0.1077 5.4641 0.7452
-0.8628 7.8835 1.0814
-2.6869 13.3707 1.8596
-3.8686 13.0778 1.8596
-5.0195 12.6807 1.8596
-6.1305 12.1825 1.8596
-6.6052 10.6410 1.7078
-7.5389 10.0241 1.7103
-8.4141 9.3243 1.7126
-9.2121 8.5368 1.7126
-9.9368 7.6812 1.7126
-10.5822 6.7645 1.7126
-8.5208 4.4302 1.3095
-11.6056 4.7726 1.7111
-11.9811 3.7174 1.7105
-12.2620 2.6334 1.7101
-12.4461 1.5291 1.7099
-12.5320 0.4130 1.7097
-12.5192 -0.7064 1.7098
-12.4077 -1.8203 1.7100
-12.1983 -2.9201 1.7103
-11.8926 -3.9975 1.7108
-11.4929 -5.0441 1.7114
-8.5341 -4.6942 1.3281
-10.4209 -7.0104 1.7126
-9.7426 -7.9024 1.7105
-8.9842 -8.7254 1.7077
-8.8970 -10.3363 1.8596
-7.9461 -11.0975 1.8611
-6.9338 -11.7773 1.8635
-5.8702 -12.3791 1.8681
-4.7513 -12.8765 1.8715
-3.5900 -13.2712 1.8746
-2.3962 -13.5612 1.8778
-1.1791 -13.7435 1.8809
0.0514 -13.8163 1.8839
1.2854 -13.7782 1.8869
2.5129 -13.6292 1.8897
3.7237 -13.3699 1.8924
4.9079 -13.0021 1.8950
6.0722 -12.5628 1.9026
7.1988 -12.0219 1.9107
8.2822 -11.3869 1.9199
9.3094 -10.6540 1.9292
8.4722 -8.1065 1.5989
10.2277 -8.1704 1.7850
9.8941 -6.5495 1.6179
11.5885 -6.2624 1.7961
12.1271 -5.2152 1.8000
12.5642 -4.1196 1.8029
12.8953 -2.9858 1.8049
4.6901 -0.6525 0.6457
4.6621 -0.2283 0.6365
5.0711 0.2049 0.6920
13.1584 1.7160 1.8094
5.2861 6.6049 1.2067
4.7348 7.1387 1.2218
5.7674 10.6497 1.7275
1.0125 2.3487 0.3648
3.7444 11.3856 1.7096
2.7139 11.6736 1.7095
1.8080 12.9116 1.8596
0.3702 7.4237 1.0602
-0.2934 7.4281 1.0603
-1.0194 7.8716 1.1321
-2.8209 12.7288 1.8596
-3.9448 12.4265 1.8596
-0.9883 2.3593 0.3649
-6.0897 11.5280 1.8596
-6.5134 10.0442 1.7075
-7.3934 9.4363 1.7099
-8.2161 8.7505 1.7121
-8.9663 7.9852 1.7126
-9.6427 7.1537 1.7126
-10.2423 6.2652 1.7126
-8.5249 4.2202 1.3568
-11.1869 4.3438 1.7117
-11.5264 3.3278 1.7112
-11.7748 2.2861 1.7109
-11.9302 1.2267 1.7106
-11.9915 0.1578 1.7106
-11.9583 -0.9123 1.7106
-11.8307 -1.9754 1.7108
-11.6098 -3.0233 1.7112
-11.2972 -4.0478 1.7117
-10.8951 -5.0411 1.7123
-8.4199 -4.8506 1.3860
-9.8276 -6.8975 1.7126
-9.1609 -7.7359 1.7102
-8.4206 -8.5081 1.7074
-8.3114 -10.0513 1.8603
-7.3917 -10.7669 1.8628
-6.4137 -11.4039 1.8662
-1.0571 -2.3481 0.3673
-0.8436 -2.4332 0.3673
-3.1813 -12.7561 1.8752
-2.0342 -13.0097 1.8782
-0.8672 -13.1600 1.8811
0.3104 -13.2051 1.8840
1.4890 -13.1444 1.8868
2.6592 -12.9777 1.8895
0.7398 -2.4666 0.3673
0.9568 -2.3905 0.3673
6.0404 -11.8909 1.9024
7.1052 -11.3502 1.9100
8.1251 -10.7186 1.9185
8.3385 -9.1703 1.7679
9.1614 -8.4253 1.7753
9.9139 -7.6036 1.7821
10.5843 -6.7093 1.7875
11.1678 -5.7526 1.7918
11.6591 -4.7429 1.7953
12.0528 -3.6895 1.7979
5.0296 -1.0602 0.7332
4.6390 -0.5521 0.6663
4.7922 -0.1397 0.6838
12.6097 0.7595 1.8018
12.4851 1.8801 1.8009
12.2517 2.9822 1.7986
11.9122 4.0545 1.7948
11.4708 5.0864 1.7898
10.9327 6.0677 1.7835
10.3045 6.9890 1.7760
9.5934 7.8420 1.7674
8.8077 8.6193 1.7578
7.9622 9.3216 1.7486
4.8471 6.8240 1.1939
6.1166 10.4801 1.7308
1.0871 2.3152 0.3648
4.1087 11.2665 1.7105
3.0826 11.5695 1.7078
2.2197 12.8472 1.8596
0.6455 7.8755 1.1271
-0.0393 5.2244 0.7452
-0.7217 7.4311 1.0649
-2.4126 12.8124 1.8596
-3.5457 12.5462 1.8596
-4.6505 12.1800 1.8596
-5.7182 11.7167 1.8596
-6.2343 10.3221 1.7200
-7.0846 9.6631 1.7091
-7.9286 9.0046 1.7113
-8.7065 8.2676 1.7126
-9.4091 7.4582 1.7126
-10.0368 6.5894 1.7126
-8.5115 4.5579 1.3771
-11.0438 4.6997 1.7119
-11.4152 3.6949 1.7114
-11.6965 2.6614 1.7110
-11.8853 1.6074 1.7107
-11.9804 0.5410 1.7106
-11.9811 -0.5296 1.7106
-11.8872 -1.5962 1.7108
-11.6995 -2.6505 1.7111
-11.4195 -3.6843 1.7115
-11.0491 -4.6896 1.7121
-8.8138 -4.7090 1.4253
-10.0431 -6.5799 1.7126
-9.4090 -7.4436 1.7112
-8.6933 -8.2395 1.7084
-8.6251 -9.7769 1.8596
-7.7258 -10.5167 1.8613
-6.7708 -11.1865 1.8651
-5.7555 -11.7647 1.8681
-0.9209 -2.4050 0.3673
-3.5853 -12.6406 1.8741
-2.4476 -12.9307 1.8771
-1.2867 -13.1182 1.8801
-0.1118 -13.2011 1.8830
1.0676 -13.1783 1.8858
2.2419 -13.0495 1.8886
3.4015 -12.8152 1.8912
0.8799 -2.4199 0.3673
5.6485 -12.0592 1.8994
6.7295 -11.5553 1.9073
7.7652 -10.9543 1.9152
8.0285 -9.4172 1.7651
8.2557 -8.0944 1.6491
9.6532 -7.9061 1.7797
10.3542 -7.0371 1.7857
10.9693 -6.1016 1.7904
11.4942 -5.1099 1.7942
11.9234 -4.0710 1.7971
12.2523 -2.9947 1.7991
4.6882 -0.7105 0.6763
4.6416 -0.2840 0.6633
4.9949 0.1409 0.7127
12.5423 1.4805 1.8014
12.3476 2.5905 1.7996
12.0457 3.6748 1.7963
11.6402 4.7224 1.7917
11.1361 5.7229 1.7859
10.5393 6.6667 1.7788
9.8570 7.5450 1.7706
9.0970 8.3502 1.7613
8.2703 9.0780 1.7516
5.0567 6.6577 1.1925
6.4606 10.2988 1.7341
5.4900 10.7820 1.7258
4.4692 11.1357 1.7115
3.4528 11.4717 1.7088
2.6292 12.7697 1.8596
0.9029 7.9029 1.1346
0.1277 5.2230 0.7452
-0.4825 7.4294 1.0619
-2.0019 12.8830 1.8596
-3.1429 12.6531 1.8596
-4.2588 12.3224 1.8596
-1.0479 2.3336 0.3649
-6.2164 11.0777 1.8119
-6.7688 9.8797 1.7082
-7.6333 9.2491 1.7105
-8.4378 8.5417 1.7126
-9.1660 7.7551 1.7126
-9.8211 6.9068 1.7126
-10.3979 6.0033 1.7126
-10.8894 5.0509 1.7122
-11.2925 4.0582 1.7116
-11.6063 3.0341 1.7111
-11.8285 1.9866 1.7108
-11.9572 0.9236 1.7106
-11.9917 -0.1465 1.7106
-11.9316 -1.2154 1.7107
-11.7774 -2.2750 1.7109
-11.5302 -3.3171 1.7113
-11.1919 -4.3335 1.7118
-10.7650 -5.3165 1.7125
-8.3931 -5.1231 1.4025
-9.6478 -7.1433 1.7123
-8.9575 -7.9621 1.7094
-8.9332 -9.4962 1.8596
-8.0552 -10.2609 1.8607
-7.1204 -10.9575 1.8639
-6.1250 -11.5682 1.8670
-0.9972 -2.3742 0.3673
-0.7816 -2.4539 0.3673
-2.8580 -12.8385 1.8760
-1.7043 -13.0630 1.8790
-0.5333 -13.1836 1.8820
0.6455 -13.1987 1.8848
1.8228 -13.1078 1.8876
2.9887 -12.9111 1.8903
0.8022 -2.4469 0.3673
1.0171 -2.3653 0.3672
6.3476 -11.7477 1.9046
7.3989 -11.1784 1.9121
8.4054 -10.5229 1.9210
8.0094 -8.3715 1.6526
9.2992 -8.1264 1.7615
9.3998 -6.8376 1.6579
10.7592 -6.4434 1.7888
11.3170 -5.4708 1.7929
11.7811 -4.4477 1.7962
12.1463 -3.3836 1.7985
4.8100 -0.8871 0.6977
4.6301 -0.4322 0.6633
4.8371 -0.0182 0.6899
12.5855 1.0791 1.8017
12.4298 2.1956 1.8004
12.1659 3.2904 1.7976
11.7970 4.3523 1.7935
11.3275 5.3708 1.7881
10.7631 6.3359 1.7815
10.1106 7.2386 1.7736
9.3774 8.0708 1.7647
8.5721 8.8254 1.7549
5.3864 6.6400 1.2195
4.7501 7.0602 1.2137
5.8398 10.6157 1.7282
1.0280 2.3420 0.3648
3.8198 11.3620 1.7098
2.7872 11.6401 1.7072
1.8931 12.8994 1.8596
0.4192 7.4233 1.0605
-0.1718 5.2217 0.7452
-0.9633 7.8443 1.1273
-2.7369 12.7471 1.8596
-3.8628 12.4522 1.8596
-0.9727 2.3657 0.3648
-6.0136 11.5679 1.8596
-6.4464 10.0859 1.7073
-7.3303 9.4839 1.7097
-8.1574 8.8037 1.7119
-8.9134 8.0441 1.7126
-9.5953 7.2172 1.7126
-10.2007 6.3325 1.7126
-8.5148 4.2853 1.3596
-11.1583 4.4176 1.7118
-11.5044 3.4038 1.7113
-11.7596 2.3637 1.7109
-11.9219 1.3053 1.7107
-11.9902 0.2369 1.7106
-11.9640 -0.8334 1.7106
-11.8434 -1.8973 1.7108
-11.6293 -2.9466 1.7112
-11.3233 -3.9732 1.7116
-10.9278 -4.9690 1.7123
-8.4267 -4.7809 1.3819
-9.8729 -6.8325 1.7126
-9.2128 -7.6763 1.7104
-8.4775 -8.4534 1.7076
-8.3767 -9.9955 1.8602
-7.4613 -10.7161 1.8625
-6.4880 -11.3601 1.8660
-1.0725 -2.3410 0.3673
-0.8596 -2.4276 0.3673
-3.2650 -12.7333 1.8750
-2.1197 -12.9945 1.8780
-0.9539 -13.1525 1.8809
0.2233 -13.2054 1.8838
1.4022 -13.1525 1.8866
2.5733 -12.9936 1.8893
0.7236 -2.4714 0.3673
0.9410 -2.3968 0.3673
5.9600 -11.9268 1.9018
7.0282 -11.3935 1.9094
8.0514 -10.7683 1.9178
8.2752 -9.2221 1.7673
9.1030 -8.4830 1.7748
9.8610 -7.6667 1.7816
10.1004 -6.4962 1.7129
11.1278 -5.8252 1.7915
11.6261 -4.8191 1.7951
12.0272 -3.7686 1.7977
5.1502 -1.1211 0.7518
4.6496 -0.5844 0.6684
4.7807 -0.1709 0.6823
12.6145 0.6764 1.8019
12.4981 1.7978 1.8010
12.2726 2.9017 1.7988
11.9408 3.9766 1.7952
11.5068 5.0119 1.7902
10.9756 5.9972 1.7840
10.3538 6.9232 1.7766
9.6486 7.7815 1.7680
8.8681 8.5646 1.7585
8.0264 9.2722 1.7492
4.8859 6.7835 1.1924
6.1880 10.4436 1.7315
1.1024 2.3080 0.3648
4.1834 11.2405 1.7107
3.1592 11.5503 1.7080
2.3044 12.8323 1.8596
0.6968 7.8637 1.1260
-0.0048 5.2246 0.7452
-0.6723 7.4307 1.0642
-2.3281 12.8280 1.8596
-3.4629 12.5693 1.8596
-4.5701 12.2104 1.8596
-5.6408 11.7541 1.8596
-6.2292 10.4691 1.7376
-7.0201 9.7086 1.7089
-7.8684 9.0558 1.7111
-8.6518 8.3249 1.7126
-9.3598 7.5201 1.7126
-9.9931 6.6554 1.7126
-8.5125 4.6309 1.3822
-11.0128 4.7725 1.7120
-11.3909 3.7701 1.7114
-11.6788 2.7385 1.7110
-11.8746 1.6858 1.7107
-11.9766 0.6200 1.7106
-11.9843 -0.4506 1.7106
-11.8973 -1.5178 1.7107
-11.7166 -2.5732 1.7110
-11.4433 -3.6088 1.7115
-11.0795 -4.6165 1.7120
-10.6269 -5.5878 1.7126
-10.0862 -6.5135 1.7126
-9.4590 -7.3823 1.7114
-8.7485 -8.1830 1.7086
-8.6894 -9.7198 1.8596
-7.7937 -10.4638 1.8610
-6.8435 -11.1401 1.8649
-5.8322 -11.7252 1.8679
-0.9367 -2.3988 0.3673
-3.6681 -12.6152 1.8739
-2.5325 -12.9128 1.8769
-1.3730 -13.1079 1.8799
-0.1988 -13.1986 1.8828
0.9806 -13.1836 1.8856
2.1556 -13.0626 1.8884
3.3166 -12.8361 1.8910
0.8639 -2.4257 0.3673
1.0767 -2.3387 0.3672
6.6512 -11.5961 1.9068
7.6901 -11.0014 1.9145
7.9636 -9.4668 1.7645
8.1485 -8.0954 1.6383
9.5981 -7.9674 1.7792
10.3054 -7.1037 1.7853
10.9269 -6.1727 1.7900
11.4586 -5.1848 1.7939
11.8951 -4.1491 1.7969
12.2315 -3.0752 1.7989
4.6791 -0.7407 0.6757
4.6403 -0.3146 0.6634
4.9659 0.1073 0.7085
12.5524 1.3979 1.8015
12.3657 2.5093 1.7997
12.0716 3.5959 1.7966
11.6736 4.6465 1.7921
11.1765 5.6508 1.7863
10.5864 6.5991 1.7793
9.9101 7.4826 1.7712
9.1556 8.2934 1.7620
8.3329 9.0264 1.7522
5.1157 6.6440 1.1960
6.5309 10.2599 1.7348
5.5611 10.7459 1.7258
0.9682 2.3672 0.3648
3.5288 11.4500 1.7090
2.6786 12.5890 1.8358
0.9609 7.9456 1.1416
0.1622 5.2220 0.7452
-0.4333 7.4291 1.0615
-1.9169 12.8959 1.8596
-3.0594 12.6735 1.8596
-4.1775 12.3502 1.8596
-1.0325 2.3404 0.3649
-6.2128 11.2445 1.8324
-6.7029 9.9231 1.7080
-7.5714 9.2984 1.7104
-8.3811 8.5969 1.7125
-9.1146 7.8154 1.7126
-9.7753 6.9715 1.7126
-10.3581 6.0718 1.7126
-8.8446 4.1735 1.3949
-11.2658 4.1327 1.7116
-11.5863 3.1107 1.7111
-11.8152 2.0645 1.7108
-11.9509 1.0025 1.7106
-11.9924 -0.0674 1.7106
-11.9393 -1.1367 1.7107
-11.7920 -2.1973 1.7109
-11.5516 -3.2409 1.7113
-11.2200 -4.2595 1.7118
-10.7995 -5.2452 1.7125
-8.4001 -5.0517 1.3981
-9.6958 -7.0804 1.7125
-9.0109 -7.9039 1.7096
-8.2584 -8.6637 1.7072
-8.1224 -10.2071 1.8606
-7.1916 -10.9089 1.8637
-6.2005 -11.5262 1.8668
-1.0128 -2.3676 0.3673
-0.7977 -2.4487 0.3673
-2.9422 -12.8179 1.8758
-1.7902 -13.0500 1.8788
-0.6202 -13.1782 1.8818
0.5585 -13.2012 1.8846
1.7361 -13.1181 1.8874
2.9033 -12.9292 1.8901
0.7860 -2.4522 0.3673
1.0014 -2.3720 0.3673
6.2681 -11.7857 1.9040
7.3230 -11.2238 1.9115
8.3331 -10.5745 1.9203
8.0076 -8.4808 1.6637
9.1932 -8.1412 1.7515
9.4166 -6.9452 1.6689
10.7144 -6.5129 1.7884
11.2790 -5.5444 1.7926
11.7501 -4.5247 1.7959
12.1228 -3.4633 1.7983
4.8422 -0.9261 0.7032
4.6272 -0.4627 0.6633
4.8254 -0.0500 0.6883
12.5926 0.9961 1.8018
12.4450 2.1137 1.8005
12.1890 3.2105 1.7979
11.8277 4.2752 1.7939
11.3655 5.2973 1.7886
10.8079 6.2667 1.7820
10.1616 7.1743 1.7742
9.4341 8.0119 1.7654
8.6338 8.7724 1.7556
5.4889 6.6759 1.2327
4.7652 6.9829 1.2058
5.9121 10.5812 1.7289
1.0434 2.3352 0.3648
3.8951 11.3379 1.7100
2.8669 11.6336 1.7090
1.9781 12.8866 1.8596
0.4683 7.4230 1.0609
-0.1374 5.2228 0.7452
-0.9091 7.8296 1.1243
-2.6528 12.7649 1.8596
-3.7806 12.4774 1.8596
-0.9571 2.3721 0.3648
-5.9372 11.6072 1.8596
-6.3793 10.1274 1.7072
-7.2669 9.5311 1.7095
-8.0985 8.8565 1.7118
-8.8602 8.1027 1.7126
-9.5475 7.2803 1.7126
-10.1588 6.3998 1.7126
-8.5139 4.3555 1.3641
-11.1292 4.4911 1.7118
-11.4819 3.4796 1.7113
-11.7439 2.4412 1.7109
-11.9132 1.3839 1.7107
-11.9884 0.3159 1.7106
-11.9692 -0.7545 1.7106
-11.8555 -1.8192 1.7108
-11.6483 -2.8698 1.7111
-11.3490 -3.8983 1.7116
-10.9600 -4.8967 1.7122
-8.4335 -4.7115 1.3779
-9.9177 -6.7673 1.7126
-9.2644 -7.6163 1.7106
-8.5341 -8.3984 1.7078
-8.4418 -9.9392 1.8600
-7.5305 -10.6648 1.8622
-6.5620 -11.3157 1.8658
-1.0879 -2.3339 0.3673
-0.8756 -2.4219 0.3673
-3.3485 -12.7100 1.8747
-2.2051 -12.9787 1.8777
-1.0405 -13.1444 1.8807
0.1362 -13.2051 1.8836
1.3153 -13.1600 1.8864
2.4873 -13.0089 1.8891
0.7073 -2.4762 0.3673
0.9252 -2.4029 0.3673
5.8794 -11.9620 1.9012
6.9510 -11.4363 1.9089
7.9775 -10.8174 1.9171
8.2116 -9.2735 1.7668
9.0441 -8.5403 1.7743
9.8076 -7.7295 1.7811
9.9363 -6.4837 1.6923
11.0873 -5.8974 1.7912
11.5926 -4.8950 1.7949
12.0010 -3.8474 1.7976
12.3084 -2.7645 1.7993
4.6603 -0.6170 0.6705
4.6451 -0.1967 0.6631
5.1475 0.2420 0.7350
12.5104 1.7155 1.8011
12.2929 2.8211 1.7990
11.9689 3.8985 1.7955
11.5422 4.9370 1.7906
11.0180 5.9264 1.7845
10.4027 6.8571 1.7771
9.7033 7.7207 1.7687
8.9281 8.5095 1.7592
8.0902 9.2224 1.7499
4.9247 6.7431 1.1910
6.2592 10.4067 1.7322
5.2767 10.8629 1.7226
4.2579 11.2139 1.7109
3.2357 11.5306 1.7082
2.3890 12.8168 1.8596
0.7488 7.8604 1.1262
0.0296 5.2245 0.7452
-0.6229 7.4304 1.0636
-2.2434 12.8431 1.8596
-3.3799 12.5919 1.8596
-4.4894 12.2403 1.8596
-5.5632 11.7911 1.8596
-6.2260 10.6225 1.7562
-6.9552 9.7537 1.7087
-7.8077 9.1067 1.7110
-8.5967 8.3817 1.7126
-9.3100 7.5816 1.7126
-9.9490 6.7212 1.7126
-10.5088 5.8071 1.7126
-10.9814 4.8452 1.7120
-11.3660 3.8452 1.7115
-11.6607 2.8155 1.7110
-11.8633 1.7640 1.7107
-11.9723 0.6989 1.7106
-11.9869 -0.3716 1.7106
-11.9070 -1.4393 1.7107
-11.7331 -2.4959 1.7110
-11.4666 -3.5332 1.7114
-11.1094 -4.5433 1.7120
-10.6635 -5.5179 1.7126
-10.1289 -6.4469 1.7126
-9.5086 -7.3206 1.7117
-8.8033 -8.1261 1.7088
-8.7533 -9.6623 1.8596
-7.8622 -10.4117 1.8609
-6.9159 -11.0934 1.8646
-5.9087 -11.6851 1.8677
-0.9525 -2.3926 0.3673
-3.7508 -12.5892 1.8737
-2.6173 -12.8943 1.8767
-1.4592 -13.0971 1.8797
-0.2858 -13.1955 1.8826
0.8935 -13.1884 1.8854
2.0692 -13.0752 1.8882
3.2316 -12.8564 1.8908
0.8479 -2.4314 0.3673
1.0613 -2.3458 0.3672
6.5726 -11.6363 1.9062
7.6147 -11.0479 1.9139
7.8983 -9.5160 1.7639
8.0529 -8.1066 1.6298
9.5427 -8.0282 1.7787
10.2561 -7.1700 1.7849
10.8840 -6.2435 1.7897
11.4226 -5.2595 1.7937
11.8662 -4.2270 1.7967
12.2102 -3.1555 1.7988
4.7059 -0.7768 0.6803
4.6382 -0.3452 0.6634
4.9344 0.0741 0.7039
12.5618 1.3151 1.8016
12.3832 2.4280 1.7999
12.0969 3.5168 1.7969
11.7064 4.5704 1.7925
11.2165 5.5785 1.7868
10.6330 6.5312 1.7799
9.9628 7.4198 1.7718
9.2138 8.2362 1.7627
8.3952 8.9745 1.7528
5.1751 6.6303 1.1997
6.6010 10.2206 1.7354
5.6331 10.7113 1.7262
0.9838 2.3608 0.3648
3.6046 11.4279 1.7092
2.6882 12.2370 1.7871
1.0247 8.0290 1.1545
0.1966 5.2209 0.7452
-0.3842 7.4288 1.0610
-1.1350 7.9983 1.1523
-2.9757 12.6935 1.8596
-4.0959 12.3775 1.8596
-1.0170 2.3471 0.3649
-6.2091 11.4151 1.8535
-6.6366 9.9661 1.7079
-7.5092 9.3472 1.7102
-8.3235 8.6512 1.7124
-9.0629 7.8753 1.7126
-9.7291 7.0358 1.7126
-10.3178 6.1399 1.7126
-8.6995 4.1754 1.3764
-11.2385 4.2070 1.7116
-11.5657 3.1870 1.7112
-11.8015 2.1424 1.7108
-11.9441 1.0812 1.7106
-11.9926 0.0117 1.7106
-11.9464 -1.0580 1.7107
-11.8061 -2.1195 1.7109
-11.5725 -3.1646 1.7113
-11.2475 -4.1854 1.7118
-10.8335 -5.1737 1.7124
-8.4071 -4.9807 1.3938
-9.7429 -7.0167 1.7126
-9.0639 -7.8452 1.7099
-8.3153 -8.6091 1.7072
-8.1891 -10.1529 1.8605
-7.2622 -10.8596 1.8634
-6.2756 -11.4837 1.8666
-1.0284 -2.3608 0.3673
-0.8138 -2.4434 0.3673
-3.0263 -12.7967 1.8756
-1.8760 -13.0364 1.8786
-0.7069 -13.1724 1.8815
0.4714 -13.2031 1.8844
1.6495 -13.1279 1.8872
2.8177 -12.9468 1.8899
0.7698 -2.4573 0.3673
0.9858 -2.3786 0.3673
6.1884 -11.8232 1.9034
7.2468 -11.2687 1.9110
8.2603 -10.6256 1.9197
8.4546 -9.0734 1.7690
9.1356 -8.1984 1.7508
10.0107 -7.4859 1.7830
10.6692 -6.5822 1.7881
11.2404 -5.6178 1.7924
11.7186 -4.6016 1.7957
12.0988 -3.5429 1.7982
4.8750 -0.9657 0.7089
4.6244 -0.4932 0.6633
4.8137 -0.0816 0.6867
12.5992 0.9131 1.8018
12.4597 2.0318 1.8007
12.2116 3.1305 1.7981
11.8579 4.1980 1.7942
11.4029 5.2235 1.7890
10.8522 6.1971 1.7825
10.2122 7.1096 1.7749
9.4904 7.9527 1.7661
8.6952 8.7191 1.7564
7.8428 9.4117 1.7474
4.7802 6.9066 1.1981
5.9841 10.5461 1.7295
1.0588 2.3282 0.3648
3.9703 11.3133 1.7102
2.9407 11.6036 1.7074
2.0630 12.8733 1.8596
0.5175 7.4227 1.0613
-0.1029 5.2236 0.7452
-0.8563 7.8247 1.1227
-2.5686 12.7821 1.8596
-3.6983 12.5021 1.8596
-0.9414 2.3783 0.3648
-5.8606 11.6461 1.8596
-6.3124 10.1693 1.7072
-7.2032 9.5778 1.7094
-8.0392 8.9088 1.7116
-8.8066 8.1610 1.7126
-9.4993 7.3430 1.7126
-10.1163 6.4667 1.7126
-8.5131 4.4261 1.3686
-11.0997 4.5646 1.7119
-11.4590 3.5554 1.7113
-11.7277 2.5187 1.7109
-11.9039 1.4625 1.7107
-11.9861 0.3950 1.7106
-11.9738 -0.6756 1.7106
-11.8671 -1.7409 1.7108
-11.6667 -2.7929 1.7111
-11.3742 -3.8233 1.7116
-10.9917 -4.8241 1.7122
-8.5195 -4.6861 1.3869
-9.9621 -6.7017 1.7126
-9.3155 -7.5560 1.7109
-8.5904 -8.3429 1.7080
-8.5065 -9.8825 1.8599
-7.5994 -10.6132 1.8619
-6.6356 -11.2709 1.8655
-1.1033 -2.3266 0.3673
-0.8915 -2.4160 0.3673
-3.4318 -12.6861 1.8745
-2.2903 -12.9624 1.8775
-1.1270 -13.1357 1.8805
0.0491 -13.2043 1.8834
1.2284 -13.1670 1.8862
2.4012 -13.0237 1.8889
3.5581 -12.7751 1.8915
0.9093 -2.4090 0.3673
5.7986 -11.9967 1.9005
6.8734 -11.4786 1.9083
7.9033 -10.8659 1.9165
8.1476 -9.3244 1.7662
8.4574 -8.0924 1.6696
9.7537 -7.7918 1.7806
9.8941 -6.5495 1.6924
11.0464 -5.9694 1.7909
11.5585 -4.9707 1.7946
11.9742 -3.9261 1.7974
12.2892 -2.8455 1.7992
4.6711 -0.6498 0.6727
4.6439 -0.2274 0.6632
4.9976 0.2019 0.7134
12.5222 1.6331 1.8012
5.3291 6.6587 1.2701
4.7667 7.1868 1.2843
5.5219 10.1964 1.7269
0.9699 2.2498 0.3649
0.7653 2.3271 0.3648
2.6922 11.5800 1.7706
1.7316 12.3662 1.8596
0.3702 7.4241 1.1070
-0.1975 5.0000 0.7452
-1.0125 7.8183 1.1741
-2.7017 12.1911 1.8596
-0.7413 2.3351 0.3649
-0.9467 2.2600 0.3649
-5.8325 11.0410 1.8596
-6.2442 9.6290 1.7091
-7.0776 9.0332 1.7090
-7.8647 8.3763 1.7111
-8.5875 7.6479 1.7126
-9.2354 6.8515 1.7126
-9.8096 6.0005 1.7126
-8.5168 4.2162 1.4153
-10.7188 4.1620 1.7124
-11.0442 3.1886 1.7120
-11.2823 2.1905 1.7116
-11.4313 1.1754 1.7114
-11.4901 0.1512 1.7113
-11.4582 -0.8742 1.7114
-11.3360 -1.8928 1.7116
-11.1242 -2.8968 1.7119
-10.8245 -3.8784 1.7124
-10.4364 -4.8288 1.7126
-8.4145 -4.8476 1.4462
-9.4125 -6.6061 1.7126
-8.7743 -7.4095 1.7103
-8.0656 -8.1495 1.7076
-7.9629 -9.6299 1.8609
-7.0827 -10.3167 1.8637
-6.1435 -10.9236 1.8664
-1.0123 -2.2486 0.3672
-0.8078 -2.3301 0.3673
-0.5968 -2.3930 0.3673
-0.3810 -2.4368 0.3673
-0.1622 -2.4612 0.3673
0.0580 -2.4658 0.3673
0.2776 -2.4507 0.3673
0.4951 -2.4160 0.3673
0.7085 -2.3620 0.3673
0.9162 -2.2892 0.3672
5.7793 -11.3769 1.9004
6.7972 -10.8582 1.9078
7.1294 -9.4052 1.7576
7.9712 -8.7663 1.7646
8.7561 -8.0526 1.7716
9.4730 -7.2654 1.7779
10.1113 -6.4094 1.7829
10.6676 -5.4949 1.7871
11.1359 -4.5301 1.7904
11.5112 -3.5237 1.7928
4.9644 -1.0464 0.7556
4.6203 -0.5498 0.6929
4.7821 -0.1394 0.7125
12.0269 0.7244 1.7944
11.9084 1.7932 1.7935
11.6865 2.8446 1.7912
11.3637 3.8679 1.7877
10.9441 4.8528 1.7829
10.4324 5.7900 1.7769
9.8348 6.6704 1.7698
9.1582 7.4862 1.7616
8.4163 8.2363 1.7537
7.6138 8.9137 1.7458
4.8692 6.8552 1.2522
5.8515 10.0259 1.7288
1.0413 2.2177 0.3649
0.8393 2.3015 0.3648
0.6307 2.3670 0.3648
2.1260 12.3045 1.8596
0.6420 7.8316 1.1702
-0.0376 5.0037 0.7452
-0.7218 7.4315 1.1119
-2.3107 12.2712 1.8596
-0.6663 2.3575 0.3648
-0.8739 2.2890 0.3649
-5.4766 11.2218 1.8596
-6.2190 10.2969 1.7915
-6.7822 9.2505 1.7082
-7.5897 8.6197 1.7104
-8.3379 7.9177 1.7124
-9.0117 7.1432 1.7126
-9.6128 6.3110 1.7126
-8.5037 4.5537 1.4366
-10.5811 4.5029 1.7126
-10.9377 3.5403 1.7121
-11.2073 2.5501 1.7117
-11.3883 1.5402 1.7115
-11.4795 0.5184 1.7113
-11.4801 -0.5075 1.7114
-11.3901 -1.5294 1.7115
-11.2102 -2.5396 1.7118
-10.9417 -3.5301 1.7122
-10.5854 -4.4927 1.7126
-8.7982 -4.7007 1.4856
-9.6188 -6.3019 1.7126
-9.0118 -7.1293 1.7113
-8.3267 -7.8920 1.7086
-8.2624 -9.3657 1.8600
-7.4049 -10.0798 1.8627
-6.4860 -10.7159 1.8654
-1.0836 -2.2150 0.3672
-0.8818 -2.3030 0.3673
-0.6730 -2.3727 0.3673
-0.4587 -2.4234 0.3673
-0.2408 -2.4547 0.3673
-0.0209 -2.4664 0.3673
0.1992 -2.4584 0.3673
0.4176 -2.4307 0.3673
0.6327 -2.3836 0.3673
0.8426 -2.3174 0.3672
1.0458 -2.2327 0.3672
6.4381 -11.0550 1.9052
7.4255 -10.4751 1.9122
7.6753 -9.0030 1.7619
8.2462 -8.0850 1.7199
9.2251 -7.5556 1.7758
9.8920 -6.7229 1.7812
10.4783 -5.8285 1.7857
10.9787 -4.8807 1.7893
11.3878 -3.8881 1.7921
11.7014 -2.8600 1.7939
4.6681 -0.7075 0.7031
4.6235 -0.2829 0.6898
4.9738 0.1403 0.7410
11.9628 1.4121 1.7939
11.7777 2.4709 1.7922
11.4906 3.5055 1.7891
11.1051 4.5053 1.7848
10.6258 5.4606 1.7792
10.0582 6.3623 1.7724
9.4090 7.2021 1.7646
8.6887 7.9754 1.7564
7.9078 8.6801 1.7487
5.0814 6.6902 1.2511
6.1802 9.8517 1.7320
1.1117 2.1834 0.3649
0.9125 2.2736 0.3648
0.7060 2.3457 0.3648
2.5181 12.2303 1.8596
0.8971 7.8520 1.1770
0.1223 5.0024 0.7452
-0.4825 7.4298 1.1088
-1.9173 12.3388 1.8596
-0.5905 2.3775 0.3648
-0.8003 2.3156 0.3649
-1.0038 2.2353 0.3649
-6.1107 10.8895 1.8596
-6.4800 9.4581 1.7074
-7.3071 8.8539 1.7096
-8.0773 8.1768 1.7117
-8.7788 7.4275 1.7126
-9.4062 6.6150 1.7126
-9.9587 5.7498 1.7126
-8.9810 4.1658 1.4744
-10.8200 3.8884 1.7123
-11.1208 2.9072 1.7118
-11.3338 1.9035 1.7115
-11.4572 0.8850 1.7114
-11.4903 -0.1403 1.7113
-11.4327 -1.1646 1.7114
-11.2848 -2.1799 1.7117
-11.0479 -3.1783 1.7121
-10.7236 -4.1521 1.7126
-10.3105 -5.0920 1.7126
-8.3876 -5.1198 1.4635
-9.2403 -6.8416 1.7123
-8.5796 -7.6262 1.7095
-7.8879 -8.3850 1.7144
-7.7192 -9.8328 1.8617
-6.8215 -10.4975 1.8644
-5.8670 -11.0808 1.8673
-0.9549 -2.2736 0.3672
-0.7484 -2.3499 0.3673
-0.5359 -2.4075 0.3673
-0.3191 -2.4458 0.3673
-0.0997 -2.4645 0.3673
0.1205 -2.4635 0.3673
0.3397 -2.4428 0.3673
0.5562 -2.4026 0.3673
0.7682 -2.3432 0.3672
0.9740 -2.2651 0.3672
6.0730 -11.2395 1.9026
7.0778 -10.6933 1.9098
7.3731 -9.2305 1.7594
8.0002 -8.3619 1.7235
8.9672 -7.8363 1.7735
9.4188 -6.8514 1.7346
10.2780 -6.1552 1.7842
10.8098 -5.2256 1.7881
11.2521 -4.2480 1.7912
11.6003 -3.2315 1.7934
4.7804 -0.8816 0.7239
4.6134 -0.4306 0.6900
4.8268 -0.0182 0.7188
12.0039 1.0292 1.7942
11.8558 2.0942 1.7930
11.6049 3.1386 1.7904
11.2542 4.1520 1.7865
10.8078 5.1244 1.7813
10.2711 6.0463 1.7750
9.6503 6.9091 1.7675
8.9526 7.7051 1.7591
8.1944 8.4365 1.7515
5.4307 6.6946 1.2838
4.7795 7.1040 1.2751
5.5892 10.1601 1.7270
0.9847 2.2434 0.3649
0.7806 2.3220 0.3648
2.7006 11.2787 1.7272
1.8131 12.3545 1.8596
0.4192 7.4237 1.1074
-0.1645 5.0012 0.7452
-0.9574 7.7963 1.1698
-2.6213 12.2086 1.8596
-0.7259 2.3399 0.3649
-0.9318 2.2661 0.3649
-5.7596 11.0792 1.8596
-6.2309 9.7487 1.7231
-7.0172 9.0788 1.7089
-7.8086 8.4272 1.7110
-8.5369 7.7043 1.7126
-9.1900 6.9122 1.7126
-9.7698 6.0651 1.7126
-8.5071 4.2815 1.4183
-10.6914 4.2327 1.7125
-11.0232 3.2614 1.7120
-11.2678 2.2649 1.7116
-11.4234 1.2508 1.7114
-11.4889 0.2270 1.7113
-11.4637 -0.7986 1.7114
-11.3481 -1.8180 1.7116
-11.1428 -2.8234 1.7119
-10.8496 -3.8069 1.7124
-10.4680 -4.7599 1.7126
-8.4214 -4.7779 1.4419
-9.4558 -6.5439 1.7126
-8.8240 -7.3523 1.7105
-8.1201 -8.0971 1.7078
-8.0253 -9.5762 1.8607
-7.1498 -10.2687 1.8634
-6.2147 -10.8817 1.8662
-1.0271 -2.2418 0.3672
-0.8231 -2.3247 0.3673
-0.6126 -2.3890 0.3673
-0.3971 -2.4343 0.3673
-0.1784 -2.4600 0.3673
0.0417 -2.4661 0.3673
0.2615 -2.4525 0.3673
0.4791 -2.4193 0.3673
0.6929 -2.3667 0.3673
0.9011 -2.2952 0.3672
5.7024 -11.4113 1.8998
6.7236 -10.8997 1.9073
7.0649 -9.4488 1.7570
7.9108 -8.8160 1.7640
8.7004 -8.1079 1.7711
9.4227 -7.3260 1.7775
10.0670 -6.4747 1.7825
10.6295 -5.5643 1.7868
11.1044 -4.6029 1.7902
11.4868 -3.5992 1.7927
5.0633 -1.1022 0.7717
4.6309 -0.5821 0.6951
4.7706 -0.1706 0.7109
5.1968 0.2786 0.7750
11.9207 1.7148 1.7936
11.7063 2.7678 1.7915
11.3909 3.7935 1.7880
10.9783 4.7817 1.7833
10.4732 5.7226 1.7774
9.8817 6.6076 1.7703
9.2107 7.4283 1.7622
8.4732 8.1832 1.7543
7.6750 8.8663 1.7464
4.9082 6.8145 1.2507
5.9197 9.9909 1.7295
1.0560 2.2108 0.3649
0.8545 2.2959 0.3648
0.6463 2.3628 0.3648
2.2071 12.2903 1.8596
0.6930 7.8207 1.1693
-0.0046 5.0039 0.7452
-0.6723 7.4311 1.1112
-2.2297 12.2862 1.8596
-0.6507 2.3618 0.3648
-0.8588 2.2946 0.3649
-1.0602 2.2092 0.3649
-6.2157 10.4464 1.8103
-6.7204 9.2942 1.7081
-7.5320 8.6688 1.7102
-8.2849 7.9718 1.7123
-8.9644 7.2024 1.7126
-9.5710 6.3744 1.7126
-8.5028 4.6256 1.4415
-10.5512 4.5729 1.7126
-10.9143 3.6124 1.7121
-11.1904 2.6240 1.7117
-11.3780 1.6153 1.7115
-11.4758 0.5941 1.7113
-11.4831 -0.4318 1.7113
-11.3998 -1.4543 1.7115
-11.2265 -2.4656 1.7118
-10.9645 -3.4578 1.7122
-10.6148 -4.4229 1.7126
-10.1780 -5.3519 1.7126
-9.6602 -6.2383 1.7126
-9.0597 -7.0706 1.7115
-8.3796 -7.8379 1.7088
-8.3227 -9.3096 1.8597
-7.4703 -10.0297 1.8625
-6.5558 -10.6717 1.8652
-1.0982 -2.2077 0.3672
-0.8970 -2.2971 0.3673
-0.6886 -2.3682 0.3673
-0.4747 -2.4203 0.3673
-0.2569 -2.4531 0.3673
-0.0371 -2.4662 0.3673
0.1829 -2.4596 0.3673
0.4016 -2.4334 0.3673
0.6169 -2.3877 0.3673
0.8273 -2.3229 0.3672
1.0311 -2.2396 0.3672
6.3632 -11.0941 1.9047
7.3543 -10.5211 1.9117
7.6133 -9.0505 1.7613
8.1392 -8.0861 1.7086
9.1727 -7.6142 1.7754
9.8454 -6.7866 1.7808
10.4379 -5.8965 1.7854
10.9448 -4.9523 1.7891
11.3608 -3.9627 1.7919
11.6816 -2.9369 1.7938
4.6768 -0.7404 0.7052
4.6223 -0.3134 0.6900
4.9450 0.1068 0.7366
11.9724 1.3333 1.7940
11.7948 2.3935 1.7924
11.5152 3.4301 1.7894
11.1369 4.4329 1.7851
10.6642 5.3918 1.7796
10.1030 6.2978 1.7730
9.4595 7.1424 1.7652
8.7438 7.9204 1.7570
7.9676 8.6307 1.7493
5.1408 6.6765 1.2549
6.2473 9.8144 1.7326
5.3192 10.2784 1.7236
0.9275 2.2675 0.3649
0.7215 2.3410 0.3648
2.5987 12.2134 1.8596
0.9536 7.8856 1.1829
0.1553 5.0015 0.7452
-0.4333 7.4295 1.1083
-1.1978 8.0580 1.2132
-0.5749 2.3813 0.3648
-0.7850 2.3208 0.3649
-0.9890 2.2418 0.3649
-6.0388 10.9295 1.8596
-6.4169 9.4997 1.7073
-7.2479 8.9011 1.7095
-8.0226 8.2292 1.7116
-8.7296 7.4852 1.7126
-9.3624 6.6769 1.7126
-9.9206 5.8153 1.7126
-8.8281 4.1658 1.4538
-10.7944 3.9598 1.7123
-11.1016 2.9805 1.7119
-11.3211 1.9782 1.7116
-11.4512 0.9606 1.7114
-11.4909 -0.0645 1.7113
-11.4400 -1.0892 1.7114
-11.2988 -2.1054 1.7117
-11.0684 -3.1053 1.7120
-10.7505 -4.0813 1.7125
-10.3439 -5.0239 1.7126
-8.3947 -5.0484 1.4588
-9.2863 -6.7813 1.7125
-8.6307 -7.5704 1.7097
-7.9095 -8.2977 1.7072
-7.7830 -9.7807 1.8615
-6.8899 -10.4512 1.8642
-5.9392 -11.0406 1.8670
-0.9699 -2.2672 0.3672
-0.7639 -2.3449 0.3673
-0.5518 -2.4039 0.3673
-0.3352 -2.4436 0.3673
-0.1159 -2.4638 0.3673
0.1042 -2.4643 0.3673
0.3236 -2.4450 0.3673
0.5403 -2.4063 0.3673
0.7527 -2.3483 0.3672
0.9590 -2.2715 0.3672
5.9970 -11.2760 1.9020
7.0053 -10.7369 1.9092
7.3103 -9.2766 1.7589
7.9982 -8.4709 1.7350
8.9129 -7.8931 1.7730
9.6137 -7.0906 1.7790
10.2354 -6.2217 1.7838
10.7736 -5.2959 1.7878
11.2227 -4.3216 1.7910
11.5779 -3.3076 1.7932
4.8140 -0.9207 0.7299
4.6105 -0.4610 0.6901
4.8151 -0.0499 0.7171
12.0107 0.9501 1.7943
11.8703 2.0161 1.7931
11.6269 3.0624 1.7906
11.2834 4.0785 1.7868
10.8439 5.0542 1.7817
10.3137 5.9801 1.7755
9.6988 6.8476 1.7681
9.0065 7.6488 1.7597
8.2526 8.3851 1.7521
5.5345 6.7313 1.2978
4.7945 7.0258 1.2667
5.6562 10.1231 1.7270
0.9995 2.2368 0.3649
0.7959 2.3168 0.3648
2.7429 11.1305 1.7072
1.8945 12.3423 1.8596
0.4684 7.4234 1.1077
-0.1316 5.0021 0.7452
-0.9039 7.7844 1.1671
-2.5407 12.2256 1.8596
-0.7104 2.3446 0.3649
-0.9168 2.2722 0.3649
-5.6864 11.1169 1.8596
-6.2279 9.8872 1.7402
-6.9566 9.1240 1.7087
-7.7522 8.4778 1.7108
-8.4859 7.7604 1.7126
-9.1442 6.9727 1.7126
-9.7296 6.1294 1.7126
-8.5062 4.3515 1.4229
-10.6635 4.3032 1.7125
-11.0016 3.3341 1.7120
-11.2527 2.3391 1.7117
-11.4150 1.3260 1.7114
-11.4871 0.3027 1.7113
-11.4686 -0.7230 1.7114
-11.3597 -1.7431 1.7116
-11.1610 -2.7498 1.7119
-10.8742 -3.7352 1.7123
-10.4991 -4.6908 1.7126
-8.4282 -4.7085 1.4378
-9.4988 -6.4814 1.7126
-8.8734 -7.2948 1.7107
-8.1743 -8.0443 1.7080
-8.0875 -9.5220 1.8605
-7.2165 -10.2202 1.8632
-6.2857 -10.8393 1.8660
-1.0418 -2.2350 0.3672
-0.8384 -2.3192 0.3673
-0.6283 -2.3849 0.3673
-0.4131 -2.4316 0.3673
-0.1946 -2.4588 0.3673
0.0254 -2.4664 0.3673
0.2453 -2.4542 0.3673
0.4632 -2.4224 0.3673
0.6773 -2.3712 0.3673
0.8860 -2.3011 0.3672
5.6253 -11.4451 1.8992
6.6498 -10.9408 1.9067
7.0004 -9.4925 1.7565
7.8500 -8.8652 1.7635
8.6443 -8.1627 1.7706
9.3721 -7.3863 1.7771
10.0221 -6.5397 1.7822
10.5909 -5.6333 1.7865
11.0725 -4.6754 1.7900
11.4618 -3.6746 1.7925
11.7548 -2.6402 1.7942
4.6415 -0.6145 0.6973
4.6270 -0.1960 0.6897
5.0473 0.2373 0.7525
11.9325 1.6363 1.7937
11.7257 2.6909 1.7917
11.4176 3.7189 1.7883
11.0119 4.7102 1.7837
10.5135 5.6550 1.7779
9.9282 6.5444 1.7709
9.2628 7.3701 1.7629
8.5297 8.1298 1.7549
7.7359 8.8186 1.7470
4.9472 6.7739 1.2492
5.9877 9.9554 1.7301
1.0705 2.2038 0.3649
0.8696 2.2903 0.3648
0.6618 2.3585 0.3648
2.2880 12.2754 1.8596
0.7447 7.8173 1.1695
0.0284 5.0038 0.7452
-0.6229 7.4308 1.1105
-2.1487 12.3006 1.8596
-0.6351 2.3661 0.3648
-0.8437 2.3002 0.3649
-1.0456 2.2161 0.3649
-6.2124 10.5992 1.8297
-6.6583 9.3374 1.7079
-7.4740 8.7174 1.7101
-8.2314 8.0256 1.7121
-8.9167 7.2614 1.7126
-9.5288 6.4370 1.7126
-10.0649 5.5617 1.7126
-10.5208 4.6419 1.7126
-10.8905 3.6843 1.7122
-11.1730 2.6978 1.7118
-11.3672 1.6903 1.7115
-11.4717 0.6697 1.7113
-11.4857 -0.3561 1.7113
-11.4090 -1.3791 1.7115
-11.2424 -2.3915 1.7117
-10.9869 -3.3854 1.7121
-10.6437 -4.3528 1.7126
-10.2131 -5.2847 1.7126
-9.7011 -6.1745 1.7126
-9.1071 -7.0116 1.7117
-8.4320 -7.7834 1.7090
-8.3835 -9.2541 1.8596
-7.5355 -9.9791 1.8623
-6.6253 -10.6271 1.8650
-5.6596 -11.1926 1.8679
-0.9121 -2.2912 0.3673
-0.7042 -2.3636 0.3673
-0.4906 -2.4171 0.3673
-0.2731 -2.4513 0.3673
-0.0534 -2.4659 0.3673
0.1667 -2.4608 0.3673
0.3855 -2.4360 0.3673
0.6012 -2.3917 0.3673
0.8120 -2.3283 0.3672
1.0163 -2.2464 0.3672
6.2882 -11.1327 1.9041
7.2829 -10.5665 1.9112
7.5511 -9.0976 1.7608
8.0444 -8.0981 1.6999
9.1198 -7.6725 1.7749
9.7984 -6.8500 1.7805
10.3970 -5.9641 1.7851
10.9104 -5.0237 1.7888
11.3333 -4.0372 1.7917
11.6612 -3.0137 1.7937
4.6823 -0.7729 0.7068
4.6210 -0.3440 0.6901
4.9146 0.0738 0.7320
11.9814 1.2543 1.7941
11.8115 2.3159 1.7925
11.5393 3.3547 1.7897
11.1681 4.3602 1.7855
10.7022 5.3227 1.7801
10.1473 6.2329 1.7735
9.5097 7.0823 1.7659
8.7986 7.8651 1.7575
8.0270 8.5808 1.7499
5.2006 6.6629 1.2588
6.3142 9.7766 1.7333
5.3911 10.2513 1.7249
0.9424 2.2614 0.3649
0.7369 2.3362 0.3648
2.6753 12.1785 1.8569
1.0134 7.9407 1.1922
0.1883 5.0003 0.7452
-0.3842 7.4292 1.1079
-1.1216 7.9034 1.1888
-2.8500 12.1572 1.8596
-0.7697 2.3259 0.3649
-0.9742 2.2483 0.3649
-5.9666 10.9691 1.8596
-6.3539 9.5415 1.7072
-7.1884 8.9479 1.7093
-7.9674 8.2812 1.7114
-8.6801 7.5426 1.7126
-9.3182 6.7385 1.7126
-9.8820 5.8806 1.7126
-8.6835 4.1678 1.4344
-10.7683 4.0310 1.7124
-11.0819 3.0537 1.7119
-11.3079 2.0528 1.7116
-11.4447 1.0360 1.7114
-11.4911 0.0112 1.7113
-11.4469 -1.0137 1.7114
-11.3123 -2.0308 1.7116
-11.0884 -3.0323 1.7120
-10.7769 -4.0102 1.7125
-10.3768 -4.9556 1.7126
-8.4017 -4.9775 1.4543
-9.3313 -6.7203 1.7126
-8.6815 -7.5142 1.7099
-7.9978 -8.2803 1.7144
-7.8465 -9.7281 1.8613
-6.9578 -10.4044 1.8640
-6.0112 -11.0000 1.8668
-0.9848 -2.2608 0.3672
-0.7794 -2.3398 0.3673
-0.5676 -2.4002 0.3673
-0.3513 -2.4413 0.3673
-0.1322 -2.4630 0.3673
0.0880 -2.4649 0.3673
0.3075 -2.4471 0.3673
0.5245 -2.4098 0.3673
0.7372 -2.3532 0.3672
0.9440 -2.2778 0.3672
5.9208 -11.3120 1.9015
6.9325 -10.7799 1.9087
7.2471 -9.3222 1.7585
8.0819 -8.6735 1.7656
8.8582 -7.9495 1.7725
9.5647 -7.1523 1.7786
10.1922 -6.2879 1.7835
10.7368 -5.3661 1.7876
11.1926 -4.3950 1.7908
11.5550 -3.3837 1.7931
4.8463 -0.9600 0.7358
4.6077 -0.4915 0.6901
4.8035 -0.0815 0.7155
12.0169 0.8709 1.7943
11.8842 1.9380 1.7932
11.6483 2.9861 1.7908
11.3121 4.0047 1.7871
10.8795 4.9837 1.7822
10.3558 5.9137 1.7760
9.7470 6.7857 1.7687
9.0601 7.5921 1.7604
8.3104 8.3332 1.7527
7.4998 9.0001 1.7447
4.8094 6.9488 1.2585
5.7249 10.0895 1.7276
1.0142 2.2302 0.3649
0.8112 2.3115 0.3648
0.6018 2.3745 0.3648
1.9759 12.3295 1.8596
0.5175 7.4231 1.1082
-0.0986 5.0029 0.7452
-0.8515 7.7807 1.1657
-2.4601 12.2421 1.8596
-0.6949 2.3493 0.3649
-0.9018 2.2782 0.3649
-5.6130 11.1542 1.8596
-6.2249 10.0283 1.7578
-6.8956 9.1688 1.7085
-7.6955 8.5280 1.7107
-8.4345 7.8162 1.7126
-9.0980 7.0328 1.7126
-9.6890 6.1935 1.7126
-8.5053 4.4221 1.4276
-10.6352 4.3736 1.7126
-10.9796 3.4066 1.7121
-11.2372 2.4133 1.7117
-11.4061 1.4013 1.7114
-11.4849 0.3785 1.7113
-11.4731 -0.6473 1.7114
-11.3708 -1.6681 1.7115
-11.1787 -2.6761 1.7118
-10.8983 -3.6633 1.7123
-10.5299 -4.6215 1.7126
-8.5049 -4.6781 1.4456
-9.5413 -6.4186 1.7126
-8.9223 -7.2370 1.7109
-8.2282 -7.9911 1.7082
-8.1492 -9.4675 1.8603
-7.2829 -10.1713 1.8630
-6.3563 -10.7964 1.8658
-1.0565 -2.2280 0.3672
-0.8537 -2.3136 0.3673
-0.6440 -2.3807 0.3673
-0.4292 -2.4288 0.3673
-0.2108 -2.4575 0.3673
0.0092 -2.4665 0.3673
0.2291 -2.4558 0.3673
0.4472 -2.4254 0.3673
0.6617 -2.3756 0.3673
0.8708 -2.3069 0.3672
1.0729 -2.2198 0.3672
6.5757 -10.9814 1.9062
6.9357 -9.5357 1.7560
7.7890 -8.9140 1.7629
8.4476 -8.0830 1.7412
9.3211 -7.4462 1.7767
9.9768 -6.6043 1.7819
10.5518 -5.7021 1.7862
11.0400 -4.7477 1.7897
11.4363 -3.7497 1.7924
11.7366 -2.7175 1.7941
4.6520 -0.6472 0.6995
4.6258 -0.2265 0.6897
5.0278 0.2031 0.7494
11.9436 1.5576 1.7938
5.3729 6.7134 1.3348
6.1686 9.3004 1.7324
5.2860 9.7607 1.7231
0.9306 2.1587 0.3649
0.7343 2.2329 0.3649
0.5322 2.2894 0.3649
0.3259 2.3276 0.3648
0.1170 2.3474 0.3648
-0.0928 2.3485 0.3648
-0.3019 2.3309 0.3648
-0.5086 2.2949 0.3649
-0.7113 2.2406 0.3649
-0.9084 2.1685 0.3649
-5.5957 10.5927 1.8596
-6.2211 9.5934 1.7749
-6.7872 8.6626 1.7083
-7.5416 8.0322 1.7103
-8.2368 7.3355 1.7121
-8.8604 6.5733 1.7126
-9.4113 5.7569 1.7126
-8.5082 4.2119 1.4737
-10.2844 3.9932 1.7126
-10.5995 3.0603 1.7126
-10.8286 2.1024 1.7123
-10.9717 1.1281 1.7121
-11.0281 0.1451 1.7120
-10.9975 -0.8390 1.7121
-10.8801 -1.8167 1.7123
-10.6764 -2.7803 1.7126
-10.3859 -3.7213 1.7126
-10.0127 -4.6327 1.7126
-8.4091 -4.8445 1.5065
-9.0303 -6.3379 1.7126
-8.4176 -7.1083 1.7102
-7.7383 -7.8187 1.7076
-7.6401 -9.2396 1.8611
-6.7963 -9.8996 1.8640
-5.8948 -10.4814 1.8667
-0.9711 -2.1570 0.3672
-0.7749 -2.2352 0.3672
-0.5725 -2.2956 0.3673
-0.3655 -2.3376 0.3673
-0.1556 -2.3609 0.3673
0.0556 -2.3653 0.3673
0.2663 -2.3509 0.3673
0.4749 -2.3176 0.3672
0.6796 -2.2658 0.3672
0.8789 -2.1960 0.3672
1.0711 -2.1085 0.3671
6.5143 -10.4062 1.9057
6.8330 -9.0142 1.7558
7.6342 -8.3957 1.7615
8.3846 -7.7109 1.7682
9.0681 -6.9548 1.7740
9.6781 -6.1348 1.7787
10.2094 -5.2590 1.7827
10.6567 -4.3352 1.7859
11.0153 -3.3719 1.7882
4.9008 -1.0330 0.7775
4.6018 -0.5476 0.7194
4.7720 -0.1391 0.7411
5.2462 0.3160 0.8158
11.3817 1.7139 1.7867
11.1702 2.7189 1.7846
10.8627 3.6973 1.7812
10.4627 4.6394 1.7766
9.9751 5.5362 1.7709
9.4072 6.3804 1.7645
8.7681 7.1673 1.7579
8.0613 7.8889 1.7509
7.2940 8.5393 1.7433
4.8916 6.8867 1.3112
5.6112 9.6142 1.7280
0.9992 2.1280 0.3649
0.8054 2.2084 0.3649
0.6051 2.2712 0.3649
0.4002 2.3160 0.3648
0.1920 2.3424 0.3648
-0.0177 2.3502 0.3648
-0.2272 2.3394 0.3648
-0.4350 2.3099 0.3649
-0.6393 2.2621 0.3649
-0.8386 2.1963 0.3649
-1.0312 2.1130 0.3650
-6.1935 10.2546 1.8596
-6.5040 8.8711 1.7075
-7.2780 8.2657 1.7096
-7.9951 7.5922 1.7115
-8.6458 6.8531 1.7126
-9.2225 6.0547 1.7126
-8.4959 4.5495 1.4960
-10.1515 4.3199 1.7126
-10.4963 3.3974 1.7126
-10.7565 2.4476 1.7124
-10.9304 1.4783 1.7122
-11.0179 0.4975 1.7120
-11.0185 -0.4871 1.7121
-10.9321 -1.4679 1.7122
-10.7593 -2.4375 1.7125
-10.4995 -3.3874 1.7126
-10.1556 -4.3104 1.7126
-8.7827 -4.6924 1.5457
-9.2283 -6.0460 1.7126
-8.6452 -6.8394 1.7112
-7.9886 -7.5715 1.7085
-7.9254 -8.9837 1.8596
-7.1056 -9.6725 1.8630
-6.2236 -10.2823 1.8657
-1.0395 -2.1248 0.3672
-0.8459 -2.2092 0.3672
-0.6456 -2.2760 0.3672
-0.4400 -2.3247 0.3673
-0.2310 -2.3547 0.3673
-0.0200 -2.3659 0.3673
0.1910 -2.3582 0.3673
0.4006 -2.3317 0.3672
0.6069 -2.2865 0.3672
0.8083 -2.2230 0.3672
1.0032 -2.1418 0.3671
6.1703 -10.5953 1.9033
6.5300 -9.2118 1.7528
7.3525 -8.6243 1.7592
8.1230 -7.9643 1.7659
8.8318 -7.2334 1.7721
9.4684 -6.4351 1.7771
10.0286 -5.5784 1.7814
10.5066 -4.6708 1.7848
10.8974 -3.7207 1.7875
11.1970 -2.7367 1.7893
4.6481 -0.7045 0.7298
4.6055 -0.2818 0.7162
4.9528 0.1397 0.7691
11.4363 1.3499 1.7876
11.2571 2.3617 1.7855
10.9836 3.3508 1.7825
10.6162 4.3069 1.7784
10.1594 5.2209 1.7731
9.6182 6.0840 1.7666
9.0050 6.8929 1.7603
8.3217 7.6385 1.7534
7.5752 8.3150 1.7460
5.1064 6.7231 1.3105
5.9226 9.4411 1.7300
1.0667 2.0950 0.3649
0.8756 2.1816 0.3649
0.6774 2.2508 0.3649
0.4740 2.3021 0.3648
0.2668 2.3351 0.3648
0.0575 2.3496 0.3648
-0.1523 2.3454 0.3648
-0.3609 2.3226 0.3649
-0.5666 2.2813 0.3649
-0.7679 2.2219 0.3649
-0.9631 2.1448 0.3650
-5.8626 10.4473 1.8596
-6.2390 9.1064 1.7135
-7.0072 8.4905 1.7089
-7.7454 7.8408 1.7108
-8.4223 7.1259 1.7126
-9.0243 6.3464 1.7126
-9.5544 5.5163 1.7126
-8.9596 4.1558 1.5331
-10.3824 3.7311 1.7126
-10.6736 2.7903 1.7125
-10.8780 1.8269 1.7122
-10.9965 0.8494 1.7121
-11.0283 -0.1347 1.7120
-10.9730 -1.1178 1.7121
-10.8310 -2.0922 1.7124
-10.6025 -3.0502 1.7126
-10.2882 -3.9836 1.7126
-9.8919 -4.8853 1.7126
-8.3822 -5.1165 1.5244
-8.8642 -6.5631 1.7121
-8.2310 -7.3164 1.7095
-7.5357 -8.0107 1.7072
-7.4074 -9.4357 1.8621
-6.5456 -10.0730 1.8647
-5.6293 -10.6320 1.8674
-0.9161 -2.1810 0.3672
-0.7180 -2.2542 0.3672
-0.5141 -2.3094 0.3673
-0.3061 -2.3461 0.3673
-0.0956 -2.3641 0.3673
0.1156 -2.3632 0.3673
0.3259 -2.3433 0.3673
0.5335 -2.3048 0.3672
0.7369 -2.2478 0.3672
0.9343 -2.1729 0.3671
5.8207 -10.7725 1.9007
6.2233 -9.4023 1.7503
7.0701 -8.8512 1.7585
7.8535 -8.2086 1.7635
8.5863 -7.5034 1.7701
9.2490 -6.7279 1.7754
9.8373 -5.8913 1.7799
10.3453 -5.0010 1.7837
10.7678 -4.0651 1.7866
11.1005 -3.0922 1.7887
4.7487 -0.8758 0.7496
4.5968 -0.4291 0.7167
4.8165 -0.0182 0.7477
11.4783 0.9842 1.7883
11.3315 2.0016 1.7862
11.0925 3.0001 1.7837
10.7582 3.9691 1.7800
10.3329 4.8992 1.7751
9.8213 5.7815 1.7691
9.2329 6.6103 1.7627
8.5739 7.3792 1.7560
7.8492 8.0811 1.7487
5.4886 6.7660 1.3524
4.8094 7.1483 1.3374
5.3543 9.7331 1.7244
0.9449 2.1526 0.3649
0.7491 2.2280 0.3649
0.5473 2.2858 0.3649
0.3413 2.3254 0.3648
0.1325 2.3465 0.3648
-0.0773 2.3490 0.3648
-0.2865 2.3329 0.3648
-0.4934 2.2982 0.3649
-0.6965 2.2452 0.3649
-0.8941 2.1744 0.3649
-5.5257 10.6294 1.8596
-6.2180 9.7286 1.7923
-6.7293 8.7063 1.7081
-7.4878 8.0810 1.7101
-8.1876 7.3891 1.7120
-8.8169 6.6316 1.7126
-9.3732 5.8189 1.7126
-8.4994 4.2776 1.4770
-10.2578 4.0610 1.7126
-10.5791 3.1301 1.7126
-10.8146 2.1738 1.7123
-10.9641 1.2005 1.7121
-11.0269 0.2178 1.7120
-11.0027 -0.7665 1.7121
-10.8917 -1.7449 1.7123
-10.6945 -2.7097 1.7126
-10.4102 -3.6527 1.7126
