ply
format ascii 1.0
element vertex 2055
property float32 x
property float32 y
property float32 z
end_header
11.7828 17.6409 1.7025
10.3352 18.9394 1.7315
8.7320 20.0795 1.7572
7.0087 21.0885 1.7834
5.0761 21.5311 1.7753
3.1793 22.2086 1.8004
1.2016 22.7132 1.8253
-0.8407 23.0327 1.8496
-3.0519 24.1284 1.9518
-5.5248 25.2809 2.0767
-7.8588 25.0069 2.1036
-10.1772 24.4918 2.1284
-12.4514 23.7332 2.1508
-14.6514 22.7329 2.1704
-16.7473 21.4970 2.1869
-18.7096 20.0362 2.2000
-20.5101 18.3654 2.2094
-22.1230 16.5042 2.2150
-23.5253 14.4758 2.2167
-24.6980 12.3067 2.2145
-23.4708 9.1830 2.0226
-24.0818 7.0189 2.0130
-24.1972 4.7608 1.9791
-24.0906 2.5372 1.9440
-12.9626 0.2022 1.0404
-23.2640 -1.7186 1.8721
-22.5748 -3.7144 1.8360
-20.1902 -5.2074 1.6733
-19.7627 -7.0297 1.6833
-19.3265 -8.8890 1.7072
-18.8741 -10.8172 1.7458
-18.1689 -12.6921 1.7786
-16.8108 -14.1336 1.7625
-15.3450 -15.4384 1.7468
-4.4531 -5.3623 0.5594
-3.8352 -5.5618 0.5422
-10.3324 -18.2846 1.6854
-8.5759 -18.9478 1.6691
-6.7401 -19.3191 1.6420
-3.3765 -13.4278 1.1111
-3.4860 -22.0195 1.7891
-1.1647 -17.1839 1.3822
0.3780 -17.4447 1.4003
2.4695 -22.1565 1.7891
4.4365 -21.8478 1.7891
3.4691 -11.6392 0.9747
7.5547 -18.9690 1.6386
9.2327 -18.2506 1.6414
10.5810 -16.9641 1.6045
12.3342 -16.3256 1.6420
13.7151 -15.1309 1.6389
16.3863 -15.1162 1.7891
17.6696 -13.5940 1.7891
18.8119 -11.9634 1.7891
19.8043 -10.2373 1.7891
20.6386 -8.4296 1.7891
21.3084 -6.5547 1.7891
21.8082 -4.6274 1.7891
22.1341 -2.6633 1.7891
22.2834 -0.6779 1.7891
22.2550 1.3129 1.7891
22.0533 3.2938 1.7894
21.7084 5.2571 1.7925
21.1926 7.1864 1.7959
20.5087 9.0670 1.7995
19.6608 10.8843 1.8035
18.5354 12.5436 1.7961
17.2881 14.1029 1.7905
14.8710 14.5246 1.6682
13.5834 15.8723 1.6765
12.2578 17.2241 1.6966
10.8392 18.5347 1.7231
9.2776 19.7151 1.7486
7.5931 20.7692 1.7747
5.7950 21.6823 1.8011
3.6200 20.8600 1.6991
1.8657 22.5657 1.8171
-0.1571 22.9479 1.8417
-2.2822 23.6552 1.9072
-4.7207 25.1533 2.0538
-7.0849 25.1243 2.0949
-9.4115 24.6896 2.1205
-11.7036 24.0118 2.1437
-13.9316 23.0913 2.1643
-16.0654 21.9326 2.1818
-18.0752 20.5449 2.1960
-19.9324 18.9419 2.2067
-21.6102 17.1414 2.2136
-23.0847 15.1657 2.2166
-24.3354 13.0401 2.2157
-25.3461 10.7933 2.2108
-23.9093 7.7444 2.0169
-18.0281 4.1054 1.4838
-24.1498 3.2696 1.9557
-23.9018 1.0819 1.9201
-12.8511 -0.5672 1.0323
-22.8222 -3.0636 1.8479
-20.4918 -4.6421 1.6862
-19.9051 -6.4226 1.6785
-19.4726 -8.2662 1.6977
-19.0265 -10.1677 1.7313
-18.5879 -12.1815 1.7835
-17.2740 -13.6702 1.7678
-15.8424 -15.0211 1.7520
-14.3124 -16.2310 1.7366
-4.0207 -5.4762 0.5452
-2.9749 -4.9182 0.4613
-9.1629 -18.7454 1.6744
-2.0695 -5.4107 0.4649
-3.7503 -13.2420 1.1045
-4.1369 -21.9065 1.7891
-1.8704 -19.1600 1.5449
-0.1365 -17.1180 1.3738
1.8119 -22.2200 1.7891
3.7871 -21.9697 1.7891
3.2095 -12.0631 1.0018
6.9849 -19.1727 1.6376
8.6831 -18.5061 1.6405
10.1113 -17.3348 1.6105
11.8450 -16.6840 1.6420
13.2725 -15.5445 1.6403
15.1290 -14.8100 1.6990
17.2590 -14.1117 1.7891
18.4492 -12.5156 1.7891
19.4922 -10.8197 1.7891
20.3798 -9.0375 1.7891
21.1048 -7.1832 1.7891
21.6614 -5.2719 1.7891
22.0454 -3.3180 1.7891
22.2535 -1.3380 1.7891
22.2842 0.6528 1.7891
22.1370 2.6383 1.7891
21.8419 4.6088 1.7914
21.3825 6.5510 1.7947
20.7539 8.4494 1.7983
19.9599 10.2893 1.8021
18.9363 12.0124 1.7996
17.7130 13.5956 1.7919
16.3530 15.0514 1.7836
13.9836 15.3923 1.6689
12.7419 16.8257 1.6938
11.3289 18.1178 1.7148
9.8096 19.3368 1.7401
8.1650 20.4345 1.7660
6.4035 21.3959 1.7923
4.2658 20.8866 1.7108
2.5221 22.3983 1.8089
0.5207 22.8419 1.8336
-1.5471 23.2097 1.8667
-3.8710 24.6316 2.0010
-6.3102 25.2153 2.0860
-8.6421 24.8607 2.1122
-10.9489 24.2637 2.1363
-13.2014 23.4234 2.1578
-15.3698 22.3429 2.1763
-17.4240 21.0299 2.1917
-19.3349 19.4965 2.2036
-21.0750 17.7593 2.2117
-22.6194 15.8391 2.2160
-23.9464 13.7602 2.2164
-25.0382 11.5503 2.2129
-23.7048 8.4621 2.0199
-18.1573 4.7049 1.5053
-24.1855 4.0075 1.9674
-24.0069 1.8008 1.9320
-12.7663 -0.1847 1.0246
-23.0513 -2.4014 1.8599
-22.3056 -4.3624 1.8240
-20.0469 -5.8183 1.6752
-19.6172 -7.6497 1.6898
-19.1765 -9.5284 1.7184
-18.9838 -11.6517 1.7875
-17.7248 -13.1919 1.7732
-16.3289 -14.5882 1.7572
-14.8300 -15.8456 1.7417
-4.2273 -5.4135 0.5512
-3.1687 -4.9044 0.4686
-9.7459 -18.5255 1.6799
-2.2284 -5.3457 0.4648
-6.1508 -19.4952 1.6405
-4.7843 -21.7743 1.7891
-2.8226 -22.1143 1.7891
-0.6459 -17.1642 1.3784
1.1526 -22.2639 1.7891
3.1343 -22.0723 1.7891
2.9348 -12.5117 1.0313
3.8476 -11.6208 0.9824
8.1263 -18.7446 1.6396
9.7810 -17.9720 1.6420
11.3454 -17.0277 1.6420
12.8166 -15.9442 1.6417
14.1503 -14.6980 1.6373
16.8332 -14.6169 1.7891
18.0702 -13.0568 1.7891
19.1630 -11.3925 1.7891
20.1030 -9.6374 1.7891
20.8827 -7.8054 1.7891
21.4958 -5.9112 1.7891
21.9374 -3.9698 1.7891
22.2041 -1.9968 1.7891
22.2937 -0.0078 1.7891
22.2055 1.9812 1.7891
21.9565 3.9574 1.7904
21.5538 5.9108 1.7936
20.9810 7.8254 1.7971
20.2414 9.6862 1.8008
19.3322 11.4750 1.8042
18.1258 13.0776 1.7937
16.8472 14.6082 1.7895
14.3745 14.9099 1.6621
13.1607 16.3486 1.6843
11.7758 17.6467 1.7025
10.3279 18.9451 1.7316
8.7240 20.0847 1.7573
7.0003 21.0930 1.7835
5.0673 21.5347 1.7754
3.1701 22.2114 1.8006
1.1921 22.7151 1.8254
-0.8505 23.0338 1.8498
-3.0632 24.1354 1.9524
-5.5359 25.2802 2.0768
-7.8698 25.0050 2.1037
-10.1881 24.4887 2.1286
-12.4620 23.7290 2.1509
-14.6616 22.7276 2.1705
-16.7570 21.4906 2.1870
-18.7185 20.0287 2.2000
-20.5182 18.3570 2.2094
-22.1301 16.4950 2.2150
-23.5314 14.4658 2.2167
-24.7030 12.2962 2.2145
-23.4743 9.1729 2.0226
-24.0829 7.0081 2.0129
-24.1972 4.7501 1.9789
-24.0896 2.5267 1.9438
-12.9561 0.1966 1.0399
-23.2612 -1.7283 1.8719
-22.5711 -3.7236 1.8358
-20.1882 -5.2160 1.6733
-19.7606 -7.0384 1.6834
-19.3244 -8.8979 1.7073
-18.8719 -10.8266 1.7460
-18.1627 -12.6992 1.7785
-16.8041 -14.1401 1.7625
-15.3378 -15.4442 1.7468
-4.4501 -5.3633 0.5593
-3.8333 -5.5641 0.5422
-10.3242 -18.2881 1.6854
-8.5675 -18.9506 1.6690
-6.7320 -19.3220 1.6420
-3.3717 -13.4331 1.1115
-3.4766 -22.0210 1.7891
-1.1569 -17.1775 1.3816
0.3855 -17.4495 1.4007
2.4789 -22.1555 1.7891
4.4457 -21.8460 1.7891
3.4728 -11.6333 0.9743
7.5628 -18.9660 1.6386
9.2405 -18.2469 1.6414
10.5953 -16.9711 1.6056
12.3411 -16.3204 1.6420
13.7213 -15.1249 1.6388
16.3927 -15.1093 1.7891
17.6753 -13.5865 1.7891
18.8170 -11.9554 1.7891
19.8086 -10.2289 1.7891
20.6422 -8.4209 1.7891
21.3112 -6.5456 1.7891
21.8102 -4.6182 1.7891
22.1352 -2.6539 1.7891
22.2837 -0.6685 1.7891
22.2545 1.3223 1.7891
22.0520 3.3031 1.7895
21.7064 5.2664 1.7925
21.1897 7.1955 1.7959
20.5050 9.0758 1.7995
19.6564 10.8927 1.8035
18.5295 12.5511 1.7960
17.2819 14.1101 1.7905
14.8561 14.5223 1.6672
13.5773 15.8788 1.6766
12.2507 17.2297 1.6966
10.8321 18.5406 1.7232
9.2699 19.7204 1.7487
7.5848 20.7739 1.7748
5.7862 21.6863 1.8012
3.6117 20.8649 1.6993
1.8563 22.5680 1.8172
-0.1668 22.9493 1.8418
-2.2930 23.6618 1.9078
-4.7332 25.1609 2.0546
-7.0959 25.1228 2.0950
-9.4225 24.6870 2.1206
-11.7144 24.0080 2.1438
-13.9420 23.0863 2.1644
-16.0753 21.9266 2.1819
-18.0844 20.5378 2.1961
-19.9408 18.9338 2.2067
-21.6176 17.1325 2.2136
-23.0911 15.1559 2.2166
-24.3408 13.0298 2.2157
-25.3503 10.7824 2.2108
-23.9120 7.7340 2.0169
-18.0349 4.0989 1.4842
-24.1491 3.2591 1.9556
-23.9001 1.0717 1.9199
-12.8531 -0.5727 1.0325
-22.8189 -3.0730 1.8478
-20.4984 -4.6528 1.6869
-19.9031 -6.4312 1.6786
-19.4705 -8.2750 1.6978
-19.0243 -10.1770 1.7314
-18.5822 -12.1889 1.7834
-17.2674 -13.6769 1.7678
-15.8353 -15.0271 1.7519
-14.3049 -16.2364 1.7366
-4.0180 -5.4774 0.5452
-2.9732 -4.9201 0.4613
-9.1546 -18.7484 1.6744
-2.0678 -5.4131 0.4650
-3.7447 -13.2437 1.1045
-4.1277 -21.9083 1.7891
-1.8626 -19.1648 1.5452
-0.1293 -17.1226 1.3741
1.8213 -22.2192 1.7891
3.7964 -21.9681 1.7891
3.2133 -12.0569 1.0014
6.9931 -19.1699 1.6376
8.6910 -18.5026 1.6405
10.1159 -17.3257 1.6101
11.8521 -16.6790 1.6420
13.2789 -15.5387 1.6403
15.1625 -14.8302 1.7021
17.2650 -14.1043 1.7891
18.4544 -12.5078 1.7891
19.4968 -10.8114 1.7891
20.3836 -9.0288 1.7891
21.1078 -7.1743 1.7891
21.6635 -5.2633 1.7891
22.0468 -3.3087 1.7891
22.2541 -1.3285 1.7891
22.2839 0.6622 1.7891
22.1359 2.6477 1.7891
21.8401 4.6181 1.7915
21.3799 6.5602 1.7947
20.7506 8.4583 1.7983
19.9558 10.2978 1.8021
18.9305 12.0201 1.7996
17.7069 13.6029 1.7919
16.3201 15.0339 1.7807
13.9778 15.3989 1.6690
12.7358 16.8326 1.6939
11.3220 18.1238 1.7149
9.8021 19.3423 1.7402
8.1569 20.4394 1.7661
6.3949 21.4001 1.7924
4.2527 20.8676 1.7091
2.5128 22.4008 1.8090
0.5111 22.8436 1.8337
-1.5569 23.2154 1.8673
-3.8828 24.6389 2.0017
-6.3214 25.2142 2.0861
-8.6531 24.8584 2.1123
-10.9597 24.2603 2.1364
-13.2119 23.4188 2.1579
-15.3798 22.3372 2.1764
-17.4334 21.0232 2.1918
-19.3435 19.4888 2.2036
-21.0828 17.7506 2.2118
-22.6262 15.8295 2.2160
-23.9521 13.7500 2.2164
-25.0428 11.5395 2.2128
-23.7079 8.4519 2.0199
-18.1354 4.6910 1.5033
-24.1852 3.9969 1.9672
-24.0056 1.7905 1.9318
-12.7649 -0.1901 1.0245
-23.0481 -2.4109 1.8597
-22.3016 -4.3715 1.8238
-20.0448 -5.8270 1.6752
-19.6152 -7.6585 1.6899
-19.1744 -9.5374 1.7186
-18.9782 -11.6594 1.7875
-17.7184 -13.1989 1.7731
-16.3221 -14.5945 1.7571
-14.8227 -15.8512 1.7416
-4.2241 -5.4141 0.5511
-3.1610 -4.8970 0.4678
-9.7376 -18.5288 1.6798
-2.2247 -5.3430 0.4645
-4.2629 -13.5314 1.1385
-4.7751 -21.7763 1.7891
-2.8132 -22.1155 1.7891
-0.6388 -17.1694 1.3788
1.1620 -22.2634 1.7891
3.1437 -22.0710 1.7891
2.9388 -12.5051 1.0309
3.8545 -11.6250 0.9829
8.1343 -18.7413 1.6396
9.7886 -17.9678 1.6420
11.3526 -17.0229 1.6420
12.8232 -15.9386 1.6417
14.1563 -14.6917 1.6373
16.8394 -14.6097 1.7891
18.0757 -13.0491 1.7891
19.1678 -11.3844 1.7891
20.1071 -9.6289 1.7891
20.8860 -7.7966 1.7891
21.4983 -5.9022 1.7891
21.9391 -3.9606 1.7891
22.2050 -1.9874 1.7891
22.2937 0.0016 1.7891
22.2047 1.9906 1.7891
21.9550 3.9666 1.7904
21.5515 5.9200 1.7936
20.9779 7.8344 1.7971
20.2375 9.6950 1.8008
19.3265 11.4827 1.8041
18.1198 13.0849 1.7937
16.8410 14.6153 1.7895
14.3690 14.9168 1.6622
13.1548 16.3555 1.6844
11.7689 17.6524 1.7026
10.3206 18.9508 1.7317
8.7161 20.0898 1.7574
6.9918 21.0974 1.7837
5.0585 21.5383 1.7755
3.1609 22.2142 1.8007
1.1825 22.7171 1.8256
-0.8603 23.0348 1.8499
-3.0745 24.1423 1.9531
-5.5469 25.2794 2.0770
-7.8809 25.0032 2.1039
-10.1991 24.4857 2.1287
-12.4726 23.7248 2.1510
-14.6718 22.7223 2.1706
-16.7666 21.4842 2.1870
-18.7275 20.0213 2.2001
-20.5263 18.3486 2.2095
-22.1373 16.4857 2.2151
-23.5375 14.4558 2.2167
-24.7079 12.2856 2.2144
-23.4778 9.1628 2.0225
-24.0840 6.9974 2.0127
-24.1972 4.7395 1.9788
-24.0885 2.5164 1.9437
-12.9496 0.1910 1.0393
-23.2583 -1.7380 1.8717
-22.5674 -3.7329 1.8357
-20.1862 -5.2245 1.6733
-19.7586 -7.0471 1.6835
-19.3223 -8.9069 1.7075
-18.8697 -10.8360 1.7462
-18.1566 -12.7064 1.7785
-16.7974 -14.1466 1.7624
-15.3306 -15.4501 1.7467
-4.4470 -5.3643 0.5592
-3.8314 -5.5664 0.5423
-10.3160 -18.2916 1.6853
-8.5591 -18.9534 1.6689
-6.7238 -19.3248 1.6420
-3.3670 -13.4385 1.1118
-3.4673 -22.0224 1.7891
-1.1492 -17.1714 1.3811
0.3930 -17.4543 1.4011
2.4883 -22.1544 1.7891
4.4550 -21.8441 1.7891
3.4763 -11.6274 0.9739
7.5708 -18.9629 1.6386
9.2484 -18.2431 1.6414
10.6097 -16.9780 1.6067
12.3481 -16.3152 1.6420
13.7275 -15.1189 1.6388
16.3991 -15.1024 1.7891
17.6811 -13.5790 1.7891
18.8221 -11.9474 1.7891
19.8129 -10.2205 1.7891
20.6458 -8.4121 1.7891
21.3139 -6.5366 1.7891
21.8121 -4.6089 1.7891
22.1363 -2.6445 1.7891
22.2840 -0.6591 1.7891
22.2539 1.3317 1.7891
22.0508 3.3125 1.7895
21.7043 5.2757 1.7925
21.1869 7.2045 1.7959
20.5014 9.0845 1.7996
19.6520 10.9012 1.8035
18.5237 12.5586 1.7960
17.2758 14.1173 1.7904
14.8412 14.5200 1.6662
13.5711 15.8852 1.6767
12.2437 17.2352 1.6966
10.8250 18.5465 1.7234
9.2622 19.7257 1.7488
7.5766 20.7786 1.7749
5.7774 21.6902 1.8014
3.6035 20.8698 1.6996
1.8468 22.5702 1.8174
-0.1765 22.9506 1.8419
-2.3037 23.6684 1.9084
-4.7456 25.1686 2.0554
-7.1070 25.1213 2.0952
-9.4337 24.6845 2.1207
-11.7251 24.0042 2.1439
-13.9523 23.0814 2.1644
-16.0851 21.9205 2.1820
-18.0936 20.5307 2.1962
-19.9491 18.9257 2.2068
-21.6251 17.1235 2.2136
-23.0976 15.1461 2.2166
-24.3462 13.0193 2.2156
-25.3544 10.7715 2.2107
-23.9147 7.7237 2.0168
-18.0417 4.0924 1.4847
-24.1485 3.2485 1.9554
-23.8984 1.0614 1.9198
-12.8550 -0.5782 1.0327
-22.8154 -3.0824 1.8476
-20.5050 -4.6634 1.6876
-19.9010 -6.4399 1.6786
-19.4685 -8.2838 1.6979
-19.0222 -10.1861 1.7316
-18.5764 -12.1964 1.7834
-17.2609 -13.6836 1.7677
-15.8283 -15.0333 1.7519
-14.2975 -16.2418 1.7365
-4.0154 -5.4785 0.5451
-2.9714 -4.9219 0.4614
-9.1462 -18.7514 1.6743
-2.0661 -5.4155 0.4652
-3.7391 -13.2454 1.1045
-4.1184 -21.9100 1.7891
-1.8549 -19.1699 1.5456
-0.1220 -17.1272 1.3745
1.8307 -22.2184 1.7891
3.8057 -21.9665 1.7891
3.2171 -12.0507 1.0009
7.0013 -19.1671 1.6376
8.6989 -18.4991 1.6405
10.1204 -17.3167 1.6096
11.8591 -16.6739 1.6420
13.2854 -15.5329 1.6403
15.1964 -14.8506 1.7052
17.2709 -14.0970 1.7891
18.4597 -12.4999 1.7891
19.5014 -10.8032 1.7891
20.3874 -9.0202 1.7891
21.1109 -7.1653 1.7891
21.6659 -5.2536 1.7891
22.0482 -3.2994 1.7891
22.2547 -1.3191 1.7891
22.2836 0.6717 1.7891
22.1348 2.6571 1.7891
21.8383 4.6274 1.7915
21.3773 6.5693 1.7947
20.7472 8.4672 1.7983
19.9516 10.3064 1.8022
18.9249 12.0277 1.7995
17.7008 13.6102 1.7919
16.2873 15.0164 1.7778
13.9720 15.4057 1.6691
12.7298 16.8394 1.6941
11.3151 18.1298 1.7151
9.7946 19.3478 1.7403
8.1488 20.4442 1.7662
6.3862 21.4044 1.7926
4.2397 20.8488 1.7074
2.5034 22.4034 1.8091
0.5014 22.8453 1.8338
-1.5669 23.2212 1.8678
-3.8946 24.6461 2.0024
-6.3324 25.2131 2.0862
-8.6641 24.8561 2.1125
-10.9706 24.2568 2.1365
-13.2225 23.4142 2.1579
-15.3898 22.3316 2.1765
-17.4428 21.0164 2.1918
-19.3522 19.4810 2.2037
-21.0906 17.7419 2.2118
-22.6330 15.8201 2.2161
-23.9578 13.7398 2.2164
-25.0474 11.5288 2.2128
-23.7110 8.4417 2.0198
-18.1135 4.6772 1.5013
-24.1848 3.9864 1.9671
-24.0042 1.7801 1.9317
-12.7634 -0.1955 1.0244
-23.0450 -2.4205 1.8596
-22.2977 -4.3805 1.8236
-20.0428 -5.8355 1.6753
-19.6131 -7.6673 1.6900
-19.1722 -9.5466 1.7188
-18.9726 -11.6671 1.7874
-17.7121 -13.2058 1.7730
-16.3151 -14.6008 1.7571
-14.8153 -15.8568 1.7415
-4.2208 -5.4148 0.5510
-3.1555 -4.8930 0.4672
-9.7293 -18.5320 1.6797
-2.2217 -5.3423 0.4643
-4.2536 -13.5217 1.1376
-4.7658 -21.7783 1.7891
-2.8038 -22.1167 1.7891
-0.6317 -17.1749 1.3792
1.1715 -22.2629 1.7891
3.1531 -22.0696 1.7891
2.9428 -12.4985 1.0304
3.8613 -11.6292 0.9834
8.1423 -18.7381 1.6396
9.7962 -17.9637 1.6420
11.3599 -17.0180 1.6420
12.8298 -15.9330 1.6417
14.1623 -14.6856 1.6373
16.8456 -14.6026 1.7891
18.0812 -13.0414 1.7891
19.1727 -11.3763 1.7891
20.1112 -9.6204 1.7891
20.8893 -7.7878 1.7891
21.5008 -5.8930 1.7891
21.9408 -3.9512 1.7891
22.2058 -1.9780 1.7891
22.2937 0.0110 1.7891
22.2038 2.0000 1.7891
21.9534 3.9760 1.7905
21.5492 5.9293 1.7936
20.9748 7.8433 1.7971
20.2336 9.7036 1.8009
19.3209 11.4905 1.8040
18.1138 13.0923 1.7936
16.8347 14.6224 1.7895
14.3635 14.9236 1.6622
13.1489 16.3624 1.6846
11.7619 17.6582 1.7027
10.3132 18.9565 1.7319
8.7083 20.0948 1.7576
6.9834 21.1018 1.7838
5.0497 21.5419 1.7756
3.1516 22.2170 1.8008
1.1730 22.7190 1.8257
-0.8701 23.0359 1.8500
-3.0857 24.1492 1.9538
-5.5581 25.2787 2.0771
-7.8920 25.0012 2.1040
-10.2099 24.4827 2.1288
-12.4832 23.7207 2.1511
-14.6820 22.7170 2.1707
-16.7763 21.4778 2.1871
-18.7364 20.0139 2.2001
-20.5344 18.3403 2.2095
-22.1444 16.4765 2.2151
-23.5436 14.4458 2.2167
-24.7130 12.2749 2.2144
-23.4812 9.1527 2.0225
-24.0851 6.9867 2.0125
-24.1972 4.7288 1.9786
-24.0875 2.5059 1.9435
-12.9431 0.1854 1.0388
-23.2554 -1.7477 1.8715
-22.5638 -3.7421 1.8355
-20.1841 -5.2332 1.6734
-19.7565 -7.0559 1.6836
-19.3202 -8.9158 1.7076
-18.8675 -10.8453 1.7465
-18.1504 -12.7135 1.7784
-16.7906 -14.1531 1.7623
-15.3235 -15.4559 1.7466
-4.4440 -5.3653 0.5591
-3.8296 -5.5687 0.5424
-10.3077 -18.2952 1.6852
-8.5506 -18.9561 1.6689
-6.7156 -19.3277 1.6420
-3.3623 -13.4438 1.1121
-3.4580 -22.0239 1.7891
-1.1415 -17.1656 1.3806
0.4005 -17.4590 1.4015
2.4977 -22.1534 1.7891
4.4642 -21.8422 1.7891
3.4800 -11.6215 0.9736
7.5790 -18.9599 1.6386
9.2561 -18.2393 1.6414
10.6240 -16.9850 1.6077
12.3550 -16.3100 1.6420
13.7338 -15.1128 1.6388
16.4054 -15.0954 1.7891
17.6868 -13.5716 1.7891
18.8271 -11.9395 1.7891
19.8173 -10.2121 1.7891
20.6493 -8.4033 1.7891
21.3167 -6.5276 1.7891
21.8141 -4.5997 1.7891
22.1374 -2.6352 1.7891
22.2842 -0.6496 1.7891
22.2533 1.3412 1.7891
22.0496 3.3219 1.7895
21.7023 5.2849 1.7925
21.1840 7.2136 1.7959
20.4977 9.0933 1.7996
19.6476 10.9096 1.8035
18.5178 12.5660 1.7959
17.2696 14.1245 1.7904
14.8262 14.5177 1.6653
19.5052 7.2655 1.7995
18.8157 8.9942 1.8030
17.9753 10.6590 1.8067
16.9898 12.2470 1.8107
15.7836 13.6743 1.8054
13.8791 14.3838 1.7281
12.2348 15.1853 1.6859
10.9262 16.3585 1.7007
9.5119 17.4307 1.7167
7.9937 18.3819 1.7330
6.3814 19.2009 1.7493
4.6937 19.9095 1.7684
2.9369 20.5139 1.7916
1.1384 21.5195 1.8631
-0.8297 22.7310 1.9665
-2.9453 23.2854 2.0292
-5.0753 23.2236 2.0552
-7.2116 22.9477 2.0796
-9.3301 22.4532 2.1021
-11.4050 21.7387 2.1224
-13.4099 20.8066 2.1401
-15.3184 19.6628 2.1549
-17.1045 18.3173 2.1667
-18.7436 16.7837 2.1752
-20.2131 15.0794 2.1802
-21.4930 13.2252 2.1818
-22.5663 11.2445 2.1797
-23.0538 9.0198 2.1402
-22.0224 6.4187 1.9832
-22.2215 4.3721 1.9580
-22.1556 2.3334 1.9260
-13.0118 0.2029 1.1251
-21.4593 -1.5853 1.8603
-20.8546 -3.4314 1.8272
-20.4055 -5.2629 1.8219
-19.7758 -7.0344 1.8146
-18.9664 -8.7234 1.8048
-17.9968 -10.3144 1.7933
-16.8631 -11.7799 1.7784
-15.6127 -13.1263 1.7634
-14.2604 -14.3472 1.7489
-4.4360 -5.3418 0.6003
-3.8195 -5.5390 0.5817
-9.6019 -16.9918 1.6873
-7.9750 -17.6202 1.6721
-6.2849 -18.0141 1.6495
-3.3937 -13.4962 1.2031
-3.2359 -20.4397 1.7891
-1.1663 -17.2077 1.4911
0.3887 -17.9399 1.5513
2.2923 -20.5669 1.7891
4.1182 -20.2803 1.7891
3.4691 -11.6392 1.0500
7.1517 -17.9571 1.6711
8.5524 -16.9059 1.6380
10.0387 -16.0946 1.6399
11.4301 -15.1290 1.6393
12.7142 -14.0267 1.6367
15.2106 -14.0317 1.7891
16.4018 -12.6187 1.7891
17.4622 -11.1050 1.7891
18.3833 -9.5028 1.7891
19.1578 -7.8248 1.7891
19.7796 -6.0843 1.7891
20.2435 -4.2954 1.7891
20.5460 -2.4722 1.7891
20.6846 -0.6293 1.7891
20.6674 1.2192 1.7899
20.5051 3.0625 1.7924
20.1820 4.8875 1.7953
19.6998 6.6802 1.7984
19.0614 8.4271 1.8018
18.2705 10.1146 1.8055
17.3324 11.7295 1.8093
16.2068 13.2208 1.8082
14.8369 14.4912 1.7930
12.6396 14.7695 1.6806
11.3710 15.9782 1.6955
9.9931 17.0878 1.7114
8.5083 18.0804 1.7276
6.9260 18.9445 1.7439
5.2586 19.6754 1.7607
3.5282 20.3306 1.7839
1.7482 21.1435 1.8342
-0.1528 22.3147 1.9293
-2.2441 23.2598 2.0203
-4.3667 23.2675 2.0467
-6.5036 23.0633 2.0717
-8.6309 22.6416 2.0949
-10.7231 22.0001 2.1159
-12.7542 21.1397 2.1345
-14.6975 20.0652 2.1503
-16.5271 18.7853 2.1631
-18.2176 17.3123 2.1727
-19.7457 15.6625 2.1789
-21.0905 13.8556 2.1816
-22.2340 11.9141 2.1808
-23.1618 9.8631 2.1764
-21.8562 7.0794 1.9862
-18.0096 4.1012 1.5969
-22.1993 3.0055 1.9367
-22.0037 0.9960 1.9043
-12.8996 -0.5693 1.1163
-21.0728 -2.8288 1.8382
-20.4918 -4.6421 1.8165
-20.0116 -6.4569 1.8179
-19.2515 -8.1723 1.8081
-18.3339 -9.7976 1.7972
-17.2532 -11.3068 1.7834
-16.0395 -12.6932 1.7684
-14.7196 -13.9565 1.7537
-13.2763 -15.0560 1.7354
-4.0064 -5.4566 0.5852
-2.9749 -4.9182 0.4969
-8.5190 -17.4280 1.6771
-2.0695 -5.4106 0.5008
-3.7671 -13.3015 1.1952
-3.8401 -20.3348 1.7891
-1.8802 -19.2611 1.6731
-0.1650 -20.6936 1.7891
1.6819 -20.6258 1.7891
3.5154 -20.3934 1.7891
3.2095 -12.0631 1.0792
6.7663 -18.5725 1.7089
8.0437 -17.1432 1.6371
9.5547 -16.3806 1.6395
10.9803 -15.4660 1.6398
12.3005 -14.4062 1.6377
14.7881 -14.4763 1.7891
16.0207 -13.0992 1.7891
17.1255 -11.6176 1.7891
18.0937 -10.0434 1.7891
18.9175 -8.3891 1.7891
19.5906 -6.6678 1.7891
20.1073 -4.8934 1.7891
20.4637 -3.0800 1.7891
20.6569 -1.2420 1.7891
20.6856 0.6060 1.7891
20.5768 2.4524 1.7915
20.3069 4.2849 1.7943
19.8773 6.0899 1.7973
19.2902 7.8535 1.8006
18.5495 9.5622 1.8042
17.6596 11.2026 1.8080
16.6219 12.7582 1.8115
15.3445 14.1232 1.8030
13.1262 14.4484 1.6876
11.8032 15.5862 1.6903
10.4625 16.7320 1.7061
9.0122 17.7648 1.7222
7.4611 18.6728 1.7384
5.8196 19.4449 1.7548
4.1113 20.1301 1.7763
2.3404 20.7844 1.8083
0.4995 21.9131 1.8950
-1.5441 23.1701 2.0076
-3.6599 23.2881 2.0381
-5.7946 23.1550 2.0636
-7.9278 22.8058 2.0874
-10.0345 22.2373 2.1092
-12.0888 21.4491 2.1286
-14.0642 20.4449 2.1454
-15.9343 19.2320 2.1592
-17.6736 17.8214 2.1699
-19.2581 16.2283 2.1773
-20.6659 14.4711 2.1811
-21.8779 12.5716 2.1815
-22.8787 10.5541 2.1783
-21.6665 7.7345 1.9889
-18.1093 4.6925 1.6173
-22.2215 3.6821 1.9473
-22.0896 1.6570 1.9151
-12.8239 -0.1855 1.1088
-21.2737 -2.2162 1.8492
-20.7222 -4.0528 1.8255
-20.2182 -5.8681 1.8201
-19.5199 -7.6118 1.8113
-18.6558 -9.2697 1.8010
-17.6303 -10.8210 1.7884
-16.4545 -12.2465 1.7733
-15.1685 -13.5515 1.7585
-13.7774 -14.7209 1.7431
-4.2131 -5.3954 0.5918
-3.1687 -4.9044 0.5048
-9.0589 -17.2197 1.6822
-2.2283 -5.3455 0.5007
-5.7128 -18.1068 1.6415
-4.0639 -18.4959 1.6372
-2.6200 -20.5277 1.7891
-0.6466 -17.1830 1.4866
1.0699 -20.6665 1.7891
2.9095 -20.4887 1.7891
2.9348 -12.5116 1.1110
3.8476 -11.6209 1.0583
7.5315 -17.3727 1.6370
9.0611 -16.6493 1.6388
10.5186 -15.7868 1.6400
11.8746 -14.7723 1.6386
13.4803 -14.0021 1.6804
15.6255 -13.5682 1.7891
16.7737 -12.1200 1.7891
17.7881 -10.5751 1.7891
18.6607 -8.9460 1.7891
19.3844 -7.2454 1.7891
19.9535 -5.4871 1.7891
20.3635 -3.6850 1.7891
20.6109 -1.8538 1.7891
20.6942 -0.0073 1.7891
20.6308 1.8406 1.7907
20.4142 3.6794 1.7933
20.0374 5.4950 1.7963
19.5023 7.2739 1.7995
18.8120 9.0022 1.8030
17.9710 10.6668 1.8067
16.9847 12.2543 1.8107
15.7775 13.6807 1.8054
13.8672 14.3836 1.7273
12.2289 15.1911 1.6860
10.9198 16.3639 1.7008
9.5049 17.4355 1.7168
7.9863 18.3861 1.7330
6.3735 19.2044 1.7494
4.6856 19.9127 1.7686
2.9281 20.5165 1.7917
1.1296 21.5250 1.8635
-0.8395 22.7371 1.9671
-2.9554 23.2856 2.0293
-5.0854 23.2228 2.0553
-7.2217 22.9459 2.0797
-9.3401 22.4503 2.1022
-11.4147 21.7348 2.1224
-13.4192 20.8017 2.1401
-15.3272 19.6569 2.1550
-17.1126 18.3104 2.1667
-18.7510 16.7760 2.1752
-20.2197 15.0710 2.1802
-21.4986 13.2161 2.1818
-22.5709 11.2349 2.1797
-23.0089 8.9910 2.1357
-22.0247 6.4092 1.9831
-22.2216 4.3623 1.9578
-22.1548 2.3238 1.9259
-13.0062 0.1973 1.1246
-21.4568 -1.5943 1.8601
-20.8514 -3.4399 1.8271
-20.4030 -5.2715 1.8218
-19.7723 -7.0426 1.8146
-18.9622 -8.7311 1.8048
-17.9919 -10.3217 1.7933
-16.8574 -11.7866 1.7783
-15.6065 -13.1324 1.7634
-14.2538 -14.3527 1.7488
-4.4330 -5.3427 0.6002
-3.8177 -5.5414 0.5818
-9.5943 -16.9951 1.6873
-7.9672 -17.6228 1.6720
-6.2761 -18.0136 1.6492
-3.3889 -13.5016 1.2035
-3.2272 -20.4410 1.7891
-1.1585 -17.2004 1.4904
0.3963 -17.9381 1.5512
2.3011 -20.5659 1.7891
4.1267 -20.2786 1.7891
3.4727 -11.6333 1.0496
7.1570 -17.9485 1.6705
8.5597 -16.9024 1.6380
10.0455 -16.0904 1.6399
11.4364 -15.1240 1.6393
12.7201 -14.0213 1.6367
15.2165 -14.0252 1.7891
16.4071 -12.6117 1.7891
17.4669 -11.0976 1.7891
18.3874 -9.4950 1.7891
19.1611 -7.8167 1.7891
19.7821 -6.0760 1.7891
20.2453 -4.2868 1.7891
20.5470 -2.4635 1.7891
20.6849 -0.6205 1.7891
20.6670 1.2279 1.7899
20.5039 3.0713 1.7924
20.1801 4.8961 1.7953
19.6972 6.6886 1.7984
19.0579 8.4353 1.8018
18.2664 10.1224 1.8055
17.3276 11.7370 1.8094
16.2009 13.2273 1.8082
14.8206 14.4877 1.7918
12.6339 14.7755 1.6807
11.3648 15.9837 1.6956
9.9863 17.0928 1.7115
8.5010 18.0848 1.7276
6.9183 18.9483 1.7439
5.2506 19.6789 1.7608
3.5197 20.3334 1.7841
1.7395 21.1488 1.8346
-0.1623 22.3205 1.9298
-2.2541 23.2603 2.0204
-4.3769 23.2671 2.0468
-6.5138 23.0618 2.0718
-8.6409 22.6391 2.0950
-10.7329 21.9965 2.1160
-12.7636 21.1351 2.1346
-14.7065 20.0596 2.1504
-16.5354 18.7787 2.1632
-18.2252 17.3049 2.1728
-19.7526 15.6543 2.1790
-21.0964 13.8467 2.1817
-22.2389 11.9046 2.1808
-23.1657 9.8532 2.1764
-21.8588 7.0699 1.9862
-18.0149 4.0944 1.5972
-22.1989 2.9959 1.9366
-22.0023 0.9866 1.9041
-12.9013 -0.5749 1.1165
-21.0698 -2.8374 1.8380
-20.4984 -4.6528 1.8172
-20.0084 -6.4653 1.8179
-19.2476 -8.1803 1.8081
-18.3292 -9.8051 1.7971
-17.2477 -11.3136 1.7833
-16.0334 -12.6995 1.7683
-14.7131 -13.9622 1.7536
-13.2690 -15.0606 1.7353
-4.0037 -5.4578 0.5852
-2.9732 -4.9201 0.4970
-8.5112 -17.4309 1.6770
-2.0678 -5.4129 0.5010
-3.7606 -13.2999 1.1949
-3.8315 -20.3364 1.7891
-1.8727 -19.2681 1.6737
-0.1562 -20.6936 1.7891
1.6906 -20.6250 1.7891
3.5240 -20.3920 1.7891
3.2133 -12.0569 1.0787
6.7719 -18.5635 1.7083
8.0510 -17.1399 1.6371
9.5617 -16.3766 1.6395
10.9868 -15.4613 1.6398
12.3065 -14.4008 1.6377
14.7942 -14.4700 1.7891
16.0262 -13.0924 1.7891
17.1304 -11.6104 1.7891
18.0979 -10.0357 1.7891
18.9211 -8.3810 1.7891
19.5934 -6.6595 1.7891
20.1094 -4.8849 1.7891
20.4650 -3.0713 1.7891
20.6574 -1.2332 1.7891
20.6855 0.6147 1.7891
20.5759 2.4611 1.7916
20.3053 4.2936 1.7943
19.8749 6.0984 1.7973
19.2871 7.8618 1.8007
18.5456 9.5701 1.8042
17.6550 11.2102 1.8081
16.6161 12.7649 1.8115
15.3383 14.1295 1.8029
13.1169 14.4505 1.6872
11.7971 15.5919 1.6904
10.4558 16.7373 1.7062
9.0051 17.7694 1.7223
7.4535 18.6768 1.7385
5.8116 19.4481 1.7548
4.1030 20.1331 1.7764
2.3320 20.7894 1.8086
0.4904 21.9188 1.8955
-1.5544 23.1763 2.0082
-3.6699 23.2880 2.0382
-5.8048 23.1538 2.0637
-7.9378 22.8037 2.0875
-10.0444 22.2341 2.1093
-12.0983 21.4449 2.1287
-14.0733 20.4396 2.1455
-15.9428 19.2257 2.1593
-17.6815 17.8143 2.1700
-19.2652 16.2204 2.1773
-20.6721 14.4624 2.1812
-21.8832 12.5623 2.1815
-22.8829 10.5443 2.1783
-21.6693 7.7252 1.9889
-18.0876 4.6787 1.6152
-22.2213 3.6724 1.9472
-22.0885 1.6475 1.9150
-12.8226 -0.1909 1.1087
-21.2709 -2.2250 1.8490
-20.7202 -4.0615 1.8254
-20.2155 -5.8766 1.8201
-19.5162 -7.6198 1.8113
-18.6513 -9.2773 1.8009
-17.6250 -10.8280 1.7883
-16.4487 -12.2530 1.7732
-15.1621 -13.5573 1.7584
-13.7703 -14.7258 1.7430
-4.2099 -5.3960 0.5917
-3.1610 -4.8970 0.5039
-9.0512 -17.2228 1.6821
-2.2246 -5.3428 0.5003
-5.7051 -18.1091 1.6415
-4.0561 -18.4973 1.6372
-2.6113 -20.5288 1.7891
-0.6396 -17.1887 1.4871
1.0787 -20.6661 1.7891
2.9182 -20.4874 1.7891
2.9388 -12.5050 1.1106
3.8545 -11.6251 1.0588
7.5375 -17.3662 1.6367
9.0682 -16.6455 1.6388
10.5253 -15.7823 1.6400
11.8808 -14.7672 1.6386
13.4963 -14.0068 1.6816
15.6312 -13.5615 1.7891
16.7788 -12.1129 1.7891
17.7926 -10.5676 1.7891
18.6644 -8.9380 1.7891
19.3874 -7.2372 1.7891
19.9558 -5.4787 1.7891
20.3650 -3.6764 1.7891
20.6118 -1.8448 1.7891
20.6942 0.0015 1.7891
20.6301 1.8495 1.7907
20.4128 3.6880 1.7933
20.0352 5.5035 1.7963
19.4994 7.2822 1.7995
18.8084 9.0103 1.8030
17.9667 10.6745 1.8068
16.9797 12.2616 1.8107
15.7714 13.6871 1.8054
13.8553 14.3834 1.7266
12.2230 15.1970 1.6861
10.9134 16.3692 1.7009
9.4980 17.4403 1.7169
7.9788 18.3903 1.7331
6.3656 19.2080 1.7494
4.6775 19.9159 1.7687
2.9198 20.5189 1.7918
1.1207 21.5304 1.8639
-0.8494 22.7431 1.9676
-2.9654 23.2858 2.0294
-5.0955 23.2220 2.0554
-7.2319 22.9441 2.0798
-9.3501 22.4474 2.1023
-11.4244 21.7309 2.1225
-13.4285 20.7968 2.1402
-15.3359 19.6510 2.1550
-17.1208 18.3036 2.1668
-18.7584 16.7683 2.1752
-20.2262 15.0625 2.1803
-21.5041 13.2070 2.1818
-22.5755 11.2253 2.1797
-22.9643 8.9623 2.1312
-22.0269 6.3997 1.9831
-22.2218 4.3526 1.9577
-22.1541 2.3143 1.9257
-13.0007 0.1917 1.1241
-21.4543 -1.6032 1.8600
-20.8481 -3.4485 1.8269
-20.4005 -5.2800 1.8218
-19.7688 -7.0508 1.8145
-18.9579 -8.7389 1.8047
-17.9870 -10.3290 1.7932
-16.8518 -11.7932 1.7782
-15.6004 -13.1385 1.7633
-14.2472 -14.3582 1.7487
-4.4300 -5.3437 0.6001
-3.8160 -5.5439 0.5819
-9.5867 -16.9984 1.6872
-7.9594 -17.6255 1.6720
-6.2674 -18.0131 1.6489
-3.3842 -13.5070 1.2038
-3.2186 -20.4424 1.7891
-1.1507 -17.1936 1.4898
0.4038 -17.9365 1.5511
2.3098 -20.5649 1.7891
4.1354 -20.2768 1.7891
3.4763 -11.6274 1.0492
7.1624 -17.9399 1.6700
8.5669 -16.8989 1.6380
10.0524 -16.0862 1.6399
11.4428 -15.1190 1.6393
12.7260 -14.0159 1.6367
15.2225 -14.0188 1.7891
16.4125 -12.6048 1.7891
17.4716 -11.0902 1.7891
18.3914 -9.4872 1.7891
19.1645 -7.8086 1.7891
19.7847 -6.0676 1.7891
20.2471 -4.2782 1.7891
20.5481 -2.4548 1.7891
20.6852 -0.6118 1.7891
20.6666 1.2367 1.7899
20.5027 3.0800 1.7924
20.1782 4.9047 1.7953
19.6945 6.6970 1.7984
19.0546 8.4434 1.8018
18.2623 10.1303 1.8055
17.3228 11.7444 1.8094
16.1949 13.2339 1.8081
14.8045 14.4842 1.7906
12.6282 14.7815 1.6808
11.3585 15.9892 1.6956
9.9794 17.0978 1.7115
8.4938 18.0893 1.7277
6.9106 18.9521 1.7440
5.2426 19.6823 1.7610
3.5113 20.3362 1.7842
1.7309 21.1541 1.8350
-0.1717 22.3263 1.9303
-2.2641 23.2608 2.0205
-4.3870 23.2666 2.0469
-6.5240 23.0603 2.0719
-8.6509 22.6366 2.0951
-10.7427 21.9929 2.1161
-12.7730 21.1305 2.1346
-14.7155 20.0540 2.1505
-16.5438 18.7721 2.1632
-18.2328 17.2975 2.1728
-19.7594 15.6461 2.1790
-21.1024 13.8378 2.1817
-22.2439 11.8951 2.1808
-23.1695 9.8433 2.1764
-21.8613 7.0605 1.9861
-18.0217 4.0879 1.5976
-22.1984 2.9862 1.9364
-22.0009 0.9771 1.9039
-12.9031 -0.5804 1.1167
-21.0668 -2.8461 1.8379
-20.5050 -4.6634 1.8180
-20.0052 -6.4736 1.8178
-19.2436 -8.1882 1.8080
-18.3245 -9.8125 1.7971
-17.2422 -11.3205 1.7832
-16.0274 -12.7058 1.7682
-14.7066 -13.9679 1.7535
-13.2618 -15.0653 1.7352
-4.0010 -5.4590 0.5851
-2.9714 -4.9219 0.4970
-8.5035 -17.4338 1.6770
-2.0660 -5.4153 0.5011
-3.7550 -13.3016 1.1949
-3.8229 -20.3380 1.7891
-1.8652 -19.2757 1.6742
-0.1474 -20.6937 1.7891
1.6993 -20.6243 1.7891
3.5326 -20.3905 1.7891
3.2171 -12.0506 1.0783
6.7776 -18.5545 1.7078
8.0583 -17.1366 1.6372
9.5686 -16.3726 1.6395
10.9933 -15.4566 1.6398
12.3125 -14.3955 1.6377
14.8004 -14.4637 1.7891
16.0317 -13.0856 1.7891
17.1353 -11.6031 1.7891
18.1022 -10.0280 1.7891
18.9247 -8.3730 1.7891
19.5962 -6.6512 1.7891
20.1115 -4.8764 1.7891
20.4663 -3.0626 1.7891
20.6579 -1.2244 1.7891
20.6853 0.6235 1.7891
20.5750 2.4698 1.7916
20.3036 4.3022 1.7943
19.8725 6.1068 1.7973
19.2840 7.8700 1.8007
18.5417 9.5781 1.8043
17.6505 11.2178 1.8081
16.6102 12.7716 1.8114
15.3320 14.1357 1.8029
13.1076 14.4526 1.6868
11.7910 15.5976 1.6904
10.4492 16.7424 1.7062
8.9979 17.7741 1.7223
7.4460 18.6808 1.7386
5.8036 19.4515 1.7549
4.0948 20.1360 1.7765
2.3236 20.7944 1.8090
0.4812 21.9244 1.8959
-1.5648 23.1827 2.0088
-3.6800 23.2878 2.0383
-5.8149 23.1527 2.0638
-7.9479 22.8015 2.0876
-10.0543 22.2308 2.1094
-12.1080 21.4406 2.1288
-14.0824 20.4344 2.1455
-15.9515 19.2195 2.1593
-17.6894 17.8071 2.1700
-19.2723 16.2124 2.1773
-20.6783 14.4538 2.1812
-21.8884 12.5530 2.1815
-22.8871 10.5344 2.1782
-21.6722 7.7158 1.9889
-18.0658 4.6648 1.6131
-22.2212 3.6627 1.9470
-22.0875 1.6380 1.9148
-12.8212 -0.1964 1.1086
-21.2682 -2.2339 1.8488
-20.7181 -4.0702 1.8254
-20.2127 -5.8850 1.8200
-19.5124 -7.6279 1.8113
-18.6468 -9.2849 1.8009
-17.6197 -10.8351 1.7883
-16.4428 -12.2595 1.7732
-15.1558 -13.5633 1.7584
-13.7632 -14.7307 1.7429
-4.2067 -5.3967 0.5916
-3.1555 -4.8930 0.5034
-9.0436 -17.2258 1.6820
-2.2216 -5.3422 0.5002
-5.6973 -18.1112 1.6414
-4.0481 -18.4988 1.6371
-2.6027 -20.5299 1.7891
-0.6324 -17.1947 1.4876
1.0875 -20.6656 1.7891
2.9269 -20.4862 1.7891
2.9428 -12.4985 1.1101
3.8613 -11.6293 1.0594
7.5448 -17.3630 1.6367
9.0754 -16.6418 1.6388
10.5320 -15.7779 1.6400
11.8870 -14.7621 1.6386
13.5122 -14.0114 1.6829
15.6370 -13.5549 1.7891
16.7839 -12.1057 1.7891
17.7971 -10.5600 1.7891
18.6682 -8.9302 1.7891
19.3905 -7.2290 1.7891
19.9581 -5.4702 1.7891
20.3666 -3.6677 1.7891
20.6126 -1.8361 1.7891
20.6942 0.0102 1.7891
20.6295 1.8582 1.7907
20.4114 3.6967 1.7934
20.0331 5.5121 1.7963
19.4964 7.2905 1.7995
18.8048 9.0183 1.8030
17.9623 10.6822 1.8068
16.9747 12.2690 1.8107
15.7653 13.6935 1.8053
13.8434 14.3833 1.7259
12.2171 15.2028 1.6862
10.9069 16.3746 1.7009
9.4910 17.4451 1.7170
7.9714 18.3945 1.7332
6.3578 19.2115 1.7495
4.6693 19.9192 1.7688
2.9110 20.5215 1.7919
1.1119 21.5359 1.8644
-0.8593 22.7492 1.9682
-2.9755 23.2860 2.0295
-5.1057 23.2212 2.0555
-7.2420 22.9422 2.0799
-9.3600 22.4446 2.1024
-11.4340 21.7270 2.1226
-13.4378 20.7918 2.1403
-15.3447 19.6450 2.1551
-17.1289 18.2968 2.1668
-18.7658 16.7606 2.1753
-20.2327 15.0541 2.1803
-21.5098 13.1979 2.1818
-22.5801 11.2155 2.1797
-22.9200 8.9339 2.1267
-22.0291 6.3902 1.9830
-22.2219 4.3428 1.9575
-22.1533 2.3046 1.9256
-12.9953 0.1862 1.1236
-21.4518 -1.6122 1.8598
-20.8449 -3.4570 1.8267
-20.3980 -5.2886 1.8218
-19.7653 -7.0590 1.8145
-18.9537 -8.7467 1.8047
-17.9820 -10.3363 1.7932
-16.8461 -11.7999 1.7782
-15.5941 -13.1446 1.7632
-14.2406 -14.3636 1.7487
-4.4270 -5.3447 0.6000
-3.8142 -5.5464 0.5820
-9.5790 -17.0018 1.6871
-7.9515 -17.6281 1.6719
-6.2587 -18.0126 1.6486
-3.3795 -13.5123 1.2042
-3.2099 -20.4438 1.7891
-1.1429 -17.1871 1.4892
0.4114 -17.9351 1.5510
2.3185 -20.5639 1.7891
4.1439 -20.2751 1.7891
3.4800 -11.6215 1.0488
7.1678 -17.9312 1.6695
8.5741 -16.8953 1.6380
10.0592 -16.0820 1.6399
11.4491 -15.1142 1.6393
12.7320 -14.0105 1.6367
15.2284 -14.0124 1.7891
16.4178 -12.5978 1.7891
17.4763 -11.0828 1.7891
18.3954 -9.4794 1.7891
19.1678 -7.8004 1.7891
19.7873 -6.0592 1.7891
20.2489 -4.2697 1.7891
20.5491 -2.4461 1.7891
20.6854 -0.6030 1.7891
20.6662 1.2455 1.7899
20.5016 3.0886 1.7925
20.1762 4.9132 1.7953
19.6918 6.7055 1.7984
19.0511 8.4516 1.8019
18.2582 10.1381 1.8055
17.3181 11.7519 1.8094
16.1888 13.2405 1.8081
14.7885 14.4808 1.7894
18.2196 6.7867 1.8016
17.5733 8.4003 1.8049
16.7862 9.9539 1.8084
15.8635 11.4351 1.8121
14.8116 12.8321 1.8159
13.6632 14.1600 1.8234
11.9317 14.8091 1.7623
10.4808 15.6917 1.7486
9.0511 16.5863 1.7509
7.6050 17.4881 1.7671
6.1191 18.4117 1.7979
4.5674 19.3735 1.8444
2.9194 20.3928 1.9089
1.1222 21.2130 1.9684
-0.7836 21.4703 1.9908
-2.7260 21.5519 2.0130
-4.6929 21.4743 2.0369
-6.6625 21.2001 2.0592
-8.6125 20.7262 2.0798
-10.5200 20.0518 2.0983
-12.3613 19.1796 2.1144
-14.1129 18.1154 2.1279
-15.7516 16.8685 2.1386
-17.2558 15.4514 2.1463
-18.6052 13.8799 2.1509
-19.7822 12.1725 2.1523
-20.7716 10.3503 2.1505
-21.5617 8.4360 2.1455
-20.2817 5.9113 1.9576
-20.5424 4.0417 1.9400
-20.5067 2.1597 1.9107
-13.0571 0.2036 1.2101
-19.9128 -1.4711 1.8502
-19.4972 -3.2080 1.8310
-19.0753 -4.9198 1.8254
-18.4664 -6.5686 1.8162
-17.7034 -8.1424 1.8057
-16.7813 -9.6177 1.7923
-15.7313 -10.9893 1.7782
-14.5731 -12.2522 1.7642
-13.2831 -13.3640 1.7460
-4.4190 -5.3213 0.6409
-3.8043 -5.5169 0.6210
-8.9672 -15.8686 1.6890
-7.4523 -16.4654 1.6747
-5.8889 -16.8793 1.6566
-3.4185 -13.5948 1.2990
-3.0190 -19.0700 1.7891
-1.1721 -17.2937 1.6062
0.3906 -18.0261 1.6708
2.1387 -19.1887 1.7891
3.8422 -18.9213 1.7891
3.4691 -11.6392 1.1254
7.1416 -17.9318 1.7886
8.2090 -16.2269 1.6851
9.3475 -14.9866 1.6367
10.6964 -14.1579 1.6442
12.5532 -13.8491 1.7320
14.1913 -13.0914 1.7891
15.3027 -11.7731 1.7891
16.2921 -10.3609 1.7891
17.1514 -8.8660 1.7891
17.8741 -7.3004 1.7891
18.4541 -5.6766 1.7891
18.8870 -4.0076 1.7891
19.1692 -2.3065 1.7891
19.3146 -0.5876 1.7906
19.3121 1.1392 1.7926
19.1586 2.8614 1.7950
18.8548 4.5661 1.7977
18.4022 6.2402 1.8006
17.8036 7.8711 1.8038
17.0626 9.4459 1.8072
16.1843 10.9525 1.8108
15.1745 12.3787 1.8146
14.0416 13.7145 1.8188
12.4813 14.5845 1.7788
10.9554 15.3941 1.7508
9.5261 16.2894 1.7486
8.0880 17.1873 1.7602
6.6180 18.1020 1.7860
5.0912 19.0489 1.8271
3.4789 20.0470 1.8854
1.7436 21.0888 1.9608
-0.1465 21.4047 1.9835
-2.0783 21.5414 2.0054
-4.0391 21.5216 2.0291
-6.0101 21.3131 2.0520
-7.9691 20.9057 2.0732
-9.8933 20.2977 2.0924
-11.7592 19.4906 2.1093
-13.5432 18.4892 2.1237
-15.2219 17.3017 2.1354
-16.7730 15.9395 2.1441
-18.1758 14.4173 2.1498
-19.4118 12.7528 2.1522
-20.4650 10.9662 2.1515
-21.3223 9.0798 2.1475
-20.1262 6.5190 1.9604
-17.9942 4.0977 1.7101
-20.5387 2.7807 1.9206
-20.3833 0.9226 1.8907
-12.9334 -0.5708 1.1996
-19.6029 -2.6315 1.8328
-19.2340 -4.3572 1.8274
-18.6844 -6.0287 1.8193
-17.9731 -7.6296 1.8093
-17.1038 -9.1402 1.7970
-16.0922 -10.5459 1.7828
-14.9686 -11.8457 1.7688
-13.7293 -13.0176 1.7532
-12.3594 -14.0162 1.7316
-3.9921 -5.4371 0.6250
-2.9749 -4.9182 0.5326
-7.9591 -16.2826 1.6794
-2.0694 -5.4104 0.5368
-3.7909 -13.3857 1.2891
-3.2782 -17.3591 1.6370
-1.8759 -19.2161 1.7891
-0.1539 -19.3069 1.7891
1.5692 -19.2436 1.7891
3.2798 -19.0269 1.7891
3.2095 -12.0631 1.1567
6.6091 -18.1411 1.7891
7.8689 -16.7707 1.7166
8.9164 -15.2863 1.6398
10.2251 -14.4022 1.6367
11.8532 -13.8822 1.6915
13.7972 -13.5062 1.7891
14.9471 -12.2214 1.7891
15.9779 -10.8391 1.7891
16.8812 -9.3704 1.7891
17.6499 -7.8269 1.7891
18.2778 -6.2209 1.7891
18.7599 -4.5655 1.7891
19.0924 -2.8736 1.7891
19.2821 -1.1593 1.7900
19.3296 0.5662 1.7919
19.2263 2.2914 1.7942
18.9722 4.0033 1.7967
18.5687 5.6890 1.7996
18.0182 7.3356 1.8027
17.3239 8.9304 1.8060
16.4906 10.4610 1.8096
15.5236 11.9152 1.8134
14.4298 13.2813 1.8173
13.1063 14.4266 1.8061
11.4314 15.0952 1.7546
10.0002 15.9928 1.7478
8.5675 16.8882 1.7548
7.1107 17.7957 1.7758
5.6056 18.7301 1.8117
4.0253 19.7091 1.8640
2.3367 20.7524 1.9351
0.4860 21.3194 1.9761
-1.4339 21.5164 1.9982
-3.3863 21.5474 2.0212
-5.3565 21.4042 2.0446
-7.2933 20.9805 2.0582
-9.2603 20.5216 2.0863
-11.1482 19.7802 2.1040
-12.9619 18.8425 2.1193
-14.6780 17.7157 2.1319
-16.2739 16.4099 2.1416
-17.7281 14.9390 2.1482
-19.0213 13.3195 2.1518
-20.1367 11.5711 2.1521
-21.0603 9.7152 2.1492
-20.1780 7.2031 1.9853
-18.0615 4.6801 1.7289
-20.5508 3.4052 1.9303
-20.4543 1.5343 1.9007
-12.8563 -0.1860 1.1914
-19.7491 -2.0574 1.8399
-19.3732 -3.7889 1.8292
-18.8869 -5.4817 1.8224
-18.2275 -7.1078 1.8129
-17.4127 -8.6520 1.8017
-16.4407 -10.0909 1.7875
-15.3531 -11.4268 1.7735
-14.1610 -12.6514 1.7596
-12.8220 -13.7001 1.7388
-4.1991 -5.3774 0.6322
-3.1687 -4.9044 0.5411
-8.4618 -16.0847 1.6841
-2.2282 -5.3453 0.5366
-5.3329 -16.9028 1.6424
-3.7942 -17.2680 1.6383
-2.4445 -19.1521 1.7891
-0.6490 -17.2471 1.5993
0.9982 -19.2817 1.7891
2.7145 -19.1157 1.7891
2.9348 -12.5116 1.1908
3.8476 -11.6210 1.1343
7.5153 -17.3354 1.7508
8.5492 -15.7087 1.6572
9.7938 -14.6989 1.6367
11.2539 -14.0001 1.6645
13.3908 -13.9091 1.7891
14.5784 -12.6590 1.7891
15.6497 -11.3078 1.7891
16.5961 -9.8665 1.7891
17.4102 -8.3464 1.7891
18.0854 -6.7599 1.7891
18.6164 -5.1194 1.7891
18.9989 -3.4381 1.7891
19.2331 -1.7296 1.7894
19.3306 -0.0068 1.7912
19.2773 1.7199 1.7934
19.0731 3.4377 1.7959
18.7190 5.1334 1.7986
18.2169 6.7944 1.8016
17.5699 8.4078 1.8049
16.7822 9.9611 1.8084
15.8588 11.4420 1.8121
14.8063 12.8386 1.8160
13.6576 14.1662 1.8234
11.9242 14.8126 1.7621
10.4741 15.6959 1.7485
9.0443 16.5905 1.7509
7.5981 17.4925 1.7672
6.1119 18.4162 1.7980
4.5598 19.3782 1.8447
2.9112 20.3978 1.9093
1.1133 21.2146 1.9685
-0.7928 21.4711 1.9910
-2.7353 21.5520 2.0131
-4.7023 21.4734 2.0370
-6.6718 21.1984 2.0593
-8.6217 20.7235 2.0799
-10.5289 20.0482 2.0984
-12.3699 19.1750 2.1145
-14.1209 18.1099 2.1280
-15.7591 16.8622 2.1387
-17.2626 15.4443 2.1464
-18.6112 13.8721 2.1509
-19.7873 12.1641 2.1523
-20.7758 10.3414 2.1505
-21.5650 8.4268 2.1454
-20.2838 5.9026 1.9575
-20.5426 4.0327 1.9399
-20.5061 2.1509 1.9106
-13.0516 0.1980 1.2095
-19.9106 -1.4794 1.8501
-19.4956 -3.2163 1.8310
-19.0728 -4.9278 1.8254
-18.4631 -6.5763 1.8161
-17.6994 -8.1497 1.8056
-16.7766 -9.6245 1.7922
-15.7260 -10.9955 1.7781
-14.5673 -12.2579 1.7642
-13.2767 -13.3688 1.7459
-4.4160 -5.3223 0.6408
-3.8025 -5.5194 0.6211
-8.9601 -15.8718 1.6889
-7.4450 -16.4679 1.6747
-5.8811 -16.8798 1.6564
-3.4138 -13.6007 1.2994
-3.0109 -19.0713 1.7891
-1.1640 -17.2821 1.6050
0.3982 -18.0238 1.6706
2.1469 -19.1878 1.7891
3.8502 -18.9197 1.7891
3.4727 -11.6333 1.1250
7.1470 -17.9233 1.7880
8.2137 -16.2193 1.6847
9.3539 -14.9826 1.6367
10.7039 -14.1553 1.6445
12.5644 -13.8496 1.7328
14.1969 -13.0854 1.7891
15.3077 -11.7666 1.7891
16.2964 -10.3540 1.7891
17.1552 -8.8587 1.7891
17.8771 -7.2929 1.7891
18.4565 -5.6687 1.7891
18.8887 -3.9996 1.7891
19.1702 -2.2984 1.7891
19.3149 -0.5794 1.7906
19.3117 1.1474 1.7926
19.1575 2.8696 1.7950
18.8530 4.5741 1.7977
18.3997 6.2481 1.8006
17.8004 7.8787 1.8038
17.0588 9.4532 1.8072
16.1798 10.9595 1.8109
15.1694 12.3853 1.8147
14.0361 13.7208 1.8188
12.4731 14.5874 1.7785
10.9486 15.3984 1.7508
9.5194 16.2936 1.7486
8.0811 17.1916 1.7603
6.6109 18.1064 1.7861
5.0837 19.0535 1.8273
3.4710 20.0519 1.8857
1.7348 21.0908 1.9610
-0.1556 21.4058 1.9836
-2.0875 21.5416 2.0055
-4.0484 21.5210 2.0292
-6.0194 21.3117 2.0521
-7.9784 20.9033 2.0733
-9.9023 20.2943 2.0925
-11.7679 19.4863 2.1094
-13.5514 18.4840 2.1238
-15.2295 17.2957 2.1355
-16.7800 15.9326 2.1442
-18.1821 14.4097 2.1498
-19.4173 12.7445 2.1522
-20.4695 10.9574 2.1514
-21.3259 9.0707 2.1475
-20.1285 6.5103 1.9603
-17.9986 4.0907 1.7103
-20.5384 2.7718 1.9204
-20.3821 0.9139 1.8906
-12.9351 -0.5764 1.1998
-19.6015 -2.6397 1.8327
-19.2319 -4.3653 1.8274
-18.6814 -6.0365 1.8192
-17.9694 -7.6370 1.8092
-17.0993 -9.1471 1.7969
-16.0871 -10.5523 1.7828
-14.9630 -11.8516 1.7688
-13.7230 -13.0226 1.7531
-12.3527 -14.0206 1.7315
-3.9894 -5.4383 0.6250
-2.9732 -4.9201 0.5327
-7.9519 -16.2853 1.6793
-2.0677 -5.4128 0.5369
-3.7842 -13.3836 1.2888
-3.2708 -17.3602 1.6370
-1.8677 -19.2169 1.7891
-0.1458 -19.3069 1.7891
1.5773 -19.2429 1.7891
3.2878 -19.0255 1.7891
3.2133 -12.0568 1.1562
6.6168 -18.1383 1.7891
7.8738 -16.7628 1.7161
8.9220 -15.2809 1.6397
10.2311 -14.3979 1.6367
11.8625 -13.8812 1.6920
13.8029 -13.5004 1.7891
14.9523 -12.2151 1.7891
15.9825 -10.8324 1.7891
16.8852 -9.3632 1.7891
17.6532 -7.8194 1.7891
18.2804 -6.2134 1.7891
18.7619 -4.5575 1.7891
19.0936 -2.8655 1.7891
19.2827 -1.1511 1.7900
19.3295 0.5744 1.7919
19.2254 2.2996 1.7942
18.9707 4.0114 1.7968
18.5664 5.6969 1.7996
18.0152 7.3433 1.8027
17.3203 8.9378 1.8061
16.4863 10.4681 1.8096
15.5188 11.9219 1.8134
14.4243 13.2875 1.8173
13.0968 14.4283 1.8056
11.4246 15.0995 1.7545
9.9934 15.9970 1.7478
8.5606 16.8925 1.7549
7.1037 17.8001 1.7759
5.5984 18.7347 1.8119
4.0176 19.7139 1.8643
2.3284 20.7575 1.9355
0.4770 21.3208 1.9762
-1.4431 21.5169 1.9983
-3.3956 21.5472 2.0213
-5.3658 21.4030 2.0447
-7.3025 20.9784 2.0583
-9.2694 20.5185 2.0863
-11.1569 19.7762 2.1041
-12.9703 18.8376 2.1193
-14.6859 17.7099 2.1319
-16.2811 16.4033 2.1416
-17.7346 14.9317 2.1483
-19.0270 13.3115 2.1518
-20.1416 11.5625 2.1521
-21.0642 9.7062 2.1491
-20.1446 7.1816 1.9818
-18.0399 4.6663 1.7267
-20.5508 3.3963 1.9301
-20.4534 1.5256 1.9006
-12.8550 -0.1914 1.1913
-19.7467 -2.0656 1.8398
-19.3713 -3.7971 1.8292
-18.8842 -5.4896 1.8223
-18.2240 -7.1153 1.8129
-17.4084 -8.6590 1.8017
-16.4359 -10.0974 1.7875
-15.3476 -11.4328 1.7734
-14.1552 -12.6569 1.7596
-12.8155 -13.7047 1.7387
-4.1959 -5.3781 0.6321
-3.1610 -4.8970 0.5401
-8.4547 -16.0877 1.6841
-2.2245 -5.3425 0.5363
-5.3255 -16.9043 1.6423
-3.7868 -17.2694 1.6383
-2.4364 -19.1531 1.7891
-0.6420 -17.2545 1.6000
1.0064 -19.2812 1.7891
2.7226 -19.1146 1.7891
2.9388 -12.5050 1.1903
3.8545 -11.6252 1.1349
7.5205 -17.3271 1.7503
8.5542 -15.7020 1.6569
9.8000 -14.6947 1.6367
11.2620 -13.9981 1.6648
13.3968 -13.9034 1.7891
14.5838 -12.6527 1.7891
15.6544 -11.3012 1.7891
16.6003 -9.8595 1.7891
17.4137 -8.3390 1.7891
18.0883 -6.7522 1.7891
18.6185 -5.1115 1.7891
19.0003 -3.4301 1.7891
19.2339 -1.7215 1.7894
19.3307 0.0014 1.7912
19.2767 1.7281 1.7934
19.0718 3.4457 1.7959
18.7170 5.1414 1.7986
18.2142 6.8022 1.8017
17.5665 8.4154 1.8049
16.7781 9.9683 1.8084
15.8542 11.4488 1.8121
14.8010 12.8450 1.8160
13.6519 14.1724 1.8235
11.9168 14.8163 1.7619
10.4673 15.7002 1.7485
9.0375 16.5948 1.7510
7.5911 17.4968 1.7673
6.1047 18.4207 1.7982
4.5523 19.3828 1.8450
2.9032 20.4028 1.9096
1.1044 21.2163 1.9686
-0.8019 21.4719 1.9911
-2.7447 21.5521 2.0132
-4.7116 21.4726 2.0371
-6.6811 21.1966 2.0594
-8.6308 20.7207 2.0800
-10.5378 20.0445 2.0984
-12.3784 19.1704 2.1145
-14.1290 18.1044 2.1280
-15.7666 16.8558 2.1387
-17.2694 15.4372 2.1464
-18.6172 13.8643 2.1510
-19.7925 12.1558 2.1523
-20.7801 10.3325 2.1505
-21.5683 8.4175 2.1454
-20.2858 5.8939 1.9575
-20.5429 4.0238 1.9398
-20.5055 2.1421 1.9105
-13.0460 0.1924 1.2090
-19.9084 -1.4877 1.8499
-19.4940 -3.2245 1.8309
-19.0704 -4.9358 1.8254
-18.4599 -6.5839 1.8161
-17.6955 -8.1570 1.8056
-16.7719 -9.6313 1.7922
-15.7208 -11.0017 1.7780
-14.5616 -12.2636 1.7641
-13.2703 -13.3737 1.7458
-4.4130 -5.3232 0.6407
-3.8008 -5.5219 0.6212
-8.9531 -15.8749 1.6888
-7.4378 -16.4704 1.6746
-5.8733 -16.8803 1.6562
-3.4091 -13.6065 1.2998
-3.0029 -19.0726 1.7891
-1.1559 -17.2717 1.6040
0.4058 -18.0217 1.6704
2.1550 -19.1868 1.7891
3.8582 -18.9181 1.7891
3.4763 -11.6274 1.1246
7.1524 -17.9147 1.7874
8.2185 -16.2116 1.6842
9.3603 -14.9787 1.6367
10.7114 -14.1527 1.6447
12.5756 -13.8502 1.7335
14.2024 -13.0794 1.7891
15.3127 -11.7601 1.7891
16.3008 -10.3470 1.7891
17.1589 -8.8515 1.7891
17.8802 -7.2853 1.7891
18.4589 -5.6609 1.7891
18.8904 -3.9915 1.7891
19.1711 -2.2903 1.7891
19.3152 -0.5713 1.7906
19.3113 1.1556 1.7927
19.1565 2.8777 1.7950
18.8512 4.5821 1.7977
18.3972 6.2559 1.8006
17.7972 7.8862 1.8038
17.0550 9.4606 1.8072
16.1753 10.9664 1.8109
15.1643 12.3919 1.8147
14.0306 13.7270 1.8189
12.4648 14.5902 1.7782
10.9418 15.4026 1.7507
9.5126 16.2979 1.7487
8.0743 17.1958 1.7603
6.6038 18.1108 1.7863
5.0763 19.0581 1.8276
3.4631 20.0568 1.8860
1.7259 21.0927 1.9611
-0.1647 21.4069 1.9837
-2.0968 21.5418 2.0056
-4.0578 21.5205 2.0293
-6.0288 21.3102 2.0522
-7.9876 20.9009 2.0734
-9.9113 20.2909 2.0926
-11.7766 19.4820 2.1095
-13.5596 18.4788 2.1239
-15.2372 17.2896 2.1355
-16.7870 15.9258 2.1442
-18.1884 14.4021 2.1498
-19.4227 12.7363 2.1522
-20.4741 10.9487 2.1514
-21.3295 9.0615 2.1474
-20.1309 6.5017 1.9603
-18.0029 4.0836 1.7106
-20.5381 2.7629 1.9203
-20.3810 0.9052 1.8904
-12.9369 -0.5819 1.2000
-19.6001 -2.6480 1.8327
-19.2298 -4.3734 1.8274
-18.6784 -6.0443 1.8192
-17.9656 -7.6444 1.8092
-17.0947 -9.1540 1.7969
-16.0820 -10.5587 1.7827
-14.9574 -11.8575 1.7687
-13.7166 -13.0277 1.7529
-12.3461 -14.0250 1.7314
-3.9867 -5.4395 0.6249
-2.9714 -4.9219 0.5327
-7.9446 -16.2880 1.6793
-2.0660 -5.4152 0.5371
-3.7775 -13.3815 1.2884
-3.2634 -17.3614 1.6369
-1.8596 -19.2177 1.7891
-0.1376 -19.3070 1.7891
1.5854 -19.2423 1.7891
3.2959 -19.0241 1.7891
3.2171 -12.0506 1.1558
6.6245 -18.1355 1.7891
7.8788 -16.7549 1.7157
8.9275 -15.2755 1.6395
10.2372 -14.3935 1.6367
11.8718 -13.8802 1.6925
13.8086 -13.4945 1.7891
14.9575 -12.2087 1.7891
15.9870 -10.8256 1.7891
16.8891 -9.3560 1.7891
17.6565 -7.8119 1.7891
18.2829 -6.2058 1.7891
18.7638 -4.5496 1.7891
19.0943 -2.8583 1.7891
19.2833 -1.1430 1.7900
19.3294 0.5827 1.7919
19.2246 2.3077 1.7942
18.9691 4.0194 1.7968
18.5642 5.7048 1.7996
18.0122 7.3510 1.8027
17.3167 8.9453 1.8061
16.4820 10.4752 1.8096
15.5139 11.9286 1.8134
14.4188 13.2938 1.8173
13.0872 14.4301 1.8052
11.4178 15.1038 1.7545
9.9867 16.0013 1.7478
8.5538 16.8968 1.7549
7.0967 17.8045 1.7761
5.5910 18.7392 1.8121
4.0099 19.7186 1.8646
2.3201 20.7626 1.9359
0.4680 21.3221 1.9763
-1.4523 21.5174 1.9984
-3.4049 21.5470 2.0214
-5.3751 21.4019 2.0448
-7.3117 20.9762 2.0584
-9.2785 20.5155 2.0864
-11.1658 19.7722 2.1041
-12.9786 18.8327 2.1194
-14.6937 17.7041 2.1320
-16.2884 16.3967 2.1416
-17.7411 14.9243 2.1483
-19.0327 13.3036 2.1518
-20.1464 11.5539 2.1521
-21.0681 9.6972 2.1491
-20.1168 7.1621 1.9787
-18.0183 4.6526 1.7244
-20.5507 3.3874 1.9300
-20.4525 1.5168 1.9004
-12.8536 -0.1969 1.1912
-19.7443 -2.0738 1.8396
-19.3694 -3.8052 1.8291
-18.8814 -5.4974 1.8223
-18.2205 -7.1228 1.8128
-17.4041 -8.6661 1.8016
-16.4309 -10.1041 1.7874
-15.3422 -11.4389 1.7733
-14.1492 -12.6625 1.7595
-12.8089 -13.7093 1.7385
-4.1927 -5.3787 0.6319
-3.1555 -4.8930 0.5395
-8.4476 -16.0906 1.6840
-2.2216 -5.3421 0.5361
-5.3181 -16.9058 1.6422
-3.7794 -17.2708 1.6382
-2.4283 -19.1542 1.7891
-0.6349 -17.2625 1.6007
1.0146 -19.2808 1.7891
2.7307 -19.1134 1.7891
2.9428 -12.4985 1.1898
3.8613 -11.6294 1.1355
7.5257 -17.3189 1.7498
8.5591 -15.6952 1.6566
9.8063 -14.6906 1.6367
11.2702 -13.9961 1.6651
13.4026 -13.8978 1.7891
14.5891 -12.6466 1.7891
15.6593 -11.2945 1.7891
16.6045 -9.8524 1.7891
17.4173 -8.3317 1.7891
18.0911 -6.7446 1.7891
18.6205 -5.1041 1.7891
19.0018 -3.4219 1.7891
19.2347 -1.7134 1.7894
19.3308 0.0096 1.7913
19.2761 1.7363 1.7934
19.0705 3.4539 1.7959
18.7149 5.1494 1.7986
18.2115 6.8100 1.8017
17.5631 8.4229 1.8049
16.7740 9.9755 1.8084
15.8494 11.4557 1.8121
14.7957 12.8513 1.8160
13.6464 14.1785 1.8235
11.9096 14.8201 1.7618
10.4605 15.7044 1.7485
9.0307 16.5991 1.7510
7.5842 17.5011 1.7674
6.0975 18.4251 1.7984
