ply
format ascii 1.0
element vertex 2176
property float32 x
property float32 y
property float32 z
end_header
5.0747 0.3342 0.8860
10.0659 1.5748 1.7749
9.8706 2.4638 1.7723
9.5931 3.3291 1.7690
9.2365 4.1630 1.7650
8.8045 4.9581 1.7603
8.3017 5.7074 1.7551
7.7331 6.4047 1.7493
7.1047 7.0443 1.7430
6.4223 7.6211 1.7362
4.9545 7.0764 1.5049
1.0438 1.8172 0.3651
0.8773 1.9029 0.3650
0.7038 1.9735 0.3650
0.5247 2.0283 0.3650
0.3415 2.0670 0.3650
0.1555 2.0892 0.3650
-0.0317 2.0947 0.3650
-0.2186 2.0836 0.3650
-0.4038 2.0559 0.3650
-0.5859 2.0117 0.3650
-0.7632 1.9516 0.3651
-0.9346 1.8758 0.3651
-5.5943 9.0910 1.8596
-6.2128 8.3259 1.8098
-6.5401 7.3009 1.7076
-7.1730 6.6943 1.7093
-7.7492 6.0324 1.7108
-8.2635 5.3206 1.7122
-8.4177 4.4105 1.6556
-9.0800 3.7664 1.7125
-9.3801 2.9405 1.7125
-9.6052 2.0911 1.7125
-9.7536 1.2250 1.7125
-9.8240 0.3491 1.7125
-9.8160 -0.5296 1.7125
-9.7294 -1.4041 1.7125
-9.5652 -2.2673 1.7125
-9.3245 -3.1124 1.7125
-9.0093 -3.9327 1.7125
-8.4903 -4.6493 1.6863
-8.1626 -5.4703 1.7118
-7.6329 -6.1704 1.7099
-7.0424 -6.8187 1.7077
-6.9751 -8.0803 1.8596
-6.2326 -8.6807 1.8617
-1.0710 -1.8142 0.3670
-0.9048 -1.9028 0.3671
-0.7313 -1.9762 0.3671
-0.5520 -2.0337 0.3671
-0.3681 -2.0750 0.3671
-0.1814 -2.0996 0.3671
0.0069 -2.1074 0.3671
0.1950 -2.0984 0.3671
0.3816 -2.0725 0.3671
0.5651 -2.0299 0.3671
0.7441 -1.9712 0.3671
0.9170 -1.8966 0.3670
1.0826 -1.8069 0.3670
5.8990 -8.1043 1.7463
6.6290 -7.5792 1.7542
7.3009 -6.9776 1.7593
7.9105 -6.3102 1.7628
8.4631 -5.5923 1.7672
8.9472 -4.8242 1.7708
9.3578 -4.0126 1.7738
9.6909 -3.1648 1.7760
9.9429 -2.2886 1.7775
4.5718 -0.6294 0.8040
4.5547 -0.2160 0.7944
4.9063 0.2063 0.8555
10.1037 1.3358 1.7755
9.9306 2.2297 1.7731
9.6746 3.1021 1.7699
9.3386 3.9451 1.7661
8.9263 4.7512 1.7616
8.4418 5.5133 1.7565
7.8902 6.2250 1.7508
7.2770 6.8804 1.7447
6.6084 7.4743 1.7381
5.4082 7.3468 1.5893
1.0867 1.7919 0.3651
0.9222 1.8816 0.3651
0.7505 1.9563 0.3650
0.5727 2.0153 0.3650
0.3904 2.0583 0.3650
0.2051 2.0849 0.3650
0.0181 2.0949 0.3650
-0.1691 2.0882 0.3650
-0.3549 2.0648 0.3650
-0.5379 2.0250 0.3650
-0.7167 1.9691 0.3650
-0.8898 1.8974 0.3651
-1.0558 1.8106 0.3651
-6.1789 8.7042 1.8596
-6.3635 7.4524 1.7072
-7.0103 6.8609 1.7088
-7.6020 6.2132 1.7104
-8.1333 5.5141 1.7118
-8.4148 4.6668 1.6763
-8.9881 3.9809 1.7125
-9.3077 3.1624 1.7125
-9.5529 2.3186 1.7125
-9.7218 1.4562 1.7125
-9.8130 0.5822 1.7125
-9.8258 -0.2964 1.7125
-9.7600 -1.1727 1.7125
-9.6163 -2.0396 1.7125
-9.3958 -2.8902 1.7125
-9.1001 -3.7177 1.7125
-8.7318 -4.5155 1.7125
-8.2922 -5.2763 1.7122
-7.7797 -5.9894 1.7104
-7.2048 -6.6519 1.7083
-7.1649 -7.9125 1.8596
-6.4343 -8.5269 1.8609
-5.6591 -9.0867 1.8649
-0.9497 -1.8808 0.3670
-0.7780 -1.9582 0.3671
-0.6001 -2.0200 0.3671
-0.4173 -2.0657 0.3671
-0.2312 -2.0947 0.3671
-0.0432 -2.1070 0.3671
0.1452 -2.1024 0.3671
0.3323 -2.0810 0.3671
0.5168 -2.0428 0.3671
0.6971 -1.9883 0.3671
0.8718 -1.9179 0.3670
1.0394 -1.8322 0.3670
5.6964 -8.2297 1.7436
6.4391 -7.7247 1.7519
7.1347 -7.1504 1.7597
7.7530 -6.4916 1.7616
8.3229 -5.7881 1.7661
8.8257 -5.0326 1.7699
9.2562 -4.2318 1.7731
9.6102 -3.3930 1.7755
9.8840 -2.5235 1.7771
4.6019 -0.7453 0.8121
4.5503 -0.3242 0.7947
4.8490 0.0887 0.8449
10.1355 1.0959 1.7760
9.9847 1.9942 1.7738
9.7505 2.8731 1.7708
9.4354 3.7246 1.7672
9.0430 4.5412 1.7629
8.5772 5.3156 1.7579
8.0429 6.0413 1.7524
7.4455 6.7122 1.7464
6.7909 7.3229 1.7399
5.3366 6.9002 1.5197
5.3315 8.3383 1.7242
0.9667 1.8592 0.3651
0.7967 1.9380 0.3650
0.6204 2.0012 0.3650
0.4392 2.0485 0.3650
0.2545 2.0795 0.3650
0.0678 2.0939 0.3650
-0.1195 2.0916 0.3650
-0.3058 2.0726 0.3650
-0.4897 2.0372 0.3650
-0.6697 1.9855 0.3650
-0.8444 1.9180 0.3651
-1.0125 1.8351 0.3651
-5.9706 8.8484 1.8596
-6.2306 7.6576 1.7198
-6.8437 7.0236 1.7084
-7.4506 6.3904 1.7100
-7.9984 5.7044 1.7115
-8.4811 4.9704 1.7125
-8.6487 4.0789 1.6658
-9.2300 3.3824 1.7125
-9.4952 2.5447 1.7125
-9.6845 1.6866 1.7125
-9.7964 0.8150 1.7125
-9.8300 -0.0631 1.7125
-9.7851 -0.9407 1.7125
-9.6620 -1.8108 1.7125
-9.4617 -2.6664 1.7125
-9.1858 -3.5006 1.7125
-8.8365 -4.3070 1.7125
-8.3714 -5.0516 1.7033
-7.9221 -5.8048 1.7109
-7.3631 -6.4812 1.7089
-6.8566 -7.2199 1.7346
-6.6327 -8.3690 1.8603
-5.8690 -8.9433 1.8636
-0.9940 -1.8576 0.3670
-0.8242 -1.9392 0.3671
-0.6478 -2.0052 0.3671
-0.4662 -2.0552 0.3671
-0.2808 -2.0886 0.3671
-0.0932 -2.1054 0.3671
0.0952 -2.1053 0.3671
0.2828 -2.0883 0.3671
0.4682 -2.0546 0.3671
0.6497 -2.0044 0.3671
0.8260 -1.9382 0.3670
0.9957 -1.8564 0.3670
5.4933 -8.3532 1.7417
6.2448 -7.8639 1.7494
6.9606 -7.3153 1.7591
7.5911 -6.6689 1.7603
8.1779 -5.9802 1.7650
8.6990 -5.2379 1.7690
9.1492 -4.4485 1.7723
9.5239 -3.6190 1.7749
9.8193 -2.7569 1.7768
4.6655 -0.8697 0.8268
4.5456 -0.4325 0.7955
4.7829 -0.0261 0.8332
10.1613 0.8552 1.7765
10.0330 1.7572 1.7745
9.8207 2.6421 1.7717
9.5268 3.5016 1.7682
9.1545 4.3282 1.7641
8.7077 5.1145 1.7593
8.1911 5.8538 1.7539
7.6099 6.5398 1.7480
6.9699 7.1669 1.7416
5.5221 6.8003 1.5261
4.8629 7.2218 1.5168
1.0106 1.8358 0.3651
0.8425 1.9185 0.3650
0.6677 1.9859 0.3650
0.4877 2.0375 0.3650
0.3038 2.0729 0.3650
0.1175 2.0917 0.3650
-0.0698 2.0938 0.3650
-0.2565 2.0793 0.3650
-0.4412 2.0482 0.3650
-0.6224 2.0008 0.3650
-0.7987 1.9374 0.3651
-0.9686 1.8586 0.3651
-5.7589 8.9877 1.8596
-6.2199 8.0264 1.7690
-6.6733 7.1821 1.7079
-7.2951 6.5639 1.7096
-7.8590 5.8914 1.7111
-8.3603 5.1701 1.7124
-8.4239 4.2201 1.6414
-9.1471 3.6006 1.7125
-9.4321 2.7693 1.7125
-9.6417 1.9160 1.7125
-9.7743 1.0473 1.7125
-9.8288 0.1703 1.7125
-9.8047 -0.7081 1.7125
-9.7023 -1.5809 1.7125
-9.5223 -2.4410 1.7125
-9.2663 -3.2816 1.7125
-8.9363 -4.0960 1.7125
-8.3966 -4.7987 1.6848
-8.0600 -5.6167 1.7114
-7.5174 -6.3067 1.7095
-6.9153 -6.9439 1.7073
-6.8276 -8.2069 1.8598
-6.0761 -8.7964 1.8625
-1.0378 -1.8335 0.3670
-0.8700 -1.9190 0.3671
-0.6952 -1.9892 0.3671
-0.5148 -2.0435 0.3671
-0.3303 -2.0814 0.3671
-0.1431 -2.1026 0.3671
0.0452 -2.1070 0.3671
0.2332 -2.0944 0.3671
0.4193 -2.0651 0.3671
0.6020 -2.0193 0.3671
0.7798 -1.9573 0.3670
0.9514 -1.8796 0.3670
5.2880 -8.4726 1.7399
6.0500 -8.0015 1.7475
6.7741 -7.4665 1.7563
7.4250 -6.8420 1.7590
8.0283 -6.1685 1.7638
8.5674 -5.4398 1.7680
9.0369 -4.6622 1.7715
9.4320 -3.8427 1.7743
9.7488 -2.9885 1.7764
4.7894 -1.0110 0.8527
4.5472 -0.5419 0.7978
4.7417 -0.1385 0.8264
4.9520 0.2986 0.8643
10.0753 1.5191 1.7751
9.8851 2.4093 1.7725
9.6126 3.2763 1.7692
9.2608 4.1124 1.7652
8.8333 4.9101 1.7606
8.3348 5.6625 1.7554
7.7702 6.3631 1.7496
7.1452 7.0064 1.7434
6.4660 7.5873 1.7367
5.0250 7.0931 1.5144
1.0539 1.8114 0.3651
0.8878 1.8980 0.3650
0.7147 1.9696 0.3650
0.5359 2.0254 0.3650
0.3529 2.0651 0.3650
0.1671 2.0883 0.3650
-0.0201 2.0949 0.3650
-0.2071 2.0848 0.3650
-0.3924 2.0581 0.3650
-0.5747 2.0149 0.3650
-0.7524 1.9558 0.3651
-0.9242 1.8810 0.3651
-5.5439 9.1218 1.8596
-6.2105 8.4197 1.8227
-6.4991 7.3365 1.7075
-7.1354 6.7335 1.7092
-7.7152 6.0749 1.7107
-8.2336 5.3660 1.7121
-8.4164 4.4694 1.6601
-9.0590 3.8167 1.7125
-9.3637 2.9924 1.7125
-9.5935 2.1443 1.7125
-9.7467 1.2790 1.7125
-9.8219 0.4035 1.7125
-9.8187 -0.4752 1.7125
-9.7371 -1.3501 1.7125
-9.5776 -2.2143 1.7125
-9.3416 -3.0608 1.7125
-9.0310 -3.8827 1.7125
-8.6211 -4.6590 1.7072
-8.1933 -5.4253 1.7119
-7.6675 -6.1285 1.7100
-7.0807 -6.7802 1.7079
-7.0197 -8.0416 1.8596
-6.2801 -8.6454 1.8615
-1.0810 -1.8082 0.3670
-0.9153 -1.8978 0.3671
-0.7422 -1.9721 0.3671
-0.5632 -2.0307 0.3671
-0.3796 -2.0729 0.3671
-0.1930 -2.0986 0.3671
-0.0048 -2.1075 0.3671
0.1834 -2.0994 0.3671
0.3701 -2.0745 0.3671
0.5539 -2.0331 0.3671
0.7331 -1.9753 0.3671
0.9065 -1.9017 0.3670
1.0726 -1.8129 0.3670
5.8526 -8.1348 1.7458
6.5844 -7.6129 1.7535
7.2625 -7.0183 1.7594
7.8742 -6.3529 1.7626
8.4308 -5.6383 1.7669
8.9193 -4.8731 1.7706
9.3346 -4.0639 1.7736
9.6726 -3.2182 1.7759
9.9297 -2.3435 1.7774
4.5788 -0.6562 0.8058
4.5537 -0.2413 0.7944
4.9074 0.1791 0.8555
10.1117 1.2799 1.7756
9.9437 2.1749 1.7733
9.6928 3.0489 1.7702
9.3617 3.8939 1.7664
8.9539 4.7025 1.7619
8.4738 5.4675 1.7568
7.9262 6.1825 1.7512
7.3167 6.8416 1.7451
6.6513 7.4394 1.7385
5.4589 7.3303 1.5922
1.0966 1.7859 0.3651
0.9327 1.8765 0.3651
0.7613 1.9521 0.3650
0.5839 2.0121 0.3650
0.4018 2.0561 0.3650
0.2166 2.0837 0.3650
0.0297 2.0948 0.3650
-0.1575 2.0891 0.3650
-0.3435 2.0668 0.3650
-0.5267 2.0280 0.3650
-0.7058 1.9730 0.3650
-0.8792 1.9023 0.3651
-1.0457 1.8164 0.3651
-6.1307 8.7383 1.8596
-6.3221 7.4875 1.7072
-6.9718 6.8992 1.7087
-7.5671 6.2549 1.7103
-8.1022 5.5588 1.7118
-8.4195 4.7306 1.6824
-8.9659 4.0306 1.7125
-9.2900 3.2139 1.7125
-9.5399 2.3714 1.7125
-9.7136 1.5100 1.7125
-9.8096 0.6366 1.7125
-9.8272 -0.2420 1.7125
-9.7664 -1.1186 1.7125
-9.6275 -1.9863 1.7125
-9.4116 -2.8381 1.7125
-9.1206 -3.6673 1.7125
-8.7567 -4.4671 1.7125
-8.3218 -5.2306 1.7123
-7.8133 -5.9467 1.7105
-7.2421 -6.6125 1.7084
-7.2086 -7.8727 1.8596
-6.4810 -8.4906 1.8608
-5.7072 -9.0518 1.8642
-0.9601 -1.8755 0.3670
-0.7888 -1.9539 0.3671
-0.6112 -2.0167 0.3671
-0.4287 -2.0633 0.3671
-0.2428 -2.0934 0.3671
-0.0548 -2.1068 0.3671
0.1335 -2.1032 0.3671
0.3208 -2.0828 0.3671
0.5055 -2.0457 0.3671
0.6861 -1.9922 0.3671
0.8611 -1.9228 0.3670
1.0293 -1.8379 0.3670
5.6486 -8.2579 1.7430
6.3942 -7.7579 1.7514
7.0953 -7.1902 1.7598
7.7156 -6.5333 1.7613
8.2895 -5.8332 1.7658
8.7966 -5.0808 1.7697
9.2318 -4.2826 1.7729
9.5906 -3.4459 1.7754
9.8695 -2.5781 1.7771
4.6090 -0.7726 0.8141
4.5492 -0.3495 0.7949
4.8236 0.0615 0.8404
10.1421 1.0398 1.7761
9.9965 1.9390 1.7740
9.7674 2.8194 1.7710
9.4573 3.6728 1.7674
9.0694 4.4918 1.7632
8.6081 5.2690 1.7582
8.0778 5.9979 1.7528
7.4842 6.6723 1.7467
6.8330 7.2869 1.7403
5.3566 6.8475 1.5146
5.3810 8.3140 1.7253
0.9770 1.8539 0.3651
0.8074 1.9335 0.3650
0.6315 1.9977 0.3650
0.4505 2.0460 0.3650
0.2660 2.0780 0.3650
0.0794 2.0935 0.3650
-0.1079 2.0922 0.3650
-0.2943 2.0743 0.3650
-0.4784 2.0399 0.3650
-0.6587 1.9892 0.3650
-0.8338 1.9226 0.3651
-1.0023 1.8407 0.3651
-5.9215 8.8814 1.8596
-6.2266 7.7399 1.7305
-6.8043 7.0610 1.7083
-7.4147 6.4312 1.7099
-7.9663 5.7484 1.7114
-8.4534 5.0173 1.7125
-8.5332 4.0823 1.6479
-9.2111 3.4335 1.7125
-9.4809 2.5972 1.7125
-9.6750 1.7402 1.7125
-9.7917 0.8692 1.7125
-9.8302 -0.0087 1.7125
-9.7902 -0.8865 1.7125
-9.6719 -1.7572 1.7125
-9.4763 -2.6139 1.7125
-9.2050 -3.4497 1.7125
-8.8602 -4.2580 1.7125
-8.3774 -4.9921 1.6989
-7.9546 -5.7613 1.7111
-7.3995 -6.4409 1.7090
-6.7875 -7.0684 1.7072
-6.6785 -8.3316 1.8602
-5.9172 -8.9088 1.8632
-1.0043 -1.8521 0.3670
-0.8350 -1.9346 0.3671
-0.6589 -2.0016 0.3671
-0.4776 -2.0525 0.3671
-0.2924 -2.0871 0.3671
-0.1048 -2.1049 0.3671
0.0835 -2.1058 0.3671
0.2713 -2.0898 0.3671
0.4568 -2.0571 0.3671
0.6386 -2.0080 0.3671
0.8153 -1.9427 0.3670
0.9854 -1.8619 0.3670
5.4457 -8.3815 1.7413
6.1989 -7.8955 1.7488
6.9173 -7.3509 1.7584
7.5527 -6.7097 1.7600
8.1434 -6.0244 1.7647
8.6688 -5.2853 1.7687
9.1235 -4.4986 1.7721
9.5030 -3.6714 1.7748
9.8034 -2.8111 1.7767
4.6937 -0.9019 0.8327
4.5442 -0.4578 0.7957
4.7732 -0.0525 0.8316
10.1665 0.7990 1.7766
10.0434 1.7018 1.7746
9.8362 2.5879 1.7719
9.5473 3.4493 1.7685
9.1798 4.2781 1.7644
8.7375 5.0671 1.7596
8.2250 5.8095 1.7543
7.6477 6.4989 1.7484
7.0111 7.1299 1.7420
6.3217 7.6974 1.7353
4.8685 7.1445 1.5061
1.0207 1.8302 0.3651
0.8531 1.9139 0.3650
0.6787 1.9822 0.3650
0.4990 2.0348 0.3650
0.3153 2.0711 0.3650
0.1290 2.0910 0.3650
-0.0582 2.0942 0.3650
-0.2450 2.0807 0.3650
-0.4298 2.0506 0.3650
-0.6113 2.0042 0.3650
-0.7879 1.9418 0.3651
-0.9583 1.8639 0.3651
-5.7090 9.0194 1.8596
-6.2178 8.1161 1.7811
-6.6330 7.2185 1.7078
-7.2582 6.6038 1.7095
-7.8259 5.9345 1.7110
-8.3311 5.2160 1.7124
-8.4210 4.2772 1.6454
-9.1270 3.6512 1.7125
-9.4166 2.8215 1.7125
-9.6309 1.9693 1.7125
-9.7683 1.1014 1.7125
-9.8277 0.2247 1.7125
-9.8085 -0.6538 1.7125
-9.7109 -1.5271 1.7125
-9.5357 -2.3882 1.7125
-9.2844 -3.2302 1.7125
-8.9588 -4.0465 1.7125
-8.4024 -4.7404 1.6807
-8.0915 -5.5724 1.7116
-7.5528 -6.2655 1.7096
-6.9542 -6.9061 1.7074
-6.8726 -8.1686 1.8597
-6.1242 -8.7618 1.8623
-1.0479 -1.8277 0.3670
-0.8806 -1.9142 0.3671
-0.7062 -1.9853 0.3671
-0.5262 -2.0406 0.3671
-0.3418 -2.0795 0.3671
-0.1548 -2.1018 0.3671
0.0335 -2.1072 0.3671
0.2216 -2.0957 0.3671
0.4078 -2.0674 0.3671
0.5908 -2.0226 0.3671
0.7690 -1.9616 0.3670
0.9409 -1.8848 0.3670
5.2396 -8.4994 1.7394
6.0042 -8.0331 1.7472
6.7302 -7.5011 1.7557
7.3878 -6.8838 1.7592
7.9927 -6.2119 1.7635
8.5360 -5.4864 1.7677
9.0099 -4.7117 1.7713
9.4098 -3.8945 1.7741
9.7316 -3.0423 1.7763
4.7991 -1.0408 0.8555
4.5557 -0.5685 0.7998
4.7322 -0.1644 0.8249
4.9033 0.2684 0.8555
10.0843 1.4634 1.7752
9.8993 2.3548 1.7727
9.6318 3.2235 1.7694
9.2848 4.0617 1.7655
8.8619 4.8619 1.7609
9.3741 2.8187 1.7675
9.0666 3.6372 1.7639
8.6849 4.4218 1.7597
8.2328 5.1656 1.7549
7.7151 5.8622 1.7496
7.1368 6.5060 1.7438
6.5038 7.0917 1.7375
5.8252 7.6189 1.7317
1.0799 1.7097 0.3651
0.9228 1.7991 0.3651
0.7584 1.8742 0.3651
0.5879 1.9343 0.3650
0.4128 1.9789 0.3650
0.2344 2.0078 0.3650
0.0542 2.0207 0.3650
-0.1265 2.0175 0.3650
-0.3061 1.9983 0.3650
-0.4834 1.9631 0.3650
-0.6568 1.9122 0.3651
-0.8250 1.8461 0.3651
-0.9867 1.7653 0.3652
-5.8077 8.5050 1.8596
-6.2195 7.5581 1.7674
-6.6382 6.7376 1.7078
-7.2199 6.1235 1.7094
-7.7442 5.4587 1.7108
-8.2067 4.7487 1.7120
-8.6004 3.9980 1.7125
-8.9231 3.2140 1.7125
-9.1745 2.4044 1.7125
-9.3525 1.5754 1.7125
-9.4559 0.7340 1.7125
-9.4836 -0.1134 1.7125
-9.4356 -0.9599 1.7125
-9.3122 -1.7986 1.7125
-9.1144 -2.6230 1.7125
-8.8437 -3.4265 1.7125
-8.5024 -4.2025 1.7125
-8.0895 -4.9428 1.7118
-7.6091 -5.6405 1.7103
-7.0671 -6.2905 1.7084
-6.9592 -7.4097 1.8355
-6.3536 -8.1087 1.8601
-5.6119 -8.6557 1.8627
-0.9490 -1.7974 0.3670
-0.7848 -1.8751 0.3670
-0.6143 -1.9379 0.3671
-0.4388 -1.9851 0.3671
-0.2597 -2.0164 0.3671
-0.0786 -2.0316 0.3671
0.1031 -2.0304 0.3671
0.2840 -2.0131 0.3671
0.4626 -1.9795 0.3671
0.6375 -1.9302 0.3670
0.8072 -1.8653 0.3670
0.9704 -1.7856 0.3669
5.3323 -8.0115 1.7377
6.0535 -7.5369 1.7455
6.7404 -7.0058 1.7554
7.3508 -6.3860 1.7582
7.9100 -5.7173 1.7623
8.4071 -4.9989 1.7661
8.8357 -4.2357 1.7693
9.1915 -3.4345 1.7717
9.4708 -2.6025 1.7735
4.6076 -0.8325 0.8454
4.5291 -0.4057 0.8211
4.7379 0.0004 0.8555
9.7799 0.8777 1.7730
9.6516 1.7456 1.7710
9.4428 2.5966 1.7683
9.1557 3.4229 1.7649
8.7933 4.2172 1.7609
8.3595 4.9725 1.7563
7.8587 5.6822 1.7511
7.2959 6.3405 1.7454
6.6769 6.9421 1.7392
5.4319 6.7654 1.5666
5.2853 7.9437 1.7228
0.9653 1.7768 0.3651
0.8027 1.8557 0.3651
0.6337 1.9198 0.3650
0.4597 1.9686 0.3650
0.2820 2.0017 0.3650
0.1022 2.0189 0.3650
-0.0785 2.0200 0.3650
-0.2586 2.0049 0.3650
-0.4367 1.9739 0.3650
-0.6112 1.9272 0.3651
-0.7810 1.8651 0.3651
-0.9445 1.7881 0.3651
-5.6042 8.6405 1.8596
-6.2107 7.9235 1.8178
-6.4747 6.8915 1.7074
-7.0709 6.2916 1.7090
-7.6109 5.6398 1.7104
-8.0902 4.9413 1.7117
-8.4180 4.1590 1.6954
-8.8443 3.4249 1.7125
-9.1148 2.6215 1.7125
-9.3125 1.7970 1.7125
-9.4358 0.9582 1.7125
-9.4837 0.1117 1.7125
-9.4557 -0.7356 1.7125
-9.3523 -1.5771 1.7125
-9.1741 -2.4060 1.7125
-8.9226 -3.2156 1.7125
-8.5998 -3.9995 1.7125
-8.2060 -4.7503 1.7121
-7.7429 -5.4598 1.7107
-7.2167 -6.1229 1.7089
-6.6345 -6.7362 1.7072
-6.5434 -7.9545 1.8598
-5.8133 -8.5163 1.8618
-0.9914 -1.7743 0.3670
-0.8291 -1.8559 0.3670
-0.6601 -1.9227 0.3671
-0.4858 -1.9741 0.3671
-0.3075 -2.0097 0.3671
-0.1268 -2.0291 0.3671
0.0549 -2.0323 0.3671
0.2361 -2.0193 0.3671
0.4155 -1.9900 0.3671
0.5915 -1.9448 0.3670
0.7627 -1.8840 0.3670
0.9278 -1.8082 0.3670
5.1338 -8.1249 1.7354
5.8655 -7.6688 1.7433
6.5613 -7.1519 1.7525
7.1986 -6.5601 1.7586
7.7671 -5.8997 1.7612
8.2816 -5.1942 1.7652
8.7289 -4.4423 1.7685
9.1043 -3.6505 1.7711
9.4042 -2.8260 1.7731
4.7201 -0.9691 0.8701
4.5225 -0.5136 0.8219
4.7412 -0.1122 0.8563
4.9762 0.3277 0.9005
9.6936 1.5165 1.7716
9.5060 2.3727 1.7691
9.2394 3.2064 1.7659
8.8966 4.0098 1.7620
8.4814 4.7761 1.7576
7.9979 5.4986 1.7525
7.4511 6.1711 1.7469
6.8464 6.7882 1.7409
6.1897 7.3451 1.7344
4.9387 7.0538 1.5548
1.0072 1.7534 0.3651
0.8465 1.8361 0.3651
0.6791 1.9042 0.3650
0.5063 1.9571 0.3650
0.3295 1.9945 0.3650
0.1501 2.0159 0.3650
-0.0306 2.0212 0.3650
-0.2110 2.0105 0.3650
-0.3897 1.9837 0.3650
-0.5653 1.9411 0.3651
-0.7365 1.8831 0.3651
-0.9018 1.8100 0.3651
-1.0600 1.7225 0.3652
-6.1592 8.2540 1.8596
-6.3085 7.0424 1.7072
-6.9179 6.4562 1.7086
-7.4733 5.8176 1.7101
-7.9691 5.1310 1.7114
-8.4010 4.4017 1.7125
-8.7605 3.6339 1.7125
-9.0500 2.8371 1.7125
-9.2672 2.0175 1.7125
-9.4104 1.1819 1.7125
-9.4783 0.3368 1.7125
-9.4705 -0.5109 1.7125
-9.3871 -1.3546 1.7125
-9.2286 -2.1875 1.7125
-8.9964 -3.0029 1.7125
-8.6923 -3.7943 1.7125
-8.3179 -4.5549 1.7124
-7.8722 -5.2757 1.7111
-7.3622 -5.9516 1.7094
-6.7933 -6.5775 1.7074
-6.7296 -7.7960 1.8596
-6.0115 -8.3728 1.8611
-1.0332 -1.7502 0.3670
-0.8729 -1.8357 0.3670
-0.7055 -1.9065 0.3671
-0.5325 -1.9620 0.3671
-0.3552 -2.0018 0.3671
-0.1750 -2.0255 0.3671
0.0066 -2.0331 0.3671
0.1881 -2.0243 0.3671
0.3681 -1.9993 0.3671
0.5452 -1.9583 0.3670
0.7178 -1.9016 0.3670
0.8847 -1.8297 0.3670
1.0444 -1.7432 0.3669
5.6766 -7.7987 1.7417
6.3797 -7.2943 1.7498
7.0423 -6.7305 1.7589
7.6198 -6.0783 1.7600
8.1514 -5.3863 1.7642
8.6170 -4.6461 1.7677
9.0119 -3.8642 1.7705
9.3322 -3.0477 1.7726
9.5746 -2.2038 1.7740
4.5525 -0.6268 0.8298
4.5371 -0.2152 0.8202
4.7943 0.2016 0.8664
9.7299 1.2864 1.7722
9.5636 2.1473 1.7698
9.3177 2.9877 1.7668
8.9949 3.7999 1.7631
8.5985 4.5767 1.7588
8.1326 5.3114 1.7539
7.6021 5.9977 1.7484
7.0122 6.6301 1.7425
6.3688 7.2034 1.7361
5.4146 7.3555 1.6492
1.0486 1.7290 0.3651
0.8899 1.8156 0.3651
0.7241 1.8876 0.3651
0.5526 1.9446 0.3650
0.3767 1.9861 0.3650
0.1979 2.0118 0.3650
0.0174 2.0214 0.3650
-0.1632 2.0149 0.3650
-0.3425 1.9924 0.3650
-0.5191 1.9540 0.3651
-0.6915 1.9000 0.3651
-0.8585 1.8308 0.3651
-1.0187 1.7471 0.3652
-5.9615 8.3979 1.8596
-6.2258 7.2911 1.7312
-6.7610 6.6169 1.7082
-7.3314 5.9921 1.7097
-7.8435 5.3177 1.7111
-8.2929 4.5992 1.7123
-8.6718 3.8408 1.7125
-8.9801 3.0511 1.7125
-9.2167 2.2370 1.7125
-9.3797 1.4050 1.7125
-9.4677 0.5617 1.7125
-9.4800 -0.2860 1.7125
-9.4166 -1.1314 1.7125
-9.2779 -1.9678 1.7125
-9.0651 -2.7885 1.7125
-8.7799 -3.5869 1.7125
-8.4245 -4.3566 1.7125
-7.9970 -5.0884 1.7115
-7.5036 -5.7769 1.7099
-6.9498 -6.4165 1.7079
-6.9128 -7.6341 1.8596
-6.2064 -8.2249 1.8605
-1.0744 -1.7251 0.3670
-0.9162 -1.8144 0.3670
-0.7505 -1.8891 0.3670
-0.5789 -1.9488 0.3671
-0.4026 -1.9928 0.3671
-0.2230 -2.0208 0.3671
-0.0417 -2.0327 0.3671
0.1400 -2.0282 0.3671
0.3206 -2.0075 0.3671
0.4985 -1.9708 0.3671
0.6725 -1.9182 0.3670
0.8410 -1.8503 0.3670
1.0028 -1.7676 0.3669
5.4843 -7.9232 1.7399
6.1964 -7.4336 1.7474
6.8751 -6.8902 1.7575
7.4683 -6.2532 1.7588
8.0165 -5.5750 1.7631
8.5001 -4.8469 1.7668
8.9142 -4.0755 1.7698
9.2546 -3.2674 1.7721
9.5180 -2.4301 1.7737
4.5823 -0.7421 0.8382
4.5327 -0.3230 0.8205
4.7371 0.0866 0.8555
9.7604 1.0553 1.7726
9.6156 1.9205 1.7705
9.3906 2.7670 1.7677
9.0879 3.5874 1.7642
8.7106 4.3743 1.7600
8.2628 5.1208 1.7553
7.7490 5.8206 1.7499
7.1743 6.4678 1.7441
6.5445 7.0572 1.7379
5.3211 6.8802 1.5705
1.0894 1.7037 0.3651
0.9327 1.7940 0.3651
0.7687 1.8699 0.3651
0.5986 1.9310 0.3650
0.4238 1.9766 0.3650
0.2456 2.0065 0.3650
0.0654 2.0204 0.3650
-0.1153 2.0182 0.3650
-0.2951 1.9999 0.3650
-0.4725 1.9657 0.3650
-0.6462 1.9158 0.3651
-0.8148 1.8506 0.3651
-0.9769 1.7707 0.3652
-5.7605 8.5371 1.8596
-6.2175 7.6415 1.7788
-6.6004 6.7739 1.7077
-7.1855 6.1630 1.7093
-7.7135 5.5012 1.7107
-8.1799 4.7939 1.7120
-8.5782 4.0456 1.7125
-8.9052 3.2634 1.7125
-9.1610 2.4551 1.7125
-9.3437 1.6272 1.7125
-9.4517 0.7863 1.7125
-9.4841 -0.0609 1.7125
-9.4408 -0.9076 1.7125
-9.3220 -1.7470 1.7125
-9.1288 -2.5725 1.7125
-8.8626 -3.3775 1.7125
-8.5255 -4.1554 1.7125
-8.1171 -4.8982 1.7118
-7.6407 -5.5987 1.7104
-7.1024 -6.2517 1.7085
-6.8209 -7.1823 1.7885
-6.3982 -8.0731 1.8600
-5.6594 -8.6239 1.8625
-0.9589 -1.7921 0.3670
-0.7952 -1.8708 0.3670
-0.6250 -1.9344 0.3671
-0.4497 -1.9826 0.3671
-0.2709 -2.0149 0.3671
-0.0899 -2.0311 0.3671
0.0918 -2.0310 0.3671
0.2728 -2.0146 0.3671
0.4516 -1.9821 0.3671
0.6268 -1.9337 0.3670
0.7969 -1.8698 0.3670
0.9605 -1.7909 0.3670
5.2858 -8.0377 1.7370
6.0096 -7.5678 1.7449
6.6990 -7.0404 1.7548
7.3157 -6.4269 1.7583
7.8770 -5.7601 1.7620
8.3783 -5.0447 1.7659
8.8113 -4.2841 1.7691
9.1716 -3.4851 1.7716
9.4557 -2.6548 1.7734
4.6351 -0.8640 0.8513
4.5280 -0.4309 0.8213
4.7378 -0.0258 0.8555
9.7851 0.8236 1.7731
9.6619 1.6923 1.7712
9.4580 2.5445 1.7685
9.1757 3.3726 1.7652
8.8178 4.1691 1.7612
8.3883 4.9269 1.7566
7.8915 5.6397 1.7514
7.3325 6.3014 1.7457
6.7167 6.9066 1.7396
5.5053 6.7796 1.5769
4.8291 7.1716 1.5612
0.9751 1.7714 0.3651
0.8129 1.8512 0.3651
0.6443 1.9163 0.3650
0.4706 1.9660 0.3650
0.2931 2.0001 0.3650
0.1133 2.0183 0.3650
-0.0674 2.0204 0.3650
-0.2475 2.0063 0.3650
-0.4257 1.9763 0.3650
-0.6005 1.9306 0.3651
-0.7706 1.8694 0.3651
-0.9346 1.7933 0.3651
-5.5562 8.6714 1.8596
-6.2085 8.0117 1.8302
-6.4361 6.9269 1.7073
-7.0355 6.3303 1.7089
-7.5792 5.6816 1.7104
-8.0623 4.9858 1.7117
-8.4165 4.2164 1.6998
-8.8252 3.4739 1.7125
-9.1002 2.6719 1.7125
-9.3024 1.8486 1.7125
-9.4303 1.0104 1.7125
-9.4829 0.1643 1.7125
-9.4597 -0.6832 1.7125
-9.3609 -1.5253 1.7125
-9.1873 -2.3551 1.7125
-8.9402 -3.1661 1.7125
-8.6218 -3.9518 1.7125
-8.2326 -4.7049 1.7121
-7.7735 -5.4171 1.7108
-7.2510 -6.0832 1.7090
-6.6717 -6.6993 1.7072
-6.5872 -7.9179 1.8598
-5.8600 -8.4835 1.8617
-1.0012 -1.7688 0.3670
-0.8393 -1.8513 0.3670
-0.6707 -1.9190 0.3671
-0.4967 -1.9714 0.3671
-0.3187 -2.0079 0.3671
-0.1381 -2.0284 0.3671
0.0436 -2.0326 0.3671
0.2249 -2.0205 0.3671
0.4045 -1.9923 0.3671
0.5807 -1.9480 0.3670
0.7523 -1.8882 0.3670
0.9178 -1.8133 0.3670
1.0759 -1.7238 0.3669
5.8218 -7.6996 1.7430
6.5185 -7.1847 1.7517
7.1625 -6.6001 1.7587
7.7331 -5.9417 1.7609
8.2517 -5.2393 1.7649
8.7032 -4.4901 1.7683
9.0833 -3.7006 1.7710
9.3879 -2.8779 1.7730
4.7543 -1.0036 0.8774
4.5291 -0.5398 0.8236
4.7317 -0.1382 0.8547
5.0086 0.3020 0.9060
9.7026 1.4629 1.7717
9.5199 2.3203 1.7693
9.2581 3.1555 1.7661
8.9200 3.9611 1.7623
8.5091 4.7299 1.7579
8.0297 5.4552 1.7528
7.4867 6.1310 1.7473
6.8854 6.7517 1.7413
6.2318 7.3124 1.7348
5.0027 7.0617 1.5626
1.0169 1.7478 0.3651
0.8567 1.8314 0.3651
0.6896 1.9005 0.3650
0.5171 1.9543 0.3650
0.3405 1.9926 0.3650
0.1612 2.0150 0.3650
-0.0194 2.0214 0.3650
-0.1998 2.0116 0.3650
-0.3787 1.9858 0.3650
-0.5545 1.9442 0.3651
-0.7260 1.8871 0.3651
-0.8917 1.8149 0.3651
-1.0504 1.7283 0.3652
-6.1134 8.2880 1.8596
-6.2694 7.0772 1.7072
-6.8816 6.4940 1.7085
-7.4406 5.8586 1.7100
-7.9402 5.1748 1.7113
-8.3763 4.4481 1.7125
-8.7403 3.6824 1.7125
-9.0342 2.8871 1.7125
-9.2559 2.0689 1.7125
-9.4037 1.2340 1.7125
-9.4763 0.3893 1.7125
-9.4732 -0.4585 1.7125
-9.3944 -1.3026 1.7125
-9.2406 -2.1364 1.7125
-9.0129 -2.9530 1.7125
-8.7132 -3.7461 1.7125
-8.3434 -4.5090 1.7124
-7.9018 -5.2323 1.7112
-7.3956 -5.9112 1.7095
-6.8302 -6.5403 1.7075
-6.7727 -7.7586 1.8596
-6.0574 -8.3389 1.8610
-1.0429 -1.7445 0.3670
-0.8830 -1.8308 0.3670
-0.7160 -1.9025 0.3671
-0.5433 -1.9590 0.3671
-0.3662 -1.9998 0.3671
-0.1862 -2.0245 0.3671
-0.0047 -2.0331 0.3671
0.1769 -2.0253 0.3671
0.3571 -2.0013 0.3671
0.5343 -1.9613 0.3671
0.7073 -1.9056 0.3670
0.8745 -1.8346 0.3670
1.0347 -1.7490 0.3669
5.6319 -7.8282 1.7413
6.3373 -7.3273 1.7492
7.0052 -6.7697 1.7590
7.5848 -6.1195 1.7597
8.1203 -5.4306 1.7639
8.5902 -4.6932 1.7675
8.9896 -3.9137 1.7704
9.3146 -3.0991 1.7725
9.5619 -2.2567 1.7740
4.5594 -0.6535 0.8317
4.5361 -0.2403 0.8202
4.7665 0.1740 0.8612
9.7375 1.2326 1.7723
9.5762 2.0945 1.7700
9.3352 2.9364 1.7670
9.0170 3.7505 1.7634
8.6251 4.5298 1.7591
8.1634 5.2673 1.7542
7.6368 5.9567 1.7488
7.0504 6.5926 1.7429
6.4101 7.1697 1.7366
5.4759 7.3532 1.6554
1.0581 1.7232 0.3651
0.8999 1.8106 0.3651
0.7346 1.8836 0.3651
0.5634 1.9415 0.3650
0.3877 1.9840 0.3650
0.2090 2.0106 0.3650
0.0286 2.0213 0.3650
-0.1520 2.0158 0.3650
-0.3314 1.9942 0.3650
-0.5082 1.9568 0.3651
-0.6810 1.9038 0.3651
-0.8484 1.8355 0.3651
-1.0090 1.7527 0.3652
-5.9149 8.4308 1.8596
-6.2240 7.3712 1.7420
-6.7239 6.6539 1.7081
-7.2977 6.0323 1.7096
-7.8136 5.3608 1.7110
-8.2669 4.6449 1.7122
-8.6504 3.8888 1.7125
-8.9631 3.1008 1.7125
-9.2042 2.2880 1.7125
-9.3717 1.4569 1.7125
-9.4644 0.6142 1.7125
-9.4814 -0.2335 1.7125
-9.4227 -1.0792 1.7125
-9.2887 -1.9164 1.7125
-9.0804 -2.7383 1.7125
-8.7996 -3.5382 1.7125
-8.4485 -4.3099 1.7125
-8.0254 -5.0443 1.7116
-7.5360 -5.7356 1.7100
-6.9858 -6.3784 1.7081
-6.9549 -7.5957 1.8596
-6.2516 -8.1900 1.8604
-1.0839 -1.7192 0.3670
-0.9262 -1.8093 0.3670
-0.7610 -1.8850 0.3670
-0.5897 -1.9455 0.3671
-0.4136 -1.9905 0.3671
-0.2342 -2.0195 0.3671
-0.0529 -2.0324 0.3671
0.1288 -2.0290 0.3671
0.3095 -2.0093 0.3671
0.4876 -1.9735 0.3671
0.6619 -1.9219 0.3670
0.8308 -1.8549 0.3670
0.9930 -1.7731 0.3669
5.4383 -7.9505 1.7393
6.1531 -7.4653 1.7468
6.8343 -6.9257 1.7569
7.4323 -6.2934 1.7585
7.9844 -5.6185 1.7629
8.4721 -4.8934 1.7666
8.8906 -4.1244 1.7697
9.2358 -3.3184 1.7720
9.5040 -2.4827 1.7737
4.5893 -0.7693 0.8402
4.5316 -0.3481 0.8207
4.7375 0.0604 0.8555
9.7667 1.0014 1.7728
9.6269 1.8673 1.7707
9.4068 2.7153 1.7679
9.1088 3.5375 1.7644
8.7361 4.3267 1.7603
8.2925 5.0759 1.7556
7.7826 5.7787 1.7503
7.2116 6.4293 1.7445
6.5850 7.0224 1.7383
5.3421 6.8289 1.5655
1.0988 1.6977 0.3651
0.9427 1.7888 0.3651
0.7791 1.8657 0.3651
0.6093 1.9276 0.3650
0.4347 1.9742 0.3650
0.2567 2.0051 0.3650
0.0766 2.0200 0.3650
-0.1041 2.0188 0.3650
-0.2840 2.0015 0.3650
-0.4616 1.9683 0.3650
-0.6356 1.9193 0.3651
-0.8045 1.8551 0.3651
-0.9671 1.7761 0.3652
-5.7131 8.5688 1.8596
-6.2155 7.7260 1.7905
-6.5624 6.8099 1.7076
-7.1509 6.2024 1.7092
-7.6825 5.5436 1.7106
-8.1529 4.8389 1.7119
-8.5251 4.0784 1.7064
-8.8870 3.3127 1.7125
-9.1473 2.5058 1.7125
-9.3345 1.6789 1.7125
-9.4472 0.8386 1.7125
-9.4843 -0.0083 1.7125
-9.4457 -0.8553 1.7125
-9.3316 -1.6954 1.7125
-9.1429 -2.5219 1.7125
-8.8811 -3.3283 1.7125
-8.5484 -4.1081 1.7125
-8.1445 -4.8533 1.7119
-7.6721 -5.5566 1.7105
-7.1374 -6.2128 1.7086
-6.7265 -7.0048 1.7535
-6.4426 -8.0373 1.8599
-5.7066 -8.5918 1.8624
-0.9689 -1.7867 0.3670
-0.8055 -1.8663 0.3670
-0.6357 -1.9309 0.3671
-0.4607 -1.9801 0.3671
-0.2821 -2.0134 0.3671
-0.1011 -2.0306 0.3671
0.0806 -2.0315 0.3671
0.2617 -2.0161 0.3671
0.4406 -1.9846 0.3671
0.6161 -1.9371 0.3670
0.7865 -1.8742 0.3670
0.9506 -1.7962 0.3670
5.2391 -8.0635 1.7363
5.9656 -7.5984 1.7443
6.6574 -7.0747 1.7541
7.2803 -6.4677 1.7584
7.8439 -5.8028 1.7618
8.3492 -5.0904 1.7657
8.7865 -4.3324 1.7689
9.1515 -3.5356 1.7715
9.4404 -2.7070 1.7733
4.6528 -0.8940 0.8555
4.5269 -0.4561 0.8215
4.7631 -0.0523 0.8601
9.7901 0.7694 1.7732
9.6719 1.6389 1.7713
9.4730 2.4923 1.7687
9.1954 3.3222 1.7654
8.8421 4.1208 1.7614
8.4169 4.8813 1.7569
7.9241 5.5970 1.7517
7.3688 6.2620 1.7461
6.7564 6.8709 1.7400
6.0929 7.4188 1.7334
4.8508 7.1186 1.5554
0.9849 1.7660 0.3651
0.8232 1.8467 0.3651
0.6549 1.9127 0.3650
0.4815 1.9634 0.3650
0.3042 1.9985 0.3650
0.1245 2.0176 0.3650
-0.0562 2.0207 0.3650
-0.2364 2.0077 0.3650
-0.4148 1.9786 0.3650
-0.5898 1.9338 0.3651
-0.7603 1.8736 0.3651
-0.9246 1.7985 0.3651
-5.5081 8.7020 1.8596
-6.2064 8.1012 1.8427
-6.3972 6.9620 1.7072
-7.0000 6.3688 1.7088
-7.5472 5.7232 1.7103
-8.0342 5.0302 1.7116
-8.4162 4.2748 1.7045
-8.8058 3.5227 1.7125
-9.0852 2.7222 1.7125
-9.2920 1.9000 1.7125
-9.4246 1.0627 1.7125
-9.4818 0.2168 1.7125
-9.4633 -0.6308 1.7125
-9.3692 -1.4734 1.7125
-9.2002 -2.3042 1.7125
-8.9576 -3.1166 1.7125
-8.6435 -3.9041 1.7125
-8.2588 -4.6594 1.7122
-7.8038 -5.3743 1.7109
-7.2851 -6.0434 1.7091
-6.7087 -6.6623 1.7072
-6.6307 -7.8810 1.8597
-5.9060 -8.4497 1.8615
-1.0110 -1.7632 0.3670
-0.8496 -1.8466 0.3670
-0.6813 -1.9153 0.3671
-0.5076 -1.9686 0.3671
-0.3298 -2.0061 0.3671
-0.1493 -2.0276 0.3671
0.0324 -2.0328 0.3671
0.2138 -2.0218 0.3671
0.3934 -1.9945 0.3671
0.5699 -1.9512 0.3670
0.7418 -1.8924 0.3670
0.9077 -1.8183 0.3670
1.0664 -1.7298 0.3669
5.7779 -7.7302 1.7426
6.4756 -7.2173 1.7508
7.1262 -6.6400 1.7587
7.6989 -5.9835 1.7606
8.2215 -5.2843 1.7647
8.6773 -4.5377 1.7681
9.0619 -3.7505 1.7709
9.3713 -2.9296 1.7729
4.8177 -1.0449 0.8901
4.5367 -0.5661 0.8255
4.7222 -0.1641 0.8532
4.8592 0.2660 0.8787
9.7112 1.4092 1.7719
9.5335 2.2678 1.7695
9.2766 3.1046 1.7663
8.9431 3.9122 1.7626
8.5366 4.6835 1.7581
9.0397 2.7181 1.7646
8.7439 3.5077 1.7611
8.3765 4.2647 1.7571
7.9412 4.9826 1.7525
7.4426 5.6552 1.7473
6.8856 6.2769 1.7417
6.2756 6.8429 1.7356
5.6214 7.3524 1.7301
1.0432 1.6516 0.3652
0.8914 1.7380 0.3651
0.7326 1.8105 0.3651
0.5680 1.8685 0.3651
0.3988 1.9117 0.3651
0.2265 1.9396 0.3650
0.0524 1.9521 0.3650
-0.1222 1.9490 0.3650
-0.2957 1.9304 0.3651
-0.4670 1.8964 0.3651
-0.6345 1.8472 0.3651
-0.7970 1.7834 0.3651
-0.9532 1.7053 0.3652
-5.6098 8.2153 1.8596
-6.2086 7.5448 1.8265
-6.4098 6.5058 1.7072
-6.9712 5.9126 1.7087
-7.4773 5.2706 1.7101
-7.9236 4.5850 1.7113
-8.3064 3.8613 1.7123
-8.6192 3.1045 1.7125
-8.8620 2.3224 1.7125
-9.0339 1.5218 1.7125
-9.1338 0.7089 1.7125
-9.1606 -0.1095 1.7125
-9.1142 -0.9272 1.7125
-8.9950 -1.7374 1.7125
-8.8039 -2.5337 1.7125
-8.5425 -3.3098 1.7125
-8.2106 -4.0583 1.7121
-7.8105 -4.7723 1.7110
-7.3474 -5.4465 1.7097
-6.8247 -6.0747 1.7079
-6.8104 -7.2513 1.8596
-6.1372 -7.8324 1.8601
-1.0679 -1.6470 0.3669
-0.9166 -1.7360 0.3670
-0.7580 -1.8111 0.3670
-0.5933 -1.8717 0.3670
-0.4238 -1.9173 0.3671
-0.2509 -1.9475 0.3671
-0.0760 -1.9622 0.3671
0.0996 -1.9611 0.3671
0.2743 -1.9443 0.3670
0.4468 -1.9119 0.3670
0.6157 -1.8642 0.3670
0.7796 -1.8016 0.3670
0.9373 -1.7246 0.3669
5.1352 -7.7153 1.7325
5.8255 -7.2531 1.7390
6.4948 -6.7505 1.7511
7.0989 -6.1672 1.7578
7.6286 -5.5139 1.7595
8.1075 -4.8207 1.7632
8.5203 -4.0845 1.7663
8.8629 -3.3117 1.7686
9.1319 -2.5094 1.7703
4.5795 -0.8274 0.8699
4.5117 -0.4041 0.8468
4.5916 0.0004 0.8583
9.4300 0.8463 1.7699
9.3067 1.6832 1.7679
9.1058 2.5039 1.7654
8.8296 3.3010 1.7621
8.4808 4.0673 1.7582
8.0631 4.7962 1.7538
7.5809 5.4814 1.7487
7.0389 6.1171 1.7432
6.4424 6.6983 1.7373
5.4319 6.7654 1.6219
1.0821 1.6264 0.3652
0.9325 1.7164 0.3651
0.7754 1.7926 0.3651
0.6122 1.8546 0.3651
0.4441 1.9017 0.3651
0.2725 1.9337 0.3650
0.0987 1.9503 0.3650
-0.0759 1.9513 0.3650
-0.2498 1.9368 0.3651
-0.4218 1.9069 0.3651
-0.5905 1.8617 0.3651
-0.7544 1.8017 0.3651
-0.9124 1.7274 0.3652
-1.0632 1.6392 0.3652
-6.1369 7.8294 1.8596
-6.2534 6.6559 1.7072
-6.8274 6.0750 1.7084
-7.3486 5.4455 1.7097
-7.8112 4.7709 1.7110
-8.2112 4.0568 1.7121
-8.5430 3.3083 1.7125
-8.8043 2.5321 1.7125
-8.9953 1.7358 1.7125
-9.1143 0.9256 1.7125
-9.1606 0.1079 1.7125
-9.1336 -0.7105 1.7125
-9.0337 -1.5234 1.7125
-8.8616 -2.3240 1.7125
-8.6186 -3.1061 1.7125
-8.3059 -3.8629 1.7123
-7.9230 -4.5864 1.7113
-7.4764 -5.2718 1.7101
-6.9690 -5.9127 1.7084
-6.5606 -6.6611 1.7477
-6.3202 -7.6832 1.8597
-5.6130 -8.2230 1.8611
-0.9575 -1.7137 0.3670
-0.8007 -1.7926 0.3670
-0.6375 -1.8570 0.3670
-0.4692 -1.9067 0.3670
-0.2970 -1.9410 0.3671
-0.1225 -1.9598 0.3671
0.0530 -1.9629 0.3671
0.2281 -1.9503 0.3671
0.4013 -1.9220 0.3670
0.5713 -1.8784 0.3670
0.7367 -1.8197 0.3670
0.8961 -1.7464 0.3669
1.0484 -1.6592 0.3669
5.6442 -7.3795 1.7367
6.3206 -6.8896 1.7478
6.9519 -6.3352 1.7582
7.4910 -5.6900 1.7585
7.9866 -5.0092 1.7623
8.4174 -4.2838 1.7655
8.7790 -3.5200 1.7681
9.0678 -2.7249 1.7699
4.8641 -0.9987 0.9282
4.5063 -0.5117 0.8478
4.5752 -0.1082 0.8555
9.4495 0.6223 1.7702
9.3471 1.4623 1.7685
9.1666 2.2880 1.7661
8.9101 3.0921 1.7630
8.5802 3.8672 1.7593
8.1805 4.6067 1.7550
7.7149 5.3041 1.7501
7.1883 5.9535 1.7447
6.6057 6.5496 1.7389
5.9730 7.0878 1.7327
4.9387 7.0538 1.6096
0.9730 1.6938 0.3651
0.8177 1.7738 0.3651
0.6560 1.8395 0.3651
0.4891 1.8907 0.3651
0.3183 1.9267 0.3650
0.1450 1.9474 0.3650
-0.0295 1.9526 0.3650
-0.2038 1.9422 0.3651
-0.3764 1.9163 0.3651
-0.5461 1.8752 0.3651
-0.7114 1.8191 0.3651
-0.8711 1.7485 0.3652
-1.0239 1.6639 0.3652
-5.9494 7.9729 1.8596
-6.2231 6.9470 1.7435
-6.6797 6.2339 1.7080
-7.2158 5.6172 1.7094
-7.6943 4.9541 1.7107
-8.1113 4.2499 1.7118
-8.4621 3.5101 1.7125
-8.7417 2.7404 1.7125
-8.9515 1.9488 1.7125
-9.0898 1.1417 1.7125
-9.1554 0.3254 1.7125
-9.1479 -0.4935 1.7125
-9.0673 -1.3085 1.7125
-8.9142 -2.1130 1.7125
-8.6899 -2.9006 1.7125
-8.3962 -3.6650 1.7125
-8.0310 -4.3978 1.7116
-7.6010 -5.0940 1.7104
-7.1093 -5.7472 1.7089
-6.5612 -6.3527 1.7072
-6.5004 -7.5304 1.8596
-5.8047 -8.0847 1.8605
-0.9979 -1.6904 0.3670
-0.8431 -1.7730 0.3670
-0.6814 -1.8414 0.3670
-0.5143 -1.8950 0.3670
-0.3430 -1.9334 0.3671
-0.1690 -1.9564 0.3671
0.0064 -1.9636 0.3671
0.1817 -1.9552 0.3671
0.3556 -1.9310 0.3670
0.5266 -1.8914 0.3670
0.6933 -1.8367 0.3670
0.8545 -1.7673 0.3669
1.0087 -1.6837 0.3669
5.4630 -7.5054 1.7353
6.1433 -7.0240 1.7444
6.7910 -6.4902 1.7560
7.3491 -5.8624 1.7573
7.8612 -5.1945 1.7613
8.3096 -4.4804 1.7647
8.6899 -3.7262 1.7675
8.9984 -2.9387 1.7695
9.2319 -2.1249 1.7709
4.5334 -0.6241 0.8554
4.5196 -0.2144 0.8458
4.8728 0.2049 0.9117
9.3819 1.2404 1.7690
9.2220 2.0706 1.7668
8.9855 2.8812 1.7639
8.6748 3.6646 1.7604
8.2932 4.4142 1.7562
7.8447 5.1234 1.7515
7.3338 5.7860 1.7462
6.7655 6.3968 1.7405
6.1455 6.9508 1.7344
5.4782 7.4419 1.7274
1.0129 1.6703 0.3652
0.8596 1.7539 0.3651
0.6995 1.8235 0.3651
0.5338 1.8785 0.3651
0.3639 1.9186 0.3650
0.1911 1.9434 0.3650
0.0168 1.9527 0.3650
-0.1576 1.9465 0.3650
-0.3308 1.9247 0.3651
-0.5014 1.8876 0.3651
-0.6680 1.8354 0.3651
-0.8294 1.7686 0.3652
-0.9841 1.6877 0.3652
-5.7584 8.1118 1.8596
-6.2151 7.2786 1.7891
-6.5283 6.3892 1.7076
-7.0789 5.7857 1.7090
-7.5731 5.1344 1.7103
-8.0068 4.4406 1.7115
-8.3762 3.7099 1.7125
-8.6742 2.9472 1.7125
-8.9028 2.1608 1.7125
-9.0601 1.3571 1.7125
-9.1451 0.5426 1.7125
-9.1571 -0.2763 1.7125
-9.0958 -1.0929 1.7125
-8.9619 -1.9008 1.7125
-8.7563 -2.6935 1.7125
-8.4808 -3.4647 1.7125
-8.1344 -4.2066 1.7119
-7.7213 -4.9130 1.7108
-7.2457 -5.5783 1.7094
-6.7115 -6.1965 1.7076
-6.6773 -7.3740 1.8596
-5.9942 -7.9436 1.8602
-1.0377 -1.6662 0.3669
-0.8849 -1.7524 0.3670
-0.7249 -1.8246 0.3670
-0.5591 -1.8822 0.3670
-0.3888 -1.9247 0.3671
-0.2154 -1.9518 0.3671
-0.0402 -1.9632 0.3671
0.1353 -1.9589 0.3671
0.3096 -1.9390 0.3670
0.4815 -1.9034 0.3670
0.6495 -1.8527 0.3670
0.8123 -1.7871 0.3670
0.9685 -1.7072 0.3669
5.2787 -7.6262 1.7338
5.9626 -7.1531 1.7408
6.6251 -6.6398 1.7534
7.2088 -6.0360 1.7576
7.7313 -5.3766 1.7603
8.1970 -4.6741 1.7639
8.5958 -3.9299 1.7668
8.9237 -3.1506 1.7690
9.1773 -2.3431 1.7706
4.5473 -0.7364 0.8611
4.5152 -0.3217 0.8462
4.6774 0.0855 0.8745
9.4113 1.0176 1.7695
9.2720 1.8518 1.7675
9.0556 2.6683 1.7647
8.7643 3.4597 1.7614
8.4012 4.2189 1.7574
7.9700 4.9394 1.7528
7.4752 5.6150 1.7477
6.9217 6.2400 1.7421
6.3149 6.8095 1.7360
5.3211 6.8802 1.6259
1.0523 1.6458 0.3652
0.9010 1.7330 0.3651
0.7426 1.8064 0.3651
0.5783 1.8654 0.3651
0.4094 1.9095 0.3651
0.2372 1.9383 0.3650
0.0632 1.9518 0.3650
-0.1114 1.9496 0.3650
-0.2850 1.9320 0.3651
-0.4565 1.8989 0.3651
-0.6243 1.8507 0.3651
-0.7871 1.7878 0.3651
-0.9437 1.7105 0.3652
-5.5643 8.2462 1.8596
-6.2065 7.6280 1.8383
-6.3735 6.5410 1.7072
-6.9380 5.9508 1.7086
-7.4477 5.3116 1.7100
-7.8978 4.6286 1.7112
-8.2846 3.9072 1.7122
-8.6018 3.1522 1.7125
-8.8490 2.3715 1.7125
-9.0254 1.5718 1.7125
-9.1297 0.7595 1.7125
-9.1610 -0.0588 1.7125
-9.1192 -0.8767 1.7125
-9.0045 -1.6875 1.7125
-8.8178 -2.4849 1.7125
-8.5607 -3.2624 1.7125
-8.2333 -4.0129 1.7121
-7.8372 -4.7292 1.7111
-7.3779 -5.4061 1.7098
-6.8587 -6.0372 1.7081
-6.7895 -7.1492 1.8430
-6.1799 -7.7977 1.8599
-1.0769 -1.6411 0.3669
-0.9262 -1.7309 0.3670
-0.7680 -1.8069 0.3670
-0.6036 -1.8684 0.3670
-0.4344 -1.9149 0.3671
-0.2617 -1.9461 0.3671
-0.0868 -1.9617 0.3671
0.0887 -1.9616 0.3671
0.2635 -1.9458 0.3671
0.4362 -1.9144 0.3670
0.6054 -1.8676 0.3670
0.7697 -1.8059 0.3670
0.9277 -1.7298 0.3669
1.0784 -1.6398 0.3669
5.7835 -7.2830 1.7385
6.4544 -6.7833 1.7503
7.0650 -6.2067 1.7579
7.5969 -5.5553 1.7593
8.0797 -4.8650 1.7630
8.4967 -4.1312 1.7661
8.8438 -3.3605 1.7685
9.1174 -2.5598 1.7702
4.6050 -0.8584 0.8756
4.5106 -0.4292 0.8470
4.5764 -0.0249 0.8555
9.4350 0.7941 1.7699
9.3166 1.6318 1.7681
9.1205 2.4537 1.7655
8.8488 3.2524 1.7623
8.5044 4.0209 1.7585
8.0909 4.7522 1.7540
7.6125 5.4403 1.7491
7.0741 6.0793 1.7436
6.4808 6.6640 1.7377
5.5053 6.7796 1.6326
1.0911 1.6204 0.3652
0.9420 1.7112 0.3651
0.7853 1.7883 0.3651
0.6224 1.8512 0.3651
0.4546 1.8992 0.3651
0.2832 1.9322 0.3650
0.1095 1.9497 0.3650
-0.0651 1.9517 0.3650
-0.2391 1.9382 0.3651
-0.4113 1.9092 0.3651
-0.5801 1.8650 0.3651
-0.7444 1.8059 0.3651
-0.9028 1.7324 0.3652
-1.0541 1.6451 0.3652
-6.0935 7.8633 1.8596
-6.2364 6.7119 1.7127
-6.7933 6.1124 1.7083
-7.3180 5.4858 1.7097
-7.7843 4.8139 1.7109
-8.1883 4.1021 1.7120
-8.5246 3.3555 1.7125
-8.7902 2.5809 1.7125
-8.9855 1.7856 1.7125
-9.1091 0.9760 1.7125
-9.1599 0.1587 1.7125
-9.1374 -0.6599 1.7125
-9.0420 -1.4733 1.7125
-8.8743 -2.2749 1.7125
-8.6357 -3.0583 1.7125
-8.3274 -3.8169 1.7124
-7.9486 -4.5426 1.7114
-7.5059 -5.2306 1.7102
-7.0021 -5.8744 1.7085
-6.5153 -6.5422 1.7260
-6.3626 -7.6479 1.8597
-5.6582 -8.1915 1.8610
-0.9670 -1.7084 0.3670
-0.8107 -1.7881 0.3670
-0.6478 -1.8535 0.3670
-0.4797 -1.9040 0.3670
-0.3078 -1.9393 0.3671
-0.1334 -1.9591 0.3671
0.0421 -1.9632 0.3671
0.2173 -1.9515 0.3671
0.3907 -1.9242 0.3670
0.5609 -1.8815 0.3670
0.7266 -1.8237 0.3670
0.8865 -1.7514 0.3669
1.0392 -1.6650 0.3669
5.6022 -7.4092 1.7364
6.2795 -6.9214 1.7470
6.9157 -6.3726 1.7579
7.4583 -5.7305 1.7582
7.9578 -5.0527 1.7621
8.3927 -4.3299 1.7653
8.7587 -3.5683 1.7679
9.0521 -2.7749 1.7698
9.2700 -1.9568 1.7710
4.5110 -0.5376 0.8492
4.5745 -0.1336 0.8555
9.4532 0.5701 1.7703
9.3557 1.4106 1.7686
9.1800 2.2375 1.7663
8.9282 3.0431 1.7632
8.6027 3.8202 1.7596
8.2072 4.5620 1.7553
7.7456 5.2622 1.7504
7.2226 5.9147 1.7451
6.6434 6.5143 1.7393
6.0135 7.0563 1.7331
5.0027 7.0617 1.6177
0.9823 1.6884 0.3652
0.8276 1.7692 0.3651
0.6662 1.8359 0.3651
0.4996 1.8879 0.3651
0.3290 1.9249 0.3650
0.1557 1.9466 0.3650
-0.0187 1.9527 0.3650
-0.1930 1.9433 0.3650
-0.3658 1.9184 0.3651
-0.5357 1.8782 0.3651
-0.7013 1.8230 0.3651
-0.8614 1.7533 0.3652
-1.0147 1.6696 0.3652
-5.9051 8.0057 1.8596
-6.2213 7.0229 1.7538
-6.6447 6.2705 1.7079
-7.1842 5.6568 1.7093
-7.6664 4.9964 1.7106
-8.0873 4.2946 1.7117
-8.4425 3.5569 1.7125
-8.7264 2.7888 1.7125
-8.9406 1.9984 1.7125
-9.0834 1.1920 1.7125
-9.1535 0.3761 1.7125
-9.1505 -0.4429 1.7125
-9.0744 -1.2582 1.7125
-8.9258 -2.0636 1.7125
-8.7059 -2.8525 1.7125
-8.4164 -3.6185 1.7125
-8.0555 -4.3534 1.7117
-7.6295 -5.0520 1.7105
-7.1415 -5.7081 1.7090
-6.6105 -6.3299 1.7109
-6.5420 -7.4943 1.8596
-5.8492 -8.0522 1.8604
-1.0072 -1.6849 0.3669
-0.8528 -1.7683 0.3670
-0.6916 -1.8375 0.3670
-0.5248 -1.8921 0.3670
-0.3537 -1.9315 0.3671
-0.1798 -1.9554 0.3671
-0.0045 -1.9636 0.3671
0.1709 -1.9561 0.3671
0.3449 -1.9330 0.3670
0.5161 -1.8943 0.3670
0.6831 -1.8405 0.3670
0.8447 -1.7720 0.3669
0.9994 -1.6892 0.3669
5.4203 -7.5340 1.7350
6.1001 -7.0530 1.7432
6.7526 -6.5255 1.7554
7.3164 -5.9029 1.7573
7.8313 -5.2373 1.7611
8.2838 -4.5258 1.7645
8.6684 -3.7739 1.7673
8.9814 -2.9883 1.7694
9.2197 -2.1760 1.7708
4.5302 -0.6493 0.8555
4.5186 -0.2394 0.8459
4.8181 0.1759 0.9013
9.3893 1.1885 1.7692
9.2342 2.0197 1.7670
9.0023 2.8317 1.7641
8.6961 3.6170 1.7606
8.3188 4.3689 1.7565
7.8743 5.0807 1.7518
7.3672 5.7464 1.7466
6.8023 6.3606 1.7409
6.1853 6.9182 1.7348
5.5221 7.4151 1.7283
1.0222 1.6647 0.3652
0.8693 1.7491 0.3651
0.7096 1.8196 0.3651
0.5442 1.8756 0.3651
0.3746 1.9166 0.3650
0.2019 1.9423 0.3650
0.0276 1.9526 0.3650
-0.1468 1.9473 0.3650
-0.3202 1.9265 0.3651
-0.4910 1.8903 0.3651
-0.6579 1.8391 0.3651
-0.8195 1.7732 0.3652
-0.9747 1.6931 0.3652
-5.7134 8.1436 1.8596
-6.2131 7.3584 1.8003
-6.4925 6.4249 1.7075
-7.0464 5.8245 1.7089
-7.5442 5.1760 1.7103
-7.9818 4.4847 1.7114
-8.3553 3.7561 1.7124
-8.6578 2.9952 1.7125
-8.8907 2.2100 1.7125
-9.0525 1.4072 1.7125
-9.1420 0.5932 1.7125
-9.1585 -0.2255 1.7125
-9.1017 -1.0425 1.7125
-8.9723 -1.8512 1.7125
-8.7711 -2.6450 1.7125
-8.4999 -3.4177 1.7125
-8.1579 -4.1616 1.7119
-7.7487 -4.8704 1.7109
-7.2769 -5.5384 1.7095
-6.7462 -6.1597 1.7077
-6.7180 -7.3369 1.8596
-6.0379 -7.9101 1.8602
-1.0469 -1.6604 0.3669
-0.8946 -1.7475 0.3670
-0.7350 -1.8206 0.3670
-0.5695 -1.8791 0.3670
-0.3995 -1.9225 0.3671
-0.2262 -1.9506 0.3671
-0.0511 -1.9630 0.3671
0.1244 -1.9597 0.3671
0.2989 -1.9406 0.3670
0.4710 -1.9061 0.3670
0.6393 -1.8563 0.3670
0.8024 -1.7916 0.3670
0.9590 -1.7126 0.3669
5.2353 -7.6537 1.7334
5.9211 -7.1839 1.7403
6.5860 -6.6740 1.7527
7.1757 -6.0761 1.7577
7.7003 -5.4186 1.7601
8.1701 -4.7189 1.7637
8.5731 -3.9771 1.7666
8.9055 -3.1997 1.7689
9.1638 -2.3938 1.7705
4.5545 -0.7635 0.8633
4.5142 -0.3468 0.8463
4.6509 0.0593 0.8695
9.4173 0.9655 1.7696
9.2829 1.8006 1.7676
9.0712 2.6184 1.7649
8.7845 3.4115 1.7616
8.4257 4.1730 1.7576
7.9987 4.8960 1.7531
7.5076 5.5745 1.7480
6.9576 6.2029 1.7424
6.3539 6.7760 1.7364
5.3421 6.8289 1.6207
1.0614 1.6400 0.3652
0.9106 1.7280 0.3651
0.7526 1.8023 0.3651
0.5886 1.8621 0.3651
0.4200 1.9072 0.3651
0.2480 1.9370 0.3650
0.0740 1.9514 0.3650
-0.1006 1.9502 0.3650
-0.2743 1.9335 0.3651
-0.4459 1.9014 0.3651
-0.6140 1.8541 0.3651
-0.7772 1.7921 0.3651
-0.9342 1.7157 0.3652
-5.5185 8.2769 1.8596
-6.2044 7.7123 1.8503
-6.3371 6.5762 1.7072
-6.9046 5.9888 1.7086
-7.4178 5.3526 1.7099
-7.8717 4.6721 1.7111
-8.2625 3.9528 1.7122
-8.5842 3.1998 1.7125
-8.8357 2.4204 1.7125
-9.0165 1.6217 1.7125
-9.1253 0.8101 1.7125
-9.1612 -0.0081 1.7125
-9.1239 -0.8262 1.7125
-9.0137 -1.6376 1.7125
-8.8314 -2.4360 1.7125
-8.5786 -3.2150 1.7125
-8.2556 -3.9674 1.7122
-7.8636 -4.6860 1.7112
-7.4081 -5.3654 1.7099
-6.8925 -5.9996 1.7082
-6.6994 -6.9766 1.8081
-6.2227 -7.7629 1.8598
-1.0860 -1.6351 0.3669
-0.9358 -1.7257 0.3670
-0.7780 -1.8026 0.3670
-0.6140 -1.8650 0.3670
-0.4450 -1.9125 0.3671
-0.2724 -1.9446 0.3671
-0.0977 -1.9612 0.3671
0.0778 -1.9621 0.3671
0.2527 -1.9472 0.3671
0.4256 -1.9168 0.3670
0.5950 -1.8710 0.3670
0.7596 -1.8102 0.3670
0.9182 -1.7349 0.3669
1.0693 -1.6457 0.3669
5.7412 -7.3125 1.7379
6.4139 -6.8159 1.7495
7.0308 -6.2460 1.7580
7.5650 -5.5965 1.7590
8.0517 -4.9091 1.7628
8.4729 -4.1778 1.7659
8.8244 -3.4092 1.7684
9.1026 -2.6101 1.7701
4.6324 -0.8901 0.8818
4.5094 -0.4543 0.8472
4.5762 -0.0503 0.8555
9.4398 0.7419 1.7700
9.3262 1.5803 1.7682
9.1349 2.4034 1.7657
8.8678 3.2038 1.7625
8.5278 3.9743 1.7587
8.1185 4.7082 1.7543
7.6439 5.3991 1.7494
7.1091 6.0412 1.7439
6.5190 6.6295 1.7380
5.8825 7.1626 1.7326
1.1001 1.6144 0.3652
0.9514 1.7060 0.3651
0.7952 1.7839 0.3651
0.6327 1.8477 0.3651
0.4651 1.8967 0.3651
0.2939 1.9306 0.3650
0.1203 1.9491 0.3650
-0.0543 1.9520 0.3650
-0.2284 1.9395 0.3651
-0.4007 1.9114 0.3651
-0.5698 1.8681 0.3651
-0.7344 1.8100 0.3651
-0.8932 1.7373 0.3652
-1.0449 1.6509 0.3652
-6.0498 7.8969 1.8596
-6.2284 6.7782 1.7208
-6.7590 6.1496 1.7082
-7.2872 5.5260 1.7096
-7.7572 4.8567 1.7108
-8.1651 4.1472 1.7119
-8.5059 3.4027 1.7125
-8.7757 2.6295 1.7125
-8.9755 1.8353 1.7125
-9.1035 1.0265 1.7125
-9.1588 0.2094 1.7125
-9.1409 -0.6094 1.7125
-9.0500 -1.4232 1.7125
-8.8868 -2.2257 1.7125
-8.6525 -3.0104 1.7125
-8.3487 -3.7709 1.7124
-7.9740 -4.4987 1.7115
-7.5351 -5.1892 1.7103
-7.0350 -5.8359 1.7087
-6.4923 -6.4473 1.7104
-6.4047 -7.6125 1.8597
-5.7031 -8.1593 1.8609
-0.9764 -1.7030 0.3670
-0.8205 -1.7836 0.3670
-0.6580 -1.8499 0.3670
-0.4903 -1.9013 0.3670
-0.3185 -1.9376 0.3671
-0.1442 -1.9583 0.3671
0.0313 -1.9634 0.3671
0.2065 -1.9527 0.3671
0.3800 -1.9264 0.3670
0.5505 -1.8846 0.3670
0.7165 -1.8277 0.3670
0.8768 -1.7563 0.3669
1.0299 -1.6707 0.3669
5.5600 -7.4388 1.7361
6.2383 -6.9529 1.7462
6.8779 -6.4087 1.7573
7.4253 -5.7709 1.7579
7.9287 -5.0961 1.7619
8.3677 -4.3758 1.7652
8.7381 -3.6165 1.7678
9.0361 -2.8248 1.7697
9.2587 -2.0081 1.7710
4.5178 -0.5638 0.8511
4.5737 -0.1589 0.8555
9.4567 0.5177 1.7704
9.3640 1.3589 1.7688
9.1931 2.1868 1.7664
8.9459 2.9939 1.7634
8.6250 3.7730 1.7598
8.2337 4.5173 1.7556
8.7277 2.6243 1.7618
8.4426 3.3869 1.7585
8.0885 4.1181 1.7546
7.6689 4.8118 1.7502
7.1881 5.4618 1.7452
6.6509 6.0630 1.7398
6.0625 6.6104 1.7339
5.4244 7.0947 1.7265
1.0088 1.5972 0.3652
0.8621 1.6807 0.3652
0.7085 1.7509 0.3651
0.5492 1.8070 0.3651
0.3857 1.8487 0.3651
0.2190 1.8758 0.3651
0.0506 1.8878 0.3651
-0.1181 1.8848 0.3651
-0.2860 1.8668 0.3651
-0.4516 1.8339 0.3651
-0.6136 1.7864 0.3651
-0.7708 1.7246 0.3652
-0.9218 1.6491 0.3652
-1.0655 1.5604 0.3653
-6.1124 7.4279 1.8596
-6.2319 6.3253 1.7166
-6.7386 5.7153 1.7081
-7.2276 5.0946 1.7094
-7.6589 4.4317 1.7106
-8.0287 3.7322 1.7116
-8.3338 3.0018 1.7124
-8.5694 2.2458 1.7125
-8.7357 1.4715 1.7125
-8.8322 0.6855 1.7125
-8.8581 -0.1059 1.7125
-8.8133 -0.8966 1.7125
-8.6980 -1.6800 1.7125
-8.5132 -2.4500 1.7125
-8.2589 -3.1999 1.7122
-7.9361 -3.9226 1.7113
-7.5496 -4.6129 1.7103
-7.1024 -5.2649 1.7091
-6.5977 -5.8726 1.7075
-6.5855 -7.0119 1.8596
-5.9335 -7.5725 1.8597
-1.0325 -1.5925 0.3669
-0.8863 -1.6786 0.3669
-0.7329 -1.7511 0.3670
-0.5736 -1.8097 0.3670
-0.4097 -1.8538 0.3670
-0.2426 -1.8831 0.3670
-0.0734 -1.8972 0.3670
0.0963 -1.8962 0.3670
0.2652 -1.8799 0.3670
0.4320 -1.8486 0.3670
0.5953 -1.8025 0.3670
0.7538 -1.7420 0.3669
0.9063 -1.6675 0.3669
1.0514 -1.5797 0.3668
5.6064 -6.9803 1.7308
6.2640 -6.5107 1.7466
6.8605 -5.9601 1.7568
7.3661 -5.3241 1.7570
7.8279 -4.6544 1.7605
8.2259 -3.9434 1.7635
8.5563 -3.1972 1.7658
8.8157 -2.4225 1.7674
4.5660 -0.8250 0.8970
4.4679 -0.4002 0.8672
4.6227 0.0004 0.8936
9.1035 0.8170 1.7669
8.9849 1.6250 1.7651
8.7914 2.4175 1.7626
8.5252 3.1872 1.7595
8.1891 3.9274 1.7557
7.7865 4.6316 1.7514
7.3215 5.2938 1.7466
6.7987 5.9085 1.7413
6.2234 6.4706 1.7355
5.4577 6.7976 1.6852
1.0465 1.5729 0.3652
0.9017 1.6599 0.3652
0.7498 1.7336 0.3651
0.5920 1.7935 0.3651
0.4294 1.8391 0.3651
0.2635 1.8700 0.3651
0.0954 1.8861 0.3651
-0.0734 1.8871 0.3651
-0.2416 1.8730 0.3651
-0.4079 1.8441 0.3651
-0.5710 1.8004 0.3651
-0.7296 1.7424 0.3652
-0.8824 1.6705 0.3652
-1.0282 1.5852 0.3653
-5.9343 7.5709 1.8596
-6.2202 6.6207 1.7561
-6.5996 5.8723 1.7077
-7.1033 5.2637 1.7091
-7.5502 4.6115 1.7103
-7.9367 3.9212 1.7113
-8.2593 3.1984 1.7122
-8.5136 2.4485 1.7125
-8.6983 1.6785 1.7125
-8.8134 0.8950 1.7125
-8.8581 0.1044 1.7125
-8.8321 -0.6871 1.7125
-8.7354 -1.4731 1.7125
-8.5690 -2.2473 1.7125
-8.3335 -3.0033 1.7124
-8.0282 -3.7337 1.7116
-7.6583 -4.4331 1.7106
-7.2269 -5.0959 1.7095
-6.7370 -5.7159 1.7080
-6.5406 -6.6408 1.8019
-6.1113 -7.4293 1.8597
-1.0700 -1.5675 0.3669
-0.9258 -1.6570 0.3669
-0.7742 -1.7332 0.3670
-0.6164 -1.7956 0.3670
-0.4536 -1.8435 0.3670
-0.2872 -1.8768 0.3670
-0.1185 -1.8949 0.3670
0.0512 -1.8979 0.3670
0.2205 -1.8857 0.3670
0.3880 -1.8584 0.3670
0.5524 -1.8162 0.3670
0.7123 -1.7594 0.3669
0.8665 -1.6886 0.3669
1.0137 -1.6043 0.3669
5.4361 -7.1075 1.7298
6.0956 -6.6443 1.7431
6.7080 -6.1130 1.7544
7.2357 -5.4960 1.7565
7.7113 -4.8365 1.7597
8.1267 -4.1358 1.7628
8.4754 -3.3983 1.7652
8.7539 -2.6306 1.7670
4.8953 -1.0050 0.9661
4.4874 -0.5096 0.8731
4.5475 -0.1076 0.8793
9.1223 0.6008 1.7673
9.0237 1.4117 1.7656
8.8499 2.2090 1.7633
8.6028 2.9854 1.7603
8.2849 3.7341 1.7568
7.8996 4.4485 1.7526
7.4508 5.1224 1.7479
6.9429 5.7502 1.7427
6.3809 6.3267 1.7371
5.7763 6.8545 1.7328
1.0836 1.5476 0.3652
0.9409 1.6380 0.3652
0.7908 1.7153 0.3651
0.6344 1.7790 0.3651
0.4730 1.8284 0.3651
0.3078 1.8633 0.3651
0.1402 1.8833 0.3651
-0.0286 1.8883 0.3651
-0.1971 1.8782 0.3651
-0.3640 1.8532 0.3651
-0.5281 1.8134 0.3651
-0.6880 1.7592 0.3652
-0.8424 1.6909 0.3652
-0.9902 1.6091 0.3652
-5.7529 7.7096 1.8596
-6.2126 6.9353 1.8000
-6.4569 6.0260 1.7074
-6.9749 5.4297 1.7087
-7.4373 4.7886 1.7100
-7.8402 4.1079 1.7111
-8.1800 3.3931 1.7120
-8.4531 2.6499 1.7125
-8.6560 1.8845 1.7125
-8.7897 1.1040 1.7125
-8.8532 0.3146 1.7125
-8.8459 -0.4772 1.7125
-8.7679 -1.2653 1.7125
-8.6199 -2.0432 1.7125
-8.4030 -2.8048 1.7125
-8.1156 -3.5425 1.7118
-7.7626 -4.2508 1.7109
-7.3472 -4.9238 1.7098
-6.8725 -5.5557 1.7084
-6.3943 -6.1912 1.7206
-6.2858 -7.2818 1.8596
-5.6129 -7.8175 1.8604
-0.9649 -1.6345 0.3669
-0.8151 -1.7143 0.3670
-0.6589 -1.7804 0.3670
-0.4973 -1.8322 0.3670
-0.3317 -1.8694 0.3670
-0.1634 -1.8916 0.3670
0.0062 -1.8986 0.3670
0.1757 -1.8904 0.3670
0.3438 -1.8671 0.3670
0.5091 -1.8288 0.3670
0.6703 -1.7759 0.3670
0.8262 -1.7088 0.3669
