ply
format ascii 1.0
element vertex 2176
property float32 x
property float32 y
property float32 z
end_header
5.9548 6.6638 1.7276
5.3199 7.1465 1.7223
0.9883 1.6099 0.3652
0.8406 1.6915 0.3651
0.6862 1.7596 0.3651
0.5264 1.8137 0.3651
0.3624 1.8534 0.3651
0.1955 1.8783 0.3651
0.0271 1.8882 0.3651
-0.1415 1.8832 0.3651
-0.3090 1.8631 0.3651
-0.4741 1.8282 0.3651
-0.6354 1.7787 0.3651
-0.7917 1.7151 0.3652
-0.9417 1.6378 0.3652
-5.5194 7.8775 1.8594
-6.1986 7.3513 1.8589
-6.2720 6.2159 1.7070
-6.8061 5.6350 1.7081
-7.2873 5.0089 1.7094
-7.7103 4.3414 1.7106
-8.0716 3.6381 1.7115
-8.3679 2.9046 1.7123
-8.5940 2.1463 1.7124
-2.9993 0.4698 0.5869
-2.9925 0.1978 0.5798
-2.9859 -0.0697 0.5774
-2.9792 -0.3372 0.5796
-2.9725 -0.6090 0.5866
-2.9655 -0.8896 0.5985
-8.2214 -3.2914 1.7119
-7.8908 -4.0099 1.7111
-7.4968 -4.6952 1.7100
-7.0429 -5.3417 1.7088
-6.5329 -5.9442 1.7074
-6.2022 -6.7492 1.7720
-5.8504 -7.6350 1.8594
-1.0153 -1.6035 0.3669
-0.8683 -1.6879 0.3669
-0.7142 -1.7588 0.3670
-0.5544 -1.8157 0.3670
-0.3902 -1.8580 0.3670
-0.2229 -1.8854 0.3670
-0.0537 -1.8978 0.3670
0.1159 -1.8950 0.3670
0.2845 -1.8770 0.3670
0.4509 -1.8440 0.3670
0.6136 -1.7963 0.3670
0.7714 -1.7342 0.3669
0.9230 -1.6583 0.3669
1.0671 -1.5691 0.3668
5.6797 -6.9295 1.7320
5.3546 -5.4565 1.4779
6.8835 -5.8625 1.7479
7.3963 -5.2369 1.7519
7.8497 -4.5649 1.7554
8.2391 -3.8524 1.7583
8.5608 -3.1057 1.7605
8.8114 -2.3313 1.7620
8.9887 -1.5364 1.7628
9.0907 -0.7282 1.7630
9.1167 0.0860 1.7625
9.0663 0.8986 1.7612
8.9402 1.7023 1.7593
4.8079 1.3696 0.9664
4.6135 1.7729 0.9554
8.1257 3.9879 1.7498
7.7181 4.6855 1.7454
7.2489 5.3406 1.7406
6.7227 5.9479 1.7352
6.1446 6.5025 1.7295
5.5201 7.0000 1.7234
1.0327 1.5819 0.3652
0.8873 1.6675 0.3652
0.7349 1.7399 0.3651
0.5767 1.7984 0.3651
0.4138 1.8426 0.3651
0.2477 1.8721 0.3651
0.0797 1.8868 0.3651
-0.0890 1.8864 0.3651
-0.2570 1.8710 0.3651
-0.4230 1.8407 0.3651
-0.5856 1.7957 0.3651
-0.7436 1.7364 0.3652
-0.8957 1.6633 0.3652
-1.0407 1.5770 0.3653
-5.9933 7.5232 1.8594
-6.2196 6.5169 1.7415
-6.6449 5.8208 1.7077
-7.1435 5.2086 1.7090
-7.5850 4.5535 1.7102
-7.9659 3.8607 1.7112
-8.2827 3.1359 1.7121
-8.5309 2.3846 1.7124
-8.7097 1.6138 1.7124
-2.9946 0.2819 0.5815
-2.9879 0.0134 0.5776
-2.9813 -0.2537 0.5784
-2.9746 -0.5236 0.5839
-2.9677 -0.8009 0.5942
-8.3109 -3.0617 1.7122
-8.0007 -3.7893 1.7114
-7.6262 -4.4856 1.7104
-7.1905 -5.1448 1.7092
-6.6975 -5.7616 1.7079
-6.2116 -6.3928 1.7231
-6.0606 -7.4692 1.8594
-1.0595 -1.5746 0.3669
-0.9149 -1.6630 0.3669
-0.7629 -1.7382 0.3670
-0.6048 -1.7995 0.3670
-0.4418 -1.8464 0.3670
-0.2752 -1.8785 0.3670
-0.1065 -1.8956 0.3670
0.0631 -1.8975 0.3670
0.2322 -1.8843 0.3670
0.3994 -1.8559 0.3670
0.5634 -1.8127 0.3670
0.7228 -1.7551 0.3669
0.8765 -1.6834 0.3669
1.0231 -1.5982 0.3668
5.4657 -7.0603 1.7260
5.1006 -5.4957 1.4495
6.7155 -6.0498 1.7473
7.2427 -5.4370 1.7507
7.7151 -4.7789 1.7544
8.1249 -4.0784 1.7574
8.4680 -3.3416 1.7598
8.7411 -2.5751 1.7616
8.9415 -1.7858 1.7627
9.0671 -0.9809 1.7630
9.1168 -0.1678 1.7627
9.0901 0.6461 1.7617
8.9876 1.4534 1.7600
4.9288 1.2569 0.9833
4.6477 1.6391 0.9527
4.7010 2.1469 0.9991
7.8519 4.4725 1.7469
7.4014 5.1414 1.7421
6.8924 5.7642 1.7369
6.3299 6.3357 1.7313
5.7193 6.8514 1.7253
1.0764 1.5526 0.3652
0.9334 1.6422 0.3652
0.7831 1.7188 0.3651
0.6265 1.7817 0.3651
0.4650 1.8304 0.3651
0.2998 1.8645 0.3651
0.1322 1.8838 0.3651
-0.0365 1.8881 0.3651
-0.2048 1.8774 0.3651
-0.3716 1.8517 0.3651
-0.5354 1.8112 0.3651
-0.6950 1.7564 0.3651
-0.8490 1.6876 0.3652
-0.9964 1.6053 0.3652
-5.7816 7.6871 1.8594
-6.2105 6.8811 1.7919
-6.4787 6.0019 1.7073
-6.9941 5.4041 1.7087
-7.4538 4.7618 1.7099
-7.8539 4.0802 1.7109
-8.1910 3.3647 1.7118
-8.4612 2.6211 1.7124
-8.6614 1.8556 1.7124
-2.9967 0.3664 0.5836
-2.9900 0.0967 0.5783
-2.9834 -0.1704 0.5777
-2.9767 -0.4389 0.5817
-2.9699 -0.7135 0.5905
-2.9628 -0.9987 0.6044
-8.1044 -3.5658 1.7116
-7.7495 -4.2724 1.7107
-7.3326 -4.9438 1.7096
-6.8570 -5.5743 1.7083
-6.3275 -6.1594 1.7070
-6.1898 -7.2088 1.8368
-5.5898 -7.8277 1.8594
-0.9608 -1.6369 0.3669
-0.8109 -1.7163 0.3669
-0.6546 -1.7819 0.3670
-0.4930 -1.8333 0.3670
-0.3274 -1.8701 0.3670
-0.1592 -1.8919 0.3670
0.0103 -1.8985 0.3670
0.1796 -1.8900 0.3670
0.3476 -1.8664 0.3670
0.5127 -1.8278 0.3670
0.6737 -1.7746 0.3669
0.8293 -1.7072 0.3669
0.9782 -1.6261 0.3669
5.2427 -7.1763 1.7181
4.9841 -5.6792 1.4607
6.5459 -6.2358 1.7477
7.0835 -5.6324 1.7495
7.5745 -4.9887 1.7533
8.0042 -4.3008 1.7566
8.3685 -3.5746 1.7592
8.6637 -2.8166 1.7611
8.8870 -2.0337 1.7624
9.0360 -1.2329 1.7630
9.1095 -0.4215 1.7629
9.1066 0.3930 1.7621
9.0276 1.2031 1.7606
5.2314 1.1800 1.0367
4.6819 1.5060 0.9508
4.6418 1.9657 0.9745
7.9795 4.2555 1.7482
7.5482 4.9378 1.7437
7.0569 5.5755 1.7386
6.5105 6.1635 1.7331
5.9143 6.6970 1.7272
5.2757 7.1745 1.7216
0.9788 1.6157 0.3652
0.8306 1.6964 0.3651
0.6759 1.7636 0.3651
0.5157 1.8168 0.3651
0.3515 1.8555 0.3651
0.1845 1.8794 0.3651
0.0161 1.8884 0.3651
-0.1525 1.8823 0.3651
-0.3199 1.8613 0.3651
-0.4848 1.8254 0.3651
-0.6458 1.7750 0.3651
-0.8017 1.7105 0.3652
-0.9513 1.6323 0.3652
-5.5654 7.8451 1.8594
-6.2007 7.2671 1.8467
-6.3083 6.1791 1.7070
-6.8393 5.5954 1.7082
-7.3168 4.9664 1.7095
-7.7359 4.2964 1.7106
-8.0930 3.5909 1.7116
-8.3850 2.8556 1.7124
-8.6064 2.0959 1.7124
-2.9988 0.4517 0.5863
-2.9921 0.1802 0.5795
-2.9854 -0.0872 0.5774
-2.9788 -0.3548 0.5799
-2.9720 -0.6270 0.5872
-2.9650 -0.9084 0.5995
-8.2017 -3.3393 1.7119
-7.8669 -4.0559 1.7110
-7.4689 -4.7388 1.7099
-7.0112 -5.3826 1.7087
-6.4977 -5.9820 1.7074
-6.2001 -6.8268 1.7828
-5.8055 -7.6691 1.8594
-1.0059 -1.6094 0.3669
-0.8584 -1.6930 0.3669
-0.7039 -1.7630 0.3670
-0.5438 -1.8189 0.3670
-0.3793 -1.8602 0.3670
-0.2118 -1.8867 0.3670
-0.0426 -1.8981 0.3670
0.1270 -1.8943 0.3670
0.2955 -1.8753 0.3670
0.4617 -1.8414 0.3670
0.6241 -1.7927 0.3670
0.7815 -1.7297 0.3669
0.9327 -1.6528 0.3669
1.0763 -1.5628 0.3668
5.7243 -6.9011 1.7333
5.3812 -5.4197 1.4764
6.9189 -5.8230 1.7482
7.4279 -5.1942 1.7522
7.8772 -4.5194 1.7556
8.2623 -3.8045 1.7584
8.5794 -3.0557 1.7606
8.8253 -2.2798 1.7621
8.9977 -1.4838 1.7629
9.0948 -0.6749 1.7630
9.1157 0.1394 1.7624
9.0603 0.9517 1.7611
8.9294 1.7545 1.7592
4.7830 1.3929 0.9630
4.6063 1.8012 0.9561
8.1009 4.0348 1.7495
7.6892 4.7298 1.7451
7.2161 5.3820 1.7402
6.6863 5.9860 1.7349
6.1050 6.5369 1.7291
5.4777 7.0306 1.7229
1.0234 1.5879 0.3652
0.8775 1.6727 0.3652
0.7247 1.7442 0.3651
0.5661 1.8018 0.3651
0.4030 1.8450 0.3651
0.2368 1.8735 0.3651
0.0686 1.8872 0.3651
-0.1001 1.8858 0.3651
-0.2680 1.8694 0.3651
-0.4338 1.8381 0.3651
-0.5961 1.7922 0.3651
-0.7538 1.7321 0.3652
-0.9054 1.6581 0.3652
-1.0499 1.5709 0.3653
-6.0373 7.4880 1.8594
-6.2214 6.4429 1.7314
-6.6793 5.7821 1.7078
-7.1742 5.1669 1.7091
-7.6119 4.5091 1.7103
-7.9886 3.8141 1.7113
-8.3012 3.0874 1.7121
-8.5447 2.3346 1.7124
-8.7190 1.5627 1.7124
-2.9942 0.2641 0.5811
-2.9875 -0.0041 0.5775
-2.9809 -0.2712 0.5786
-2.9741 -0.5415 0.5844
-2.9672 -0.8195 0.5951
-8.2926 -3.1102 1.7121
-7.9781 -3.8360 1.7113
-7.5994 -4.5300 1.7103
-7.1599 -5.1866 1.7091
-6.6633 -5.8004 1.7078
-6.2097 -6.4662 1.7331
-6.0167 -7.5046 1.8594
-1.0503 -1.5808 0.3669
-0.9051 -1.6684 0.3669
-0.7527 -1.7427 0.3670
-0.5942 -1.8030 0.3670
-0.4309 -1.8489 0.3670
-0.2642 -1.8801 0.3670
-0.0954 -1.8962 0.3670
0.0742 -1.8971 0.3670
0.2432 -1.8829 0.3670
0.4102 -1.8535 0.3670
0.5740 -1.8094 0.3670
0.7331 -1.7508 0.3669
0.8863 -1.6782 0.3669
1.0324 -1.5922 0.3668
5.5110 -7.0333 1.7273
5.1534 -5.4877 1.4553
6.7504 -6.0101 1.7472
7.2755 -5.3953 1.7510
7.7439 -4.7342 1.7546
8.1495 -4.0311 1.7576
8.4881 -3.2922 1.7600
8.7565 -2.5239 1.7617
8.9520 -1.7335 1.7627
9.0727 -0.9278 1.7630
9.1174 -0.1144 1.7627
9.0857 0.6993 1.7616
8.9782 1.5059 1.7599
4.9030 1.2809 0.9796
4.6405 1.6671 0.9532
4.7405 2.1986 1.0102
7.8242 4.5176 1.7466
7.3698 5.1837 1.7418
6.8571 5.8033 1.7366
6.2913 6.3712 1.7309
5.6777 6.8832 1.7249
1.0673 1.5588 0.3652
0.9238 1.6477 0.3652
0.7730 1.7234 0.3651
0.6161 1.7853 0.3651
0.4542 1.8331 0.3651
0.2888 1.8662 0.3651
0.1211 1.8845 0.3651
-0.0475 1.8879 0.3651
-0.2158 1.8761 0.3651
-0.3824 1.8495 0.3651
-0.5460 1.8081 0.3651
-0.7052 1.7523 0.3652
-0.8589 1.6826 0.3652
-1.0058 1.5994 0.3652
-5.8266 7.6531 1.8594
-6.2125 6.8028 1.7810
-6.5141 5.9642 1.7074
-7.0260 5.3634 1.7087
-7.4819 4.7183 1.7100
-7.8780 4.0342 1.7110
-8.2109 3.3168 1.7119
-8.4765 2.5715 1.7124
-8.6721 1.8048 1.7124
-2.9962 0.3486 0.5831
-2.9896 0.0791 0.5781
-2.9829 -0.1879 0.5778
-2.9762 -0.4567 0.5821
-2.9694 -0.7318 0.5912
-2.9623 -1.0179 0.6055
-8.0831 -3.6131 1.7116
-7.7241 -4.3176 1.7106
-7.3031 -4.9864 1.7095
-6.8239 -5.6141 1.7082
-6.2913 -6.1964 1.7070
-6.1875 -7.2921 1.8488
-1.0938 -1.5509 0.3669
-0.9512 -1.6425 0.3669
-0.8009 -1.7210 0.3670
-0.6441 -1.7857 0.3670
-0.4822 -1.8362 0.3670
-0.3165 -1.8720 0.3670
-0.1481 -1.8928 0.3670
0.0214 -1.8984 0.3670
0.1907 -1.8889 0.3670
0.3585 -1.8643 0.3670
0.5234 -1.8247 0.3670
0.6841 -1.7706 0.3669
0.8393 -1.7023 0.3669
0.9877 -1.6204 0.3669
5.2905 -7.1535 1.7200
4.9883 -5.6174 1.4523
6.5820 -6.1970 1.7476
7.1175 -5.5917 1.7497
7.6046 -4.9449 1.7535
8.0301 -4.2543 1.7567
8.3900 -3.5258 1.7593
8.6806 -2.7660 1.7612
8.8990 -1.9816 1.7625
9.0432 -1.1799 1.7630
9.1116 -0.3681 1.7628
9.1038 0.4463 1.7620
9.0198 1.2558 1.7605
5.1570 1.1950 1.0233
4.6747 1.5340 0.9511
4.6540 2.0031 0.9795
7.9532 4.3015 1.7479
7.5178 4.9810 1.7434
7.0227 5.6156 1.7383
6.4729 6.2001 1.7327
5.8736 6.7300 1.7268
1.1103 1.5286 0.3652
0.9693 1.6214 0.3652
0.8207 1.7012 0.3651
0.6655 1.7675 0.3651
0.5051 1.8198 0.3651
0.3407 1.8575 0.3651
0.1735 1.8804 0.3651
0.0050 1.8884 0.3651
-0.1635 1.8814 0.3651
-0.3308 1.8594 0.3651
-0.4954 1.8225 0.3651
-0.6562 1.7712 0.3651
-0.8117 1.7058 0.3652
-0.9608 1.6267 0.3652
-5.6113 7.8123 1.8594
-6.2029 7.1840 1.8348
-6.3444 6.1420 1.7070
-6.8724 5.5555 1.7083
-7.3461 4.9237 1.7096
-7.7613 4.2512 1.7107
-8.1142 3.5435 1.7116
-8.4016 2.8064 1.7124
-8.6185 2.0454 1.7124
-2.9984 0.4337 0.5857
-2.9916 0.1626 0.5792
-2.9850 -0.1047 0.5774
-2.9783 -0.3725 0.5802
-2.9716 -0.6452 0.5878
-2.9645 -0.9273 0.6005
-8.1818 -3.3872 1.7118
-7.8427 -4.1017 1.7109
-7.4407 -4.7822 1.7099
-6.9792 -5.4233 1.7086
-6.4621 -6.0197 1.7073
-6.1980 -6.9054 1.7938
-5.7605 -7.7030 1.8594
-0.9965 -1.6153 0.3669
-0.8484 -1.6980 0.3669
-0.6936 -1.7671 0.3670
-0.5331 -1.8220 0.3670
-0.3684 -1.8624 0.3670
-0.2008 -1.8879 0.3670
-0.0315 -1.8983 0.3670
0.1381 -1.8935 0.3670
0.3065 -1.8736 0.3670
0.4724 -1.8386 0.3670
0.6346 -1.7890 0.3669
0.7916 -1.7250 0.3669
0.9423 -1.6473 0.3669
1.0854 -1.5564 0.3668
4.8952 -5.8316 1.4719
5.4245 -5.3997 1.4796
6.9539 -5.7833 1.7485
7.4592 -5.1514 1.7524
7.9045 -4.4737 1.7558
8.2852 -3.7564 1.7586
8.5977 -3.0056 1.7607
8.8389 -2.2282 1.7621
9.0064 -1.4311 1.7629
9.0985 -0.6216 1.7630
9.1144 0.1928 1.7623
9.0541 1.0047 1.7610
8.9182 1.8066 1.7590
4.7584 1.4160 0.9597
4.5992 1.8295 0.9568
8.0759 4.0816 1.7493
7.6600 4.7739 1.7448
7.1831 5.4231 1.7399
6.6497 6.0237 1.7345
6.0652 6.5710 1.7287
5.4352 7.0608 1.7225
1.0141 1.5938 0.3652
0.8677 1.6778 0.3651
0.7145 1.7484 0.3651
0.5556 1.8050 0.3651
0.3922 1.8473 0.3651
0.2258 1.8749 0.3651
0.0576 1.8876 0.3651
-0.1111 1.8852 0.3651
-0.2789 1.8678 0.3651
-0.4445 1.8356 0.3651
-0.6066 1.7887 0.3651
-0.7639 1.7276 0.3652
-0.9151 1.6528 0.3652
-1.0591 1.5647 0.3653
-6.0810 7.4525 1.8594
-6.2236 6.3701 1.7216
-6.7134 5.7432 1.7079
-7.2047 5.1251 1.7092
-7.6385 4.4647 1.7104
-8.0111 3.7674 1.7114
-8.3193 3.0389 1.7122
-8.5583 2.2845 1.7124
-8.7280 1.5117 1.7124
-2.9937 0.2464 0.5807
-2.9871 -0.0216 0.5775
-2.9804 -0.2888 0.5789
-2.9737 -0.5594 0.5849
-2.9668 -0.8381 0.5960
-8.2740 -3.1586 1.7121
-7.9552 -3.8825 1.7112
-7.5724 -4.5742 1.7102
-7.1291 -5.2282 1.7090
-6.6289 -5.8390 1.7077
-6.2077 -6.5404 1.7432
-5.9727 -7.5397 1.8594
-1.0410 -1.5869 0.3669
-0.8953 -1.6737 0.3669
-0.7425 -1.7470 0.3670
-0.5836 -1.8065 0.3670
-0.4201 -1.8514 0.3670
-0.2532 -1.8816 0.3670
-0.0843 -1.8967 0.3670
0.0853 -1.8966 0.3670
0.2542 -1.8814 0.3670
0.4211 -1.8511 0.3670
0.5846 -1.8060 0.3670
0.7433 -1.7465 0.3669
0.8961 -1.6730 0.3669
1.0417 -1.5861 0.3668
5.5561 -7.0061 1.7286
5.2098 -5.4831 1.4621
6.7850 -5.9700 1.7471
7.3081 -5.3533 1.7512
7.7725 -4.6893 1.7548
8.1738 -3.9837 1.7578
8.5079 -3.2426 1.7601
8.7716 -2.4728 1.7618
8.9622 -1.6810 1.7627
9.0779 -0.8746 1.7630
9.1176 -0.0610 1.7626
9.0810 0.7525 1.7615
8.9685 1.5583 1.7597
4.8774 1.3048 0.9760
4.6333 1.6953 0.9538
4.8277 2.2735 1.0316
6.5354 5.7143 1.7338
5.9802 6.2547 1.7282
5.3821 6.7435 1.7231
1.0087 1.5254 0.3652
0.8684 1.6092 0.3652
0.7213 1.6801 0.3652
0.5684 1.7377 0.3651
0.4111 1.7814 0.3651
0.2504 1.8109 0.3651
0.0878 1.8260 0.3651
-0.0755 1.8266 0.3651
-0.2382 1.8126 0.3651
-0.3990 1.7842 0.3651
-0.5567 1.7416 0.3652
-0.7100 1.6851 0.3652
-0.8576 1.6152 0.3652
-0.9985 1.5324 0.3653
-5.7586 7.3161 1.8594
-6.2075 6.5811 1.8068
-6.3965 5.6697 1.7071
-6.8822 5.0801 1.7084
-7.3130 4.4486 1.7095
-7.6853 3.7804 1.7105
-7.9959 3.0810 1.7113
-8.2421 2.3560 1.7120
-8.4214 1.6114 1.7124
-2.9950 0.2996 0.6011
-2.9883 0.0309 0.5968
-2.9817 -0.2361 0.5974
-2.9750 -0.5057 0.6027
-2.9681 -0.7824 0.6130
-8.0588 -2.9153 1.7115
-7.7629 -3.6212 1.7107
-7.4046 -4.2971 1.7098
-6.9870 -4.9376 1.7087
-6.5137 -5.5373 1.7074
-6.2035 -6.3101 1.7672
-5.9087 -7.1955 1.8594
-1.0344 -1.5180 0.3669
-0.8949 -1.6044 0.3669
-0.7482 -1.6780 0.3669
-0.5955 -1.7382 0.3670
-0.4380 -1.7845 0.3670
-0.2770 -1.8166 0.3670
-0.1138 -1.8341 0.3670
0.0503 -1.8369 0.3670
0.2140 -1.8250 0.3670
0.3760 -1.7986 0.3670
0.5350 -1.7577 0.3669
0.6897 -1.7028 0.3669
0.8388 -1.6343 0.3669
0.9812 -1.5527 0.3668
5.2244 -6.8309 1.7175
5.4326 -5.9226 1.6051
6.4650 -5.8931 1.7471
6.9694 -5.2959 1.7481
7.4293 -4.6623 1.7517
7.8290 -3.9874 1.7547
8.1646 -3.2772 1.7570
8.4328 -2.5380 1.7588
8.6309 -1.7764 1.7598
8.7570 -0.9993 1.7602
8.8099 -0.2138 1.7600
8.7892 0.5730 1.7590
8.6951 1.3539 1.7574
4.9912 1.2417 1.0272
4.6673 1.6153 0.9864
4.7048 2.1154 1.0302
7.6171 4.2799 1.7449
7.1861 4.9297 1.7404
6.6982 5.5355 1.7354
6.1582 6.0921 1.7300
5.5712 6.5952 1.7242
1.0508 1.4968 0.3652
0.9129 1.5844 0.3652
0.7678 1.6594 0.3652
0.6166 1.7212 0.3651
0.4605 1.7693 0.3651
0.3007 1.8032 0.3651
0.1386 1.8228 0.3651
-0.0246 1.8279 0.3651
-0.1877 1.8185 0.3651
-0.3492 1.7946 0.3651
-0.5080 1.7564 0.3651
-0.6628 1.7042 0.3652
-0.8123 1.6384 0.3652
-0.9554 1.5595 0.3653
-5.5527 7.4735 1.8594
-6.1975 6.9481 1.8594
-6.2374 5.8464 1.7074
-6.7366 5.2685 1.7080
-7.1849 4.6495 1.7092
-7.5758 3.9922 1.7102
-7.9059 3.3019 1.7111
-8.1725 2.5842 1.7118
-8.3731 1.8452 1.7123
-2.9971 0.3843 0.6035
-2.9904 0.1142 0.5977
-2.9838 -0.1529 0.5967
-2.9771 -0.4212 0.6005
-2.9703 -0.6952 0.6092
-2.9632 -0.9796 0.6233
-7.8618 -3.4042 1.7110
-7.5227 -4.0901 1.7101
-7.1232 -4.7422 1.7090
-6.6669 -5.3552 1.7078
-6.2126 -5.9772 1.7217
-6.1066 -7.0282 1.8594
-1.0762 -1.4885 0.3668
-0.9392 -1.5788 0.3669
-0.7946 -1.6565 0.3669
-0.6437 -1.7209 0.3669
-0.4875 -1.7716 0.3670
-0.3275 -1.8081 0.3670
-0.1648 -1.8302 0.3670
-0.0008 -1.8376 0.3670
0.1632 -1.8303 0.3670
0.3258 -1.8084 0.3670
0.4859 -1.7719 0.3669
0.6420 -1.7214 0.3669
0.7930 -1.6570 0.3669
0.9376 -1.5795 0.3668
1.0747 -1.4893 0.3668
4.9202 -5.6731 1.4997
6.2901 -6.0627 1.7447
6.8145 -5.4840 1.7469
7.2923 -4.8643 1.7506
7.7112 -4.2017 1.7538
8.0672 -3.5019 1.7564
8.3567 -2.7710 1.7583
8.5768 -2.0156 1.7596
8.7255 -1.2426 1.7602
8.8013 -0.4589 1.7601
8.8035 0.3282 1.7594
8.7322 1.1117 1.7580
8.5882 1.8844 1.7560
4.7055 1.4832 0.9853
4.6457 1.9353 1.0051
7.7390 4.0692 1.7462
7.3267 4.7318 1.7419
6.8560 5.3518 1.7370
6.3317 5.9242 1.7317
5.7588 6.4445 1.7260
1.0921 1.4671 0.3653
0.9567 1.5585 0.3652
0.8137 1.6375 0.3652
0.6643 1.7034 0.3651
0.5096 1.7558 0.3651
0.3508 1.7942 0.3651
0.1893 1.8183 0.3651
0.0263 1.8279 0.3651
-0.1370 1.8230 0.3651
-0.2991 1.8036 0.3651
-0.4589 1.7698 0.3651
-0.6151 1.7219 0.3652
-0.7664 1.6603 0.3652
-0.9116 1.5855 0.3652
-1.0496 1.4980 0.3653
-6.0018 7.1179 1.8594
-6.2180 6.1624 1.7484
-6.5858 5.4526 1.7076
-7.0512 4.8467 1.7088
-7.4604 4.2007 1.7099
-7.8098 3.5201 1.7108
-8.0964 2.8103 1.7116
-8.3178 2.0773 1.7122
-2.9992 0.4698 0.6063
-2.9925 0.1978 0.5989
-2.9859 -0.0697 0.5965
-2.9792 -0.3372 0.5988
-2.9725 -0.6090 0.6060
-2.9655 -0.8896 0.6183
-7.9547 -3.1846 1.7112
-7.6349 -3.8798 1.7104
-7.2539 -4.5430 1.7094
-6.8149 -5.1687 1.7082
-6.3221 -5.7524 1.7070
-6.1919 -6.7380 1.8276
-5.6629 -7.3904 1.8594
-0.9827 -1.5520 0.3669
-0.8404 -1.6337 0.3669
-0.6913 -1.7023 0.3669
-0.5366 -1.7573 0.3670
-0.3777 -1.7983 0.3670
-0.2157 -1.8249 0.3670
-0.0520 -1.8369 0.3670
0.1122 -1.8341 0.3670
0.2754 -1.8168 0.3670
0.4364 -1.7848 0.3670
0.5939 -1.7386 0.3669
0.7466 -1.6785 0.3669
0.8933 -1.6050 0.3668
1.0329 -1.5187 0.3668
5.4802 -6.6860 1.7265
5.3328 -5.4343 1.5206
6.6581 -5.6705 1.7466
7.1496 -5.0622 1.7495
7.5873 -4.4124 1.7529
7.9633 -3.7235 1.7556
8.2738 -3.0016 1.7578
8.5158 -2.2531 1.7592
8.6870 -1.4848 1.7601
8.7856 -0.7037 1.7602
8.8107 0.0831 1.7597
8.7623 0.8685 1.7585
8.6408 1.6453 1.7567
4.8227 1.3738 1.0015
4.6258 1.7776 0.9897
7.8549 3.8550 1.7475
7.4616 4.5297 1.7433
7.0086 5.1636 1.7386
6.5005 5.7513 1.7334
5.9421 6.2883 1.7278
5.3417 6.7737 1.7228
0.9997 1.5313 0.3652
0.8590 1.6142 0.3652
0.7114 1.6843 0.3652
0.5582 1.7409 0.3651
0.4006 1.7837 0.3651
0.2398 1.8123 0.3651
0.0771 1.8265 0.3651
-0.0862 1.8261 0.3651
-0.2488 1.8112 0.3651
-0.4095 1.7818 0.3651
-0.5669 1.7383 0.3652
-0.7198 1.6809 0.3652
-0.8671 1.6102 0.3652
-1.0074 1.5266 0.3653
-5.8013 7.2822 1.8594
-6.2094 6.5063 1.7962
-6.4299 5.6324 1.7071
-6.9121 5.0399 1.7084
-7.3392 4.4059 1.7096
-7.7076 3.7355 1.7106
-8.0140 3.0342 1.7114
-8.2559 2.3078 1.7120
-8.4307 1.5621 1.7124
-2.9946 0.2819 0.6007
-2.9879 0.0134 0.5967
-2.9813 -0.2537 0.5976
-2.9746 -0.5236 0.6032
-2.9677 -0.8009 0.6139
-8.0413 -2.9624 1.7115
-7.7413 -3.6665 1.7107
-7.3790 -4.3402 1.7097
-6.9576 -4.9782 1.7086
-6.4808 -5.5751 1.7073
-6.2015 -6.3825 1.7773
-5.8664 -7.2299 1.8594
-1.0255 -1.5240 0.3669
-0.8855 -1.6096 0.3669
-0.7384 -1.6824 0.3669
-0.5853 -1.7417 0.3670
-0.4276 -1.7871 0.3670
-0.2664 -1.8182 0.3670
-0.1031 -1.8347 0.3670
0.0611 -1.8366 0.3670
0.2247 -1.8237 0.3670
0.3866 -1.7963 0.3670
0.5453 -1.7545 0.3669
0.6996 -1.6987 0.3669
0.8483 -1.6293 0.3669
0.9902 -1.5469 0.3668
5.2700 -6.8075 1.7193
5.9205 -6.3790 1.7381
6.4991 -5.8549 1.7470
7.0013 -5.2557 1.7484
7.4574 -4.6192 1.7519
7.8530 -3.9419 1.7548
8.1843 -3.2296 1.7572
8.4480 -2.4887 1.7589
8.6414 -1.7259 1.7599
8.7627 -0.9480 1.7602
8.8108 -0.1622 1.7599
8.7852 0.6245 1.7590
8.6864 1.4047 1.7573
4.9442 1.2608 1.0190
4.6600 1.6434 0.9869
4.7176 2.1545 1.0358
7.5907 4.3237 1.7446
7.1558 4.9709 1.7401
6.6644 5.5735 1.7351
6.1211 6.1267 1.7296
5.5313 6.6262 1.7238
1.0420 1.5029 0.3652
0.9036 1.5897 0.3652
0.7580 1.6639 0.3652
0.6065 1.7248 0.3651
0.4501 1.7719 0.3651
0.2902 1.8049 0.3651
0.1279 1.8236 0.3651
-0.0353 1.8278 0.3651
-0.1983 1.8174 0.3651
-0.3597 1.7925 0.3651
-0.5183 1.7534 0.3651
-0.6727 1.7003 0.3652
-0.8219 1.6336 0.3652
-0.9645 1.5539 0.3653
-5.5964 7.4409 1.8594
-6.2001 6.8696 1.8481
-6.2703 5.8088 1.7070
-6.7676 5.2292 1.7080
-7.2123 4.6075 1.7092
-7.5993 3.9479 1.7103
-7.9254 3.2556 1.7111
-8.1876 2.5364 1.7118
-8.3839 1.7961 1.7124
-2.9967 0.3664 0.6029
-2.9900 0.0967 0.5975
-2.9834 -0.1704 0.5968
-2.9767 -0.4389 0.6009
-2.9699 -0.7135 0.6100
-2.9628 -0.9987 0.6244
-7.8415 -3.4501 1.7109
-7.4983 -4.1339 1.7100
-7.0950 -4.7836 1.7089
-6.6350 -5.3939 1.7077
-6.2104 -6.0455 1.7309
-6.0654 -7.0638 1.8594
-1.0675 -1.4948 0.3668
-0.9299 -1.5843 0.3669
-0.7849 -1.6611 0.3669
-0.6336 -1.7247 0.3669
-0.4771 -1.7745 0.3670
-0.3169 -1.8100 0.3670
-0.1541 -1.8311 0.3670
0.0099 -1.8376 0.3670
0.1739 -1.8293 0.3670
0.3364 -1.8064 0.3670
0.4963 -1.7691 0.3669
0.6521 -1.7176 0.3669
0.8027 -1.6524 0.3669
0.9468 -1.5739 0.3668
1.0834 -1.4830 0.3668
4.9834 -5.6785 1.5089
6.3277 -6.0278 1.7453
6.8476 -5.4448 1.7472
7.3216 -4.8221 1.7509
7.7365 -4.1569 1.7540
8.0882 -3.4548 1.7565
8.3733 -2.7222 1.7584
8.5888 -1.9654 1.7596
8.7327 -1.1915 1.7602
8.8037 -0.4073 1.7601
8.8011 0.3798 1.7593
8.7250 1.1628 1.7579
5.2641 1.1874 1.0777
4.6944 1.5100 0.9848
4.6579 1.9725 1.0102
7.7139 4.1138 1.7459
7.2975 4.7738 1.7416
6.8232 5.3909 1.7367
6.2956 5.9600 1.7314
5.7197 6.4766 1.7257
1.0834 1.4734 0.3653
0.9475 1.5640 0.3652
0.8041 1.6422 0.3652
0.6543 1.7073 0.3651
0.4993 1.7587 0.3651
0.3403 1.7962 0.3651
0.1786 1.8193 0.3651
0.0156 1.8280 0.3651
-0.1476 1.8222 0.3651
-0.3097 1.8018 0.3651
-0.4693 1.7671 0.3651
-0.6251 1.7183 0.3652
-0.7761 1.6558 0.3652
-0.9209 1.5801 0.3652
-1.0583 1.4918 0.3653
-6.0434 7.0827 1.8594
-6.2197 6.0923 1.7388
-6.6179 5.4142 1.7076
-7.0798 4.8055 1.7089
-7.4852 4.1571 1.7100
-7.8305 3.4744 1.7109
-8.1129 2.7629 1.7116
-8.3300 2.0286 1.7122
-2.9988 0.4517 0.6057
-2.9921 0.1802 0.5986
-2.9854 -0.0872 0.5965
-2.9788 -0.3548 0.5991
-2.9720 -0.6270 0.6066
-2.9650 -0.9084 0.6193
-7.9357 -3.2310 1.7112
-7.6118 -3.9244 1.7103
-7.2269 -4.5853 1.7093
-6.7842 -5.2083 1.7081
-6.2883 -5.7893 1.7070
-6.1898 -6.8154 1.8387
-5.6195 -7.4234 1.8594
-0.9736 -1.5578 0.3669
-0.8308 -1.6386 0.3669
-0.6813 -1.7064 0.3669
-0.5263 -1.7605 0.3670
-0.3671 -1.8005 0.3670
-0.2050 -1.8261 0.3670
-0.0412 -1.8371 0.3670
0.1229 -1.8335 0.3670
0.2860 -1.8151 0.3670
0.4468 -1.7822 0.3670
0.6041 -1.7351 0.3669
0.7564 -1.6741 0.3669
0.9027 -1.5997 0.3668
1.0417 -1.5126 0.3668
5.5231 -6.6584 1.7277
5.3593 -5.3977 1.5191
6.6908 -5.6311 1.7465
7.1801 -5.0209 1.7498
7.6139 -4.3684 1.7531
7.9857 -3.6771 1.7558
8.2918 -2.9533 1.7579
8.5292 -2.2033 1.7593
8.6957 -1.4340 1.7601
8.7895 -0.6522 1.7602
8.8098 0.1347 1.7596
8.7565 0.9197 1.7584
8.6303 1.6957 1.7565
4.7977 1.3971 0.9980
4.6186 1.8060 0.9904
7.8310 3.9004 1.7472
7.4337 4.5726 1.7430
6.9769 5.2036 1.7382
6.4653 5.7881 1.7331
5.9039 6.3216 1.7275
5.2997 6.8022 1.7221
0.9907 1.5371 0.3652
0.8495 1.6192 0.3652
0.7015 1.6884 0.3651
0.5480 1.7442 0.3651
0.3902 1.7860 0.3651
0.2292 1.8137 0.3651
0.0664 1.8269 0.3651
-0.0969 1.8256 0.3651
-0.2594 1.8097 0.3651
-0.4199 1.7794 0.3651
-0.5771 1.7350 0.3652
-0.7297 1.6767 0.3652
-0.8765 1.6051 0.3652
-1.0164 1.5206 0.3653
-5.8439 7.2481 1.8594
-6.2113 6.4324 1.7858
-6.4631 5.5950 1.7072
-6.9418 4.9996 1.7085
-7.3652 4.3630 1.7096
-7.7296 3.6904 1.7106
-8.0319 2.9873 1.7114
-8.2695 2.2594 1.7121
-8.4397 1.5127 1.7124
-2.9941 0.2641 0.6003
-2.9875 -0.0041 0.5966
-2.9808 -0.2712 0.5978
-2.9741 -0.5415 0.6037
-2.9672 -0.8195 0.6148
-8.0236 -3.0093 1.7114
-7.7194 -3.7116 1.7106
-7.3532 -4.3832 1.7096
-6.9280 -5.0186 1.7085
-6.4477 -5.6127 1.7072
-6.1996 -6.4557 1.7875
-5.8240 -7.2642 1.8594
-1.0166 -1.5300 0.3669
-0.8761 -1.6148 0.3669
-0.7285 -1.6867 0.3669
-0.5751 -1.7451 0.3670
-0.4171 -1.7896 0.3670
-0.2558 -1.8197 0.3670
-0.0923 -1.8353 0.3670
0.0718 -1.8362 0.3670
0.2354 -1.8224 0.3670
0.3971 -1.7940 0.3670
0.5555 -1.7513 0.3669
0.7096 -1.6946 0.3669
0.8579 -1.6243 0.3669
0.9993 -1.5411 0.3668
5.3154 -6.7837 1.7212
5.9604 -6.3470 1.7389
6.5330 -5.8165 1.7469
7.0329 -5.2154 1.7486
7.4852 -4.5760 1.7521
7.8768 -3.8962 1.7550
8.2037 -3.1818 1.7573
8.4628 -2.4393 1.7589
8.6516 -1.6753 1.7599
8.7681 -0.8967 1.7602
8.8114 -0.1105 1.7599
8.7810 0.6759 1.7589
8.6774 1.4554 1.7572
4.9183 1.2849 1.0152
4.6528 1.6716 0.9874
4.7846 2.2191 1.0533
7.5640 4.3674 1.7444
7.1253 5.0118 1.7398
6.6303 5.6113 1.7347
6.0838 6.1612 1.7293
5.4911 6.6570 1.7234
1.0332 1.5090 0.3652
0.8943 1.5950 0.3652
0.7483 1.6683 0.3652
0.5964 1.7283 0.3651
0.4397 1.7745 0.3651
0.2796 1.8066 0.3651
0.1173 1.8243 0.3651
-0.0460 1.8275 0.3651
-0.2089 1.8162 0.3651
-0.3702 1.7904 0.3651
-0.5285 1.7503 0.3651
-0.6827 1.6963 0.3652
-0.8314 1.6288 0.3652
-0.9736 1.5483 0.3653
-5.6399 7.4079 1.8594
-6.2021 6.7915 1.8368
-6.3042 5.7720 1.7070
-6.7985 5.1897 1.7081
-7.2395 4.5654 1.7093
-7.6226 3.9034 1.7103
-7.9445 3.2093 1.7112
-8.2025 2.4884 1.7119
-8.3943 1.7470 1.7124
-2.9962 0.3486 0.6024
-2.9895 0.0791 0.5973
-2.9829 -0.1879 0.5969
-2.9762 -0.4567 0.6013
-2.9694 -0.7318 0.6108
-2.9623 -1.0179 0.6256
-7.8209 -3.4959 1.7109
-7.4737 -4.1777 1.7100
-7.0666 -4.8249 1.7089
-6.6030 -5.4323 1.7076
-6.2086 -6.1149 1.7404
-6.0239 -7.0993 1.8594
-1.0587 -1.5011 0.3668
-0.9206 -1.5897 0.3669
-0.7752 -1.6657 0.3669
-0.6235 -1.7284 0.3670
-0.4667 -1.7772 0.3670
-0.3063 -1.8119 0.3670
-0.1434 -1.8320 0.3670
0.0207 -1.8375 0.3670
0.1846 -1.8282 0.3670
0.3470 -1.8044 0.3670
0.5066 -1.7661 0.3669
0.6621 -1.7137 0.3669
0.8124 -1.6476 0.3669
0.9560 -1.5684 0.3668
5.1022 -6.8989 1.7137
5.3190 -5.9898 1.5998
6.3650 -5.9927 1.7459
6.8803 -5.4054 1.7474
7.3507 -4.7798 1.7511
7.7615 -4.1120 1.7542
8.1090 -3.4077 1.7567
8.3895 -2.6732 1.7585
8.6004 -1.9151 1.7597
8.7397 -1.1403 1.7602
8.8058 -0.3558 1.7601
8.7984 0.4313 1.7593
8.7175 1.2138 1.7578
5.1888 1.2024 1.0637
4.6871 1.5380 0.9852
4.6702 2.0100 1.0154
7.6885 4.1583 1.7457
7.2682 4.8156 1.7412
6.7902 5.4297 1.7363
6.2592 5.9955 1.7310
5.6804 6.5086 1.7253
1.0748 1.4797 0.3652
0.9383 1.5695 0.3652
0.7944 1.6469 0.3652
0.6443 1.7111 0.3651
0.4890 1.7616 0.3651
0.3298 1.7981 0.3651
0.1680 1.8204 0.3651
0.0049 1.8281 0.3651
-0.1583 1.8213 0.3651
-0.3202 1.7999 0.3651
-0.4796 1.7643 0.3651
-0.6352 1.7146 0.3652
-0.7858 1.6512 0.3652
-0.9301 1.5747 0.3652
-1.0671 1.4856 0.3653
-6.0847 7.0471 1.8594
-6.2214 6.0229 1.7293
-6.6499 5.3756 1.7077
-7.1082 4.7642 1.7090
-7.5097 4.1134 1.7100
-7.8510 3.4286 1.7109
-8.1292 2.7154 1.7117
-8.3419 1.9798 1.7123
-2.9983 0.4337 0.6050
-2.9916 0.1626 0.5983
-2.9850 -0.1047 0.5965
-2.9783 -0.3725 0.5994
-2.9716 -0.6451 0.6073
-2.9645 -0.9273 0.6203
-7.9164 -3.2773 1.7111
-7.5884 -3.9687 1.7103
-7.1996 -4.6273 1.7092
-6.7532 -5.2477 1.7080
-6.2543 -5.8261 1.7070
-6.1876 -6.8938 1.8500
-5.5760 -7.4562 1.8594
-0.9645 -1.5634 0.3669
-0.8212 -1.6435 0.3669
-0.6713 -1.7103 0.3669
-0.5160 -1.7635 0.3670
-0.3566 -1.8026 0.3670
-0.1943 -1.8273 0.3670
-0.0305 -1.8373 0.3670
0.1336 -1.8327 0.3670
0.2966 -1.8134 0.3670
0.4573 -1.7796 0.3669
0.6142 -1.7315 0.3669
0.7662 -1.6696 0.3669
0.9121 -1.5944 0.3668
1.0506 -1.5065 0.3668
4.8356 -5.7607 1.5021
5.4024 -5.3777 1.5224
6.7234 -5.5916 1.7464
7.2103 -4.9794 1.7500
7.6402 -4.3242 1.7533
8.0078 -3.6306 1.7559
8.3095 -2.9048 1.7580
8.5423 -2.1534 1.7594
8.7041 -1.3830 1.7601
8.7931 -0.6008 1.7602
8.8086 0.1863 1.7596
8.7505 0.9710 1.7583
8.6195 1.7461 1.7564
4.7729 1.4203 0.9945
4.6129 1.8350 0.9915
7.8069 3.9456 1.7470
7.4055 4.6153 1.7427
6.9450 5.2434 1.7379
6.4300 5.8247 1.7327
5.8655 6.3546 1.7271
5.2577 6.8303 1.7214
0.9817 1.5429 0.3652
0.8400 1.6242 0.3652
0.6916 1.6925 0.3651
0.5378 1.7473 0.3651
0.3797 1.7883 0.3651
0.2186 1.8150 0.3651
0.0557 1.8272 0.3651
-0.1076 1.8250 0.3651
-0.2700 1.8081 0.3651
-0.4303 1.7769 0.3651
-0.5872 1.7316 0.3652
-0.7395 1.6724 0.3652
-0.8859 1.5999 0.3652
-1.0253 1.5147 0.3653
-5.8862 7.2138 1.8594
-6.2131 6.3594 1.7756
-6.4961 5.5573 1.7073
-6.9713 4.9591 1.7086
-7.3909 4.3200 1.7097
-7.7513 3.6452 1.7107
-8.0494 2.9403 1.7115
-8.2828 2.2110 1.7121
-8.4484 1.4632 1.7124
-2.9937 0.2464 0.5999
-2.9870 -0.0216 0.5966
-2.9804 -0.2888 0.5980
-2.9737 -0.5594 0.6043
-2.9668 -0.8381 0.6157
-8.0056 -3.0562 1.7114
-7.6972 -3.7566 1.7105
-7.3270 -4.4260 1.7096
-6.8982 -5.0588 1.7084
-6.4144 -5.6500 1.7071
-6.1976 -6.5297 1.7979
-5.7813 -7.2981 1.8594
-1.0076 -1.5359 0.3669
-0.8666 -1.6199 0.3669
-0.7186 -1.6909 0.3669
-0.5649 -1.7484 0.3670
-0.4066 -1.7920 0.3670
-0.2451 -1.8212 0.3670
-0.0816 -1.8358 0.3670
0.0826 -1.8357 0.3670
0.2461 -1.8210 0.3670
0.4076 -1.7916 0.3670
0.5658 -1.7480 0.3669
0.7195 -1.6904 0.3669
0.8674 -1.6192 0.3669
1.0083 -1.5352 0.3668
5.3607 -6.7597 1.7230
6.0001 -6.3148 1.7397
6.5666 -5.7778 1.7468
7.0644 -5.1748 1.7489
7.5128 -4.5326 1.7523
7.9002 -3.8504 1.7552
8.2228 -3.1340 1.7574
8.4774 -2.3898 1.7590
8.6614 -1.6246 1.7600
8.7732 -0.8453 1.7602
8.8117 -0.0590 1.7598
8.7764 0.7272 1.7588
8.6680 1.5061 1.7571
4.8925 1.3088 1.0115
4.6456 1.6998 0.9879
4.8736 2.2951 1.0759
6.3257 5.5310 1.7320
5.7889 6.0547 1.7267
1.1055 1.3851 0.3653
0.9774 1.4781 0.3653
0.8415 1.5592 0.3652
0.6989 1.6280 0.3652
0.5508 1.6837 0.3652
0.3983 1.7261 0.3651
0.2427 1.7547 0.3651
0.0851 1.7693 0.3651
-0.0731 1.7699 0.3651
-0.2308 1.7563 0.3651
-0.3866 1.7288 0.3652
-0.5394 1.6875 0.3652
-0.6879 1.6328 0.3652
-0.8310 1.5651 0.3653
-0.9675 1.4848 0.3653
-5.5794 7.0884 1.8594
-6.1897 6.5622 1.8594
-6.2288 5.5211 1.7157
-6.6658 4.9204 1.7078
-7.0829 4.3087 1.7089
-7.4433 3.6614 1.7099
-7.7440 2.9839 1.7107
-7.9824 2.2818 1.7113
-8.1564 1.5607 1.7118
-2.9950 0.2996 0.6204
-2.9883 0.0309 0.6160
-2.9817 -0.2361 0.6165
-2.9750 -0.5057 0.6220
-2.9681 -0.7824 0.6327
-7.8049 -2.8235 1.7108
-7.5184 -3.5072 1.7101
-7.1716 -4.1619 1.7091
-6.7673 -4.7823 1.7081
-6.3097 -5.3639 1.7070
-6.1935 -6.3000 1.8210
-5.7248 -6.9716 1.8594
-1.0021 -1.4706 0.3668
-0.8670 -1.5544 0.3669
-0.7249 -1.6257 0.3669
-0.5769 -1.6840 0.3669
-0.4244 -1.7289 0.3669
-0.2684 -1.7599 0.3670
-0.1103 -1.7769 0.3670
0.0487 -1.7796 0.3670
0.2074 -1.7681 0.3669
0.3643 -1.7425 0.3669
0.5183 -1.7029 0.3669
0.6682 -1.6497 0.3669
0.8126 -1.5833 0.3668
0.9506 -1.5043 0.3668
1.0809 -1.4133 0.3667
5.4704 -5.9637 1.6681
6.2527 -5.6996 1.7440
6.7440 -5.1246 1.7459
7.1886 -4.5112 1.7494
7.5750 -3.8580 1.7522
7.8993 -3.1707 1.7545
8.1585 -2.4555 1.7562
8.3500 -1.7186 1.7572
8.4719 -0.9668 1.7576
8.5232 -0.2068 1.7574
8.5033 0.5544 1.7565
8.4125 1.3099 1.7549
5.0212 1.2492 1.0665
4.6798 1.6196 1.0208
4.7214 2.1229 1.0671
7.3712 4.1417 1.7428
6.9547 4.7710 1.7385
6.4831 5.3577 1.7336
5.9611 5.8971 1.7284
5.3966 6.3885 1.7238
1.0181 1.4503 0.3653
0.8846 1.5352 0.3652
0.7439 1.6079 0.3652
0.5974 1.6678 0.3652
0.4462 1.7143 0.3651
0.2914 1.7473 0.3651
0.1343 1.7663 0.3651
-0.0238 1.7712 0.3651
-0.1818 1.7621 0.3651
-0.3384 1.7389 0.3651
-0.4922 1.7018 0.3652
-0.6422 1.6513 0.3652
-0.7871 1.5875 0.3652
-0.9257 1.5111 0.3653
-1.0570 1.4227 0.3653
-6.0047 6.7319 1.8594
-6.2162 5.8268 1.7562
-6.5248 5.1029 1.7074
-6.9589 4.5032 1.7086
-7.3373 3.8665 1.7096
-7.6570 3.1979 1.7104
-7.9150 2.5028 1.7111
-8.1092 1.7870 1.7116
-2.9971 0.3843 0.6228
-2.9904 0.1142 0.6169
-2.9838 -0.1529 0.6158
-2.9771 -0.4212 0.6198
-2.9703 -0.6952 0.6288
-2.9632 -0.9796 0.6433
-7.6143 -3.2970 1.7103
-7.2859 -3.9614 1.7095
-6.8992 -4.5930 1.7084
-6.4573 -5.1868 1.7072
-6.2025 -5.9674 1.7741
-5.9166 -6.8095 1.8594
-1.0426 -1.4421 0.3668
-0.9099 -1.5296 0.3669
-0.7698 -1.6048 0.3669
-0.6236 -1.6673 0.3669
-0.4723 -1.7164 0.3669
-0.3173 -1.7517 0.3670
-0.1597 -1.7731 0.3670
-0.0008 -1.7803 0.3670
0.1581 -1.7732 0.3670
0.3157 -1.7519 0.3669
0.4707 -1.7167 0.3669
0.6220 -1.6677 0.3669
0.7683 -1.6054 0.3669
0.9084 -1.5302 0.3668
1.0412 -1.4429 0.3668
4.9007 -5.6506 1.5418
6.0817 -5.8618 1.7411
6.5987 -5.3103 1.7459
7.0562 -4.7068 1.7484
7.4611 -4.0654 1.7514
7.8051 -3.3881 1.7539
8.0849 -2.6809 1.7557
8.2977 -1.9500 1.7570
8.4415 -1.2021 1.7576
8.5148 -0.4440 1.7575
8.5171 0.3176 1.7568
8.4483 1.0756 1.7555
8.3093 1.8232 1.7535
4.7198 1.4877 1.0201
4.6618 1.9420 1.0410
7.4890 3.9378 1.7441
7.0906 4.5793 1.7399
6.6357 5.1798 1.7352
6.1288 5.7344 1.7301
5.5748 6.2386 1.7246
1.0582 1.4215 0.3653
0.9270 1.5101 0.3652
0.7884 1.5866 0.3652
0.6436 1.6505 0.3652
0.4937 1.7013 0.3651
0.3399 1.7385 0.3651
0.1834 1.7618 0.3651
0.0255 1.7712 0.3651
-0.1327 1.7664 0.3651
-0.2898 1.7476 0.3651
-0.4447 1.7148 0.3652
-0.5960 1.6684 0.3652
-0.7426 1.6088 0.3652
-0.8833 1.5362 0.3653
-1.0170 1.4515 0.3653
-5.8150 6.8965 1.8594
-6.2081 6.1526 1.8016
-6.3874 5.2877 1.7093
-6.8295 4.6942 1.7082
-7.2256 4.0685 1.7093
-7.5639 3.4093 1.7102
-7.8414 2.7218 1.7109
-8.0557 2.0118 1.7115
-2.9992 0.4698 0.6258
-2.9925 0.1978 0.6182
-2.9858 -0.0697 0.6156
-2.9792 -0.3372 0.6180
-2.9724 -0.6090 0.6254
-2.9655 -0.8896 0.6382
-7.7042 -3.0843 1.7106
-7.3946 -3.7577 1.7097
-7.0257 -4.4001 1.7088
-6.6006 -5.0062 1.7076
-6.2108 -5.6511 1.7308
-6.1039 -6.6422 1.8594
-1.0823 -1.4125 0.3668
-0.9521 -1.5036 0.3668
-0.8142 -1.5828 0.3669
-0.6697 -1.6492 0.3669
-0.5199 -1.7025 0.3669
-0.3659 -1.7422 0.3670
-0.2090 -1.7680 0.3670
-0.0504 -1.7796 0.3670
0.1087 -1.7769 0.3670
0.2668 -1.7601 0.3669
0.4228 -1.7292 0.3669
0.5754 -1.6844 0.3669
0.7233 -1.6262 0.3669
0.8655 -1.5550 0.3668
1.0007 -1.4713 0.3668
5.2906 -6.4547 1.7203
5.3204 -5.4217 1.5658
6.4498 -5.4931 1.7463
6.9182 -4.8984 1.7473
7.3413 -4.2693 1.7505
7.7047 -3.6026 1.7532
8.0048 -2.9040 1.7552
8.2388 -2.1798 1.7567
8.4042 -1.4365 1.7575
8.4996 -0.6808 1.7576
8.5240 0.0804 1.7571
8.4773 0.8402 1.7560
8.3600 1.5918 1.7542
4.8375 1.3781 1.0368
4.6383 1.7824 1.0242
7.6010 3.7304 1.7453
7.2209 4.3837 1.7412
6.7832 4.9975 1.7367
6.2920 5.5669 1.7317
5.7521 6.0872 1.7263
1.0974 1.3915 0.3653
0.9687 1.4838 0.3652
0.8323 1.5641 0.3652
0.6893 1.6320 0.3652
0.5409 1.6869 0.3652
0.3882 1.7284 0.3651
0.2324 1.7561 0.3651
0.0747 1.7698 0.3651
-0.0835 1.7694 0.3651
-0.2411 1.7549 0.3651
-0.3968 1.7265 0.3652
-0.5493 1.6843 0.3652
-0.6975 1.6287 0.3652
-0.8401 1.5602 0.3653
-0.9761 1.4792 0.3653
-5.6208 7.0556 1.8594
-6.1993 6.4957 1.8508
-6.2357 5.4622 1.7088
-6.6948 4.8815 1.7079
-7.1083 4.2673 1.7090
-7.4649 3.6179 1.7099
-7.7616 2.9386 1.7107
-7.9958 2.2351 1.7113
-8.1655 1.5130 1.7118
-2.9946 0.2819 0.6200
-2.9879 0.0134 0.6159
-2.9813 -0.2537 0.6167
-2.9746 -0.5236 0.6226
-2.9677 -0.8009 0.6336
-7.7880 -2.8691 1.7108
-7.4975 -3.5510 1.7100
-7.1468 -4.2037 1.7091
-6.7388 -4.8216 1.7080
-6.2781 -5.4008 1.7070
-6.1915 -6.3722 1.8314
-5.6839 -7.0050 1.8594
-0.9935 -1.4765 0.3668
-0.8579 -1.5594 0.3669
-0.7153 -1.6299 0.3669
-0.5671 -1.6874 0.3669
-0.4142 -1.7313 0.3669
-0.2581 -1.7615 0.3670
-0.0999 -1.7775 0.3670
0.0592 -1.7793 0.3670
0.2177 -1.7668 0.3669
0.3745 -1.7403 0.3669
0.5283 -1.6998 0.3669
0.6778 -1.6457 0.3669
0.8219 -1.5785 0.3668
0.9594 -1.4987 0.3668
5.0888 -6.5735 1.7135
5.7203 -6.1634 1.7333
6.2880 -5.6647 1.7445
6.7749 -5.0858 1.7462
7.2157 -4.4696 1.7496
7.5981 -3.8139 1.7524
7.9183 -3.1247 1.7547
8.1732 -2.4078 1.7563
8.3601 -1.6697 1.7573
8.4775 -0.9171 1.7576
8.5240 -0.1569 1.7573
8.4995 0.6041 1.7564
8.4041 1.3590 1.7548
4.9597 1.2648 1.0550
4.6725 1.6478 1.0213
4.7427 2.1660 1.0747
7.3457 4.1842 1.7425
6.9255 4.8108 1.7382
6.4504 5.3946 1.7333
5.9252 5.9306 1.7280
5.3575 6.4180 1.7233
1.0096 1.4563 0.3653
0.8755 1.5404 0.3652
0.7345 1.6122 0.3652
0.5877 1.6712 0.3652
0.4361 1.7169 0.3651
0.2812 1.7489 0.3651
0.1240 1.7670 0.3651
-0.0342 1.7710 0.3651
-0.1921 1.7610 0.3651
-0.3485 1.7369 0.3652
-0.5022 1.6989 0.3652
-0.6519 1.6475 0.3652
-0.7964 1.5829 0.3652
-0.9346 1.5057 0.3653
-1.0653 1.4165 0.3653
-6.0440 6.6967 1.8594
-6.2178 5.7603 1.7471
-6.5549 5.0648 1.7075
-6.9854 4.4626 1.7086
-7.3601 3.8236 1.7096
-7.6758 3.1531 1.7105
-7.9297 2.4565 1.7112
-8.1197 1.7395 1.7117
-2.9967 0.3664 0.6223
-2.9900 0.0967 0.6166
-2.9833 -0.1704 0.6159
-2.9767 -0.4389 0.6202
-2.9698 -0.7135 0.6296
-2.9627 -0.9987 0.6445
-7.5946 -3.3415 1.7103
-7.2623 -4.0038 1.7094
-6.8719 -4.6332 1.7083
-6.4265 -5.2243 1.7072
-6.2007 -6.0360 1.7837
-5.8766 -6.8440 1.8594
-1.0342 -1.4482 0.3668
-0.9009 -1.5349 0.3669
-0.7604 -1.6093 0.3669
-0.6138 -1.6709 0.3669
-0.4623 -1.7191 0.3669
-0.3070 -1.7536 0.3670
-0.1493 -1.7740 0.3670
0.0096 -1.7802 0.3670
0.1685 -1.7722 0.3670
0.3259 -1.7501 0.3669
0.4808 -1.7139 0.3669
0.6318 -1.6640 0.3669
0.7777 -1.6008 0.3668
0.9173 -1.5249 0.3668
1.0496 -1.4367 0.3668
4.9471 -5.6371 1.5459
6.1184 -5.8284 1.7418
6.6294 -5.2713 1.7458
7.0845 -4.6660 1.7486
7.4855 -4.0220 1.7516
7.8255 -3.3426 1.7540
8.1010 -2.6336 1.7558
8.3093 -1.9015 1.7570
8.4485 -1.1527 1.7576
8.5172 -0.3941 1.7575
8.5147 0.3674 1.7567
8.4413 1.1250 1.7554
8.2978 1.8717 1.7534
4.7069 1.5141 1.0192
4.6740 1.9793 1.0463
7.4647 3.9810 1.7438
7.0624 4.6200 1.7396
6.6040 5.2176 1.7349
6.0939 5.7691 1.7297
5.5370 6.2698 1.7242
1.0498 1.4277 0.3653
0.9181 1.5155 0.3652
0.7791 1.5912 0.3652
0.6340 1.6543 0.3652
0.4838 1.7041 0.3651
0.3297 1.7404 0.3651
0.1731 1.7629 0.3651
0.0151 1.7713 0.3651
-0.1431 1.7656 0.3651
-0.3001 1.7459 0.3651
-0.4547 1.7122 0.3652
-0.6057 1.6649 0.3652
-0.7520 1.6044 0.3652
-0.8923 1.5311 0.3653
-1.0255 1.4455 0.3653
-5.8553 6.8623 1.8594
-6.2099 6.0827 1.7918
-6.4099 5.2441 1.7071
-6.8572 4.6543 1.7083
-7.2496 4.0263 1.7093
-7.5840 3.3650 1.7102
-7.8574 2.6759 1.7110
-8.0675 1.9647 1.7115
-2.9988 0.4517 0.6251
-2.9920 0.1802 0.6179
-2.9854 -0.0872 0.6156
-2.9788 -0.3548 0.6183
-2.9720 -0.6270 0.6261
-2.9650 -0.9084 0.6392
-7.6857 -3.1293 1.7105
-7.3722 -3.8008 1.7097
-6.9995 -4.4410 1.7087
-6.5709 -5.0446 1.7075
-6.2091 -5.7164 1.7397
-6.0649 -6.6779 1.8594
-1.0740 -1.4188 0.3668
-0.9433 -1.5092 0.3668
-0.8049 -1.5875 0.3669
-0.6601 -1.6531 0.3669
-0.5099 -1.7056 0.3669
-0.3557 -1.7443 0.3670
-0.1986 -1.7692 0.3670
-0.0399 -1.7798 0.3670
0.1191 -1.7763 0.3670
0.2771 -1.7585 0.3669
0.4329 -1.7266 0.3669
0.5852 -1.6810 0.3669
0.7328 -1.6219 0.3669
0.8746 -1.5499 0.3668
1.0092 -1.4654 0.3668
4.8168 -5.8069 1.5551
5.3461 -5.3844 1.5640
6.4816 -5.4550 1.7462
6.9477 -4.8584 1.7475
7.3670 -4.2267 1.7507
7.7264 -3.5577 1.7533
8.0222 -2.8573 1.7553
8.2517 -2.1316 1.7567
8.4126 -1.3873 1.7575
8.5034 -0.6310 1.7576
8.5231 0.1303 1.7571
8.4718 0.8898 1.7559
8.3499 1.6406 1.7541
4.8124 1.4014 1.0332
4.6311 1.8108 1.0250
7.5779 3.7743 1.7450
7.1940 4.4251 1.7409
6.7526 5.0362 1.7364
6.2580 5.6025 1.7314
5.7152 6.1195 1.7260
1.0892 1.3979 0.3653
0.9600 1.4894 0.3652
0.8231 1.5690 0.3652
0.6798 1.6360 0.3652
0.5310 1.6900 0.3652
0.3781 1.7306 0.3651
0.2221 1.7574 0.3651
0.0644 1.7702 0.3651
-0.0939 1.7689 0.3651
-0.2514 1.7535 0.3651
-0.4069 1.7242 0.3652
-0.5592 1.6811 0.3652
-0.7070 1.6246 0.3652
-0.8493 1.5552 0.3653
-0.9848 1.4734 0.3653
-5.6621 7.0226 1.8594
-6.2012 6.4220 1.8402
-6.2613 5.4202 1.7070
-6.7235 4.8424 1.7079
-7.1334 4.2257 1.7090
-7.4862 3.5742 1.7100
-7.7789 2.8932 1.7107
-8.0089 2.1882 1.7114
-8.1744 1.4651 1.7118
-2.9941 0.2641 0.6196
-2.9875 -0.0041 0.6158
-2.9808 -0.2712 0.6170
-2.9741 -0.5415 0.6231
-2.9672 -0.8195 0.6345
-7.7709 -2.9145 1.7107
-7.4764 -3.5948 1.7100
-7.1218 -4.2453 1.7090
-6.7102 -4.8608 1.7079
-6.2464 -5.4374 1.7070
-6.1895 -6.4452 1.8419
-5.6428 -7.0381 1.8594
-0.9849 -1.4823 0.3668
-0.8487 -1.5644 0.3669
-0.7058 -1.6341 0.3669
-0.5572 -1.6907 0.3669
-0.4041 -1.7337 0.3669
-0.2478 -1.7629 0.3670
-0.0895 -1.7780 0.3670
0.0696 -1.7789 0.3670
0.2281 -1.7655 0.3669
0.3847 -1.7381 0.3669
0.5382 -1.6967 0.3669
0.6874 -1.6417 0.3669
0.8311 -1.5737 0.3668
0.9681 -1.4930 0.3668
5.1284 -6.5451 1.7139
5.7600 -6.1337 1.7344
6.3230 -5.6295 1.7451
6.8055 -5.0467 1.7464
7.2426 -4.4277 1.7498
7.6211 -3.7697 1.7526
7.9371 -3.0784 1.7548
8.1875 -2.3599 1.7564
8.3700 -1.6208 1.7573
8.4827 -0.8675 1.7576
8.5246 -0.1069 1.7573
8.4954 0.6539 1.7563
8.3954 1.4081 1.7547
4.9336 1.2889 1.0511
4.6653 1.6761 1.0218
4.8297 2.2400 1.0974
7.3199 4.2264 1.7423
6.8959 4.8505 1.7378
6.4175 5.4312 1.7330
5.8892 5.9640 1.7277
5.3178 6.4468 1.7226
1.0011 1.4621 0.3653
0.8665 1.5455 0.3652
0.7250 1.6165 0.3652
0.5779 1.6746 0.3652
0.4261 1.7194 0.3651
0.2709 1.7505 0.3651
0.1136 1.7677 0.3651
-0.0446 1.7708 0.3651
-0.2025 1.7598 0.3651
-0.3587 1.7348 0.3652
-0.5121 1.6960 0.3652
-0.6615 1.6436 0.3652
-0.8056 1.5782 0.3652
-0.9434 1.5002 0.3653
-1.0736 1.4102 0.3653
-6.0831 6.6612 1.8594
-6.2194 5.6944 1.7382
-6.5848 5.0265 1.7076
-7.0117 4.4218 1.7087
-7.3827 3.7806 1.7097
-7.6943 3.1082 1.7105
-7.9441 2.4101 1.7112
-8.1299 1.6920 1.7117
-2.9962 0.3486 0.6218
-2.9895 0.0791 0.6164
-2.9829 -0.1879 0.6161
-2.9762 -0.4567 0.6207
-2.9694 -0.7318 0.6304
-2.9623 -1.0179 0.6456
-7.5747 -3.3858 1.7102
-7.2385 -4.0462 1.7093
-6.8443 -4.6732 1.7083
-6.3955 -5.2616 1.7071
-6.1988 -6.1053 1.7934
-5.8365 -6.8784 1.8594
-1.0257 -1.4543 0.3668
-0.8919 -1.5402 0.3669
-0.7510 -1.6138 0.3669
-0.6040 -1.6745 0.3669
-0.4522 -1.7218 0.3669
-0.2967 -1.7553 0.3670
-0.1389 -1.7748 0.3670
0.0200 -1.7802 0.3670
0.1788 -1.7712 0.3670
0.3362 -1.7481 0.3669
0.4908 -1.7110 0.3669
0.6415 -1.6603 0.3669
0.7870 -1.5962 0.3668
0.9262 -1.5195 0.3668
1.0580 -1.4305 0.3668
5.3295 -6.0015 1.6544
6.1546 -5.7945 1.7424
6.6599 -5.2322 1.7458
7.1126 -4.6250 1.7488
7.5097 -3.9786 1.7518
7.8455 -3.2970 1.7542
8.1167 -2.5863 1.7559
8.3206 -1.8528 1.7571
8.4551 -1.1032 1.7576
8.5192 -0.3442 1.7575
8.5121 0.4173 1.7567
8.4341 1.1743 1.7553
5.2210 1.2099 1.1047
4.6997 1.5422 1.0196
4.6865 2.0170 1.0517
7.4402 4.0240 1.7436
7.0341 4.6605 1.7393
6.5721 5.2552 1.7345
6.0588 5.8035 1.7294
5.4990 6.3008 1.7238
1.0414 1.4338 0.3653
0.9092 1.5208 0.3652
0.7698 1.5957 0.3652
0.6243 1.6579 0.3652
0.4738 1.7069 0.3651
0.3195 1.7423 0.3651
0.1628 1.7639 0.3651
0.0047 1.7714 0.3651
-0.1534 1.7647 0.3651
-0.3103 1.7441 0.3651
-0.4647 1.7095 0.3652
-0.6155 1.6614 0.3652
-0.7614 1.6000 0.3652
-0.9012 1.5258 0.3653
-1.0339 1.4395 0.3653
-5.8954 6.8279 1.8594
-6.2116 6.0135 1.7821
-6.4409 5.2067 1.7072
-6.8846 4.6143 1.7084
-7.2733 3.9839 1.7094
-7.6038 3.3206 1.7103
-7.8731 2.6299 1.7110
-8.0790 1.9174 1.7116
-2.9983 0.4337 0.6245
-2.9916 0.1626 0.6176
-2.9850 -0.1047 0.6157
-2.9783 -0.3725 0.6187
-2.9715 -0.6451 0.6268
-2.9645 -0.9273 0.6403
-7.6671 -3.1741 1.7105
-7.3496 -3.8438 1.7096
-6.9731 -4.4817 1.7086
-6.5409 -5.0827 1.7075
-6.2074 -5.7823 1.7486
-6.0256 -6.7133 1.8594
-1.0657 -1.4251 0.3668
-0.9344 -1.5147 0.3668
-0.7956 -1.5922 0.3669
-0.6504 -1.6570 0.3669
-0.4999 -1.7085 0.3669
-0.3455 -1.7464 0.3670
-0.1882 -1.7703 0.3670
-0.0295 -1.7800 0.3670
0.1295 -1.7755 0.3670
0.2874 -1.7568 0.3669
0.4430 -1.7241 0.3669
0.5950 -1.6775 0.3669
0.7423 -1.6176 0.3669
0.8836 -1.5447 0.3668
1.0178 -1.4595 0.3668
4.8154 -5.7365 1.5438
5.3908 -5.3662 1.5679
6.5131 -5.4167 1.7461
6.9769 -4.8183 1.7477
7.3924 -4.1839 1.7509
7.7477 -3.5127 1.7535
8.0393 -2.8104 1.7555
8.2644 -2.0833 1.7568
8.4207 -1.3380 1.7575
8.5069 -0.5812 1.7576
8.5219 0.1802 1.7570
8.4659 0.9394 1.7558
8.3395 1.6894 1.7539
4.7875 1.4246 1.0296
4.6287 1.8412 1.0268
7.5546 3.8181 1.7448
7.1667 4.4665 1.7407
6.7217 5.0748 1.7361
6.2239 5.6380 1.7310
5.6780 6.1516 1.7256
1.0810 1.4043 0.3653
0.9512 1.4950 0.3652
0.8139 1.5737 0.3652
0.6702 1.6400 0.3652
0.5211 1.6931 0.3652
0.3679 1.7328 0.3651
0.2118 1.7587 0.3651
0.0540 1.7705 0.3651
-0.1042 1.7683 0.3651
-0.2616 1.7520 0.3651
-0.4170 1.7218 0.3652
-0.5690 1.6778 0.3652
-0.7165 1.6205 0.3652
-0.8584 1.5502 0.3653
-0.9934 1.4676 0.3653
-5.7031 6.9893 1.8594
-6.2031 6.3491 1.8297
-6.2929 5.3835 1.7070
-6.7521 4.8031 1.7080
-7.1584 4.1840 1.7091
-7.5073 3.5304 1.7100
-7.7959 2.8477 1.7108
-8.0218 2.1413 1.7114
-8.1829 1.4172 1.7118
-2.9937 0.2464 0.6192
-2.9870 -0.0216 0.6157
-2.9804 -0.2888 0.6172
-2.9737 -0.5594 0.6237
-2.9667 -0.8381 0.6355
-7.7535 -2.9599 1.7107
-7.4549 -3.6384 1.7099
-7.0965 -4.2868 1.7089
-6.6813 -4.8998 1.7078
-6.2249 -5.4834 1.7099
-6.1875 -6.5191 1.8527
-5.6014 -7.0711 1.8594
-0.9762 -1.4881 0.3668
-0.8396 -1.5694 0.3669
-0.6962 -1.6382 0.3669
-0.5473 -1.6939 0.3669
-0.3939 -1.7361 0.3669
-0.2374 -1.7644 0.3670
-0.0790 -1.7785 0.3670
0.0800 -1.7785 0.3670
0.2384 -1.7642 0.3669
0.3949 -1.7358 0.3669
0.5481 -1.6935 0.3669
0.6970 -1.6377 0.3669
0.8403 -1.5687 0.3668
0.9768 -1.4873 0.3668
5.1714 -6.5209 1.7155
5.7996 -6.1038 1.7355
6.3579 -5.5941 1.7456
6.8358 -5.0074 1.7466
7.2693 -4.3857 1.7500
7.6437 -3.7254 1.7527
7.9555 -3.0321 1.7549
8.2016 -2.3121 1.7565
8.3795 -1.5717 1.7574
8.4876 -0.8177 1.7576
8.5249 -0.0570 1.7572
8.4910 0.7036 1.7562
8.3864 1.4572 1.7546
4.9077 1.3129 1.0472
4.6581 1.7044 1.0224
4.9248 2.3192 1.1221
6.1286 5.3587 1.7304
5.6091 5.8666 1.7252
1.0721 1.3433 0.3653
0.9479 1.4334 0.3653
0.8161 1.5122 0.3652
0.6778 1.5788 0.3652
0.5342 1.6329 0.3652
0.3863 1.6740 0.3652
0.2353 1.7017 0.3652
0.0825 1.7159 0.3652
-0.0709 1.7165 0.3652
-0.2238 1.7033 0.3652
-0.3750 1.6766 0.3652
-0.5231 1.6366 0.3652
-0.6672 1.5835 0.3652
-0.8059 1.5178 0.3653
-0.9383 1.4400 0.3653
-1.0632 1.3507 0.3654
-6.0025 6.3637 1.8594
-6.2143 5.5082 1.7651
-6.4621 4.7700 1.7072
-6.8663 4.1769 1.7083
-7.2156 3.5494 1.7092
-7.5070 2.8926 1.7100
-7.7380 2.2119 1.7106
-7.9066 1.5129 1.7111
-2.9950 0.2996 0.6398
-2.9883 0.0309 0.6352
-2.9817 -0.2361 0.6358
-2.9750 -0.5057 0.6414
-2.9681 -0.7824 0.6524
-7.5660 -2.7370 1.7102
-7.2884 -3.3998 1.7095
-6.9523 -4.0346 1.7086
-6.5604 -4.6361 1.7075
-6.2108 -5.2798 1.7327
-6.1328 -6.2382 1.8594
-1.0950 -1.3335 0.3668
-0.9718 -1.4261 0.3668
-0.8407 -1.5072 0.3668
-0.7029 -1.5764 0.3669
-0.5595 -1.6330 0.3669
-0.4115 -1.6765 0.3669
-0.2603 -1.7065 0.3669
-0.1069 -1.7230 0.3669
0.0473 -1.7256 0.3669
0.2011 -1.7145 0.3669
0.3533 -1.6896 0.3669
0.5026 -1.6512 0.3669
0.6479 -1.5997 0.3669
0.7880 -1.5353 0.3668
0.9218 -1.4587 0.3668
1.0481 -1.3704 0.3667
5.4920 -5.9873 1.7269
6.0512 -5.5160 1.7404
6.5376 -4.9678 1.7453
6.9624 -4.3693 1.7472
7.3363 -3.7365 1.7500
7.6501 -3.0707 1.7522
7.9009 -2.3779 1.7538
8.0862 -1.6643 1.7548
8.2042 -0.9362 1.7552
8.2539 -0.2003 1.7549
8.2347 0.5369 1.7541
8.1470 1.2685 1.7526
5.0516 1.2567 1.1065
4.6923 1.6240 1.0554
4.7383 2.1305 1.1043
7.1402 4.0119 1.7409
6.7373 4.6218 1.7366
6.2810 5.1907 1.7320
5.7757 5.7137 1.7269
5.2248 6.1851 1.7210
0.9874 1.4066 0.3653
0.8579 1.4889 0.3652
0.7215 1.5594 0.3652
0.5794 1.6174 0.3652
0.4327 1.6626 0.3652
0.2826 1.6945 0.3652
0.1303 1.7130 0.3652
-0.0231 1.7178 0.3652
-0.1763 1.7089 0.3652
-0.3282 1.6864 0.3652
-0.4774 1.6505 0.3652
-0.6228 1.6014 0.3652
-0.7633 1.5396 0.3653
-0.8978 1.4655 0.3653
-1.0251 1.3797 0.3654
-5.8231 6.5283 1.8594
-6.2066 5.8178 1.8082
-6.3261 4.9474 1.7070
-6.7462 4.3656 1.7080
-7.1129 3.7483 1.7090
-7.4226 3.1000 1.7098
-7.6727 2.4262 1.7105
-7.8609 1.7323 1.7110
-2.9971 0.3843 0.6423
-2.9904 0.1142 0.6361
-2.9838 -0.1529 0.6350
-2.9771 -0.4212 0.6391
-2.9703 -0.6952 0.6484
-2.9632 -0.9796 0.6634
-7.3813 -3.1961 1.7097
-7.0631 -3.8402 1.7089
-6.6883 -4.4526 1.7079
-6.2612 -5.0293 1.7070
-6.1928 -5.9581 1.8266
-5.7376 -6.6035 1.8594
-1.0110 -1.3984 0.3668
-0.8823 -1.4832 0.3668
-0.7465 -1.5562 0.3669
-0.6047 -1.6167 0.3669
-0.4580 -1.6643 0.3669
-0.3077 -1.6986 0.3669
-0.1548 -1.7193 0.3669
-0.0008 -1.7263 0.3669
0.1533 -1.7194 0.3669
0.3061 -1.6988 0.3669
0.4565 -1.6646 0.3669
0.6031 -1.6171 0.3669
0.7450 -1.5567 0.3668
0.8808 -1.4838 0.3668
1.0096 -1.3991 0.3667
4.8993 -5.6490 1.5894
5.8846 -5.6718 1.7372
6.3982 -5.1489 1.7456
6.8343 -4.5588 1.7462
7.2261 -3.9374 1.7492
7.5590 -3.2813 1.7516
7.8297 -2.5962 1.7534
8.0356 -1.8884 1.7546
8.1747 -1.1641 1.7551
8.2458 -0.4299 1.7551
8.2480 0.3075 1.7544
8.1816 1.0416 1.7531
8.0473 1.7657 1.7512
4.7342 1.4923 1.0551
4.6780 1.9488 1.0772
7.2541 3.8143 1.7421
6.8687 4.4360 1.7380
6.4286 5.0182 1.7335
5.9381 5.5560 1.7285
5.4051 6.0487 1.7242
1.0262 1.3786 0.3653
0.8990 1.4645 0.3653
0.7646 1.5387 0.3652
0.6242 1.6007 0.3652
0.4788 1.6499 0.3652
0.3297 1.6860 0.3652
0.1779 1.7087 0.3652
0.0247 1.7177 0.3652
-0.1287 1.7131 0.3652
-0.2811 1.6948 0.3652
-0.4312 1.6631 0.3652
-0.5780 1.6181 0.3652
-0.7202 1.5602 0.3653
-0.8566 1.4899 0.3653
-0.9863 1.4077 0.3653
-5.6391 6.6878 1.8594
-6.1982 6.1428 1.8549
-6.2261 5.1548 1.7181
-6.6207 4.5507 1.7077
-7.0046 3.9441 1.7087
-7.3324 3.3049 1.7096
-7.6013 2.6385 1.7103
-7.8090 1.9502 1.7108
-2.9992 0.4698 0.6453
-2.9925 0.1978 0.6375
-2.9858 -0.0697 0.6348
-2.9792 -0.3372 0.6373
-2.9724 -0.6090 0.6449
-2.9655 -0.8896 0.6581
-7.4684 -2.9899 1.7099
-7.1684 -3.6427 1.7091
-6.8109 -4.2656 1.7082
-6.3989 -4.8533 1.7071
-6.2013 -5.6425 1.7821
-5.9192 -6.4413 1.8594
-1.0495 -1.3697 0.3668
-0.9232 -1.4580 0.3668
-0.7895 -1.5348 0.3669
-0.6494 -1.5992 0.3669
-0.5041 -1.6509 0.3669
-0.3548 -1.6894 0.3669
-0.2026 -1.7143 0.3669
-0.0488 -1.7256 0.3669
0.1054 -1.7230 0.3669
0.2587 -1.7067 0.3669
0.4100 -1.6767 0.3669
0.5579 -1.6333 0.3669
0.7014 -1.5769 0.3668
0.8392 -1.5078 0.3668
0.9703 -1.4267 0.3668
5.1111 -6.2357 1.7138
5.3204 -5.4217 1.6146
6.2451 -5.3188 1.7436
6.7008 -4.7445 1.7452
7.1102 -4.1349 1.7483
7.4618 -3.4890 1.7509
7.7522 -2.8123 1.7529
7.9785 -2.1110 1.7542
8.1386 -1.3911 1.7550
8.2310 -0.6593 1.7552
8.2547 0.0779 1.7547
8.2096 0.8137 1.7536
8.0963 1.5416 1.7518
4.8525 1.3824 1.0725
4.6508 1.7872 1.0590
7.3624 3.6133 1.7432
6.9948 4.2464 1.7393
6.5713 4.8414 1.7349
6.0960 5.3935 1.7301
5.5735 5.8982 1.7249
1.0642 1.3495 0.3653
0.9394 1.4390 0.3653
