ply
format ascii 1.0
element vertex 2066
property float32 x
property float32 y
property float32 z
end_header
9.8311 -24.2282 1.9363
12.1001 -23.5382 1.9599
14.3210 -22.6307 1.9833
16.4707 -21.5067 2.0061
18.5253 -20.1698 2.0281
9.1157 -8.2985 0.9129
9.0992 -6.9050 0.8459
9.7695 -6.1220 0.8538
25.5194 -12.9765 2.1201
26.8101 -10.7412 2.1388
25.4242 -7.6339 1.9658
25.8064 -5.2940 1.9509
25.9074 -2.9393 1.9309
4.9201 -0.1162 0.3645
23.0721 1.5192 1.7123
21.2775 3.3272 1.5949
19.7015 4.9149 1.5037
18.3593 6.3674 1.4390
17.0546 7.6818 1.3852
15.8348 8.9107 1.3456
14.6737 10.0804 1.3184
14.8076 12.2534 1.4233
15.4318 15.2860 1.6085
5.6924 6.7475 0.6538
4.7805 6.8193 0.6167
11.8271 20.5585 1.7564
9.8470 21.3192 1.7391
4.6709 13.0659 1.0276
5.0114 19.3063 1.4771
3.7814 22.7645 1.7089
1.8875 25.0390 1.8595
-0.1793 12.6934 0.9401
-2.5938 24.9757 1.8595
-2.7445 14.0548 1.0605
-3.8461 13.2649 1.0228
-8.3941 21.5414 1.7121
-10.2853 20.7111 1.7125
-12.0822 19.6934 1.7110
-13.7885 18.5326 1.7106
-15.3849 17.2253 1.7103
-16.8510 15.7745 1.7094
-18.1521 14.1768 1.7056
-19.3214 12.4852 1.7036
-16.3025 8.5771 1.3642
-16.9764 7.0769 1.3620
-16.9827 5.3578 1.3188
-16.9887 3.7320 1.2881
-16.3265 2.0826 1.2189
-17.9304 0.6729 1.3288
-22.1917 -1.1517 1.6456
-22.1991 -3.1558 1.6605
-22.3135 -5.2381 1.6973
-21.7943 -7.2209 1.7003
-21.0797 -9.1444 1.7016
-12.2798 -6.6872 1.0355
-20.5353 -13.6909 1.8277
-19.2987 -15.5229 1.8341
-17.9756 -17.3175 1.8484
-16.3831 -18.8809 1.8512
-14.6574 -20.3019 1.8543
-4.0657 -6.8452 0.5896
-3.4578 -7.2209 0.5929
-2.8381 -7.6039 0.6010
-6.6583 -24.2591 1.8629
-3.0127 -16.6973 1.2565
-1.4975 -16.7541 1.2457
0.0036 -16.7443 1.2400
2.2849 -25.4382 1.8914
4.5742 -25.2887 1.9031
6.8364 -24.8655 1.9097
9.1189 -24.3988 1.9289
11.3982 -23.7762 1.9526
13.6365 -22.9364 1.9761
15.8109 -21.8795 1.9991
17.8976 -20.6083 2.0213
19.8792 -19.1346 2.0433
21.7591 -17.4863 2.0672
9.4832 -6.3165 0.8438
25.0716 -13.6391 2.1136
26.4336 -11.4532 2.1334
20.3079 -6.7186 1.5841
25.7206 -6.0261 1.9563
25.9043 -3.6710 1.9375
4.8425 -0.2492 0.3591
23.6875 0.8993 1.7554
21.8091 2.7916 1.6282
20.1724 4.4405 1.5296
19.3680 6.1196 1.5042
17.4501 7.2833 1.4003
16.2069 8.5358 1.3565
15.0300 9.7214 1.3256
13.8967 10.8631 1.3062
15.8960 14.8935 1.6131
14.4109 16.1490 1.6029
4.9562 6.6675 0.6152
12.4325 20.2843 1.7619
10.4682 21.1022 1.7444
4.9198 12.6417 1.0046
6.4224 22.1863 1.7105
4.4172 22.6733 1.7106
2.5829 24.9768 1.8595
0.1735 12.6798 0.9391
-1.1751 15.4987 1.1511
-2.7150 16.3008 1.2238
-3.4491 13.2640 1.0149
-7.7844 21.7453 1.7104
-9.7055 20.9888 1.7125
-11.5302 20.0228 1.7110
-13.2688 18.9101 1.7107
-14.9006 17.6471 1.7104
-16.4137 16.2445 1.7102
-17.7582 14.6820 1.7063
-18.9736 13.0222 1.7042
-16.3004 9.1634 1.3848
-16.9743 7.6367 1.3784
-16.9808 5.8810 1.3308
-16.9869 4.2299 1.2964
-16.3248 2.5455 1.2235
-17.9286 1.1727 1.3305
-22.1894 -0.5336 1.6437
-22.1968 -2.5281 1.6544
-22.4396 -4.6135 1.6965
-21.8013 -6.5564 1.6859
-21.3201 -8.5525 1.7012
-22.1147 -11.2574 1.8377
-20.8872 -13.1017 1.8259
-19.7005 -14.9635 1.8320
-18.4343 -16.7966 1.8468
-16.8934 -18.4091 1.8503
-15.2078 -19.8756 1.8533
-13.3975 -21.1918 1.8567
-3.6478 -7.1035 0.5914
-3.0328 -7.4836 0.5980
-7.3239 -24.0441 1.8613
-3.5092 -16.7672 1.2686
-1.9688 -16.7572 1.2495
-0.4613 -16.7173 1.2385
1.5732 -25.4347 1.8872
3.8645 -25.3745 1.9008
6.1375 -25.0255 1.9082
8.4056 -24.5509 1.9217
10.6923 -23.9931 1.9452
12.9458 -23.2210 1.9688
15.1426 -22.2315 1.9920
17.2591 -21.0265 2.0145
8.1446 -8.2880 0.8605
21.1902 -18.0212 2.0600
9.3233 -6.5914 0.8456
24.6033 -14.2847 2.1068
26.0341 -12.1506 2.1276
24.8567 -8.9976 1.9576
25.6087 -6.7562 1.9613
25.8757 -4.4040 1.9438
5.0070 -0.3975 0.3720
25.6219 0.2599 1.8975
22.3640 2.2327 1.6644
20.6602 3.9491 1.5577
19.1504 5.4701 1.4749
17.8547 6.8758 1.4169
16.5855 8.1545 1.3687
15.3906 9.3582 1.3339
14.2459 10.5114 1.3111
16.3633 14.4984 1.6190
14.8712 15.7599 1.6047
5.1766 6.5740 0.6197
4.6771 7.1753 0.6343
11.0850 20.8674 1.7498
5.2736 12.5100 1.0054
7.0580 22.0658 1.7156
5.0509 22.5644 1.7124
3.0078 22.8550 1.7071
0.6401 15.4194 1.1429
-0.6089 12.7099 0.9423
-3.4352 24.8740 1.8595
-3.0579 13.2631 1.0080
-7.1697 21.9318 1.7087
-9.1182 21.2506 1.7125
-10.9734 20.3429 1.7117
-12.7389 19.2730 1.7109
-14.4050 18.0555 1.7105
-15.9565 16.6956 1.7103
-17.3505 15.1765 1.7071
-18.6112 13.5497 1.7048
-19.7279 11.8238 1.7033
-16.9722 8.2105 1.3962
-16.9788 6.4143 1.3441
-16.9850 4.7346 1.3058
-16.9909 3.1355 1.2795
-17.9267 1.6743 1.3333
-16.3340 0.0615 1.2096
-22.1945 -1.9045 1.6496
-22.5493 -3.9861 1.6958
-22.1384 -5.9920 1.6984
-21.5443 -7.9545 1.7007
-22.4856 -10.6697 1.8431
-8.4941 -5.0044 0.7301
-20.0870 -14.3943 1.8300
-18.8147 -16.2091 1.8391
-17.3905 -17.9240 1.8494
-15.7462 -19.4350 1.8523
-13.9734 -20.7991 1.8556
-3.8369 -6.9867 0.5903
-3.2257 -7.3644 0.5954
-2.5988 -7.7518 0.6055
-5.8420 -24.4955 1.8649
-2.4432 -16.7603 1.2543
-0.9288 -16.7504 1.2424
0.8636 -25.4119 1.8830
3.1507 -25.4166 1.8966
5.4331 -25.1577 1.9060
7.6939 -24.6921 1.9153
9.9832 -24.1890 1.9379
12.2497 -23.4846 1.9615
14.4666 -22.5626 1.9848
16.6106 -21.4243 2.0076
18.6580 -20.0734 2.0295
9.1297 -8.2126 0.9094
9.1046 -6.8242 0.8426
9.8780 -6.1085 0.8601
25.6124 -12.8327 2.1215
24.5392 -9.6625 1.9530
25.4708 -7.4831 1.9660
25.8214 -5.1372 1.9497
25.9047 -2.7831 1.9294
4.9558 -0.0875 0.3671
22.9444 1.6480 1.7035
21.1666 3.4390 1.5880
19.6029 5.0143 1.4984
18.2693 6.4581 1.4350
16.9712 7.7658 1.3821
15.7559 8.9901 1.3434
14.5980 10.1567 1.3170
15.7691 13.2079 1.5233
15.3328 15.3697 1.6077
5.6030 6.7223 0.6481
4.7542 6.8683 0.6186
11.6970 20.6148 1.7553
5.8032 12.7630 1.0383
7.6921 21.9277 1.7209
4.8969 19.3376 1.4773
3.6452 22.7817 1.7086
1.7387 25.0498 1.8595
-0.2548 12.6963 0.9404
-2.7423 24.9599 1.8595
-2.7454 13.6282 1.0295
-3.9318 13.2651 1.0246
-8.5238 21.4955 1.7124
-10.4082 20.6496 1.7125
-12.1990 19.6211 1.7110
-13.8983 18.4499 1.7106
-15.4870 17.1334 1.7103
-16.9362 15.6662 1.7085
-18.2345 14.0674 1.7055
-19.3938 12.3692 1.7034
-8.6325 4.4764 0.7201
-16.9768 6.9589 1.3587
-16.9831 5.2471 1.3163
-16.9891 3.6263 1.2865
-16.6528 2.0237 1.2423
-17.9308 0.5662 1.3285
-22.1922 -1.2841 1.6462
-22.1996 -3.2907 1.6619
-22.2843 -5.3713 1.6975
-21.7520 -7.3508 1.7003
-21.0262 -9.2702 1.7017
-12.1115 -6.6893 1.0246
-20.4580 -13.8158 1.8281
-19.2113 -15.6416 1.8346
-17.8741 -17.4257 1.8486
-16.2722 -18.9800 1.8514
-14.5381 -20.3910 1.8545
-4.0254 -6.8701 0.5897
-3.4171 -7.2461 0.5933
-2.7962 -7.6298 0.6018
-6.5151 -24.3027 1.8633
-2.9195 -16.7507 1.2592
-1.3971 -16.7535 1.2450
0.1033 -16.7437 1.2400
2.4372 -25.4365 1.8923
4.7257 -25.2677 1.9036
6.9853 -24.8287 1.9101
9.2713 -24.3641 1.9305
11.5487 -23.7271 1.9542
13.7835 -22.8728 1.9776
15.9527 -21.8015 2.0006
18.0328 -20.5162 2.0228
20.0088 -19.0314 2.0450
21.8788 -17.3694 2.0687
9.5305 -6.2665 0.8447
25.1692 -13.4987 2.1150
26.5160 -11.3021 2.1346
20.4153 -6.6198 1.5893
25.7411 -5.8697 1.9552
25.9071 -3.5145 1.9361
4.8598 -0.2211 0.3603
23.5533 1.0345 1.7459
21.6936 2.9080 1.6209
20.0703 4.5434 1.5239
18.6949 6.0294 1.4547
17.3648 7.3693 1.3970
16.1268 8.6165 1.3540
14.9535 9.7986 1.3239
13.8224 10.9381 1.3053
15.7965 14.9777 1.6121
14.3127 16.2321 1.6026
4.9198 6.7014 0.6157
12.3036 20.3444 1.7607
10.3357 21.1502 1.7433
4.8579 12.7056 1.0073
6.2975 22.2495 1.7124
4.2814 22.6943 1.7103
2.4344 24.9918 1.8595
0.0981 12.6827 0.9392
-1.2825 15.6775 1.1649
-2.7405 15.8711 1.1927
-3.5335 13.2642 1.0165
-7.9152 21.7031 1.7108
-9.8301 20.9306 1.7125
-11.6490 19.9532 1.7110
-13.3807 18.8305 1.7107
-15.0051 17.5580 1.7104
-16.5098 16.1465 1.7101
-17.8436 14.5749 1.7062
-19.0492 12.9081 1.7041
-16.3008 9.0365 1.3802
-16.9748 7.5158 1.3748
-16.9812 5.7683 1.3281
-16.9873 4.1228 1.2945
-16.3252 2.4461 1.2225
-17.9289 1.0657 1.3301
-22.1899 -0.6657 1.6440
-22.1973 -2.6619 1.6556
-22.4140 -4.7473 1.6967
-21.7872 -6.6937 1.6879
-21.2701 -8.6796 1.7012
-22.0336 -11.3816 1.8365
-20.8133 -13.2284 1.8263
-19.6158 -15.0839 1.8325
-18.3436 -16.9147 1.8478
-16.7853 -18.5112 1.8505
-15.0911 -19.9680 1.8535
-13.2729 -21.2738 1.8569
-3.6072 -7.1286 0.5916
-2.9914 -7.5092 0.5986
-7.1822 -24.0916 1.8617
-3.4052 -16.7665 1.2670
-1.8677 -16.7565 1.2486
-0.3625 -16.7467 1.2405
1.7253 -25.4370 1.8881
4.0164 -25.3578 1.9013
6.2873 -24.9930 1.9085
8.5576 -24.5182 1.9231
10.8437 -23.9485 1.9468
13.0941 -23.1619 1.9704
15.2862 -22.1579 1.9935
17.3965 -20.9388 2.0160
8.1892 -8.2348 0.8600
21.3131 -17.9085 2.0615
9.3489 -6.5265 0.8443
24.7052 -14.1481 2.1083
26.1214 -12.0027 2.1289
24.9217 -8.8539 1.9586
25.6348 -6.6003 1.9603
25.8839 -4.2472 1.9425
4.9781 -0.3654 0.3696
25.5961 0.4119 1.8958
22.2432 2.3544 1.6564
20.5543 4.0558 1.5515
19.0555 5.5657 1.4701
17.7674 6.9637 1.4132
16.5040 8.2366 1.3659
15.3131 9.4363 1.3320
14.1710 10.5868 1.3100
16.2631 14.5831 1.6177
14.7727 15.8432 1.6042
5.1280 6.5926 0.6185
4.6826 7.2779 0.6409
10.9535 20.9192 1.7487
5.1949 12.5311 1.0046
6.9222 22.0931 1.7145
4.9156 22.5891 1.7120
3.1283 24.9144 1.8595
0.5486 15.4265 1.1431
-0.6848 12.7128 0.9428
-3.5830 24.8531 1.8595
-3.1411 13.2633 1.0094
-7.3016 21.8934 1.7091
-9.2444 21.1959 1.7125
-11.0930 20.2752 1.7115
-12.8530 19.1965 1.7108
-14.5120 17.9694 1.7105
-16.0554 16.6003 1.7102
-17.4389 15.0717 1.7069
-18.6900 13.4377 1.7047
-19.7976 11.7059 1.7032
-16.9726 8.0866 1.3923
-16.9792 6.2994 1.3411
-16.9854 4.6260 1.3037
-16.9913 3.0312 1.2782
-17.9271 1.5668 1.3326
-22.1876 -0.0485 1.6431
-22.1949 -2.0376 1.6506
-22.5272 -4.1205 1.6959
-22.1051 -6.1243 1.6986
-21.4977 -8.0829 1.7008
-22.4074 -10.7964 1.8419
-21.1527 -12.6325 1.8245
-20.0057 -14.5167 1.8305
-18.7348 -16.3353 1.8407
-17.2853 -18.0288 1.8496
-15.6321 -19.5304 1.8525
-13.8512 -20.8843 1.8558
-3.7965 -7.0116 0.5905
-3.1846 -7.3898 0.5959
-7.8425 -23.8625 1.8601
-5.6973 -24.5343 1.8652
-2.3414 -16.7596 1.2532
-0.8289 -16.7498 1.2419
1.0152 -25.4184 1.8838
3.3033 -25.4099 1.8976
5.5840 -25.1316 1.9065
7.8462 -24.6636 1.9167
10.1351 -24.1489 1.9395
12.3990 -23.4300 1.9631
14.6117 -22.4936 1.9864
16.7501 -21.3410 2.0091
18.7902 -19.9761 2.0309
9.1768 -8.1567 0.9092
9.1099 -6.7439 0.8394
10.0459 -6.1301 0.8715
25.7044 -12.6881 2.1228
24.6090 -9.5213 1.9541
25.5025 -7.3280 1.9650
25.8351 -4.9805 1.9484
25.9010 -2.6270 1.9279
4.9920 -0.0585 0.3697
22.8180 1.7753 1.6949
21.0566 3.5497 1.5813
19.5049 5.1130 1.4932
18.1797 6.5484 1.4310
16.8880 7.8496 1.3791
15.6773 9.0693 1.3413
14.5224 10.2328 1.3156
16.7333 14.1856 1.6246
15.2339 15.4533 1.6070
5.5073 6.6880 0.6416
4.7390 6.9340 0.6220
11.5666 20.6703 1.7541
5.6363 12.5941 1.0218
7.5567 21.9587 1.7198
4.8009 19.4435 1.4831
3.5089 22.7981 1.7082
1.5896 25.0597 1.8595
-0.3304 12.6992 0.9408
-2.8907 24.9431 1.8595
-2.7539 13.2624 1.0031
-4.0179 13.2652 1.0264
-8.6516 21.4448 1.7125
-10.5302 20.5860 1.7124
-12.3153 19.5482 1.7110
-14.0075 18.3667 1.7106
-15.5884 17.0409 1.7103
-17.0206 15.5576 1.7077
-18.3162 13.9576 1.7054
-19.4658 12.2527 1.7033
-8.6292 4.4098 0.7176
-16.9772 6.8414 1.3555
-16.9835 5.1367 1.3140
-16.9895 3.5208 1.2849
-17.5514 2.0270 1.3084
-17.9312 0.4595 1.3283
-22.1927 -1.4165 1.6468
-22.2001 -3.4257 1.6635
-22.2545 -5.5043 1.6977
-21.7090 -7.4803 1.7004
-20.9720 -9.3955 1.7018
-8.6159 -4.8257 0.7313
-20.3800 -13.9403 1.8285
-19.1249 -15.7614 1.8353
-17.7718 -17.5333 1.8488
-16.1607 -19.0785 1.8516
-14.4182 -20.4796 1.8548
-3.9851 -6.8950 0.5898
-3.3763 -7.2713 0.5937
-2.7542 -7.6558 0.6025
-6.3717 -24.3454 1.8636
-2.8191 -16.7627 1.2588
-1.2968 -16.7528 1.2443
0.2028 -16.7430 1.2400
2.5898 -25.4339 1.8932
4.8772 -25.2459 1.9041
7.1350 -24.7942 1.9106
9.4238 -24.3284 1.9321
11.6990 -23.6770 1.9557
13.9302 -22.8082 1.9792
16.0942 -21.7225 2.0021
22.1445 -9.0252 1.9190
22.9297 -7.0338 1.9248
23.3642 -4.9379 1.9164
23.6051 -2.8204 1.9078
4.8942 -0.1447 0.3929
23.5152 1.4080 1.8905
21.3894 3.2145 1.7358
19.8009 4.8148 1.6354
18.4499 6.2762 1.5640
17.1385 7.5973 1.5045
15.9138 8.8311 1.4606
14.7496 10.0040 1.4303
13.9645 11.4165 1.4475
15.5308 15.2022 1.7441
5.7430 6.7260 0.7098
4.8080 6.7725 0.6665
11.0209 18.8961 1.7555
9.2059 19.6238 1.7395
4.7264 12.9771 1.1084
5.1050 19.1969 1.5941
3.6145 20.9870 1.7090
1.8792 23.0949 1.8595
-0.1037 12.6911 1.0185
-2.2565 23.0611 1.8595
-2.7435 14.5077 1.1849
-3.7607 13.2648 1.1065
-7.6196 19.9029 1.7103
-9.3773 19.1677 1.7125
-11.0451 18.2455 1.7116
-12.6219 17.1770 1.7106
-14.1016 15.9787 1.7103
-15.4689 14.6542 1.7100
-16.7126 13.2134 1.7098
-17.7909 11.6467 1.7065
-16.3021 8.7010 1.4830
-16.9759 7.1955 1.4797
-16.9823 5.4689 1.4318
-16.9883 3.8379 1.3977
-16.3262 2.1813 1.3218
-17.9300 0.7797 1.4403
-21.1751 -0.9729 1.7011
-21.0077 -2.8591 1.7014
-20.6776 -4.7245 1.7022
-20.1858 -6.5550 1.7032
-19.5348 -8.3365 1.7045
-20.2573 -10.8758 1.8452
-19.1004 -12.5708 1.8350
-17.9609 -14.2717 1.8410
-16.7124 -15.9099 1.8518
-15.2468 -17.3618 1.8543
-13.6576 -18.6821 1.8572
-4.1059 -6.8203 0.6389
-3.4985 -7.1957 0.6421
-2.8799 -7.5780 0.6506
-6.2808 -22.3619 1.8640
-3.1003 -16.6169 1.3565
-1.5981 -16.7549 1.3507
-0.0959 -16.7451 1.3438
1.9709 -23.5105 1.8934
4.0785 -23.3399 1.9014
6.1614 -22.9432 1.9065
8.2496 -22.4795 1.9216
10.3384 -21.8984 1.9434
12.3868 -21.1193 1.9649
14.3743 -20.1428 1.9859
16.2797 -18.9720 2.0062
18.0814 -17.6125 2.0257
19.7583 -16.0727 2.0440
9.9547 -6.7164 0.9637
22.6779 -12.5122 2.0786
21.8414 -9.6181 1.9152
20.2311 -6.8269 1.7135
23.2501 -5.5933 1.9191
23.5506 -3.4805 1.9105
4.8164 -0.2766 0.3872
23.5787 0.7548 1.8932
21.9258 2.6741 1.7726
20.2752 4.3369 1.6639
19.1829 5.9358 1.6115
17.5359 7.1970 1.5212
16.2873 8.4548 1.4727
15.1067 9.6441 1.4383
13.9712 10.7881 1.4166
15.9957 14.8092 1.7494
14.5093 16.0659 1.7373
4.9829 6.6208 0.6650
11.5749 18.6354 1.7605
9.7757 19.4154 1.7445
4.9973 12.6184 1.0892
6.0573 20.4687 1.7131
4.2004 20.8977 1.7106
2.5205 23.0337 1.8595
0.2489 12.6775 1.0176
-0.8885 12.7213 1.0234
-2.6078 16.2532 1.3210
-3.3650 13.2639 1.0982
-7.0570 20.0892 1.7088
-8.8407 19.4212 1.7125
-10.5382 18.5538 1.7124
-12.1398 17.5218 1.7107
-13.6527 16.3655 1.7104
-15.0561 15.0792 1.7101
-16.3396 13.6736 1.7098
-17.4661 12.1409 1.7071
-18.4610 10.5230 1.7053
-16.9739 7.7582 1.4977
-16.9804 5.9942 1.4451
-16.9865 4.3372 1.4069
-16.9923 2.7531 1.3814
-17.9282 1.2798 1.4424
-21.1951 -0.3837 1.7012
-21.0770 -2.2737 1.7013
-20.7978 -4.1472 1.7019
-20.3559 -5.9900 1.7028
-19.7542 -7.7883 1.7041
-20.6084 -10.3368 1.8502
-19.4248 -12.0240 1.8333
-18.3305 -13.7517 1.8390
-17.1416 -15.4331 1.8510
-15.7166 -16.9236 1.8535
-14.1647 -18.2860 1.8562
-12.4970 -19.5095 1.8593
-3.6882 -7.0784 0.6405
-3.0742 -7.4579 0.6474
-6.8947 -22.1613 1.8626
-4.9019 -22.7460 1.8673
-2.0699 -16.7580 1.3551
-0.5574 -16.6148 1.3341
1.3138 -23.5073 1.8894
3.4241 -23.4174 1.8993
5.5170 -23.0881 1.9050
7.5934 -22.6169 1.9146
9.6918 -22.1004 1.9366
11.7550 -21.3829 1.9582
13.7637 -20.4676 1.9794
15.6969 -19.3568 2.0000
8.1154 -8.3570 0.9348
19.2512 -16.5705 2.0384
9.7203 -6.9592 0.9594
22.2651 -13.1048 2.0733
23.5451 -11.1599 2.0910
22.4869 -8.2914 1.9234
23.1175 -6.2462 1.9217
23.4777 -4.1397 1.9132
4.9536 -0.4229 0.3990
5.2222 0.0219 0.4191
22.4858 2.1099 1.8124
20.7669 3.8417 1.6948
19.2460 5.3738 1.6036
17.9425 6.7873 1.5395
16.6673 8.0720 1.4862
15.4683 9.2800 1.4476
14.3210 10.4358 1.4221
16.4637 14.4135 1.7560
14.9697 15.6766 1.7395
5.2036 6.5281 0.6700
4.6572 7.0527 0.6783
10.3411 19.1908 1.7495
5.3812 12.5562 1.0963
6.6426 20.3493 1.7179
4.7842 20.7919 1.7122
2.9009 21.0734 1.7071
0.6278 13.2248 1.0625
-0.5331 12.7076 1.0207
-3.0334 22.9718 1.8595
-2.9749 13.2631 1.0908
-4.2496 13.2659 1.1179
-8.2957 19.6554 1.7121
-10.0188 18.8405 1.7125
-11.6485 17.8538 1.7108
-13.1933 16.7398 1.7105
-14.6318 15.4928 1.7102
-15.9539 14.1233 1.7099
-17.1304 12.6281 1.7079
-18.1668 11.0355 1.7058
-8.7433 4.2940 0.7817
-16.9784 6.5298 1.4598
-16.9846 4.8435 1.4174
-16.9906 3.2400 1.3881
-17.9263 1.7818 1.4457
-16.3336 0.1586 1.3109
-21.1303 -1.6867 1.7011
-20.9022 -3.5669 1.7017
-20.5107 -5.4208 1.7025
-19.9585 -7.2344 1.7037
-19.2485 -8.9938 1.7050
-8.4905 -4.9345 0.7881
-18.6870 -13.2236 1.8372
-17.5310 -14.9224 1.8475
-16.1741 -16.4730 1.8527
-14.6605 -17.8765 1.8553
-13.0276 -19.1443 1.8583
-3.8772 -6.9616 0.6395
-3.2667 -7.3389 0.6447
-2.6412 -7.7255 0.6552
-5.5280 -22.5828 1.8658
-2.5452 -16.7610 1.3605
-1.0288 -16.7512 1.3468
0.6583 -23.4865 1.8856
2.7685 -23.4765 1.8971
4.8692 -23.2148 1.9036
6.9421 -22.7548 1.9092
9.0419 -22.2833 1.9299
11.1179 -21.6274 1.9515
13.1458 -20.7735 1.9729
15.1048 -19.7232 1.9937
16.9736 -18.4803 2.0137
9.1157 -8.2985 0.9893
9.1569 -6.9488 0.9225
9.7418 -6.1047 0.9226
23.1644 -11.7790 2.0855
22.2069 -8.8970 1.9198
22.9614 -6.8945 1.9240
23.3862 -4.7975 1.9159
23.6143 -2.6792 1.9072
4.9051 -0.1158 0.3937
23.4993 1.5474 1.8899
21.2775 3.3272 1.7283
19.7015 4.9149 1.6295
18.3593 6.3674 1.5595
17.0546 7.6818 1.5011
15.8348 8.9107 1.4582
14.6737 10.0804 1.4287
14.8076 12.2534 1.5424
15.4318 15.2860 1.7431
5.6583 6.7071 0.7042
4.7715 6.8065 0.6671
10.9017 18.9498 1.7544
9.0835 19.6662 1.7385
4.6918 13.1243 1.1185
5.1296 19.7617 1.6385
3.4889 21.0040 1.7087
1.7418 23.1056 1.8595
-0.1793 12.6940 1.0188
-2.3935 23.0472 1.8595
-2.7445 14.0548 1.1492
-3.8461 13.2650 1.1084
-7.7393 19.8610 1.7106
-9.4911 19.1118 1.7125
-11.1523 18.1778 1.7115
-12.7237 17.1016 1.7106
-14.1961 15.8946 1.7103
-15.5556 14.5618 1.7100
-16.7907 13.1136 1.7097
-17.8586 11.5399 1.7064
-16.3025 8.5771 1.4783
-16.9764 7.0769 1.4760
-16.9827 5.3578 1.4291
-16.9887 3.7320 1.3959
-16.3265 2.0826 1.3208
-17.9304 0.6729 1.4400
-21.1687 -1.0987 1.7011
-20.9908 -2.9841 1.7015
-20.6499 -4.8476 1.7022
-20.1474 -6.6752 1.7033
-19.4859 -8.4530 1.7046
-12.2595 -6.6761 1.1203
-19.0291 -12.6867 1.8354
-17.8816 -14.3831 1.8416
-16.6189 -16.0104 1.8519
-15.1448 -17.4538 1.8545
-13.5478 -18.7650 1.8574
-4.0657 -6.8451 0.6389
-3.4578 -7.2208 0.6425
-2.8381 -7.6038 0.6513
-6.1488 -22.4027 1.8643
-3.0010 -16.6328 1.3564
-1.4975 -16.7542 1.3499
0.0037 -16.7445 1.3438
2.1116 -23.5088 1.8942
4.2183 -23.3209 1.9019
6.2987 -22.9097 1.9068
8.3894 -22.4470 1.9231
10.4761 -21.8527 1.9448
12.5212 -21.0604 1.9663
14.5039 -20.0709 1.9873
16.4030 -18.8873 2.0075
18.1973 -17.5155 2.0269
19.8649 -15.9641 2.0452
10.4649 -6.9704 1.0091
22.7644 -12.3839 2.0797
21.9078 -9.4922 1.9161
22.8015 -7.5436 1.9274
23.2761 -5.4534 1.9185
23.5638 -3.3393 1.9099
4.8335 -0.2487 0.3884
23.5666 0.8947 1.8926
21.8091 2.7916 1.7645
20.1724 4.4405 1.6576
19.3680 6.1196 1.6301
17.4501 7.2833 1.5175
16.2069 8.5358 1.4700
15.0300 9.7214 1.4365
13.8967 10.8631 1.4155
15.8960 14.8935 1.7481
14.4109 16.1490 1.7370
4.9372 6.6420 0.6642
11.4569 18.6925 1.7595
9.6542 19.4614 1.7434
4.9330 12.6757 1.0916
5.9320 20.4922 1.7120
4.0753 20.9182 1.7103
2.3835 23.0483 1.8595
0.1735 12.6804 1.0177
-1.0035 13.2354 1.0652
-2.6984 16.2013 1.3181
-3.4492 13.2641 1.0999
-7.1777 20.0507 1.7091
-8.9561 19.3681 1.7125
-10.6474 18.4890 1.7122
-12.2438 17.4492 1.7107
-13.7496 16.2840 1.7103
-15.1454 14.9893 1.7101
-16.4205 13.5760 1.7098
-17.5367 12.0360 1.7069
-16.3004 9.1634 1.5007
-16.9743 7.6367 1.4937
-16.9808 5.8810 1.4421
-16.9869 4.2299 1.4049
-16.3248 2.5455 1.3259
-17.9286 1.1727 1.4419
-21.1922 -0.5097 1.7012
-21.0635 -2.3991 1.7013
-20.7734 -4.2710 1.7020
-20.3209 -6.1112 1.7029
-19.7085 -7.9060 1.7041
-20.5346 -10.4531 1.8492
-19.3567 -12.1416 1.8337
-18.2524 -13.8635 1.8394
-17.0509 -15.5361 1.8512
-15.6172 -17.0184 1.8536
-14.0572 -18.3718 1.8564
-12.3821 -19.5856 1.8595
-3.6477 -7.1034 0.6408
-3.0328 -7.4835 0.6480
-6.7639 -22.2056 1.8629
-3.5092 -16.7673 1.3748
-1.9688 -16.7573 1.3540
-0.4592 -16.6390 1.3358
1.4542 -23.5095 1.8903
3.5642 -23.4023 1.8997
5.6551 -23.0587 1.9053
7.7340 -22.5895 1.9161
9.8304 -22.0588 1.9381
11.8906 -21.3282 1.9596
13.8949 -20.3997 1.9808
15.8224 -19.2761 2.0013
8.1444 -8.2877 0.9325
19.3608 -16.4655 2.0396
9.8010 -6.9291 0.9633
22.3549 -12.9793 2.0745
23.6239 -11.0257 2.0922
22.5443 -8.1606 1.9241
23.1475 -6.1068 1.9212
23.4949 -3.9988 1.9126
4.9253 -0.3910 0.3965
5.2152 0.0529 0.4186
22.3640 2.2327 1.8037
20.6602 3.9491 1.6880
19.1504 5.4701 1.5983
17.8547 6.8758 1.5354
16.5855 8.1545 1.4832
15.3906 9.3582 1.4455
14.2459 10.5114 1.4208
16.3633 14.4984 1.7545
14.8712 15.7599 1.7389
5.1551 6.5467 0.6687
4.6419 7.1212 0.6822
10.2206 19.2402 1.7484
5.2866 12.5410 1.0922
6.5176 20.3762 1.7168
4.6595 20.8159 1.7118
2.7756 21.0903 1.7071
0.5492 13.2305 1.0627
-0.6090 12.7105 1.0212
-3.1699 22.9533 1.8595
-3.0579 13.2633 1.0923
-6.6116 20.2245 1.7076
-8.4140 19.6094 1.7124
-10.1306 18.7805 1.7125
-11.7543 17.7836 1.7107
-13.2924 16.6609 1.7105
-14.7235 15.4054 1.7101
-16.0375 14.0281 1.7099
-17.1984 12.5212 1.7072
-18.2309 10.9265 1.7057
-16.9722 8.2105 1.5130
-16.9788 6.4143 1.4566
-16.9850 4.7346 1.4150
-16.9909 3.1355 1.3866
-17.9267 1.6743 1.4449
-16.3340 0.0615 1.3108
-21.1202 -1.8123 1.7012
-20.8812 -3.6912 1.7017
-20.4789 -5.5428 1.7026
-19.9161 -7.3533 1.7038
-19.1958 -9.1086 1.7051
-8.4938 -5.0043 0.7911
-18.6120 -13.3373 1.8375
-17.4564 -15.0390 1.8491
-16.0773 -16.5705 1.8528
-14.5554 -17.9652 1.8555
-12.9149 -19.2236 1.8585
-3.8368 -6.9866 0.6397
-3.2257 -7.3643 0.6452
-2.5988 -7.7517 0.6561
-5.3945 -22.6192 1.8661
-2.4433 -16.7604 1.3593
-0.9288 -16.7505 1.3463
0.7983 -23.4924 1.8864
2.9088 -23.4654 1.8975
5.0080 -23.1892 1.9039
7.0811 -22.7254 1.9102
9.1812 -22.2458 1.9313
11.2546 -21.5767 1.9530
13.2786 -20.7097 1.9743
15.2321 -19.6464 1.9950
17.0941 -18.3910 2.0150
9.1297 -8.2126 0.9855
9.9805 -7.4807 1.0010
9.8329 -6.0806 0.9278
23.2475 -11.6478 2.0867
22.2684 -8.7683 1.9206
22.9922 -6.7549 1.9231
23.4073 -4.6569 1.9153
23.6227 -2.5379 1.9067
4.9361 -0.0872 0.3962
23.4826 1.6866 1.8894
21.1666 3.4390 1.7209
19.6029 5.0143 1.6238
18.2693 6.4581 1.5550
16.9712 7.7659 1.4978
15.7559 8.9901 1.4558
14.5980 10.1567 1.4272
15.7691 13.2079 1.6508
15.3328 15.3697 1.7423
5.5696 6.6822 0.6981
4.7350 6.8405 0.6676
10.7822 19.0027 1.7534
8.9609 19.7079 1.7374
7.1014 20.2439 1.7217
5.2383 20.6857 1.7125
3.3633 21.0202 1.7084
1.6044 23.1156 1.8595
-0.2548 12.6969 1.0192
-2.5305 23.0326 1.8595
-2.7454 13.6282 1.1157
-3.9319 13.2652 1.1103
-7.8587 19.8184 1.7109
-9.6046 19.0549 1.7125
-11.2592 18.1094 1.7113
-12.8250 17.0254 1.7106
-14.2903 15.8094 1.7102
-15.6419 14.4690 1.7100
-16.8683 13.0134 1.7097
-17.9256 11.4328 1.7062
-8.6322 4.4762 0.7803
-16.9768 6.9589 1.4724
-16.9831 5.2471 1.4265
-16.9891 3.6263 1.3941
-16.6528 2.0237 1.3462
-17.9308 0.5662 1.4397
-21.1616 -1.2249 1.7011
-20.9732 -3.1089 1.7015
-20.6214 -4.9705 1.7023
-20.1083 -6.7953 1.7034
-19.4364 -8.5692 1.7047
-12.0917 -6.6783 1.1085
-18.9572 -12.8022 1.8358
-17.8017 -14.4940 1.8422
-16.5249 -16.1103 1.8521
-15.0422 -17.5453 1.8547
-13.4375 -18.8473 1.8576
-4.0254 -6.8700 0.6390
-3.4170 -7.2460 0.6429
-2.7962 -7.6297 0.6521
-6.0165 -22.4426 1.8646
-2.9071 -16.6791 1.3587
-1.3971 -16.7536 1.3492
0.1033 -16.7438 1.3437
2.2523 -23.5063 1.8951
4.3579 -23.3011 1.9024
6.4358 -22.8755 1.9071
8.5291 -22.4136 1.9245
10.6137 -21.8062 1.9463
12.6553 -21.0007 1.9677
14.6331 -19.9981 1.9886
16.5259 -18.8018 2.0089
18.3123 -17.4178 2.0282
9.1661 -7.2769 0.9392
10.4859 -6.8947 1.0071
22.8516 -12.2557 2.0810
21.9733 -9.3658 1.9169
20.7152 -6.7170 1.7476
23.3012 -5.3133 1.9179
23.5762 -3.1983 1.9093
4.8508 -0.2207 0.3897
23.5538 1.0345 1.8920
21.6936 2.9080 1.7565
20.0703 4.5433 1.6514
18.6949 6.0294 1.5764
17.3648 7.3693 1.5139
16.1268 8.6165 1.4673
14.9535 9.7986 1.4347
13.8224 10.9381 1.4146
15.7965 14.9777 1.7469
14.3127 16.2321 1.7367
4.9013 6.6762 0.6647
11.3386 18.7489 1.7584
9.5325 19.5065 1.7424
4.8709 12.7399 1.0946
5.8096 20.5255 1.7119
3.9500 20.9379 1.7099
2.2464 23.0620 1.8595
0.0981 12.6833 1.0179
-1.0846 13.2579 1.0675
-2.7405 15.8711 1.2925
-3.5336 13.2643 1.1016
-7.2983 20.0115 1.7094
-9.0710 19.3146 1.7125
-10.7560 18.4237 1.7121
-12.3472 17.3760 1.7107
-13.8460 16.2017 1.7103
-15.2341 14.8988 1.7100
-16.5007 13.4780 1.7098
-17.6067 11.9306 1.7068
-16.3008 9.0365 1.4957
-16.9748 7.5158 1.4898
-16.9812 5.7683 1.4392
-16.9873 4.1228 1.4028
-16.3252 2.4461 1.3247
-17.9289 1.0657 1.4414
-21.1886 -0.6356 1.7012
-21.0493 -2.5243 1.7013
-20.7483 -4.3945 1.7020
-20.2851 -6.2322 1.7030
-19.6622 -8.0235 1.7042
-20.4603 -10.5689 1.8481
-19.2878 -12.2589 1.8341
-18.1736 -13.9749 1.8398
-16.9596 -15.6385 1.8513
-15.5171 -17.1126 1.8538
-13.9491 -18.4571 1.8566
-12.2654 -19.6589 1.8595
-3.6072 -7.1285 0.6411
-2.9913 -7.5091 0.6487
-6.6329 -22.2491 1.8632
-3.4052 -16.7667 1.3730
-1.8677 -16.7566 1.3531
-0.3615 -16.6987 1.3404
1.5946 -23.5109 1.8911
3.7042 -23.3865 1.9002
5.7931 -23.0284 1.9056
7.8745 -22.5611 1.9177
9.9688 -22.0164 1.9395
12.0260 -21.2725 1.9611
14.0259 -20.3310 1.9822
15.9473 -19.1945 2.0027
8.1890 -8.2346 0.9320
19.4697 -16.3597 2.0408
9.8860 -6.9014 0.9676
22.4439 -12.8531 2.0756
23.7019 -10.8909 2.0933
22.6008 -8.0294 1.9248
23.1765 -5.9673 1.9206
23.5112 -3.8579 1.9120
4.8913 -0.3590 0.3936
23.6069 0.3799 1.8947
22.2432 2.3544 1.7950
20.5543 4.0558 1.6813
19.0555 5.5657 1.5931
17.7674 6.9637 1.5315
16.5040 8.2366 1.4802
15.3131 9.4363 1.4435
14.1710 10.5868 1.4196
16.2631 14.5831 1.7530
14.7727 15.8432 1.7384
5.1067 6.5652 0.6675
4.6469 7.2225 0.6892
10.0998 19.2889 1.7473
5.2077 12.5621 1.0913
6.3924 20.4024 1.7158
4.5348 20.8391 1.7115
2.8868 22.9907 1.8595
0.4719 13.2700 1.0656
-0.6849 12.7134 1.0218
-3.3063 22.9341 1.8595
-3.1412 13.2634 1.0939
-6.7330 20.1887 1.7079
-8.5306 19.5592 1.7125
-10.2421 18.7201 1.7125
-11.8597 17.7130 1.7107
-13.3911 16.5812 1.7104
-14.8147 15.3174 1.7101
-16.1204 13.9324 1.7099
-17.2715 12.4178 1.7071
-18.2943 10.8173 1.7056
-16.9726 8.0866 1.5088
-16.9792 6.2994 1.4534
-16.9854 4.6260 1.4128
-16.9913 3.0312 1.3851
-17.9271 1.5668 1.4442
-21.1990 -0.0463 1.7013
-21.1094 -1.9380 1.7012
-20.8595 -3.8154 1.7018
-20.4464 -5.6648 1.7027
-19.8730 -7.4720 1.7038
-19.1424 -9.2232 1.7052
-19.6099 -11.7111 1.8330
-18.5363 -13.4505 1.8379
-17.3808 -15.1547 1.8506
-15.9799 -16.6673 1.8530
-14.4498 -18.0533 1.8557
-12.8019 -19.3022 1.8588
-3.7964 -7.0115 0.6399
-3.1846 -7.3897 0.6458
-7.2432 -22.0390 1.8617
-5.2608 -22.6547 1.8664
-2.3414 -16.7597 1.3580
-0.8265 -16.7027 1.3421
0.9385 -23.4976 1.8872
3.0490 -23.4535 1.8980
5.1466 -23.1629 1.9042
7.2198 -22.6947 1.9112
9.3202 -22.2074 1.9328
11.3910 -21.5252 1.9544
13.4109 -20.6450 1.9757
15.3591 -19.5688 1.9964
17.2143 -18.3007 2.0163
9.1768 -8.1567 0.9853
10.0715 -7.4558 1.0056
10.0412 -6.1272 0.9440
23.3297 -11.5159 2.0879
22.3290 -8.6392 1.9214
23.0218 -6.6152 1.9223
23.4276 -4.5164 1.9147
23.6302 -2.3967 1.9061
4.9720 -0.0583 0.3990
23.4650 1.8256 1.8888
21.0566 3.5497 1.7137
19.5049 5.1130 1.6182
18.1797 6.5484 1.5507
16.8880 7.8496 1.4945
15.6773 9.0693 1.4535
14.5224 10.2328 1.4257
16.7333 14.1856 1.7605
15.2339 15.4533 1.7414
5.4749 6.6485 0.6912
4.7165 6.9011 0.6708
10.6626 19.0548 1.7523
5.6719 12.6738 1.1143
6.9768 20.2735 1.7206
4.8228 19.5322 1.6146
3.2376 21.0357 1.7080
0.9951 15.6877 1.2615
-0.3304 12.6998 1.0195
-2.6675 23.0171 1.8595
-2.7540 13.2626 1.0870
-4.0179 13.2654 1.1123
-7.9779 19.7750 1.7113
-9.7177 18.9975 1.7125
-11.3655 18.0405 1.7111
-12.9258 16.9485 1.7106
-14.3839 15.7241 1.7102
-15.7275 14.3756 1.7100
-16.9451 12.9127 1.7097
-17.9921 11.3252 1.7061
-8.6290 4.4097 0.7777
-16.9772 6.8414 1.4689
-16.9835 5.1367 1.4239
-16.9895 3.5208 1.3924
-17.5514 2.0270 1.4179
-17.9312 0.4595 1.4395
-21.1537 -1.3502 1.7011
-20.9548 -3.2336 1.7016
-20.5923 -5.0932 1.7024
-20.0685 -6.9150 1.7034
-19.3862 -8.6851 1.7048
-8.6156 -4.8255 0.7925
-18.8846 -12.9174 1.8361
-17.7270 -14.6093 1.8435
-16.4302 -16.2098 1.8522
-14.9391 -17.6362 1.8548
-13.3266 -18.9289 1.8578
-3.9851 -6.8950 0.6391
-3.3762 -7.2712 0.6434
-2.7542 -7.6557 0.6529
-5.8840 -22.4818 1.8650
-2.8191 -16.7628 1.3641
-1.2968 -16.7529 1.3485
0.2028 -16.7432 1.3438
2.3931 -23.5021 1.8958
4.4972 -23.2790 1.9027
6.5728 -22.8405 1.9074
8.6688 -22.3793 1.9260
10.7512 -21.7587 1.9477
12.7892 -20.9400 1.9691
14.7619 -19.9244 1.9900
20.3027 -8.2746 1.8954
21.0755 -6.4650 1.9059
21.6021 -4.5655 1.9088
5.0386 -0.6020 0.4387
4.8838 -0.1444 0.4224
21.7805 1.3042 1.8864
21.4725 3.2270 1.8772
19.8009 4.8148 1.7618
18.4499 6.2762 1.6848
17.1385 7.5973 1.6208
15.9138 8.8311 1.5735
14.7496 10.0040 1.5408
13.9645 11.4165 1.5594
14.8635 14.5490 1.7982
5.7085 6.6856 0.7600
4.7887 6.7452 0.7152
10.2199 17.5227 1.7538
8.5424 18.2096 1.7389
4.7615 13.0736 1.2029
5.0905 19.1423 1.7125
3.3540 19.4746 1.7085
1.7443 21.4378 1.8595
-0.1037 12.6917 1.0973
-2.0946 21.4065 1.8595
-2.7435 14.5077 1.2765
-3.7608 13.2650 1.1920
-7.0671 18.4596 1.7089
-8.7045 17.7926 1.7125
-10.2576 16.9447 1.7125
-11.7164 15.9447 1.7106
-13.0900 14.8325 1.7103
-14.3586 13.6023 1.7100
-15.5129 12.2648 1.7097
-16.5435 10.8302 1.7095
-16.3021 8.7010 1.5976
-16.9759 7.1955 1.5940
-16.9823 5.4689 1.5424
-16.9883 3.8379 1.5057
-16.3262 2.1813 1.4240
-17.9300 0.7797 1.5516
-19.6864 -0.9043 1.7038
-19.5318 -2.6582 1.7042
-19.2243 -4.3925 1.7049
-18.7662 -6.0940 1.7058
-18.1603 -7.7500 1.7070
-17.3973 -9.3403 1.7071
-17.7942 -11.7111 1.8417
-16.7380 -13.3000 1.8483
-15.5385 -14.7924 1.8548
-14.1745 -16.1407 1.8571
-12.6938 -17.3637 1.8595
-4.1059 -6.8202 0.6882
-3.4984 -7.1956 0.6917
-2.8799 -7.5779 0.7009
-5.8340 -20.7711 1.8652
-3.0951 -16.5892 1.4590
-1.5981 -16.7550 1.4551
-0.0959 -16.7452 1.4477
1.8300 -21.8300 1.8939
3.7822 -21.6441 1.8996
5.7117 -21.2689 1.9039
7.6307 -20.7932 1.9149
9.5598 -20.2492 1.9359
11.4492 -19.5207 1.9565
13.2765 -18.6044 1.9760
15.0246 -17.5093 1.9947
16.6750 -16.2425 2.0125
18.2085 -14.8120 2.0293
9.3788 -6.3278 0.9781
20.8489 -11.5031 2.0586
20.0281 -8.8196 1.8920
20.2420 -6.8306 1.8470
21.4774 -5.1669 1.9098
4.9493 -0.7314 0.4325
4.8076 -0.2761 0.4163
21.8401 0.6991 1.8891
21.5872 2.6328 1.8801
20.2752 4.3369 1.7925
19.1829 5.9359 1.7360
17.5359 7.1970 1.6388
16.2873 8.4548 1.5865
15.1067 9.6441 1.5495
13.9712 10.7881 1.5261
15.3004 14.1655 1.8027
13.8622 15.3494 1.7881
4.9639 6.5955 0.7137
10.7314 17.2774 1.7584
9.0693 18.0125 1.7435
5.0157 12.6649 1.1777
5.6270 19.0145 1.7144
3.8974 19.3902 1.7099
2.3397 21.3811 1.8595
0.2489 12.6781 1.0963
-0.8886 12.7219 1.1025
-2.5993 16.2003 1.4185
-3.3651 13.2641 1.1831
-6.5458 18.6338 1.7075
-8.2038 18.0219 1.7119
-9.7826 17.2233 1.7125
-11.2730 16.2707 1.7113
-12.6729 15.1911 1.7103
-13.9757 13.9971 1.7100
-15.1666 12.6919 1.7098
-16.2368 11.2866 1.7096
-17.1719 9.7881 1.7088
-16.9739 7.7582 1.6135
-16.9804 5.9942 1.5568
-16.9865 4.3372 1.5157
-16.9923 2.7531 1.4882
-17.9282 1.2798 1.5539
-19.7032 -0.3567 1.7037
-19.5963 -2.1140 1.7040
-19.3363 -3.8558 1.7046
-18.9247 -5.5689 1.7055
-18.3646 -7.2404 1.7066
-17.6502 -8.8530 1.7071
-18.1018 -11.2051 1.8405
-17.0744 -12.8094 1.8454
-15.9380 -14.3495 1.8541
-14.6117 -15.7339 1.8564
-13.1675 -16.9987 1.8589
-11.6016 -18.1117 1.8595
-3.6882 -7.0783 0.6900
-3.0741 -7.4578 0.6974
-6.4046 -20.5858 1.8639
-4.5526 -21.1252 1.8683
-2.0699 -16.7581 1.4598
-0.5562 -16.5793 1.4342
1.2211 -21.8489 1.8919
3.1766 -21.7249 1.8982
5.1146 -21.4045 1.9026
7.0309 -20.9414 1.9098
8.9629 -20.4382 1.9294
10.8667 -19.7671 1.9502
12.7157 -18.9091 1.9700
14.4902 -17.8687 1.9889
8.1152 -8.3568 1.0071
17.7450 -15.2741 2.0242
9.1831 -6.5745 0.9764
20.4814 -12.0549 2.0546
19.7367 -9.3548 1.8883
20.6128 -7.6004 1.8993
21.3213 -5.7609 1.9094
21.7250 -3.8306 1.9072
4.8483 -0.4139 0.4207
5.0500 0.0212 0.4366
21.6849 2.0347 1.8830
20.7669 3.8417 1.8258
19.2460 5.3738 1.7275
17.9425 6.7873 1.6585
16.6673 8.0720 1.6011
15.4683 9.2800 1.5595
14.3210 10.4358 1.5320
15.7272 13.7687 1.8071
14.3201 14.9962 1.7927
5.1820 6.5010 0.7188
4.6362 7.0208 0.7274
9.5919 17.8004 1.7481
5.4076 12.6179 1.1868
6.1694 18.8997 1.7188
4.4387 19.2906 1.7113
2.7001 19.6144 1.7117
0.6226 13.1155 1.1352
-0.5331 12.7082 1.0997
-2.8157 21.3236 1.8595
-2.9750 13.2632 1.1752
-4.2497 13.2661 1.2043
-7.6935 18.2284 1.7105
-9.3000 17.4886 1.7125
-10.8206 16.5844 1.7120
-12.2461 15.5380 1.7104
-13.5820 14.3810 1.7102
-14.8086 13.1093 1.7098
-15.9173 11.7339 1.7096
-16.8986 10.2651 1.7094
-8.7430 4.2939 0.8421
-16.9784 6.5298 1.5727
-16.9846 4.8435 1.5269
-16.9906 3.2400 1.4954
-17.9263 1.7818 1.5574
-16.3336 0.1586 1.4122
-19.6460 -1.5682 1.7039
-19.4335 -3.3163 1.7044
-19.0689 -5.0397 1.7052
-18.5546 -6.7255 1.7063
-17.8895 -8.3589 1.7071
-8.4903 -4.9344 0.8490
-17.4077 -12.3183 1.8437
-16.3251 -13.8960 1.8534
-15.0375 -15.3154 1.8556
-13.6289 -16.6186 1.8581
-12.1007 -17.7821 1.8595
-3.8771 -6.9615 0.6889
-3.2667 -7.3388 0.6945
-2.6412 -7.7254 0.7058
-5.1344 -20.9749 1.8669
-2.5453 -16.7612 1.4657
-1.0288 -16.7513 1.4509
0.6121 -21.8362 1.8886
2.5690 -21.7840 1.8964
4.5144 -21.5231 1.9012
6.4316 -21.0815 1.9055
8.3627 -20.6094 1.9229
10.2791 -19.9957 1.9438
12.1479 -19.1966 1.9640
13.9470 -18.2114 1.9831
15.6604 -17.0506 2.0015
9.1157 -8.2985 1.0657
9.1533 -6.9460 0.9934
9.8440 -6.1687 1.0043
21.2724 -10.8170 2.0632
20.3592 -8.1567 1.8961
21.1208 -6.3418 1.9065
21.6264 -4.4365 1.9086
5.0573 -0.5738 0.4400
4.8946 -0.1156 0.4233
21.7655 1.4332 1.8858
21.4458 3.3535 1.8766
19.7015 4.9149 1.7555
18.3593 6.3674 1.6800
17.0546 7.6818 1.6171
15.8348 8.9107 1.5709
14.6737 10.0804 1.5391
14.8076 12.2534 1.6617
14.7688 14.6293 1.7972
5.6245 6.6671 0.7541
4.7523 6.7790 0.7157
10.1098 17.5733 1.7528
8.4293 18.2497 1.7379
6.7100 18.7698 1.7233
4.9766 19.1722 1.7125
3.2375 19.4906 1.7081
1.6168 21.4478 1.8595
-0.1793 12.6946 1.0976
-2.2218 21.3937 1.8595
-2.6727 13.6871 1.2057
-3.8462 13.2652 1.1941
-7.1779 18.4205 1.7092
-8.8101 17.7406 1.7125
-10.3582 16.8836 1.7125
-11.8101 15.8735 1.7105
-13.1777 14.7543 1.7103
-14.4391 13.5168 1.7099
-15.5854 12.1723 1.7097
-16.6075 10.7315 1.7095
-16.3025 8.5771 1.5926
-16.9764 7.0769 1.5901
-16.9827 5.3578 1.5396
-16.9887 3.7320 1.5038
-16.3265 2.0826 1.4229
-17.9304 0.6729 1.5512
-19.6809 -1.0214 1.7038
-19.5160 -2.7744 1.7042
-19.1985 -4.5068 1.7049
-18.7305 -6.2058 1.7059
-18.1149 -7.8582 1.7071
-12.2393 -6.6651 1.2049
-17.7275 -11.8190 1.8420
-16.6712 -13.4095 1.8497
-15.4515 -14.8858 1.8549
-14.0796 -16.2262 1.8573
-12.5903 -17.4388 1.8595
-4.0656 -6.8451 0.6883
-3.4577 -7.2207 0.6921
-2.8381 -7.6037 0.7017
-5.7113 -20.8087 1.8655
-2.9961 -16.6052 1.4588
-1.4975 -16.7543 1.4543
0.0037 -16.7446 1.4476
1.9602 -21.8237 1.8943
3.9114 -21.6246 1.8999
5.8390 -21.2377 1.9042
7.7599 -20.7627 1.9163
9.6869 -20.2065 1.9373
11.5731 -19.4657 1.9579
13.3955 -18.5370 1.9772
15.1376 -17.4303 1.9959
16.7809 -16.1523 2.0136
18.3060 -14.7113 2.0303
9.4296 -6.2808 0.9795
20.9253 -11.3834 2.0594
20.0883 -8.7039 1.8927
20.9019 -6.9151 1.9034
21.5056 -5.0386 1.9096
4.9706 -0.7044 0.4340
4.8247 -0.2483 0.4177
21.8288 0.8287 1.8886
21.5641 2.7602 1.8795
20.1724 4.4405 1.7857
19.3680 6.1196 1.7560
17.4501 7.2833 1.6348
16.2069 8.5358 1.5836
15.0300 9.7214 1.5475
13.8967 10.8631 1.5250
15.2078 14.2487 1.8017
13.7631 15.4231 1.7871
4.9184 6.6166 0.7128
10.6225 17.3311 1.7574
8.9570 18.0560 1.7425
4.9531 12.7274 1.1807
5.5107 19.0370 1.7134
3.7814 19.4095 1.7096
2.2125 21.3946 1.8595
0.1735 12.6810 1.0964
-0.9954 13.1285 1.1383
-2.6904 16.1534 1.4158
-3.4492 13.2643 1.1849
-6.6576 18.5978 1.7078
-8.3122 17.9758 1.7122
-9.8848 17.1650 1.7125
-11.3686 16.2020 1.7112
-12.7630 15.1154 1.7103
-14.0585 13.9137 1.7100
-15.2416 12.6014 1.7098
-16.3035 11.1896 1.7095
-16.3004 9.1634 1.6166
-16.9743 7.6367 1.6092
-16.9808 5.8810 1.5536
-16.9869 4.2299 1.5134
-16.3248 2.5455 1.4284
-17.9286 1.1727 1.5533
-19.7008 -0.4738 1.7037
-19.5838 -2.2305 1.7040
-19.3135 -3.9708 1.7047
-18.8920 -5.6815 1.7056
-18.3221 -7.3499 1.7067
-17.5973 -8.9578 1.7071
-18.0338 -11.3118 1.8404
-17.0014 -12.9133 1.8458
-15.8536 -14.4451 1.8542
-14.5192 -15.8218 1.8565
-13.0675 -17.0784 1.8591
-11.4937 -18.1803 1.8595
-3.6477 -7.1034 0.6904
-3.0328 -7.4834 0.6981
-6.2830 -20.6268 1.8642
-3.5093 -16.7674 1.4810
-1.9688 -16.7574 1.4587
-0.4581 -16.6018 1.4358
1.3513 -21.8463 1.8923
3.3063 -21.7091 1.8985
5.2426 -21.3769 1.9029
7.1588 -20.9093 1.9107
9.0908 -20.3993 1.9308
10.9917 -19.7159 1.9515
12.8362 -18.8454 1.9713
14.6053 -17.7933 1.9902
8.1442 -8.2875 1.0045
17.8452 -15.1765 2.0253
9.1981 -6.5029 0.9739
20.5614 -11.9380 2.0555
19.8004 -9.2412 1.8891
20.6650 -7.4803 1.9000
21.3618 -5.6357 1.9100
5.0350 -0.8569 0.4416
4.7886 -0.3801 0.4153
5.0875 0.0516 0.4399
21.6654 2.1629 1.8824
20.6602 3.9491 1.8185
19.1504 5.4701 1.7219
17.8547 6.8758 1.6541
16.5855 8.1545 1.5978
15.3906 9.3582 1.5572
14.2459 10.5114 1.5306
15.6368 13.8547 1.8062
14.2229 15.0729 1.7917
5.1337 6.5196 0.7174
4.6132 7.0773 0.7304
9.4806 17.8471 1.7471
5.3064 12.5881 1.1810
6.0536 18.9255 1.7179
4.3232 19.3132 1.7110
2.6891 20.4328 1.7817
0.5447 13.1204 1.1353
-0.6090 12.7111 1.1002
-2.9424 21.3065 1.8595
-3.0580 13.2634 1.1768
-6.2451 19.1035 1.7376
-7.8031 18.1855 1.7108
-9.4038 17.4330 1.7125
-10.9181 16.5183 1.7118
-12.3382 15.4649 1.7104
-13.6670 14.2999 1.7101
-14.8861 13.0209 1.7098
-15.9867 11.6389 1.7096
-16.9592 10.1644 1.7094
-16.9722 8.2105 1.6300
-16.9788 6.4143 1.5691
-16.9850 4.7346 1.5244
-16.9909 3.1355 1.4937
-17.9267 1.6743 1.5566
-16.3340 0.0615 1.4122
-19.6367 -1.6850 1.7039
-19.4139 -3.4318 1.7044
-19.0392 -5.1532 1.7052
-18.5152 -6.8361 1.7063
-17.8395 -8.4651 1.7071
-8.4935 -5.0041 0.8523
-17.3375 -12.4240 1.8440
-16.2433 -13.9939 1.8536
-14.9474 -15.4059 1.8558
-13.5311 -16.7009 1.8583
-11.9947 -17.8538 1.8595
-3.8368 -6.9865 0.6891
-3.2256 -7.3642 0.6951
-2.5988 -7.7516 0.7068
-5.0104 -21.0083 1.8672
-2.4433 -16.7605 1.4643
-0.9288 -16.7506 1.4504
0.7422 -21.8410 1.8893
2.6991 -21.7734 1.8968
4.6430 -21.4991 1.9015
6.5584 -21.0479 1.9060
8.4914 -20.5743 1.9243
10.4052 -19.9483 1.9451
12.2699 -19.1365 1.9653
14.0639 -18.1395 1.9844
15.7709 -16.9673 2.0027
9.1297 -8.2126 1.0617
9.1279 -6.8417 0.9862
10.0916 -6.2406 1.0258
21.3433 -10.6937 2.0639
20.4149 -8.0385 1.8968
21.1652 -6.2182 1.9072
21.6498 -4.3073 1.9084
4.7922 -0.5149 0.4167
4.9166 -0.0868 0.4251
21.7497 1.5621 1.8852
21.4183 3.4799 1.8760
19.6029 5.0143 1.7493
18.2693 6.4581 1.6752
16.9712 7.7658 1.6135
15.7559 8.9901 1.5683
14.5980 10.1567 1.5375
15.7691 13.2078 1.7783
14.6736 14.7089 1.7962
5.5366 6.6426 0.7476
4.7130 6.8087 0.7159
9.9994 17.6231 1.7518
8.3159 18.2892 1.7370
6.5945 18.7989 1.7223
4.8625 19.2015 1.7125
3.1211 19.5059 1.7078
1.4893 21.4571 1.8595
-0.2548 12.6975 1.0980
-2.3490 21.3800 1.8595
-2.7454 13.6282 1.2019
-3.9319 13.2654 1.1962
-7.2886 18.3807 1.7095
-8.9155 17.6879 1.7125
-10.4584 16.8217 1.7125
-11.9039 15.8028 1.7104
-13.2651 14.6754 1.7102
-14.5191 13.4304 1.7099
-15.6575 12.0793 1.7097
-16.6708 10.6325 1.7094
-8.6319 4.4761 0.8406
-16.9768 6.9589 1.5862
-16.9831 5.2471 1.5367
-16.9891 3.6263 1.5019
-16.6528 2.0237 1.4503
-17.9308 0.5662 1.5510
-19.6747 -1.1384 1.7038
-19.4996 -2.8905 1.7042
-19.1720 -4.6211 1.7050
-18.6940 -6.3174 1.7060
-18.0679 -7.9659 1.7071
-12.0719 -6.6674 1.1923
-17.6603 -11.9264 1.8424
-16.6038 -13.5186 1.8511
-15.3640 -14.9785 1.8551
-13.9841 -16.3111 1.8575
-12.4864 -17.5134 1.8595
-4.0253 -6.8700 0.6884
-3.4170 -7.2459 0.6926
-2.7961 -7.6296 0.7025
-5.5883 -20.8455 1.8658
-2.9019 -16.6497 1.4611
-1.3971 -16.7537 1.4535
0.1033 -16.7439 1.4476
2.0904 -21.8166 1.8948
4.0405 -21.6043 1.9002
5.9660 -21.2057 1.9045
7.8890 -20.7314 1.9177
9.8139 -20.1629 1.9387
11.6967 -19.4098 1.9592
13.5141 -18.4688 1.9785
15.2503 -17.3505 1.9971
16.8862 -16.0614 2.0148
18.4028 -14.6098 2.0314
9.4805 -6.2336 0.9809
21.0010 -11.2633 2.0603
20.1477 -8.5876 1.8935
20.9502 -6.7932 1.9041
21.5330 -4.9101 1.9094
4.9890 -0.6768 0.4353
4.8419 -0.2203 0.4190
21.8167 0.9582 1.8880
21.5402 2.8875 1.8789
20.0703 4.5433 1.7791
18.6949 6.0294 1.6982
17.3648 7.3693 1.6309
16.1268 8.6165 1.5808
14.9535 9.7986 1.5456
13.8224 10.9381 1.5239
15.1147 14.3312 1.8007
13.6637 15.4961 1.7861
4.8830 6.6512 0.7134
10.5133 17.3841 1.7564
8.8445 18.0987 1.7416
4.8912 12.7929 1.1841
5.3945 19.0589 1.7125
3.6652 19.4282 1.7093
2.0852 21.4074 1.8595
0.0981 12.6839 1.0966
-1.0750 13.1406 1.1399
-2.7405 15.8711 1.3924
-3.5336 13.2645 1.1868
-6.7693 18.5611 1.7081
-8.4202 17.9288 1.7125
-9.9867 17.1058 1.7125
-11.4638 16.1328 1.7110
-12.8525 15.0392 1.7103
-14.1408 13.8297 1.7100
-15.3162 12.5104 1.7097
-16.3695 11.0925 1.7095
-16.3008 9.0365 1.6113
-16.9748 7.5158 1.6050
-16.9812 5.7683 1.5505
-16.9873 4.1228 1.5113
-16.3252 2.4461 1.4271
-17.9289 1.0657 1.5528
-19.6978 -0.5909 1.7037
-19.5705 -2.3470 1.7041
-19.2902 -4.0857 1.7047
-18.8587 -5.7940 1.7056
-18.2790 -7.4590 1.7068
-17.5437 -9.0623 1.7071
-17.9694 -11.4209 1.8408
-16.9282 -13.0172 1.8462
-15.7686 -14.5403 1.8544
-14.4261 -15.9093 1.8567
-12.9669 -17.1575 1.8593
-11.3853 -18.2484 1.8595
-3.6071 -7.1284 0.6907
-2.9913 -7.5090 0.6988
-6.1612 -20.6670 1.8645
-3.4006 -16.7438 1.4771
-1.8678 -16.7567 1.4577
-0.3605 -16.6559 1.4403
1.4815 -21.8429 1.8927
3.4359 -21.6924 1.8988
5.3705 -21.3485 1.9032
7.2864 -20.8762 1.9116
9.2186 -20.3596 1.9322
11.1166 -19.6639 1.9529
12.9565 -18.7809 1.9726
14.7198 -17.7171 1.9914
8.1888 -8.2344 1.0040
17.9448 -15.0783 2.0264
9.2440 -6.4532 0.9747
20.6406 -11.8204 2.0564
19.8633 -9.1272 1.8899
20.7172 -7.3602 1.9008
21.3977 -5.5093 1.9102
4.9688 -0.8153 0.4353
4.7624 -0.3496 0.4128
5.2513 0.0845 0.4541
21.6452 2.2910 1.8818
20.5543 4.0558 1.8113
19.0555 5.5657 1.7163
17.7674 6.9637 1.6498
16.5039 8.2366 1.5947
15.3131 9.4363 1.5551
14.1710 10.5868 1.5293
15.5460 13.9401 1.8052
14.1253 15.1490 1.7907
5.0861 6.5387 0.7162
4.6118 7.1679 0.7369
9.3689 17.8930 1.7462
5.2272 12.6090 1.1801
5.9376 18.9506 1.7169
4.2075 19.3351 1.7107
2.6796 21.3411 1.8595
0.4675 13.1458 1.1372
-0.6849 12.7141 1.1008
-3.0691 21.2886 1.8595
-3.1412 13.2636 1.1784
-6.2567 18.7602 1.7097
-7.9124 18.1419 1.7111
-9.5073 17.3769 1.7125
-11.0152 16.4517 1.7117
-12.4298 15.3911 1.7104
-13.7517 14.2182 1.7101
-14.9631 12.9321 1.7098
-16.0555 11.5435 1.7096
-17.0192 10.0633 1.7094
-16.9726 8.0866 1.6254
-16.9792 6.2994 1.5657
-16.9854 4.6260 1.5220
-16.9913 3.0312 1.4922
-17.9271 1.5668 1.5558
-19.7061 -0.0431 1.7037
-19.6266 -1.8019 1.7039
-19.3937 -3.5473 1.7045
-19.0090 -5.2665 1.7053
-18.4751 -6.9464 1.7064
-17.7888 -8.5711 1.7071
-11.9254 -7.1219 1.2009
-17.2668 -12.5293 1.8444
-16.1611 -14.0912 1.8537
-14.8568 -15.4958 1.8559
-13.4329 -16.7827 1.8585
-11.8883 -17.9248 1.8595
-3.7964 -7.0114 0.6893
-3.1845 -7.3896 0.6957
-6.7285 -20.4729 1.8631
-4.8861 -21.0411 1.8675
-2.3415 -16.7598 1.4630
-0.8243 -16.6573 1.4419
0.8725 -21.8451 1.8901
2.8291 -21.7619 1.8972
4.7714 -21.4744 1.9018
6.6878 -21.0224 1.9072
8.6198 -20.5384 1.9257
10.5310 -19.9001 1.9465
12.3915 -19.0757 1.9666
14.1804 -18.0669 1.9856
15.8810 -16.8833 2.0039
9.1768 -8.1567 1.0615
9.1430 -6.7684 0.9835
20.2627 -12.3645 2.0522
19.5625 -9.6564 1.8861
20.4698 -7.9198 1.8975
21.2088 -6.0942 1.9078
21.6724 -4.1780 1.9082
4.7819 -0.4850 0.4155
4.9522 -0.0580 0.4282
21.7331 1.6909 1.8846
21.3901 3.6059 1.8754
19.5049 5.1130 1.7433
18.1797 6.5484 1.6706
16.8880 7.8496 1.6101
15.6773 9.0693 1.5658
14.5224 10.2328 1.5359
15.9667 13.5357 1.8097
14.5780 14.7879 1.7953
5.4450 6.6122 0.7405
4.6928 6.8664 0.7190
9.8889 17.6723 1.7508
5.7454 12.8380 1.2160
6.4791 18.8273 1.7214
4.7474 19.2268 1.7122
3.0044 19.5206 1.7075
0.8388 13.2225 1.1454
-0.3305 12.7004 1.0984
-2.4761 21.3657 1.8595
-2.7540 13.2627 1.1711
-4.0180 13.2656 1.1983
-7.3991 18.3401 1.7098
-9.0204 17.6345 1.7125
-10.5578 16.7584 1.7124
-11.9974 15.7312 1.7104
-13.3519 14.5960 1.7102
-14.5985 13.3436 1.7099
-15.7289 11.9859 1.7097
-16.7336 10.5330 1.7094
-8.6288 4.4096 0.8378
-16.9772 6.8414 1.5824
-16.9835 5.1367 1.5340
-16.9895 3.5208 1.5000
-17.5514 2.0270 1.5275
-17.9312 0.4595 1.5507
-19.6678 -1.2554 1.7038
-19.4825 -3.0064 1.7043
-19.1448 -4.7352 1.7050
-18.6570 -6.4287 1.7060
-18.0203 -8.0731 1.7071
-8.6153 -4.8254 0.8537
-17.5924 -12.0335 1.8427
-16.5357 -13.6276 1.8525
-15.2759 -15.0709 1.8552
-13.8881 -16.3955 1.8576
-12.3820 -17.5873 1.8595
-3.9850 -6.8949 0.6885
-3.3762 -7.2711 0.6931
-2.7542 -7.6556 0.7034
-5.4652 -20.8816 1.8661
-2.8139 -16.7321 1.4669
-1.2968 -16.7530 1.4527
0.2028 -16.7433 1.4476
2.2206 -21.8088 1.8952
4.1696 -21.5833 1.9005
6.0929 -21.1729 1.9048
8.0181 -20.6993 1.9191
9.9408 -20.1185 1.9401
11.8200 -19.3532 1.9605
13.6324 -18.3998 1.9798
18.7422 -7.6386 1.8754
19.4519 -5.9670 1.8854
19.9901 -4.2248 1.8933
4.7932 -0.5727 0.4473
4.8734 -0.1441 0.4518
20.2523 1.2127 1.8800
19.9734 3.0017 1.8716
19.5306 4.7491 1.8625
18.4499 6.2762 1.8058
17.1385 7.5973 1.7372
15.9138 8.8311 1.6865
14.7496 10.0040 1.6515
13.9645 11.4165 1.6714
13.8316 13.5390 1.7935
5.6743 6.6456 0.8097
4.7694 6.7181 0.7634
9.5267 16.3343 1.7522
7.9676 16.9843 1.7384
4.7989 13.1761 1.2994
4.7486 17.8565 1.7122
3.1281 18.1631 1.7078
1.6275 20.0013 1.8595
-0.1037 12.6923 1.1762
-1.2941 13.2255 1.2314
-2.5790 13.6378 1.2861
-3.7608 13.2651 1.2776
-6.5886 17.2098 1.7076
-8.1175 16.5927 1.7117
-9.5703 15.8093 1.7125
-10.9390 14.8867 1.7118
-12.2118 13.8374 1.7101
-13.3967 12.6911 1.7100
-14.4732 11.4429 1.7097
-15.4344 10.1040 1.7094
-8.6254 4.6037 0.9060
-16.9759 7.1955 1.7085
-16.9823 5.4689 1.6532
-16.9883 3.8379 1.6139
-16.3262 2.1813 1.5263
-17.9300 0.7797 1.6630
-18.3931 -0.8449 1.7062
-18.2484 -2.4836 1.7065
-17.9600 -4.1036 1.7071
-17.5242 -5.6907 1.7073
-16.9445 -7.2311 1.7071
-16.2315 -8.7144 1.7071
-16.6541 -10.9608 1.8475
-15.6769 -12.4570 1.8555
-14.5177 -13.8206 1.8574
-13.2417 -15.0785 1.8595
-11.8432 -16.2001 1.8595
-4.1058 -6.8201 0.7377
-3.4984 -7.1955 0.7414
-2.8798 -7.5778 0.7512
-5.4462 -19.3902 1.8663
-3.0957 -16.5921 1.5640
-1.5981 -16.7551 1.5596
-0.0959 -16.7453 1.5517
1.7070 -20.3622 1.8935
3.5252 -20.1737 1.8977
5.3229 -19.8209 1.9017
7.1021 -19.3527 1.9102
8.8847 -18.8194 1.9284
10.6328 -18.1287 1.9475
12.3236 -17.2692 1.9659
13.9391 -16.2444 1.9835
15.4611 -15.0601 2.0000
16.8717 -13.7245 2.0153
9.4252 -6.3591 1.0536
19.2450 -10.6181 2.0367
18.4914 -8.1429 1.8723
19.2488 -6.4954 1.8825
19.8417 -4.7734 1.8911
4.8594 -0.7181 0.4552
4.7988 -0.2756 0.4454
20.3047 0.6500 1.8825
20.0780 2.4488 1.8743
19.6856 4.2108 1.8654
19.1335 5.9206 1.8559
17.5359 7.1970 1.7565
16.2873 8.4548 1.7005
15.1067 9.6441 1.6608
13.9712 10.7881 1.6357
14.2358 13.1798 1.7977
12.9049 14.2893 1.7842
4.9449 6.5704 0.7620
4.5758 7.3670 0.8036
8.4576 16.7975 1.7427
5.0382 12.7216 1.2679
5.2533 17.7519 1.7155
3.6348 18.0834 1.7092
2.1829 19.9483 1.8595
0.2489 12.6788 1.1751
-0.8886 12.7225 1.1818
-2.5967 16.1838 1.5188
-3.3651 13.2643 1.2681
-6.2385 17.7592 1.7442
-7.6474 16.7997 1.7104
-9.1270 16.0691 1.7125
-10.5247 15.1909 1.7125
-11.8248 14.1745 1.7105
-13.0391 13.0591 1.7100
-14.1503 11.8413 1.7098
-15.1482 10.5298 1.7095
-16.0254 9.1346 1.7093
-16.7746 7.6673 1.7091
-16.9804 5.9942 1.6686
-16.9865 4.3372 1.6245
-16.9923 2.7531 1.5951
-17.9282 1.2798 1.6655
-18.4088 -0.3332 1.7061
-18.3088 -1.9751 1.7064
-18.0654 -3.6023 1.7070
-17.6763 -5.2015 1.7074
-17.1396 -6.7574 1.7072
-16.4675 -8.2598 1.7071
-16.9828 -10.5124 1.8508
-15.9793 -11.9878 1.8511
-14.8913 -13.4071 1.8567
-13.6510 -14.6994 1.8589
-12.2890 -15.8646 1.8595
-6.2653 -9.7809 1.0763
-3.6881 -7.0782 0.7396
-3.0741 -7.4577 0.7475
-5.9791 -19.2182 1.8650
-4.2495 -19.7186 1.8691
-2.0700 -16.7582 1.5647
-0.5560 -16.5726 1.5365
1.1391 -20.3815 1.8916
2.9610 -20.2500 1.8964
4.7667 -19.9482 1.9005
6.5473 -19.5011 1.9062
8.3320 -18.9996 1.9224
10.0942 -18.3618 1.9416
11.8048 -17.5545 1.9602
13.4456 -16.5806 1.9781
8.1150 -8.3566 1.0794
16.4458 -14.1558 2.0107
9.2328 -6.6101 1.0522
18.9282 -11.1407 2.0352
18.2250 -8.6383 1.8689
19.0292 -7.0165 1.8794
19.6759 -5.3163 1.8886
5.0654 -0.8931 0.4766
4.7708 -0.4073 0.4437
5.0295 0.0211 0.4661
20.1666 1.8923 1.8769
19.8251 3.6674 1.8682
19.3220 5.3951 1.8589
17.9425 6.7873 1.7776
16.6673 8.0720 1.7160
15.4683 9.2800 1.6715
14.3210 10.4358 1.6420
14.6303 12.8084 1.8018
13.3287 13.9581 1.7884
5.1606 6.4742 0.7672
4.6144 6.9879 0.7760
8.9433 16.5967 1.7470
5.4373 12.6873 1.2791
5.7588 17.6417 1.7196
4.1394 17.9895 1.7105
2.6724 19.4135 1.8159
0.6196 13.0509 1.2107
-0.5331 12.7088 1.1787
-2.6271 19.8947 1.8595
-2.9750 13.2634 1.2596
-4.2497 13.2662 1.2908
-7.1721 16.9932 1.7092
-8.6768 16.3167 1.7125
-10.0983 15.4774 1.7125
-11.4301 14.5028 1.7111
-12.6714 13.4169 1.7101
-13.8163 12.2310 1.7099
-14.8503 10.9473 1.7096
