ply
format ascii 1.0
element vertex 2177
property float32 x
property float32 y
property float32 z
end_header
-8.4797 -2.5638 1.7125
-8.2152 -3.3089 1.7121
-7.8833 -4.0263 1.7112
-7.4882 -4.7105 1.7102
-7.0330 -5.3555 1.7089
-6.5211 -5.9557 1.7073
-6.4962 -7.0948 1.8596
-5.8387 -7.6473 1.8600
-1.0126 -1.6053 0.3669
-0.8655 -1.6894 0.3669
-0.7115 -1.7600 0.3670
-0.5517 -1.8165 0.3670
-0.3875 -1.8586 0.3670
-0.2203 -1.8858 0.3670
-0.0512 -1.8979 0.3670
0.1183 -1.8949 0.3670
0.2868 -1.8767 0.3670
0.4530 -1.8436 0.3670
0.6156 -1.7957 0.3670
0.7732 -1.7335 0.3669
0.9246 -1.6574 0.3669
1.0686 -1.5681 0.3668
5.6834 -6.9220 1.7314
6.3383 -6.4488 1.7480
6.9251 -5.8893 1.7574
7.4231 -5.2485 1.7574
7.8771 -4.5746 1.7609
8.2671 -3.8601 1.7638
8.5891 -3.1113 1.7660
8.8401 -2.3349 1.7675
4.5539 -0.7767 0.8930
4.4795 -0.3575 0.8687
4.7089 0.0455 0.9104
9.0946 0.9031 1.7668
8.9682 1.7087 1.7649
8.7673 2.4981 1.7623
8.4941 3.2641 1.7591
8.1516 4.0000 1.7553
7.7431 4.6993 1.7510
7.2728 5.3562 1.7461
6.7454 5.9651 1.7407
6.1661 6.5213 1.7350
5.3819 6.8197 1.6794
1.0334 1.5815 0.3652
0.8882 1.6671 0.3652
0.7359 1.7395 0.3651
0.5778 1.7981 0.3651
0.4151 1.8424 0.3651
0.2491 1.8720 0.3651
0.0812 1.8867 0.3651
-0.0874 1.8865 0.3651
-0.2553 1.8712 0.3651
-0.4212 1.8411 0.3651
-0.5838 1.7963 0.3651
-0.7417 1.7373 0.3652
-0.8938 1.6644 0.3652
-1.0388 1.5783 0.3653
-5.9843 7.5315 1.8596
-6.2223 6.5371 1.7447
-6.6374 5.8305 1.7079
-7.1365 5.2194 1.7092
-7.5788 4.5653 1.7104
-7.9605 3.8735 1.7114
-8.2783 3.1497 1.7122
-8.5277 2.3992 1.7125
-8.7077 1.6291 1.7125
-8.8183 0.8460 1.7125
-8.8586 0.0563 1.7125
-8.8284 -0.7340 1.7125
-8.7277 -1.5185 1.7125
-8.5575 -2.2908 1.7125
-8.3183 -3.0445 1.7124
-8.0098 -3.7724 1.7116
-7.6371 -4.4691 1.7106
-7.2031 -5.1289 1.7094
-6.7110 -5.7458 1.7079
-6.5809 -6.7404 1.8211
-6.0798 -7.4552 1.8597
-1.0635 -1.5719 0.3669
-0.9192 -1.6607 0.3669
-0.7675 -1.7362 0.3670
-0.6096 -1.7979 0.3670
-0.4469 -1.8452 0.3670
-0.2806 -1.8778 0.3670
-0.1120 -1.8953 0.3670
0.0575 -1.8977 0.3670
0.2265 -1.8850 0.3670
0.3937 -1.8572 0.3670
0.5577 -1.8146 0.3670
0.7173 -1.7574 0.3669
0.8710 -1.6863 0.3669
1.0178 -1.6017 0.3669
5.4540 -7.0945 1.7299
6.1130 -6.6319 1.7436
6.7225 -6.0988 1.7547
7.2472 -5.4807 1.7565
7.7213 -4.8214 1.7597
8.1347 -4.1208 1.7628
8.4816 -3.3836 1.7653
8.7584 -2.6163 1.7671
4.8840 -0.9950 0.9635
4.4857 -0.5030 0.8726
4.5490 -0.1018 0.8796
9.1216 0.6114 1.7673
9.0222 1.4211 1.7656
8.8478 2.2171 1.7633
8.6003 2.9923 1.7603
8.2823 3.7398 1.7567
7.8970 4.4530 1.7526
7.4484 5.1257 1.7479
6.9410 5.7525 1.7427
6.3796 6.3281 1.7371
5.7757 6.8550 1.7328
1.0836 1.5476 0.3652
0.9412 1.6379 0.3652
0.7913 1.7151 0.3651
0.6351 1.7787 0.3651
0.4739 1.8282 0.3651
0.3090 1.8631 0.3651
0.1416 1.8832 0.3651
-0.0269 1.8883 0.3651
-0.1952 1.8784 0.3651
-0.3620 1.8536 0.3651
-0.5259 1.8141 0.3651
-0.6857 1.7601 0.3652
-0.8400 1.6921 0.3652
-0.9877 1.6107 0.3652
-5.7399 7.7194 1.8596
-6.2120 6.9599 1.8034
-6.4453 6.0384 1.7073
-6.9637 5.4439 1.7087
-7.4269 4.8047 1.7100
-7.8307 4.1257 1.7111
-8.1718 3.4128 1.7120
-8.4465 2.6713 1.7125
-8.6511 1.9073 1.7125
-8.7867 1.1282 1.7125
-8.8523 0.3401 1.7125
-8.8473 -0.4508 1.7125
-8.7719 -1.2380 1.7125
-8.6265 -2.0154 1.7125
-8.4124 -2.7767 1.7125
-8.1281 -3.5145 1.7119
-7.7780 -4.2230 1.7109
-7.3657 -4.8967 1.7098
-6.8941 -5.5297 1.7085
-6.3877 -6.1362 1.7123
-6.3153 -7.2563 1.8596
-5.6445 -7.7926 1.8601
-0.9719 -1.6303 0.3669
-0.8227 -1.7107 0.3670
-0.6669 -1.7774 0.3670
-0.5058 -1.8299 0.3670
-0.3406 -1.8678 0.3670
-0.1727 -1.8908 0.3670
-0.0033 -1.8986 0.3670
0.1660 -1.8913 0.3670
0.3340 -1.8689 0.3670
0.4993 -1.8315 0.3670
0.6606 -1.7796 0.3670
0.8166 -1.7134 0.3669
0.9660 -1.6335 0.3669
5.2198 -7.2599 1.7285
5.8747 -6.7982 1.7369
6.5111 -6.2989 1.7513
7.0698 -5.7117 1.7570
7.5575 -5.0627 1.7585
7.9938 -4.3768 1.7618
8.3650 -3.6519 1.7645
8.6673 -2.8947 1.7665
8.8977 -2.1118 1.7678
4.5228 -0.6546 0.8834
4.5010 -0.2452 0.8714
4.8930 0.1707 0.9465
9.0666 1.1317 1.7663
8.9189 1.9335 1.7642
8.6974 2.7170 1.7615
8.4043 3.4751 1.7581
8.0428 4.2014 1.7541
7.6164 4.8893 1.7496
7.1295 5.5332 1.7446
6.5869 6.1277 1.7391
5.9948 6.6691 1.7335
5.3480 7.1396 1.7245
0.9932 1.6070 0.3652
0.8458 1.6889 0.3652
0.6918 1.7575 0.3651
0.5323 1.8121 0.3651
0.3685 1.8522 0.3651
0.2018 1.8777 0.3651
0.0336 1.8882 0.3651
-0.1349 1.8837 0.3651
-0.3024 1.8642 0.3651
-0.4675 1.8299 0.3651
-0.6289 1.7811 0.3651
-0.7853 1.7181 0.3652
-0.9355 1.6414 0.3652
-5.4897 7.8993 1.8596
-6.1723 7.3783 1.8596
-6.2480 6.2413 1.7072
-6.7838 5.6627 1.7083
-7.2673 5.0389 1.7095
-7.6928 4.3736 1.7107
-8.0568 3.6722 1.7117
-8.3561 2.9404 1.7125
-8.5855 2.1835 1.7125
-8.7460 1.4092 1.7125
-8.8369 0.6235 1.7125
-8.8572 -0.1670 1.7125
-8.8071 -0.9563 1.7125
-8.6867 -1.7379 1.7125
-8.4971 -2.5057 1.7125
-8.2379 -3.2528 1.7122
-7.9110 -3.9725 1.7113
-7.5206 -4.6593 1.7103
-7.0699 -5.3076 1.7090
-6.5622 -5.9114 1.7074
-6.5446 -7.0502 1.8596
-5.8905 -7.6068 1.8599
-1.0236 -1.5983 0.3669
-0.8771 -1.6834 0.3669
-0.7235 -1.7551 0.3670
-0.5641 -1.8127 0.3670
-0.4003 -1.8559 0.3670
-0.2332 -1.8842 0.3670
-0.0642 -1.8975 0.3670
0.1053 -1.8957 0.3670
0.2739 -1.8787 0.3670
0.4404 -1.8467 0.3670
0.6033 -1.7999 0.3670
0.7613 -1.7387 0.3669
0.9132 -1.6637 0.3669
1.0578 -1.5754 0.3668
5.6344 -6.9589 1.7309
6.2907 -6.4887 1.7471
6.8840 -5.9360 1.7572
7.3857 -5.2983 1.7572
7.8445 -4.6277 1.7607
8.2396 -3.9161 1.7636
8.5669 -3.1697 1.7658
8.8234 -2.3953 1.7674
4.5624 -0.8103 0.8958
4.4713 -0.3876 0.8676
4.6470 0.0132 0.8983
9.1012 0.8409 1.7669
8.9805 1.6475 1.7650
8.7853 2.4383 1.7625
8.5176 3.2064 1.7594
8.1802 3.9448 1.7556
7.7766 4.6472 1.7513
7.3109 5.3075 1.7465
6.7877 5.9203 1.7412
6.2121 6.4807 1.7354
7.2604 4.8740 1.7464
6.7775 5.4865 1.7415
6.2419 6.0503 1.7361
5.6612 6.5641 1.7311
1.0662 1.4860 0.3653
0.9293 1.5750 0.3652
0.7851 1.6514 0.3652
0.6346 1.7147 0.3651
0.4791 1.7644 0.3651
0.3199 1.8000 0.3651
0.1581 1.8213 0.3651
-0.0050 1.8281 0.3651
-0.1680 1.8204 0.3651
-0.3297 1.7983 0.3651
-0.4888 1.7618 0.3652
-0.6441 1.7114 0.3652
-0.7942 1.6473 0.3652
-0.9380 1.5701 0.3653
-1.0745 1.4803 0.3653
-6.1199 7.0178 1.8596
-6.2255 5.9687 1.7224
-6.6765 5.3444 1.7080
-7.1316 4.7311 1.7092
-7.5298 4.0788 1.7102
-7.8677 3.3928 1.7112
-8.1424 2.6787 1.7119
-8.3516 1.9425 1.7124
-8.4920 1.1900 1.7125
-8.5643 0.4279 1.7125
-8.5684 -0.3376 1.7125
-8.5041 -1.1004 1.7125
-8.3720 -1.8544 1.7125
-8.1707 -2.5928 1.7120
-7.9036 -3.3098 1.7113
-7.5730 -3.9994 1.7104
-7.1818 -4.6561 1.7094
-6.7331 -5.2742 1.7081
-6.3228 -5.9353 1.7319
-6.1935 -6.9529 1.8596
-1.0946 -1.4751 0.3668
-0.9588 -1.5670 0.3669
-0.8153 -1.6464 0.3669
-0.6653 -1.7127 0.3670
-0.5099 -1.7654 0.3670
-0.3505 -1.8039 0.3670
-0.1882 -1.8280 0.3670
-0.0244 -1.8375 0.3670
0.1396 -1.8323 0.3670
0.3024 -1.8125 0.3670
0.4628 -1.7782 0.3670
0.6195 -1.7297 0.3669
0.7712 -1.6674 0.3669
0.9167 -1.5918 0.3669
1.0549 -1.5035 0.3668
5.5842 -6.6146 1.7288
6.2110 -6.1487 1.7454
6.7724 -5.6016 1.7552
7.2464 -4.9763 1.7556
7.6756 -4.3182 1.7589
8.0423 -3.6219 1.7615
8.3429 -2.8936 1.7636
8.5744 -2.1397 1.7649
4.6353 -0.7255 0.9370
4.5471 -0.3003 0.9101
4.8470 0.1132 0.9683
8.7757 0.9928 1.7638
8.6427 1.7696 1.7619
8.4381 2.5296 1.7593
8.1641 3.2662 1.7561
7.8236 3.9728 1.7524
7.4199 4.6433 1.7481
6.9572 5.2720 1.7433
6.4399 5.8539 1.7381
5.8786 6.3902 1.7341
5.2472 6.8394 1.7216
0.9793 1.5444 0.3652
0.8376 1.6254 0.3652
0.6892 1.6935 0.3652
0.5354 1.7481 0.3651
0.3774 1.7888 0.3651
0.2163 1.8153 0.3651
0.0536 1.8274 0.3651
-0.1096 1.8249 0.3651
-0.2719 1.8079 0.3651
-0.4321 1.7765 0.3651
-0.5889 1.7311 0.3652
-0.7410 1.6718 0.3652
-0.8872 1.5992 0.3652
-1.0264 1.5139 0.3653
-5.8918 7.2103 1.8596
-6.2163 6.3545 1.7753
-6.5000 5.5541 1.7075
-6.9746 4.9560 1.7088
-7.3937 4.3170 1.7099
-7.7536 3.6425 1.7108
-8.0513 2.9378 1.7116
-8.2842 2.2089 1.7123
-8.4496 1.4615 1.7125
-8.5462 0.7021 1.7125
-8.5748 -0.0629 1.7125
-8.5350 -0.8273 1.7125
-8.4272 -1.5852 1.7125
-8.2506 -2.3300 1.7122
-8.0069 -3.0554 1.7115
-7.6988 -3.7555 1.7107
-7.3290 -4.4246 1.7097
-6.9006 -5.0572 1.7086
-6.4168 -5.6478 1.7072
-6.4131 -6.7509 1.8596
-5.7856 -7.2960 1.8596
-1.0085 -1.5354 0.3669
-0.8676 -1.6194 0.3669
-0.7198 -1.6905 0.3669
-0.5662 -1.7481 0.3670
-0.4081 -1.7917 0.3670
-0.2467 -1.8210 0.3670
-0.0833 -1.8358 0.3670
0.0808 -1.8359 0.3670
0.2442 -1.8213 0.3670
0.4056 -1.7922 0.3670
0.5638 -1.7487 0.3669
0.7174 -1.6913 0.3669
0.8653 -1.6204 0.3669
1.0062 -1.5366 0.3668
5.3628 -6.7818 1.7267
5.9930 -6.3259 1.7403
6.5780 -5.8056 1.7522
7.0850 -5.2072 1.7560
7.5286 -4.5591 1.7577
7.9181 -3.8758 1.7606
8.2428 -3.1583 1.7629
8.4994 -2.4128 1.7645
4.8083 -0.9113 0.9774
4.5147 -0.4438 0.9060
4.6730 -0.0406 0.9333
8.8057 0.7113 1.7643
8.6988 1.4924 1.7626
8.5197 2.2592 1.7603
8.2703 3.0050 1.7573
7.9533 3.7230 1.7538
7.5718 4.4072 1.7497
7.1297 5.0515 1.7451
6.6315 5.6508 1.7400
6.0818 6.2001 1.7345
5.4831 6.6915 1.7277
1.0284 1.5123 0.3652
0.8893 1.5978 0.3652
0.7432 1.6706 0.3652
0.5912 1.7301 0.3651
0.4345 1.7758 0.3651
0.2744 1.8075 0.3651
0.1121 1.8247 0.3651
-0.0511 1.8274 0.3651
-0.2139 1.8157 0.3651
-0.3750 1.7894 0.3651
-0.5331 1.7490 0.3652
-0.6870 1.6946 0.3652
-0.8355 1.6268 0.3652
-0.9774 1.5460 0.3653
-5.6578 7.3954 1.8596
-6.2061 6.7647 1.8334
-6.3176 5.7585 1.7072
-6.8105 5.1756 1.7083
-7.2499 4.5507 1.7095
-7.6314 3.8883 1.7105
-7.9518 3.1938 1.7114
-8.2082 2.4729 1.7121
-8.3984 1.7315 1.7125
-8.5193 0.9756 1.7125
-8.5724 0.2119 1.7125
-8.5571 -0.5534 1.7125
-8.4737 -1.3144 1.7125
-8.3219 -2.0647 1.7124
-8.1019 -2.7977 1.7118
-7.8166 -3.5075 1.7110
-7.4686 -4.1884 1.7101
-7.0608 -4.8347 1.7090
-6.5964 -5.4409 1.7077
-6.4271 -6.3454 1.8037
-6.0164 -7.1068 1.8596
-1.0571 -1.5023 0.3669
-0.9190 -1.5907 0.3669
-0.7736 -1.6665 0.3669
-0.6219 -1.7290 0.3670
-0.4653 -1.7777 0.3670
-0.3049 -1.8122 0.3670
-0.1421 -1.8322 0.3670
0.0219 -1.8375 0.3670
0.1857 -1.8282 0.3670
0.3480 -1.8043 0.3670
0.5075 -1.7659 0.3670
0.6629 -1.7135 0.3669
0.8130 -1.6474 0.3669
0.9565 -1.5681 0.3668
5.1390 -6.9450 1.7254
5.7661 -6.4909 1.7339
6.3754 -6.0010 1.7486
6.9163 -5.4330 1.7565
7.3737 -4.7948 1.7566
7.7856 -4.1253 1.7597
8.1340 -3.4194 1.7622
8.4153 -2.6831 1.7640
8.6270 -1.9232 1.7652
4.5882 -0.6000 0.9241
4.5914 -0.1872 0.9177
8.8262 0.4289 1.7648
8.7455 1.2134 1.7633
8.5921 1.9861 1.7612
8.3677 2.7402 1.7585
8.0746 3.4689 1.7551
7.7159 4.1659 1.7512
7.2951 4.8252 1.7468
6.8165 5.4412 1.7419
6.2847 6.0090 1.7365
5.7086 6.5282 1.7319
1.0763 1.4787 0.3653
0.9401 1.5686 0.3652
0.7964 1.6460 0.3652
0.6463 1.7103 0.3651
0.4912 1.7610 0.3651
0.3322 1.7978 0.3651
0.1705 1.8202 0.3651
0.0075 1.8281 0.3651
-0.1556 1.8216 0.3651
-0.3174 1.8005 0.3651
-0.4768 1.7651 0.3651
-0.6323 1.7157 0.3652
-0.7829 1.6526 0.3652
-0.9273 1.5764 0.3653
-1.0643 1.4876 0.3653
-6.0717 7.0595 1.8596
-6.2236 6.0491 1.7333
-6.6394 5.3897 1.7079
-7.0987 4.7795 1.7091
-7.5014 4.1300 1.7102
-7.8440 3.4464 1.7111
-8.1237 2.7343 1.7118
-8.3379 1.9996 1.7124
-8.4837 1.2481 1.7125
-8.5612 0.4865 1.7125
-8.5705 -0.2790 1.7125
-8.5115 -1.0422 1.7125
-8.3846 -1.7971 1.7125
-8.1885 -2.5370 1.7120
-7.9264 -3.2558 1.7113
-7.6005 -3.9477 1.7105
-7.2139 -4.6071 1.7094
-6.7694 -5.2283 1.7082
-6.3091 -5.8417 1.7172
-6.2410 -6.9104 1.8596
-5.6003 -7.4401 1.8598
-0.9695 -1.5604 0.3669
-0.8265 -1.6408 0.3669
-0.6770 -1.7081 0.3670
-0.5220 -1.7618 0.3670
-0.3628 -1.8014 0.3670
-0.2007 -1.8267 0.3670
-0.0370 -1.8373 0.3670
0.1270 -1.8332 0.3670
0.2900 -1.8145 0.3670
0.4506 -1.7813 0.3670
0.6077 -1.7339 0.3669
0.7598 -1.6726 0.3669
0.9058 -1.5980 0.3669
1.0446 -1.5107 0.3668
5.5349 -6.6480 1.7276
6.1657 -6.1880 1.7446
6.7314 -5.6457 1.7546
7.2125 -5.0259 1.7556
7.6449 -4.3701 1.7586
8.0165 -3.6765 1.7613
8.3223 -2.9504 1.7634
8.5592 -2.1982 1.7649
4.6456 -0.7597 0.9401
4.5354 -0.3307 0.9082
4.8087 0.0794 0.9605
8.7829 0.9328 1.7639
8.6554 1.7106 1.7620
8.4563 2.4721 1.7595
8.1875 3.2107 1.7564
7.8519 3.9198 1.7527
7.4530 4.5933 1.7484
6.9946 5.2255 1.7437
6.4813 5.8111 1.7385
5.9224 6.3501 1.7342
5.2982 6.8089 1.7230
0.9899 1.5377 0.3652
0.8487 1.6197 0.3652
0.7008 1.6888 0.3652
0.5474 1.7444 0.3651
0.3896 1.7862 0.3651
0.2287 1.8138 0.3651
0.0661 1.8270 0.3651
-0.0971 1.8256 0.3651
-0.2596 1.8097 0.3651
-0.4199 1.7794 0.3651
-0.5770 1.7350 0.3652
-0.7295 1.6768 0.3652
-0.8763 1.6053 0.3652
-1.0161 1.5209 0.3653
-5.8424 7.2504 1.8596
-6.2142 6.4399 1.7873
-6.4615 5.5981 1.7074
-6.9402 5.0033 1.7087
-7.3636 4.3673 1.7098
-7.7282 3.6953 1.7108
-8.0307 2.9927 1.7116
-8.2687 2.2655 1.7122
-8.4394 1.5193 1.7125
-8.5412 0.7606 1.7125
-8.5750 -0.0042 1.7125
-8.5405 -0.7690 1.7125
-8.4379 -1.5275 1.7125
-8.2665 -2.2736 1.7122
-8.0279 -3.0006 1.7116
-7.7246 -3.7029 1.7108
-7.3594 -4.3745 1.7098
-6.9354 -5.0101 1.7087
-6.4556 -5.6040 1.7073
-6.4592 -6.7068 1.8596
-5.8354 -7.2563 1.8596
-1.0189 -1.5285 0.3669
-0.8787 -1.6134 0.3669
-0.7313 -1.6855 0.3669
-0.5781 -1.7442 0.3670
-0.4203 -1.7889 0.3670
-0.2591 -1.8193 0.3670
-0.0958 -1.8352 0.3670
0.0682 -1.8364 0.3670
0.2317 -1.8229 0.3670
0.3933 -1.7949 0.3670
0.5518 -1.7525 0.3669
0.7058 -1.6962 0.3669
0.8542 -1.6263 0.3669
0.9957 -1.5434 0.3668
5.3155 -6.8173 1.7264
5.9450 -6.3618 1.7389
6.5357 -5.8483 1.7515
7.0496 -5.2559 1.7561
7.4961 -4.6098 1.7575
7.8905 -3.9295 1.7604
8.2203 -3.2143 1.7627
8.4822 -2.4708 1.7644
4.8580 -0.9552 0.9888
4.5299 -0.4766 0.9097
4.6382 -0.0721 0.9264
8.8109 0.6511 1.7644
8.7095 1.4330 1.7628
8.5359 2.2011 1.7605
8.2918 2.9487 1.7576
7.9799 3.6691 1.7541
7.6032 4.3561 1.7500
7.1657 5.0037 1.7454
6.6715 5.6066 1.7404
6.1256 6.1598 1.7349
5.5318 6.6575 1.7287
1.0387 1.5053 0.3652
0.9002 1.5917 0.3652
0.7546 1.6655 0.3652
0.6030 1.7260 0.3651
0.4466 1.7728 0.3651
0.2867 1.8055 0.3651
0.1246 1.8239 0.3651
-0.0386 1.8277 0.3651
-0.2014 1.8171 0.3651
-0.3627 1.7919 0.3651
-0.5211 1.7526 0.3652
-0.6754 1.6993 0.3652
-0.8243 1.6324 0.3652
-0.9668 1.5526 0.3653
-5.6071 7.4339 1.8596
-6.2038 6.8558 1.8466
-6.2781 5.8016 1.7072
-6.7745 5.2217 1.7082
-7.2182 4.5999 1.7094
-7.6043 3.9403 1.7104
-7.9294 3.2480 1.7113
-8.1909 2.5290 1.7120
-8.3863 1.7889 1.7125
-8.5125 1.0338 1.7125
-8.5707 0.2706 1.7125
-8.5607 -0.4949 1.7125
-8.4825 -1.2564 1.7125
-8.3360 -2.0077 1.7124
-8.1211 -2.7422 1.7119
-7.8407 -3.4541 1.7111
-7.4974 -4.1374 1.7102
-7.0941 -4.7865 1.7091
-6.6340 -5.3960 1.7078
-6.3914 -6.2243 1.7817
-6.0648 -7.0655 1.8596
-1.0674 -1.4950 0.3669
-0.9299 -1.5844 0.3669
-0.7849 -1.6612 0.3669
-0.6337 -1.7247 0.3670
-0.4774 -1.7744 0.3670
-0.3173 -1.8100 0.3670
-0.1546 -1.8311 0.3670
0.0093 -1.8376 0.3670
0.1732 -1.8294 0.3670
0.3356 -1.8066 0.3670
0.4954 -1.7694 0.3670
0.6511 -1.7180 0.3669
0.8017 -1.6529 0.3669
0.9458 -1.5746 0.3668
1.0823 -1.4838 0.3668
5.7170 -6.5250 1.7326
6.3312 -6.0416 1.7477
6.8794 -5.4805 1.7566
7.3396 -4.8444 1.7563
7.7562 -4.1779 1.7595
8.1096 -3.4746 1.7620
8.3962 -2.7405 1.7639
8.6133 -1.9821 1.7651
4.6046 -0.6343 0.9283
4.4849 -0.2136 0.8967
5.1231 0.2139 1.0240
8.7543 1.1536 1.7635
8.6064 1.9275 1.7614
8.3874 2.6832 1.7587
8.0994 3.4141 1.7554
7.7456 4.1138 1.7515
7.3294 4.7762 1.7471
6.8551 5.3957 1.7423
6.3272 5.9673 1.7369
5.7557 6.4919 1.7327
1.0864 1.4713 0.3653
0.9508 1.5621 0.3652
0.8076 1.6405 0.3652
0.6580 1.7059 0.3652
0.5032 1.7576 0.3651
0.3445 1.7954 0.3651
0.1830 1.8190 0.3651
0.0200 1.8280 0.3651
-0.1431 1.8226 0.3651
-0.3051 1.8026 0.3651
-0.4647 1.7683 0.3651
-0.6206 1.7200 0.3652
-0.7716 1.6579 0.3652
-0.9165 1.5827 0.3653
-1.0541 1.4949 0.3653
-6.0233 7.1009 1.8596
-6.2217 6.1306 1.7444
-6.6020 5.4346 1.7078
-7.0654 4.8277 1.7090
-7.4726 4.1810 1.7101
-7.8200 3.4998 1.7110
-8.1045 2.7897 1.7118
-8.3239 2.0565 1.7124
-8.4750 1.3061 1.7125
-8.5577 0.5450 1.7125
-8.5722 -0.2203 1.7125
-8.5184 -0.9840 1.7125
-8.3967 -1.7398 1.7125
-8.2058 -2.4809 1.7121
-7.9487 -3.2016 1.7114
-7.6277 -3.8958 1.7105
-7.2455 -4.5578 1.7095
-6.8055 -5.1822 1.7083
-6.3120 -5.7647 1.7072
-6.2881 -6.8675 1.8596
-5.6509 -7.4013 1.8597
-0.9801 -1.5537 0.3669
-0.8377 -1.6351 0.3669
-0.6886 -1.7035 0.3669
-0.5340 -1.7582 0.3670
-0.3751 -1.7989 0.3670
-0.2132 -1.8252 0.3670
-0.0496 -1.8370 0.3670
0.1145 -1.8341 0.3670
0.2776 -1.8165 0.3670
0.4384 -1.7844 0.3670
0.5958 -1.7380 0.3669
0.7483 -1.6778 0.3669
0.8949 -1.6042 0.3669
1.0343 -1.5178 0.3668
5.4886 -6.6848 1.7274
6.1202 -6.2269 1.7437
6.6902 -5.6896 1.7539
7.1783 -5.0754 1.7557
7.6138 -4.4217 1.7584
7.9903 -3.7309 1.7611
8.3012 -3.0070 1.7633
8.5435 -2.2566 1.7648
4.6804 -0.7983 0.9482
4.5239 -0.3610 0.9064
4.7710 0.0461 0.9529
8.7897 0.8728 1.7640
8.6678 1.6515 1.7622
8.4740 2.4145 1.7597
8.2105 3.1551 1.7567
7.8800 3.8667 1.7530
7.4857 4.5431 1.7488
7.0317 5.1786 1.7441
6.5225 5.7680 1.7389
5.9660 6.3097 1.7342
5.3491 6.7781 1.7244
1.0004 1.5309 0.3652
0.8598 1.6139 0.3652
0.7124 1.6840 0.3652
0.5593 1.7407 0.3651
0.4018 1.7835 0.3651
0.2411 1.8122 0.3651
0.0786 1.8265 0.3651
-0.0846 1.8262 0.3651
-0.2472 1.8114 0.3651
-0.4078 1.7823 0.3651
-0.5651 1.7389 0.3652
-0.7180 1.6818 0.3652
-0.8652 1.6112 0.3652
-1.0056 1.5278 0.3653
-5.7926 7.2902 1.8596
-6.2121 6.5264 1.7995
-6.4226 5.6418 1.7073
-6.9054 5.0504 1.7086
-7.3332 4.4174 1.7097
-7.7024 3.7479 1.7107
-8.0098 3.0475 1.7115
-8.2528 2.3219 1.7122
-8.4288 1.5769 1.7125
-8.5358 0.8190 1.7125
-8.5748 0.0545 1.7125
-8.5455 -0.7105 1.7125
-8.4481 -1.4698 1.7125
-8.2821 -2.2170 1.7123
-8.0485 -2.9457 1.7117
-7.7501 -3.6501 1.7109
-7.3895 -4.3243 1.7099
-6.9699 -4.9628 1.7088
-6.4942 -5.5601 1.7074
-6.5049 -6.6625 1.8596
-5.8849 -7.2162 1.8596
-1.0294 -1.5215 0.3669
-0.8897 -1.6074 0.3669
-0.7429 -1.6805 0.3669
-0.5901 -1.7401 0.3670
-0.4325 -1.7859 0.3670
-0.2716 -1.8175 0.3670
-0.1084 -1.8345 0.3670
0.0557 -1.8368 0.3670
0.2192 -1.8245 0.3670
0.3811 -1.7975 0.3670
0.5398 -1.7563 0.3669
0.6942 -1.7010 0.3669
0.8431 -1.6321 0.3669
0.9851 -1.5502 0.3668
5.2679 -6.8524 1.7262
5.8968 -6.3974 1.7376
6.4929 -5.8905 1.7508
7.0139 -5.3043 1.7562
7.4634 -4.6603 1.7573
7.8626 -3.9829 1.7602
8.1974 -3.2702 1.7626
8.4646 -2.5286 1.7643
4.9090 -1.0001 1.0005
4.5454 -0.5097 0.9135
4.6253 -0.1035 0.9240
8.8156 0.5909 1.7645
8.7199 1.3735 1.7629
8.5517 2.1429 1.7607
8.3130 2.8924 1.7578
8.0061 3.6151 1.7544
7.6343 4.3048 1.7503
7.2012 4.9556 1.7458
6.7113 5.5621 1.7408
6.1692 6.1193 1.7354
5.5803 6.6231 1.7296
1.0490 1.4981 0.3652
0.9111 1.5855 0.3652
0.7660 1.6603 0.3652
0.6148 1.7219 0.3651
0.4588 1.7697 0.3651
0.2991 1.8035 0.3651
0.1370 1.8230 0.3651
-0.0261 1.8280 0.3651
-0.1890 1.8184 0.3651
-0.3504 1.7944 0.3651
-0.5091 1.7561 0.3652
-0.6637 1.7038 0.3652
-0.8131 1.6380 0.3652
-0.9561 1.5592 0.3653
-5.5561 7.4721 1.8596
-6.2003 6.9468 1.8596
-6.2401 5.8461 1.7077
-6.7383 5.2677 1.7081
-7.1863 4.6490 1.7093
-7.5769 3.9920 1.7104
-7.9068 3.3021 1.7113
-8.1731 2.5848 1.7120
-8.3737 1.8462 1.7125
-8.5052 1.0920 1.7125
-8.5687 0.3292 1.7125
-8.5639 -0.4363 1.7125
-8.4909 -1.1984 1.7125
-8.3498 -1.9507 1.7125
-8.1399 -2.6867 1.7119
-7.8645 -3.4005 1.7112
-7.5259 -4.0861 1.7103
-7.1271 -4.7381 1.7092
-6.6711 -5.3509 1.7079
-6.3629 -6.1124 1.7621
-6.1130 -7.0238 1.8596
-1.0775 -1.4876 0.3668
-0.9407 -1.5780 0.3669
-0.7963 -1.6557 0.3669
-0.6455 -1.7203 0.3670
-0.4895 -1.7711 0.3670
-0.3296 -1.8078 0.3670
-0.1671 -1.8300 0.3670
-0.0032 -1.8376 0.3670
0.1607 -1.8306 0.3670
0.3233 -1.8089 0.3670
0.4833 -1.7727 0.3670
0.6394 -1.7224 0.3669
0.7904 -1.6584 0.3669
0.9350 -1.5811 0.3668
1.0721 -1.4912 0.3668
5.6677 -6.5587 1.7312
6.2866 -6.0818 1.7469
6.8406 -5.5265 1.7563
7.3052 -4.8937 1.7560
7.7265 -4.2304 1.7592
8.0849 -3.5296 1.7618
8.3767 -2.7976 1.7638
8.5991 -2.0409 1.7651
4.6182 -0.6684 0.9319
4.4837 -0.2443 0.8968
4.9129 0.1714 0.9818
8.7626 1.0938 1.7636
8.6203 1.8688 1.7616
8.4066 2.6262 1.7589
8.1239 3.3592 1.7557
7.7750 4.0614 1.7519
7.3634 4.7269 1.7475
6.8934 5.3499 1.7427
6.3694 5.9253 1.7374
5.8025 6.4553 1.7335
1.0965 1.4638 0.3653
0.9615 1.5556 0.3652
0.8188 1.6350 0.3652
0.6697 1.7013 0.3652
0.5152 1.7542 0.3651
0.3567 1.7930 0.3651
0.1954 1.8177 0.3651
0.0325 1.8279 0.3651
-0.1306 1.8235 0.3651
-0.2928 1.8047 0.3651
-0.4526 1.7715 0.3651
-0.6088 1.7242 0.3652
-0.7602 1.6632 0.3652
-0.9056 1.5889 0.3653
-1.0438 1.5020 0.3653
-5.9745 7.1419 1.8596
-6.2197 6.2130 1.7557
-6.5642 5.4794 1.7077
-7.0319 4.8757 1.7089
-7.4435 4.2318 1.7100
-7.7955 3.5531 1.7110
-8.0850 2.8450 1.7117
-8.3094 2.1133 1.7123
-8.4658 1.3640 1.7125
-8.5538 0.6036 1.7125
-8.5735 -0.1617 1.7125
-8.5249 -0.9257 1.7125
-8.4084 -1.6822 1.7125
-8.2228 -2.4248 1.7121
-7.9707 -3.1473 1.7115
-7.6545 -3.8437 1.7106
-7.2769 -4.5084 1.7096
-6.8411 -5.1359 1.7084
-6.3513 -5.7214 1.7072
-6.3349 -6.8243 1.8596
-5.7012 -7.3623 1.8596
-0.9907 -1.5470 0.3669
-0.8489 -1.6293 0.3669
-0.7003 -1.6987 0.3669
-0.5460 -1.7545 0.3670
-0.3874 -1.7963 0.3670
-0.2257 -1.8237 0.3670
-0.0621 -1.8366 0.3670
0.1019 -1.8348 0.3670
0.2651 -1.8183 0.3670
0.4262 -1.7873 0.3670
0.5839 -1.7421 0.3669
0.7369 -1.6829 0.3669
0.8839 -1.6103 0.3669
1.0239 -1.5249 0.3668
5.4419 -6.7212 1.7271
6.0734 -6.2645 1.7425
6.6487 -5.7331 1.7533
7.1438 -5.1247 1.7559
7.5824 -4.4731 1.7582
7.9637 -3.7850 1.7610
8.2798 -3.0635 1.7631
8.5274 -2.3149 1.7647
4.7271 -0.8396 0.9588
4.5126 -0.3912 0.9046
4.7340 0.0134 0.9454
8.7960 0.8127 1.7642
8.6797 1.5923 1.7624
8.4914 2.3568 1.7599
8.2331 3.0993 1.7569
7.9076 3.8134 1.7533
7.5180 4.4927 1.7491
7.0685 5.1315 1.7444
6.5633 5.7246 1.7393
6.0092 6.2690 1.7343
7.0266 4.7170 1.7445
6.5598 5.3103 1.7397
6.0441 5.8586 1.7351
5.4740 6.3470 1.7276
1.0331 1.4398 0.3653
0.9005 1.5261 0.3652
0.7607 1.6001 0.3652
0.6149 1.6615 0.3652
0.4643 1.7096 0.3652
0.3099 1.7441 0.3651
0.1531 1.7648 0.3651
-0.0049 1.7714 0.3651
-0.1628 1.7639 0.3651
-0.3195 1.7425 0.3652
-0.4737 1.7071 0.3652
-0.6241 1.6582 0.3652
-0.7695 1.5961 0.3652
-0.9089 1.5213 0.3653
-1.0411 1.4344 0.3653
-5.9294 6.7994 1.8596
-6.2158 5.9594 1.7750
-6.4666 5.1764 1.7074
-6.9073 4.5823 1.7086
-7.2928 3.9504 1.7096
-7.6199 3.2859 1.7105
-7.8859 2.5943 1.7112
-8.0884 1.8813 1.7117
-8.2258 1.1527 1.7121
-8.2967 0.4146 1.7123
-8.3007 -0.3270 1.7123
-8.2376 -1.0659 1.7122
-8.1081 -1.7960 1.7118
-7.9133 -2.5111 1.7113
-7.6547 -3.2056 1.7106
-7.3347 -3.8736 1.7098
-6.9559 -4.5096 1.7088
-6.5215 -5.1085 1.7076
-6.3103 -5.9235 1.7840
-6.0008 -6.7365 1.8596
-1.0605 -1.4291 0.3668
-0.9289 -1.5181 0.3669
-0.7899 -1.5951 0.3669
-0.6445 -1.6593 0.3669
-0.4940 -1.7103 0.3669
-0.3395 -1.7476 0.3670
-0.1823 -1.7710 0.3670
-0.0237 -1.7802 0.3670
0.1352 -1.7752 0.3670
0.2930 -1.7560 0.3670
0.4484 -1.7227 0.3669
0.6002 -1.6757 0.3669
0.7472 -1.6154 0.3669
0.8882 -1.5421 0.3668
1.0220 -1.4566 0.3668
5.3891 -6.3835 1.7220
6.0010 -5.9408 1.7406
6.5477 -5.4158 1.7515
7.0198 -4.8207 1.7553
7.4267 -4.1782 1.7565
7.7811 -3.5043 1.7590
8.0716 -2.7995 1.7610
8.2954 -2.0701 1.7623
4.6489 -0.7276 0.9699
4.5898 -0.3031 0.9481
4.8665 0.1137 1.0034
8.4904 0.9605 1.7613
8.3620 1.7121 1.7594
8.1644 2.4476 1.7569
7.8998 3.1604 1.7538
7.5708 3.8444 1.7502
7.1807 4.4936 1.7461
6.7335 5.1025 1.7414
6.2334 5.6662 1.7364
5.6881 6.1831 1.7318
1.0787 1.4061 0.3653
0.9489 1.4965 0.3653
0.8116 1.5750 0.3652
0.6678 1.6409 0.3652
0.5188 1.6939 0.3652
0.3657 1.7333 0.3651
0.2096 1.7590 0.3651
0.0519 1.7706 0.3651
-0.1062 1.7682 0.3651
-0.2635 1.7518 0.3652
-0.4187 1.7214 0.3652
-0.5706 1.6773 0.3652
-0.7180 1.6199 0.3652
-0.8597 1.5496 0.3653
-0.9946 1.4669 0.3653
-5.7085 6.9859 1.8596
-6.2063 6.3442 1.8294
-6.2967 5.3804 1.7072
-6.7553 4.8001 1.7082
-7.1610 4.1812 1.7093
-7.5095 3.5278 1.7102
-7.7977 2.8453 1.7110
-8.0232 2.1393 1.7116
-8.1841 1.4156 1.7120
-8.2789 0.6802 1.7123
-8.3070 -0.0609 1.7123
-8.2680 -0.8014 1.7122
-8.1622 -1.5354 1.7120
-7.9906 -2.2566 1.7115
-7.7547 -2.9591 1.7109
-7.4564 -3.6372 1.7101
-7.0984 -4.2854 1.7091
-6.6836 -4.8982 1.7080
-6.2519 -5.5027 1.7168
-6.2136 -6.5408 1.8596
-5.6056 -7.0690 1.8596
-0.9770 -1.4875 0.3668
-0.8406 -1.5689 0.3669
-0.6973 -1.6378 0.3669
-0.5485 -1.6935 0.3669
-0.3953 -1.7358 0.3670
-0.2390 -1.7642 0.3670
-0.0807 -1.7785 0.3670
0.0783 -1.7786 0.3670
0.2366 -1.7645 0.3670
0.3930 -1.7362 0.3669
0.5462 -1.6942 0.3669
0.6950 -1.6386 0.3669
0.8383 -1.5699 0.3668
0.9749 -1.4887 0.3668
5.1756 -6.5450 1.7199
5.7875 -6.1090 1.7346
6.3586 -5.6120 1.7481
6.8635 -5.0444 1.7558
7.2846 -4.4113 1.7554
7.6611 -3.7500 1.7582
7.9749 -3.0556 1.7604
8.2229 -2.3343 1.7619
4.8325 -0.9159 1.0138
4.5657 -0.4489 0.9457
4.6911 -0.0408 0.9670
8.5193 0.6882 1.7618
8.4161 1.4439 1.7601
8.2432 2.1859 1.7579
8.0023 2.9076 1.7550
7.6961 3.6026 1.7516
7.3275 4.2650 1.7476
6.9003 4.8890 1.7432
6.4186 5.4694 1.7382
5.8936 6.0082 1.7348
5.2978 6.4653 1.7229
0.9964 1.4654 0.3653
0.8617 1.5482 0.3652
0.7201 1.6188 0.3652
0.5728 1.6764 0.3652
0.4210 1.7207 0.3651
0.2659 1.7514 0.3651
0.1086 1.7681 0.3651
-0.0495 1.7707 0.3651
-0.2072 1.7593 0.3651
-0.3633 1.7339 0.3652
-0.5165 1.6947 0.3652
-0.6657 1.6420 0.3652
-0.8095 1.5763 0.3653
-0.9470 1.4980 0.3653
-5.4817 7.1653 1.8596
-6.0989 6.6478 1.8596
-6.2227 5.6720 1.7356
-6.5964 5.0128 1.7078
-7.0218 4.4075 1.7089
-7.3912 3.7659 1.7099
-7.7013 3.0932 1.7107
-7.9496 2.3950 1.7114
-8.1339 1.6770 1.7119
-8.2525 0.9450 1.7122
-8.3046 0.2053 1.7123
-8.2897 -0.5361 1.7123
-8.2078 -1.2731 1.7121
-8.0597 -1.9996 1.7117
-7.8467 -2.7095 1.7111
-7.5705 -3.3970 1.7104
-7.2336 -4.0565 1.7095
-6.8388 -4.6826 1.7084
-6.3893 -5.2701 1.7072
-6.4116 -6.3301 1.8572
-5.8291 -6.8857 1.8596
-1.0241 -1.4554 0.3668
-0.8904 -1.5411 0.3669
-0.7494 -1.6145 0.3669
-0.6025 -1.6751 0.3669
-0.4508 -1.7222 0.3670
-0.2954 -1.7556 0.3670
-0.1376 -1.7750 0.3670
0.0212 -1.7802 0.3670
0.1799 -1.7712 0.3670
0.3371 -1.7480 0.3669
0.4916 -1.7108 0.3669
0.6422 -1.6600 0.3669
0.7876 -1.5960 0.3669
0.9267 -1.5192 0.3668
1.0584 -1.4303 0.3668
5.5691 -6.2691 1.7285
6.1623 -5.8004 1.7444
6.6906 -5.2557 1.7537
7.1375 -4.6412 1.7549
7.5330 -3.9915 1.7573
7.8697 -3.3083 1.7597
8.1417 -2.5959 1.7614
8.3462 -1.8607 1.7626
4.6116 -0.6031 0.9587
4.6232 -0.1885 0.9538
8.5391 0.4150 1.7622
8.4612 1.1739 1.7608
8.3131 1.9216 1.7587
8.0964 2.6514 1.7561
7.8133 3.3567 1.7529
7.4667 4.0314 1.7491
7.0601 4.6698 1.7448
6.5975 5.2664 1.7401
6.0843 5.8174 1.7351
5.5202 6.3127 1.7286
1.0429 1.4327 0.3653
0.9109 1.5199 0.3652
0.7716 1.5949 0.3652
0.6263 1.6572 0.3652
0.4759 1.7064 0.3652
0.3219 1.7420 0.3651
0.1652 1.7637 0.3651
0.0073 1.7714 0.3651
-0.1507 1.7650 0.3651
-0.3076 1.7446 0.3652
-0.4620 1.7103 0.3652
-0.6127 1.6624 0.3652
-0.7586 1.6013 0.3652
-0.8985 1.5275 0.3653
-1.0313 1.4414 0.3653
-5.8828 6.8398 1.8596
-6.2138 6.0396 1.7862
-6.4307 5.2203 1.7073
-6.8754 4.6292 1.7085
-7.2653 4.0000 1.7095
-7.5970 3.3378 1.7104
-7.8678 2.6481 1.7112
-8.0752 1.9365 1.7117
-8.2176 1.2089 1.7121
-8.2936 0.4713 1.7123
-8.3028 -0.2702 1.7123
-8.2448 -1.0095 1.7122
-8.1204 -1.7405 1.7118
-7.9305 -2.4570 1.7113
-7.6767 -3.1532 1.7107
-7.3613 -3.8235 1.7098
-6.9869 -4.4621 1.7088
-6.5567 -5.0640 1.7077
-6.2915 -5.8254 1.7674
-6.0468 -6.6953 1.8596
-1.0702 -1.4218 0.3668
-0.9393 -1.5117 0.3669
-0.8008 -1.5896 0.3669
-0.6559 -1.6549 0.3669
-0.5057 -1.7069 0.3669
-0.3515 -1.7452 0.3670
-0.1944 -1.7697 0.3670
-0.0358 -1.7800 0.3670
0.1231 -1.7760 0.3670
0.2809 -1.7579 0.3670
0.4366 -1.7258 0.3669
0.5887 -1.6798 0.3669
0.7361 -1.6205 0.3669
0.8776 -1.5482 0.3668
1.0120 -1.4636 0.3668
5.3405 -6.4145 1.7205
5.9558 -5.9774 1.7393
6.5082 -5.4585 1.7509
6.9870 -4.8688 1.7554
7.3970 -4.2284 1.7562
7.7562 -3.5571 1.7589
8.0517 -2.8545 1.7609
8.2807 -2.1267 1.7623
4.6593 -0.7619 0.9732
4.5808 -0.3340 0.9467
4.8279 0.0797 0.9953
8.4973 0.9025 1.7614
8.3743 1.6550 1.7595
8.1819 2.3919 1.7571
7.9224 3.1067 1.7541
7.5982 3.7932 1.7505
7.2127 4.4452 1.7464
6.7697 5.0574 1.7418
6.2735 5.6248 1.7368
5.7327 6.1466 1.7325
1.0883 1.3987 0.3653
0.9591 1.4900 0.3653
0.8224 1.5694 0.3652
0.6791 1.6364 0.3652
0.5304 1.6903 0.3652
0.3775 1.7308 0.3651
0.2216 1.7575 0.3651
0.0640 1.7702 0.3651
-0.0941 1.7689 0.3651
-0.2515 1.7535 0.3651
-0.4069 1.7242 0.3652
-0.5591 1.6812 0.3652
-0.7069 1.6248 0.3652
-0.8490 1.5554 0.3653
-0.9845 1.4737 0.3653
-5.6606 7.0248 1.8596
-6.2041 6.4294 1.8417
-6.2597 5.4233 1.7072
-6.7219 4.8459 1.7081
-7.1319 4.2299 1.7092
-7.4849 3.5789 1.7101
-7.7778 2.8985 1.7109
-8.0082 2.1941 1.7115
-8.1741 1.4715 1.7120
-8.2740 0.7368 1.7122
-8.3072 -0.0041 1.7123
-8.2733 -0.7449 1.7122
-8.1726 -1.4795 1.7120
-8.0061 -2.2019 1.7115
-7.7750 -2.9061 1.7109
-7.4814 -3.5863 1.7101
-7.1279 -4.2369 1.7092
-6.7173 -4.8526 1.7081
-6.2544 -5.4295 1.7072
-6.2582 -6.4981 1.8596
-5.6538 -7.0305 1.8596
-0.9872 -1.4808 0.3668
-0.8513 -1.5631 0.3669
-0.7085 -1.6330 0.3669
-0.5601 -1.6898 0.3669
-0.4072 -1.7331 0.3670
-0.2510 -1.7625 0.3670
-0.0928 -1.7779 0.3670
0.0661 -1.7791 0.3670
0.2245 -1.7661 0.3670
0.3811 -1.7389 0.3669
0.5346 -1.6979 0.3669
0.6838 -1.6433 0.3669
0.8276 -1.5756 0.3668
0.9647 -1.4953 0.3668
5.1301 -6.5796 1.7198
5.7413 -6.1438 1.7333
6.3172 -5.6528 1.7474
6.8292 -5.0915 1.7559
7.2532 -4.4605 1.7552
7.6344 -3.8019 1.7580
7.9532 -3.1099 1.7602
8.2063 -2.3904 1.7618
4.8828 -0.9600 1.0257
4.5754 -0.4814 0.9483
4.6573 -0.0724 0.9601
8.5243 0.6299 1.7619
8.4265 1.3864 1.7603
8.2588 2.1297 1.7581
8.0231 2.8532 1.7552
7.7218 3.5505 1.7519
7.3578 4.2155 1.7479
6.9350 4.8426 1.7435
6.4574 5.4266 1.7386
5.9348 5.9680 1.7349
5.3461 6.4339 1.7243
1.0064 1.4585 0.3653
0.8723 1.5423 0.3652
0.7312 1.6138 0.3652
0.5843 1.6725 0.3652
0.4328 1.7178 0.3652
0.2778 1.7495 0.3651
0.1207 1.7673 0.3651
-0.0374 1.7710 0.3651
-0.1952 1.7607 0.3651
-0.3514 1.7363 0.3652
-0.5049 1.6982 0.3652
-0.6544 1.6465 0.3652
-0.7987 1.5818 0.3653
-0.9367 1.5044 0.3653
-1.0673 1.4151 0.3653
-6.0533 6.6895 1.8596
-6.2209 5.7487 1.7460
-6.5616 5.0576 1.7077
-6.9912 4.4552 1.7088
-7.3650 3.8162 1.7098
-7.6797 3.1457 1.7107
-7.9328 2.4493 1.7113
-8.1220 1.7325 1.7118
-8.2458 1.0015 1.7122
-8.3030 0.2621 1.7123
-8.2932 -0.4794 1.7123
-8.2164 -1.2170 1.7121
-8.0734 -1.9445 1.7117
-7.8652 -2.6558 1.7112
-7.5938 -3.3453 1.7104
-7.2615 -4.0071 1.7096
-6.8710 -4.6359 1.7085
-6.4256 -5.2265 1.7073
-6.3762 -6.2095 1.8346
-5.8761 -6.8456 1.8596
-1.0341 -1.4484 0.3668
-0.9009 -1.5350 0.3669
-0.7605 -1.6094 0.3669
-0.6140 -1.6709 0.3669
-0.4625 -1.7191 0.3670
-0.3074 -1.7536 0.3670
-0.1498 -1.7740 0.3670
0.0090 -1.7803 0.3670
0.1678 -1.7724 0.3670
0.3252 -1.7503 0.3669
0.4799 -1.7142 0.3669
0.6308 -1.6644 0.3669
0.7767 -1.6014 0.3669
0.9163 -1.5255 0.3668
1.0486 -1.4375 0.3668
5.5218 -6.3022 1.7271
6.1196 -5.8397 1.7436
6.6523 -5.2996 1.7531
7.1060 -4.6902 1.7550
7.5046 -4.0424 1.7570
7.8462 -3.3617 1.7595
8.1232 -2.6513 1.7613
8.3330 -1.9176 1.7625
4.6216 -0.6366 0.9616
4.6140 -0.2197 0.9522
5.2158 0.2177 1.0761
8.4697 1.1161 1.7609
8.3269 1.8649 1.7589
8.1154 2.5962 1.7563
7.8373 3.3036 1.7531
7.4954 3.9809 1.7494
7.0933 4.6223 1.7452
6.6348 5.2223 1.7404
6.1245 5.7761 1.7353
5.5661 6.2781 1.7295
1.0527 1.4256 0.3653
0.9213 1.5136 0.3652
0.7825 1.5896 0.3652
0.6376 1.6529 0.3652
0.4876 1.7031 0.3652
0.3338 1.7397 0.3651
0.1773 1.7625 0.3651
0.0194 1.7713 0.3651
-0.1387 1.7660 0.3651
-0.2956 1.7467 0.3652
-0.4502 1.7134 0.3652
-0.6013 1.6666 0.3652
-0.7476 1.6065 0.3652
-0.8880 1.5336 0.3653
-1.0214 1.4484 0.3653
-5.8358 6.8799 1.8596
-6.2118 6.1209 1.7976
-6.3945 5.2638 1.7072
-6.8432 4.6759 1.7084
-7.2374 4.0494 1.7095
-7.5737 3.3896 1.7104
-7.8492 2.7018 1.7111
-8.0616 1.9917 1.7117
-8.2090 1.2651 1.7121
-8.2902 0.5280 1.7123
-8.3044 -0.2134 1.7123
-8.2516 -0.9531 1.7122
-8.1323 -1.6849 1.7119
-7.9473 -2.4028 1.7114
-7.6984 -3.1008 1.7107
-7.3876 -3.7732 1.7099
-7.0176 -4.4144 1.7089
-6.5916 -5.0193 1.7078
-6.2764 -5.7322 1.7521
-6.0924 -6.6538 1.8596
-1.0799 -1.4144 0.3668
-0.9496 -1.5053 0.3669
-0.8116 -1.5841 0.3669
-0.6672 -1.6503 0.3669
-0.5174 -1.7034 0.3669
-0.3634 -1.7428 0.3670
-0.2065 -1.7683 0.3670
-0.0480 -1.7797 0.3670
0.1109 -1.7768 0.3670
0.2689 -1.7598 0.3670
0.4248 -1.7287 0.3669
0.5772 -1.6838 0.3669
0.7250 -1.6255 0.3669
0.8670 -1.5542 0.3668
1.0020 -1.4705 0.3668
5.2963 -6.4505 1.7204
5.9105 -6.0136 1.7380
6.4683 -5.5009 1.7502
6.9540 -4.9168 1.7555
7.3670 -4.2783 1.7560
7.7309 -3.6097 1.7587
8.0314 -2.9093 1.7607
8.2656 -2.1832 1.7622
4.7033 -0.8022 0.9835
4.5719 -0.3648 0.9454
4.7900 0.0463 0.9874
8.5038 0.8444 1.7615
8.3862 1.5978 1.7597
8.1991 2.3362 1.7573
7.9446 3.0529 1.7543
7.6252 3.7417 1.7508
7.2443 4.3966 1.7467
6.8055 5.0121 1.7422
6.3133 5.5830 1.7372
5.7771 6.1099 1.7332
1.0979 1.3912 0.3653
0.9693 1.4834 0.3653
0.8331 1.5638 0.3652
0.6902 1.6317 0.3652
0.5419 1.6866 0.3652
0.3893 1.7282 0.3651
0.2337 1.7559 0.3651
0.0761 1.7698 0.3651
-0.0820 1.7695 0.3651
-0.2395 1.7552 0.3651
-0.3951 1.7269 0.3652
-0.5476 1.6849 0.3652
-0.6957 1.6295 0.3652
-0.8384 1.5612 0.3653
-0.9744 1.4804 0.3653
-5.6124 7.0634 1.8596
-6.2019 6.5158 1.8542
-6.2363 5.4780 1.7110
-6.6883 4.8916 1.7080
-7.1025 4.2784 1.7091
-7.4599 3.6299 1.7101
-7.7575 2.9515 1.7109
-7.9928 2.2487 1.7115
-8.1637 1.5274 1.7119
-8.2687 0.7933 1.7122
-8.3070 0.0528 1.7123
-8.2783 -0.6883 1.7123
-8.1827 -1.4236 1.7120
-8.0211 -2.1471 1.7116
-7.7950 -2.8529 1.7110
-7.5061 -3.5352 1.7102
-7.1570 -4.1882 1.7093
-6.7507 -4.8068 1.7082
-6.2914 -5.3865 1.7072
-6.3025 -6.4552 1.8596
-5.7017 -6.9916 1.8596
-0.9973 -1.4740 0.3668
-0.8619 -1.5572 0.3669
-0.7197 -1.6281 0.3669
-0.5717 -1.6859 0.3669
-0.4190 -1.7302 0.3670
-0.2631 -1.7608 0.3670
-0.1050 -1.7772 0.3670
0.0539 -1.7795 0.3670
0.2124 -1.7676 0.3670
0.3692 -1.7415 0.3669
0.5230 -1.7015 0.3669
0.6726 -1.6479 0.3669
0.8168 -1.5812 0.3668
0.9544 -1.5019 0.3668
1.0844 -1.4106 0.3668
5.6949 -6.1783 1.7320
6.2755 -5.6933 1.7466
6.7922 -5.1366 1.7553
7.2216 -4.5093 1.7549
7.6074 -3.8536 1.7578
7.9310 -3.1639 1.7601
8.1893 -2.4463 1.7617
8.3797 -1.7072 1.7628
4.5851 -0.5142 0.9510
4.6479 -0.1040 0.9583
8.5289 0.5716 1.7620
8.4364 1.3288 1.7604
8.2741 2.0734 1.7582
8.0435 2.7986 1.7555
7.7471 3.4981 1.7521
7.3879 4.1658 1.7483
6.9694 4.7961 1.7439
6.4958 5.3835 1.7390
5.9758 5.9275 1.7350
5.3941 6.4022 1.7256
1.0164 1.4516 0.3653
0.8828 1.5363 0.3652
0.7422 1.6088 0.3652
0.5957 1.6684 0.3652
0.4445 1.7148 0.3652
0.2898 1.7476 0.3651
0.1328 1.7664 0.3651
-0.0253 1.7712 0.3651
-0.1831 1.7620 0.3651
-0.3396 1.7387 0.3652
-0.4933 1.7016 0.3652
-0.6431 1.6509 0.3652
-0.7879 1.5872 0.3652
-0.9264 1.5107 0.3653
-1.0576 1.4223 0.3653
-6.0074 6.7307 1.8596
-6.2190 5.8264 1.7566
-6.5265 5.1021 1.7076
-6.9602 4.5027 1.7087
-7.3384 3.8663 1.7097
-7.6578 3.1981 1.7106
-7.9157 2.5034 1.7113
-8.1098 1.7880 1.7118
-8.2387 1.0578 1.7121
-8.3010 0.3189 1.7123
-8.2963 -0.4227 1.7123
-8.2247 -1.1608 1.7121
-8.0866 -1.8892 1.7118
-7.8834 -2.6021 1.7112
-7.6168 -3.2934 1.7105
-7.2890 -3.9575 1.7096
-6.9029 -4.5891 1.7086
-6.4616 -5.1828 1.7074
-6.3492 -6.0992 1.8148
-5.9228 -6.8053 1.8596
-1.0439 -1.4412 0.3668
-0.9114 -1.5288 0.3669
-0.7715 -1.6041 0.3669
-0.6254 -1.6666 0.3669
-0.4743 -1.7159 0.3670
-0.3194 -1.7514 0.3670
-0.1619 -1.7729 0.3670
-0.0031 -1.7803 0.3670
0.1557 -1.7735 0.3670
0.3132 -1.7524 0.3669
0.4682 -1.7174 0.3669
0.6194 -1.6687 0.3669
0.7657 -1.6067 0.3669
0.9059 -1.5318 0.3668
1.0387 -1.4447 0.3668
5.4731 -6.3335 1.7254
6.0764 -5.8784 1.7427
6.6136 -5.3431 1.7525
7.0742 -4.7390 1.7551
7.4759 -4.0932 1.7568
7.8222 -3.4150 1.7593
8.1043 -2.7066 1.7612
8.3193 -1.9745 1.7625
4.6317 -0.6703 0.9647
4.6050 -0.2509 0.9506
4.9725 0.1735 1.0256
8.4777 1.0582 1.7610
8.3403 1.8081 1.7591
8.1340 2.5410 1.7565
7.8609 3.2504 1.7534
7.5238 3.9302 1.7497
7.1261 4.5746 1.7455
6.6718 5.1779 1.7408
6.1653 5.7354 1.7357
5.6118 6.2431 1.7303
1.0624 1.4184 0.3653
0.9316 1.5073 0.3652
0.7934 1.5842 0.3652
0.6489 1.6485 0.3652
0.4993 1.6997 0.3652
0.3457 1.7374 0.3651
0.1893 1.7613 0.3651
0.0315 1.7711 0.3651
-0.1266 1.7669 0.3651
-0.2837 1.7486 0.3652
-0.4385 1.7165 0.3652
-0.5899 1.6706 0.3652
-0.7366 1.6115 0.3652
-0.8775 1.5396 0.3653
-1.0114 1.4554 0.3653
-5.7886 6.9197 1.8596
-6.2098 6.2031 1.8092
-6.3583 5.3074 1.7072
-6.8108 4.7223 1.7083
-7.2093 4.0987 1.7094
-7.5501 3.4412 1.7103
-7.8303 2.7554 1.7111
-8.0476 2.0467 1.7116
-8.2000 1.3212 1.7120
-8.2863 0.5847 1.7123
-8.3057 -0.1566 1.7123
-8.2580 -0.8967 1.7122
-8.1437 -1.6293 1.7119
-7.9638 -2.3484 1.7114
-7.7197 -3.0481 1.7108
-7.4135 -3.7227 1.7100
-7.0480 -4.3665 1.7090
-6.6261 -4.9744 1.7079
-6.2636 -5.6424 1.7377
-6.1378 -6.6120 1.8596
-1.0895 -1.4070 0.3668
-0.9598 -1.4987 0.3669
-0.8224 -1.5785 0.3669
-0.6784 -1.6457 0.3669
-0.5290 -1.6998 0.3669
-0.3753 -1.7403 0.3670
-0.2186 -1.7668 0.3670
-0.0602 -1.7793 0.3670
0.0987 -1.7776 0.3670
0.2569 -1.7616 0.3670
0.4129 -1.7316 0.3669
0.5657 -1.6877 0.3669
0.7139 -1.6304 0.3669
0.8563 -1.5601 0.3668
0.9919 -1.4773 0.3668
5.2515 -6.4860 1.7202
5.8649 -6.0494 1.7368
6.4277 -5.5425 1.7495
6.9205 -4.9645 1.7556
7.3366 -4.3281 1.7558
7.7052 -3.6621 1.7585
8.0107 -2.9639 1.7606
8.2500 -2.2396 1.7621
4.7505 -0.8437 0.9945
4.5630 -0.3955 0.9441
4.7526 0.0134 0.9797
8.5099 0.7863 1.7616
8.3976 1.5406 1.7599
8.2158 2.2803 1.7575
7.9664 2.9989 1.7546
7.6519 3.6901 1.7511
7.2756 4.3478 1.7471
6.8411 4.9664 1.7425
6.3528 5.5409 1.7376
5.8212 6.0728 1.7340
6.8068 4.5695 1.7426
6.3552 5.1446 1.7380
5.8604 5.6805 1.7348
5.2934 6.1376 1.7228
1.0019 1.3964 0.3653
0.8733 1.4800 0.3653
0.7377 1.5518 0.3652
0.5964 1.6113 0.3652
0.4502 1.6580 0.3652
0.3006 1.6915 0.3652
0.1485 1.7115 0.3652
-0.0047 1.7179 0.3652
-0.1579 1.7107 0.3652
-0.3099 1.6899 0.3652
-0.4594 1.6556 0.3652
-0.6052 1.6082 0.3652
-0.7463 1.5479 0.3653
-0.8815 1.4754 0.3653
-1.0097 1.3911 0.3654
-5.7501 6.5938 1.8596
-6.2061 5.9500 1.8275
-6.2703 5.0193 1.7072
-6.6961 4.4422 1.7080
-7.0697 3.8295 1.7090
-7.3868 3.1854 1.7099
-7.6445 2.5149 1.7106
-7.8407 1.8237 1.7111
-7.9738 1.1174 1.7114
-8.0425 0.4019 1.7116
-8.0464 -0.3170 1.7116
-7.9853 -1.0333 1.7115
-7.8598 -1.7410 1.7112
-7.6710 -2.4343 1.7106
-7.4204 -3.1075 1.7100
-7.1103 -3.7551 1.7092
-6.7432 -4.3717 1.7082
-6.3229 -4.9529 1.7072
-6.2978 -5.9118 1.8360
-5.8193 -6.5328 1.8596
-1.0283 -1.3858 0.3668
-0.9007 -1.4721 0.3668
-0.7659 -1.5467 0.3669
-0.6250 -1.6090 0.3669
-0.4790 -1.6584 0.3669
-0.3292 -1.6946 0.3669
-0.1768 -1.7173 0.3669
-0.0229 -1.7262 0.3669
0.1311 -1.7213 0.3669
0.2841 -1.7027 0.3669
0.4348 -1.6705 0.3669
0.5820 -1.6249 0.3669
0.7245 -1.5664 0.3668
0.8612 -1.4954 0.3668
0.9910 -1.4125 0.3668
5.2039 -6.1641 1.7147
5.8008 -5.7427 1.7350
6.3355 -5.2402 1.7476
6.8065 -4.6742 1.7551
7.1928 -4.0466 1.7542
7.5357 -3.3938 1.7567
7.8168 -2.7112 1.7586
8.0334 -2.0047 1.7599
4.6627 -0.7298 1.0031
4.6023 -0.3040 0.9804
4.8863 0.1141 1.0389
8.2223 0.9302 1.7589
8.0982 1.6581 1.7570
7.9073 2.3705 1.7546
7.6514 3.0610 1.7517
7.3332 3.7238 1.7482
6.9559 4.3529 1.7442
6.5232 4.9432 1.7397
6.0427 5.4929 1.7358
5.5051 5.9842 1.7284
1.0462 1.3636 0.3653
0.9203 1.4513 0.3653
0.7871 1.5274 0.3652
0.6477 1.5914 0.3652
0.5032 1.6427 0.3652
0.3546 1.6810 0.3652
0.2033 1.7059 0.3652
0.0503 1.7172 0.3652
-0.1030 1.7149 0.3652
-0.2555 1.6989 0.3652
-0.4061 1.6694 0.3652
-0.5534 1.6267 0.3652
-0.6963 1.5710 0.3653
-0.8337 1.5028 0.3653
-0.9645 1.4226 0.3653
-5.5358 6.7746 1.8596
-6.1180 6.2540 1.8596
-6.2215 5.3161 1.7394
-6.5488 4.6534 1.7076
-6.9420 4.0533 1.7087
-7.2797 3.4198 1.7096
-7.5590 2.7582 1.7103
-7.7775 2.0738 1.7109
-7.9334 1.3722 1.7113
-8.0253 0.6593 1.7116
-8.0525 -0.0590 1.7117
-8.0147 -0.7769 1.7116
-7.9122 -1.4883 1.7113
-7.7460 -2.1875 1.7108
-7.5173 -2.8685 1.7102
-7.2283 -3.5260 1.7095
-6.8813 -4.1543 1.7085
-6.4794 -4.7485 1.7075
-6.2364 -5.4891 1.7659
-6.0256 -6.3429 1.8596
-1.0721 -1.3521 0.3668
-0.9474 -1.4424 0.3668
-0.8151 -1.5213 0.3669
-0.6762 -1.5881 0.3669
-0.5319 -1.6422 0.3669
-0.3834 -1.6832 0.3669
-0.2317 -1.7107 0.3669
-0.0782 -1.7246 0.3669
0.0759 -1.7247 0.3669
0.2294 -1.7110 0.3669
0.3810 -1.6836 0.3669
0.5296 -1.6428 0.3669
0.6740 -1.5889 0.3669
0.8129 -1.5223 0.3668
0.9453 -1.4436 0.3668
1.0701 -1.3533 0.3667
5.5952 -5.9059 1.7292
6.1519 -5.4296 1.7441
6.6447 -4.8836 1.7528
7.0595 -4.2751 1.7542
7.4196 -3.6318 1.7559
7.7233 -2.9592 1.7580
7.9632 -2.2606 1.7595
4.8571 -0.9205 1.0508
4.5789 -0.4502 0.9780
4.7095 -0.0409 1.0011
8.2502 0.6665 1.7594
8.1505 1.3983 1.7578
7.9834 2.1170 1.7556
7.7505 2.8161 1.7528
7.4544 3.4895 1.7495
7.0979 4.1313 1.7457
6.6846 4.7362 1.7413
6.2186 5.2990 1.7366
5.7069 5.8179 1.7323
1.0894 1.3294 0.3653
0.9664 1.4211 0.3653
0.8357 1.5015 0.3653
0.6984 1.5699 0.3652
0.5555 1.6258 0.3652
0.4083 1.6688 0.3652
0.2578 1.6985 0.3652
0.1053 1.7147 0.3652
-0.0480 1.7173 0.3652
-0.2010 1.7062 0.3652
-0.3524 1.6816 0.3652
-0.5009 1.6435 0.3652
-0.6456 1.5925 0.3652
-0.7851 1.5287 0.3653
-0.9184 1.4527 0.3653
-1.0445 1.3652 0.3654
-5.9144 6.4467 1.8596
-6.2132 5.6633 1.7869
-6.3948 4.8597 1.7072
-6.8071 4.2727 1.7083
-7.1651 3.6507 1.7093
-7.4656 2.9985 1.7101
-7.7062 2.3217 1.7107
-7.8847 1.6256 1.7112
-7.9998 0.9161 1.7115
-8.0502 0.1990 1.7117
-8.0357 -0.5197 1.7116
-7.9564 -1.2341 1.7114
-7.8129 -1.9384 1.7110
-7.6064 -2.6266 1.7105
-7.3388 -3.2931 1.7098
-7.0123 -3.9325 1.7089
-6.6297 -4.5395 1.7079
-6.2221 -5.1322 1.7144
-6.2258 -6.1466 1.8596
-5.6528 -6.6774 1.8596
-0.9931 -1.4113 0.3668
-0.8634 -1.4944 0.3668
-0.7267 -1.5656 0.3669
-0.5842 -1.6243 0.3669
-0.4371 -1.6700 0.3669
-0.2864 -1.7024 0.3669
-0.1335 -1.7212 0.3669
0.0206 -1.7262 0.3669
0.1744 -1.7175 0.3669
0.3269 -1.6950 0.3669
0.4767 -1.6590 0.3669
0.6227 -1.6097 0.3669
0.7637 -1.5476 0.3668
0.8986 -1.4732 0.3668
1.0263 -1.3870 0.3667
5.3798 -6.0560 1.7218
5.9589 -5.6090 1.7395
6.4751 -5.0864 1.7502
6.9208 -4.5002 1.7547
7.2957 -3.8657 1.7550
7.6215 -3.2039 1.7573
7.8846 -2.5139 1.7590
8.0825 -1.8019 1.7602
4.6251 -0.6049 0.9915
4.6359 -0.1890 0.9862
8.2694 0.4019 1.7598
8.1942 1.1369 1.7584
8.0510 1.8610 1.7564
7.8415 2.5679 1.7539
7.5678 3.2512 1.7507
7.2326 3.9050 1.7471
6.8392 4.5237 1.7429
6.3916 5.1021 1.7383
5.9014 5.6425 1.7355
5.3392 6.1058 1.7240
1.0114 1.3895 0.3653
0.8834 1.4740 0.3653
0.7483 1.5468 0.3652
0.6074 1.6072 0.3652
0.4616 1.6549 0.3652
0.3121 1.6894 0.3652
0.1602 1.7105 0.3652
0.0070 1.7179 0.3652
-0.1462 1.7118 0.3652
-0.2983 1.6920 0.3652
-0.4480 1.6587 0.3652
-0.5942 1.6123 0.3652
-0.7357 1.5530 0.3653
-0.8714 1.4814 0.3653
-1.0001 1.3979 0.3654
-5.7048 6.6329 1.8596
-6.2041 6.0301 1.8390
-6.2387 5.0643 1.7080
-6.6653 4.4877 1.7079
-7.0431 3.8777 1.7090
-7.3646 3.2357 1.7098
-7.6269 2.5671 1.7105
-7.8279 1.8773 1.7111
-7.9659 1.1719 1.7114
-8.0396 0.4569 1.7116
-8.0484 -0.2620 1.7116
-7.9923 -0.9786 1.7115
-7.8717 -1.6872 1.7112
-7.6877 -2.3818 1.7107
-7.4418 -3.0567 1.7100
-7.1361 -3.7065 1.7092
-6.7733 -4.3257 1.7083
-6.3566 -4.9095 1.7072
-6.2791 -5.8140 1.8189
-5.8638 -6.4928 1.8596
-1.0378 -1.3787 0.3668
-0.9108 -1.4659 0.3668
-0.7765 -1.5415 0.3669
-0.6360 -1.6047 0.3669
-0.4904 -1.6551 0.3669
-0.3408 -1.6923 0.3669
-0.1885 -1.7160 0.3669
-0.0347 -1.7260 0.3669
0.1193 -1.7222 0.3669
0.2724 -1.7046 0.3669
0.4233 -1.6734 0.3669
0.5709 -1.6289 0.3669
0.7138 -1.5714 0.3668
0.8510 -1.5013 0.3668
0.9814 -1.4192 0.3668
5.1610 -6.1988 1.7145
5.7574 -5.7782 1.7338
6.2968 -5.2812 1.7469
6.7734 -4.7200 1.7548
7.1641 -4.0952 1.7540
7.5116 -3.4450 1.7565
7.7976 -2.7644 1.7585
8.0191 -2.0595 1.7598
4.6799 -0.7653 1.0080
4.5933 -0.3349 0.9789
4.8474 0.0801 1.0305
8.2290 0.8740 1.7590
8.1101 1.6028 1.7572
7.9242 2.3166 1.7548
7.6732 3.0091 1.7519
7.3597 3.6741 1.7485
6.9868 4.3060 1.7445
6.5582 4.8995 1.7400
6.0804 5.4516 1.7358
5.5487 5.9493 1.7292
1.0555 1.3564 0.3653
0.9302 1.4450 0.3653
0.7975 1.5220 0.3652
0.6586 1.5870 0.3652
0.5144 1.6393 0.3652
0.3661 1.6785 0.3652
0.2150 1.7045 0.3652
0.0621 1.7168 0.3652
-0.0913 1.7155 0.3652
-0.2439 1.7006 0.3652
-0.3946 1.6722 0.3652
-0.5422 1.6304 0.3652
-0.6855 1.5757 0.3653
-0.8234 1.5085 0.3653
-0.9548 1.4292 0.3653
-5.4894 6.8123 1.8596
-6.0750 6.2956 1.8596
-6.2198 5.3887 1.7492
-6.5165 4.6978 1.7075
-6.9138 4.1005 1.7086
-7.2559 3.4694 1.7095
-7.5397 2.8098 1.7103
-7.7630 2.1269 1.7109
-7.9237 1.4264 1.7113
-8.0206 0.7142 1.7116
-8.0527 -0.0040 1.7117
-8.0199 -0.7221 1.7116
-7.9223 -1.4342 1.7113
-7.7609 -2.1345 1.7109
-7.5370 -2.8171 1.7103
-7.2525 -3.4766 1.7095
-6.9099 -4.1073 1.7086
-6.5120 -4.7043 1.7076
-6.2288 -5.4072 1.7532
-6.0689 -6.3016 1.8596
-1.0814 -1.3447 0.3668
-0.9572 -1.4359 0.3668
-0.8255 -1.5157 0.3669
-0.6870 -1.5834 0.3669
-0.5431 -1.6385 0.3669
-0.3949 -1.6805 0.3669
-0.2434 -1.7091 0.3669
-0.0900 -1.7240 0.3669
0.0641 -1.7251 0.3669
0.2177 -1.7125 0.3669
0.3695 -1.6862 0.3669
0.5184 -1.6464 0.3669
0.6631 -1.5935 0.3669
0.8025 -1.5278 0.3668
0.9354 -1.4500 0.3668
1.0609 -1.3606 0.3667
5.5506 -5.9398 1.7280
6.1120 -5.4692 1.7433
6.6091 -4.9274 1.7523
7.0305 -4.3235 1.7543
7.3938 -3.6821 1.7557
7.7022 -3.0117 1.7579
7.9472 -2.3149 1.7594
4.9079 -0.9650 1.0632
4.5886 -0.4828 0.9807
4.6735 -0.0726 0.9935
8.2551 0.6101 1.7595
8.1606 1.3427 1.7579
7.9986 2.0626 1.7558
7.7707 2.7634 1.7530
7.4793 3.4390 1.7498
7.1273 4.0834 1.7460
6.7182 4.6913 1.7417
6.2560 5.2574 1.7370
5.7489 5.7810 1.7330
1.0985 1.3220 0.3653
0.9761 1.4145 0.3653
0.8459 1.4957 0.3653
0.7091 1.5651 0.3652
0.5667 1.6220 0.3652
0.4197 1.6660 0.3652
0.2695 1.6967 0.3652
0.1171 1.7140 0.3652
-0.0363 1.7176 0.3652
-0.1893 1.7075 0.3652
-0.3408 1.6839 0.3652
-0.4897 1.6469 0.3652
-0.6347 1.5968 0.3652
-0.7746 1.5340 0.3653
-0.9085 1.4590 0.3653
-1.0351 1.3723 0.3654
-5.8702 6.4870 1.8596
-6.2113 5.7399 1.7977
-6.3614 4.9033 1.7072
-6.7774 4.3190 1.7082
-7.1397 3.6995 1.7092
-7.4447 3.0494 1.7100
-7.6899 2.3743 1.7107
-7.8733 1.6795 1.7112
-7.9932 0.9708 1.7115
-8.0486 0.2541 1.7116
-8.0391 -0.4647 1.7116
-7.9647 -1.1797 1.7114
-7.8261 -1.8849 1.7111
-7.6245 -2.5745 1.7105
-7.3615 -3.2429 1.7098
-7.0394 -3.8846 1.7090
-6.6610 -4.4942 1.7080
-6.2309 -5.0682 1.7072
-6.2677 -6.1039 1.8596
-5.6984 -6.6385 1.8596
-1.0027 -1.4045 0.3668
-0.8736 -1.4884 0.3668
-0.7374 -1.5606 0.3669
-0.5953 -1.6202 0.3669
-0.4485 -1.6670 0.3669
-0.2981 -1.7004 0.3669
-0.1452 -1.7202 0.3669
0.0088 -1.7263 0.3669
0.1627 -1.7186 0.3669
0.3153 -1.6972 0.3669
0.4654 -1.6622 0.3669
0.6117 -1.6140 0.3669
0.7531 -1.5528 0.3668
0.8885 -1.4793 0.3668
1.0168 -1.3940 0.3667
5.3323 -6.0858 1.7199
5.9164 -5.6458 1.7383
6.4378 -5.1287 1.7495
6.8902 -4.5477 1.7548
7.2683 -3.9151 1.7548
7.5987 -3.2557 1.7572
7.8667 -2.5676 1.7589
8.0697 -1.8570 1.7601
4.6352 -0.6385 0.9945
4.6267 -0.2203 0.9846
8.2723 0.3453 1.7599
8.2023 1.0809 1.7585
8.0644 1.8061 1.7566
7.8599 2.5145 1.7541
7.5910 3.1998 1.7510
7.2603 3.8561 1.7474
6.8713 4.4777 1.7433
6.4277 5.0593 1.7387
5.9402 5.6023 1.7356
5.3848 6.0736 1.7253
1.0209 1.3826 0.3653
0.8935 1.4679 0.3653
0.7589 1.5416 0.3652
0.6183 1.6030 0.3652
0.4729 1.6517 0.3652
0.3237 1.6872 0.3652
0.1719 1.7093 0.3652
0.0188 1.7178 0.3652
-0.1345 1.7127 0.3652
-0.2867 1.6940 0.3652
-0.4367 1.6617 0.3652
-0.5832 1.6163 0.3652
-0.7250 1.5580 0.3653
-0.8612 1.4873 0.3653
-0.9905 1.4047 0.3653
-5.6593 6.6718 1.8596
-6.2020 6.1112 1.8507
-6.2313 5.1296 1.7155
-6.6341 4.5330 1.7079
-7.0161 3.9256 1.7089
-7.3420 3.2859 1.7097
-7.6090 2.6191 1.7105
-7.8147 1.9307 1.7110
-7.9576 1.2263 1.7114
-8.0362 0.5118 1.7116
-8.0500 -0.2069 1.7117
-7.9989 -0.9239 1.7115
-7.8832 -1.6333 1.7112
-7.7040 -2.3292 1.7107
-7.4628 -3.0059 1.7101
-7.1616 -3.6577 1.7093
-6.8030 -4.2795 1.7083
-6.3902 -4.8660 1.7072
-6.2650 -5.7218 1.8035
-5.9081 -6.4525 1.8596
-1.0472 -1.3715 0.3668
-0.9208 -1.4596 0.3668
-0.7870 -1.5361 0.3669
-0.6469 -1.6003 0.3669
-0.5017 -1.6517 0.3669
-0.3524 -1.6899 0.3669
-0.2003 -1.7147 0.3669
-0.0466 -1.7257 0.3669
0.1075 -1.7230 0.3669
0.2608 -1.7064 0.3669
0.4119 -1.6763 0.3669
0.5597 -1.6328 0.3669
0.7030 -1.5762 0.3668
0.8407 -1.5071 0.3668
0.9716 -1.4259 0.3668
5.1182 -6.2337 1.7144
5.7137 -5.8133 1.7326
6.2579 -5.3219 1.7461
6.7389 -4.7647 1.7543
7.1358 -4.1440 1.7540
7.4871 -3.4959 1.7564
7.7779 -2.8175 1.7584
8.0045 -2.1142 1.7598
4.7265 -0.8061 1.0192
4.5844 -0.3658 0.9775
4.8091 0.0465 1.0223
8.2353 0.8178 1.7591
8.1216 1.5474 1.7574
7.9408 2.2626 1.7551
7.6947 2.9569 1.7522
7.3859 3.6243 1.7487
7.0174 4.2589 1.7448
6.5929 4.8555 1.7404
6.1178 5.4101 1.7359
5.5920 5.9141 1.7301
1.0647 1.3492 0.3653
0.9401 1.4386 0.3653
0.8079 1.5166 0.3652
0.6694 1.5824 0.3652
0.5256 1.6357 0.3652
0.3776 1.6760 0.3652
0.2266 1.7029 0.3652
0.0738 1.7164 0.3652
-0.0795 1.7161 0.3652
-0.2323 1.7022 0.3652
-0.3832 1.6748 0.3652
-0.5311 1.6341 0.3652
-0.6747 1.5804 0.3652
-0.8131 1.5140 0.3653
