ply
format ascii 1.0
element vertex 2177
property float32 x
property float32 y
property float32 z
end_header
0.2939 -0.7852 0.3549
0.3632 -0.7566 0.3552
0.4298 -0.7219 0.3556
0.4932 -0.6816 0.3561
0.5530 -0.6359 0.3567
0.6087 -0.5850 0.3573
0.6598 -0.5294 0.3580
0.7060 -0.4694 0.3588
0.7468 -0.4054 0.3597
0.7820 -0.3379 0.3606
0.8111 -0.2675 0.3615
0.8340 -0.1945 0.3625
0.8504 -0.1196 0.3635
0.8601 -0.0433 0.3645
0.8631 0.0338 0.3656
0.8591 0.1110 0.3666
0.8482 0.1879 0.3677
0.8304 0.2636 0.3688
0.8058 0.3376 0.3698
0.7745 0.4094 0.3708
0.7368 0.4781 0.3718
0.6929 0.5434 0.3727
0.6943 0.5155 0.3723
0.6471 0.5768 0.3732
0.5943 0.6337 0.3740
0.5364 0.6857 0.3748
0.4739 0.7322 0.3755
0.4073 0.7728 0.3761
0.3372 0.8073 0.3767
0.2640 0.8351 0.3771
0.1886 0.8562 0.3775
0.1115 0.8702 0.3777
0.0333 0.8771 0.3779
-0.0451 0.8767 0.3780
-0.1232 0.8691 0.3779
-0.2003 0.8543 0.3778
-0.2756 0.8325 0.3776
-0.3485 0.8039 0.3772
-0.4185 0.7687 0.3768
-0.4848 0.7273 0.3763
-0.5469 0.6800 0.3757
-0.6044 0.6274 0.3751
-0.6567 0.5698 0.3743
-0.7034 0.5077 0.3735
-0.7442 0.4419 0.3726
-0.7788 0.3727 0.3717
-0.8069 0.3009 0.3708
-0.8283 0.2271 0.3698
-0.8429 0.1518 0.3688
-0.8507 0.0757 0.3677
-0.8517 -0.0006 0.3667
-0.8458 -0.0764 0.3656
-0.8332 -0.1512 0.3646
-0.8141 -0.2244 0.3636
-0.7887 -0.2954 0.3626
-0.7571 -0.3636 0.3616
-0.7198 -0.4287 0.3607
-0.6770 -0.4900 0.3598
-0.6290 -0.5473 0.3590
-0.5764 -0.6000 0.3582
-0.5195 -0.6478 0.3575
-0.4588 -0.6903 0.3569
-0.3947 -0.7274 0.3563
-0.3277 -0.7587 0.3558
-0.2583 -0.7840 0.3554
-0.1871 -0.8032 0.3551
-0.1146 -0.8161 0.3548
-0.0412 -0.8227 0.3547
0.0324 -0.8230 0.3546
0.1058 -0.8168 0.3546
0.1783 -0.8044 0.3547
0.2496 -0.7856 0.3549
0.3190 -0.7608 0.3552
0.3860 -0.7300 0.3555
0.4502 -0.6935 0.3560
0.5111 -0.6515 0.3565
0.5682 -0.6042 0.3571
0.6210 -0.5521 0.3578
0.6692 -0.4955 0.3585
0.7124 -0.4347 0.3593
0.7501 -0.3702 0.3601
0.7821 -0.3025 0.3610
0.8081 -0.2321 0.3620
0.8278 -0.1594 0.3630
0.8411 -0.0851 0.3640
0.8477 -0.0097 0.3650
0.8476 0.0663 0.3660
0.8407 0.1421 0.3671
0.8270 0.2172 0.3681
0.8065 0.2910 0.3692
0.7794 0.3628 0.3702
0.7459 0.4321 0.3711
0.7061 0.4983 0.3721
0.6604 0.5607 0.3730
0.6091 0.6188 0.3738
0.5525 0.6721 0.3746
0.4912 0.7201 0.3753
0.4257 0.7624 0.3760
0.3565 0.7986 0.3765
0.2841 0.8283 0.3770
0.2092 0.8512 0.3774
0.1325 0.8671 0.3777
0.0545 0.8759 0.3779
-0.0239 0.8775 0.3780
-0.1022 0.8719 0.3780
-0.1796 0.8590 0.3778
-0.2554 0.8391 0.3776
-0.3291 0.8123 0.3773
-0.3999 0.7789 0.3769
-0.4672 0.7391 0.3765
-0.5306 0.6934 0.3759
-0.5893 0.6421 0.3752
-0.6431 0.5858 0.3745
-0.6914 0.5249 0.3737
-0.7338 0.4600 0.3729
-0.7701 0.3917 0.3720
-0.7999 0.3206 0.3710
-0.8232 0.2472 0.3701
-0.8397 0.1722 0.3690
-0.8493 0.0963 0.3680
-0.8521 0.0200 0.3670
-0.8481 -0.0560 0.3659
-0.8373 -0.1311 0.3649
-0.8199 -0.2048 0.3639
-0.7962 -0.2764 0.3629
-0.7662 -0.3455 0.3619
-0.7304 -0.4114 0.3609
-0.6891 -0.4738 0.3600
-0.6425 -0.5322 0.3592
-0.5911 -0.5862 0.3584
-0.5353 -0.6353 0.3577
-0.4756 -0.6793 0.3570
-0.4123 -0.7179 0.3564
-0.3461 -0.7508 0.3559
-0.2773 -0.7777 0.3555
-0.2065 -0.7986 0.3552
-0.1343 -0.8133 0.3549
-0.0611 -0.8216 0.3547
0.0125 -0.8235 0.3546
0.0860 -0.8191 0.3546
0.1588 -0.8083 0.3547
0.2305 -0.7913 0.3549
0.3004 -0.7681 0.3551
0.3682 -0.7389 0.3554
0.4332 -0.7039 0.3559
0.4950 -0.6634 0.3564
0.5531 -0.6175 0.3569
0.6072 -0.5667 0.3576
0.6567 -0.5112 0.3583
0.7012 -0.4515 0.3591
0.7404 -0.3880 0.3599
0.7740 -0.3211 0.3608
0.8017 -0.2514 0.3617
0.8231 -0.1793 0.3627
0.8381 -0.1053 0.3637
0.8466 -0.0301 0.3647
0.8483 0.0457 0.3658
0.8432 0.1216 0.3668
0.8313 0.1970 0.3678
0.8127 0.2712 0.3689
0.7874 0.3436 0.3699
0.7556 0.4137 0.3709
0.7175 0.4807 0.3718
0.6733 0.5442 0.3727
0.6235 0.6035 0.3736
0.5683 0.6582 0.3744
0.5083 0.7077 0.3751
0.4438 0.7516 0.3758
0.3755 0.7894 0.3764
0.3039 0.8209 0.3769
0.2297 0.8457 0.3773
0.1534 0.8635 0.3776
0.0757 0.8743 0.3778
-0.0027 0.8778 0.3779
-0.0811 0.8741 0.3780
-0.1588 0.8632 0.3779
-0.2351 0.8452 0.3777
-0.3094 0.8202 0.3774
-0.3810 0.7885 0.3771
-0.4494 0.7505 0.3766
-0.5139 0.7063 0.3761
-0.5739 0.6565 0.3754
-0.6291 0.6015 0.3747
-0.6789 0.5418 0.3740
-0.7229 0.4780 0.3731
-0.7609 0.4105 0.3722
-0.7925 0.3401 0.3713
-0.8175 0.2672 0.3703
-0.8359 0.1926 0.3693
-0.8474 0.1169 0.3683
-0.8520 0.0407 0.3672
-0.8498 -0.0355 0.3662
-0.8409 -0.1109 0.3652
-0.8253 -0.1850 0.3641
-0.8032 -0.2573 0.3631
-0.7749 -0.3271 0.3621
-0.7407 -0.3939 0.3612
-0.7008 -0.4573 0.3603
-0.6556 -0.5169 0.3594
-0.6054 -0.5720 0.3586
-0.5508 -0.6225 0.3579
-0.4921 -0.6680 0.3572
-0.4297 -0.7080 0.3566
-0.3643 -0.7425 0.3561
-0.2961 -0.7710 0.3556
-0.2259 -0.7936 0.3552
-0.1540 -0.8099 0.3549
-0.0810 -0.8200 0.3547
-0.0074 -0.8236 0.3546
0.0661 -0.8209 0.3546
0.1392 -0.8119 0.3547
0.2112 -0.7965 0.3548
0.2817 -0.7750 0.3550
0.3501 -0.7474 0.3553
0.4159 -0.7140 0.3557
0.4786 -0.6749 0.3562
0.5378 -0.6304 0.3568
0.5930 -0.5809 0.3574
0.6437 -0.5267 0.3581
0.6897 -0.4681 0.3589
0.7304 -0.4055 0.3597
0.7655 -0.3395 0.3606
0.7948 -0.2705 0.3615
0.8179 -0.1990 0.3624
0.8347 -0.1255 0.3634
0.8449 -0.0506 0.3644
0.8485 0.0251 0.3655
0.8453 0.1011 0.3665
0.8352 0.1767 0.3676
0.8184 0.2513 0.3686
0.7949 0.3242 0.3696
0.7648 0.3950 0.3706
0.7284 0.4629 0.3716
0.6859 0.5274 0.3725
0.6375 0.5879 0.3734
0.5837 0.6439 0.3742
0.5250 0.6948 0.3749
0.4617 0.7403 0.3756
0.3943 0.7798 0.3762
0.3236 0.8130 0.3768
0.2500 0.8396 0.3772
0.1742 0.8594 0.3775
0.0968 0.8721 0.3778
0.0185 0.8776 0.3779
-0.0599 0.8758 0.3780
-0.1378 0.8669 0.3779
-0.2146 0.8508 0.3778
-0.2895 0.8276 0.3775
-0.3620 0.7978 0.3772
-0.4313 0.7614 0.3767
-0.4968 0.7188 0.3762
-0.5581 0.6705 0.3756
-0.6147 0.6169 0.3749
-0.6659 0.5584 0.3742
-0.7116 0.4956 0.3734
-0.7512 0.4291 0.3725
-0.7846 0.3594 0.3716
-0.8114 0.2871 0.3706
-0.8316 0.2130 0.3696
-0.8449 0.1375 0.3686
-0.8514 0.0613 0.3675
-0.8511 -0.0149 0.3665
-0.8439 -0.0906 0.3654
-0.8301 -0.1651 0.3644
-0.8098 -0.2379 0.3634
-0.7832 -0.3085 0.3624
-0.7505 -0.3762 0.3614
-0.7121 -0.4405 0.3605
-0.6683 -0.5012 0.3597
-0.6195 -0.5576 0.3588
-0.5660 -0.6094 0.3581
-0.5083 -0.6562 0.3574
-0.4469 -0.6977 0.3568
-0.3823 -0.7337 0.3562
-0.3148 -0.7639 0.3557
-0.2450 -0.7881 0.3553
-0.1735 -0.8061 0.3550
-0.1008 -0.8179 0.3548
-0.0274 -0.8233 0.3546
0.0463 -0.8223 0.3546
0.1195 -0.8150 0.3546
0.1919 -0.8013 0.3547
0.2628 -0.7814 0.3550
0.3318 -0.7555 0.3552
0.3984 -0.7236 0.3556
0.4620 -0.6860 0.3561
0.5222 -0.6430 0.3566
0.5785 -0.5948 0.3572
0.6305 -0.5418 0.3579
0.6777 -0.4843 0.3586
0.7199 -0.4228 0.3595
0.7566 -0.3577 0.3603
0.7875 -0.2894 0.3612
0.8123 -0.2185 0.3622
0.8308 -0.1455 0.3631
0.8428 -0.0709 0.3642
0.8482 0.0046 0.3652
0.8468 0.0806 0.3662
0.8386 0.1563 0.3673
0.8236 0.2312 0.3683
0.8019 0.3047 0.3693
0.7736 0.3761 0.3704
0.7389 0.4448 0.3713
0.6980 0.5103 0.3723
0.6511 0.5720 0.3731
0.5988 0.6292 0.3740
0.5413 0.6816 0.3748
0.4792 0.7286 0.3755
0.4129 0.7697 0.3761
0.3430 0.8047 0.3766
0.2701 0.8331 0.3771
0.1949 0.8547 0.3774
0.1178 0.8693 0.3777
0.0398 0.8768 0.3779
-0.0387 0.8770 0.3780
-0.1169 0.8700 0.3779
-0.1940 0.8558 0.3778
-0.2695 0.8346 0.3776
-0.3427 0.8065 0.3773
-0.4128 0.7718 0.3769
-0.4795 0.7309 0.3764
-0.5420 0.6841 0.3758
-0.5999 0.6319 0.3751
-0.6526 0.5747 0.3744
-0.6998 0.5130 0.3736
-0.7411 0.4474 0.3727
-0.7762 0.3785 0.3718
-0.8048 0.3069 0.3709
-0.8268 0.2332 0.3699
-0.8420 0.1580 0.3688
-0.8504 0.0819 0.3678
-0.8518 0.0057 0.3668
-0.8465 -0.0702 0.3657
-0.8345 -0.1451 0.3647
-0.8159 -0.2184 0.3637
-0.7910 -0.2896 0.3627
-0.7599 -0.3581 0.3617
-0.7230 -0.4235 0.3608
-0.6807 -0.4852 0.3599
-0.6332 -0.5427 0.3591
-0.5809 -0.5958 0.3583
-0.5243 -0.6440 0.3576
-0.4639 -0.6870 0.3569
-0.4000 -0.7246 0.3563
-0.3333 -0.7563 0.3558
-0.2641 -0.7821 0.3554
-0.1930 -0.8018 0.3551
-0.1206 -0.8153 0.3548
-0.0473 -0.8224 0.3547
0.0264 -0.8232 0.3546
0.0998 -0.8176 0.3546
0.1724 -0.8056 0.3547
0.2438 -0.7874 0.3549
0.3134 -0.7631 0.3552
0.3806 -0.7328 0.3555
0.4451 -0.6967 0.3559
0.5062 -0.6551 0.3565
0.5637 -0.6083 0.3571
0.6169 -0.5566 0.3577
0.6654 -0.5003 0.3584
0.7090 -0.4398 0.3592
0.7472 -0.3756 0.3601
0.7797 -0.3082 0.3610
0.8062 -0.2379 0.3619
0.8264 -0.1654 0.3629
0.8402 -0.0912 0.3639
0.8474 -0.0159 0.3649
0.8478 0.0600 0.3660
0.8415 0.1359 0.3670
0.8284 0.2111 0.3680
0.8085 0.2850 0.3691
0.7819 0.3570 0.3701
0.7489 0.4265 0.3711
0.7096 0.4930 0.3720
0.6644 0.5557 0.3729
0.6135 0.6142 0.3738
0.5574 0.6679 0.3745
0.4964 0.7164 0.3753
0.4312 0.7592 0.3759
0.3623 0.7959 0.3765
0.2901 0.8261 0.3770
0.2154 0.8496 0.3774
0.1388 0.8661 0.3776
0.0609 0.8755 0.3778
-0.0175 0.8777 0.3780
-0.0958 0.8726 0.3780
-0.1733 0.8603 0.3779
-0.2493 0.8410 0.3777
-0.3231 0.8148 0.3774
-0.3942 0.7818 0.3770
-0.4618 0.7426 0.3765
-0.5255 0.6973 0.3759
-0.5847 0.6465 0.3753
-0.6389 0.5906 0.3746
-0.6876 0.5301 0.3738
-0.7305 0.4655 0.3730
-0.7673 0.3975 0.3721
-0.7977 0.3265 0.3711
-0.8215 0.2533 0.3701
-0.8386 0.1784 0.3691
-0.8488 0.1026 0.3681
-0.8521 0.0263 0.3671
-0.8486 -0.0498 0.3660
-0.8384 -0.1250 0.3650
-0.8216 -0.1988 0.3639
-0.7983 -0.2706 0.3629
-0.7689 -0.3399 0.3620
-0.7336 -0.4061 0.3610
-0.6927 -0.4689 0.3601
-0.6465 -0.5276 0.3593
-0.5955 -0.5819 0.3585
-0.5400 -0.6315 0.3577
-0.4806 -0.6759 0.3571
-0.4176 -0.7150 0.3565
-0.3516 -0.7483 0.3560
-0.2830 -0.7758 0.3555
-0.2124 -0.7971 0.3552
-0.1403 -0.8123 0.3549
-0.0672 -0.8211 0.3547
0.0064 -0.8236 0.3546
0.0800 -0.8197 0.3546
0.1529 -0.8095 0.3547
0.2246 -0.7929 0.3548
0.2948 -0.7703 0.3551
0.3627 -0.7415 0.3554
0.4280 -0.7070 0.3558
0.4901 -0.6669 0.3563
0.5485 -0.6215 0.3569
0.6029 -0.5710 0.3575
0.6528 -0.5159 0.3582
0.6977 -0.4566 0.3590
0.7374 -0.3933 0.3598
0.7715 -0.3267 0.3607
0.7996 -0.2572 0.3616
0.8216 -0.1852 0.3626
0.8371 -0.1115 0.3636
0.8461 -0.0364 0.3646
0.8484 0.0395 0.3657
0.8439 0.1154 0.3667
0.8326 0.1908 0.3678
0.8145 0.2652 0.3688
0.7897 0.3378 0.3698
0.7585 0.4080 0.3708
0.7208 0.4753 0.3718
0.6772 0.5391 0.3727
0.6278 0.5988 0.3735
0.5730 0.6539 0.3743
0.5134 0.7038 0.3751
0.4493 0.7482 0.3757
0.3813 0.7866 0.3763
0.3099 0.8186 0.3768
0.2358 0.8439 0.3773
0.1597 0.8623 0.3776
0.0821 0.8737 0.3778
0.0038 0.8778 0.3779
-0.0746 0.8747 0.3780
-0.1524 0.8644 0.3779
-0.2289 0.8469 0.3777
-0.3034 0.8225 0.3775
-0.3753 0.7914 0.3771
-0.4439 0.7538 0.3766
-0.5087 0.7101 0.3761
-0.5692 0.6608 0.3755
-0.6247 0.6062 0.3748
-0.6750 0.5469 0.3740
-0.7195 0.4833 0.3732
-0.7580 0.4162 0.3723
-0.7902 0.3460 0.3714
-0.8157 0.2733 0.3704
-0.8346 0.1988 0.3694
-0.8467 0.1232 0.3684
-0.8519 0.0469 0.3673
-0.8503 -0.0292 0.3663
-0.8418 -0.1048 0.3652
-0.8268 -0.1790 0.3642
-0.8052 -0.2514 0.3632
-0.7775 -0.3214 0.3622
-0.7437 -0.3886 0.3613
-0.7043 -0.4523 0.3604
-0.6595 -0.5121 0.3595
-0.6097 -0.5677 0.3587
-0.5555 -0.6186 0.3579
-0.4971 -0.6644 0.3573
-0.4350 -0.7050 0.3566
-0.3697 -0.7399 0.3561
-0.3018 -0.7689 0.3556
-0.2317 -0.7920 0.3553
-0.1599 -0.8088 0.3550
-0.0870 -0.8194 0.3548
-0.0135 -0.8236 0.3546
0.0601 -0.8214 0.3546
0.1332 -0.8129 0.3546
0.2054 -0.7980 0.3548
0.2760 -0.7770 0.3550
0.3446 -0.7499 0.3553
0.4106 -0.7169 0.3557
0.4736 -0.6783 0.3562
0.5331 -0.6343 0.3567
0.5886 -0.5852 0.3573
0.6398 -0.5313 0.3580
0.6861 -0.4730 0.3588
0.7272 -0.4108 0.3596
0.7628 -0.3451 0.3605
0.7926 -0.2763 0.3614
0.8163 -0.2049 0.3623
0.8336 -0.1316 0.3633
0.8444 -0.0568 0.3644
0.8484 0.0189 0.3654
0.8458 0.0949 0.3664
0.8363 0.1705 0.3675
0.8201 0.2452 0.3685
0.7971 0.3183 0.3695
0.7676 0.3893 0.3705
0.7316 0.4574 0.3715
0.6896 0.5222 0.3724
0.6417 0.5831 0.3733
0.5884 0.6395 0.3741
0.5300 0.6909 0.3749
0.4670 0.7368 0.3756
0.4000 0.7768 0.3762
0.3295 0.8105 0.3767
0.2561 0.8377 0.3772
0.1805 0.8580 0.3775
0.1032 0.8713 0.3778
0.0250 0.8774 0.3779
-0.0535 0.8762 0.3780
-0.1315 0.8679 0.3779
-0.2084 0.8523 0.3778
-0.2835 0.8298 0.3775
-0.3561 0.8005 0.3772
-0.4257 0.7646 0.3768
-0.4916 0.7225 0.3763
-0.5533 0.6747 0.3757
-0.6102 0.6215 0.3750
-0.6619 0.5634 0.3742
-0.7081 0.5009 0.3734
-0.7482 0.4347 0.3726
-0.7821 0.3652 0.3716
-0.8095 0.2932 0.3707
-0.8302 0.2191 0.3697
-0.8441 0.1437 0.3687
-0.8512 0.0676 0.3676
-0.8514 -0.0087 0.3666
-0.8448 -0.0844 0.3655
-0.8315 -0.1591 0.3645
-0.8117 -0.2320 0.3635
-0.7856 -0.3028 0.3625
-0.7534 -0.3707 0.3615
-0.7155 -0.4354 0.3606
-0.6721 -0.4963 0.3597
-0.6237 -0.5531 0.3589
-0.5706 -0.6053 0.3581
-0.5132 -0.6525 0.3574
-0.4521 -0.6945 0.3568
-0.3877 -0.7310 0.3562
-0.3204 -0.7617 0.3558
-0.2508 -0.7863 0.3554
-0.1795 -0.8049 0.3550
-0.1068 -0.8171 0.3548
-0.0334 -0.8231 0.3547
0.0402 -0.8226 0.3546
0.1135 -0.8158 0.3546
0.1860 -0.8027 0.3547
0.2570 -0.7833 0.3549
0.3262 -0.7578 0.3552
0.3930 -0.7264 0.3556
0.4569 -0.6893 0.3560
0.5174 -0.6467 0.3566
0.5740 -0.5989 0.3572
0.6264 -0.5463 0.3578
0.6740 -0.4892 0.3586
0.7166 -0.4280 0.3594
0.7538 -0.3632 0.3602
0.7852 -0.2951 0.3611
0.8105 -0.2244 0.3621
0.8295 -0.1516 0.3631
0.8421 -0.0771 0.3641
0.8480 -0.0016 0.3651
0.8472 0.0743 0.3661
0.8395 0.1501 0.3672
0.8251 0.2251 0.3682
0.8040 0.2987 0.3693
0.7762 0.3703 0.3703
0.7420 0.4393 0.3712
0.7015 0.5051 0.3722
0.6552 0.5671 0.3731
0.6033 0.6247 0.3739
0.5462 0.6775 0.3747
0.4845 0.7249 0.3754
0.4185 0.7666 0.3760
0.3489 0.8021 0.3766
0.2762 0.8310 0.3770
0.2011 0.8532 0.3774
0.1242 0.8684 0.3777
0.0462 0.8765 0.3779
-0.0323 0.8773 0.3780
-0.1105 0.8708 0.3779
-0.1877 0.8572 0.3778
-0.2634 0.8366 0.3776
-0.3367 0.8091 0.3773
-0.4072 0.7749 0.3769
-0.4742 0.7345 0.3764
-0.5370 0.6882 0.3758
-0.5953 0.6364 0.3752
-0.6485 0.5795 0.3744
-0.6962 0.5182 0.3736
-0.7379 0.4529 0.3728
-0.7736 0.3843 0.3719
-0.8027 0.3129 0.3709
-0.8253 0.2393 0.3699
-0.8410 0.1642 0.3689
-0.8499 0.0882 0.3679
-0.8520 0.0119 0.3669
-0.8472 -0.0640 0.3658
-0.8357 -0.1390 0.3648
-0.8177 -0.2125 0.3637
-0.7933 -0.2839 0.3627
-0.7627 -0.3526 0.3618
-0.7263 -0.4182 0.3608
-0.6843 -0.4802 0.3600
-0.6372 -0.5382 0.3591
-0.5854 -0.5916 0.3583
-0.5291 -0.6403 0.3576
-0.4690 -0.6837 0.3570
-0.4054 -0.7217 0.3564
-0.3389 -0.7539 0.3559
-0.2699 -0.7803 0.3555
-0.1989 -0.8005 0.3551
-0.1266 -0.8144 0.3549
-0.0533 -0.8221 0.3547
0.0203 -0.8234 0.3546
0.0938 -0.8183 0.3546
0.1665 -0.8068 0.3547
0.2380 -0.7891 0.3549
0.3077 -0.7653 0.3551
0.3752 -0.7355 0.3555
0.4399 -0.6999 0.3559
0.5014 -0.6587 0.3564
0.5591 -0.6123 0.3570
0.6127 -0.5610 0.3577
0.6616 -0.5051 0.3584
0.7056 -0.4449 0.3592
0.7443 -0.3810 0.3600
0.7773 -0.3138 0.3609
0.8043 -0.2438 0.3618
0.8250 -0.1715 0.3628
0.8393 -0.0974 0.3638
0.8471 -0.0221 0.3648
0.8481 0.0538 0.3659
0.8423 0.1297 0.3669
0.8297 0.2049 0.3680
0.8103 0.2790 0.3690
0.7843 0.3512 0.3700
0.7518 0.4209 0.3710
0.7131 0.4876 0.3719
0.6683 0.5507 0.3728
0.6179 0.6096 0.3737
0.5622 0.6637 0.3745
0.5016 0.7126 0.3752
0.4367 0.7559 0.3759
0.3681 0.7931 0.3764
0.2961 0.8238 0.3769
0.2216 0.8479 0.3773
0.1452 0.8650 0.3776
0.0674 0.8750 0.3778
-0.0110 0.8778 0.3779
-0.0894 0.8733 0.3780
-0.1670 0.8616 0.3779
-0.2431 0.8429 0.3777
-0.3172 0.8172 0.3774
-0.3885 0.7848 0.3770
-0.4564 0.7460 0.3766
-0.5205 0.7013 0.3760
-0.5800 0.6509 0.3754
-0.6346 0.5954 0.3746
-0.6838 0.5352 0.3739
-0.7272 0.4709 0.3730
-0.7645 0.4032 0.3721
-0.7955 0.3324 0.3712
-0.8198 0.2594 0.3702
-0.8374 0.1846 0.3692
-0.8482 0.1088 0.3682
-0.8521 0.0326 0.3671
-0.8492 -0.0435 0.3661
-0.8395 -0.1189 0.3650
-0.8232 -0.1928 0.3640
-0.8005 -0.2648 0.3630
-0.7716 -0.3343 0.3620
-0.7367 -0.4008 0.3611
-0.6962 -0.4639 0.3602
-0.6505 -0.5229 0.3593
-0.5999 -0.5776 0.3585
-0.5448 -0.6276 0.3578
-0.4856 -0.6725 0.3571
-0.4229 -0.7120 0.3565
-0.3571 -0.7458 0.3560
-0.2887 -0.7737 0.3556
-0.2183 -0.7956 0.3552
-0.1462 -0.8113 0.3549
-0.0732 -0.8206 0.3547
0.0004 -0.8237 0.3546
0.0739 -0.8203 0.3546
0.1469 -0.8105 0.3547
0.2188 -0.7945 0.3548
0.2891 -0.7723 0.3551
0.3572 -0.7441 0.3554
0.4227 -0.7101 0.3558
0.4851 -0.6704 0.3563
0.5439 -0.6254 0.3568
0.5986 -0.5754 0.3575
0.6489 -0.5206 0.3582
0.6942 -0.4616 0.3589
0.7344 -0.3987 0.3598
0.7689 -0.3323 0.3606
0.7976 -0.2630 0.3616
0.8200 -0.1912 0.3625
0.8361 -0.1176 0.3635
0.8456 -0.0426 0.3645
0.8485 0.0332 0.3656
0.8445 0.1092 0.3666
0.8338 0.1847 0.3677
0.8162 0.2591 0.3687
0.7920 0.3319 0.3697
0.7613 0.4023 0.3707
0.7242 0.4699 0.3717
0.6810 0.5340 0.3726
0.6825 0.5068 0.3722
0.6360 0.5670 0.3731
0.5841 0.6229 0.3739
0.5272 0.6739 0.3747
0.4658 0.7196 0.3753
0.4003 0.7596 0.3759
0.3314 0.7934 0.3765
0.2595 0.8208 0.3769
0.1853 0.8414 0.3773
0.1095 0.8552 0.3775
0.0327 0.8619 0.3777
-0.0444 0.8616 0.3778
-0.1211 0.8541 0.3777
-0.1968 0.8396 0.3776
-0.2708 0.8182 0.3774
-0.3425 0.7900 0.3770
-0.4113 0.7555 0.3766
-0.4764 0.7148 0.3761
-0.5375 0.6684 0.3756
-0.5940 0.6166 0.3749
-0.6455 0.5600 0.3742
-0.6914 0.4991 0.3734
-0.7316 0.4344 0.3725
-0.7656 0.3664 0.3716
-0.7932 0.2958 0.3707
-0.8143 0.2232 0.3697
-0.8287 0.1492 0.3687
-0.8364 0.0744 0.3677
-0.8374 -0.0006 0.3667
-0.8317 -0.0751 0.3656
-0.8193 -0.1487 0.3646
-0.8006 -0.2206 0.3636
-0.7756 -0.2905 0.3626
-0.7446 -0.3576 0.3617
-0.7079 -0.4216 0.3608
-0.6658 -0.4820 0.3599
-0.6187 -0.5383 0.3591
-0.5670 -0.5901 0.3583
-0.5110 -0.6372 0.3576
-0.4513 -0.6791 0.3570
-0.3882 -0.7155 0.3565
-0.3224 -0.7463 0.3560
-0.2541 -0.7713 0.3556
-0.1841 -0.7902 0.3552
-0.1127 -0.8029 0.3550
-0.0406 -0.8094 0.3549
0.0319 -0.8096 0.3548
0.1040 -0.8036 0.3548
0.1754 -0.7913 0.3549
0.2455 -0.7729 0.3551
0.3138 -0.7485 0.3554
0.3798 -0.7182 0.3557
0.4429 -0.6822 0.3562
0.5028 -0.6409 0.3567
0.5589 -0.5944 0.3572
0.6109 -0.5431 0.3579
0.6582 -0.4873 0.3586
0.7007 -0.4276 0.3594
0.7377 -0.3641 0.3602
0.7692 -0.2975 0.3611
0.7947 -0.2282 0.3620
0.8141 -0.1568 0.3630
0.8271 -0.0837 0.3640
0.8336 -0.0095 0.3650
0.8334 0.0651 0.3660
0.8266 0.1397 0.3671
0.8131 0.2135 0.3681
0.7929 0.2861 0.3691
0.7663 0.3567 0.3701
0.7333 0.4248 0.3711
0.6941 0.4898 0.3720
0.6491 0.5511 0.3729
0.5987 0.6082 0.3737
0.5431 0.6606 0.3745
0.4828 0.7078 0.3752
0.4184 0.7493 0.3758
0.3503 0.7849 0.3763
0.2792 0.8140 0.3768
0.2056 0.8365 0.3772
0.1302 0.8522 0.3775
0.0536 0.8608 0.3777
-0.0235 0.8624 0.3777
-0.1004 0.8568 0.3777
-0.1765 0.8442 0.3776
-0.2510 0.8246 0.3774
-0.3234 0.7983 0.3771
-0.3930 0.7654 0.3768
-0.4592 0.7264 0.3763
-0.5214 0.6815 0.3757
-0.5792 0.6311 0.3751
-0.6321 0.5758 0.3744
-0.6796 0.5160 0.3736
-0.7213 0.4522 0.3728
-0.7570 0.3851 0.3719
-0.7864 0.3151 0.3709
-0.8093 0.2430 0.3700
-0.8255 0.1693 0.3690
-0.8350 0.0947 0.3680
-0.8378 0.0197 0.3669
-0.8339 -0.0550 0.3659
-0.8233 -0.1289 0.3649
-0.8063 -0.2014 0.3639
-0.7830 -0.2718 0.3629
-0.7536 -0.3397 0.3619
-0.7184 -0.4046 0.3610
-0.6777 -0.4660 0.3601
-0.6319 -0.5235 0.3593
-0.5814 -0.5766 0.3585
-0.5266 -0.6250 0.3578
-0.4678 -0.6683 0.3572
-0.4056 -0.7062 0.3566
-0.3404 -0.7386 0.3561
-0.2728 -0.7651 0.3557
-0.2032 -0.7856 0.3553
-0.1321 -0.8001 0.3551
-0.0601 -0.8083 0.3549
0.0123 -0.8102 0.3548
0.0846 -0.8058 0.3548
0.1562 -0.7952 0.3549
0.2267 -0.7785 0.3550
0.2955 -0.7557 0.3553
0.3622 -0.7269 0.3556
0.4261 -0.6925 0.3560
0.4869 -0.6526 0.3565
0.5441 -0.6074 0.3571
0.5973 -0.5574 0.3577
0.6459 -0.5028 0.3584
0.6897 -0.4441 0.3592
0.7283 -0.3816 0.3600
0.7613 -0.3158 0.3609
0.7884 -0.2472 0.3618
0.8095 -0.1763 0.3627
0.8242 -0.1036 0.3637
0.8325 -0.0296 0.3647
0.8341 0.0449 0.3658
0.8291 0.1196 0.3668
0.8174 0.1937 0.3678
0.7990 0.2666 0.3688
0.7741 0.3378 0.3698
0.7428 0.4067 0.3708
0.7053 0.4725 0.3717
0.6619 0.5349 0.3726
0.6128 0.5932 0.3735
0.5586 0.6469 0.3743
0.4996 0.6956 0.3750
0.4362 0.7387 0.3756
0.3691 0.7759 0.3762
0.2987 0.8068 0.3767
0.2257 0.8311 0.3771
0.1507 0.8486 0.3774
0.0744 0.8592 0.3776
-0.0026 0.8627 0.3777
-0.0797 0.8590 0.3778
-0.1560 0.8483 0.3777
-0.2310 0.8306 0.3775
-0.3041 0.8061 0.3772
-0.3745 0.7750 0.3769
-0.4417 0.7375 0.3764
-0.5050 0.6942 0.3759
-0.5641 0.6452 0.3753
-0.6183 0.5912 0.3746
-0.6673 0.5326 0.3738
-0.7106 0.4698 0.3730
-0.7479 0.4035 0.3721
-0.7791 0.3343 0.3712
-0.8037 0.2627 0.3702
-0.8218 0.1894 0.3693
-0.8331 0.1149 0.3682
-0.8377 0.0400 0.3672
-0.8356 -0.0349 0.3662
-0.8268 -0.1091 0.3652
-0.8115 -0.1819 0.3642
-0.7899 -0.2530 0.3632
-0.7621 -0.3217 0.3622
-0.7284 -0.3874 0.3613
-0.6892 -0.4498 0.3604
-0.6448 -0.5084 0.3595
-0.5955 -0.5627 0.3587
-0.5418 -0.6123 0.3580
-0.4841 -0.6571 0.3573
-0.4227 -0.6965 0.3568
-0.3583 -0.7304 0.3562
-0.2913 -0.7585 0.3558
-0.2222 -0.7807 0.3554
-0.1515 -0.7968 0.3551
-0.0797 -0.8067 0.3549
-0.0073 -0.8103 0.3548
0.0651 -0.8076 0.3548
0.1369 -0.7987 0.3548
0.2078 -0.7836 0.3550
0.2771 -0.7624 0.3552
0.3444 -0.7353 0.3555
0.4091 -0.7023 0.3559
0.4708 -0.6639 0.3564
0.5290 -0.6201 0.3569
0.5833 -0.5714 0.3575
0.6332 -0.5180 0.3582
0.6784 -0.4604 0.3590
0.7184 -0.3989 0.3598
0.7529 -0.3339 0.3606
0.7817 -0.2660 0.3615
0.8044 -0.1957 0.3625
0.8209 -0.1234 0.3635
0.8309 -0.0497 0.3645
0.8343 0.0247 0.3655
0.8311 0.0994 0.3665
0.8212 0.1737 0.3675
0.8046 0.2470 0.3686
0.7815 0.3188 0.3696
0.7519 0.3883 0.3705
0.7160 0.4550 0.3715
0.6742 0.5184 0.3724
0.6266 0.5779 0.3733
0.5738 0.6329 0.3741
0.5160 0.6829 0.3748
0.4537 0.7276 0.3755
0.3876 0.7664 0.3761
0.3180 0.7990 0.3766
0.2457 0.8252 0.3770
0.1712 0.8446 0.3773
0.0951 0.8570 0.3776
0.0182 0.8624 0.3777
-0.0589 0.8607 0.3778
-0.1355 0.8519 0.3777
-0.2109 0.8361 0.3776
-0.2846 0.8134 0.3773
-0.3557 0.7840 0.3770
-0.4238 0.7483 0.3766
-0.4883 0.7065 0.3760
-0.5486 0.6590 0.3754
-0.6041 0.6063 0.3748
-0.6546 0.5488 0.3740
-0.6994 0.4872 0.3732
-0.7384 0.4218 0.3724
-0.7713 0.3533 0.3715
-0.7977 0.2823 0.3705
-0.8175 0.2094 0.3695
-0.8307 0.1352 0.3685
-0.8371 0.0603 0.3675
-0.8368 -0.0147 0.3665
-0.8298 -0.0891 0.3654
-0.8163 -0.1624 0.3644
-0.7963 -0.2340 0.3634
-0.7702 -0.3033 0.3625
-0.7381 -0.3699 0.3615
-0.7004 -0.4333 0.3606
-0.6573 -0.4929 0.3598
-0.6093 -0.5484 0.3590
-0.5567 -0.5994 0.3582
-0.5000 -0.6455 0.3575
-0.4397 -0.6864 0.3569
-0.3760 -0.7218 0.3564
-0.3097 -0.7515 0.3559
-0.2411 -0.7753 0.3555
-0.1707 -0.7930 0.3552
-0.0992 -0.8046 0.3550
-0.0269 -0.8099 0.3548
0.0455 -0.8090 0.3548
0.1176 -0.8017 0.3548
0.1888 -0.7883 0.3549
0.2585 -0.7687 0.3551
0.3264 -0.7432 0.3554
0.3919 -0.7118 0.3558
0.4545 -0.6748 0.3562
0.5137 -0.6325 0.3568
0.5690 -0.5851 0.3574
0.6202 -0.5329 0.3580
0.6666 -0.4764 0.3588
0.7081 -0.4159 0.3596
0.7441 -0.3518 0.3604
0.7745 -0.2847 0.3613
0.7989 -0.2149 0.3622
0.8170 -0.1431 0.3632
0.8288 -0.0698 0.3642
0.8340 0.0045 0.3652
0.8326 0.0792 0.3662
0.8245 0.1537 0.3673
0.8098 0.2273 0.3683
0.7884 0.2995 0.3693
0.7605 0.3697 0.3703
0.7263 0.4373 0.3712
0.6861 0.5016 0.3722
0.6400 0.5622 0.3730
0.5886 0.6185 0.3738
0.5321 0.6699 0.3746
0.4710 0.7161 0.3753
0.4058 0.7565 0.3759
0.3371 0.7908 0.3764
0.2655 0.8188 0.3769
0.1915 0.8400 0.3772
0.1158 0.8543 0.3775
0.0391 0.8617 0.3777
-0.0380 0.8619 0.3778
-0.1148 0.8550 0.3777
-0.1907 0.8410 0.3776
-0.2648 0.8202 0.3774
-0.3367 0.7926 0.3771
-0.4057 0.7586 0.3767
-0.4712 0.7184 0.3762
-0.5327 0.6724 0.3756
-0.5896 0.6210 0.3750
-0.6414 0.5648 0.3742
-0.6879 0.5042 0.3734
-0.7285 0.4398 0.3726
-0.7630 0.3721 0.3717
-0.7912 0.3017 0.3708
-0.8128 0.2292 0.3698
-0.8278 0.1553 0.3688
-0.8361 0.0806 0.3678
-0.8376 0.0056 0.3668
-0.8324 -0.0690 0.3657
-0.8206 -0.1427 0.3647
-0.8024 -0.2148 0.3637
-0.7779 -0.2848 0.3627
-0.7474 -0.3522 0.3618
-0.7111 -0.4165 0.3609
-0.6695 -0.4772 0.3600
-0.6228 -0.5338 0.3592
-0.5714 -0.5861 0.3584
-0.5158 -0.6335 0.3577
-0.4563 -0.6758 0.3571
-0.3935 -0.7128 0.3565
-0.3279 -0.7440 0.3560
-0.2598 -0.7694 0.3556
-0.1899 -0.7888 0.3553
-0.1186 -0.8021 0.3550
-0.0465 -0.8091 0.3549
0.0259 -0.8098 0.3548
0.0981 -0.8043 0.3548
0.1696 -0.7926 0.3549
0.2398 -0.7746 0.3551
0.3083 -0.7507 0.3553
0.3744 -0.7209 0.3557
0.4378 -0.6854 0.3561
0.4980 -0.6444 0.3566
0.5545 -0.5984 0.3572
0.6068 -0.5475 0.3578
0.6545 -0.4921 0.3586
0.6974 -0.4326 0.3593
0.7349 -0.3695 0.3602
0.7668 -0.3031 0.3610
0.7929 -0.2340 0.3620
0.8127 -0.1627 0.3629
0.8263 -0.0897 0.3639
0.8333 -0.0156 0.3649
0.8337 0.0590 0.3659
0.8274 0.1336 0.3670
0.8144 0.2075 0.3680
0.7948 0.2802 0.3690
0.7687 0.3510 0.3700
0.7362 0.4193 0.3710
0.6976 0.4846 0.3719
0.6531 0.5462 0.3728
0.6030 0.6037 0.3736
0.5478 0.6565 0.3744
0.4879 0.7041 0.3751
0.4238 0.7461 0.3757
0.3560 0.7822 0.3763
0.2851 0.8119 0.3768
0.2117 0.8349 0.3772
0.1364 0.8511 0.3774
0.0599 0.8604 0.3776
-0.0172 0.8625 0.3777
-0.0941 0.8575 0.3777
-0.1703 0.8455 0.3777
-0.2450 0.8265 0.3775
-0.3176 0.8007 0.3772
-0.3874 0.7684 0.3768
-0.4539 0.7298 0.3763
-0.5165 0.6854 0.3758
-0.5747 0.6354 0.3751
-0.6279 0.5805 0.3744
-0.6759 0.5210 0.3737
-0.7181 0.4576 0.3728
-0.7543 0.3907 0.3720
-0.7842 0.3210 0.3710
-0.8076 0.2490 0.3701
-0.8244 0.1754 0.3691
-0.8345 0.1008 0.3681
-0.8378 0.0258 0.3670
-0.8344 -0.0489 0.3660
-0.8244 -0.1229 0.3650
-0.8079 -0.1955 0.3640
-0.7851 -0.2661 0.3630
-0.7562 -0.3343 0.3620
-0.7215 -0.3994 0.3611
-0.6813 -0.4611 0.3602
-0.6359 -0.5189 0.3594
-0.5857 -0.5724 0.3586
-0.5312 -0.6212 0.3579
-0.4728 -0.6649 0.3572
-0.4108 -0.7033 0.3566
-0.3459 -0.7361 0.3561
-0.2784 -0.7632 0.3557
-0.2090 -0.7842 0.3554
-0.1380 -0.7991 0.3551
-0.0661 -0.8078 0.3549
0.0063 -0.8103 0.3548
0.0787 -0.8064 0.3548
0.1504 -0.7963 0.3549
0.2210 -0.7801 0.3550
0.2900 -0.7577 0.3553
0.3568 -0.7295 0.3556
0.4210 -0.6955 0.3560
0.4821 -0.6560 0.3565
0.5396 -0.6113 0.3570
0.5931 -0.5617 0.3577
0.6421 -0.5075 0.3584
0.6863 -0.4491 0.3591
0.7253 -0.3869 0.3599
0.7588 -0.3213 0.3608
0.7864 -0.2529 0.3617
0.8080 -0.1822 0.3627
0.8232 -0.1096 0.3636
0.8320 -0.0357 0.3647
0.8342 0.0388 0.3657
0.8297 0.1135 0.3667
0.8186 0.1876 0.3677
0.8008 0.2607 0.3687
0.7764 0.3320 0.3697
0.7456 0.4011 0.3707
0.7086 0.4673 0.3717
0.6657 0.5299 0.3726
0.6171 0.5886 0.3734
0.5632 0.6427 0.3742
0.5046 0.6918 0.3749
0.4416 0.7354 0.3756
0.3747 0.7730 0.3762
0.3046 0.8045 0.3767
0.2318 0.8293 0.3771
0.1569 0.8474 0.3774
0.0807 0.8586 0.3776
0.0037 0.8626 0.3777
-0.0734 0.8596 0.3778
-0.1498 0.8495 0.3777
-0.2249 0.8323 0.3775
-0.2982 0.8083 0.3773
-0.3688 0.7778 0.3769
-0.4363 0.7408 0.3765
-0.5000 0.6979 0.3759
-0.5594 0.6495 0.3753
-0.6140 0.5958 0.3746
-0.6634 0.5375 0.3739
-0.7073 0.4751 0.3731
-0.7451 0.4091 0.3722
-0.7767 0.3401 0.3713
-0.8019 0.2687 0.3703
-0.8205 0.1955 0.3693
-0.8324 0.1211 0.3683
-0.8376 0.0461 0.3673
-0.8360 -0.0288 0.3663
-0.8278 -0.1030 0.3653
-0.8130 -0.1760 0.3642
-0.7919 -0.2472 0.3632
-0.7646 -0.3161 0.3623
-0.7314 -0.3821 0.3613
-0.6927 -0.4448 0.3604
-0.6486 -0.5037 0.3596
-0.5997 -0.5584 0.3588
-0.5464 -0.6085 0.3581
-0.4889 -0.6536 0.3574
-0.4279 -0.6935 0.3568
-0.3637 -0.7278 0.3563
-0.2969 -0.7564 0.3558
-0.2279 -0.7791 0.3554
-0.1573 -0.7957 0.3551
-0.0856 -0.8061 0.3549
-0.0133 -0.8102 0.3548
0.0591 -0.8081 0.3548
0.1311 -0.7997 0.3548
0.2020 -0.7851 0.3550
0.2715 -0.7644 0.3552
0.3390 -0.7377 0.3555
0.4039 -0.7053 0.3559
0.4659 -0.6672 0.3563
0.5244 -0.6239 0.3569
0.5790 -0.5756 0.3575
0.6293 -0.5226 0.3582
0.6748 -0.4653 0.3589
0.7153 -0.4041 0.3597
0.7503 -0.3394 0.3606
0.7795 -0.2717 0.3615
0.8028 -0.2015 0.3624
0.8197 -0.1294 0.3634
0.8303 -0.0558 0.3644
0.8343 0.0186 0.3654
0.8316 0.0933 0.3664
0.8223 0.1676 0.3674
0.8062 0.2411 0.3685
0.7836 0.3129 0.3695
0.7546 0.3827 0.3705
0.7192 0.4497 0.3714
0.6778 0.5134 0.3723
0.6308 0.5732 0.3732
0.5783 0.6286 0.3740
0.5209 0.6790 0.3747
0.4590 0.7241 0.3754
0.3931 0.7634 0.3760
0.3238 0.7966 0.3765
0.2517 0.8233 0.3770
0.1773 0.8432 0.3773
0.1014 0.8563 0.3775
0.0246 0.8622 0.3777
-0.0526 0.8611 0.3778
-0.1292 0.8529 0.3777
-0.2048 0.8376 0.3776
-0.2786 0.8155 0.3773
-0.3500 0.7867 0.3770
-0.4184 0.7514 0.3766
-0.4831 0.7101 0.3761
-0.5438 0.6631 0.3755
-0.5998 0.6108 0.3748
-0.6506 0.5537 0.3741
-0.6960 0.4924 0.3733
-0.7355 0.4273 0.3724
-0.7688 0.3590 0.3715
-0.7958 0.2882 0.3706
-0.8162 0.2154 0.3696
-0.8299 0.1413 0.3686
-0.8369 0.0664 0.3676
-0.8371 -0.0085 0.3666
-0.8307 -0.0830 0.3655
-0.8176 -0.1564 0.3645
-0.7982 -0.2282 0.3635
-0.7726 -0.2977 0.3625
-0.7410 -0.3646 0.3616
-0.7037 -0.4282 0.3607
-0.6610 -0.4882 0.3598
-0.6134 -0.5440 0.3590
-0.5612 -0.5954 0.3583
-0.5048 -0.6419 0.3576
-0.4447 -0.6832 0.3570
-0.3814 -0.7191 0.3564
-0.3152 -0.7493 0.3559
-0.2468 -0.7736 0.3555
-0.1766 -0.7918 0.3552
-0.1051 -0.8039 0.3550
-0.0329 -0.8097 0.3548
0.0396 -0.8093 0.3548
0.1117 -0.8026 0.3548
0.1830 -0.7896 0.3549
0.2529 -0.7706 0.3551
0.3209 -0.7455 0.3554
0.3866 -0.7146 0.3558
0.4494 -0.6781 0.3562
0.5089 -0.6362 0.3567
0.5646 -0.5891 0.3573
0.6161 -0.5374 0.3580
0.6630 -0.4812 0.3587
0.7049 -0.4210 0.3595
0.7414 -0.3572 0.3603
0.7722 -0.2903 0.3612
0.7971 -0.2207 0.3621
0.8158 -0.1491 0.3631
0.8281 -0.0758 0.3641
0.8339 -0.0016 0.3651
0.8330 0.0731 0.3661
0.8255 0.1476 0.3672
0.8112 0.2213 0.3682
0.7904 0.2937 0.3692
0.7631 0.3641 0.3702
0.7294 0.4319 0.3712
0.6896 0.4965 0.3721
0.6440 0.5574 0.3730
0.5930 0.6140 0.3738
0.5369 0.6659 0.3745
0.4762 0.7125 0.3752
0.4113 0.7534 0.3759
0.3429 0.7883 0.3764
0.2715 0.8167 0.3769
0.1976 0.8385 0.3772
0.1221 0.8534 0.3775
0.0454 0.8613 0.3777
-0.0317 0.8621 0.3778
-0.1086 0.8558 0.3777
-0.1845 0.8424 0.3776
-0.2588 0.8222 0.3774
-0.3309 0.7951 0.3771
-0.4002 0.7616 0.3767
-0.4660 0.7219 0.3762
-0.5278 0.6764 0.3757
-0.5851 0.6255 0.3750
-0.6374 0.5696 0.3743
-0.6843 0.5094 0.3735
-0.7254 0.4452 0.3727
-0.7604 0.3778 0.3718
-0.7891 0.3076 0.3708
-0.8113 0.2353 0.3699
-0.8268 0.1614 0.3689
-0.8356 0.0867 0.3679
-0.8377 0.0117 0.3668
-0.8331 -0.0629 0.3658
-0.8218 -0.1367 0.3648
-0.8041 -0.2090 0.3638
-0.7801 -0.2792 0.3628
-0.7501 -0.3468 0.3618
-0.7143 -0.4114 0.3609
-0.6731 -0.4723 0.3601
-0.6268 -0.5293 0.3592
-0.5758 -0.5820 0.3585
-0.5205 -0.6298 0.3578
-0.4613 -0.6726 0.3571
-0.3988 -0.7099 0.3565
-0.3334 -0.7417 0.3560
-0.2655 -0.7676 0.3556
-0.1957 -0.7875 0.3553
-0.1245 -0.8012 0.3550
-0.0524 -0.8088 0.3549
0.0200 -0.8100 0.3548
0.0922 -0.8050 0.3548
0.1638 -0.7937 0.3549
0.2341 -0.7763 0.3551
0.3027 -0.7529 0.3553
0.3691 -0.7235 0.3557
0.4328 -0.6885 0.3561
0.4932 -0.6480 0.3566
0.5500 -0.6023 0.3571
0.6026 -0.5518 0.3578
0.6508 -0.4968 0.3585
0.6941 -0.4376 0.3593
0.7320 -0.3748 0.3601
0.7644 -0.3087 0.3610
0.7910 -0.2398 0.3619
0.8113 -0.1686 0.3629
0.8254 -0.0958 0.3638
0.8329 -0.0217 0.3648
0.8339 0.0529 0.3659
0.8282 0.1275 0.3669
0.8157 0.2015 0.3679
0.7967 0.2743 0.3689
0.7711 0.3453 0.3699
0.7391 0.4138 0.3709
0.7010 0.4794 0.3718
0.6569 0.5413 0.3727
0.6073 0.5992 0.3736
0.5525 0.6524 0.3743
0.4930 0.7004 0.3751
0.4292 0.7429 0.3757
0.3617 0.7794 0.3763
0.2910 0.8097 0.3767
0.2178 0.8333 0.3771
0.1427 0.8501 0.3774
0.0662 0.8599 0.3776
-0.0108 0.8626 0.3777
-0.0878 0.8582 0.3777
-0.1641 0.8468 0.3777
-0.2389 0.8283 0.3775
-0.3117 0.8031 0.3772
-0.3818 0.7713 0.3768
-0.4486 0.7332 0.3764
-0.5115 0.6892 0.3758
-0.5701 0.6397 0.3752
-0.6238 0.5852 0.3745
-0.6721 0.5261 0.3737
-0.7148 0.4629 0.3729
-0.7516 0.3963 0.3720
-0.7820 0.3268 0.3711
-0.8060 0.2550 0.3701
-0.8233 0.1815 0.3692
-0.8339 0.1070 0.3681
-0.8378 0.0320 0.3671
-0.8350 -0.0428 0.3661
-0.8255 -0.1169 0.3651
-0.8095 -0.1896 0.3641
-0.7872 -0.2604 0.3631
-0.7588 -0.3288 0.3621
-0.7245 -0.3942 0.3612
-0.6848 -0.4562 0.3603
-0.6398 -0.5143 0.3594
-0.5900 -0.5682 0.3587
-0.5358 -0.6173 0.3579
-0.4777 -0.6615 0.3573
-0.4160 -0.7004 0.3567
-0.3513 -0.7337 0.3562
-0.2841 -0.7612 0.3557
-0.2147 -0.7827 0.3554
-0.1439 -0.7981 0.3551
-0.0720 -0.8073 0.3549
0.0004 -0.8103 0.3548
0.0727 -0.8070 0.3548
0.1445 -0.7974 0.3548
0.2153 -0.7816 0.3550
0.2844 -0.7598 0.3552
0.3514 -0.7320 0.3556
0.4158 -0.6985 0.3560
0.4772 -0.6595 0.3564
0.5350 -0.6152 0.3570
0.5888 -0.5659 0.3576
0.6382 -0.5121 0.3583
0.6829 -0.4540 0.3591
0.7223 -0.3921 0.3599
0.7562 -0.3268 0.3607
0.7844 -0.2586 0.3616
0.8064 -0.1881 0.3626
0.8222 -0.1156 0.3636
0.8316 -0.0418 0.3646
0.8343 0.0327 0.3656
0.8304 0.1073 0.3666
0.8198 0.1816 0.3676
0.8025 0.2547 0.3687
0.7786 0.3263 0.3697
0.7484 0.3955 0.3706
0.7119 0.4620 0.3716
0.6694 0.5249 0.3725
0.6710 0.4982 0.3721
0.6253 0.5575 0.3730
0.5743 0.6124 0.3738
0.5183 0.6625 0.3745
0.4579 0.7074 0.3752
0.3935 0.7467 0.3758
0.3257 0.7799 0.3763
0.2551 0.8068 0.3767
0.1822 0.8271 0.3771
0.1077 0.8406 0.3773
0.0322 0.8472 0.3775
-0.0436 0.8469 0.3776
-0.1190 0.8395 0.3775
-0.1935 0.8253 0.3774
-0.2662 0.8042 0.3772
-0.3367 0.7766 0.3769
-0.4043 0.7426 0.3765
-0.4684 0.7026 0.3760
-0.5284 0.6570 0.3754
-0.5840 0.6062 0.3748
-0.6346 0.5505 0.3740
-0.6798 0.4907 0.3733
-0.7192 0.4270 0.3724
-0.7527 0.3603 0.3715
-0.7799 0.2909 0.3706
-0.8007 0.2195 0.3697
-0.8149 0.1467 0.3687
-0.8225 0.0732 0.3677
-0.8235 -0.0006 0.3667
-0.8179 -0.0739 0.3656
-0.8058 -0.1462 0.3646
-0.7874 -0.2170 0.3637
-0.7629 -0.2857 0.3627
-0.7324 -0.3518 0.3618
-0.6964 -0.4147 0.3609
-0.6550 -0.4741 0.3600
-0.6087 -0.5296 0.3592
-0.5578 -0.5806 0.3585
-0.5028 -0.6269 0.3578
-0.4440 -0.6681 0.3572
-0.3820 -0.7040 0.3566
-0.3172 -0.7343 0.3561
-0.2501 -0.7589 0.3557
-0.1811 -0.7775 0.3554
-0.1109 -0.7900 0.3552
-0.0399 -0.7964 0.3550
0.0314 -0.7966 0.3550
0.1024 -0.7907 0.3550
0.1726 -0.7786 0.3551
0.2416 -0.7605 0.3553
0.3088 -0.7364 0.3555
0.3736 -0.7066 0.3559
0.4358 -0.6712 0.3563
0.4947 -0.6305 0.3568
0.5499 -0.5848 0.3574
0.6010 -0.5343 0.3580
0.6476 -0.4794 0.3587
0.6893 -0.4206 0.3595
0.7257 -0.3582 0.3603
0.7566 -0.2927 0.3612
0.7817 -0.2245 0.3621
0.8007 -0.1542 0.3631
0.8135 -0.0823 0.3640
0.8198 -0.0094 0.3650
0.8196 0.0641 0.3660
0.8129 0.1374 0.3670
0.7995 0.2100 0.3681
0.7797 0.2813 0.3690
0.7535 0.3507 0.3700
0.7210 0.4177 0.3710
0.6825 0.4816 0.3719
0.6382 0.5418 0.3727
0.5886 0.5980 0.3736
0.5339 0.6494 0.3743
0.4746 0.6958 0.3750
0.4113 0.7366 0.3756
0.3444 0.7715 0.3762
0.2744 0.8002 0.3766
0.2021 0.8223 0.3770
0.1279 0.8376 0.3773
0.0527 0.8461 0.3775
-0.0231 0.8477 0.3775
-0.0987 0.8422 0.3775
-0.1735 0.8298 0.3774
-0.2467 0.8106 0.3772
-0.3179 0.7847 0.3770
-0.3863 0.7524 0.3766
-0.4514 0.7140 0.3761
-0.5126 0.6699 0.3756
-0.5694 0.6204 0.3749
-0.6214 0.5660 0.3742
-0.6681 0.5073 0.3735
-0.7092 0.4446 0.3727
-0.7443 0.3786 0.3718
-0.7732 0.3099 0.3709
-0.7957 0.2390 0.3699
-0.8117 0.1665 0.3689
-0.8211 0.0931 0.3679
-0.8239 0.0194 0.3669
-0.8201 -0.0541 0.3659
-0.8097 -0.1268 0.3649
-0.7930 -0.1981 0.3639
-0.7701 -0.2674 0.3630
-0.7412 -0.3342 0.3620
-0.7067 -0.3980 0.3611
-0.6667 -0.4585 0.3602
-0.6217 -0.5150 0.3594
-0.5720 -0.5672 0.3587
-0.5180 -0.6148 0.3580
-0.4602 -0.6575 0.3573
-0.3991 -0.6948 0.3568
-0.3350 -0.7267 0.3563
-0.2684 -0.7528 0.3558
-0.1999 -0.7730 0.3555
-0.1300 -0.7872 0.3552
-0.0592 -0.7953 0.3551
0.0121 -0.7972 0.3550
0.0832 -0.7929 0.3550
0.1537 -0.7825 0.3550
0.2231 -0.7660 0.3552
0.2908 -0.7435 0.3554
0.3564 -0.7152 0.3558
0.4193 -0.6813 0.3562
0.4791 -0.6420 0.3567
0.5353 -0.5976 0.3572
0.5876 -0.5484 0.3579
0.6354 -0.4947 0.3585
0.6785 -0.4369 0.3593
0.7164 -0.3754 0.3601
0.7488 -0.3107 0.3610
0.7755 -0.2432 0.3619
0.7962 -0.1734 0.3628
0.8107 -0.1019 0.3638
0.8187 -0.0292 0.3648
0.8203 0.0442 0.3658
0.8153 0.1176 0.3668
0.8038 0.1904 0.3678
0.7857 0.2622 0.3688
0.7612 0.3322 0.3698
0.7304 0.3998 0.3707
0.6935 0.4646 0.3716
0.6507 0.5259 0.3725
0.6025 0.5832 0.3733
0.5492 0.6360 0.3741
0.4911 0.6838 0.3748
0.4288 0.7261 0.3755
0.3628 0.7627 0.3760
0.2936 0.7930 0.3765
0.2219 0.8169 0.3769
0.1481 0.8342 0.3772
0.0731 0.8445 0.3774
-0.0026 0.8479 0.3775
-0.0783 0.8444 0.3776
-0.1534 0.8338 0.3775
-0.2271 0.8164 0.3773
-0.2989 0.7923 0.3770
-0.3681 0.7618 0.3767
-0.4341 0.7250 0.3762
-0.4965 0.6824 0.3757
-0.5545 0.6343 0.3751
-0.6078 0.5812 0.3744
-0.6560 0.5236 0.3737
-0.6986 0.4619 0.3729
-0.7354 0.3967 0.3720
-0.7660 0.3287 0.3711
-0.7903 0.2583 0.3702
-0.8081 0.1862 0.3692
-0.8193 0.1130 0.3682
-0.8238 0.0393 0.3672
-0.8218 -0.0343 0.3662
-0.8132 -0.1073 0.3652
-0.7982 -0.1789 0.3642
-0.7769 -0.2488 0.3632
-0.7496 -0.3164 0.3623
-0.7166 -0.3811 0.3613
-0.6780 -0.4425 0.3605
-0.6343 -0.5001 0.3596
-0.5859 -0.5535 0.3589
-0.5330 -0.6024 0.3581
-0.4762 -0.6464 0.3575
-0.4159 -0.6853 0.3569
-0.3526 -0.7186 0.3564
-0.2866 -0.7463 0.3559
-0.2186 -0.7681 0.3556
-0.1490 -0.7840 0.3553
-0.0784 -0.7937 0.3551
-0.0072 -0.7973 0.3550
0.0640 -0.7947 0.3550
0.1347 -0.7859 0.3550
0.2045 -0.7710 0.3552
0.2727 -0.7502 0.3554
0.3389 -0.7234 0.3557
0.4025 -0.6910 0.3561
0.4632 -0.6532 0.3565
0.5205 -0.6101 0.3571
0.5739 -0.5622 0.3577
0.6230 -0.5096 0.3583
0.6673 -0.4529 0.3591
0.7067 -0.3924 0.3599
0.7406 -0.3285 0.3607
0.7689 -0.2617 0.3616
0.7912 -0.1925 0.3625
0.8074 -0.1214 0.3635
0.8172 -0.0489 0.3645
0.8205 0.0243 0.3655
0.8173 0.0978 0.3665
0.8076 0.1708 0.3675
0.7912 0.2429 0.3685
0.7684 0.3134 0.3695
0.7393 0.3818 0.3705
0.7040 0.4474 0.3714
0.6628 0.5097 0.3723
0.6161 0.5681 0.3731
0.5641 0.6222 0.3739
0.5072 0.6714 0.3746
0.4460 0.7153 0.3753
0.3810 0.7534 0.3759
0.3126 0.7854 0.3764
0.2415 0.8111 0.3768
0.1682 0.8302 0.3771
0.0935 0.8424 0.3774
0.0179 0.8477 0.3775
-0.0579 0.8460 0.3776
-0.1332 0.8374 0.3775
-0.2073 0.8218 0.3774
-0.2797 0.7995 0.3771
-0.3497 0.7707 0.3768
-0.4166 0.7355 0.3764
-0.4800 0.6945 0.3759
-0.5392 0.6478 0.3753
-0.5939 0.5960 0.3746
-0.6435 0.5396 0.3739
-0.6877 0.4789 0.3731
-0.7260 0.4147 0.3723
-0.7583 0.3474 0.3714
-0.7843 0.2776 0.3704
-0.8039 0.2059 0.3695
-0.8169 0.1329 0.3685
-0.8232 0.0593 0.3675
-0.8230 -0.0144 0.3665
-0.8161 -0.0876 0.3655
-0.8028 -0.1597 0.3645
-0.7833 -0.2301 0.3635
-0.7576 -0.2984 0.3625
-0.7261 -0.3639 0.3616
-0.6890 -0.4262 0.3607
-0.6466 -0.4849 0.3599
-0.5994 -0.5395 0.3591
-0.5477 -0.5897 0.3583
-0.4920 -0.6350 0.3577
-0.4326 -0.6753 0.3570
-0.3700 -0.7102 0.3565
-0.3047 -0.7394 0.3561
-0.2372 -0.7628 0.3557
-0.1680 -0.7803 0.3554
-0.0976 -0.7917 0.3551
-0.0265 -0.7969 0.3550
0.0448 -0.7960 0.3550
0.1157 -0.7889 0.3550
0.1857 -0.7757 0.3551
0.2544 -0.7564 0.3553
0.3212 -0.7312 0.3556
0.3856 -0.7004 0.3560
0.4471 -0.6640 0.3564
0.5054 -0.6223 0.3569
0.5598 -0.5756 0.3575
0.6101 -0.5243 0.3582
0.6558 -0.4687 0.3589
0.6966 -0.4091 0.3597
0.7320 -0.3461 0.3605
0.7618 -0.2800 0.3614
0.7858 -0.2114 0.3623
0.8036 -0.1408 0.3632
0.8152 -0.0686 0.3642
0.8203 0.0045 0.3652
0.8188 0.0779 0.3662
0.8109 0.1511 0.3672
0.7963 0.2235 0.3682
0.7752 0.2945 0.3692
0.7478 0.3635 0.3702
0.7142 0.4300 0.3711
0.6746 0.4932 0.3720
0.6293 0.5527 0.3729
0.5786 0.6080 0.3737
0.5231 0.6586 0.3745
0.4630 0.7039 0.3751
0.3989 0.7437 0.3757
0.3314 0.7774 0.3763
0.2610 0.8048 0.3767
0.1882 0.8257 0.3771
0.1138 0.8398 0.3773
0.0384 0.8470 0.3775
-0.0374 0.8472 0.3776
-0.1129 0.8404 0.3775
-0.1874 0.8267 0.3774
-0.2603 0.8062 0.3772
-0.3310 0.7791 0.3769
-0.3988 0.7456 0.3765
-0.4632 0.7061 0.3760
-0.5237 0.6610 0.3754
-0.5796 0.6105 0.3748
-0.6306 0.5553 0.3741
-0.6763 0.4957 0.3733
-0.7162 0.4324 0.3725
-0.7502 0.3658 0.3716
-0.7779 0.2967 0.3707
-0.7993 0.2254 0.3697
-0.8140 0.1527 0.3687
-0.8222 0.0792 0.3677
-0.8237 0.0055 0.3667
-0.8186 -0.0679 0.3657
-0.8071 -0.1403 0.3647
-0.7892 -0.2113 0.3637
-0.7651 -0.2802 0.3628
-0.7351 -0.3465 0.3618
-0.6995 -0.4097 0.3609
-0.6586 -0.4694 0.3601
-0.6127 -0.5252 0.3593
-0.5621 -0.5766 0.3585
-0.5074 -0.6233 0.3578
-0.4490 -0.6649 0.3572
-0.3872 -0.7013 0.3567
-0.3226 -0.7320 0.3562
-0.2556 -0.7571 0.3558
-0.1868 -0.7762 0.3554
-0.1167 -0.7892 0.3552
-0.0458 -0.7961 0.3550
0.0255 -0.7969 0.3550
0.0966 -0.7914 0.3550
0.1669 -0.7798 0.3551
0.2360 -0.7622 0.3552
0.3033 -0.7386 0.3555
0.3684 -0.7093 0.3558
0.4308 -0.6743 0.3563
0.4900 -0.6341 0.3568
0.5455 -0.5887 0.3573
0.5970 -0.5386 0.3580
0.6439 -0.4841 0.3587
0.6860 -0.4256 0.3594
0.7230 -0.3634 0.3603
0.7543 -0.2981 0.3611
0.7799 -0.2302 0.3620
0.7994 -0.1600 0.3630
0.8127 -0.0882 0.3640
0.8195 -0.0154 0.3649
0.8199 0.0580 0.3659
0.8137 0.1314 0.3670
0.8009 0.2041 0.3680
0.7816 0.2755 0.3690
0.7558 0.3451 0.3699
0.7239 0.4123 0.3709
0.6858 0.4764 0.3718
0.6421 0.5370 0.3727
0.5928 0.5935 0.3735
0.5386 0.6454 0.3743
0.4797 0.6922 0.3750
0.4166 0.7335 0.3756
0.3500 0.7689 0.3761
0.2803 0.7980 0.3766
0.2081 0.8207 0.3770
0.1341 0.8366 0.3773
0.0589 0.8457 0.3774
-0.0169 0.8478 0.3775
-0.0925 0.8429 0.3775
-0.1674 0.8311 0.3775
-0.2408 0.8124 0.3773
-0.3121 0.7871 0.3770
-0.3808 0.7553 0.3766
-0.4462 0.7174 0.3761
-0.5077 0.6737 0.3756
-0.5649 0.6247 0.3750
-0.6173 0.5707 0.3743
-0.6645 0.5122 0.3735
-0.7060 0.4499 0.3727
-0.7416 0.3841 0.3719
-0.7711 0.3156 0.3709
-0.7941 0.2449 0.3700
-0.8107 0.1725 0.3690
-0.8206 0.0992 0.3680
-0.8239 0.0254 0.3670
-0.8206 -0.0481 0.3660
-0.8108 -0.1209 0.3650
-0.7946 -0.1923 0.3640
-0.7722 -0.2618 0.3630
-0.7438 -0.3288 0.3621
-0.7097 -0.3929 0.3612
-0.6702 -0.4536 0.3603
-0.6256 -0.5105 0.3595
-0.5762 -0.5631 0.3587
-0.5226 -0.6111 0.3580
-0.4651 -0.6542 0.3574
-0.4042 -0.6920 0.3568
-0.3403 -0.7243 0.3563
-0.2740 -0.7509 0.3559
-0.2056 -0.7716 0.3555
-0.1358 -0.7863 0.3553
-0.0650 -0.7949 0.3551
0.0062 -0.7973 0.3550
0.0774 -0.7935 0.3550
0.1480 -0.7836 0.3550
0.2174 -0.7676 0.3552
0.2853 -0.7456 0.3554
0.3511 -0.7178 0.3557
0.4142 -0.6843 0.3561
0.4743 -0.6455 0.3566
0.5309 -0.6015 0.3572
0.5835 -0.5526 0.3578
0.6317 -0.4993 0.3585
0.6752 -0.4418 0.3592
0.7135 -0.3806 0.3600
0.7464 -0.3161 0.3609
0.7736 -0.2488 0.3618
0.7947 -0.1792 0.3627
0.8097 -0.1078 0.3637
0.8183 -0.0352 0.3647
0.8204 0.0382 0.3657
0.8160 0.1116 0.3667
0.8050 0.1845 0.3677
0.7874 0.2563 0.3687
0.7634 0.3265 0.3697
0.7331 0.3944 0.3706
0.6967 0.4594 0.3716
0.6545 0.5210 0.3724
0.6067 0.5787 0.3733
0.5537 0.6319 0.3741
0.4960 0.6801 0.3748
0.4341 0.7229 0.3754
0.3683 0.7599 0.3760
0.2994 0.7908 0.3765
0.2278 0.8152 0.3769
0.1543 0.8330 0.3772
0.0793 0.8439 0.3774
0.0036 0.8479 0.3775
-0.0721 0.8449 0.3776
-0.1472 0.8350 0.3775
-0.2211 0.8181 0.3773
-0.2931 0.7946 0.3771
-0.3625 0.7645 0.3767
-0.4289 0.7282 0.3763
-0.4915 0.6861 0.3758
-0.5499 0.6384 0.3752
-0.6036 0.5857 0.3745
-0.6522 0.5284 0.3737
-0.6953 0.4671 0.3729
-0.7326 0.4022 0.3721
-0.7637 0.3344 0.3712
-0.7885 0.2642 0.3703
-0.8068 0.1922 0.3693
-0.8186 0.1191 0.3683
-0.8237 0.0454 0.3673
-0.8222 -0.0283 0.3663
-0.8141 -0.1013 0.3653
-0.7996 -0.1731 0.3643
-0.7789 -0.2432 0.3633
-0.7521 -0.3109 0.3623
-0.7195 -0.3759 0.3614
-0.6814 -0.4376 0.3605
-0.6381 -0.4955 0.3597
-0.5900 -0.5493 0.3589
-0.5375 -0.5986 0.3582
-0.4810 -0.6430 0.3575
-0.4210 -0.6823 0.3569
-0.3579 -0.7161 0.3564
-0.2921 -0.7443 0.3560
-0.2243 -0.7666 0.3556
-0.1548 -0.7829 0.3553
-0.0842 -0.7931 0.3551
-0.0131 -0.7972 0.3550
0.0582 -0.7951 0.3550
0.1290 -0.7869 0.3550
0.1988 -0.7725 0.3551
0.2671 -0.7521 0.3554
0.3335 -0.7259 0.3557
0.3974 -0.6939 0.3560
0.4584 -0.6565 0.3565
0.5159 -0.6139 0.3570
0.5697 -0.5663 0.3576
0.6191 -0.5141 0.3583
0.6639 -0.4577 0.3590
0.7036 -0.3975 0.3598
0.7381 -0.3338 0.3607
0.7668 -0.2673 0.3615
0.7896 -0.1982 0.3625
0.8063 -0.1273 0.3634
0.8166 -0.0549 0.3644
0.8205 0.0183 0.3654
0.8178 0.0917 0.3664
0.8086 0.1649 0.3674
0.7928 0.2370 0.3684
0.7705 0.3077 0.3694
0.7419 0.3763 0.3704
0.7071 0.4421 0.3713
0.6664 0.5047 0.3722
0.6201 0.5635 0.3731
0.5685 0.6179 0.3739
0.5121 0.6675 0.3746
0.4512 0.7119 0.3752
0.3865 0.7505 0.3758
0.3183 0.7831 0.3763
0.2474 0.8093 0.3768
0.1743 0.8289 0.3771
0.0997 0.8417 0.3774
0.0241 0.8475 0.3775
-0.0517 0.8464 0.3776
-0.1270 0.8383 0.3775
-0.2013 0.8234 0.3774
-0.2738 0.8016 0.3771
-0.3440 0.7733 0.3768
-0.4113 0.7387 0.3764
-0.4749 0.6981 0.3759
-0.5346 0.6519 0.3753
-0.5896 0.6005 0.3747
-0.6396 0.5444 0.3740
-0.6842 0.4841 0.3732
-0.7231 0.4201 0.3723
-0.7559 0.3530 0.3714
-0.7824 0.2834 0.3705
-0.8025 0.2118 0.3695
-0.8161 0.1389 0.3686
-0.8230 0.0653 0.3676
-0.8232 -0.0084 0.3665
-0.8169 -0.0816 0.3655
-0.8042 -0.1538 0.3645
-0.7851 -0.2244 0.3636
-0.7599 -0.2929 0.3626
-0.7289 -0.3586 0.3617
-0.6922 -0.4212 0.3608
-0.6503 -0.4802 0.3599
-0.6035 -0.5352 0.3591
-0.5521 -0.5857 0.3584
-0.4967 -0.6315 0.3577
-0.4376 -0.6722 0.3571
-0.3752 -0.7075 0.3566
-0.3101 -0.7372 0.3561
-0.2428 -0.7611 0.3557
-0.1737 -0.7791 0.3554
-0.1034 -0.7910 0.3552
-0.0323 -0.7967 0.3550
0.0389 -0.7963 0.3550
0.1099 -0.7897 0.3550
0.1800 -0.7770 0.3551
0.2488 -0.7582 0.3553
0.3158 -0.7335 0.3556
0.3804 -0.7031 0.3559
0.4422 -0.6671 0.3564
0.5007 -0.6259 0.3569
0.5555 -0.5796 0.3575
0.6062 -0.5287 0.3581
0.6523 -0.4734 0.3588
0.6934 -0.4141 0.3596
0.7293 -0.3514 0.3604
0.7596 -0.2855 0.3613
0.7840 -0.2171 0.3622
0.8024 -0.1466 0.3632
0.8145 -0.0746 0.3641
0.8201 -0.0016 0.3651
0.8192 0.0719 0.3661
0.8118 0.1451 0.3672
0.7977 0.2176 0.3682
0.7772 0.2888 0.3692
0.7503 0.3580 0.3701
0.7172 0.4246 0.3711
0.6780 0.4882 0.3720
0.6332 0.5480 0.3728
0.5830 0.6037 0.3736
0.5278 0.6546 0.3744
0.4681 0.7004 0.3751
0.4043 0.7406 0.3757
0.3371 0.7749 0.3762
0.2668 0.8028 0.3767
0.1943 0.8242 0.3770
0.1200 0.8389 0.3773
0.0446 0.8466 0.3775
-0.0312 0.8474 0.3775
-0.1067 0.8412 0.3775
-0.1813 0.8281 0.3774
-0.2544 0.8081 0.3772
-0.3253 0.7816 0.3769
-0.3934 0.7486 0.3765
-0.4581 0.7096 0.3761
-0.5189 0.6649 0.3755
-0.5752 0.6149 0.3749
-0.6266 0.5600 0.3742
-0.6727 0.5008 0.3734
-0.7132 0.4377 0.3726
-0.7476 0.3714 0.3717
-0.7759 0.3024 0.3708
-0.7977 0.2313 0.3698
-0.8131 0.1587 0.3688
-0.8218 0.0853 0.3678
-0.8238 0.0115 0.3668
-0.8193 -0.0619 0.3658
-0.8083 -0.1345 0.3648
-0.7909 -0.2055 0.3638
-0.7673 -0.2746 0.3628
-0.7378 -0.3411 0.3619
-0.7027 -0.4046 0.3610
-0.6621 -0.4647 0.3601
-0.6166 -0.5208 0.3593
-0.5664 -0.5725 0.3586
-0.5121 -0.6196 0.3579
-0.4539 -0.6617 0.3573
-0.3924 -0.6985 0.3567
-0.3280 -0.7297 0.3562
-0.2612 -0.7552 0.3558
-0.1926 -0.7748 0.3555
-0.1225 -0.7884 0.3552
-0.0516 -0.7958 0.3550
0.0197 -0.7970 0.3550
0.0908 -0.7921 0.3550
0.1612 -0.7810 0.3551
0.2304 -0.7639 0.3552
0.2979 -0.7408 0.3555
0.3632 -0.7119 0.3558
0.4258 -0.6774 0.3562
0.4852 -0.6376 0.3567
0.5411 -0.5926 0.3573
0.5929 -0.5429 0.3579
0.6403 -0.4887 0.3586
0.6828 -0.4305 0.3594
0.7201 -0.3687 0.3602
0.7520 -0.3036 0.3611
0.7780 -0.2358 0.3620
0.7980 -0.1659 0.3629
0.8118 -0.0942 0.3639
0.8192 -0.0214 0.3649
0.8201 0.0520 0.3659
0.8144 0.1254 0.3669
0.8022 0.1981 0.3679
0.7834 0.2697 0.3689
0.7582 0.3395 0.3699
0.7267 0.4069 0.3708
0.6892 0.4713 0.3717
0.6459 0.5322 0.3726
0.5971 0.5891 0.3734
0.5432 0.6413 0.3742
0.4847 0.6886 0.3749
0.4220 0.7303 0.3755
0.3556 0.7662 0.3761
0.2861 0.7959 0.3766
0.2141 0.8191 0.3769
0.1402 0.8356 0.3772
0.0651 0.8452 0.3774
-0.0107 0.8479 0.3775
-0.0863 0.8436 0.3775
-0.1613 0.8323 0.3775
-0.2348 0.8142 0.3773
-0.3064 0.7894 0.3770
-0.3753 0.7582 0.3766
-0.4410 0.7207 0.3762
-0.5028 0.6775 0.3757
-0.5604 0.6289 0.3750
-0.6132 0.5753 0.3744
-0.6608 0.5172 0.3736
-0.7028 0.4551 0.3728
-0.7389 0.3896 0.3719
-0.7689 0.3213 0.3710
-0.7925 0.2507 0.3701
-0.8096 0.1785 0.3691
-0.8201 0.1052 0.3681
-0.8239 0.0315 0.3671
-0.8212 -0.0421 0.3661
-0.8119 -0.1149 0.3651
-0.7962 -0.1865 0.3641
-0.7743 -0.2561 0.3631
-0.7464 -0.3234 0.3622
-0.7127 -0.3878 0.3612
-0.6736 -0.4488 0.3604
-0.6294 -0.5060 0.3596
-0.5805 -0.5590 0.3588
-0.5272 -0.6074 0.3581
-0.4700 -0.6508 0.3574
-0.4093 -0.6891 0.3568
-0.3457 -0.7218 0.3563
-0.2795 -0.7489 0.3559
-0.2113 -0.7701 0.3555
-0.1416 -0.7853 0.3553
-0.0708 -0.7944 0.3551
0.0004 -0.7973 0.3550
0.0716 -0.7940 0.3550
0.1422 -0.7846 0.3550
0.2118 -0.7691 0.3552
0.2798 -0.7476 0.3554
0.3458 -0.7203 0.3557
0.4091 -0.6873 0.3561
0.4695 -0.6489 0.3566
0.5264 -0.6053 0.3571
0.5793 -0.5568 0.3577
0.6279 -0.5038 0.3584
0.6718 -0.4466 0.3592
0.7105 -0.3857 0.3600
0.7439 -0.3215 0.3608
0.7716 -0.2544 0.3617
0.7932 -0.1850 0.3626
0.8087 -0.1137 0.3636
0.8179 -0.0412 0.3646
0.8205 0.0321 0.3656
0.8166 0.1056 0.3666
0.8061 0.1785 0.3676
0.7891 0.2505 0.3686
0.7656 0.3208 0.3696
0.7358 0.3889 0.3706
0.6999 0.4542 0.3715
0.6581 0.5161 0.3724
0.6599 0.4900 0.3720
0.6149 0.5482 0.3729
0.5647 0.6021 0.3736
0.5096 0.6514 0.3744
0.4502 0.6956 0.3750
0.3869 0.7341 0.3756
0.3202 0.7668 0.3761
0.2508 0.7932 0.3765
0.1791 0.8132 0.3769
0.1059 0.8265 0.3771
0.0316 0.8330 0.3773
-0.0429 0.8326 0.3774
-0.1170 0.8254 0.3773
-0.1902 0.8114 0.3772
-0.2617 0.7907 0.3770
-0.3310 0.7635 0.3767
-0.3975 0.7301 0.3763
-0.4605 0.6908 0.3758
-0.5196 0.6460 0.3752
-0.5742 0.5960 0.3746
-0.6240 0.5413 0.3739
-0.6684 0.4825 0.3731
-0.7073 0.4199 0.3723
-0.7402 0.3543 0.3714
-0.7670 0.2861 0.3705
-0.7875 0.2159 0.3696
-0.8015 0.1443 0.3686
-0.8090 0.0720 0.3676
-0.8100 -0.0006 0.3666
-0.8046 -0.0727 0.3657
-0.7927 -0.1439 0.3647
-0.7746 -0.2135 0.3637
-0.7505 -0.2811 0.3627
-0.7206 -0.3461 0.3618
-0.6851 -0.4081 0.3609
-0.6445 -0.4665 0.3601
-0.5989 -0.5211 0.3593
-0.5489 -0.5713 0.3586
-0.4947 -0.6169 0.3579
-0.4369 -0.6574 0.3573
-0.3759 -0.6928 0.3568
-0.3121 -0.7226 0.3563
-0.2461 -0.7468 0.3559
