ply
format ascii 1.0
element vertex 2176
property float32 x
property float32 y
property float32 z
end_header
0.5015 1.3737 0.3870
0.3774 1.4153 0.3877
0.2499 1.4451 0.3881
0.1199 1.4626 0.3884
-0.0112 1.4678 0.3885
-0.1422 1.4605 0.3883
-0.2718 1.4408 0.3880
-0.3988 1.4090 0.3875
-0.5221 1.3654 0.3869
-0.6406 1.3104 0.3860
-0.7530 1.2447 0.3850
-0.8586 1.1689 0.3838
-0.9562 1.0839 0.3825
-1.0452 0.9904 0.3811
-5.2407 4.1439 1.7681
-5.5666 3.6443 1.7608
-5.8441 3.1190 1.7531
-6.0715 2.5729 1.7451
-6.2473 2.0110 1.7369
-6.3710 1.4381 1.7285
-6.4422 0.8592 1.7200
-6.4611 0.2792 1.7115
-6.4283 -0.2974 1.7031
-6.3449 -0.8659 1.6948
-6.2122 -1.4222 1.6866
-6.0320 -1.9619 1.6787
-5.8062 -2.4814 1.6711
-5.5373 -2.9769 1.6638
-5.2277 -3.4452 1.6569
-1.0439 -0.8306 0.3531
-0.9619 -0.9171 0.3517
-0.8732 -0.9959 0.3505
-0.7784 -1.0666 0.3494
-0.6782 -1.1287 0.3485
-0.5733 -1.1820 0.3477
-0.4646 -1.2261 0.3470
-0.3527 -1.2607 0.3465
-0.2385 -1.2858 0.3461
-0.1226 -1.3010 0.3458
-0.0060 -1.3065 0.3458
0.1107 -1.3021 0.3458
0.2267 -1.2878 0.3461
0.3412 -1.2638 0.3464
0.4533 -1.2301 0.3470
0.5624 -1.1870 0.3476
0.6677 -1.1347 0.3484
0.7685 -1.0734 0.3494
0.8639 -1.0036 0.3504
0.9533 -0.9256 0.3517
1.0360 -0.8399 0.3530
5.6570 -3.8028 1.8039
5.9986 -3.2959 1.8114
6.2961 -2.7590 1.8192
6.5469 -2.1957 1.8275
6.7483 -1.6099 1.8361
6.8982 -1.0057 1.8449
6.9946 -0.3876 1.8540
7.0360 0.2397 1.8632
7.0212 0.8713 1.8724
6.9495 1.5022 1.8817
6.8206 2.1270 1.8908
6.6349 2.7405 1.8998
6.3930 3.3373 1.9086
6.0962 3.9120 1.9170
5.7465 4.4593 1.9250
1.0540 0.9806 0.3810
0.9659 1.0749 0.3824
0.8690 1.1608 0.3838
0.7642 1.2376 0.3849
0.6524 1.3043 0.3860
0.5345 1.3604 0.3868
0.4116 1.4052 0.3875
0.2849 1.4382 0.3880
0.5530 1.3114 0.3861
0.4345 1.3581 0.3868
0.3119 1.3934 0.3873
0.1864 1.4170 0.3877
0.0592 1.4287 0.3879
-0.0686 1.4282 0.3878
-0.1958 1.4156 0.3877
-0.3211 1.3911 0.3873
-0.4434 1.3549 0.3867
-0.5615 1.3075 0.3860
-0.6744 1.2492 0.3851
-0.7811 1.1807 0.3840
-0.8807 1.1028 0.3828
-0.9722 1.0162 0.3815
-1.0551 0.9218 0.3800
-5.2582 3.8231 1.7634
-5.5554 3.3245 1.7561
-5.8047 2.8029 1.7485
-6.0045 2.2631 1.7406
-6.1539 1.7099 1.7325
-6.2521 1.1481 1.7243
-6.2992 0.5825 1.7160
-6.2956 0.0176 1.7077
-6.2419 -0.5420 1.6995
-6.1393 -1.0920 1.6914
-5.9893 -1.6282 1.6836
-5.7937 -2.1468 1.6760
-5.5546 -2.6440 1.6687
-5.2743 -3.1164 1.6618
-1.0602 -0.7618 0.3541
-0.9841 -0.8502 0.3528
-0.9011 -0.9314 0.3515
-0.8117 -1.0049 0.3504
-0.7167 -1.0702 0.3494
-0.6167 -1.1271 0.3485
-0.5125 -1.1752 0.3478
-0.4048 -1.2142 0.3472
-0.2944 -1.2439 0.3467
-0.1820 -1.2641 0.3464
-0.0684 -1.2747 0.3463
0.0457 -1.2756 0.3462
0.1595 -1.2670 0.3464
0.2722 -1.2487 0.3467
0.3831 -1.2209 0.3471
0.4914 -1.1838 0.3477
0.5964 -1.1375 0.3484
0.6973 -1.0823 0.3492
0.7933 -1.0186 0.3502
0.8839 -0.9467 0.3513
0.9683 -0.8670 0.3526
1.0458 -0.7800 0.3539
5.6789 -3.4930 1.8085
5.9927 -2.9842 1.8159
6.2622 -2.4477 1.8238
6.4848 -1.8872 1.8320
6.6582 -1.3067 1.8405
6.7803 -0.7103 1.8492
6.8495 -0.1025 1.8581
6.8644 0.5120 1.8672
6.8241 1.1283 1.8762
6.7282 1.7414 1.8852
6.5766 2.3462 1.8940
6.3698 2.9375 1.9027
6.1089 3.5099 1.9111
5.7954 4.0588 1.9191
1.0706 0.9023 0.3798
0.9895 0.9982 0.3813
0.8996 1.0864 0.3826
0.8016 1.1661 0.3838
0.6962 1.2365 0.3849
0.5844 1.2968 0.3858
0.4672 1.3465 0.3866
0.3457 1.3849 0.3872
0.2208 1.4118 0.3876
0.0940 1.4267 0.3878
-0.0338 1.4295 0.3879
-0.1613 1.4203 0.3877
-0.2872 1.3990 0.3874
-0.4104 1.3659 0.3869
-0.5298 1.3215 0.3862
-0.6443 1.2661 0.3853
-0.7528 1.2003 0.3843
-0.8543 1.1249 0.3832
-0.9481 1.0406 0.3819
-1.0334 0.9482 0.3804
-5.1691 3.9543 1.7654
-5.4791 3.4628 1.7582
-5.7417 2.9470 1.7506
-5.9551 2.4117 1.7428
-6.1182 1.8617 1.7347
-6.2304 1.3017 1.7265
-6.2914 0.7367 1.7182
-6.3015 0.1711 1.7099
-6.2614 -0.3904 1.7017
-6.1720 -0.9434 1.6936
-6.0347 -1.4838 1.6857
-5.8514 -2.0075 1.6780
-5.6239 -2.5109 1.6706
-5.3546 -2.9904 1.6636
-1.0796 -0.7366 0.3545
-1.0056 -0.8268 0.3531
-0.9244 -0.9100 0.3518
-0.8366 -0.9856 0.3507
-0.7431 -1.0533 0.3496
-0.6444 -1.1125 0.3487
-0.5413 -1.1630 0.3480
-0.4345 -1.2045 0.3473
-0.3247 -1.2367 0.3468
-0.2128 -1.2595 0.3465
-0.0994 -1.2727 0.3463
0.0146 -1.2763 0.3462
0.1286 -1.2703 0.3463
0.2417 -1.2546 0.3466
0.3531 -1.2294 0.3470
0.4622 -1.1948 0.3475
0.5682 -1.1510 0.3482
0.6702 -1.0982 0.3490
0.7677 -1.0368 0.3499
0.8598 -0.9671 0.3510
0.9460 -0.8895 0.3522
1.0254 -0.8044 0.3535
5.5861 -3.6263 1.8065
5.9115 -3.1257 1.8139
6.1933 -2.5964 1.8216
6.4290 -2.0421 1.8297
6.6160 -1.4666 1.8382
6.7522 -0.8741 1.8468
6.8360 -0.2689 1.8557
6.8657 0.3442 1.8647
6.8406 0.9605 1.8737
6.7598 1.5750 1.8827
6.6234 2.1826 1.8916
6.4316 2.7781 1.9004
6.1853 3.3562 1.9088
5.8859 3.9117 1.9170
1.0910 0.8750 0.3794
1.0125 0.9728 0.3809
0.9250 1.0632 0.3823
0.8291 1.1453 0.3835
0.7256 1.2183 0.3846
0.6155 1.2814 0.3856
0.4996 1.3341 0.3864
0.3791 1.3756 0.3871
0.2551 1.4056 0.3875
0.1287 1.4238 0.3878
0.0010 1.4299 0.3879
-0.1266 1.4240 0.3878
-0.2531 1.4060 0.3875
-0.3772 1.3761 0.3870
-0.4977 1.3347 0.3864
-0.6136 1.2822 0.3856
-0.7238 1.2192 0.3846
-0.8274 1.1464 0.3835
-0.9234 1.0644 0.3822
-1.0111 0.9741 0.3808
-1.0897 0.8765 0.3793
-5.3993 3.5993 1.7602
-5.6750 3.0897 1.7527
-5.9019 2.5592 1.7449
-6.0788 2.0127 1.7369
-6.2049 1.4550 1.7288
-6.2799 0.8908 1.7205
-6.3038 0.3250 1.7122
-6.2773 -0.2381 1.7040
-6.2011 -0.7938 1.6958
-6.0768 -1.3380 1.6878
-5.9058 -1.8667 1.6801
-5.6901 -2.3760 1.6726
-5.4320 -2.8623 1.6655
-1.0984 -0.7109 0.3549
-1.0265 -0.8029 0.3535
-0.9471 -0.8880 0.3522
-0.8611 -0.9658 0.3510
-0.7691 -1.0356 0.3499
-0.6717 -1.0972 0.3490
-0.5698 -1.1501 0.3482
-0.4639 -1.1941 0.3475
-0.3549 -1.2289 0.3470
-0.2434 -1.2542 0.3466
-0.1304 -1.2701 0.3463
-0.0164 -1.2763 0.3462
0.0976 -1.2729 0.3463
0.2110 -1.2598 0.3465
0.3230 -1.2372 0.3468
0.4328 -1.2051 0.3473
0.5396 -1.1638 0.3480
0.6428 -1.1135 0.3488
0.7416 -1.0544 0.3497
0.8353 -0.9869 0.3507
0.9231 -0.9114 0.3519
1.0045 -0.8283 0.3532
1.0786 -0.7382 0.3545
5.8270 -3.2651 1.8118
6.1210 -2.7432 1.8195
6.3695 -2.1954 1.8275
6.5700 -1.6252 1.8358
6.7202 -1.0369 1.8445
6.8184 -0.4348 1.8533
6.8631 0.1766 1.8622
6.8529 0.7926 1.8713
6.7873 1.4081 1.8803
6.6660 2.0181 1.8892
6.4892 2.6173 1.8980
6.2577 3.2007 1.9066
5.9726 3.7629 1.9148
5.6358 4.2987 1.9227
1.0348 0.9468 0.3805
0.9497 1.0393 0.3819
0.8560 1.1238 0.3832
0.7545 1.1993 0.3843
0.6461 1.2652 0.3854
0.5317 1.3208 0.3862
0.4124 1.3654 0.3869
0.2892 1.3986 0.3874
0.1633 1.4200 0.3877
0.0358 1.4295 0.3879
-0.0919 1.4268 0.3878
-0.2188 1.4121 0.3876
-0.3437 1.3854 0.3872
-0.4653 1.3471 0.3866
-0.5826 1.2976 0.3858
-0.6944 1.2374 0.3849
-0.7999 1.1672 0.3838
-0.8980 1.0876 0.3826
-0.9880 0.9995 0.3812
-1.0692 0.9038 0.3798
-5.3160 3.7339 1.7621
-5.6046 3.2308 1.7548
-5.8450 2.7055 1.7471
-6.0356 2.1629 1.7391
-6.1756 1.6078 1.7310
-6.2645 1.0449 1.7228
-6.3023 0.4790 1.7145
-6.2894 -0.0852 1.7062
-6.2267 -0.6434 1.6980
-6.1153 -1.1912 1.6900
-5.9569 -1.7245 1.6822
-5.7532 -2.2394 1.6746
-5.5064 -2.7323 1.6674
-5.2188 -3.1999 1.6605
-1.0468 -0.7785 0.3539
-0.9694 -0.8656 0.3525
-0.8852 -0.9454 0.3513
-0.7947 -1.0174 0.3502
-0.6987 -1.0813 0.3492
-0.5980 -1.1366 0.3484
-0.4931 -1.1830 0.3477
-0.3848 -1.2203 0.3471
-0.2740 -1.2483 0.3467
-0.1613 -1.2667 0.3464
-0.0475 -1.2756 0.3462
0.0666 -1.2748 0.3463
0.1802 -1.2643 0.3464
0.2927 -1.2443 0.3467
0.4031 -1.2148 0.3472
0.5109 -1.1760 0.3478
0.6151 -1.1281 0.3485
0.7152 -1.0713 0.3494
0.8103 -1.0061 0.3504
0.8998 -0.9327 0.3515
0.9830 -0.8516 0.3528
1.0592 -0.7634 0.3542
5.7394 -3.4022 1.8098
6.0453 -2.8881 1.8173
6.3065 -2.3470 1.8253
6.5202 -1.7825 1.8335
6.6844 -1.1987 1.8421
6.7969 -0.5999 1.8509
6.8563 0.0094 1.8598
6.8612 0.6246 1.8688
6.8107 1.2407 1.8778
6.7046 1.8527 1.8868
6.5429 2.4554 1.8956
6.3261 3.0436 1.9043
6.0555 3.6121 1.9126
5.7325 4.1556 1.9206
1.0565 0.9204 0.3801
0.9738 1.0149 0.3815
0.8823 1.1016 0.3828
0.7829 1.1797 0.3840
0.6763 1.2483 0.3851
0.5634 1.3067 0.3860
0.4453 1.3544 0.3867
0.3231 1.3907 0.3873
0.1978 1.4154 0.3877
0.0706 1.4281 0.3879
-0.0572 1.4287 0.3879
-0.1844 1.4173 0.3877
-0.3099 1.3938 0.3873
-0.4326 1.3587 0.3868
-0.5511 1.3122 0.3861
-0.6646 1.2548 0.3852
-0.7719 1.1873 0.3841
-0.8721 1.1101 0.3829
-0.9644 1.0243 0.3816
-1.0480 0.9305 0.3802
-5.2292 3.8665 1.7641
-5.5307 3.3702 1.7568
-5.7844 2.8505 1.7492
-5.9887 2.3121 1.7413
-6.1426 1.7600 1.7332
-6.2454 1.1987 1.7250
-6.2971 0.6332 1.7167
-6.2979 0.0681 1.7084
-6.2487 -0.4922 1.7002
-6.1504 -1.0432 1.6921
-6.0046 -1.5808 1.6843
-5.8130 -2.1011 1.6766
-5.5777 -2.6004 1.6693
-5.3011 -3.0752 1.6624
-1.0666 -0.7536 0.3542
-0.9912 -0.8425 0.3529
-0.9088 -0.9244 0.3516
-0.8200 -0.9986 0.3505
-0.7254 -1.0647 0.3495
-0.6258 -1.1224 0.3486
-0.5220 -1.1713 0.3478
-0.4146 -1.2111 0.3472
-0.3044 -1.2416 0.3468
-0.1921 -1.2626 0.3464
-0.0786 -1.2741 0.3463
0.0355 -1.2759 0.3462
0.1493 -1.2681 0.3464
0.2622 -1.2507 0.3466
0.3733 -1.2238 0.3470
0.4818 -1.1875 0.3476
0.5871 -1.1420 0.3483
0.6884 -1.0876 0.3492
0.7849 -1.0247 0.3501
0.8760 -0.9535 0.3512
0.9610 -0.8745 0.3524
1.0392 -0.7881 0.3538
5.6487 -3.5373 1.8078
5.9663 -3.0310 1.8152
6.2399 -2.4969 1.8231
6.4668 -1.9384 1.8313
6.6447 -1.3595 1.8397
6.7715 -0.7643 1.8485
6.8455 -0.1574 1.8573
6.8653 0.4567 1.8663
6.8300 1.0731 1.8754
6.7390 1.6867 1.8844
6.5924 2.2925 1.8932
6.3906 2.8852 1.9019
6.1345 3.4595 1.9104
5.8256 4.0103 1.9184
1.0774 0.8934 0.3796
0.9972 0.9899 0.3811
0.9081 1.0788 0.3825
0.8107 1.1593 0.3837
0.7060 1.2306 0.3848
0.5947 1.2919 0.3858
0.4779 1.3425 0.3865
0.3567 1.3820 0.3871
0.2321 1.4098 0.3876
0.1054 1.4258 0.3878
-0.0224 1.4298 0.3879
-0.1499 1.4216 0.3877
-0.2760 1.4014 0.3874
-0.3995 1.3694 0.3869
-0.5193 1.3259 0.3863
-0.6342 1.2715 0.3854
-0.7433 1.2066 0.3844
-0.8455 1.1321 0.3833
-0.9401 1.0485 0.3820
-1.0261 0.9568 0.3806
-5.1391 3.9971 1.7660
-5.4532 3.5080 1.7588
-5.7201 2.9941 1.7513
-5.9380 2.4604 1.7435
-6.1057 1.9115 1.7354
-6.2224 1.3522 1.7273
-6.2881 0.7874 1.7190
-6.3027 0.2217 1.7107
-6.2670 -0.3403 1.7025
-6.1820 -0.8943 1.6943
-6.0489 -1.4359 1.6864
-5.8696 -1.9613 1.6787
-5.6460 -2.4667 1.6713
-5.3804 -2.9485 1.6642
-1.0859 -0.7282 0.3546
-1.0125 -0.8190 0.3532
-0.9319 -0.9028 0.3520
-0.8447 -0.9792 0.3508
-0.7517 -1.0475 0.3497
-0.6534 -1.1075 0.3488
-0.5507 -1.1588 0.3480
-0.4442 -1.2011 0.3474
-0.3347 -1.2342 0.3469
-0.2229 -1.2579 0.3465
-0.1096 -1.2719 0.3463
0.0044 -1.2764 0.3462
0.1184 -1.2712 0.3463
0.2316 -1.2564 0.3465
0.3432 -1.2320 0.3469
0.4525 -1.1983 0.3474
0.5588 -1.1553 0.3481
0.6612 -1.1033 0.3489
0.7592 -1.0427 0.3498
0.8518 -0.9737 0.3509
0.9385 -0.8967 0.3521
1.0186 -0.8123 0.3534
5.5549 -3.6697 1.8059
5.8840 -3.1718 1.8132
6.1699 -2.6449 1.8209
6.4098 -2.0927 1.8290
6.6012 -1.5189 1.8374
6.7421 -0.9278 1.8461
6.8307 -0.3236 1.8549
6.8653 0.2890 1.8639
6.8451 0.9053 1.8729
6.7693 1.5201 1.8819
6.6379 2.1286 1.8908
6.4510 2.7253 1.8996
6.2095 3.3052 1.9081
5.9148 3.8629 1.9163
5.5688 4.3934 1.9240
1.0199 0.9643 0.3807
0.9332 1.0554 0.3821
0.8380 1.1383 0.3834
0.7352 1.2121 0.3845
0.6256 1.2762 0.3855
0.5102 1.3298 0.3863
0.3901 1.3723 0.3870
0.2663 1.4034 0.3875
0.1401 1.4227 0.3878
0.0125 1.4299 0.3879
-0.1152 1.4250 0.3878
-0.2418 1.4081 0.3875
-0.3662 1.3792 0.3871
-0.4871 1.3389 0.3865
-0.6035 1.2874 0.3857
-0.7142 1.2253 0.3847
-0.8184 1.1533 0.3836
-0.9151 1.0721 0.3823
-1.0036 0.9825 0.3810
-1.0830 0.8855 0.3795
-5.3723 3.6438 1.7608
-5.6522 3.1363 1.7534
-5.8836 2.6075 1.7456
-6.0650 2.0622 1.7377
-6.1957 1.5053 1.7295
-6.2752 0.9416 1.7212
-6.3037 0.3756 1.7129
-6.2817 -0.1878 1.7047
-6.2100 -0.7444 1.6965
-6.0898 -1.2898 1.6885
-5.9230 -1.8200 1.6808
-5.7112 -2.3312 1.6733
-5.4568 -2.8197 1.6661
-1.1045 -0.7023 0.3550
-1.0332 -0.7949 0.3536
-0.9545 -0.8807 0.3523
-0.8691 -0.9591 0.3511
-0.7776 -1.0297 0.3500
-0.6807 -1.0920 0.3490
-0.5791 -1.1458 0.3482
-0.4735 -1.1905 0.3475
-0.3647 -1.2261 0.3470
-0.2535 -1.2523 0.3466
-0.1406 -1.2691 0.3463
-0.0267 -1.2761 0.3462
0.0874 -1.2736 0.3463
0.2009 -1.2614 0.3465
0.3130 -1.2396 0.3468
0.4230 -1.2084 0.3473
0.5302 -1.1679 0.3479
0.6338 -1.1183 0.3487
0.7330 -1.0600 0.3496
0.8271 -0.9933 0.3506
0.9155 -0.9184 0.3518
0.9975 -0.8360 0.3530
1.0723 -0.7465 0.3544
5.7985 -3.3104 1.8112
6.0965 -2.7911 1.8188
6.3491 -2.2455 1.8268
6.5540 -1.6771 1.8351
6.7089 -1.0903 1.8437
6.8118 -0.4892 1.8525
6.8613 0.1216 1.8614
6.8561 0.7373 1.8705
6.7955 1.3530 1.8795
6.6792 1.9638 1.8884
6.5073 2.5642 1.8972
6.2807 3.1492 1.9058
6.0003 3.7135 1.9141
5.6680 4.2519 1.9220
1.0420 0.9382 0.3803
0.9577 1.0314 0.3818
0.8647 1.1166 0.3831
0.7639 1.1930 0.3842
0.6561 1.2598 0.3853
0.5422 1.3163 0.3861
0.4232 1.3619 0.3868
0.3004 1.3961 0.3874
0.1746 1.4186 0.3877
0.0473 1.4291 0.3879
-0.0805 1.4275 0.3878
-0.2075 1.4139 0.3876
-0.3326 1.3883 0.3872
-0.4546 1.3510 0.3867
-0.5723 1.3025 0.3859
-0.6847 1.2432 0.3850
-0.7907 1.1739 0.3839
-0.8896 1.0951 0.3827
-0.9803 1.0077 0.3814
-1.0623 0.9126 0.3799
-5.2878 3.7778 1.7628
-5.5807 3.2769 1.7554
-5.8254 2.7534 1.7478
-6.0206 2.2121 1.7399
-6.1652 1.6579 1.7317
-6.2587 1.0956 1.7235
-6.3010 0.5298 1.7152
-6.2927 -0.0348 1.7069
-6.2343 -0.5937 1.6987
-6.1273 -1.1426 1.6907
-5.9730 -1.6773 1.6829
-5.7732 -2.1941 1.6753
-5.5302 -2.6891 1.6680
-5.2462 -3.1591 1.6611
-1.0534 -0.7703 0.3540
-0.9767 -0.8580 0.3526
-0.8930 -0.9385 0.3514
-0.8031 -1.0113 0.3503
-0.7076 -1.0759 0.3493
-0.6072 -1.1320 0.3484
-0.5026 -1.1792 0.3477
-0.3946 -1.2174 0.3471
-0.2840 -1.2461 0.3467
-0.1715 -1.2655 0.3464
-0.0578 -1.2752 0.3462
0.0563 -1.2752 0.3462
0.1701 -1.2657 0.3464
0.2826 -1.2465 0.3467
0.3933 -1.2178 0.3471
0.5013 -1.1798 0.3477
0.6059 -1.1327 0.3485
0.7064 -1.0768 0.3493
0.8020 -1.0123 0.3503
0.8920 -0.9396 0.3514
0.9758 -0.8592 0.3527
1.0526 -0.7716 0.3540
5.7099 -3.4469 1.8092
6.0197 -2.9354 1.8166
6.2849 -2.3965 1.8245
6.5031 -1.8340 1.8328
6.6718 -1.2518 1.8413
6.7890 -0.6541 1.8501
6.8532 -0.0455 1.8590
6.8630 0.5693 1.8680
6.8175 1.1856 1.8770
6.7164 1.7982 1.8860
6.5596 2.4019 1.8949
6.3478 2.9916 1.9035
6.0819 3.5621 1.9119
5.7636 4.1081 1.9199
1.0634 0.9115 0.3799
0.9815 1.0067 0.3814
0.8909 1.0942 0.3827
0.7921 1.1731 0.3839
0.6861 1.2425 0.3850
0.5737 1.3019 0.3859
0.4561 1.3506 0.3867
0.3342 1.3879 0.3872
0.2091 1.4137 0.3876
0.0821 1.4275 0.3878
-0.0457 1.4292 0.3879
-0.1731 1.4188 0.3877
-0.2988 1.3964 0.3874
-0.4217 1.3623 0.3868
-0.5407 1.3168 0.3861
-0.6546 1.2604 0.3853
-0.7625 1.1937 0.3842
-0.8634 1.1174 0.3830
-0.9564 1.0323 0.3817
-1.0409 0.9392 0.3803
-5.1999 3.9098 1.7647
-5.5056 3.4157 1.7575
-5.7636 2.8979 1.7499
-5.9724 2.3610 1.7420
-6.1308 1.8099 1.7340
-6.2383 1.2493 1.7257
-6.2945 0.6840 1.7175
-6.2999 0.1186 1.7092
-6.2551 -0.4423 1.7010
-6.1612 -0.9943 1.6929
-6.0196 -1.5333 1.6850
-5.8320 -2.0553 1.6773
-5.6005 -2.5566 1.6700
-5.3275 -3.0337 1.6630
-1.0730 -0.7453 0.3544
-0.9983 -0.8348 0.3530
-0.9165 -0.9173 0.3517
-0.8282 -0.9923 0.3506
-0.7341 -1.0591 0.3496
-0.6350 -1.1176 0.3487
-0.5315 -1.1673 0.3479
-0.4244 -1.2079 0.3473
-0.3144 -1.2392 0.3468
-0.2023 -1.2611 0.3465
-0.0888 -1.2735 0.3463
0.0253 -1.2762 0.3462
0.1392 -1.2692 0.3463
0.2521 -1.2527 0.3466
0.3634 -1.2266 0.3470
0.4722 -1.1911 0.3476
0.5778 -1.1465 0.3482
0.6795 -1.0929 0.3491
0.7765 -1.0307 0.3500
0.8681 -0.9602 0.3511
0.9537 -0.8818 0.3523
1.0324 -0.7961 0.3536
5.6182 -3.5810 1.8072
5.9396 -3.0776 1.8146
6.2173 -2.5458 1.8224
6.4485 -1.9893 1.8305
6.6308 -1.4121 1.8390
6.7623 -0.8182 1.8477
6.8410 -0.2121 1.8565
6.8657 0.4015 1.8655
6.8354 1.0179 1.8746
6.7495 1.6319 1.8836
6.6078 2.2386 1.8925
6.4109 2.8327 1.9012
6.1596 3.4089 1.9096
5.8554 3.9620 1.9177
1.0841 0.8844 0.3795
1.0047 0.9815 0.3810
0.9164 1.0712 0.3824
0.8198 1.1525 0.3836
0.7156 1.2246 0.3847
0.6049 1.2868 0.3857
0.4886 1.3384 0.3865
0.3677 1.3789 0.3871
0.2434 1.4078 0.3875
0.1168 1.4249 0.3878
-0.0109 1.4299 0.3879
-0.1385 1.4228 0.3878
-0.2648 1.4037 0.3875
-0.3886 1.3727 0.3870
-0.5087 1.3303 0.3863
-0.6241 1.2768 0.3855
-0.7338 1.2129 0.3845
-0.8367 1.1391 0.3834
-0.9319 1.0563 0.3821
-1.0188 0.9653 0.3807
-5.1087 4.0396 1.7666
-5.4270 3.5529 1.7595
-5.6982 3.0411 1.7520
-5.9205 2.5089 1.7442
-6.0927 1.9612 1.7362
-6.2141 1.4027 1.7280
-6.2843 0.8382 1.7197
-6.3035 0.2723 1.7114
-6.2722 -0.2902 1.7032
-6.1916 -0.8450 1.6951
-6.0628 -1.3880 1.6871
-5.8876 -1.9150 1.6794
-5.6678 -2.4223 1.6719
-5.4059 -2.9063 1.6648
-1.0921 -0.7197 0.3548
-1.0194 -0.8111 0.3534
-0.9394 -0.8956 0.3521
-0.8528 -0.9726 0.3509
-0.7603 -1.0417 0.3498
-0.6624 -1.1025 0.3489
-0.5600 -1.1546 0.3481
-0.4539 -1.1977 0.3474
-0.3446 -1.2316 0.3469
-0.2330 -1.2561 0.3465
-0.1198 -1.2711 0.3463
-0.0058 -1.2764 0.3462
0.1082 -1.2721 0.3463
0.2215 -1.2581 0.3465
0.3333 -1.2346 0.3469
0.4429 -1.2017 0.3474
0.5494 -1.1595 0.3480
0.6522 -1.1083 0.3488
0.7506 -1.0484 0.3498
0.8437 -0.9802 0.3508
0.9310 -0.9039 0.3520
1.0117 -0.8202 0.3533
5.5233 -3.7127 1.8053
5.8563 -3.2177 1.8125
6.1461 -2.6933 1.8202
6.3902 -2.1432 1.8283
6.5861 -1.5712 1.8366
6.7316 -0.9814 1.8453
6.8249 -0.3782 1.8541
6.8644 0.2339 1.8631
6.8492 0.8500 1.8721
6.7784 1.4652 1.8811
6.6519 2.0744 1.8901
6.4700 2.6724 1.8988
6.2334 3.2540 1.9073
5.9434 3.8139 1.9156
5.6019 4.3471 1.9234
1.0273 0.9558 0.3806
0.9413 1.0475 0.3820
0.8469 1.1312 0.3833
0.7447 1.2059 0.3844
0.6357 1.2709 0.3854
0.5208 1.3254 0.3863
0.4010 1.3690 0.3869
0.2776 1.4011 0.3874
0.5391 1.2785 0.3856
0.4236 1.3239 0.3863
0.3041 1.3583 0.3868
0.1817 1.3813 0.3871
0.0577 1.3926 0.3873
-0.0669 1.3921 0.3873
-0.1908 1.3799 0.3871
-0.3130 1.3561 0.3867
-0.4322 1.3209 0.3862
-0.5474 1.2746 0.3855
-0.6575 1.2179 0.3846
-0.7616 1.1512 0.3836
-0.8587 1.0753 0.3824
-0.9481 0.9910 0.3811
-1.0290 0.8990 0.3797
-5.1288 3.7291 1.7621
-5.4193 3.2431 1.7549
-5.6631 2.7345 1.7475
-5.8587 2.2081 1.7398
-6.0050 1.6686 1.7319
-6.1016 1.1205 1.7239
-6.1483 0.5685 1.7158
-6.1455 0.0172 1.7077
-6.0937 -0.5292 1.6997
-5.9942 -1.0662 1.6918
-5.8484 -1.5900 1.6841
-5.6580 -2.0966 1.6767
-5.4251 -2.5824 1.6696
-1.1024 -0.6514 0.3558
-1.0357 -0.7442 0.3544
-0.9615 -0.8306 0.3531
-0.8804 -0.9100 0.3518
-0.7932 -0.9819 0.3507
-0.7003 -1.0459 0.3498
-0.6027 -1.1015 0.3489
-0.5009 -1.1486 0.3482
-0.3957 -1.1867 0.3476
-0.2877 -1.2157 0.3472
-0.1779 -1.2355 0.3469
-0.0668 -1.2459 0.3467
0.0447 -1.2468 0.3467
0.1559 -1.2383 0.3468
0.2661 -1.2204 0.3471
0.3744 -1.1933 0.3475
0.4803 -1.1569 0.3481
0.5828 -1.1116 0.3488
0.6814 -1.0577 0.3496
0.7752 -0.9953 0.3506
0.8637 -0.9250 0.3517
0.9460 -0.8471 0.3529
1.0217 -0.7620 0.3542
5.5472 -3.4119 1.8097
5.8531 -2.9147 1.8170
6.1157 -2.3905 1.8246
6.3325 -1.8429 1.8327
6.5011 -1.2759 1.8410
6.6196 -0.6935 1.8495
6.6863 -0.1001 1.8582
6.7001 0.4997 1.8670
6.6600 1.1012 1.8758
6.5656 1.6994 1.8846
6.4170 2.2893 1.8932
6.2145 2.8659 1.9017
5.9593 3.4240 1.9098
5.6529 3.9586 1.9177
1.0441 0.8800 0.3794
0.9650 0.9734 0.3809
0.8772 1.0593 0.3822
0.7816 1.1370 0.3834
0.6788 1.2055 0.3844
0.5698 1.2643 0.3853
0.4555 1.3126 0.3861
0.3370 1.3500 0.3867
0.2153 1.3762 0.3871
0.0916 1.3907 0.3873
-0.0330 1.3934 0.3873
-0.1572 1.3844 0.3872
-0.2800 1.3637 0.3869
-0.4001 1.3316 0.3864
-0.5165 1.2883 0.3857
-0.6281 1.2343 0.3849
-0.7339 1.1703 0.3839
-0.8330 1.0969 0.3827
-0.9246 1.0147 0.3815
-1.0078 0.9247 0.3801
-1.0821 0.8278 0.3786
-5.3447 3.3779 1.7569
-5.6014 2.8750 1.7496
-5.8102 2.3530 1.7419
-5.9701 1.8166 1.7341
-6.0803 1.2704 1.7261
-6.1405 0.7190 1.7180
-6.1511 0.1670 1.7099
-6.1126 -0.3811 1.7019
-6.0260 -0.9211 1.6939
-5.8927 -1.4488 1.6862
-5.7142 -1.9605 1.6787
-5.4926 -2.4523 1.6715
-5.2301 -2.9209 1.6646
-1.0546 -0.7196 0.3548
-0.9824 -0.8078 0.3534
-0.9031 -0.8891 0.3522
-0.8175 -0.9631 0.3510
-0.7261 -1.0292 0.3500
-0.6297 -1.0872 0.3491
-0.5290 -1.1366 0.3484
-0.4246 -1.1772 0.3477
-0.3174 -1.2087 0.3473
-0.2080 -1.2310 0.3469
-0.0972 -1.2440 0.3467
0.0143 -1.2475 0.3467
0.1257 -1.2416 0.3468
0.2362 -1.2262 0.3470
0.3451 -1.2016 0.3474
0.4517 -1.1677 0.3479
0.5552 -1.1249 0.3486
0.6550 -1.0732 0.3494
0.7502 -1.0131 0.3503
0.8402 -0.9449 0.3514
0.9242 -0.8690 0.3525
1.0018 -0.7859 0.3538
1.0721 -0.6960 0.3552
5.7740 -3.0529 1.8149
6.0486 -2.5357 1.8225
6.2781 -1.9942 1.8304
6.4600 -1.4320 1.8387
6.5923 -0.8534 1.8471
6.6733 -0.2626 1.8558
6.7017 0.3360 1.8646
6.6763 0.9374 1.8734
6.5967 1.5370 1.8822
6.4628 2.1297 1.8909
6.2750 2.7104 1.8994
6.0340 3.2741 1.9076
5.7413 3.8156 1.9156
1.0641 0.8534 0.3790
0.9874 0.9487 0.3805
0.9020 1.0367 0.3818
0.8084 1.1167 0.3831
0.7075 1.1878 0.3842
0.6000 1.2493 0.3851
0.4871 1.3005 0.3859
0.3696 1.3410 0.3865
0.2487 1.3702 0.3870
0.1254 1.3879 0.3872
0.0010 1.3939 0.3873
-0.1235 1.3880 0.3872
-0.2467 1.3705 0.3870
-0.3677 1.3414 0.3865
-0.4852 1.3011 0.3859
-0.5982 1.2501 0.3851
-0.7057 1.1887 0.3841
-0.8067 1.1178 0.3831
-0.9004 1.0379 0.3818
-0.9860 0.9500 0.3805
-1.0628 0.8548 0.3790
-5.2667 3.5109 1.7589
-5.5362 3.0141 1.7516
-5.7582 2.4969 1.7440
-5.9315 1.9639 1.7362
-6.0552 1.4199 1.7282
-6.1291 0.8694 1.7202
-6.1531 0.3172 1.7121
-6.1279 -0.2324 1.7040
-6.0543 -0.7750 1.6961
-5.9335 -1.3065 1.6883
-5.7672 -1.8229 1.6807
-5.5572 -2.3205 1.6734
-5.3056 -2.7957 1.6665
-1.0730 -0.6944 0.3552
-1.0028 -0.7844 0.3538
-0.9254 -0.8677 0.3525
-0.8414 -0.9437 0.3513
-0.7516 -1.0120 0.3503
-0.6564 -1.0722 0.3494
-0.5568 -1.1240 0.3486
-0.4534 -1.1670 0.3479
-0.3468 -1.2011 0.3474
-0.2379 -1.2259 0.3470
-0.1274 -1.2414 0.3468
-0.0161 -1.2475 0.3467
0.0954 -1.2441 0.3467
0.2062 -1.2313 0.3469
0.3157 -1.2092 0.3473
0.4230 -1.1778 0.3478
0.5274 -1.1374 0.3484
0.6282 -1.0881 0.3491
0.7247 -1.0303 0.3500
0.8162 -0.9643 0.3511
0.9020 -0.8904 0.3522
0.9813 -0.8092 0.3534
1.0537 -0.7211 0.3548
5.6916 -3.1892 1.8129
5.9782 -2.6792 1.8204
6.2202 -2.1439 1.8282
6.4153 -1.5870 1.8364
6.5613 -1.0124 1.8448
6.6565 -0.4245 1.8534
6.6992 0.1724 1.8622
6.6886 0.7736 1.8710
6.6238 1.3742 1.8798
6.5047 1.9692 1.8885
6.3314 2.5537 1.8971
6.1048 3.1225 1.9054
5.8261 3.6706 1.9135
1.0834 0.8263 0.3786
1.0092 0.9234 0.3801
0.9261 1.0135 0.3815
0.8346 1.0958 0.3828
0.7356 1.1693 0.3839
0.6299 1.2335 0.3849
0.5183 1.2876 0.3857
0.4020 1.3310 0.3864
0.2819 1.3634 0.3869
0.1592 1.3842 0.3872
0.0349 1.3934 0.3873
-0.0896 1.3908 0.3873
-0.2133 1.3764 0.3870
-0.3350 1.3505 0.3866
-0.4536 1.3132 0.3861
-0.5679 1.2650 0.3853
-0.6770 1.2064 0.3844
-0.7799 1.1380 0.3834
-0.8757 1.0605 0.3822
-0.9635 0.9747 0.3808
-1.0428 0.8814 0.3794
-5.1853 3.6421 1.7608
-5.4674 3.1517 1.7536
-5.7025 2.6395 1.7461
-5.8891 2.1104 1.7384
-6.0264 1.5689 1.7304
-6.1139 1.0198 1.7224
-6.1515 0.4676 1.7143
-6.1396 -0.0832 1.7062
-6.0791 -0.6281 1.6982
-5.9710 -1.1631 1.6904
-5.8169 -1.6839 1.6828
-5.6186 -2.1870 1.6754
-5.3781 -2.6687 1.6683
-1.0908 -0.6688 0.3556
-1.0227 -0.7605 0.3541
-0.9472 -0.8457 0.3528
-0.8649 -0.9237 0.3516
-0.7766 -0.9942 0.3506
-0.6828 -1.0567 0.3496
-0.5844 -1.1108 0.3488
-0.4819 -1.1562 0.3481
-0.3761 -1.1927 0.3475
-0.2678 -1.2200 0.3471
-0.1577 -1.2381 0.3468
-0.0465 -1.2468 0.3467
0.0651 -1.2460 0.3467
0.1761 -1.2358 0.3469
0.2860 -1.2162 0.3472
0.3940 -1.1873 0.3476
0.4993 -1.1493 0.3482
0.6012 -1.1024 0.3489
0.6989 -1.0469 0.3498
0.7918 -0.9831 0.3508
0.8792 -0.9113 0.3519
0.9604 -0.8320 0.3531
1.0347 -0.7458 0.3544
5.6062 -3.3233 1.8110
5.9044 -2.8208 1.8183
6.1588 -2.2920 1.8261
6.3669 -1.7406 1.8342
6.5265 -1.1704 1.8425
6.6357 -0.5857 1.8511
6.6928 0.0092 1.8598
6.6968 0.6097 1.8686
6.6468 1.2109 1.8774
6.5425 1.8079 1.8861
6.3840 2.3958 1.8948
6.1718 2.9694 1.9032
5.9071 3.5236 1.9113
5.5915 4.0534 1.9191
1.0303 0.8976 0.3797
0.9496 0.9897 0.3811
0.8603 1.0742 0.3824
0.7633 1.1502 0.3836
0.6593 1.2170 0.3846
0.5492 1.2739 0.3855
0.4341 1.3203 0.3862
0.3149 1.3557 0.3867
0.1928 1.3797 0.3871
0.0689 1.3921 0.3873
-0.0557 1.3927 0.3873
-0.1798 1.3815 0.3871
-0.3021 1.3587 0.3868
-0.4217 1.3245 0.3862
-0.5373 1.2792 0.3855
-0.6479 1.2234 0.3847
-0.7526 1.1576 0.3837
-0.8503 1.0825 0.3825
-0.9404 0.9988 0.3812
-1.0221 0.9075 0.3798
-5.1005 3.7714 1.7627
-5.3951 3.2876 1.7556
-5.6432 2.7809 1.7482
-5.8431 2.2560 1.7405
-5.9939 1.7174 1.7326
-6.0950 1.1699 1.7246
-6.1462 0.6180 1.7165
-6.1477 0.0664 1.7084
-6.1003 -0.4805 1.7004
-6.0051 -1.0186 1.6925
-5.8633 -1.5437 1.6848
-5.6769 -2.0519 1.6774
-5.4476 -2.5398 1.6702
-5.1779 -3.0037 1.6634
-1.0420 -0.7362 0.3545
-0.9684 -0.8232 0.3532
-0.8880 -0.9032 0.3519
-0.8012 -0.9758 0.3508
-0.7089 -1.0405 0.3498
-0.6116 -1.0969 0.3490
-0.5102 -1.1447 0.3482
-0.4052 -1.1836 0.3476
-0.2975 -1.2135 0.3472
-0.1878 -1.2341 0.3469
-0.0768 -1.2453 0.3467
0.0347 -1.2471 0.3467
0.1460 -1.2395 0.3468
0.2563 -1.2224 0.3471
0.3648 -1.1961 0.3475
0.4709 -1.1605 0.3480
0.5738 -1.1161 0.3487
0.6727 -1.0629 0.3495
0.7670 -1.0013 0.3505
0.8560 -0.9316 0.3516
0.9389 -0.8544 0.3527
1.0152 -0.7699 0.3540
5.5177 -3.4551 1.8090
5.8274 -2.9604 1.8163
6.0940 -2.4385 1.8239
6.3150 -1.8929 1.8319
6.4880 -1.3274 1.8402
6.6110 -0.7462 1.8487
6.6825 -0.1536 1.8574
6.7011 0.4458 1.8662
6.6658 1.0473 1.8750
6.5763 1.6460 1.8838
6.4325 2.2369 1.8924
6.2349 2.8149 1.9009
5.9843 3.3749 1.9091
5.6824 3.9118 1.9170
1.0508 0.8713 0.3793
0.9724 0.9653 0.3808
0.8854 1.0520 0.3821
0.7905 1.1304 0.3833
0.6883 1.1998 0.3844
0.5798 1.2594 0.3853
0.4659 1.3087 0.3860
0.3477 1.3472 0.3866
0.2263 1.3743 0.3870
0.1027 1.3899 0.3873
-0.0218 1.3937 0.3873
-0.1461 1.3857 0.3872
-0.2690 1.3660 0.3869
-0.3895 1.3349 0.3864
-0.5062 1.2926 0.3858
-0.6183 1.2396 0.3849
-0.7247 1.1765 0.3840
-0.8244 1.1038 0.3828
-0.9167 1.0224 0.3816
-1.0007 0.9331 0.3802
-1.0758 0.8367 0.3787
-5.3194 3.4219 1.7576
-5.5803 2.9210 1.7502
-5.7935 2.4005 1.7426
-5.9578 1.8652 1.7348
-6.0724 1.3196 1.7268
-6.1372 0.7685 1.7187
-6.1522 0.2164 1.7106
-6.1180 -0.3322 1.7026
-6.0357 -0.8731 1.6946
-5.9065 -1.4021 1.6869
-5.7320 -1.9153 1.6794
-5.5142 -2.4091 1.6721
-5.2553 -2.8799 1.6652
-1.0607 -0.7113 0.3549
-0.9892 -0.8001 0.3535
-0.9105 -0.8821 0.3523
-0.8254 -0.9568 0.3511
-0.7345 -1.0236 0.3501
-0.6386 -1.0823 0.3492
-0.5382 -1.1325 0.3484
-0.4341 -1.1739 0.3478
-0.3271 -1.2063 0.3473
-0.2178 -1.2294 0.3469
-0.1071 -1.2432 0.3467
0.0043 -1.2476 0.3467
0.1157 -1.2425 0.3468
0.2264 -1.2280 0.3470
0.3355 -1.2042 0.3473
0.4423 -1.1711 0.3479
0.5461 -1.1291 0.3485
0.6462 -1.0782 0.3493
0.7418 -1.0189 0.3502
0.8323 -0.9514 0.3513
0.9170 -0.8761 0.3524
0.9951 -0.7936 0.3537
1.0661 -0.7043 0.3551
5.7472 -3.0979 1.8143
6.0258 -2.5832 1.8218
6.2594 -2.0436 1.8297
6.4457 -1.4832 1.8379
6.5826 -0.9058 1.8464
6.6682 -0.3159 1.8550
6.7013 0.2821 1.8638
6.6808 0.8835 1.8726
6.6061 1.4835 1.8814
6.4770 2.0770 1.8901
6.2940 2.6590 1.8986
6.0578 3.2244 1.9069
5.7697 3.7681 1.9149
1.0705 0.8446 0.3789
0.9947 0.9404 0.3804
0.9100 1.0291 0.3817
0.8171 1.1099 0.3830
0.7168 1.1818 0.3841
0.6099 1.2442 0.3850
0.4974 1.2964 0.3858
0.3803 1.3378 0.3865
0.2596 1.3680 0.3869
0.1365 1.3868 0.3872
0.0122 1.3938 0.3873
-0.1123 1.3890 0.3872
-0.2357 1.3726 0.3870
-0.3570 1.3445 0.3866
-0.4748 1.3052 0.3859
-0.5883 1.2551 0.3852
-0.6963 1.1946 0.3842
-0.7980 1.1245 0.3832
-0.8923 1.0454 0.3819
-0.9787 0.9582 0.3806
-1.0563 0.8636 0.3791
-5.2403 3.5543 1.7595
-5.5139 3.0596 1.7523
-5.7402 2.5440 1.7447
-5.9179 2.0122 1.7369
-6.0461 1.4690 1.7290
-6.1245 0.9189 1.7209
-6.1530 0.3667 1.7128
-6.1322 -0.1833 1.7047
-6.0628 -0.7268 1.6968
-5.9462 -1.2594 1.6890
-5.7839 -1.7773 1.6814
-5.5777 -2.2767 1.6741
-5.3298 -2.7541 1.6671
-1.0789 -0.6860 0.3553
-1.0094 -0.7766 0.3539
-0.9326 -0.8605 0.3526
-0.8492 -0.9372 0.3514
-0.7598 -1.0062 0.3504
-0.6652 -1.0672 0.3494
-0.5659 -1.1197 0.3486
-0.4628 -1.1635 0.3480
-0.3565 -1.1984 0.3474
-0.2478 -1.2240 0.3470
-0.1374 -1.2404 0.3468
-0.0261 -1.2473 0.3467
0.0854 -1.2448 0.3467
0.1963 -1.2329 0.3469
0.3059 -1.2116 0.3472
0.4134 -1.1810 0.3477
0.5182 -1.1414 0.3483
0.6193 -1.0929 0.3491
0.7163 -1.0359 0.3499
0.8082 -0.9705 0.3510
0.8945 -0.8974 0.3521
0.9745 -0.8168 0.3533
1.0475 -0.7293 0.3547
5.6638 -3.2336 1.8123
5.9543 -2.7260 1.8197
6.2004 -2.1928 1.8275
6.3998 -1.6377 1.8357
6.5503 -1.0645 1.8441
6.6500 -0.4776 1.8527
6.6976 0.1187 1.8614
6.6917 0.7196 1.8702
6.6318 1.3205 1.8790
6.5176 1.9162 1.8877
6.3492 2.5019 1.8963
6.1273 3.0723 1.9047
5.8532 3.6224 1.9127
1.0895 0.8173 0.3785
1.0162 0.9150 0.3800
0.9339 1.0057 0.3814
0.8432 1.0887 0.3826
0.7448 1.1631 0.3838
0.6396 1.2282 0.3848
0.5286 1.2832 0.3856
0.4126 1.3276 0.3863
0.2928 1.3609 0.3868
0.1702 1.3828 0.3872
0.0461 1.3931 0.3873
-0.0785 1.3915 0.3873
-0.2023 1.3782 0.3871
-0.3242 1.3533 0.3867
-0.4431 1.3170 0.3861
-0.5579 1.2698 0.3854
-0.6675 1.2121 0.3845
-0.7710 1.1445 0.3835
-0.8674 1.0678 0.3823
-0.9560 0.9827 0.3810
-1.0360 0.8901 0.3795
-5.1578 3.6849 1.7614
-5.4440 3.1966 1.7543
-5.6834 2.6862 1.7468
-5.8744 2.1584 1.7391
-6.0161 1.6178 1.7311
-6.1081 1.0692 1.7231
-6.1501 0.5171 1.7150
-6.1427 -0.0340 1.7069
-6.0865 -0.5796 1.6989
-5.9826 -1.1156 1.6911
-5.8326 -1.6379 1.6834
-5.6381 -2.1427 1.6760
-5.4013 -2.6264 1.6689
-1.0965 -0.6603 0.3557
-1.0291 -0.7526 0.3543
-0.9542 -0.8383 0.3529
-0.8725 -0.9170 0.3517
-0.7847 -0.9882 0.3506
-0.6914 -1.0514 0.3497
-0.5934 -1.1063 0.3488
-0.4912 -1.1525 0.3481
-0.3857 -1.1898 0.3476
-0.2776 -1.2180 0.3471
-0.1676 -1.2369 0.3468
-0.0564 -1.2464 0.3467
0.0551 -1.2464 0.3467
0.1662 -1.2371 0.3468
0.2762 -1.2183 0.3471
0.3844 -1.1903 0.3476
0.4900 -1.1531 0.3481
0.5922 -1.1070 0.3489
0.6903 -1.0522 0.3497
0.7837 -0.9891 0.3507
0.8716 -0.9181 0.3518
0.9534 -0.8394 0.3530
1.0283 -0.7538 0.3543
5.5774 -3.3669 1.8103
5.8794 -2.8670 1.8177
6.1379 -2.3404 1.8254
6.3502 -1.7909 1.8334
6.5142 -1.2222 1.8417
6.6280 -0.6386 1.8503
6.6899 -0.0444 1.8590
6.6987 0.5557 1.8678
6.6535 1.1571 1.8766
6.5541 1.7547 1.8854
6.4004 2.3436 1.8940
6.1930 2.9187 1.9024
5.9329 3.4749 1.9106
5.6218 4.0070 1.9184
1.0371 0.8890 0.3796
0.9572 0.9817 0.3810
0.8687 1.0669 0.3823
0.7723 1.1438 0.3835
0.6689 1.2114 0.3845
0.5593 1.2692 0.3854
0.4446 1.3166 0.3861
0.3257 1.3530 0.3867
0.2038 1.3780 0.3871
0.0800 1.3914 0.3873
-0.0446 1.3931 0.3873
-0.1687 1.3830 0.3871
-0.2913 1.3612 0.3868
-0.4111 1.3280 0.3863
-0.5271 1.2837 0.3856
-0.6382 1.2288 0.3848
-0.7434 1.1639 0.3838
-0.8419 1.0896 0.3826
-0.9327 1.0067 0.3813
-1.0151 0.9160 0.3799
-1.0885 0.8184 0.3784
-5.3706 3.3320 1.7563
-5.6229 2.8272 1.7489
-5.8272 2.3036 1.7412
-5.9825 1.7661 1.7333
-6.0880 1.2192 1.7253
-6.1436 0.6676 1.7172
-6.1496 0.1158 1.7091
-6.1065 -0.4318 1.7011
-6.0155 -0.9708 1.6932
-5.8779 -1.4972 1.6855
-5.6954 -2.0071 1.6780
-5.4699 -2.4969 1.6708
-5.2037 -2.9632 1.6640
-1.0482 -0.7280 0.3546
-0.9753 -0.8156 0.3533
-0.8954 -0.8963 0.3521
-0.8092 -0.9696 0.3509
-0.7174 -1.0350 0.3499
-0.6205 -1.0922 0.3490
-0.5194 -1.1408 0.3483
-0.4147 -1.1805 0.3477
-0.3073 -1.2112 0.3472
-0.1977 -1.2326 0.3469
-0.0868 -1.2447 0.3467
0.0247 -1.2473 0.3467
0.1360 -1.2405 0.3468
0.2464 -1.2243 0.3470
0.3552 -1.1988 0.3474
0.4615 -1.1641 0.3480
0.5647 -1.1204 0.3486
0.6640 -1.0680 0.3495
0.7588 -1.0071 0.3504
0.8482 -0.9382 0.3515
0.9317 -0.8616 0.3526
1.0086 -0.7778 0.3539
1.0783 -0.6873 0.3553
5.8014 -3.0063 1.8156
6.0720 -2.4863 1.8232
6.2971 -1.9426 1.8312
6.4745 -1.3788 1.8395
6.6021 -0.7988 1.8479
6.6782 -0.2071 1.8566
6.7016 0.3919 1.8654
6.6712 0.9934 1.8742
6.5866 1.5926 1.8830
6.4476 2.1843 1.8917
6.2548 2.7637 1.9002
6.0089 3.3255 1.9084
5.7115 3.8647 1.9163
1.0573 0.8626 0.3792
0.9798 0.9572 0.3806
0.8936 1.0445 0.3820
0.7993 1.1237 0.3832
0.6977 1.1939 0.3843
0.5897 1.2545 0.3852
0.4763 1.3047 0.3860
0.3585 1.3442 0.3866
0.2373 1.3723 0.3870
0.1139 1.3889 0.3872
-0.0106 1.3938 0.3873
-0.1350 1.3869 0.3872
-0.2581 1.3683 0.3869
-0.3788 1.3382 0.3865
-0.4959 1.2968 0.3858
-0.6085 1.2448 0.3850
-0.7154 1.1825 0.3841
-0.8158 1.1107 0.3829
-0.9087 1.0301 0.3817
-0.9935 0.9414 0.3803
-1.0695 0.8457 0.3789
-5.2937 3.4657 1.7582
-5.5589 2.9667 1.7509
-5.7764 2.4478 1.7433
-5.9451 1.9137 1.7355
-6.0642 1.3688 1.7275
-6.1334 0.8180 1.7194
-6.1528 0.2658 1.7113
-6.1231 -0.2833 1.7033
-6.0450 -0.8250 1.6953
-5.9199 -1.3553 1.6876
-5.7494 -1.8701 1.6800
-5.5355 -2.3657 1.6728
-5.2801 -2.8387 1.6658
-1.0668 -0.7031 0.3550
-0.9959 -0.7924 0.3537
-0.9178 -0.8750 0.3524
-0.8333 -0.9504 0.3512
-0.7429 -1.0180 0.3502
-0.6474 -1.0774 0.3493
-0.5473 -1.1284 0.3485
-0.4436 -1.1706 0.3478
-0.3368 -1.2038 0.3473
-0.2277 -1.2277 0.3470
-0.1171 -1.2424 0.3468
-0.0057 -1.2476 0.3467
0.1058 -1.2433 0.3467
0.2165 -1.2297 0.3470
0.3258 -1.2067 0.3473
0.4328 -1.1745 0.3478
0.5369 -1.1332 0.3484
0.6374 -1.0831 0.3492
0.7335 -1.0245 0.3501
0.8244 -0.9577 0.3512
0.9096 -0.8832 0.3523
0.9884 -0.8013 0.3536
1.0601 -0.7126 0.3549
5.7201 -3.1429 1.8136
6.0026 -2.6304 1.8211
6.2404 -2.0929 1.8290
6.4310 -1.5342 1.8372
6.5724 -0.9582 1.8456
6.6627 -0.3692 1.8542
6.7005 0.2283 1.8630
6.6848 0.8296 1.8718
6.6150 1.4299 1.8806
6.4908 2.0241 1.8893
6.3126 2.6074 1.8979
6.0811 3.1745 1.9062
5.7976 3.7202 1.9142
1.0768 0.8356 0.3788
1.0018 0.9321 0.3802
0.9179 1.0215 0.3816
0.8257 1.1030 0.3829
0.7261 1.1757 0.3840
0.6197 1.2390 0.3850
0.5077 1.2921 0.3858
0.3909 1.3345 0.3864
0.2706 1.3658 0.3869
0.5259 1.2471 0.3851
0.4131 1.2913 0.3858
0.2966 1.3248 0.3863
0.1772 1.3472 0.3866
0.0563 1.3582 0.3868
-0.0652 1.3578 0.3868
-0.1861 1.3459 0.3866
-0.3053 1.3226 0.3862
-0.4216 1.2883 0.3857
-0.5340 1.2433 0.3850
-0.6414 1.1880 0.3841
-0.7430 1.1230 0.3831
-0.8378 1.0491 0.3820
-0.9251 0.9669 0.3807
-1.0040 0.8772 0.3793
-1.0741 0.7810 0.3779
-5.2892 3.1652 1.7538
-5.5278 2.6692 1.7465
-5.7193 2.1556 1.7390
-5.8628 1.6290 1.7313
-5.9577 1.0941 1.7235
-6.0040 0.5552 1.7156
-6.0018 0.0167 1.7077
-5.9520 -0.5169 1.6999
-5.8555 -1.0415 1.6922
-5.7136 -1.5533 1.6847
-5.5282 -2.0484 1.6774
-5.3011 -2.5234 1.6704
-1.0774 -0.6366 0.3560
-1.0122 -0.7274 0.3547
-0.9398 -0.8119 0.3534
-0.8606 -0.8895 0.3522
-0.7754 -0.9599 0.3511
-0.6847 -1.0225 0.3501
-0.5892 -1.0770 0.3493
-0.4897 -1.1230 0.3486
-0.3869 -1.1603 0.3480
-0.2814 -1.1887 0.3476
-0.1739 -1.2081 0.3473
-0.0653 -1.2183 0.3471
0.0437 -1.2192 0.3471
0.1524 -1.2109 0.3472
0.2602 -1.1934 0.3475
0.3661 -1.1667 0.3479
0.4696 -1.1312 0.3485
0.5698 -1.0869 0.3492
0.6661 -1.0340 0.3500
0.7579 -0.9730 0.3509
0.8443 -0.9042 0.3520
0.9247 -0.8280 0.3532
0.9986 -0.7448 0.3544
1.0652 -0.6552 0.3558
5.7194 -2.8481 1.8179
5.9755 -2.3356 1.8254
6.1866 -1.8005 1.8333
6.3507 -1.2463 1.8414
6.4658 -0.6773 1.8497
6.5303 -0.0977 1.8582
6.5430 0.4880 1.8668
6.5031 1.0752 1.8754
6.4102 1.6592 1.8840
6.2644 2.2349 1.8924
6.0662 2.7974 1.9007
5.8165 3.3419 1.9086
1.0871 0.7613 0.3776
1.0188 0.8587 0.3791
0.9415 0.9498 0.3805
0.8559 1.0335 0.3818
0.7625 1.1092 0.3830
0.6621 1.1760 0.3840
0.5558 1.2332 0.3849
0.4443 1.2803 0.3856
0.3286 1.3168 0.3861
0.2100 1.3422 0.3865
0.0893 1.3563 0.3867
-0.0321 1.3590 0.3868
-0.1533 1.3502 0.3866
-0.2730 1.3301 0.3863
-0.3902 1.2988 0.3858
-0.5038 1.2566 0.3852
-0.6127 1.2040 0.3844
-0.7160 1.1417 0.3834
-0.8127 1.0701 0.3823
-0.9021 0.9900 0.3811
-0.9834 0.9023 0.3797
-1.0560 0.8078 0.3783
-5.2163 3.2967 1.7557
-5.4674 2.8062 1.7485
-5.6718 2.2970 1.7411
-5.8285 1.7735 1.7334
-5.9367 1.2404 1.7256
-5.9962 0.7021 1.7177
-6.0072 0.1631 1.7098
-5.9702 -0.3722 1.7020
-5.8863 -0.8997 1.6942
-5.7566 -1.4154 1.6867
-5.5829 -1.9154 1.6794
-5.3669 -2.3962 1.6723
-1.0938 -0.6108 0.3564
-1.0307 -0.7033 0.3550
-0.9602 -0.7895 0.3537
-0.8828 -0.8691 0.3525
-0.7992 -0.9415 0.3514
-0.7099 -1.0062 0.3504
-0.6157 -1.0629 0.3495
-0.5172 -1.1113 0.3488
-0.4152 -1.1510 0.3481
-0.3103 -1.1819 0.3477
-0.2034 -1.2037 0.3473
-0.0950 -1.2164 0.3471
0.0140 -1.2199 0.3471
0.1229 -1.2141 0.3472
0.2310 -1.1990 0.3474
0.3375 -1.1749 0.3478
0.4417 -1.1417 0.3483
0.5429 -1.0998 0.3490
0.6403 -1.0493 0.3497
0.7334 -0.9905 0.3506
0.8213 -0.9237 0.3517
0.9034 -0.8494 0.3528
0.9791 -0.7681 0.3541
1.0478 -0.6802 0.3554
5.6422 -2.9834 1.8160
5.9101 -2.4777 1.8234
6.1337 -1.9483 1.8311
6.3108 -1.3989 1.8392
6.4394 -0.8336 1.8474
6.5178 -0.2564 1.8559
6.5447 0.3281 1.8645
6.5192 0.9154 1.8731
6.4408 1.5007 1.8816
6.3094 2.0791 1.8901
6.1253 2.6458 1.8984
5.8895 3.1957 1.9065
5.6033 3.7239 1.9142
1.0383 0.8328 0.3787
0.9635 0.9256 0.3801
0.8800 1.0115 0.3815
0.7886 1.0894 0.3827
0.6901 1.1587 0.3837
0.5853 1.2186 0.3846
0.4751 1.2685 0.3854
0.3605 1.3079 0.3860
0.2425 1.3364 0.3864
0.1223 1.3536 0.3867
0.0010 1.3594 0.3868
-0.1204 1.3538 0.3867
-0.2406 1.3367 0.3864
-0.3586 1.3084 0.3860
-0.4733 1.2691 0.3854
-0.5835 1.2194 0.3846
-0.6884 1.1596 0.3837
-0.7870 1.0905 0.3826
-0.8785 1.0126 0.3814
-0.9621 0.9269 0.3801
-1.0371 0.8342 0.3787
-5.1400 3.4265 1.7576
-5.4036 2.9419 1.7505
-5.6208 2.4373 1.7431
-5.7906 1.9173 1.7355
-5.9120 1.3863 1.7277
-5.9848 0.8490 1.7199
-6.0090 0.3098 1.7120
-5.9850 -0.2270 1.7041
-5.9138 -0.7570 1.6963
-5.7964 -1.2763 1.6887
-5.6345 -1.7810 1.6813
-5.4298 -2.2673 1.6742
-5.1845 -2.7319 1.6674
-1.0487 -0.6787 0.3554
-0.9801 -0.7667 0.3540
-0.9046 -0.8481 0.3528
-0.8225 -0.9225 0.3517
-0.7347 -0.9894 0.3506
-0.6418 -1.0483 0.3497
-0.5444 -1.0990 0.3489
-0.4433 -1.1411 0.3483
-0.3391 -1.1744 0.3478
-0.2327 -1.1987 0.3474
-0.1246 -1.2139 0.3472
-0.0157 -1.2198 0.3471
0.0933 -1.2165 0.3472
0.2017 -1.2040 0.3473
0.3087 -1.1824 0.3477
0.4136 -1.1517 0.3482
0.5156 -1.1121 0.3488
0.6142 -1.0639 0.3495
0.7085 -1.0073 0.3504
0.7979 -0.9427 0.3514
0.8817 -0.8704 0.3525
0.9592 -0.7909 0.3537
1.0298 -0.7048 0.3551
5.5619 -3.1165 1.8140
5.8414 -2.6179 1.8213
6.0773 -2.0946 1.8290
6.2673 -1.5504 1.8369
6.4092 -0.9889 1.8452
6.5015 -0.4146 1.8536
6.5425 0.1684 1.8621
6.5314 0.7554 1.8707
6.4674 1.3417 1.8793
6.3504 1.9225 1.8878
6.1806 2.4929 1.8962
5.9588 3.0478 1.9043
5.6862 3.5824 1.9122
1.0572 0.8064 0.3783
0.9847 0.9010 0.3798
0.9035 0.9888 0.3811
0.8143 1.0690 0.3823
0.7176 1.1407 0.3834
0.6144 1.2032 0.3844
0.5056 1.2559 0.3852
0.3921 1.2982 0.3859
0.2749 1.3297 0.3863
0.1552 1.3500 0.3867
0.0341 1.3590 0.3868
-0.0874 1.3564 0.3867
-0.2081 1.3425 0.3865
-0.3268 1.3172 0.3861
-0.4424 1.2809 0.3856
-0.5540 1.2339 0.3848
-0.6604 1.1768 0.3840
-0.7608 1.1102 0.3829
-0.8543 1.0347 0.3818
-0.9401 0.9510 0.3805
-1.0175 0.8601 0.3791
-1.0859 0.7628 0.3776
-5.3363 3.0761 1.7525
-5.5663 2.5765 1.7452
-5.7491 2.0602 1.7376
-5.8838 1.5318 1.7299
-5.9698 0.9957 1.7220
-6.0072 0.4566 1.7141
-5.9963 -0.0813 1.7062
-5.9378 -0.6135 1.6984
-5.8329 -1.1361 1.6908
-5.6829 -1.6451 1.6833
-5.4897 -2.1368 1.6761
-5.2552 -2.6077 1.6692
-1.0660 -0.6536 0.3558
-0.9995 -0.7433 0.3544
-0.9258 -0.8266 0.3531
-0.8455 -0.9030 0.3520
-0.7592 -0.9719 0.3509
-0.6676 -1.0330 0.3500
-0.5713 -1.0860 0.3491
-0.4712 -1.1305 0.3485
-0.3678 -1.1662 0.3479
-0.2618 -1.1930 0.3475
-0.1542 -1.2106 0.3472
-0.0454 -1.2191 0.3471
0.0636 -1.2184 0.3471
0.1722 -1.2084 0.3473
0.2797 -1.1892 0.3476
0.3852 -1.1609 0.3480
0.4882 -1.1237 0.3486
0.5877 -1.0778 0.3493
0.6833 -1.0235 0.3501
0.7741 -0.9610 0.3511
0.8594 -0.8908 0.3522
0.9387 -0.8133 0.3534
1.0113 -0.7289 0.3547
1.0766 -0.6382 0.3561
5.7695 -2.7562 1.8193
6.0175 -2.2394 1.8268
6.2202 -1.7005 1.8347
6.3754 -1.1433 1.8429
6.4814 -0.5721 1.8513
6.5365 0.0090 1.8598
6.5396 0.5954 1.8684
6.4901 1.1823 1.8770
6.3875 1.7651 1.8855
6.2321 2.3388 1.8939
6.0243 2.8985 1.9021
5.7654 3.4391 1.9101
1.0753 0.7795 0.3779
1.0054 0.8759 0.3794
0.9265 0.9656 0.3808
0.8393 1.0480 0.3820
0.7446 1.1221 0.3832
0.6431 1.1872 0.3842
0.5357 1.2426 0.3850
0.4234 1.2878 0.3857
0.3071 1.3222 0.3862
0.1880 1.3456 0.3866
0.0672 1.3577 0.3868
-0.0543 1.3583 0.3868
-0.1753 1.3474 0.3866
-0.2947 1.3252 0.3863
-0.4113 1.2918 0.3857
-0.5241 1.2478 0.3851
-0.6320 1.1934 0.3842
-0.7342 1.1292 0.3832
-0.8296 1.0561 0.3821
-0.9176 0.9746 0.3808
-0.9973 0.8855 0.3795
-1.0682 0.7899 0.3780
-5.2656 3.2087 1.7544
-5.5083 2.7144 1.7472
-5.7041 2.2023 1.7397
-5.8519 1.6767 1.7320
-5.9512 1.1423 1.7242
-6.0018 0.6035 1.7163
-6.0040 0.0649 1.7084
-5.9584 -0.4693 1.7006
-5.8660 -0.9950 1.6929
-5.7281 -1.5080 1.6853
-5.5465 -2.0048 1.6781
-5.3231 -2.4817 1.6711
-1.0828 -0.6282 0.3562
-1.0184 -0.7195 0.3548
-0.9466 -0.8046 0.3535
-0.8680 -0.8829 0.3523
-0.7832 -0.9539 0.3512
-0.6930 -1.0172 0.3502
-0.5980 -1.0724 0.3494
-0.4988 -1.1192 0.3486
-0.3962 -1.1573 0.3481
-0.2909 -1.1866 0.3476
-0.1836 -1.2067 0.3473
-0.0751 -1.2177 0.3471
0.0339 -1.2195 0.3471
0.1427 -1.2120 0.3472
0.2506 -1.1953 0.3475
0.3567 -1.1695 0.3479
0.4604 -1.1347 0.3484
0.5610 -1.0912 0.3491
0.6577 -1.0391 0.3499
0.7498 -0.9788 0.3508
0.8367 -0.9107 0.3519
0.9177 -0.8351 0.3530
0.9922 -0.7525 0.3543
1.0595 -0.6635 0.3557
5.6944 -2.8929 1.8173
5.9543 -2.3826 1.8247
6.1696 -1.8493 1.8326
6.3380 -1.2967 1.8407
6.4575 -0.7289 1.8490
6.5266 -0.1500 1.8575
6.5440 0.4353 1.8660
6.5088 1.0226 1.8746
6.4207 1.6071 1.8832
6.2796 2.1837 1.8917
6.0860 2.7477 1.8999
5.8409 3.2940 1.9079
1.0928 0.7523 0.3775
1.0253 0.8502 0.3790
0.9488 0.9419 0.3804
0.8639 1.0263 0.3817
0.7711 1.1027 0.3829
0.6714 1.1704 0.3839
0.5655 1.2285 0.3848
0.4544 1.2765 0.3855
0.3391 1.3139 0.3861
0.2207 1.3404 0.3865
0.1002 1.3555 0.3867
-0.0212 1.3593 0.3868
-0.1425 1.3515 0.3867
-0.2624 1.3323 0.3864
-0.3799 1.3020 0.3859
-0.4938 1.2608 0.3853
-0.6031 1.2092 0.3845
-0.7069 1.1476 0.3835
-0.8043 1.0769 0.3824
-0.8944 0.9975 0.3812
-0.9764 0.9105 0.3799
-1.0498 0.8165 0.3784
-5.1916 3.3396 1.7564
-5.4468 2.8510 1.7492
-5.6554 2.3433 1.7418
-5.8164 1.8209 1.7341
-5.9290 1.2885 1.7263
-5.9929 0.7505 1.7184
-6.0082 0.2114 1.7105
-5.9755 -0.3245 1.7027
-5.8957 -0.8529 1.6949
-5.7701 -1.3697 1.6874
-5.6002 -1.8713 1.6800
-5.3880 -2.3540 1.6729
-1.0990 -0.6023 0.3566
-1.0367 -0.6952 0.3551
-0.9668 -0.7820 0.3538
-0.8900 -0.8622 0.3526
-0.8069 -0.9353 0.3515
-0.7181 -1.0007 0.3505
-0.6243 -1.0582 0.3496
-0.5262 -1.1073 0.3488
-0.4245 -1.1478 0.3482
-0.3198 -1.1795 0.3477
-0.2130 -1.2021 0.3474
-0.1048 -1.2156 0.3472
0.0042 -1.2199 0.3471
0.1132 -1.2150 0.3472
0.2213 -1.2008 0.3474
0.3280 -1.1774 0.3478
0.4324 -1.1451 0.3483
0.5339 -1.1039 0.3489
0.6318 -1.0541 0.3497
0.7252 -0.9961 0.3506
0.8136 -0.9300 0.3516
0.8963 -0.8564 0.3527
0.9726 -0.7757 0.3540
1.0419 -0.6883 0.3553
5.6161 -3.0274 1.8153
5.8878 -2.5240 1.8227
6.1155 -1.9966 1.8304
6.2969 -1.4489 1.8384
6.4299 -0.8848 1.8467
6.5128 -0.3085 1.8551
6.5444 0.2755 1.8637
6.5237 0.8627 1.8723
6.4500 1.4484 1.8809
6.3233 2.0277 1.8894
6.1440 2.5956 1.8977
5.9127 3.1472 1.9058
5.6310 3.6775 1.9136
1.0446 0.8241 0.3786
0.9705 0.9176 0.3800
0.8878 1.0041 0.3813
0.7971 1.0828 0.3826
0.6992 1.1529 0.3836
0.5949 1.2136 0.3846
0.4852 1.2645 0.3853
0.3709 1.3048 0.3860
0.2532 1.3343 0.3864
0.1332 1.3525 0.3867
0.0119 1.3594 0.3868
-0.1095 1.3547 0.3867
-0.2299 1.3387 0.3865
-0.3482 1.3114 0.3860
-0.4632 1.2731 0.3855
-0.5739 1.2242 0.3847
-0.6793 1.1653 0.3838
-0.7785 1.0970 0.3827
-0.8706 1.0200 0.3815
-0.9549 0.9349 0.3802
-1.0307 0.8428 0.3788
-5.1142 3.4688 1.7583
-5.3818 2.9862 1.7512
-5.6033 2.4833 1.7438
-5.7773 1.9644 1.7362
-5.9031 1.4342 1.7285
-5.9803 0.8973 1.7206
-6.0088 0.3581 1.7127
-5.9891 -0.1791 1.7048
-5.9220 -0.7099 1.6970
-5.8088 -1.2303 1.6894
-5.6508 -1.7364 1.6820
-5.4499 -2.2245 1.6748
-5.2081 -2.6913 1.6680
-1.0544 -0.6705 0.3555
-0.9866 -0.7590 0.3542
-0.9116 -0.8411 0.3529
-0.8301 -0.9161 0.3518
-0.7428 -0.9837 0.3507
-0.6503 -1.0433 0.3498
-0.5533 -1.0948 0.3490
-0.4525 -1.1377 0.3484
-0.3486 -1.1718 0.3478
-0.2423 -1.1969 0.3474
-0.1343 -1.2129 0.3472
-0.0255 -1.2197 0.3471
0.0835 -1.2172 0.3471
0.1920 -1.2055 0.3473
0.2991 -1.1847 0.3476
0.4043 -1.1548 0.3481
0.5066 -1.1160 0.3487
0.6055 -1.0685 0.3494
0.7002 -1.0127 0.3503
0.7901 -0.9488 0.3513
0.8744 -0.8772 0.3524
0.9525 -0.7983 0.3536
1.0238 -0.7128 0.3549
5.5348 -3.1598 1.8134
5.8181 -2.6637 1.8206
6.0580 -2.1425 1.8283
6.2522 -1.5999 1.8362
6.3985 -1.0399 1.8444
6.4953 -0.4665 1.8528
6.5410 0.1159 1.8614
6.5345 0.7027 1.8700
6.4753 1.2893 1.8785
6.3631 1.8708 1.8871
6.1980 2.4423 1.8954
5.9808 2.9988 1.9036
5.7126 3.5354 1.9115
1.0632 0.7976 0.3782
0.9916 0.8928 0.3796
0.9112 0.9813 0.3810
0.8226 1.0621 0.3822
0.7266 1.1347 0.3834
0.6239 1.1980 0.3843
0.5156 1.2516 0.3851
0.4024 1.2949 0.3858
0.2856 1.3274 0.3863
0.1660 1.3487 0.3866
0.0450 1.3586 0.3868
-0.0765 1.3571 0.3868
-0.1973 1.3442 0.3866
-0.3162 1.3199 0.3862
-0.4322 1.2846 0.3856
-0.5442 1.2386 0.3849
-0.6511 1.1824 0.3840
-0.7521 1.1165 0.3830
-0.8463 1.0418 0.3819
-0.9328 0.9588 0.3806
-1.0109 0.8685 0.3792
-1.0802 0.7717 0.3777
-5.3134 3.1199 1.7531
-5.5476 2.6220 1.7459
-5.7347 2.1071 1.7383
-5.8737 1.5795 1.7306
-5.9641 1.0440 1.7227
-6.0058 0.5050 1.7148
-5.9992 -0.0332 1.7069
-5.9450 -0.5661 1.6991
-5.8441 -1.0898 1.6915
-5.6982 -1.6002 1.6840
-5.5088 -2.0935 1.6767
-5.2779 -2.5664 1.6698
-1.0716 -0.6453 0.3559
-1.0058 -0.7355 0.3545
-0.9327 -0.8194 0.3532
-0.8529 -0.8964 0.3521
-0.7671 -0.9660 0.3510
-0.6760 -1.0279 0.3500
-0.5801 -1.0816 0.3492
-0.4803 -1.1268 0.3485
-0.3771 -1.1634 0.3480
-0.2714 -1.1909 0.3475
-0.1639 -1.2094 0.3473
-0.0552 -1.2187 0.3471
0.0538 -1.2188 0.3471
0.1625 -1.2096 0.3473
0.2701 -1.1913 0.3475
0.3759 -1.1638 0.3480
0.4791 -1.1274 0.3485
0.5790 -1.0823 0.3492
0.6749 -1.0287 0.3501
0.7661 -0.9670 0.3510
0.8520 -0.8974 0.3521
0.9319 -0.8205 0.3533
1.0051 -0.7367 0.3546
1.0710 -0.6465 0.3559
5.7451 -2.8015 1.8186
5.9971 -2.2867 1.8262
6.2039 -1.7496 1.8340
6.3635 -1.1939 1.8422
6.4739 -0.6238 1.8505
6.5336 -0.0434 1.8590
6.5415 0.5427 1.8676
6.4967 1.1298 1.8762
6.3989 1.7132 1.8848
6.2482 2.2879 1.8932
6.0451 2.8490 1.9014
5.7906 3.3916 1.9094
1.0812 0.7706 0.3778
1.0120 0.8675 0.3792
0.9339 0.9579 0.3806
0.8475 1.0409 0.3819
0.7534 1.1158 0.3831
0.6525 1.1817 0.3841
0.5456 1.2380 0.3849
0.4337 1.2842 0.3856
0.3177 1.3196 0.3862
0.1988 1.3440 0.3866
0.0780 1.3571 0.3868
-0.0435 1.3587 0.3868
-0.1645 1.3488 0.3866
-0.2841 1.3276 0.3863
-0.4010 1.2953 0.3858
-0.5141 1.2521 0.3851
-0.6226 1.1986 0.3843
-0.7252 1.1354 0.3833
-0.8213 1.0630 0.3822
-0.9100 0.9822 0.3810
-0.9905 0.8938 0.3796
-1.0622 0.7987 0.3781
-5.2416 3.2520 1.7551
-5.4884 2.7596 1.7479
-5.6884 2.2488 1.7404
-5.8406 1.7242 1.7327
-5.9443 1.1904 1.7249
-5.9993 0.6519 1.7170
-6.0058 0.1131 1.7091
-5.9644 -0.4217 1.7013
-5.8761 -0.9483 1.6935
-5.7423 -1.4627 1.6860
-5.5645 -1.9610 1.6787
-5.3448 -2.4398 1.6717
-1.0882 -0.6197 0.3563
-1.0245 -0.7115 0.3549
-0.9533 -0.7972 0.3536
-0.8753 -0.8761 0.3524
-0.7911 -0.9478 0.3513
-0.7013 -1.0118 0.3503
-0.6067 -1.0678 0.3494
-0.5078 -1.1154 0.3487
-0.4055 -1.1543 0.3481
-0.3004 -1.1843 0.3476
-0.1933 -1.2053 0.3473
-0.0849 -1.2171 0.3471
0.0241 -1.2197 0.3471
0.1330 -1.2130 0.3472
0.2410 -1.1972 0.3475
0.3473 -1.1722 0.3478
0.4512 -1.1382 0.3484
0.5521 -1.0954 0.3490
0.6492 -1.0441 0.3498
0.7418 -0.9846 0.3507
0.8292 -0.9171 0.3518
0.9107 -0.8422 0.3529
0.9858 -0.7602 0.3542
1.0538 -0.6717 0.3556
5.6690 -2.9375 1.8166
5.9328 -2.4293 1.8241
6.1522 -1.8979 1.8318
6.3248 -1.3469 1.8399
6.4488 -0.7803 1.8482
6.5225 -0.2023 1.8567
6.5445 0.3827 1.8653
6.5142 0.9700 1.8739
6.4308 1.5549 1.8824
6.2944 2.1325 1.8909
6.1055 2.6978 1.8992
5.8650 3.2458 1.9072
5.5741 3.7718 1.9149
1.0318 0.8417 0.3789
0.9560 0.9339 0.3803
0.8718 1.0191 0.3816
0.7797 1.0962 0.3828
0.6806 1.1647 0.3838
0.5752 1.2237 0.3847
0.4646 1.2726 0.3855
0.3496 1.3110 0.3861
0.2314 1.3385 0.3865
0.1110 1.3546 0.3867
-0.0104 1.3594 0.3868
-0.1317 1.3527 0.3867
-0.2517 1.3345 0.3864
-0.3695 1.3052 0.3859
-0.4837 1.2649 0.3853
-0.5935 1.2142 0.3845
-0.6979 1.1535 0.3836
-0.7959 1.0836 0.3825
-0.8866 1.0050 0.3813
-0.9694 0.9186 0.3800
-1.0436 0.8252 0.3785
-5.1665 3.3823 1.7570
-5.4257 2.8957 1.7499
-5.6387 2.3895 1.7424
-5.8039 1.8682 1.7348
-5.9209 1.3365 1.7270
-5.9891 0.7988 1.7191
-6.0088 0.2596 1.7112
-5.9804 -0.2767 1.7034
-5.9048 -0.8059 1.6956
-5.7832 -1.3240 1.6880
-5.6172 -1.8270 1.6807
-5.4087 -2.3115 1.6736
-5.1597 -2.7740 1.6668
-1.0426 -0.6871 0.3553
-0.9734 -0.7745 0.3539
-0.8972 -0.8553 0.3527
-0.8146 -0.9290 0.3516
-0.7263 -0.9952 0.3505
-0.6329 -1.0534 0.3496
-0.5351 -1.1033 0.3489
-0.4337 -1.1445 0.3482
-0.3293 -1.1770 0.3478
-0.2227 -1.2005 0.3474
-0.1145 -1.2148 0.3472
-0.0056 -1.2199 0.3471
0.1034 -1.2158 0.3472
0.2117 -1.2024 0.3474
0.3185 -1.1799 0.3477
0.4232 -1.1483 0.3482
0.5250 -1.1080 0.3488
0.6232 -1.0589 0.3496
0.7170 -1.0016 0.3505
0.8059 -0.9363 0.3515
0.8891 -0.8633 0.3526
0.9660 -0.7832 0.3538
1.0360 -0.6964 0.3552
5.5897 -3.0712 1.8147
5.8652 -2.5702 1.8220
6.0970 -2.0448 1.8297
6.2825 -1.4988 1.8377
6.4200 -0.9360 1.8459
6.5075 -0.3606 1.8544
6.5437 0.2229 1.8629
