ply
format ascii 1.0
element vertex 2065
property float32 x
property float32 y
property float32 z
end_header
2.6850 -25.4324 1.8939
4.9733 -25.2322 1.9045
7.2330 -24.7771 1.9114
9.5237 -24.3051 1.9332
11.7989 -23.6438 1.9568
14.0291 -22.7647 1.9802
16.1911 -21.6686 2.0031
18.2611 -20.3586 2.0253
20.2287 -18.8538 2.0478
9.1280 -7.0963 0.8562
9.5819 -6.1606 0.8436
25.3366 -13.2541 2.1175
26.6580 -11.0374 2.1367
25.3158 -7.9179 1.9643
25.7752 -5.5938 1.9532
25.9100 -3.2369 1.9337
4.8909 -0.1706 0.3624
23.3162 1.2734 1.7293
21.4878 3.1154 1.6079
19.8872 4.7278 1.5138
18.5276 6.1979 1.4468
17.2095 7.5258 1.3910
15.9799 8.7645 1.3497
14.8121 9.9410 1.3210
13.6841 11.0773 1.3038
15.6105 15.1349 1.6102
14.1276 16.3886 1.6024
4.8538 6.7699 0.6169
12.0577 20.4572 1.7585
10.0820 21.2401 1.7411
4.7378 12.8295 1.0128
5.1999 19.2112 1.4739
4.0174 22.7334 1.7096
2.1441 25.0190 1.8596
-0.0292 7.4220 0.5496
-0.6953 7.4265 0.5524
-4.5641 24.6924 1.8596
-6.5600 23.5022 1.8070
-8.1767 21.6169 1.7115
-10.0801 20.8121 1.7125
-11.8883 19.8120 1.7111
-13.6073 18.6676 1.7107
-15.2174 17.3746 1.7104
-16.7057 15.9439 1.7102
-18.0181 14.3528 1.7059
-19.2042 12.6708 1.7038
-16.3018 8.7750 1.3710
-16.9757 7.2651 1.3674
-16.9821 5.5329 1.3227
-16.9881 3.8979 1.2907
-16.3260 2.2361 1.2203
-17.9298 0.8379 1.3292
-22.1909 -0.9487 1.6448
-22.1983 -2.9507 1.6584
-22.3567 -5.0362 1.6971
-21.7883 -7.0032 1.6948
-21.1589 -8.9561 1.7015
-21.8500 -11.6499 1.8337
-20.6485 -13.5063 1.8272
-19.4267 -15.3490 1.8335
-18.1228 -17.1594 1.8482
-16.5425 -18.7370 1.8510
-14.8280 -20.1732 1.8541
-12.9910 -21.4562 1.8575
-11.0355 -22.5560 1.8596
-8.9771 -23.4513 1.8596
-6.8578 -24.1974 1.8625
-4.6825 -24.7820 1.8677
-2.4576 -25.1727 1.8730
-0.2005 -25.3648 1.8784
2.0784 -25.4398 1.8902
4.3702 -25.3160 1.9025
6.6373 -24.9139 1.9093
8.9168 -24.4439 1.9269
11.2002 -23.8400 1.9506
13.4446 -23.0186 1.9741
15.6269 -21.9797 1.9971
17.7235 -20.7258 2.0195
19.7136 -19.2654 2.0412
21.6071 -17.6336 2.0653
9.4240 -6.3792 0.8428
24.9495 -13.8132 2.1119
26.3308 -11.6393 2.1319
20.2679 -6.8697 1.5848
25.6947 -6.2165 1.9577
25.9002 -3.8602 1.9392
4.9047 -0.2874 0.3638
23.8486 0.7370 1.7669
21.9464 2.6533 1.6371
20.2925 4.3196 1.5364
22.5861 2.0089 1.8197
20.8534 3.7545 1.7004
19.3224 5.2968 1.6079
18.0117 6.7176 1.5427
16.7310 8.0078 1.4886
15.5279 9.2199 1.4493
14.3777 10.3786 1.4230
16.5387 14.3501 1.7572
15.0423 15.6153 1.7400
5.3113 6.6045 0.6802
4.6736 7.0124 0.6763
10.4263 19.1559 1.7503
5.4514 12.5762 1.1000
6.7285 20.3309 1.7186
4.5823 19.5546 1.6118
2.9849 21.0651 1.7074
0.3812 7.4197 0.5962
-0.2829 7.4241 0.5962
-2.9465 22.9837 1.8596
-4.9873 22.6287 1.8596
-6.4154 20.2823 1.7072
-8.2241 19.6835 1.7120
-9.9521 18.8764 1.7125
-11.5869 17.8949 1.7109
-13.1363 16.7857 1.7105
-14.5800 15.5426 1.7102
-15.9076 14.1764 1.7100
-17.0933 12.6868 1.7083
-18.1326 11.0941 1.7059
-8.7057 4.3094 0.7796
-16.9782 6.5897 1.4616
-16.9844 4.8988 1.4186
-16.9904 3.2920 1.3889
-17.9261 1.8342 1.4461
-16.3335 0.2049 1.3109
-21.1353 -1.6281 1.7012
-20.9121 -3.5101 1.7017
-20.5252 -5.3662 1.7025
-19.9774 -7.1826 1.7037
-19.2713 -8.9449 1.7050
-8.5019 -4.9129 0.7880
-18.7179 -13.1775 1.8370
-17.5608 -14.8764 1.8470
-16.2118 -16.4356 1.8527
-14.7004 -17.8433 1.8553
-13.0692 -19.1154 1.8583
-11.3177 -20.2200 1.8596
-9.4667 -21.1499 1.8596
-7.5462 -21.9282 1.8610
-5.5718 -22.5713 1.8657
-3.5430 -23.0384 1.8706
-1.4754 -23.3244 1.8755
0.6166 -23.4851 1.8854
2.7282 -23.4801 1.8970
4.8307 -23.2223 1.9035
6.9048 -22.7628 1.9089
9.0062 -22.2934 1.9295
11.0842 -21.6404 1.9512
13.1144 -20.7891 1.9726
15.0760 -19.7411 1.9934
16.9475 -18.5002 2.0135
9.1232 -8.3261 0.9912
9.1491 -6.9600 0.9225
9.7341 -6.1151 0.9225
23.1501 -11.8027 2.0853
22.1970 -8.9189 1.9198
22.9572 -6.9168 1.9241
23.3835 -4.8185 1.9160
23.6136 -2.6989 1.9074
4.9037 -0.1196 0.3936
23.5018 1.5308 1.8901
21.2897 3.3150 1.7291
19.7113 4.9050 1.6301
18.3674 6.3593 1.5599
17.0613 7.6751 1.5014
15.8402 8.9052 1.4583
14.6782 10.0759 1.4288
14.7634 12.2095 1.5375
15.4357 15.2827 1.7432
5.6608 6.7077 0.7044
4.7723 6.8058 0.6671
10.9031 18.9498 1.7545
9.0837 19.6667 1.7385
4.6914 13.1258 1.1186
5.1273 19.7627 1.6385
3.4852 21.0051 1.7087
0.5575 7.4185 0.5970
-0.1070 7.4229 0.5958
-2.4018 23.0469 1.8596
-4.4504 22.7404 1.8596
-6.3716 21.9361 1.8332
-7.7502 19.8577 1.7107
-9.5027 19.1066 1.7125
-11.1643 18.1708 1.7115
-12.7362 17.0930 1.7107
-14.2088 15.8839 1.7103
-15.5681 14.5493 1.7100
-16.8028 13.0990 1.7098
-17.8698 11.5232 1.7064
-8.6605 4.5453 0.7849
-16.9765 7.0557 1.4754
-16.9828 5.3368 1.4286
-16.9888 3.7109 1.3955
-16.3266 2.0620 1.3206
-17.9305 0.6496 1.4399
-21.1678 -1.1276 1.7011
-20.9872 -3.0140 1.7015
-20.6434 -4.8783 1.7023
-20.1379 -6.7065 1.7033
-19.4732 -8.4845 1.7046
-12.2124 -6.6768 1.1170
-19.0089 -12.7204 1.8355
-17.8583 -14.4166 1.8419
-16.5904 -16.0417 1.8520
-15.1125 -17.4835 1.8546
-13.5119 -18.7925 1.8575
-11.7930 -19.9465 1.8596
-9.9646 -20.9200 1.8596
-8.0577 -21.7293 1.8598
-6.1003 -22.4180 1.8645
-4.0844 -22.9322 1.8693
-2.0255 -23.2665 1.8742
0.0606 -23.4525 1.8821
2.1691 -23.5085 1.8946
4.2767 -23.3134 1.9021
6.3575 -22.8958 1.9069
8.4508 -22.4330 1.9238
10.5381 -21.8325 1.9455
12.5829 -21.0337 1.9670
14.5647 -20.0374 1.9879
16.4622 -18.8471 2.0082
18.2539 -17.4684 2.0276
19.9182 -15.9102 2.0458
10.4756 -6.9319 1.0081
22.8102 -12.3180 2.0804
21.9431 -9.4259 1.9166
22.8238 -7.4702 1.9272
23.2905 -5.3769 1.9183
23.5714 -3.2608 1.9096
4.8433 -0.2329 0.3891
23.5599 0.9754 1.8923
21.7412 2.8601 1.7598
20.1114 4.5020 1.6539
18.7312 5.9928 1.5783
17.3975 7.3364 1.5152
16.1567 8.5864 1.4683
14.9813 9.7706 1.4354
13.8486 10.9116 1.4149
15.8307 14.9487 1.7473
14.3454 16.2044 1.7368
4.9126 6.6646 0.6644
11.3761 18.7318 1.7588
9.5697 19.4934 1.7427
4.8892 12.7210 1.0937
5.8423 20.5090 1.7114
3.9845 20.9331 1.7101
2.2827 23.0591 1.8596
0.0686 7.4218 0.5956
-0.5967 7.4263 0.5979
-3.9110 22.8393 1.8596
-5.9350 22.3988 1.8596
-7.2726 20.0205 1.7094
-9.0479 19.3261 1.7125
-10.7353 18.4369 1.7121
-12.3285 17.3900 1.7107
-13.8296 16.2164 1.7104
-15.2199 14.9141 1.7101
-16.4888 13.4935 1.7099
-17.5971 11.9462 1.7069
-16.3008 9.0536 1.4964
-16.9747 7.5309 1.4903
-16.9812 5.7812 1.4396
-16.9872 4.1340 1.4030
-16.3251 2.4556 1.3249
-17.9289 1.0748 1.4414
-21.1894 -0.6262 1.7012
-21.0508 -2.5162 1.7014
-20.7503 -4.3879 1.7021
-20.2872 -6.2270 1.7030
-19.6643 -8.0196 1.7043
-20.4626 -10.5662 1.8482
-19.2894 -12.2574 1.8341
-18.1745 -13.9747 1.8398
-16.9596 -15.6393 1.8514
-15.5161 -17.1143 1.8539
-13.9469 -18.4596 1.8567
-12.2617 -19.6619 1.8596
-10.4568 -20.6783 1.8596
-8.5685 -21.5295 1.8596
-6.6246 -22.2525 1.8632
-4.6228 -22.8134 1.8680
-2.5737 -23.1958 1.8729
-0.4935 -23.4072 1.8789
1.6093 -23.5115 1.8912
3.7202 -23.3852 1.9003
5.8102 -23.0251 1.9057
7.8935 -22.5578 1.9179
9.9889 -22.0108 1.9398
12.0470 -21.2644 1.9613
14.0476 -20.3202 1.9825
15.9694 -19.1807 2.0029
8.2017 -8.2294 0.9324
19.4913 -16.3395 2.0411
9.8825 -6.8812 0.9664
22.4634 -12.8264 2.0759
23.7197 -10.8610 2.0936
22.6145 -7.9989 1.9250
23.1840 -5.9335 1.9205
4.9991 -0.8126 0.4064
4.8754 -0.3502 0.3923
23.6049 0.4182 1.8946
22.2093 2.3885 1.7926
20.5235 4.0868 1.6794
19.0268 5.5946 1.5916
17.7402 6.9912 1.5302
16.4777 8.2630 1.4793
15.2873 9.4622 1.4428
14.1454 10.6126 1.4192
16.2278 14.6130 1.7525
14.7369 15.8734 1.7382
5.0888 6.5721 0.6670
4.6480 7.2604 0.6918
10.0527 19.3083 1.7470
5.1760 12.5705 1.0910
6.3410 20.4135 1.7154
4.4822 20.8493 1.7114
2.8277 22.9986 1.8596
0.2443 7.4206 0.5958
-0.4200 7.4251 0.5968
-3.1384 21.3532 1.7320
-5.0842 21.2025 1.7498
-6.7917 20.1717 1.7081
-8.5880 19.5348 1.7125
-10.2982 18.6898 1.7125
-11.9138 17.6773 1.7107
-13.4427 16.5400 1.7105
-14.8634 15.2709 1.7102
-16.1656 13.8807 1.7099
-17.3125 12.3615 1.7072
-18.3302 10.7560 1.7056
-16.9729 8.0160 1.5064
-16.9795 6.2328 1.4515
-16.9857 4.5620 1.4114
-16.9916 2.9686 1.3843
-17.9273 1.5012 1.4437
-21.1993 -0.1246 1.7013
-21.1028 -2.0172 1.7012
-20.8457 -3.8951 1.7018
-20.4254 -5.7441 1.7028
-19.8446 -7.5505 1.7039
-19.1067 -9.3001 1.7053
-19.5592 -11.7885 1.8327
-18.4841 -13.5289 1.8382
-17.3193 -15.2286 1.8508
-15.9108 -16.7361 1.8532
-14.3738 -18.1168 1.8559
-12.7193 -19.3597 1.8590
-10.9432 -20.4251 1.8596
-9.0755 -21.3207 1.8596
-7.1446 -22.0748 1.8620
-5.1578 -22.6821 1.8667
-3.1197 -23.1123 1.8716
-1.0461 -23.3603 1.8766
1.0506 -23.5017 1.8879
3.1627 -23.4437 1.8984
5.2603 -23.1412 1.9045
7.3350 -22.6690 1.9121
9.4373 -22.1751 1.9340
11.5071 -21.4812 1.9557
13.5249 -20.5892 1.9769
15.4697 -19.5010 1.9976
17.3200 -18.2212 2.0175
9.2423 -8.1278 0.9877
10.1540 -7.4331 1.0099
22.1051 -13.3252 2.0713
23.4050 -11.3944 2.0890
22.3852 -8.5190 1.9221
23.0642 -6.4881 1.9228
23.4466 -4.3829 1.9142
23.6372 -2.2613 1.9056
5.0073 -0.0298 0.4018
22.6954 1.8988 1.8277
20.9488 3.6584 1.7066
19.4077 5.2109 1.6127
18.0899 6.6389 1.5464
16.8037 7.9346 1.4913
15.5968 9.1505 1.4512
14.4441 10.3117 1.4242
16.6275 14.2751 1.7587
15.1293 15.5417 1.7406
5.3836 6.6231 0.6850
4.6935 6.9630 0.6739
10.5323 19.1113 1.7512
5.5412 12.6018 1.1048
6.8386 20.3061 1.7195
4.6683 19.4616 1.6061
3.0958 21.0528 1.7077
0.4202 7.4194 0.5964
-0.2439 7.4239 0.5961
-2.8260 22.9988 1.8596
-4.8685 22.6545 1.8596
-6.3090 20.3157 1.7072
-8.1194 19.7231 1.7117
-9.8530 18.9282 1.7125
-11.4939 17.9568 1.7110
-13.0483 16.8545 1.7106
-14.4985 15.6189 1.7102
-15.8331 14.2598 1.7100
-17.0325 12.7807 1.7089
-18.0752 11.1897 1.7060
-8.6573 4.3421 0.7772
-16.9778 6.6922 1.4645
-16.9841 4.9953 1.4207
-16.9900 3.3845 1.3903
-17.9258 1.9292 1.4469
-16.3332 0.2906 1.3110
-21.1433 -1.5172 1.7011
-20.9297 -3.4003 1.7017
-20.5524 -5.2584 1.7025
-20.0139 -7.0774 1.7036
-19.3170 -8.8433 1.7049
-8.5259 -4.8674 0.7879
-18.7833 -13.0767 1.8367
-17.6258 -14.7735 1.8456
-16.2965 -16.3491 1.8525
-14.7925 -17.7644 1.8552
-13.1679 -19.0448 1.8581
-11.4235 -20.1604 1.8596
-9.5775 -21.1000 1.8596
-7.6599 -21.8852 1.8608
-5.6892 -22.5384 1.8655
-3.6632 -23.0160 1.8703
-1.5974 -23.3127 1.8753
0.4933 -23.4790 1.8846
2.6045 -23.4890 1.8966
4.7082 -23.2439 1.9032
6.7816 -22.7859 1.9079
8.8833 -22.3255 1.9283
10.9635 -21.6842 1.9500
12.9971 -20.8445 1.9713
14.9632 -19.8079 1.9922
16.8407 -18.5782 2.0123
18.6078 -17.1618 2.0314
9.1125 -7.0078 0.9225
9.7019 -6.1661 0.9225
23.0759 -11.9178 2.0843
22.1419 -9.0319 1.9191
22.9290 -7.0397 1.9249
23.3641 -4.9424 1.9165
23.6054 -2.8234 1.9079
4.8941 -0.1450 0.3929
23.5158 1.4080 1.8906
21.3884 3.2155 1.7357
19.7990 4.8167 1.6352
18.4472 6.2788 1.5638
17.1353 7.6006 1.5043
15.9100 8.8350 1.4605
14.7451 10.0085 1.4302
14.0192 11.4708 1.4537
15.5230 15.2089 1.7440
5.7355 6.7243 0.7093
4.8045 6.7759 0.6666
11.0083 18.9025 1.7554
9.1916 19.6294 1.7394
4.7219 12.9958 1.1096
5.0934 19.2167 1.5954
3.5959 20.9902 1.7090
1.8575 23.0972 1.8596
-0.0681 7.4227 0.5957
-0.7347 7.4272 0.5990
-4.3311 22.7634 1.8596
-6.3466 22.2857 1.8596
-7.6447 19.8948 1.7104
-9.4023 19.1561 1.7125
-11.0698 18.2306 1.7116
-12.6465 17.1596 1.7107
-14.1255 15.9583 1.7103
-15.4917 14.6309 1.7100
-16.7341 13.1871 1.7098
-17.8102 11.6174 1.7065
-16.3022 8.6653 1.4816
-16.9761 7.1602 1.4786
-16.9824 5.4347 1.4310
-16.9885 3.8042 1.3971
-16.3263 2.1490 1.3215
-17.9301 0.7437 1.4402
-21.1736 -1.0163 1.7012
-21.0023 -2.9038 1.7015
-20.6681 -4.7699 1.7022
-20.1719 -6.6005 1.7033
-19.5165 -8.3818 1.7046
-20.2251 -10.9200 1.8446
-19.0720 -12.6183 1.8352
-17.9283 -14.3185 1.8413
-16.6731 -15.9532 1.8519
-15.2026 -17.4022 1.8544
-13.6090 -18.7196 1.8573
-11.8974 -19.8844 1.8596
-10.0741 -20.8674 1.8596
-8.1704 -21.6836 1.8596
-6.2168 -22.3824 1.8642
-4.2040 -22.9070 1.8690
-2.1471 -23.2520 1.8739
-0.0623 -23.4435 1.8814
2.0450 -23.5103 1.8938
4.1536 -23.3304 1.9017
6.2365 -22.9256 1.9067
8.3275 -22.4621 1.9225
10.4166 -21.8732 1.9442
12.4646 -21.0860 1.9657
14.4507 -20.1012 1.9867
16.3536 -18.9221 2.0071
18.1520 -17.5543 2.0265
19.8245 -16.0063 2.0448
10.4570 -6.9988 1.0098
22.7332 -12.4308 2.0793
21.9004 -9.5440 1.9172
22.7831 -7.5893 1.9271
23.2681 -5.5004 1.9188
23.5602 -3.3852 1.9102
4.8282 -0.2575 0.3880
23.5710 0.8521 1.8928
21.8434 2.7571 1.7669
20.2016 4.4111 1.6594
19.3167 6.0687 1.6249
17.4728 7.2605 1.5185
16.2274 8.5152 1.4707
15.0488 9.7025 1.4369
13.9142 10.8455 1.4158
15.9184 14.8745 1.7484
14.4322 16.1311 1.7370
4.9466 6.6377 0.6643
11.4803 18.6819 1.7597
9.6770 19.4534 1.7437
4.9438 12.6645 1.0910
5.9529 20.4889 1.7123
4.0949 20.9156 1.7104
2.4035 23.0468 1.8596
0.1076 7.4215 0.5957
-0.5575 7.4260 0.5976
-3.5512 21.4128 1.7419
-5.8174 22.4296 1.8596
-7.1663 20.0550 1.7091
-8.9464 19.3733 1.7125
-10.6394 18.4945 1.7123
-12.2372 17.4545 1.7107
-13.7445 16.2888 1.7104
-15.1417 14.9938 1.7101
-16.4180 13.5799 1.7099
-17.5353 12.0390 1.7070
-16.3004 9.1655 1.5007
-16.9743 7.6375 1.4938
-16.9808 5.8806 1.4421
-16.9869 4.2284 1.4048
-16.3248 2.5431 1.3259
-17.9286 1.1692 1.4418
-21.1926 -0.5151 1.7012
-21.0633 -2.4058 1.7013
-20.7724 -4.2789 1.7020
-20.3188 -6.1203 1.7030
-19.7053 -7.9160 1.7042
-20.5282 -10.4641 1.8491
-19.3501 -12.1540 1.8338
-18.2440 -13.8765 1.8395
-17.0401 -15.5491 1.8512
-15.6043 -17.0313 1.8537
-14.0422 -18.3845 1.8565
-12.3646 -19.5973 1.8596
-10.5651 -20.6232 1.8596
-8.6812 -21.4843 1.8596
-6.7402 -22.2141 1.8630
-4.7416 -22.7854 1.8677
-2.6949 -23.1784 1.8726
-0.6160 -23.3954 1.8782
1.4854 -23.5104 1.8905
3.5967 -23.3993 1.8999
5.6886 -23.0520 1.9054
7.7696 -22.5830 1.9166
9.8669 -22.0483 1.9385
11.9277 -21.3136 1.9601
13.9322 -20.3810 1.9812
15.8593 -19.2528 2.0018
8.1531 -8.2669 0.9318
19.3953 -16.4330 2.0401
9.7315 -6.8521 0.9551
22.3851 -12.9379 2.0749
23.6513 -10.9801 2.0926
22.5649 -8.1148 1.9244
23.1586 -6.0566 1.9210
23.5016 -3.9465 1.9124
4.9148 -0.3790 0.3956
5.2588 0.0656 0.4221
22.3154 2.2816 1.8002
20.6166 3.9931 1.6853
19.1103 5.5105 1.5961
17.8170 6.9137 1.5337
16.5495 8.1907 1.4819
15.3556 9.3935 1.4446
14.2114 10.5462 1.4202
16.3161 14.5384 1.7538
14.8238 15.8000 1.7387
5.1313 6.5558 0.6681
4.6444 7.1717 0.6857
10.1592 19.2657 1.7479
5.2455 12.5519 1.0917
6.4514 20.3907 1.7163
4.5923 20.8291 1.7117
2.7747 21.6306 1.7501
0.2833 7.4203 0.5959
-0.3810 7.4248 0.5966
-3.2491 22.9428 1.8596
-5.2850 22.5610 1.8596
-6.6847 20.2036 1.7078
-8.4855 19.5794 1.7125
-10.2001 18.7436 1.7125
-11.8210 17.7396 1.7108
-13.3559 16.6107 1.7105
-14.7832 15.3487 1.7102
-16.0927 13.9654 1.7100
-17.2475 12.4520 1.7072
-18.2746 10.8526 1.7057
-16.9725 8.1249 1.5101
-16.9791 6.3339 1.4543
-16.9853 4.6575 1.4134
-16.9912 3.0604 1.3855
-17.9270 1.5959 1.4444
-21.1995 -0.0135 1.7013
-21.1128 -1.9065 1.7012
-20.8653 -3.7857 1.7018
-20.4545 -5.6368 1.7027
-19.8831 -7.4460 1.7039
-19.1542 -9.1993 1.7052
-11.9285 -7.1044 1.1142
-18.5512 -13.4293 1.8379
-17.3950 -15.1342 1.8504
-15.9970 -16.6511 1.8530
-14.4673 -18.0395 1.8557
-12.8193 -19.2908 1.8588
-11.0502 -20.3674 1.8596
-9.1871 -21.2729 1.8596
-7.2592 -22.0338 1.8617
-5.2759 -22.6514 1.8665
-3.2404 -23.0920 1.8713
-1.1683 -23.3509 1.8763
0.9271 -23.4977 1.8872
3.0390 -23.4549 1.8980
5.1382 -23.1651 1.9042
7.2128 -22.6969 1.9112
9.3147 -22.2096 1.9328
11.3870 -21.5274 1.9544
13.4083 -20.6470 1.9757
15.3580 -19.5702 1.9964
17.2145 -18.3014 2.0163
9.1772 -8.1563 0.9853
10.0731 -7.4553 1.0057
10.0478 -6.1290 0.9445
23.3333 -11.5113 2.0880
22.3325 -8.6333 1.9215
23.0242 -6.6073 1.9223
23.4295 -4.5069 1.9147
23.6314 -2.3858 1.9061
4.9752 -0.0557 0.3993
23.4638 1.8392 1.8888
21.0449 3.5616 1.7129
19.4934 5.1246 1.6175
18.1684 6.5598 1.5502
16.8767 7.8611 1.4941
15.6658 9.0809 1.4532
14.5105 10.2448 1.4255
16.7165 14.1999 1.7602
15.2164 15.4680 1.7413
5.4574 6.6423 0.6899
4.7125 6.9127 0.6714
10.6380 19.0660 1.7521
5.6349 12.6349 1.1102
6.9487 20.2807 1.7204
4.7798 19.4755 1.6093
3.2067 21.0400 1.7080
0.4593 7.4191 0.5965
-0.2049 7.4236 0.5960
-2.7053 23.0133 1.8596
-4.7497 22.6798 1.8596
-6.2954 20.6537 1.7328
-8.0146 19.7621 1.7114
-9.7537 18.9796 1.7125
-11.4004 18.0184 1.7111
-12.9599 16.9229 1.7106
-14.4165 15.6949 1.7103
-15.7583 14.3426 1.7100
-16.9713 12.8743 1.7095
-18.0174 11.2850 1.7061
-8.6376 4.3891 0.7775
-16.9774 6.7951 1.4675
-16.9837 5.0921 1.4229
-16.9897 3.4771 1.3917
-17.9254 2.0243 1.4477
-17.9314 0.4131 1.4394
-21.1507 -1.4063 1.7011
-20.9468 -3.2905 1.7016
-20.5790 -5.1503 1.7024
-20.0499 -6.9720 1.7035
-19.3621 -8.7414 1.7048
-8.5774 -4.8374 0.7903
-18.8481 -12.9757 1.8364
-17.6902 -14.6701 1.8443
-16.3807 -16.2621 1.8524
-14.8841 -17.6850 1.8550
-13.2663 -18.9736 1.8579
-11.5290 -20.1002 1.8596
-9.6880 -21.0494 1.8596
-7.7735 -21.8415 1.8605
-5.8065 -22.5049 1.8652
-3.7833 -22.9929 1.8700
-1.7193 -23.3003 1.8750
0.3700 -23.4722 1.8839
2.4807 -23.4972 1.8962
4.5856 -23.2649 1.9030
6.6611 -22.8180 1.9076
8.7604 -22.3570 1.9270
10.8425 -21.7273 1.9487
12.8795 -20.8992 1.9701
14.8502 -19.8741 1.9910
16.7334 -18.6555 2.0111
18.5076 -17.2498 2.0304
9.1078 -7.0806 0.9258
9.6695 -6.2169 0.9225
23.0011 -12.0324 2.0832
22.0862 -9.1445 1.9184
20.7889 -6.5021 1.7480
23.3439 -5.0662 1.9170
23.5966 -2.9479 1.9084
4.8819 -0.1703 0.3920
23.5291 1.2850 1.8911
21.4877 3.1154 1.7425
19.8872 4.7278 1.6405
18.5276 6.1979 1.5679
17.2095 7.5258 1.5074
15.9799 8.7645 1.4626
14.8121 9.9409 1.4316
13.6841 11.0773 1.4129
15.6105 15.1349 1.7449
14.1276 16.3886 1.7364
4.8355 6.7444 0.6660
11.1132 18.8546 1.7564
9.2994 19.5914 1.7404
4.7521 12.8682 1.1009
5.1867 19.1627 1.5932
3.7066 20.9747 1.7093
1.9785 23.0871 1.8596
-0.0292 7.4224 0.5957
-0.6953 7.4269 0.5986
-4.2117 22.7858 1.8596
-6.2297 22.3186 1.8596
-7.5390 19.9313 1.7101
-9.3017 19.2052 1.7125
-10.9750 18.2899 1.7118
-12.5564 17.2257 1.7107
-14.0417 16.0322 1.7103
-15.4149 14.7119 1.7101
-16.6648 13.2748 1.7098
-17.7502 11.7114 1.7066
-16.3018 8.7750 1.4857
-16.9757 7.2651 1.4818
-16.9821 5.5329 1.4333
-16.9881 3.8979 1.3987
-16.3260 2.2361 1.3224
-17.9298 0.8379 1.4405
-21.1788 -0.9055 1.7012
-21.0168 -2.7936 1.7015
-20.6922 -4.6612 1.7022
-20.2054 -6.4944 1.7032
-19.5592 -8.2790 1.7045
-20.2957 -10.8212 1.8458
-19.1345 -12.5160 1.8349
-17.9979 -14.2202 1.8408
-16.7552 -15.8644 1.8517
-15.2924 -17.3211 1.8543
-13.7056 -18.6462 1.8571
-12.0015 -19.8218 1.8596
-10.1834 -20.8143 1.8596
-8.2840 -21.6406 1.8596
-6.3331 -22.3462 1.8639
-4.3233 -22.8811 1.8687
-2.2686 -23.2368 1.8736
-0.1852 -23.4340 1.8807
1.9209 -23.5114 1.8931
4.0303 -23.3468 1.9013
6.1154 -22.9547 1.9064
8.2042 -22.4905 1.9212
10.2950 -21.9132 1.9430
12.3460 -21.1376 1.9645
14.3363 -20.1644 1.9855
16.2447 -18.9965 2.0059
18.0500 -17.6395 2.0254
19.7302 -16.1019 2.0437
9.9026 -6.7031 0.9596
22.6572 -12.5441 2.0783
21.8262 -9.6481 1.9151
20.2201 -6.8535 1.7134
23.2450 -5.6238 1.9193
23.5484 -3.5097 1.9107
4.8131 -0.2820 0.3869
23.5814 0.7287 1.8933
21.9464 2.6533 1.7741
20.2925 4.3196 1.6650
21.7007 1.9302 1.8835
21.3358 3.8413 1.8742
19.3224 5.2968 1.7321
18.0117 6.7176 1.6620
16.7310 8.0078 1.6036
15.5279 9.2199 1.5613
14.3777 10.3786 1.5330
15.7947 13.7046 1.8079
14.3916 14.9398 1.7934
5.2848 6.5716 0.7291
4.6525 6.9808 0.7253
9.6707 17.7676 1.7489
5.4788 12.6394 1.1910
6.2490 18.8821 1.7195
4.5169 19.2755 1.7116
2.7703 19.5512 1.7072
0.3813 7.4200 0.6423
-0.2829 7.4245 0.6423
-2.7351 21.3346 1.8596
-4.6294 21.0051 1.8596
-6.2464 19.7478 1.7907
-7.6271 18.2547 1.7104
-9.2381 17.5220 1.7125
-10.7636 16.6233 1.7121
-12.1931 15.5804 1.7104
-13.5339 14.4272 1.7102
-14.7656 13.1588 1.7099
-15.8796 11.7859 1.7097
-16.8663 10.3194 1.7094
-8.7054 4.3093 0.8398
-16.9782 6.5897 1.5745
-16.9844 4.8988 1.5282
-16.9904 3.2920 1.4962
-17.9261 1.8342 1.5579
-16.3335 0.2049 1.4122
-19.6507 -1.5137 1.7039
-19.4427 -3.2635 1.7044
-19.0824 -4.9890 1.7052
-18.5721 -6.6773 1.7063
-17.9112 -8.3136 1.7072
-8.5017 -4.9128 0.8489
-17.4365 -12.2754 1.8436
-16.3578 -13.8573 1.8534
-15.0726 -15.2806 1.8556
-13.6660 -16.5877 1.8581
-12.1398 -17.7561 1.8596
-10.5056 -18.7692 1.8596
-8.7875 -19.6324 1.8596
-7.0101 -20.3705 1.8625
-5.1751 -20.9642 1.8668
-3.2902 -21.3941 1.8713
-1.3707 -21.6686 1.8771
0.5733 -21.8351 1.8884
2.5315 -21.7875 1.8963
4.4787 -21.5301 1.9012
6.3978 -21.0915 1.9055
8.3297 -20.6188 1.9226
10.2480 -20.0079 1.9435
12.1191 -19.2112 1.9638
13.9206 -18.2281 1.9829
15.6366 -17.0692 2.0013
9.1232 -8.3261 1.0678
9.1632 -6.9706 0.9954
9.8262 -6.1730 1.0032
21.2600 -10.8391 2.0631
20.3503 -8.1769 1.8961
21.1142 -6.3616 1.9065
21.6234 -4.4558 1.9087
5.0548 -0.5777 0.4399
4.8933 -0.1193 0.4232
21.7678 1.4179 1.8859
21.4493 3.3398 1.8767
19.7113 4.9050 1.7561
18.3674 6.3593 1.6804
17.0613 7.6751 1.6174
15.8402 8.9052 1.5710
14.6782 10.0759 1.5392
14.7633 12.2095 1.6563
14.7729 14.6265 1.7973
5.6270 6.6677 0.7543
4.7530 6.7783 0.7157
10.1111 17.5732 1.7528
8.4294 18.2502 1.7380
6.7090 18.7707 1.7233
4.9744 19.1734 1.7125
3.2341 19.4916 1.7082
0.5575 7.4189 0.6432
-0.1070 7.4233 0.6418
-2.2295 21.3934 1.8596
-4.1311 21.1088 1.8596
-5.9996 20.6556 1.8596
-7.1881 18.4174 1.7092
-8.8209 17.7358 1.7125
-10.3695 16.8772 1.7125
-11.8216 15.8653 1.7105
-13.1895 14.7445 1.7103
-14.4507 13.5051 1.7100
-15.5967 12.1587 1.7097
-16.6181 10.7160 1.7095
-8.6601 4.5452 0.8456
-16.9765 7.0557 1.5894
-16.9828 5.3368 1.5390
-16.9888 3.7109 1.5034
-16.3266 2.0620 1.4227
-17.9305 0.6496 1.5512
-19.6801 -1.0482 1.7038
-19.5127 -2.8022 1.7043
-19.1925 -4.5354 1.7050
-18.7216 -6.2348 1.7060
-18.1029 -7.8874 1.7072
-12.1923 -6.6658 1.2013
-17.7086 -11.8503 1.8422
-16.6516 -13.4425 1.8501
-15.4249 -14.9148 1.8550
-14.0496 -16.2537 1.8574
-12.5566 -17.4638 1.8596
-10.9468 -18.5154 1.8596
-9.2496 -19.4189 1.8596
-7.4857 -20.1867 1.8614
-5.6662 -20.8228 1.8657
-3.7931 -21.2965 1.8701
-1.8806 -21.6016 1.8746
0.0564 -21.8074 1.8853
2.0134 -21.8214 1.8946
3.9655 -21.6167 1.9000
5.8935 -21.2246 1.9044
7.8167 -20.7496 1.9170
9.7441 -20.1876 1.9380
11.6300 -19.4407 1.9585
13.4513 -18.5056 1.9779
15.1918 -17.3927 1.9965
16.8327 -16.1085 2.0143
18.3547 -14.6613 2.0309
9.4553 -6.2568 0.9802
20.9651 -11.3217 2.0599
20.1202 -8.6429 1.8932
20.9285 -6.8498 1.9038
21.5213 -4.9684 1.9095
4.9810 -0.6891 0.4347
4.8344 -0.2324 0.4184
21.8225 0.9035 1.8883
21.5507 2.8350 1.8792
20.1114 4.5020 1.7817
18.7312 5.9928 1.7003
17.3975 7.3364 1.6324
16.1567 8.5864 1.5818
14.9813 9.7706 1.5463
13.8486 10.9116 1.5243
15.1472 14.3033 1.8011
13.6973 15.4722 1.7865
4.8942 6.6397 0.7131
10.5479 17.3681 1.7568
8.8789 18.0863 1.7419
4.9094 12.7736 1.1831
5.4276 19.0533 1.7128
3.6971 19.4236 1.7094
2.1189 21.4046 1.8596
0.0686 7.4221 0.6417
-0.5967 7.4266 0.6441
-3.6305 21.2006 1.8596
-5.5092 20.7917 1.8596
-6.7456 18.5696 1.7081
-8.3986 17.9392 1.7125
-9.9672 17.1178 1.7125
-11.4466 16.1460 1.7111
-12.8373 15.0529 1.7104
-14.1277 13.8437 1.7101
-15.3051 12.5248 1.7098
-16.3605 11.1068 1.7096
-16.3008 9.0536 1.6120
-16.9747 7.5309 1.6055
-16.9812 5.7812 1.5508
-16.9872 4.1340 1.5115
-16.3252 2.4556 1.4273
-17.9289 1.0748 1.5528
-19.6986 -0.5822 1.7038
-19.5719 -2.3395 1.7041
-19.2920 -4.0795 1.7048
-18.8607 -5.7891 1.7057
-18.2810 -7.4554 1.7068
-17.5455 -9.0599 1.7072
-17.9709 -11.4195 1.8408
-16.9290 -13.0170 1.8462
-15.7686 -14.5410 1.8544
-14.4251 -15.9110 1.8567
-12.9648 -17.1598 1.8594
-11.3819 -18.2511 1.8596
-9.7066 -19.1947 1.8596
-7.9565 -19.9919 1.8602
-6.1535 -20.6700 1.8645
-4.2933 -21.1873 1.8690
-2.3898 -21.5383 1.8735
-0.4590 -21.7679 1.8823
1.4951 -21.8430 1.8928
3.4507 -21.6910 1.8989
5.3864 -21.3455 1.9033
7.3036 -20.8722 1.9118
9.2372 -20.3543 1.9324
11.1360 -19.6563 1.9531
12.9764 -18.7707 1.9728
14.7401 -17.7042 1.9917
8.2015 -8.2292 1.0044
17.9645 -15.0596 2.0266
9.2541 -6.4437 0.9749
20.6579 -11.7955 2.0566
19.8779 -9.1019 1.8901
20.7298 -7.3323 1.9010
21.4057 -5.4784 1.9103
4.9610 -0.8064 0.4345
4.7668 -0.3424 0.4132
21.8646 0.3873 1.8906
21.6398 2.3273 1.8816
20.5235 4.0868 1.8092
19.0268 5.5946 1.7146
17.7402 6.9912 1.6485
16.4777 8.2630 1.5937
15.2873 9.4622 1.5543
14.1454 10.6127 1.5288
15.5142 13.9704 1.8049
14.0902 15.1768 1.7904
5.0690 6.5467 0.7158
4.6132 7.2061 0.7397
9.3253 17.9113 1.7458
5.1953 12.6174 1.1797
5.8899 18.9613 1.7166
4.1588 19.3446 1.7106
2.6248 21.3485 1.8596
0.2443 7.4210 0.6419
-0.4200 7.4254 0.6430
-3.1277 21.2806 1.8596
-5.0156 20.9163 1.8596
-6.3010 18.7142 1.7072
-7.9663 18.1207 1.7113
-9.5593 17.3489 1.7125
-11.0650 16.4178 1.7117
-12.4778 15.3529 1.7104
-13.7968 14.1747 1.7101
-15.0050 12.8841 1.7099
-16.0936 11.4911 1.7096
-17.0531 10.0066 1.7094
-16.9729 8.0160 1.6228
-16.9795 6.2328 1.5637
-16.9857 4.5620 1.5205
-16.9916 2.9686 1.4912
-17.9273 1.5012 1.5553
-19.7063 -0.1158 1.7037
-19.6204 -1.8755 1.7040
-19.3809 -3.6214 1.7046
-18.9894 -5.3403 1.7054
-18.4487 -7.0194 1.7065
-17.7550 -8.6422 1.7072
-18.2625 -11.0070 1.8435
-17.2179 -12.6022 1.8447
-16.1034 -14.1595 1.8539
-14.7924 -15.5598 1.8561
-13.3621 -16.8416 1.8586
-11.8106 -17.9767 1.8596
-10.1581 -18.9596 1.8596
-8.4244 -19.7910 1.8596
-6.6368 -20.5060 1.8634
-4.7904 -21.0664 1.8678
-2.8969 -21.4619 1.8723
-0.9724 -21.7166 1.8794
0.9767 -21.8484 1.8908
2.9345 -21.7526 1.8976
4.8768 -21.4541 1.9021
6.7946 -20.9988 1.9081
8.7278 -20.5081 1.9269
10.6380 -19.8590 1.9477
12.4963 -19.0233 1.9677
14.2817 -18.0036 1.9867
15.9778 -16.8091 2.0050
9.2423 -8.1278 1.0641
9.1564 -6.7028 0.9810
20.3382 -12.2601 2.0531
19.6235 -9.5534 1.8869
20.5207 -7.8095 1.8982
21.2496 -5.9776 1.9084
21.6932 -4.0551 1.9079
4.7839 -0.4577 0.4155
4.9872 -0.0297 0.4312
21.7167 1.8169 1.8841
21.3620 3.7305 1.8748
19.4077 5.2109 1.7373
18.0899 6.6389 1.6659
16.8037 7.9346 1.6066
15.5968 9.1505 1.5633
14.4441 10.3117 1.5343
15.8737 13.6279 1.8087
14.4767 14.8713 1.7943
5.3566 6.5898 0.7342
4.6709 6.9293 0.7225
9.7685 17.7255 1.7498
5.5699 12.6670 1.1963
6.3511 18.8584 1.7204
4.6187 19.2546 1.7119
2.8729 19.5368 1.7072
0.4203 7.4198 0.6425
-0.2439 7.4243 0.6422
-2.6232 21.3487 1.8596
-4.5192 21.0291 1.8596
-6.2536 20.1374 1.8230
-7.5301 18.2917 1.7102
-9.1461 17.5703 1.7125
-10.6771 16.6808 1.7123
-12.1113 15.6442 1.7105
-13.4582 14.4983 1.7102
-14.6965 13.2362 1.7099
-15.8176 11.8691 1.7097
-16.8121 10.4077 1.7095
-8.6571 4.3420 0.8373
-16.9778 6.6922 1.5777
-16.9841 4.9953 1.5305
-16.9900 3.3845 1.4977
-17.9258 1.9292 1.5587
-16.3332 0.2906 1.4123
-19.6582 -1.4106 1.7039
-19.4592 -3.1614 1.7044
-19.1077 -4.8887 1.7051
-18.6061 -6.5796 1.7062
-17.9545 -8.2196 1.7072
-8.5257 -4.8673 0.8487
-17.4977 -12.1817 1.8432
-16.4292 -13.7705 1.8533
-15.1514 -15.2003 1.8555
-13.7517 -16.5145 1.8579
-12.2327 -17.6922 1.8596
-10.6039 -18.7139 1.8596
-8.8903 -19.5861 1.8596
-7.1159 -20.3308 1.8622
-5.2842 -20.9339 1.8666
-3.4018 -21.3735 1.8711
-1.4838 -21.6537 1.8764
0.4587 -21.8300 1.8877
2.4168 -21.7961 1.8959
4.3651 -21.5504 1.9010
6.2863 -21.1220 1.9052
8.2162 -20.6489 1.9213
10.1366 -20.0488 1.9422
12.0112 -19.2633 1.9626
13.8171 -18.2907 1.9818
15.5387 -17.1419 2.0002
17.1566 -15.8233 2.0178
9.1961 -7.0721 1.0029
9.7438 -6.1927 0.9981
21.1957 -10.9467 2.0624
20.3004 -8.2807 1.8954
21.0742 -6.4702 1.9059
21.6019 -4.5696 1.9089
5.0384 -0.6026 0.4387
4.8837 -0.1447 0.4224
21.7811 1.3041 1.8864
21.4728 3.2282 1.8773
19.7990 4.8167 1.7616
18.4472 6.2788 1.6847
17.1353 7.6006 1.6206
15.9100 8.8350 1.5733
14.7451 10.0085 1.5407
14.0192 11.4708 1.5660
14.8564 14.5557 1.7981
5.7010 6.6839 0.7595
4.7851 6.7485 0.7152
10.2082 17.5287 1.7537
8.5293 18.2148 1.7389
4.7573 13.0931 1.2044
5.0749 19.1470 1.7125
3.3368 19.4775 1.7085
1.7242 21.4400 1.8596
-0.0681 7.4231 0.6418
-0.7347 7.4276 0.6453
-4.0203 21.1302 1.8596
-5.8913 20.6867 1.8596
-7.0903 18.4521 1.7090
-8.7278 17.7818 1.7125
-10.2809 16.9311 1.7125
-11.7391 15.9283 1.7107
-13.1122 14.8135 1.7103
-14.3798 13.5807 1.7100
-15.5328 12.2404 1.7097
-16.5618 10.8031 1.7095
-16.3022 8.6653 1.5961
-16.9761 7.1602 1.5929
-16.9824 5.4347 1.5416
-16.9885 3.8042 1.5051
-16.3263 2.1490 1.4237
-17.9301 0.7437 1.5515
-19.6851 -0.9450 1.7038
-19.5267 -2.6998 1.7042
-19.2154 -4.4346 1.7049
-18.7533 -6.1363 1.7059
-18.1433 -7.7920 1.7071
-17.3757 -9.3816 1.7072
-17.7676 -11.7553 1.8418
-16.7107 -13.3460 1.8489
-15.5019 -14.8326 1.8549
-14.1335 -16.1785 1.8573
-12.6480 -17.3977 1.8596
-11.0438 -18.4577 1.8596
-9.3513 -19.3702 1.8596
-7.5905 -20.1445 1.8611
-5.7744 -20.7900 1.8654
-3.9042 -21.2733 1.8699
-1.9935 -21.5899 1.8745
-0.0580 -21.7997 1.8847
1.8986 -21.8273 1.8942
3.8516 -21.6343 1.8998
5.7814 -21.2524 1.9041
7.7027 -20.7769 1.9157
9.6320 -20.2256 1.9367
11.5209 -19.4896 1.9573
13.3466 -18.5654 1.9768
15.0923 -17.4628 1.9954
16.7396 -16.1884 2.0132
18.2691 -14.7504 2.0300
9.4105 -6.2983 0.9790
20.8981 -11.4274 2.0592
20.0676 -8.7453 1.8925
20.8856 -6.9573 1.9032
21.4968 -5.0817 1.9097
4.9647 -0.7134 0.4336
4.8193 -0.2570 0.4172
21.8329 0.7892 1.8888
21.5715 2.7228 1.8797
20.2016 4.4111 1.7877
19.3167 6.0687 1.7505
17.4728 7.2605 1.6358
16.2274 8.5152 1.5843
15.0488 9.7025 1.5480
13.9142 10.8455 1.5252
15.2291 14.2304 1.8020
13.7849 15.4076 1.7874
4.9277 6.6123 0.7129
10.6441 17.3211 1.7576
8.9781 18.0484 1.7428
4.9639 12.7160 1.1801
5.5302 19.0339 1.7136
3.7996 19.4071 1.7097
2.2311 21.3932 1.8596
0.1076 7.4219 0.6417
-0.5575 7.4264 0.6439
-3.5191 21.2194 1.8596
-5.4001 20.8204 1.8596
-6.6471 18.6018 1.7078
-8.3031 17.9803 1.7122
-9.8773 17.1697 1.7125
-11.3626 16.2070 1.7112
-12.7583 15.1201 1.7104
-14.0550 13.9179 1.7101
-15.2394 12.6050 1.7098
-16.3022 11.1923 1.7096
-16.3004 9.1655 1.6167
-16.9743 7.6375 1.6092
-16.9808 5.8806 1.5536
-16.9869 4.2284 1.5134
-16.3248 2.5431 1.4284
-17.9286 1.1692 1.5533
-19.7013 -0.4789 1.7038
-19.5836 -2.2368 1.7041
-19.3126 -3.9782 1.7047
-18.8901 -5.6899 1.7056
-18.3191 -7.3591 1.7068
-17.5928 -8.9678 1.7072
-18.0276 -11.3233 1.8405
-16.9935 -12.9254 1.8458
-15.8435 -14.4572 1.8543
-14.5072 -15.8339 1.8566
-13.0535 -17.0901 1.8592
-11.4775 -18.1912 1.8596
-9.8071 -19.1435 1.8596
-8.0601 -19.9473 1.8600
-6.2610 -20.6346 1.8643
-4.4037 -21.1615 1.8687
-2.5024 -21.5224 1.8732
-0.5729 -21.7575 1.8817
1.3803 -21.8461 1.8925
3.3364 -21.7058 1.8986
5.2737 -21.3706 1.9030
7.1911 -20.9015 1.9110
9.1246 -20.3895 1.9312
11.0260 -19.7024 1.9519
12.8704 -18.8278 1.9717
14.6391 -17.7716 1.9906
8.1529 -8.2667 1.0038
17.8768 -15.1464 2.0257
9.2100 -6.4849 0.9738
20.5882 -11.8994 2.0558
19.8225 -9.2026 1.8894
20.6840 -7.4384 1.9003
21.3768 -5.5906 1.9103
4.9944 -0.8387 0.4378
4.7665 -0.3675 0.4133
5.1024 0.0636 0.4412
21.6579 2.2144 1.8822
20.6166 3.9931 1.8155
19.1103 5.5105 1.7195
17.8170 6.9137 1.6523
16.5495 8.1907 1.5964
15.3556 9.3935 1.5563
14.2114 10.5462 1.5300
15.5945 13.8954 1.8058
14.1764 15.1099 1.7913
5.1101 6.5287 0.7168
4.6095 7.1177 0.7331
9.4238 17.8711 1.7467
5.2651 12.5989 1.1805
5.9923 18.9394 1.7174
4.2608 19.3256 1.7109
2.7151 21.1659 1.8449
0.2833 7.4207 0.6420
-0.3810 7.4252 0.6428
-3.0160 21.2968 1.8596
-4.9058 20.9423 1.8596
-6.2478 18.8833 1.7196
-7.8700 18.1595 1.7111
-9.4683 17.3987 1.7125
-10.9796 16.4769 1.7118
-12.3972 15.4182 1.7104
-13.7224 14.2474 1.7102
-14.9374 12.9627 1.7099
-16.0333 11.5754 1.7096
-17.0005 10.0960 1.7094
-16.9725 8.1249 1.6268
-16.9791 6.3339 1.5667
-16.9853 4.6575 1.5227
-16.9912 3.0604 1.4926
-17.9270 1.5959 1.5560
-19.7066 -0.0125 1.7037
-19.6297 -1.7726 1.7040
-19.3992 -3.5197 1.7045
-19.0165 -5.2405 1.7053
-18.4845 -6.9222 1.7064
-17.8001 -8.5489 1.7072
-11.9122 -7.0947 1.1987
-17.2807 -12.5096 1.8444
-16.1764 -14.0740 1.8537
-14.8727 -15.4808 1.8560
-13.4491 -16.7699 1.8585
-11.9047 -17.9145 1.8596
-10.2573 -18.9061 1.8596
-8.5280 -19.7465 1.8596
-6.7434 -20.4681 1.8631
-4.9001 -21.0380 1.8675
-3.0090 -21.4433 1.8720
-1.0859 -21.7037 1.8787
0.8619 -21.8453 1.8901
2.8198 -21.7633 1.8973
4.7636 -21.4765 1.9019
6.6813 -21.0243 1.9072
8.6147 -20.5404 1.9257
10.5273 -19.9022 1.9465
12.3892 -19.0776 1.9666
14.1793 -18.0682 1.9856
15.8811 -16.8839 2.0039
9.1772 -8.1563 1.0615
9.1431 -6.7670 0.9834
20.2655 -12.3617 2.0523
19.5655 -9.6525 1.8862
20.4730 -7.9144 1.8976
21.2119 -6.0872 1.9079
21.6745 -4.1693 1.9082
4.7815 -0.4828 0.4155
4.9553 -0.0555 0.4284
21.7320 1.7034 1.8846
21.3876 3.6195 1.8753
19.4934 5.1246 1.7425
18.1684 6.5598 1.6700
16.8767 7.8611 1.6096
15.6658 9.0809 1.5655
14.5106 10.2448 1.5357
15.9523 13.5508 1.8096
14.5614 14.8022 1.7951
5.4294 6.6083 0.7394
4.6888 6.8779 0.7197
9.8663 17.6828 1.7506
5.7062 12.7947 1.2112
6.4531 18.8341 1.7212
4.7203 19.2332 1.7121
2.9758 19.5247 1.7075
0.4593 7.4195 0.6427
-0.2049 7.4240 0.6421
-2.5112 21.3621 1.8596
-4.4089 21.0526 1.8596
-6.2674 20.5618 1.8584
-7.4330 18.3281 1.7099
-9.0539 17.6179 1.7125
-10.5902 16.7379 1.7124
-12.0292 15.7076 1.7105
-13.3822 14.5688 1.7103
-14.6271 13.3132 1.7099
-15.7553 11.9519 1.7097
-16.7575 10.4959 1.7095
-8.6374 4.3890 0.8376
-16.9774 6.7951 1.5810
-16.9837 5.0921 1.5329
-16.9897 3.4771 1.4993
-17.9254 2.0243 1.5596
-17.9314 0.4131 1.5507
-19.6651 -1.3075 1.7039
-19.4750 -3.0593 1.7043
-19.1325 -4.7883 1.7051
-18.6396 -6.4817 1.7061
-17.9974 -8.1253 1.7072
-8.5771 -4.8372 0.8513
-17.5583 -12.0878 1.8429
-16.5002 -13.6833 1.8532
-15.2298 -15.1195 1.8553
-13.8369 -16.4408 1.8578
-12.3253 -17.6278 1.8596
-10.7018 -18.6581 1.8596
-8.9929 -19.5392 1.8596
-7.2214 -20.2905 1.8620
-5.3932 -20.9030 1.8663
-3.5133 -21.3523 1.8708
-1.5967 -21.6382 1.8758
0.3440 -21.8243 1.8870
2.3020 -21.8041 1.8955
4.2515 -21.5700 1.9007
6.1747 -21.1520 1.9050
8.1026 -20.6784 1.9201
10.0250 -20.0891 1.9410
11.9030 -19.3148 1.9615
13.7133 -18.3526 1.9807
15.4404 -17.2140 1.9992
17.0650 -15.9052 2.0168
9.2253 -7.1719 1.0102
9.6537 -6.2067 0.9922
21.1309 -11.0540 2.0617
20.2499 -8.3842 1.8948
21.0336 -6.5786 1.9053
21.5798 -4.6833 1.9091
5.0220 -0.6274 0.4375
4.8728 -0.1700 0.4215
21.7936 1.1902 1.8870
21.4957 3.1166 1.8778
19.8872 4.7278 1.7673
18.5276 6.1979 1.6890
17.2095 7.5258 1.6239
15.9799 8.7645 1.5757
14.8121 9.9409 1.5422
13.6841 11.0773 1.5221
14.9396 14.4845 1.7990
13.4757 15.6324 1.7843
4.8171 6.7188 0.7147
10.3051 17.4837 1.7546
8.6290 18.1789 1.7397
4.7859 12.9596 1.1944
5.1752 19.1201 1.7125
3.4394 19.4629 1.7087
1.8366 21.4307 1.8596
-0.0292 7.4228 0.6417
-0.6954 7.4273 0.6449
-3.9095 21.1510 1.8596
-5.7827 20.7174 1.8596
-6.9924 18.4862 1.7087
-8.6344 17.8272 1.7125
-10.1919 16.9849 1.7125
-11.6562 15.9908 1.7108
-13.0344 14.8822 1.7103
-14.3086 13.6561 1.7100
-15.4685 12.3218 1.7097
-16.5050 10.8901 1.7095
-16.3018 8.7750 1.6006
-16.9757 7.2651 1.5964
-16.9821 5.5329 1.5441
-16.9881 3.8979 1.5069
-16.3260 2.2361 1.4246
-17.9298 0.8379 1.5518
-19.6896 -0.8418 1.7038
-19.5403 -2.5974 1.7042
-19.2379 -4.3336 1.7049
-18.7845 -6.0377 1.7058
-18.1831 -7.6965 1.7070
-17.4278 -9.2921 1.7075
-17.8260 -11.6601 1.8415
-16.7690 -13.2492 1.8477
-15.5783 -14.7501 1.8547
-14.2169 -16.1029 1.8571
-12.7390 -17.3312 1.8596
-11.1404 -18.3996 1.8596
-9.4528 -19.3209 1.8596
-7.6949 -20.1017 1.8609
-5.8826 -20.7565 1.8652
-4.0150 -21.2495 1.8696
-2.1065 -21.5758 1.8742
-0.1722 -21.7913 1.8840
1.7837 -21.8325 1.8938
3.7376 -21.6512 1.8995
5.6692 -21.2797 1.9039
7.5888 -20.8034 1.9145
9.5198 -20.2631 1.9355
11.4116 -19.5378 1.9561
13.2415 -18.6246 1.9757
14.9925 -17.5322 1.9944
16.6461 -16.2677 2.0122
18.1829 -14.8391 2.0290
9.3658 -6.3398 0.9778
20.8305 -11.5327 2.0585
20.0144 -8.8472 1.8918
20.2307 -6.8571 1.8468
21.4717 -5.1948 1.9099
4.9446 -0.7370 0.4322
4.8042 -0.2815 0.4161
21.8427 0.6750 1.8893
21.5917 2.6104 1.8803
20.2925 4.3196 1.7937
20.1809 1.7950 1.8774
19.8480 3.5734 1.8688
19.3531 5.3052 1.8595
18.0117 6.7176 1.7813
16.7310 8.0078 1.7188
15.5279 9.2199 1.6734
14.3777 10.3786 1.6431
14.6927 12.7484 1.8025
13.3950 13.9052 1.7891
5.2585 6.5389 0.7775
4.6293 6.9459 0.7735
9.0165 16.5657 1.7477
5.5091 12.7092 1.2836
5.8329 17.6248 1.7203
4.2122 17.9753 1.7108
2.6815 18.9239 1.7711
0.3813 7.4204 0.6885
-0.2829 7.4249 0.6885
-2.5518 19.9050 1.8596
-4.3192 19.5976 1.8596
-6.0521 19.1336 1.8596
-7.1103 17.0178 1.7090
-8.6190 16.3479 1.7125
-10.0445 15.5128 1.7125
-11.3811 14.5429 1.7112
-12.6265 13.4600 1.7101
-13.7763 12.2771 1.7099
-14.8151 10.9958 1.7096
-15.7356 9.6276 1.7094
-8.6846 4.2990 0.8979
-16.9782 6.5897 1.6876
-16.9844 4.8988 1.6380
-16.9904 3.2920 1.6037
-17.9261 1.8342 1.6698
-16.3335 0.2049 1.5136
-18.3597 -1.4142 1.7063
-18.1650 -3.0490 1.7068
-17.8278 -4.6610 1.7075
-17.3382 -6.2337 1.7073
-16.7110 -7.7565 1.7072
-8.5015 -4.9127 0.9098
-16.3183 -11.4881 1.8492
-15.2840 -12.9476 1.8561
-14.0820 -14.2764 1.8582
-12.7605 -15.4886 1.8596
-11.3263 -16.5662 1.8596
-9.8016 -17.5115 1.8596
-8.1997 -18.3191 1.8598
-6.5447 -19.0182 1.8637
-4.8308 -19.5694 1.8678
-3.0708 -19.9675 1.8720
-1.2811 -20.2527 1.8804
0.5352 -20.3851 1.8896
2.3603 -20.3141 1.8950
4.1742 -20.0663 1.8992
5.9619 -19.6545 1.9032
7.7453 -19.1723 1.9161
9.5218 -18.5900 1.9354
11.2524 -17.8375 1.9543
12.9192 -16.9170 1.9724
14.5040 -15.8328 1.9897
9.1232 -8.3261 1.1445
9.2049 -7.0024 1.0717
9.8746 -6.2034 1.0806
17.9330 -9.1429 1.8652
18.7854 -7.5481 1.8760
19.4872 -5.8713 1.8859
20.0158 -4.1246 1.8937
4.7843 -0.5468 0.4462
4.8828 -0.1191 0.4526
20.2411 1.3184 1.8796
19.9521 3.1067 1.8711
19.4995 4.8523 1.8620
18.3674 6.3593 1.8011
17.0613 7.6751 1.7336
15.8402 8.9052 1.6839
14.6782 10.0759 1.6498
14.7634 12.2095 1.7753
13.7478 13.6116 1.7927
5.5936 6.6281 0.8037
4.7339 6.7511 0.7641
9.4257 16.3820 1.7514
7.8625 17.0228 1.7375
6.2613 17.5182 1.7239
4.6395 17.8824 1.7119
3.0164 18.1792 1.7076
0.5575 7.4193 0.6894
-0.1070 7.4237 0.6880
-2.0801 19.9598 1.8596
-3.8542 19.6943 1.8596
-5.5976 19.2714 1.8596
-6.7013 17.1703 1.7080
-8.2275 16.5426 1.7120
-9.6746 15.7462 1.7125
-11.0372 14.8126 1.7117
-12.3047 13.7553 1.7102
-13.4826 12.6004 1.7100
-14.5513 11.3440 1.7097
-15.5039 9.9976 1.7094
-8.6332 4.5310 0.9035
-16.9765 7.0557 1.7036
-16.9828 5.3368 1.6496
-16.9888 3.7109 1.6114
-16.3266 2.0620 1.5249
-17.9305 0.6496 1.6626
-18.3872 -0.9794 1.7062
-18.2305 -2.6181 1.7066
-17.9332 -4.2379 1.7075
-17.4814 -5.8218 1.7074
-16.8898 -7.3589 1.7072
-12.1723 -6.6548 1.2855
-16.5737 -11.0909 1.8479
-15.5820 -12.5790 1.8557
-14.4115 -13.9349 1.8576
-13.1234 -15.1823 1.8596
-11.7152 -16.2936 1.8596
-10.2133 -17.2747 1.8596
-8.6298 -18.1177 1.8596
-6.9890 -18.8473 1.8627
-5.2894 -19.4382 1.8667
-3.5403 -19.8773 1.8709
-1.7574 -20.1875 1.8777
0.0527 -20.3747 1.8880
1.8778 -20.3521 1.8939
3.6960 -20.1479 1.8981
5.4922 -19.7794 1.9022
7.2720 -19.3039 1.9115
9.0554 -18.7607 1.9303
10.7999 -18.0531 1.9494
12.4853 -17.1767 1.9677
14.0936 -16.1353 1.9852
15.6064 -14.9349 2.0016
17.0059 -13.5839 2.0168
9.4997 -6.2862 1.0556
17.6814 -9.5484 1.8621
18.5755 -7.9794 1.8734
19.3179 -6.3227 1.8835
19.8933 -4.5926 1.8919
4.8800 -0.6751 0.4565
4.8255 -0.2320 0.4477
20.2894 0.8400 1.8817
20.0448 2.6369 1.8734
19.6349 4.3953 1.8645
18.7312 5.9928 1.8224
17.3975 7.3364 1.7496
16.1567 8.5864 1.6954
14.9813 9.7706 1.6574
13.8486 10.9116 1.6337
14.0940 13.3088 1.7963
12.7521 14.4046 1.7827
4.8759 6.6148 0.7615
9.8313 16.1882 1.7550
8.2805 16.8673 1.7412
4.9325 12.8336 1.2740
5.0675 17.7893 1.7140
3.4481 18.1150 1.7087
1.9769 19.9703 1.8596
0.0686 7.4225 0.6878
-0.5967 7.4270 0.6904
-3.3871 19.7800 1.8596
-5.1400 19.3985 1.8596
-6.2903 17.3162 1.7072
-7.8288 16.7223 1.7110
-9.2993 15.9708 1.7125
-10.6868 15.0743 1.7123
-11.9767 14.0438 1.7103
-13.1810 12.9162 1.7101
-14.2794 11.6855 1.7098
-15.2636 10.3620 1.7095
-16.1260 8.9565 1.7093
-16.8593 7.4797 1.7091
-16.9812 5.7812 1.6622
-16.9872 4.1340 1.6200
-16.3252 2.4556 1.5298
-17.9289 1.0748 1.6643
-18.4045 -0.5439 1.7062
-18.2859 -2.1857 1.7065
-18.0240 -3.8113 1.7071
-17.6149 -5.4067 1.7074
-17.0596 -6.9573 1.7072
-16.3698 -8.4528 1.7072
-16.8335 -10.6968 1.8481
-15.8523 -12.1891 1.8530
-14.7329 -13.5860 1.8571
-13.4765 -14.8647 1.8592
-12.0975 -16.0118 1.8596
-10.6192 -17.0281 1.8596
-9.0561 -17.9084 1.8596
-7.4289 -18.6662 1.8616
-5.7446 -19.2964 1.8656
-4.0073 -19.7761 1.8698
-2.2314 -20.1115 1.8750
-0.4289 -20.3418 1.8854
1.3946 -20.3754 1.8925
3.2164 -20.2180 1.8970
5.0198 -19.8928 1.9011
6.8012 -19.4363 1.9081
8.5860 -18.9195 1.9252
10.3432 -18.2569 1.9444
12.0460 -17.4249 1.9629
13.6765 -16.4267 1.9807
8.2013 -8.2290 1.0766
16.6475 -13.9555 2.0129
9.3036 -6.4781 1.0505
19.0808 -10.8950 2.0360
18.3541 -8.4041 1.8706
19.1366 -6.7688 1.8809
19.7582 -5.0567 1.8899
4.9319 -0.8016 0.4630
4.7581 -0.3418 0.4420
5.1150 0.0906 0.4740
20.1259 2.1644 1.8757
19.7591 3.9346 1.8669
19.2315 5.6548 1.8575
17.7402 6.9912 1.7669
16.4777 8.2630 1.7081
15.2873 9.4622 1.6660
14.1454 10.6126 1.6387
14.4334 12.9971 1.7998
13.1160 14.1274 1.7863
5.0497 6.5217 0.7643
4.5788 7.1523 0.7869
8.6955 16.7017 1.7448
5.2176 12.6716 1.2698
5.4984 17.7008 1.7175
3.8784 18.0404 1.7099
2.4489 19.9179 1.8596
0.2444 7.4214 0.6881
-0.4201 7.4258 0.6892
-2.9181 19.8546 1.8596
-4.6795 19.5147 1.8596
-6.2277 18.4966 1.8085
-7.4263 16.8922 1.7099
-8.9187 16.1863 1.7125
-10.3286 15.3250 1.7125
-11.6444 14.3275 1.7108
-12.8720 13.2248 1.7101
-13.9996 12.0206 1.7099
-15.0146 10.7209 1.7096
-15.9100 9.3358 1.7094
-16.6782 7.8768 1.7092
-16.9795 6.2328 1.6760
-16.9857 4.5620 1.6297
-16.9916 2.9686 1.5984
-17.9273 1.5012 1.6670
-18.4118 -0.1082 1.7061
-18.3313 -1.7523 1.7064
-18.1072 -3.3834 1.7069
-17.7385 -4.9885 1.7075
-17.2200 -6.5519 1.7073
-16.5652 -8.0630 1.7072
-17.1319 -10.3256 1.8535
-16.1131 -11.7935 1.8503
-15.0460 -13.2298 1.8565
-13.8200 -14.5369 1.8586
-12.4730 -15.7210 1.8596
-11.0192 -16.7721 1.8596
-9.4774 -17.6891 1.8596
-7.8642 -18.4749 1.8606
-6.1960 -19.1440 1.8646
-4.4715 -19.6641 1.8687
-2.7034 -20.0279 1.8727
-0.9088 -20.2959 1.8826
0.9113 -20.3853 1.8909
2.7354 -20.2765 1.8959
4.5451 -19.9949 1.9001
6.3261 -19.5508 1.9041
8.1142 -19.0663 1.9201
9.8827 -18.4489 1.9394
11.6017 -17.6615 1.9581
13.2530 -16.7068 1.9761
14.8186 -15.5897 1.9931
9.2423 -8.1278 1.1405
9.2005 -6.7351 1.0566
18.8047 -11.3357 2.0346
18.1215 -8.8222 1.8676
18.9436 -7.2093 1.8782
19.6106 -5.5166 1.8877
20.1024 -3.7578 1.8950
4.7663 -0.4560 0.4437
4.9672 -0.0296 0.4603
20.1952 1.6896 1.8779
19.8721 3.4703 1.8693
19.3864 5.2052 1.8600
18.0899 6.6389 1.7856
16.8037 7.9346 1.7220
15.5968 9.1505 1.6756
14.4441 10.3117 1.6445
14.7657 12.6767 1.8033
13.4737 13.8410 1.7899
5.3298 6.5568 0.7830
4.6474 6.8945 0.7705
9.1074 16.5259 1.7485
5.6230 12.7878 1.2945
5.9280 17.6021 1.7211
4.3071 17.9556 1.7110
2.6963 18.3363 1.7174
0.4203 7.4202 0.6887
-0.2439 7.4246 0.6884
-2.4475 19.9181 1.8596
-4.2164 19.6200 1.8596
-5.9517 19.1650 1.8596
-7.0200 17.0524 1.7088
-8.5332 16.3928 1.7125
-9.9631 15.5653 1.7125
-11.3055 14.6034 1.7113
-12.5558 13.5261 1.7102
-13.7119 12.3492 1.7099
-14.7574 11.0735 1.7096
-15.6851 9.7100 1.7094
-8.6445 4.3358 0.8961
-16.9778 6.6922 1.6910
-16.9841 4.9953 1.6405
-16.9900 3.3845 1.6053
-17.9258 1.9292 1.6707
-16.3332 0.2906 1.5137
-18.3667 -1.3180 1.7063
-18.1804 -2.9536 1.7067
-17.8521 -4.5675 1.7075
-17.3708 -6.1428 1.7073
-16.7514 -7.6688 1.7072
-8.5255 -4.8672 0.9097
-16.3757 -11.4006 1.8489
-15.3507 -12.8665 1.8560
-14.1557 -14.2014 1.8580
-12.8415 -15.4215 1.8596
-11.4130 -16.5066 1.8596
-9.8934 -17.4599 1.8596
-8.2946 -18.2736 1.8596
-6.6435 -18.9812 1.8635
-4.9327 -19.5413 1.8676
-3.1750 -19.9484 1.8718
-1.3868 -20.2392 1.8798
0.4283 -20.3838 1.8892
2.2535 -20.3235 1.8948
4.0684 -20.0854 1.8990
5.8581 -19.6831 1.9030
7.6401 -19.2011 1.9149
9.4187 -18.6289 1.9343
11.1526 -17.8863 1.9532
12.8236 -16.9755 1.9714
14.4137 -15.9008 1.9887
15.9045 -14.6686 2.0049
9.2341 -7.1013 1.0794
9.7770 -6.2138 1.0735
17.8782 -9.2333 1.8646
18.7402 -7.6443 1.8754
19.4507 -5.9718 1.8854
19.9898 -4.2286 1.8933
4.7934 -0.5733 0.4473
4.8733 -0.1444 0.4518
20.2528 1.2126 1.8801
19.9737 3.0028 1.8716
19.5304 4.7514 1.8625
18.4472 6.2788 1.8057
17.1353 7.6006 1.7370
15.9100 8.8350 1.6863
14.7451 10.0085 1.6514
14.0192 11.4708 1.6785
13.8251 13.5453 1.7935
5.6669 6.6440 0.8092
4.7658 6.7214 0.7635
9.5159 16.3399 1.7522
7.9554 16.9893 1.7383
6.3560 17.4932 1.7247
4.7339 17.8605 1.7122
3.1121 18.1659 1.7078
1.6087 20.0033 1.8596
-0.0681 7.4235 0.6879
-0.7348 7.4280 0.6917
-3.7509 19.7143 1.8596
-5.4965 19.3005 1.8596
-6.6102 17.2027 1.7077
-8.1395 16.5832 1.7118
-9.5919 15.7967 1.7125
-10.9601 14.8713 1.7119
-12.2325 13.8197 1.7102
-13.4164 12.6709 1.7100
-14.4918 11.4199 1.7097
-15.4514 10.0788 1.7095
-8.6126 4.5780 0.9038
-16.9761 7.1602 1.7073
-16.9824 5.4347 1.6523
-16.9885 3.8042 1.6132
-16.3263 2.1490 1.5259
-17.9301 0.7437 1.6629
-18.3919 -0.8829 1.7062
-18.2437 -2.5224 1.7066
-17.9526 -4.1432 1.7073
-17.5119 -5.7301 1.7074
-16.9282 -7.2702 1.7072
-12.3214 -6.6526 1.2975
-16.6291 -11.0021 1.8476
-15.6468 -12.4964 1.8555
-14.4835 -13.8582 1.8575
-13.2029 -15.1133 1.8596
-11.8005 -16.2319 1.8596
-10.3038 -17.2209 1.8596
-8.7247 -18.0723 1.8596
-7.0869 -18.8080 1.8624
-5.3905 -19.4077 1.8665
-3.6440 -19.8558 1.8706
-1.8627 -20.1716 1.8771
-0.0542 -20.3698 1.8875
1.7709 -20.3589 1.8936
3.5899 -20.1645 1.8979
5.3877 -19.8055 1.9019
7.1679 -19.3343 1.9107
8.9516 -18.7969 1.9292
10.6991 -18.0993 1.9483
12.3885 -17.2327 1.9667
14.0017 -16.2008 1.9842
15.5206 -15.0096 2.0007
16.9272 -13.6671 2.0160
9.4561 -6.3288 1.0544
17.6243 -9.6372 1.8613
18.5274 -8.0741 1.8728
19.2788 -6.4220 1.8829
19.8644 -4.6958 1.8914
4.8601 -0.6983 0.4550
4.8105 -0.2566 0.4464
20.2985 0.7338 1.8822
20.0637 2.5325 1.8739
19.6634 4.2936 1.8650
19.1035 6.0017 1.8555
17.4728 7.2605 1.7533
16.2274 8.5152 1.6981
15.0488 9.7025 1.6592
13.9142 10.8455 1.6348
14.1698 13.2406 1.7970
12.8333 14.3440 1.7835
4.9090 6.5871 0.7612
9.9207 16.1439 1.7558
8.3727 16.8315 1.7420
4.9872 12.7756 1.2708
5.1631 17.7705 1.7148
3.5435 18.0993 1.7090
2.0816 19.9597 1.8596
0.1076 7.4223 0.6878
-0.5575 7.4268 0.6901
-3.2833 19.7975 1.8596
-5.0382 19.4252 1.8596
-6.2449 17.4762 1.7197
-7.7400 16.7608 1.7107
-9.2154 16.0193 1.7125
-10.6084 15.1312 1.7124
-11.9037 14.1073 1.7104
-13.1132 12.9852 1.7101
-14.2181 11.7603 1.7098
-15.2092 10.4420 1.7095
-16.0789 9.0410 1.7093
-16.8199 7.5683 1.7091
-16.9808 5.8806 1.6652
-16.9869 4.2284 1.6221
-16.3248 2.5431 1.5310
-17.9286 1.1692 1.6649
-18.4070 -0.4474 1.7062
-18.2969 -2.0898 1.7065
-18.0432 -3.7167 1.7071
-17.6431 -5.3143 1.7074
-17.0960 -6.8678 1.7072
-16.4139 -8.3668 1.7072
-16.9002 -10.6152 1.8493
-15.9060 -12.0982 1.8518
-14.8030 -13.5077 1.8569
-13.5533 -14.7927 1.8591
-12.1813 -15.9481 1.8596
-10.7084 -16.9722 1.8596
-9.1499 -17.8607 1.8596
-7.5257 -18.6247 1.8614
-5.8450 -19.2635 1.8654
-4.1104 -19.7522 1.8695
-2.3362 -20.0931 1.8744
-0.5354 -20.3326 1.8847
1.2876 -20.3785 1.8921
3.1099 -20.2320 1.8968
4.9148 -19.9164 1.9009
6.6965 -19.4638 1.9073
8.4817 -18.9531 1.9241
10.2415 -18.3005 1.9433
11.9480 -17.4784 1.9619
13.5832 -16.4897 1.9796
8.1527 -8.2665 1.0759
16.5669 -14.0365 2.0121
9.2604 -6.5204 1.0495
19.0206 -10.9933 2.0357
18.3035 -8.4974 1.8699
19.0949 -6.8669 1.8803
19.7265 -5.1590 1.8894
4.9589 -0.8327 0.4659
4.7434 -0.3657 0.4408
5.0815 0.0634 0.4709
20.1422 2.0594 1.8762
19.7851 3.8320 1.8674
19.2668 5.5556 1.8581
17.8170 6.9137 1.7709
16.5495 8.1907 1.7111
15.3556 9.3935 1.6680
14.2114 10.5462 1.6399
14.5077 12.9270 1.8006
13.1958 14.0647 1.7871
5.0899 6.5029 0.7652
4.5808 7.0735 0.7809
8.7871 16.6636 1.7456
5.2878 12.6531 1.2708
5.5937 17.6798 1.7183
3.9735 18.0225 1.7101
2.5533 19.9048 1.8596
0.2833 7.4211 0.6882
-0.3810 7.4256 0.6890
-2.8139 19.8697 1.8596
-4.5771 19.5390 1.8596
-6.2231 18.8085 1.8358
-7.3366 16.9286 1.7096
-8.8338 16.2327 1.7125
-10.2481 15.3788 1.7125
-11.5699 14.3893 1.7109
-12.8026 13.2922 1.7101
-13.9364 12.0944 1.7099
-14.9584 10.7993 1.7096
-15.8609 9.4192 1.7094
-8.9188 4.2696 0.9163
-16.9791 6.3339 1.6793
-16.9853 4.6575 1.6320
-16.9912 3.0604 1.5998
-17.9270 1.5959 1.6678
-18.4121 -0.0117 1.7061
-18.3400 -1.6561 1.7064
-18.1242 -3.2883 1.7069
-17.7645 -4.8955 1.7075
-17.2543 -6.4615 1.7073
-16.6073 -7.9761 1.7072
-8.5139 -5.0707 0.9183
-16.1720 -11.7070 1.8500
-15.1142 -13.1499 1.8564
-13.8951 -14.4632 1.8585
-12.5552 -15.6554 1.8596
-11.1070 -16.7141 1.8596
-9.5700 -17.6392 1.8596
-7.9599 -18.4312 1.8604
-6.2956 -19.1088 1.8643
-4.5740 -19.6378 1.8684
-2.8083 -20.0128 1.8726
-1.0149 -20.2843 1.8820
0.8043 -20.3859 1.8905
2.6287 -20.2879 1.8957
4.4397 -20.0159 1.8998
6.2223 -19.5800 1.9038
8.0094 -19.0972 1.9189
9.7802 -18.4898 1.9382
11.5025 -17.7123 1.9570
13.1584 -16.7673 1.9750
14.7295 -15.6595 1.9921
9.1772 -8.1563 1.1377
9.1844 -6.7976 1.0588
18.7419 -11.4323 2.0343
18.0685 -8.9139 1.8670
18.8993 -7.3061 1.8776
19.5762 -5.6178 1.8872
20.0786 -3.8623 1.8947
4.7639 -0.4810 0.4437
4.9356 -0.0553 0.4574
20.2090 1.5841 1.8784
19.8956 3.3670 1.8698
19.4193 5.1051 1.8606
