ply
format ascii 1.0
element vertex 2176
property float32 x
property float32 y
property float32 z
end_header
-0.3240 1.5410 0.3653
-0.4603 1.5060 0.3653
-0.5930 1.4590 0.3653
-0.7209 1.4004 0.3653
-0.8431 1.3306 0.3654
-0.9587 1.2502 0.3654
-1.0666 1.1597 0.3655
-2.9689 2.6991 0.9307
-3.5372 2.6803 1.0294
-6.2396 3.9036 1.7072
-6.5650 3.3320 1.7076
-6.8392 2.7338 1.7084
-7.0583 2.1130 1.7090
-7.2206 1.4749 1.7094
-7.3246 0.8245 1.7097
-7.3695 0.1674 1.7098
-7.3549 -0.4912 1.7098
-7.2808 -1.1457 1.7096
-7.1480 -1.7907 1.7092
-6.9576 -2.4209 1.7087
-6.7111 -3.0312 1.7081
-6.4107 -3.6165 1.7073
-6.2061 -4.2734 1.7478
-6.1709 -5.1181 1.8596
-5.6893 -5.6486 1.8596
-1.0180 -1.2096 0.3667
-0.9060 -1.2958 0.3667
-0.7868 -1.3716 0.3668
-0.6613 -1.4365 0.3668
-0.5305 -1.4899 0.3668
-0.3954 -1.5314 0.3668
-0.2571 -1.5606 0.3669
-0.1167 -1.5773 0.3669
0.0245 -1.5814 0.3669
0.1656 -1.5729 0.3669
0.3053 -1.5518 0.3668
0.4426 -1.5182 0.3668
0.5764 -1.4726 0.3668
0.7054 -1.4151 0.3668
0.8289 -1.3463 0.3667
0.9456 -1.2668 0.3667
1.0548 -1.1772 0.3666
5.4360 -5.0721 1.7245
5.9142 -4.6032 1.7383
6.3336 -4.0775 1.7472
6.6938 -3.5071 1.7528
6.9752 -2.8935 1.7516
7.2101 -2.2607 1.7527
7.3873 -1.6089 1.7537
4.6587 -0.5856 1.0891
4.6818 -0.1670 1.0866
7.5477 0.4059 1.7532
7.4758 1.0773 1.7519
7.3421 1.7385 1.7501
7.1479 2.3838 1.7477
6.8952 3.0074 1.7449
6.5865 3.6040 1.7415
6.2268 4.1698 1.7382
5.8175 4.6991 1.7346
5.3418 5.1677 1.7239
1.0299 1.1920 0.3654
0.9193 1.2791 0.3654
0.8014 1.3559 0.3653
0.6771 1.4219 0.3653
0.5474 1.4766 0.3653
0.4134 1.5195 0.3652
0.2761 1.5502 0.3652
0.1366 1.5687 0.3652
-0.0040 1.5746 0.3652
-0.1446 1.5680 0.3652
-0.2840 1.5489 0.3652
-0.4211 1.5174 0.3653
-0.5550 1.4739 0.3653
-0.6844 1.4186 0.3653
-0.8084 1.3519 0.3654
-0.9259 1.2745 0.3654
-1.0361 1.1869 0.3655
-2.8236 2.7039 0.9068
-3.3604 2.6861 0.9978
-4.0229 2.6643 1.1192
-6.4755 3.5005 1.7074
-6.7652 2.9097 1.7082
-7.0006 2.2950 1.7088
-7.1795 1.6614 1.7093
-7.3005 1.0140 1.7096
-7.3626 0.3583 1.7098
-7.3653 -0.3004 1.7098
-7.3084 -0.9567 1.7096
-7.1925 -1.6050 1.7093
-7.0187 -2.2400 1.7089
-6.7882 -2.8566 1.7083
-6.5032 -3.4497 1.7075
-6.2137 -4.0451 1.7198
-6.1906 -4.8693 1.8269
-5.8338 -5.4992 1.8596
-1.0489 -1.1827 0.3667
-0.9393 -1.2718 0.3667
-0.8221 -1.3507 0.3668
-0.6983 -1.4188 0.3668
-0.5689 -1.4756 0.3668
-0.4349 -1.5206 0.3668
-0.2974 -1.5534 0.3669
-0.1576 -1.5738 0.3669
-0.0165 -1.5816 0.3669
0.1248 -1.5767 0.3669
0.2650 -1.5592 0.3668
0.4031 -1.5292 0.3668
0.5380 -1.4870 0.3668
0.6686 -1.4329 0.3668
0.7937 -1.3674 0.3667
0.9125 -1.2909 0.3667
1.0240 -1.2042 0.3666
5.2838 -5.1926 1.7183
5.7804 -4.7447 1.7346
6.2180 -4.2350 1.7450
6.5952 -3.6763 1.7514
6.8993 -3.0739 1.7519
7.1475 -2.4462 1.7523
7.3422 -1.7995 1.7534
4.6980 -0.7147 1.1022
4.6466 -0.2865 1.0798
7.5568 0.2102 1.7535
7.5031 0.8834 1.7524
7.3872 1.5482 1.7507
7.2103 2.1987 1.7485
6.9744 2.8291 1.7457
6.6816 3.4341 1.7425
6.3350 4.0084 1.7388
5.9445 4.5523 1.7367
5.4867 5.0393 1.7280
1.0605 1.1650 0.3654
0.9522 1.2549 0.3654
0.8362 1.3347 0.3653
0.7137 1.4039 0.3653
0.5855 1.4619 0.3653
0.4526 1.5082 0.3652
0.3161 1.5426 0.3652
0.1772 1.5646 0.3652
0.0368 1.5742 0.3652
-0.1039 1.5712 0.3652
-0.2437 1.5557 0.3652
-0.3817 1.5278 0.3653
-0.5166 1.4877 0.3653
-0.6474 1.4358 0.3653
-0.7730 1.3724 0.3654
-0.8926 1.2981 0.3654
-1.0050 1.2133 0.3654
-2.6855 2.7084 0.8847
-3.1939 2.6916 0.9688
-3.8147 2.6711 1.0802
-6.3882 3.6696 1.7089
-6.6868 3.0837 1.7080
-6.9381 2.4754 1.7086
-7.1335 1.8467 1.7092
-7.2715 1.2028 1.7095
-7.3507 0.5489 1.7098
-7.3706 -0.1094 1.7098
-7.3310 -0.7670 1.7097
-7.2322 -1.4181 1.7094
-7.0750 -2.0576 1.7090
-6.8608 -2.6801 1.7085
-6.5913 -3.2805 1.7077
-6.2701 -3.8545 1.7072
-6.1972 -4.6197 1.7929
-5.9744 -5.3462 1.8596
-1.0792 -1.1551 0.3667
-0.9719 -1.2470 0.3667
-0.8568 -1.3289 0.3668
-0.7348 -1.4002 0.3668
-0.6069 -1.4603 0.3668
-0.4742 -1.5088 0.3668
-0.3376 -1.5451 0.3668
-0.1983 -1.5692 0.3669
-0.0574 -1.5806 0.3669
0.0839 -1.5794 0.3669
0.2245 -1.5656 0.3668
0.3634 -1.5392 0.3668
0.4993 -1.5005 0.3668
0.6312 -1.4498 0.3668
0.7581 -1.3876 0.3667
0.8788 -1.3142 0.3667
0.9925 -1.2303 0.3667
5.1343 -5.3142 1.7139
5.6429 -4.8819 1.7307
6.0982 -4.3889 1.7427
6.4918 -3.8425 1.7498
6.8188 -3.2523 1.7523
7.0800 -2.6300 1.7518
7.2920 -1.9889 1.7532
4.8713 -0.8708 1.1478
4.6121 -0.4046 1.0739
4.8248 0.0091 1.1191
7.5251 0.6888 1.7527
7.4271 1.3567 1.7512
7.2678 2.0119 1.7492
7.0487 2.6487 1.7466
6.7722 3.2617 1.7435
6.4408 3.8454 1.7399
6.0644 4.3996 1.7378
5.6251 4.9039 1.7309
1.0904 1.1372 0.3654
0.9844 1.2298 0.3654
0.8706 1.3126 0.3653
0.7498 1.3850 0.3653
0.6232 1.4463 0.3653
0.4915 1.4960 0.3653
0.3560 1.5339 0.3652
0.2176 1.5595 0.3652
0.0776 1.5727 0.3652
-0.0631 1.5733 0.3652
-0.2033 1.5615 0.3652
-0.3419 1.5371 0.3653
-0.4778 1.5006 0.3653
-0.6099 1.4520 0.3653
-0.7372 1.3919 0.3653
-0.8586 1.3207 0.3654
-0.9732 1.2389 0.3654
-2.5538 2.7128 0.8642
-3.0367 2.6968 0.9420
-3.6204 2.6775 1.0445
-6.2847 3.8307 1.7072
-6.6037 3.2555 1.7077
-6.8709 2.6541 1.7085
-7.0827 2.0308 1.7090
-7.2375 1.3908 1.7094
-7.3339 0.7392 1.7097
-7.3710 0.0816 1.7098
-7.3486 -0.5768 1.7098
-7.2669 -1.2303 1.7095
-7.1265 -1.8737 1.7092
-6.9286 -2.5016 1.7086
-6.6750 -3.1090 1.7080
-6.3768 -3.6964 1.7096
-6.2034 -4.3789 1.7612
-6.1109 -5.1896 1.8596
-5.6232 -5.7144 1.8596
-1.0038 -1.2213 0.3667
-0.8909 -1.3062 0.3667
-0.7708 -1.3807 0.3668
-0.6445 -1.4441 0.3668
-0.5131 -1.4960 0.3668
-0.3775 -1.5359 0.3668
-0.2389 -1.5635 0.3669
-0.0984 -1.5786 0.3669
0.0429 -1.5810 0.3669
0.1839 -1.5709 0.3668
0.3234 -1.5481 0.3668
0.4603 -1.5130 0.3668
0.5935 -1.4657 0.3668
0.7219 -1.4068 0.3668
0.8445 -1.3366 0.3667
0.9603 -1.2557 0.3667
1.0684 -1.1648 0.3666
5.5019 -5.0150 1.7268
5.9731 -4.5384 1.7400
6.3840 -4.0057 1.7481
6.7336 -3.4286 1.7527
7.0075 -2.8118 1.7514
7.2366 -2.1768 1.7528
7.4059 -1.5229 1.7537
4.6414 -0.5287 1.0835
4.6978 -0.1129 1.0900
7.5418 0.4937 1.7531
7.4619 1.1641 1.7517
7.3202 1.8236 1.7498
7.1183 2.4663 1.7474
6.8581 3.0867 1.7444
6.5423 3.6794 1.7410
6.1774 4.2416 1.7381
5.7590 4.7638 1.7336
5.2756 5.2240 1.7221
1.0160 1.2039 0.3654
0.9043 1.2897 0.3654
0.7855 1.3651 0.3653
0.6604 1.4297 0.3653
0.5301 1.4828 0.3653
0.3956 1.5242 0.3652
0.2580 1.5533 0.3652
0.1183 1.5701 0.3652
-0.0223 1.5744 0.3652
-0.1628 1.5662 0.3652
-0.3020 1.5455 0.3652
-0.4388 1.5124 0.3653
-0.5721 1.4673 0.3653
-0.7008 1.4105 0.3653
-0.8241 1.3425 0.3654
-0.9407 1.2637 0.3654
-1.0499 1.1748 0.3655
-2.8879 2.7017 0.9173
-3.4385 2.6835 1.0117
-4.1214 2.6610 1.1379
-6.5163 3.4251 1.7075
-6.7990 2.8309 1.7083
-7.0271 2.2134 1.7089
-7.1986 1.5777 1.7093
-7.3120 0.9290 1.7096
-7.3664 0.2726 1.7098
-7.3612 -0.3861 1.7098
-7.2966 -1.0417 1.7096
-7.1732 -1.6885 1.7093
-6.9918 -2.3215 1.7088
-6.7541 -2.9353 1.7082
-6.4622 -3.5249 1.7074
-6.2092 -4.1461 1.7318
-6.1883 -4.9852 1.8432
-5.7694 -5.5668 1.8596
-1.0351 -1.1949 0.3667
-0.9244 -1.2827 0.3667
-0.8063 -1.3602 0.3668
-0.6817 -1.4269 0.3668
-0.5517 -1.4821 0.3668
-0.4172 -1.5255 0.3668
-0.2793 -1.5568 0.3669
-0.1392 -1.5755 0.3669
0.0020 -1.5816 0.3669
0.1431 -1.5751 0.3669
0.2832 -1.5560 0.3668
0.4209 -1.5244 0.3668
0.5553 -1.4807 0.3668
0.6852 -1.4250 0.3668
0.8096 -1.3580 0.3667
0.9275 -1.2802 0.3667
1.0379 -1.1921 0.3666
5.3525 -5.1391 1.7211
5.8410 -4.6816 1.7363
6.2705 -4.1647 1.7460
6.6402 -3.6007 1.7521
6.9340 -2.9931 1.7518
7.1763 -2.3631 1.7525
7.3631 -1.7141 1.7535
4.6802 -0.6563 1.0962
4.6623 -0.2330 1.0828
4.7140 -0.7045 1.1365
4.6632 -0.2752 1.1139
7.3420 0.2235 1.7515
7.2882 0.8775 1.7504
7.1740 1.5232 1.7488
7.0007 2.1549 1.7466
6.7700 2.7670 1.7439
6.4843 3.3543 1.7408
6.1516 3.9151 1.7387
5.7609 4.4357 1.7337
5.3088 4.9018 1.7230
1.0286 1.1360 0.3654
0.9230 1.2231 0.3654
0.8101 1.3005 0.3653
0.6907 1.3675 0.3653
0.5658 1.4236 0.3653
0.4364 1.4684 0.3653
0.3036 1.5014 0.3653
0.1683 1.5225 0.3652
0.0318 1.5314 0.3652
-0.1051 1.5282 0.3653
-0.2411 1.5127 0.3653
-0.3752 1.4852 0.3653
-0.5063 1.4459 0.3653
-0.6334 1.3951 0.3653
-0.7555 1.3331 0.3654
-0.8716 1.2604 0.3654
-0.9808 1.1778 0.3655
-2.6992 2.7080 0.9117
-3.2104 2.6911 0.9989
-3.8352 2.6705 1.1144
-6.2330 3.5591 1.7115
-6.5105 2.9817 1.7075
-6.7533 2.3895 1.7082
-6.9417 1.7776 1.7087
-7.0741 1.1511 1.7090
-7.1495 0.5150 1.7092
-7.1671 -0.1253 1.7093
-7.1269 -0.7646 1.7092
-7.0291 -1.3975 1.7089
-6.8746 -2.0190 1.7085
-6.6648 -2.6237 1.7079
-6.4013 -3.2069 1.7072
-6.2080 -3.8389 1.7405
-6.1877 -4.6380 1.8439
-5.7978 -5.2157 1.8596
-1.0468 -1.1263 0.3667
-0.9422 -1.2154 0.3667
-0.8300 -1.2948 0.3667
-0.7111 -1.3638 0.3668
-0.5866 -1.4220 0.3668
-0.4573 -1.4688 0.3668
-0.3244 -1.5038 0.3668
-0.1889 -1.5268 0.3668
-0.0518 -1.5376 0.3668
0.0856 -1.5360 0.3668
0.2224 -1.5222 0.3668
0.3574 -1.4962 0.3668
0.4895 -1.4582 0.3668
0.6177 -1.4086 0.3668
0.7409 -1.3477 0.3667
0.8582 -1.2760 0.3667
0.9685 -1.1942 0.3666
1.0711 -1.1028 0.3666
5.4878 -4.7226 1.7264
5.9299 -4.2442 1.7388
6.3135 -3.7146 1.7467
6.6393 -3.1453 1.7518
6.8901 -2.5388 1.7509
7.0906 -1.9139 1.7513
4.8972 -0.8621 1.1857
4.6285 -0.3937 1.1076
4.8782 0.0221 1.1632
7.3100 0.6885 1.7508
7.2132 1.3372 1.7493
7.0569 1.9735 1.7473
6.8427 2.5919 1.7448
6.5726 3.1869 1.7418
6.2520 3.7550 1.7390
5.8810 4.2902 1.7358
5.4460 4.7731 1.7268
1.0578 1.1090 0.3654
0.9544 1.1988 0.3654
0.8435 1.2791 0.3654
0.7259 1.3492 0.3653
0.6025 1.4085 0.3653
0.4743 1.4566 0.3653
0.3424 1.4931 0.3653
0.2077 1.5176 0.3653
0.0714 1.5301 0.3652
-0.0654 1.5304 0.3653
-0.2018 1.5185 0.3653
-0.3366 1.4944 0.3653
-0.4687 1.4585 0.3653
-0.5970 1.4110 0.3653
-0.7207 1.3522 0.3654
-0.8386 1.2826 0.3654
-0.9499 1.2027 0.3654
-1.0536 1.1133 0.3655
-3.0523 2.6963 0.9711
-3.6396 2.6769 1.0773
-6.2202 3.7690 1.7342
-6.4303 3.1490 1.7073
-6.6884 2.5634 1.7080
-6.8928 1.9567 1.7085
-7.0416 1.3339 1.7089
-7.1336 0.7001 1.7092
-7.1680 0.0605 1.7093
-7.1445 -0.5796 1.7092
-7.0633 -1.2150 1.7090
-6.9252 -1.8403 1.7086
-6.7312 -2.4504 1.7081
-6.4831 -3.0404 1.7075
-6.2178 -3.6254 1.7163
-6.1941 -4.3968 1.8113
-5.9310 -5.0637 1.8596
-1.0756 -1.0988 0.3666
-0.9733 -1.1906 0.3667
-0.8632 -1.2728 0.3667
-0.7462 -1.3449 0.3668
-0.6232 -1.4063 0.3668
-0.4952 -1.4564 0.3668
-0.3633 -1.4949 0.3668
-0.2284 -1.5214 0.3668
-0.0916 -1.5357 0.3668
0.0458 -1.5377 0.3668
0.1829 -1.5275 0.3668
0.3185 -1.5050 0.3668
0.4516 -1.4705 0.3668
0.5810 -1.4242 0.3668
0.7057 -1.3665 0.3667
0.8248 -1.2979 0.3667
0.9373 -1.2189 0.3666
1.0422 -1.1302 0.3666
5.3469 -4.8481 1.7210
5.8063 -4.3876 1.7354
6.2081 -3.8725 1.7447
6.5505 -3.3138 1.7505
6.8234 -2.7170 1.7513
7.0373 -2.0967 1.7509
7.2000 -1.4608 1.7518
4.6513 -0.5174 1.1159
4.7199 -0.1010 1.1257
7.3268 0.4990 1.7511
7.2475 1.1502 1.7498
7.1083 1.7907 1.7479
6.9106 2.4148 1.7455
6.6565 3.0171 1.7427
6.3484 3.5924 1.7393
5.9969 4.1410 1.7378
5.5787 4.6393 1.7301
1.0862 1.0812 0.3655
0.9852 1.1738 0.3654
0.8764 1.2569 0.3654
0.7606 1.3300 0.3653
0.6388 1.3925 0.3653
0.5119 1.4438 0.3653
0.3810 1.4837 0.3653
0.2470 1.5117 0.3653
0.1111 1.5277 0.3652
-0.0258 1.5316 0.3652
-0.1624 1.5232 0.3653
-0.2977 1.5026 0.3653
-0.4307 1.4701 0.3653
-0.5603 1.4259 0.3653
-0.6854 1.3703 0.3653
-0.8051 1.3038 0.3654
-0.9183 1.2269 0.3654
-1.0243 1.1402 0.3655
-2.9027 2.7012 0.9455
-3.4564 2.6830 1.0433
-6.2155 3.9900 1.7612
-6.3461 3.3143 1.7072
-6.6190 2.7356 1.7078
-6.8392 2.1345 1.7084
-7.0042 1.5158 1.7088
-7.1128 0.8847 1.7091
-7.1639 0.2462 1.7093
-7.1573 -0.3943 1.7092
-7.0928 -1.0316 1.7091
-6.9710 -1.6603 1.7087
-6.7931 -2.2754 1.7083
-6.5605 -2.8717 1.7077
-6.2762 -3.4449 1.7072
-6.2001 -4.1637 1.7808
-6.0602 -4.9084 1.8596
-5.5978 -5.4298 1.8596
-1.0038 -1.1649 0.3667
-0.8959 -1.2500 0.3667
-0.7808 -1.3251 0.3667
-0.6595 -1.3896 0.3668
-0.5328 -1.4431 0.3668
-0.4019 -1.4849 0.3668
-0.2677 -1.5149 0.3668
-0.1314 -1.5328 0.3668
0.0059 -1.5384 0.3668
0.1433 -1.5317 0.3668
0.2794 -1.5128 0.3668
0.4133 -1.4817 0.3668
0.5439 -1.4388 0.3668
0.6701 -1.3844 0.3667
0.7909 -1.3189 0.3667
0.9054 -1.2429 0.3667
1.0126 -1.1569 0.3666
5.2016 -4.9680 1.7151
5.6789 -4.5273 1.7318
6.0983 -4.0273 1.7426
6.4572 -3.4796 1.7490
6.7520 -2.8935 1.7516
6.9792 -2.2779 1.7506
7.1589 -1.6467 1.7516
4.6940 -0.6457 1.1298
4.6790 -0.2215 1.1170
7.3384 0.3090 1.7514
7.2767 0.9622 1.7502
7.1547 1.6064 1.7485
6.9738 2.2358 1.7463
6.7359 2.8450 1.7436
6.4431 3.4287 1.7404
6.1052 3.9861 1.7386
5.7052 4.4997 1.7326
5.2460 4.9582 1.7212
1.0153 1.1479 0.3654
0.9087 1.2338 0.3654
0.7949 1.3098 0.3653
0.6747 1.3755 0.3653
0.5492 1.4301 0.3653
0.4193 1.4733 0.3653
0.2861 1.5048 0.3653
0.1506 1.5243 0.3652
0.0139 1.5317 0.3652
-0.1229 1.5269 0.3653
-0.2587 1.5098 0.3653
-0.3925 1.4808 0.3653
-0.5231 1.4399 0.3653
-0.6496 1.3876 0.3653
-0.7710 1.3242 0.3654
-0.8862 1.2502 0.3654
-0.9944 1.1663 0.3655
-2.7607 2.7059 0.9218
-3.2844 2.6886 1.0121
-3.9275 2.6674 1.1321
-6.2581 3.4776 1.7072
-6.5452 2.9058 1.7076
-6.7809 2.3108 1.7082
-6.9621 1.6967 1.7087
-7.0872 1.0686 1.7090
-7.1551 0.4317 1.7092
-7.1652 -0.2087 1.7093
-7.1174 -0.8475 1.7091
-7.0122 -1.4792 1.7089
-6.8504 -2.0988 1.7084
-6.6335 -2.7010 1.7079
-6.3633 -3.2811 1.7072
-6.2057 -3.9380 1.7525
-6.1847 -4.7491 1.8594
-5.7367 -5.2829 1.8596
-1.0336 -1.1385 0.3667
-0.9280 -1.2263 0.3667
-0.8149 -1.3044 0.3667
-0.6952 -1.3721 0.3668
-0.5700 -1.4287 0.3668
-0.4402 -1.4740 0.3668
-0.3069 -1.5075 0.3668
-0.1711 -1.5289 0.3668
-0.0339 -1.5381 0.3668
0.1035 -1.5349 0.3668
0.2401 -1.5195 0.3668
0.3748 -1.4919 0.3668
0.5064 -1.4524 0.3668
0.6340 -1.4013 0.3668
0.7565 -1.3390 0.3667
0.8729 -1.2660 0.3667
0.9823 -1.1828 0.3666
1.0839 -1.0903 0.3666
5.5479 -4.6630 1.7281
5.9841 -4.1785 1.7404
6.3594 -3.6426 1.7475
6.6761 -3.0681 1.7520
6.9185 -2.4582 1.7508
7.1129 -1.8314 1.7514
4.7994 -0.7874 1.1597
4.6440 -0.3407 1.1103
4.9532 0.0801 1.1812
7.3008 0.7735 1.7506
7.1962 1.4209 1.7491
7.0323 2.0552 1.7470
6.8106 2.6708 1.7444
6.5335 3.2624 1.7413
6.2074 3.8272 1.7389
5.8276 4.3561 1.7349
5.3848 4.8314 1.7251
1.0448 1.1212 0.3654
0.9404 1.2099 0.3654
0.8286 1.2888 0.3654
0.7101 1.3575 0.3653
0.5861 1.4154 0.3653
0.4573 1.4620 0.3653
0.3250 1.4969 0.3653
0.1901 1.5199 0.3653
0.0536 1.5308 0.3652
-0.0833 1.5295 0.3653
-0.2195 1.5160 0.3653
-0.3540 1.4904 0.3653
-0.4856 1.4530 0.3653
-0.6134 1.4039 0.3653
-0.7364 1.3437 0.3654
-0.8535 1.2727 0.3654
-0.9638 1.1916 0.3654
-1.0665 1.1010 0.3655
-3.1222 2.6940 0.9833
-3.7258 2.6741 1.0936
-6.2222 3.6719 1.7228
-6.4669 3.0741 1.7074
-6.7181 2.4855 1.7081
-6.9153 1.8764 1.7086
-7.0568 1.2519 1.7090
-7.1413 0.6170 1.7092
-7.1682 -0.0230 1.7093
-7.1372 -0.6628 1.7092
-7.0485 -1.2971 1.7090
-6.9031 -1.9207 1.7086
-6.7019 -2.5285 1.7080
-6.4469 -3.1154 1.7074
-6.2109 -3.7191 1.7262
-6.1913 -4.5041 1.8256
-5.8716 -5.1325 1.8596
-1.0627 -1.1112 0.3666
-0.9594 -1.2018 0.3667
-0.8484 -1.2828 0.3667
-0.7305 -1.3535 0.3668
-0.6068 -1.4135 0.3668
-0.4783 -1.4621 0.3668
-0.3458 -1.4990 0.3668
-0.2106 -1.5239 0.3668
-0.0738 -1.5367 0.3668
0.0637 -1.5371 0.3668
0.2007 -1.5252 0.3668
0.3360 -1.5012 0.3668
0.4687 -1.4651 0.3668
0.5975 -1.4173 0.3668
0.7216 -1.3582 0.3667
0.8399 -1.2882 0.3667
0.9514 -1.2079 0.3666
1.0553 -1.1180 0.3666
5.4112 -4.7928 1.7236
5.8623 -4.3237 1.7369
6.2560 -3.8020 1.7456
6.5910 -3.2384 1.7511
6.8539 -2.6372 1.7511
7.0618 -2.0148 1.7511
7.2168 -1.3769 1.7519
4.6342 -0.4609 1.1105
4.7896 -0.0467 1.1421
7.3199 0.5842 1.7510
7.2327 1.2343 1.7496
7.0858 1.8730 1.7476
6.8807 2.4946 1.7452
6.6194 3.0937 1.7423
6.3056 3.6657 1.7392
5.9453 4.2084 1.7369
5.5202 4.7005 1.7288
1.0735 1.0938 0.3654
0.9715 1.1851 0.3654
0.8617 1.2670 0.3654
0.7451 1.3387 0.3653
0.6226 1.3998 0.3653
0.4951 1.4497 0.3653
0.3637 1.4880 0.3653
0.2294 1.5145 0.3653
0.0933 1.5289 0.3652
-0.0436 1.5311 0.3653
-0.1801 1.5212 0.3653
-0.3152 1.4991 0.3653
-0.4478 1.4650 0.3653
-0.5768 1.4193 0.3653
-0.7013 1.3623 0.3654
-0.8202 1.2944 0.3654
-0.9326 1.2161 0.3654
-1.0376 1.1282 0.3655
-2.9689 2.6991 0.9568
-3.5372 2.6803 1.0582
-6.2176 3.8899 1.7488
-6.3882 3.2424 1.7082
-6.6508 2.6584 1.7079
-6.8638 2.0548 1.7084
-7.0216 1.4342 1.7089
-7.1227 0.8018 1.7091
-7.1664 0.1628 1.7093
-7.1521 -0.4777 1.7092
-7.0801 -1.1141 1.7090
-6.9510 -1.7413 1.7087
-6.7659 -2.3542 1.7082
-6.5263 -2.9477 1.7076
-6.2357 -3.5177 1.7072
-6.1975 -4.2675 1.7942
-6.0027 -4.9786 1.8596
-1.0911 -1.0833 0.3666
-0.9902 -1.1765 0.3667
-0.8813 -1.2604 0.3667
-0.7653 -1.3341 0.3668
-0.6432 -1.3972 0.3668
-0.5160 -1.4492 0.3668
-0.3846 -1.4895 0.3668
-0.2501 -1.5179 0.3668
-0.1136 -1.5342 0.3668
0.0239 -1.5382 0.3668
0.1611 -1.5299 0.3668
0.2970 -1.5094 0.3668
0.4305 -1.4768 0.3668
0.5606 -1.4323 0.3668
0.6862 -1.3764 0.3667
0.8062 -1.3096 0.3667
0.9198 -1.2322 0.3667
1.0260 -1.1450 0.3666
5.2673 -4.9147 1.7178
5.7366 -4.4650 1.7334
6.1482 -3.9581 1.7436
6.4997 -3.4054 1.7497
6.7846 -2.8145 1.7515
7.0059 -2.1967 1.7508
7.1780 -1.5633 1.7517
4.6744 -0.5876 1.1234
4.6959 -0.1675 1.1204
7.3338 0.3944 1.7513
7.2642 1.0468 1.7500
7.1345 1.6893 1.7483
6.9460 2.3164 1.7460
6.7008 2.9226 1.7432
6.4011 3.5026 1.7399
6.0579 4.0567 1.7385
5.6488 4.5629 1.7315
1.1015 1.0657 0.3655
1.0019 1.1596 0.3654
0.8943 1.2443 0.3654
0.7795 1.3190 0.3653
0.6586 1.3832 0.3653
0.5325 1.4364 0.3653
0.4021 1.4781 0.3653
0.2685 1.5081 0.3653
0.1329 1.5260 0.3652
-0.0039 1.5318 0.3652
-0.1406 1.5253 0.3653
-0.2763 1.5067 0.3653
-0.4097 1.4761 0.3653
-0.5399 1.4338 0.3653
-0.6657 1.3800 0.3653
-0.7864 1.3152 0.3654
-0.9007 1.2398 0.3654
-1.0079 1.1546 0.3655
-2.8236 2.7039 0.9322
-3.3604 2.6861 1.0258
-4.0229 2.6643 1.1506
-6.2982 3.4046 1.7072
-6.5789 2.8296 1.7077
-6.8077 2.2318 1.7083
-6.9816 1.6156 1.7088
-7.0993 0.9861 1.7091
-7.1597 0.3484 1.7092
-7.1622 -0.2921 1.7093
-7.1069 -0.9303 1.7091
-6.9943 -1.5607 1.7088
-6.8252 -2.1783 1.7084
-6.6012 -2.7779 1.7078
-6.3247 -3.3550 1.7072
-6.2032 -4.0385 1.7650
-6.1297 -4.8213 1.8596
-5.6748 -5.3493 1.8596
-1.0203 -1.1504 0.3667
-0.9136 -1.2371 0.3667
-0.7996 -1.3138 0.3667
-0.6792 -1.3801 0.3668
-0.5533 -1.4353 0.3668
-0.4230 -1.4790 0.3668
-0.2893 -1.5109 0.3668
-0.1533 -1.5308 0.3668
-0.0160 -1.5383 0.3668
0.1214 -1.5336 0.3668
0.2578 -1.5166 0.3668
0.3921 -1.4875 0.3668
0.5233 -1.4464 0.3668
0.6503 -1.3938 0.3667
0.7720 -1.3301 0.3667
0.8876 -1.2557 0.3667
0.9960 -1.1713 0.3666
5.1264 -5.0380 1.7139
5.6072 -4.6025 1.7298
6.0361 -4.1111 1.7414
6.4039 -3.5697 1.7482
6.7108 -2.9899 1.7518
6.9460 -2.3773 1.7506
7.1342 -1.7486 1.7515
4.7186 -0.7178 1.1381
4.6596 -0.2873 1.1132
7.3427 0.2042 1.7515
7.2906 0.8584 1.7505
7.1782 1.5044 1.7488
7.0066 2.1366 1.7467
6.7776 2.7493 1.7440
6.4934 3.3374 1.7409
6.1620 3.8989 1.7388
5.7733 4.4212 1.7340
5.3229 4.8889 1.7234
1.0316 1.1333 0.3654
0.9262 1.2207 0.3654
0.8135 1.2984 0.3653
0.6943 1.3657 0.3653
0.5695 1.4221 0.3653
0.4403 1.4672 0.3653
0.3075 1.5006 0.3653
0.1723 1.5220 0.3652
0.0358 1.5313 0.3652
-0.1011 1.5284 0.3653
-0.2371 1.5134 0.3653
-0.3713 1.4862 0.3653
-0.5025 1.4472 0.3653
-0.6297 1.3967 0.3653
-0.7520 1.3351 0.3654
-0.8683 1.2627 0.3654
-0.9776 1.1803 0.3655
-2.6855 2.7084 0.9095
-3.1939 2.6916 0.9960
-3.8147 2.6711 1.1104
-6.2310 3.5801 1.7135
-6.5026 2.9987 1.7075
-6.7469 2.4072 1.7081
-6.9369 1.7958 1.7086
-7.0710 1.1696 1.7090
-7.1481 0.5338 1.7092
-7.1674 -0.1064 1.7093
-7.1289 -0.7458 1.7092
-7.0328 -1.3790 1.7089
-6.8800 -2.0009 1.7085
-6.6717 -2.6062 1.7080
-6.4098 -3.1901 1.7073
-6.2086 -3.8167 1.7378
-6.1884 -4.6131 1.8405
-5.8115 -5.2004 1.8596
-1.0497 -1.1236 0.3666
-0.9454 -1.2129 0.3667
-0.8334 -1.2926 0.3667
-0.7147 -1.3620 0.3668
-0.5903 -1.4204 0.3668
-0.4612 -1.4676 0.3668
-0.3284 -1.5029 0.3668
-0.1929 -1.5263 0.3668
-0.0559 -1.5374 0.3668
0.0816 -1.5362 0.3668
0.2184 -1.5228 0.3668
0.3535 -1.4971 0.3668
0.4857 -1.4595 0.3668
0.6140 -1.4102 0.3668
0.7373 -1.3497 0.3667
0.8548 -1.2783 0.3667
0.9654 -1.1967 0.3666
1.0682 -1.1056 0.3666
5.4742 -4.7360 1.7260
5.9175 -4.2589 1.7385
6.3030 -3.7308 1.7465
6.6305 -3.1625 1.7517
6.8835 -2.5570 1.7510
7.0854 -1.9325 1.7512
4.9199 -0.8795 1.1918
4.6250 -0.4057 1.1071
4.8616 0.0092 1.1593
7.3119 0.6693 1.7508
7.2169 1.3183 1.7494
7.0623 1.9550 1.7474
6.8498 2.5740 1.7448
6.5813 3.1698 1.7419
6.2620 3.7386 1.7390
5.8929 4.2752 1.7360
5.4598 4.7598 1.7272
1.0607 1.1062 0.3654
0.9576 1.1963 0.3654
0.8469 1.2769 0.3654
0.7294 1.3473 0.3653
0.6062 1.4069 0.3653
0.4782 1.4553 0.3653
0.3463 1.4921 0.3653
0.2117 1.5171 0.3653
0.0755 1.5299 0.3652
-0.0614 1.5305 0.3653
-0.1978 1.5190 0.3653
-0.3326 1.4953 0.3653
-0.4648 1.4597 0.3653
-0.5933 1.4125 0.3653
-0.7171 1.3541 0.3654
-0.8352 1.2848 0.3654
-0.9467 1.2052 0.3654
-1.0506 1.1160 0.3655
-3.0367 2.6968 0.9684
-3.6204 2.6776 1.0737
-6.2197 3.7911 1.7369
-6.4219 3.1658 1.7073
-6.6816 2.5810 1.7080
-6.8875 1.9748 1.7085
-7.0380 1.3524 1.7089
-7.1317 0.7188 1.7092
-7.1678 0.0793 1.7093
-7.1460 -0.5609 1.7092
-7.0665 -1.1964 1.7090
-6.9301 -1.8221 1.7086
-6.7377 -2.4327 1.7081
-6.4912 -3.0233 1.7075
-6.2199 -3.6049 1.7142
-6.1947 -4.3728 1.8081
-5.9443 -5.0481 1.8596
-1.0785 -1.0959 0.3666
-0.9764 -1.1880 0.3667
-0.8666 -1.2705 0.3667
-0.7498 -1.3430 0.3668
-0.6269 -1.4046 0.3668
-0.4991 -1.4551 0.3668
-0.3672 -1.4939 0.3668
-0.2324 -1.5208 0.3668
-0.0957 -1.5354 0.3668
0.0418 -1.5379 0.3668
0.1789 -1.5279 0.3668
0.3146 -1.5058 0.3668
0.4477 -1.4716 0.3668
0.5772 -1.4257 0.3668
0.7021 -1.3683 0.3667
0.8214 -1.3001 0.3667
0.9341 -1.2214 0.3666
1.0392 -1.1330 0.3666
5.3323 -4.8605 1.7204
5.7935 -4.4020 1.7350
6.1971 -3.8884 1.7445
6.5412 -3.3307 1.7503
6.8163 -2.7350 1.7513
7.0317 -2.1151 1.7509
7.1961 -1.4797 1.7518
4.6552 -0.5302 1.1172
4.7131 -0.1132 1.1242
7.3282 0.4797 1.7512
7.2507 1.1311 1.7498
7.1132 1.7720 1.7480
6.9173 2.3967 1.7456
6.6648 2.9997 1.7428
6.3582 3.5759 1.7395
6.0084 4.1256 1.7380
5.5917 4.6253 1.7304
1.0890 1.0784 0.3655
0.9883 1.1712 0.3654
0.8797 1.2546 0.3654
0.7641 1.3280 0.3653
0.6425 1.3908 0.3653
0.5157 1.4425 0.3653
0.3849 1.4827 0.3653
0.2510 1.5111 0.3653
0.1151 1.5274 0.3652
-0.0217 1.5316 0.3652
-0.1584 1.5236 0.3653
-0.2938 1.5034 0.3653
-0.4268 1.4713 0.3653
-0.5565 1.4274 0.3653
-0.6818 1.3721 0.3653
-0.8016 1.3059 0.3654
-0.9151 1.2293 0.3654
-1.0213 1.1428 0.3655
-2.8879 2.7017 0.9430
-3.4385 2.6836 1.0401
-4.1214 2.6610 1.1698
-6.3374 3.3310 1.7072
-6.6117 2.7529 1.7078
-6.8335 2.1524 1.7084
-7.0002 1.5342 1.7088
-7.1104 0.9034 1.7091
-7.1633 0.2650 1.7093
-7.1583 -0.3755 1.7092
-7.0955 -1.0129 1.7091
-6.9754 -1.6420 1.7088
-6.7991 -2.2575 1.7083
-6.5681 -2.8545 1.7077
-6.2852 -3.4284 1.7072
-6.2007 -4.1405 1.7779
-6.0731 -4.8924 1.8596
-5.6121 -5.4150 1.8596
-1.0069 -1.1622 0.3667
-0.8992 -1.2476 0.3667
-0.7843 -1.3231 0.3667
-0.6631 -1.3879 0.3668
-0.5366 -1.4416 0.3668
-0.4058 -1.4839 0.3668
-0.2717 -1.5142 0.3668
-0.1354 -1.5325 0.3668
0.0019 -1.5384 0.3668
0.1392 -1.5321 0.3668
0.2754 -1.5135 0.3668
0.4094 -1.4828 0.3668
0.5401 -1.4402 0.3668
0.6665 -1.3861 0.3667
0.7875 -1.3210 0.3667
0.9021 -1.2452 0.3667
1.0096 -1.1596 0.3666
5.1867 -4.9799 1.7145
5.6658 -4.5412 1.7314
6.0870 -4.0428 1.7424
6.4475 -3.4962 1.7489
6.7445 -2.9113 1.7517
6.9731 -2.2961 1.7506
7.1545 -1.6655 1.7516
4.6985 -0.6589 1.1313
4.6754 -0.2337 1.1162
4.7401 -0.7084 1.1741
4.6859 -0.2766 1.1499
7.1391 0.2174 1.7497
7.0869 0.8533 1.7486
6.9760 1.4812 1.7470
6.8078 2.0955 1.7449
6.5837 2.6909 1.7423
6.3086 3.2634 1.7399
5.9844 3.8087 1.7377
5.5974 4.3099 1.7306
1.0962 1.0121 0.3655
1.0013 1.1058 0.3654
0.8985 1.1906 0.3654
0.7885 1.2660 0.3654
0.6723 1.3312 0.3653
0.5508 1.3858 0.3653
0.4248 1.4294 0.3653
0.2955 1.4615 0.3653
0.1639 1.4821 0.3653
0.0309 1.4908 0.3653
-0.1023 1.4876 0.3653
-0.2347 1.4726 0.3653
-0.3652 1.4458 0.3653
-0.4929 1.4075 0.3653
-0.6166 1.3580 0.3654
-0.7354 1.2977 0.3654
-0.8484 1.2270 0.3654
-0.9547 1.1465 0.3655
-1.0534 1.0568 0.3655
-3.2104 2.6911 1.0262
-3.8352 2.6705 1.1448
-6.2163 3.5498 1.7536
-6.3360 2.9017 1.7072
-6.5717 2.3252 1.7077
-6.7550 1.7298 1.7082
-6.8838 1.1201 1.7085
-6.9571 0.5011 1.7087
-6.9743 -0.1219 1.7088
-6.9351 -0.7440 1.7086
-6.8400 -1.3599 1.7084
-6.6897 -1.9647 1.7080
-6.4856 -2.5532 1.7075
-6.2307 -3.1215 1.7072
-6.1997 -3.8337 1.7857
-6.0742 -4.5528 1.8596
-5.6435 -5.0769 1.8596
-1.0189 -1.0963 0.3666
-0.9170 -1.1830 0.3667
-0.8079 -1.2603 0.3667
-0.6922 -1.3275 0.3667
-0.5710 -1.3841 0.3668
-0.4451 -1.4296 0.3668
-0.3158 -1.4637 0.3668
-0.1838 -1.4861 0.3668
-0.0504 -1.4965 0.3668
0.0834 -1.4951 0.3668
0.2165 -1.4816 0.3668
0.3479 -1.4563 0.3668
0.4765 -1.4193 0.3668
0.6012 -1.3710 0.3667
0.7211 -1.3118 0.3667
0.8353 -1.2420 0.3667
0.9427 -1.1624 0.3666
1.0426 -1.0734 0.3666
5.3225 -4.5803 1.7202
5.7560 -4.1197 1.7340
6.1331 -3.6085 1.7432
6.4512 -3.0562 1.7487
6.7064 -2.4711 1.7508
6.8954 -1.8613 1.7496
4.9464 -0.8708 1.2304
4.6490 -0.3955 1.1430
4.9160 0.0222 1.2043
7.1081 0.6695 1.7490
7.0142 1.3003 1.7475
6.8624 1.9191 1.7456
6.6543 2.5205 1.7431
6.3920 3.0993 1.7402
6.0864 3.6555 1.7392
5.7149 4.1690 1.7329
5.2874 4.6341 1.7223
1.0297 1.0795 0.3655
0.9291 1.1670 0.3654
0.8211 1.2451 0.3654
0.7066 1.3134 0.3653
0.5865 1.3711 0.3653
0.4617 1.4179 0.3653
0.3333 1.4534 0.3653
0.2022 1.4773 0.3653
0.0695 1.4895 0.3653
-0.0637 1.4897 0.3653
-0.1964 1.4781 0.3653
-0.3276 1.4548 0.3653
-0.4562 1.4198 0.3653
-0.5812 1.3735 0.3653
-0.7015 1.3162 0.3654
-0.8163 1.2485 0.3654
-0.9246 1.1708 0.3655
-1.0256 1.0837 0.3655
-3.0523 2.6963 0.9977
-3.6396 2.6769 1.1068
-6.2118 3.7640 1.7793
-6.2587 3.0650 1.7072
-6.5086 2.4945 1.7075
-6.7074 1.9041 1.7080
-6.8521 1.2980 1.7084
-6.9416 0.6812 1.7087
-6.9751 0.0588 1.7088
-6.9523 -0.5640 1.7087
-6.8733 -1.1823 1.7085
-6.7389 -1.7908 1.7081
-6.5502 -2.3845 1.7076
-6.3095 -2.9590 1.7072
-6.2048 -3.6181 1.7595
-6.1854 -4.3906 1.8582
-5.7731 -4.9289 1.8596
-1.0469 -1.0695 0.3666
-0.9474 -1.1588 0.3667
-0.8402 -1.2389 0.3667
-0.7263 -1.3091 0.3667
-0.6066 -1.3688 0.3668
-0.4820 -1.4176 0.3668
-0.3536 -1.4550 0.3668
-0.2223 -1.4808 0.3668
-0.0892 -1.4947 0.3668
0.0446 -1.4967 0.3668
0.1780 -1.4867 0.3668
0.3100 -1.4648 0.3668
0.4395 -1.4312 0.3668
0.5655 -1.3862 0.3667
0.6869 -1.3301 0.3667
0.8028 -1.2633 0.3667
0.9123 -1.1864 0.3666
1.0144 -1.1001 0.3666
5.1852 -4.7015 1.7146
5.6364 -4.2592 1.7306
6.0308 -3.7620 1.7412
6.3651 -3.2200 1.7474
6.6414 -2.6446 1.7512
6.8462 -2.0397 1.7500
7.0010 -1.4204 1.7500
4.6761 -0.5202 1.1526
4.7553 -0.1017 1.1652
7.1244 0.4852 1.7493
7.0474 1.1184 1.7480
6.9122 1.7413 1.7462
6.7203 2.3483 1.7439
6.4735 2.9341 1.7411
6.1801 3.4971 1.7395
5.8283 4.0246 1.7351
5.4170 4.5049 1.7259
1.0573 1.0525 0.3655
0.9590 1.1426 0.3654
0.8531 1.2235 0.3654
0.7404 1.2946 0.3654
0.6218 1.3555 0.3653
0.4983 1.4055 0.3653
0.3709 1.4443 0.3653
0.2404 1.4716 0.3653
0.1081 1.4872 0.3653
-0.0251 1.4909 0.3653
-0.1581 1.4827 0.3653
-0.2898 1.4627 0.3653
-0.4193 1.4311 0.3653
-0.5454 1.3881 0.3653
-0.6672 1.3339 0.3654
-0.7837 1.2692 0.3654
-0.8939 1.1943 0.3654
-0.9971 1.1099 0.3655
-2.9027 2.7013 0.9713
-3.4564 2.6830 1.0719
-6.2070 3.9845 1.8069
-6.2239 3.2505 1.7201
-6.4411 2.6620 1.7073
-6.6552 2.0771 1.7079
-6.8158 1.4751 1.7083
-6.9214 0.8609 1.7086
-6.9712 0.2396 1.7087
-6.9647 -0.3837 1.7087
-6.9019 -1.0039 1.7086
-6.7835 -1.6157 1.7082
-6.6104 -2.2142 1.7078
-6.3841 -2.7945 1.7072
-6.2096 -3.4084 1.7353
-6.1915 -4.1580 1.8270
-5.8989 -4.7777 1.8596
-1.0742 -1.0420 0.3666
-0.9770 -1.1338 0.3667
-0.8720 -1.2167 0.3667
-0.7600 -1.2898 0.3667
-0.6419 -1.3526 0.3668
-0.5186 -1.4046 0.3668
-0.3912 -1.4453 0.3668
-0.2606 -1.4745 0.3668
-0.1279 -1.4919 0.3668
0.0058 -1.4974 0.3668
0.1394 -1.4909 0.3668
0.2720 -1.4724 0.3668
0.4023 -1.4422 0.3668
0.5294 -1.4004 0.3668
0.6522 -1.3474 0.3667
0.7699 -1.2837 0.3667
0.8813 -1.2097 0.3666
0.9856 -1.1261 0.3666
1.0821 -1.0335 0.3665
5.5130 -4.3950 1.7272
5.9226 -3.9112 1.7387
6.2738 -3.3808 1.7458
6.5680 -2.8147 1.7505
6.7925 -2.2169 1.7503
6.9611 -1.6012 1.7498
4.7199 -0.6492 1.1671
4.7029 -0.2227 1.1534
7.1357 0.3005 1.7496
7.0757 0.9356 1.7484
6.9573 1.5621 1.7468
6.7817 2.1742 1.7446
6.5506 2.7667 1.7420
6.2697 3.3364 1.7398
5.9369 3.8763 1.7369
5.5432 4.3719 1.7294
1.0843 1.0248 0.3655
0.9884 1.1174 0.3654
0.8846 1.2010 0.3654
0.7737 1.2751 0.3654
0.6568 1.3389 0.3653
0.5346 1.3921 0.3653
0.4082 1.4342 0.3653
0.2785 1.4649 0.3653
0.1466 1.4839 0.3653
0.0136 1.4910 0.3653
-0.1196 1.4863 0.3653
-0.2518 1.4697 0.3653
-0.3820 1.4415 0.3653
-0.5092 1.4017 0.3653
-0.6324 1.3507 0.3654
-0.7505 1.2890 0.3654
-0.8627 1.2170 0.3654
-0.9680 1.1353 0.3655
-1.0656 1.0445 0.3655
-3.2844 2.6887 1.0398
-3.9275 2.6674 1.1630
-6.2182 3.4555 1.7427
-6.3694 2.8278 1.7072
-6.5986 2.2487 1.7077
-6.7748 1.6511 1.7082
-6.8965 1.0399 1.7085
-6.9625 0.4201 1.7087
-6.9724 -0.2031 1.7087
-6.9259 -0.8247 1.7086
-6.8235 -1.4394 1.7084
-6.6662 -2.0423 1.7079
-6.4551 -2.6284 1.7074
-6.2203 -3.2073 1.7144
-6.1972 -3.9327 1.7980
-6.0207 -4.6232 1.8596
-5.5840 -5.1423 1.8596
-1.0061 -1.1081 0.3666
-0.9032 -1.1936 0.3667
-0.7931 -1.2696 0.3667
-0.6767 -1.3355 0.3667
-0.5548 -1.3906 0.3668
-0.4285 -1.4347 0.3668
-0.2987 -1.4673 0.3668
-0.1665 -1.4881 0.3668
-0.0330 -1.4970 0.3668
0.1008 -1.4940 0.3668
0.2337 -1.4790 0.3668
0.3648 -1.4521 0.3668
0.4929 -1.4137 0.3668
0.6171 -1.3639 0.3667
0.7364 -1.3033 0.3667
0.8497 -1.2322 0.3667
0.9562 -1.1513 0.3666
1.0550 -1.0612 0.3666
5.3832 -4.5245 1.7226
5.8085 -4.0559 1.7355
6.1777 -3.5385 1.7440
6.4884 -2.9819 1.7493
6.7341 -2.3926 1.7507
6.9163 -1.7808 1.7496
4.8466 -0.7951 1.2031
4.6654 -0.3422 1.1460
5.0985 0.0824 1.2491
7.0992 0.7521 1.7488
6.9976 1.3817 1.7473
6.8384 1.9985 1.7453
6.6232 2.5973 1.7428
6.3551 3.1733 1.7401
6.0415 3.7249 1.7387
5.6625 4.2327 1.7319
5.2281 4.6908 1.7207
1.0170 1.0914 0.3655
0.9154 1.1777 0.3654
0.8065 1.2546 0.3654
0.6913 1.3215 0.3653
0.5705 1.3778 0.3653
0.4452 1.4232 0.3653
0.3164 1.4572 0.3653
0.1850 1.4796 0.3653
0.0522 1.4902 0.3653
-0.0810 1.4889 0.3653
-0.2136 1.4758 0.3653
-0.3445 1.4508 0.3653
-0.4727 1.4144 0.3653
-0.5971 1.3666 0.3653
-0.7168 1.3080 0.3654
-0.8308 1.2389 0.3654
-0.9382 1.1599 0.3655
-1.0381 1.0717 0.3655
-3.1222 2.6940 1.0102
-3.7258 2.6741 1.1235
-6.2139 3.6670 1.7675
-6.2940 2.9919 1.7072
-6.5375 2.4186 1.7076
-6.7293 1.8259 1.7081
-6.8669 1.2182 1.7085
-6.9492 0.6004 1.7087
-6.9753 -0.0224 1.7088
-6.9451 -0.6449 1.7087
-6.8589 -1.2622 1.7084
-6.7174 -1.8691 1.7081
-6.5217 -2.4605 1.7076
-6.2747 -3.0322 1.7072
-6.2026 -3.7142 1.7710
-6.1385 -4.4657 1.8596
-5.7154 -4.9958 1.8596
-1.0344 -1.0816 0.3666
-0.9338 -1.1698 0.3667
-0.8257 -1.2486 0.3667
-0.7110 -1.3175 0.3667
-0.5906 -1.3758 0.3668
-0.4655 -1.4231 0.3668
-0.3366 -1.4590 0.3668
-0.2050 -1.4833 0.3668
-0.0718 -1.4957 0.3668
0.0620 -1.4961 0.3668
0.1953 -1.4846 0.3668
0.3270 -1.4611 0.3668
0.4562 -1.4260 0.3668
0.5816 -1.3795 0.3667
0.7024 -1.3220 0.3667
0.8175 -1.2538 0.3667
0.9260 -1.1757 0.3666
1.0272 -1.0882 0.3666
5.2473 -4.6476 1.7171
5.6906 -4.1970 1.7322
6.0773 -3.6934 1.7421
6.4043 -3.1467 1.7480
6.6711 -2.5668 1.7510
6.8689 -1.9597 1.7498
7.0174 -1.3389 1.7501
4.6570 -0.4632 1.1464
4.8261 -0.0471 1.1823
7.1177 0.5681 1.7492
7.0331 1.2002 1.7478
6.8904 1.8214 1.7459
6.6912 2.4259 1.7436
6.4374 3.0086 1.7407
6.1385 3.5686 1.7394
5.7779 4.0899 1.7341
5.3592 4.5634 1.7243
1.0450 1.0647 0.3655
0.9457 1.1536 0.3654
0.8388 1.2333 0.3654
0.7253 1.3032 0.3653
0.6060 1.3626 0.3653
0.4819 1.4112 0.3653
0.3540 1.4485 0.3653
0.2233 1.4743 0.3653
0.0908 1.4883 0.3653
-0.0424 1.4905 0.3653
-0.1753 1.4808 0.3653
-0.3068 1.4593 0.3653
-0.4359 1.4261 0.3653
-0.5615 1.3816 0.3653
-0.6827 1.3261 0.3654
-0.7984 1.2600 0.3654
-0.9078 1.1838 0.3655
-1.0100 1.0982 0.3655
-2.9689 2.6991 0.9829
-3.5373 2.6803 1.0872
-6.2092 3.8846 1.7942
-6.2319 3.1627 1.7120
-6.4719 2.5870 1.7074
-6.6792 1.9996 1.7080
-6.8327 1.3957 1.7084
-6.9311 0.7802 1.7086
-6.9735 0.1584 1.7087
-6.9597 -0.4648 1.7087
-6.8897 -1.0841 1.7085
-6.7640 -1.6945 1.7082
-6.5839 -2.2909 1.7077
-6.3511 -2.8686 1.7072
-6.2075 -3.5019 1.7459
-6.1889 -4.2615 1.8407
-5.8429 -4.8460 1.8596
-1.0620 -1.0544 0.3666
-0.9638 -1.1452 0.3667
-0.8578 -1.2268 0.3667
-0.7449 -1.2986 0.3667
-0.6261 -1.3600 0.3668
-0.5022 -1.4105 0.3668
-0.3743 -1.4498 0.3668
-0.2434 -1.4775 0.3668
-0.1105 -1.4933 0.3668
0.0232 -1.4972 0.3668
0.1568 -1.4891 0.3668
0.2891 -1.4691 0.3668
0.4191 -1.4374 0.3668
0.5457 -1.3941 0.3667
0.6679 -1.3397 0.3667
0.7847 -1.2746 0.3667
0.8953 -1.1994 0.3666
0.9987 -1.1145 0.3666
5.1151 -4.7727 1.7138
5.5689 -4.3345 1.7287
5.9726 -3.8451 1.7401
6.3156 -3.3090 1.7466
6.6023 -2.7388 1.7510
6.8172 -2.1375 1.7502
6.9796 -1.5201 1.7499
4.7000 -0.5908 1.1604
4.7201 -0.1684 1.1570
7.1312 0.3835 1.7495
7.0636 1.0179 1.7483
6.9377 1.6427 1.7465
6.7547 2.2526 1.7443
6.5165 2.8422 1.7416
6.2300 3.4089 1.7397
5.8886 3.9433 1.7361
5.4869 4.4321 1.7279
1.0723 1.0373 0.3655
0.9753 1.1288 0.3654
0.8705 1.2112 0.3654
0.7588 1.2840 0.3654
0.6411 1.3465 0.3653
0.5183 1.3982 0.3653
0.3914 1.4389 0.3653
0.2614 1.4680 0.3653
0.1293 1.4855 0.3653
-0.0038 1.4911 0.3653
-0.1369 1.4848 0.3653
-0.2689 1.4667 0.3653
-0.3988 1.4369 0.3653
-0.5255 1.3957 0.3653
-0.6481 1.3433 0.3654
-0.7655 1.2802 0.3654
-0.8768 1.2069 0.3654
-0.9812 1.1240 0.3655
-1.0777 1.0320 0.3655
-3.3604 2.6861 1.0539
-4.0229 2.6643 1.1820
-6.2200 3.3623 1.7321
-6.4020 2.7535 1.7072
-6.6246 2.1718 1.7078
-6.7938 1.5721 1.7083
-6.9083 0.9595 1.7086
-6.9670 0.3390 1.7087
-6.9695 -0.2843 1.7087
-6.9157 -0.9052 1.7086
-6.8061 -1.5187 1.7083
-6.6417 -2.1197 1.7079
-6.4238 -2.7032 1.7073
-6.2121 -3.2953 1.7226
-6.1947 -4.0330 1.8108
-5.9665 -4.6930 1.8596
-1.0890 -1.0265 0.3666
-0.9931 -1.1198 0.3666
-0.8893 -1.2041 0.3667
-0.7783 -1.2788 0.3667
-0.6611 -1.3433 0.3668
-0.5386 -1.3970 0.3668
-0.4117 -1.4396 0.3668
-0.2816 -1.4706 0.3668
-0.1492 -1.4899 0.3668
-0.0156 -1.4973 0.3668
0.1181 -1.4927 0.3668
0.2509 -1.4761 0.3668
0.3817 -1.4478 0.3668
0.5094 -1.4078 0.3668
0.6330 -1.3566 0.3667
0.7515 -1.2946 0.3667
0.8639 -1.2222 0.3667
0.9695 -1.1401 0.3666
1.0672 -1.0488 0.3666
5.4432 -4.4679 1.7251
5.8603 -3.9913 1.7369
6.2214 -3.4680 1.7449
6.5248 -2.9070 1.7498
6.7609 -2.3139 1.7505
6.9370 -1.7002 1.7497
4.7513 -0.7228 1.1773
4.6821 -0.2887 1.1492
7.1398 0.1986 1.7497
7.0893 0.8347 1.7487
6.9801 1.4629 1.7471
6.8135 2.0777 1.7450
6.5911 2.6737 1.7424
6.3173 3.2469 1.7400
5.9950 3.7933 1.7379
5.6095 4.2957 1.7308
1.0988 1.0092 0.3655
1.0042 1.1032 0.3654
0.9016 1.1883 0.3654
0.7919 1.2639 0.3654
0.6758 1.3294 0.3653
0.5544 1.3844 0.3653
0.4286 1.4282 0.3653
0.2994 1.4607 0.3653
0.1678 1.4816 0.3653
0.0348 1.4907 0.3653
-0.0984 1.4878 0.3653
-0.2308 1.4732 0.3653
-0.3614 1.4468 0.3653
-0.4892 1.4088 0.3653
-0.6130 1.3596 0.3654
-0.7320 1.2996 0.3654
-0.8452 1.2292 0.3654
-0.9517 1.1490 0.3655
-1.0506 1.0596 0.3655
-3.1939 2.6916 1.0232
-3.8147 2.6711 1.1408
-6.2158 3.5712 1.7561
-6.3284 2.9184 1.7072
-6.5655 2.3425 1.7077
-6.7503 1.7475 1.7081
-6.8808 1.1382 1.7085
-6.9557 0.5194 1.7087
-6.9746 -0.1036 1.7088
-6.9371 -0.7258 1.7087
-6.8436 -1.3419 1.7084
-6.6949 -1.9471 1.7080
-6.4923 -2.5361 1.7075
-6.2389 -3.1051 1.7072
-6.2002 -3.8115 1.7829
-6.0861 -4.5368 1.8596
-5.6568 -5.0620 1.8596
-1.0217 -1.0936 0.3666
-0.9201 -1.1806 0.3667
-0.8112 -1.2581 0.3667
-0.6957 -1.3257 0.3667
-0.5746 -1.3826 0.3668
-0.4489 -1.4284 0.3668
-0.3196 -1.4628 0.3668
-0.1877 -1.4856 0.3668
-0.0544 -1.4964 0.3668
0.0794 -1.4953 0.3668
0.2126 -1.4822 0.3668
0.3440 -1.4572 0.3668
0.4727 -1.4206 0.3668
0.5976 -1.3726 0.3667
0.7177 -1.3137 0.3667
0.8320 -1.2442 0.3667
0.9396 -1.1648 0.3666
1.0397 -1.0762 0.3666
5.3087 -4.5928 1.7196
5.7440 -4.1340 1.7337
6.1229 -3.6242 1.7430
6.4427 -3.0730 1.7486
6.7000 -2.4888 1.7509
6.8906 -1.8794 1.7497
4.9696 -0.8883 1.2367
4.6453 -0.4075 1.1423
4.8992 0.0093 1.2002
7.1100 0.6508 1.7490
7.0177 1.2819 1.7476
6.8677 1.9011 1.7456
6.6612 2.5031 1.7432
6.4005 3.0826 1.7403
6.0961 3.6395 1.7393
5.7266 4.1545 1.7331
5.3007 4.6211 1.7227
1.0325 1.0768 0.3655
0.9321 1.1646 0.3654
0.8244 1.2430 0.3654
0.7101 1.3115 0.3653
0.5901 1.3696 0.3653
0.4655 1.4167 0.3653
0.3371 1.4525 0.3653
0.2061 1.4768 0.3653
0.0734 1.4893 0.3653
-0.0598 1.4899 0.3653
-0.1926 1.4786 0.3653
-0.3238 1.4556 0.3653
-0.4525 1.4210 0.3653
-0.5776 1.3750 0.3653
-0.6981 1.3181 0.3654
-0.8130 1.2506 0.3654
-0.9215 1.1732 0.3655
-1.0227 1.0864 0.3655
-3.0368 2.6968 0.9949
-3.6205 2.6776 1.1031
-6.2114 3.7860 1.7820
-6.2506 3.0814 1.7072
-6.5019 2.5116 1.7075
-6.7023 1.9217 1.7080
-6.8486 1.3160 1.7084
-6.9398 0.6995 1.7087
-6.9749 0.0772 1.7088
-6.9537 -0.5458 1.7087
-6.8764 -1.1642 1.7085
-6.7437 -1.7731 1.7081
-6.5565 -2.3673 1.7076
-6.3173 -2.9424 1.7072
-6.2053 -3.5965 1.7570
-6.1861 -4.3666 1.8549
-5.7861 -4.9137 1.8596
-1.0497 -1.0667 0.3666
-0.9504 -1.1563 0.3667
-0.8435 -1.2367 0.3667
-0.7298 -1.3072 0.3667
-0.6102 -1.3672 0.3668
-0.4858 -1.4163 0.3668
-0.3574 -1.4541 0.3668
-0.2262 -1.4802 0.3668
-0.0931 -1.4945 0.3668
0.0407 -1.4968 0.3668
0.1741 -1.4872 0.3668
0.3062 -1.4657 0.3668
0.4358 -1.4324 0.3668
0.5618 -1.3877 0.3667
0.6834 -1.3319 0.3667
0.7995 -1.2654 0.3667
0.9092 -1.1888 0.3666
1.0115 -1.1028 0.3666
5.1720 -4.7144 1.7144
5.6240 -4.2732 1.7303
6.0202 -3.7774 1.7410
6.3561 -3.2364 1.7473
6.6345 -2.6621 1.7512
6.8410 -2.0578 1.7500
6.9972 -1.4388 1.7500
4.6804 -0.5331 1.1540
4.7396 -0.1139 1.1614
7.1257 0.4665 1.7493
7.0505 1.0999 1.7481
6.9170 1.7231 1.7463
6.7268 2.3307 1.7440
6.4815 2.9172 1.7412
6.1894 3.4809 1.7396
5.8395 4.0097 1.7353
5.4300 4.4916 1.7263
1.0601 1.0497 0.3655
0.9620 1.1400 0.3654
0.8563 1.2212 0.3654
0.7438 1.2927 0.3654
0.6254 1.3538 0.3653
0.5020 1.4042 0.3653
0.3747 1.4433 0.3653
0.2443 1.4709 0.3653
0.1120 1.4869 0.3653
-0.0212 1.4909 0.3653
-0.1542 1.4831 0.3653
-0.2860 1.4635 0.3653
-0.4155 1.4322 0.3653
-0.5417 1.3895 0.3653
-0.6637 1.3357 0.3654
-0.7803 1.2712 0.3654
-0.8908 1.1966 0.3654
-0.9942 1.1125 0.3655
-2.8880 2.7017 0.9688
-3.4385 2.6836 1.0685
-4.1214 2.6610 1.2018
-6.2221 3.2704 1.7220
-6.4340 2.6789 1.7073
-6.6497 2.0946 1.7079
-6.8118 1.4930 1.7083
-6.9191 0.8790 1.7086
-6.9705 0.2579 1.7087
-6.9657 -0.3654 1.7087
-6.9046 -0.9857 1.7086
-6.7878 -1.5978 1.7083
-6.6163 -2.1968 1.7078
-6.3915 -2.7777 1.7072
-6.2101 -3.3874 1.7329
-6.1921 -4.1348 1.8240
-5.9115 -4.7622 1.8596
-1.0770 -1.0391 0.3666
-0.9800 -1.1313 0.3667
-0.8752 -1.2144 0.3667
-0.7634 -1.2878 0.3667
-0.6454 -1.3509 0.3668
-0.5223 -1.4032 0.3668
-0.3950 -1.4443 0.3668
-0.2645 -1.4738 0.3668
-0.1318 -1.4916 0.3668
0.0019 -1.4974 0.3668
0.1355 -1.4912 0.3668
0.2681 -1.4731 0.3668
0.3985 -1.4432 0.3668
0.5257 -1.4018 0.3668
0.6487 -1.3492 0.3667
0.7665 -1.2857 0.3667
0.8781 -1.2120 0.3666
0.9827 -1.1287 0.3666
1.0794 -1.0363 0.3666
5.5003 -4.4086 1.7268
5.9112 -3.9261 1.7384
6.2643 -3.3969 1.7457
6.5602 -2.8318 1.7504
6.7867 -2.2348 1.7504
6.9568 -1.6195 1.7498
4.7244 -0.6625 1.1687
4.6991 -0.2348 1.1526
4.7762 -0.7137 1.2146
4.7102 -0.2780 1.1867
6.9466 0.2115 1.7480
6.8959 0.8303 1.7469
6.7882 1.4413 1.7454
6.6247 2.0391 1.7433
6.4082 2.6191 1.7412
6.1453 3.1789 1.7401
5.8199 3.7039 1.7351
5.4390 4.1879 1.7265
1.0677 0.9858 0.3655
0.9753 1.0771 0.3655
0.8752 1.1597 0.3654
0.7681 1.2331 0.3654
0.6549 1.2966 0.3654
0.5365 1.3498 0.3653
0.4138 1.3923 0.3653
0.2879 1.4236 0.3653
0.1596 1.4436 0.3653
0.0301 1.4521 0.3653
-0.0996 1.4490 0.3653
-0.2286 1.4344 0.3653
-0.3557 1.4083 0.3653
-0.4801 1.3710 0.3653
-0.6006 1.3228 0.3654
-0.7163 1.2640 0.3654
-0.8264 1.1951 0.3654
-0.9299 1.1167 0.3655
-1.0260 1.0294 0.3655
-3.2104 2.6911 1.0536
-3.8352 2.6705 1.1754
-6.2080 3.5451 1.7980
-6.2222 2.8496 1.7213
-6.3991 2.2641 1.7072
-6.5775 1.6843 1.7077
-6.7029 1.0906 1.7080
-6.7743 0.4880 1.7082
-6.7910 -0.1187 1.7083
-6.7529 -0.7244 1.7082
-6.6603 -1.3242 1.7079
-6.5140 -1.9130 1.7075
-6.3159 -2.4864 1.7072
-6.2080 -3.1101 1.7464
-6.1913 -3.8285 1.8308
-5.9162 -4.4345 1.8596
-1.0836 -0.9748 0.3666
-0.9923 -1.0677 0.3666
-0.8932 -1.1522 0.3667
-0.7868 -1.2275 0.3667
-0.6742 -1.2929 0.3667
-0.5561 -1.3480 0.3668
-0.4335 -1.3924 0.3668
-0.3075 -1.4255 0.3668
-0.1790 -1.4473 0.3668
-0.0491 -1.4576 0.3668
0.0812 -1.4561 0.3668
0.2108 -1.4430 0.3668
0.3388 -1.4184 0.3668
0.4640 -1.3824 0.3667
0.5855 -1.3353 0.3667
0.7024 -1.2776 0.3667
0.8135 -1.2097 0.3666
0.9182 -1.1321 0.3666
1.0154 -1.0455 0.3666
5.1664 -4.4460 1.7143
5.5916 -4.0020 1.7294
5.9622 -3.5079 1.7398
6.2726 -2.9716 1.7457
6.5275 -2.4052 1.7496
6.7159 -1.8128 1.7496
6.8463 -1.2052 1.7484
4.6728 -0.3975 1.1795
4.9545 0.0224 1.2461
6.9165 0.6515 1.7473
6.8252 1.2653 1.7459
6.6777 1.8675 1.7440
6.4755 2.4528 1.7416
6.2266 3.0191 1.7404
5.9199 3.5555 1.7368
5.5561 4.0532 1.7297
1.0929 0.9579 0.3655
1.0029 1.0515 0.3655
0.9050 1.1367 0.3654
0.7998 1.2128 0.3654
0.6883 1.2793 0.3654
0.5713 1.3355 0.3653
0.4498 1.3811 0.3653
0.3247 1.4157 0.3653
0.1970 1.4390 0.3653
0.0677 1.4508 0.3653
-0.0621 1.4511 0.3653
-0.1914 1.4398 0.3653
-0.3191 1.4170 0.3653
-0.4444 1.3829 0.3653
-0.5661 1.3378 0.3654
-0.6833 1.2821 0.3654
-0.7951 1.2161 0.3654
-0.9006 1.1404 0.3655
-0.9990 1.0556 0.3655
-3.0523 2.6963 1.0243
-3.6396 2.6769 1.1363
-6.2035 3.7589 1.8243
-6.2178 3.0449 1.7413
-6.3382 2.4292 1.7072
-6.5312 1.8541 1.7076
-6.6721 1.2639 1.7079
-6.7592 0.6633 1.7082
-6.7918 0.0573 1.7083
-6.7696 -0.5492 1.7082
-6.6927 -1.1512 1.7080
-6.5619 -1.7437 1.7077
-6.3782 -2.3219 1.7072
-6.2121 -2.9133 1.7257
-6.1966 -3.6133 1.8041
-6.0291 -4.2796 1.8596
-5.6230 -4.8008 1.8596
-1.0196 -1.0416 0.3666
-0.9227 -1.1286 0.3666
-0.8183 -1.2066 0.3667
-0.7074 -1.2750 0.3667
-0.5908 -1.3331 0.3667
-0.4695 -1.3806 0.3668
-0.3444 -1.4171 0.3668
-0.2165 -1.4422 0.3668
-0.0869 -1.4558 0.3668
0.0434 -1.4577 0.3668
0.1734 -1.4480 0.3668
0.3019 -1.4267 0.3668
0.4281 -1.3940 0.3668
0.5508 -1.3501 0.3667
0.6690 -1.2954 0.3667
0.7819 -1.2304 0.3667
0.8885 -1.1555 0.3666
0.9880 -1.0715 0.3666
1.0796 -0.9789 0.3665
5.4756 -4.1378 1.7262
5.8596 -3.6552 1.7370
6.1878 -3.1303 1.7441
6.4592 -2.5720 1.7486
6.6680 -1.9866 1.7499
6.8141 -1.3825 1.7487
4.7017 -0.5230 1.1898
4.7913 -0.1025 1.2053
6.9323 0.4721 1.7476
6.8575 1.0883 1.7463
6.7262 1.6944 1.7446
6.5397 2.2851 1.7423
6.3038 2.8572 1.7407
6.0156 3.4041 1.7384
5.6668 3.9130 1.7320
5.2630 4.3768 1.7216
1.0299 1.0252 0.3655
0.9341 1.1129 0.3654
0.8310 1.1917 0.3654
0.7212 1.2610 0.3654
0.6057 1.3203 0.3653
0.4854 1.3690 0.3653
0.3612 1.4068 0.3653
0.2342 1.4334 0.3653
0.1053 1.4486 0.3653
-0.0244 1.4522 0.3653
-0.1540 1.4442 0.3653
-0.2823 1.4248 0.3653
-0.4084 1.3940 0.3653
-0.5312 1.3520 0.3654
-0.6499 1.2993 0.3654
-0.7633 1.2362 0.3654
-0.8707 1.1633 0.3655
-0.9712 1.0810 0.3655
-1.0640 0.9902 0.3656
-3.4564 2.6830 1.1005
-6.1986 3.9791 1.8526
-6.2141 3.2454 1.7632
-6.2731 2.5926 1.7072
-6.4804 2.0225 1.7074
-6.6367 1.4363 1.7078
-6.7395 0.8382 1.7081
-6.7880 0.2333 1.7083
-6.7816 -0.3736 1.7082
-6.7206 -0.9775 1.7081
-6.6053 -1.5732 1.7078
-6.4368 -2.1560 1.7073
-6.2260 -2.7253 1.7094
-6.2015 -3.4039 1.7792
-6.1380 -4.1220 1.8596
-5.7455 -4.6535 1.8596
-1.0462 -1.0148 0.3666
-0.9516 -1.1043 0.3666
-0.8493 -1.1850 0.3667
-0.7402 -1.2562 0.3667
-0.6251 -1.3173 0.3667
-0.5051 -1.3680 0.3668
-0.3810 -1.4077 0.3668
-0.2538 -1.4361 0.3668
-0.1246 -1.4531 0.3668
0.0056 -1.4584 0.3668
0.1358 -1.4520 0.3668
0.2649 -1.4340 0.3668
0.3918 -1.4046 0.3668
0.5156 -1.3639 0.3667
0.6353 -1.3123 0.3667
0.7498 -1.2503 0.3667
0.8583 -1.1782 0.3666
0.9600 -1.0968 0.3666
1.0539 -1.0065 0.3665
5.3522 -4.2668 1.7215
5.7529 -3.7992 1.7340
6.0988 -3.2864 1.7424
6.3864 -2.7368 1.7475
6.6156 -2.1592 1.7503
6.7773 -1.5589 1.7491
4.7461 -0.6528 1.2049
4.7273 -0.2238 1.1903
6.9433 0.2924 1.7478
6.8851 0.9104 1.7467
6.7700 1.5200 1.7451
6.5993 2.1158 1.7430
6.3768 2.6934 1.7410
6.1073 3.2499 1.7400
5.7733 3.7695 1.7341
5.3852 4.2473 1.7250
1.0561 0.9982 0.3655
0.9627 1.0884 0.3655
0.8616 1.1698 0.3654
0.7537 1.2420 0.3654
0.6397 1.3042 0.3654
0.5207 1.3560 0.3653
0.3976 1.3970 0.3653
0.2713 1.4269 0.3653
0.1428 1.4454 0.3653
0.0132 1.4523 0.3653
-0.1165 1.4477 0.3653
-0.2453 1.4316 0.3653
-0.3721 1.4041 0.3653
-0.4960 1.3653 0.3653
-0.6160 1.3157 0.3654
-0.7310 1.2556 0.3654
-0.8403 1.1854 0.3654
-0.9429 1.1058 0.3655
-1.0379 1.0174 0.3655
-3.2844 2.6887 1.0675
-3.9275 2.6674 1.1941
-6.2100 3.4509 1.7868
-6.2292 2.7659 1.7142
-6.4253 2.1896 1.7073
-6.5969 1.6077 1.7077
-6.7153 1.0125 1.7081
-6.7796 0.4091 1.7082
-6.7891 -0.1978 1.7083
-6.7439 -0.8030 1.7081
-6.6443 -1.4016 1.7079
-6.4911 -1.9887 1.7075
-6.2865 -2.5598 1.7072
-6.2061 -3.2000 1.7562
-6.1888 -3.9273 1.8435
-5.8642 -4.5030 1.8596
-1.0722 -0.9873 0.3666
-0.9799 -1.0792 0.3666
-0.8797 -1.1625 0.3667
-0.7725 -1.2365 0.3667
-0.6591 -1.3007 0.3667
-0.5404 -1.3544 0.3668
-0.4173 -1.3973 0.3668
-0.2909 -1.4290 0.3668
-0.1622 -1.4493 0.3668
-0.0322 -1.4580 0.3668
0.0981 -1.4551 0.3668
0.2276 -1.4404 0.3668
0.3553 -1.4143 0.3668
0.4801 -1.3769 0.3667
0.6010 -1.3284 0.3667
0.7172 -1.2693 0.3667
0.8275 -1.2001 0.3666
0.9313 -1.1213 0.3666
1.0275 -1.0336 0.3666
5.2240 -4.3907 1.7163
5.6424 -3.9399 1.7309
6.0055 -3.4399 1.7407
6.3091 -2.8995 1.7464
6.5567 -2.3296 1.7501
6.7360 -1.7344 1.7494
4.8948 -0.8030 1.2476
4.6895 -0.3440 1.1826
6.9494 0.1123 1.7481
6.9078 0.7319 1.7471
6.8092 1.3445 1.7456
6.6545 1.9448 1.7437
6.4452 2.5275 1.7412
6.1906 3.0911 1.7403
5.8755 3.6226 1.7361
5.5039 4.1141 1.7283
1.0817 0.9705 0.3655
0.9906 1.0631 0.3655
0.8917 1.1471 0.3654
0.7856 1.2220 0.3654
0.6733 1.2872 0.3654
0.5557 1.3421 0.3653
0.4336 1.3862 0.3653
0.3081 1.4194 0.3653
0.1802 1.4412 0.3653
0.0508 1.4515 0.3653
-0.0789 1.4503 0.3653
-0.2081 1.4375 0.3653
-0.3356 1.4132 0.3653
-0.4605 1.3777 0.3653
-0.5816 1.3312 0.3654
-0.6982 1.2741 0.3654
-0.8092 1.2068 0.3654
-0.9139 1.1298 0.3655
-1.0112 1.0439 0.3655
-3.1222 2.6940 1.0372
-3.7258 2.6741 1.1535
-6.2056 3.6621 1.8123
-6.2194 2.9564 1.7320
-6.3660 2.3552 1.7072
-6.5525 1.7780 1.7076
-6.6865 1.1862 1.7080
-6.7665 0.5846 1.7082
-6.7920 -0.0218 1.7083
-6.7626 -0.6280 1.7082
-6.6787 -1.2290 1.7080
-6.5409 -1.8200 1.7076
-6.3508 -2.3960 1.7072
-6.2103 -3.0011 1.7348
-6.1943 -3.7092 1.8159
-5.9789 -4.3496 1.8596
-5.5668 -4.8659 1.8596
-1.0075 -1.0535 0.3666
-0.9095 -1.1393 0.3667
-0.8042 -1.2161 0.3667
-0.6925 -1.2831 0.3667
-0.5753 -1.3399 0.3667
-0.4534 -1.3860 0.3668
-0.3278 -1.4210 0.3668
-0.1997 -1.4446 0.3668
-0.0699 -1.4567 0.3668
0.0604 -1.4571 0.3668
0.1902 -1.4459 0.3668
0.3185 -1.4231 0.3668
0.4443 -1.3889 0.3667
0.5664 -1.3436 0.3667
0.6841 -1.2875 0.3667
0.7962 -1.2212 0.3667
0.9019 -1.1451 0.3666
1.0004 -1.0599 0.3666
5.1005 -4.5176 1.7137
5.5282 -4.0772 1.7276
5.9062 -3.5894 1.7383
6.2265 -3.0593 1.7448
6.4904 -2.4973 1.7491
6.6901 -1.9087 1.7498
6.8291 -1.3030 1.7486
4.6823 -0.4657 1.1835
4.8632 -0.0474 1.2232
6.9258 0.5527 1.7474
6.8436 1.1679 1.7461
6.7050 1.7723 1.7443
6.5114 2.3607 1.7420
6.2696 2.9302 1.7406
5.9731 3.4724 1.7377
5.6177 3.9765 1.7311
5.2066 4.4334 1.7199
1.0179 1.0371 0.3655
0.9211 1.1237 0.3654
0.8170 1.2013 0.3654
0.7065 1.2693 0.3654
0.5903 1.3272 0.3653
0.4694 1.3746 0.3653
0.3448 1.4109 0.3653
0.2175 1.4360 0.3653
0.0884 1.4497 0.3653
-0.0413 1.4518 0.3653
-0.1708 1.4424 0.3653
-0.2989 1.4214 0.3653
-0.4246 1.3891 0.3653
-0.5469 1.3458 0.3654
-0.6650 1.2917 0.3654
-0.7777 1.2273 0.3654
-0.8842 1.1531 0.3655
-0.9838 1.0697 0.3655
-1.0755 0.9777 0.3656
-3.5373 2.6803 1.1162
-6.2008 3.8793 1.8396
-6.2158 3.1547 1.7532
-6.3028 2.5194 1.7072
-6.5038 1.9470 1.7075
-6.6532 1.3590 1.7079
-6.7489 0.7597 1.7081
-6.7903 0.1542 1.7083
-6.7768 -0.4526 1.7082
-6.7086 -1.0556 1.7080
-6.5863 -1.6500 1.7077
-6.4110 -2.2307 1.7073
-6.2190 -2.8091 1.7163
-6.1993 -3.4972 1.7902
-6.0896 -4.1932 1.8596
-5.6910 -4.7201 1.8596
-1.0344 -1.0270 0.3666
-0.9387 -1.1153 0.3666
-0.8355 -1.1948 0.3667
-0.7255 -1.2647 0.3667
-0.6098 -1.3245 0.3667
-0.4891 -1.3738 0.3668
-0.3646 -1.4120 0.3668
-0.2371 -1.4390 0.3668
-0.1077 -1.4544 0.3668
0.0226 -1.4582 0.3668
0.1527 -1.4503 0.3668
0.2815 -1.4309 0.3668
0.4081 -1.3999 0.3668
0.5314 -1.3578 0.3667
0.6505 -1.3048 0.3667
0.7643 -1.2414 0.3667
0.8720 -1.1681 0.3666
0.9727 -1.0855 0.3666
1.0655 -0.9942 0.3665
5.4087 -4.2098 1.7238
5.8014 -3.7349 1.7353
6.1393 -3.2166 1.7432
6.4197 -2.6631 1.7480
6.6397 -2.0818 1.7501
6.7944 -1.4798 1.7489
4.7259 -0.5941 1.1980
4.7447 -0.1693 1.1941
6.9389 0.3731 1.7477
6.8733 0.9904 1.7466
6.7509 1.5985 1.7449
6.5731 2.1921 1.7427
6.3445 2.7672 1.7409
6.0666 3.3195 1.7393
5.7259 3.8343 1.7332
5.3307 4.3059 1.7235
1.0444 1.0104 0.3655
0.9499 1.0995 0.3654
