ply
format ascii 1.0
element vertex 2177
property float32 x
property float32 y
property float32 z
end_header
0.8251 1.4487 0.3651
0.6924 1.5164 0.3651
0.5543 1.5721 0.3651
0.4118 1.6152 0.3650
0.2660 1.6454 0.3650
0.1181 1.6626 0.3650
-0.0308 1.6665 0.3650
-0.1794 1.6571 0.3650
-0.3266 1.6346 0.3651
-0.4712 1.5990 0.3651
-0.6121 1.5508 0.3651
-0.7481 1.4901 0.3652
-0.8782 1.4176 0.3652
-1.0014 1.3338 0.3653
-2.6823 2.9770 0.8776
-3.0978 2.8748 0.9256
-3.7295 2.8868 1.0329
-6.5680 4.2039 1.7078
-6.9207 3.6029 1.7088
-7.2179 2.9723 1.7095
-7.4570 2.3171 1.7101
-7.6361 1.6428 1.7106
-7.7535 0.9549 1.7109
-7.8083 0.2592 1.7110
-7.8001 -0.4386 1.7109
-7.7288 -1.1329 1.7107
-7.5952 -1.8177 1.7103
-7.4003 -2.4874 1.7098
-7.1458 -3.1366 1.7091
-6.8340 -3.7600 1.7082
-6.4674 -4.3523 1.7072
-6.2930 -5.1067 1.7749
-6.0895 -5.9175 1.8596
-1.0924 -1.2699 0.3669
-0.9748 -1.3626 0.3669
-0.8494 -1.4443 0.3670
-0.7172 -1.5145 0.3670
-0.5792 -1.5726 0.3670
-0.4366 -1.6181 0.3670
-0.2905 -1.6507 0.3671
-0.1420 -1.6700 0.3671
0.0076 -1.6760 0.3671
0.1571 -1.6686 0.3670
0.3054 -1.6479 0.3670
0.4512 -1.6139 0.3670
0.5934 -1.5671 0.3670
0.7308 -1.5077 0.3669
0.8623 -1.4363 0.3669
0.9869 -1.3534 0.3668
5.1668 -5.8978 1.7172
5.7335 -5.4714 1.7357
6.2401 -4.9707 1.7472
6.6860 -4.4119 1.7543
7.0482 -3.7950 1.7531
7.3679 -3.1548 1.7553
7.6271 -2.4870 1.7569
7.8231 -1.7974 1.7579
4.6143 -0.6337 1.0200
4.6594 -0.2197 1.0216
8.0171 0.3389 1.7573
7.9486 1.0522 1.7559
7.8141 1.7554 1.7540
7.6152 2.4422 1.7514
7.3539 3.1065 1.7483
7.0328 3.7427 1.7447
6.6552 4.3452 1.7407
6.2264 4.9105 1.7366
5.7459 5.4300 1.7314
1.1050 1.2491 0.3652
0.9890 1.3425 0.3652
0.8652 1.4252 0.3651
0.7344 1.4966 0.3651
0.5979 1.5560 0.3651
0.4566 1.6031 0.3650
0.3117 1.6374 0.3650
0.1643 1.6586 0.3650
0.0157 1.6667 0.3650
-0.1331 1.6615 0.3650
-0.2809 1.6430 0.3650
-0.4264 1.6115 0.3651
-0.5686 1.5672 0.3651
-0.7063 1.5103 0.3651
-0.8383 1.4415 0.3652
-0.9638 1.3611 0.3652
-2.6791 3.1455 0.9049
-2.9264 2.8715 0.8979
-3.5173 2.8828 0.9960
-6.4472 4.3845 1.7075
-6.8166 3.7937 1.7085
-7.1314 3.1718 1.7093
-7.3888 2.5237 1.7100
-7.5868 1.8548 1.7105
-7.7236 1.1705 1.7108
-7.7980 0.4766 1.7110
-7.8094 -0.2212 1.7110
-7.7578 -0.9172 1.7108
-7.6435 -1.6055 1.7105
-7.4675 -2.2806 1.7100
-7.2314 -2.9368 1.7093
-6.9372 -3.5687 1.7085
-6.5874 -4.1713 1.7076
-6.2873 -4.8179 1.7347
-6.2520 -5.7456 1.8596
-5.7143 -6.2806 1.8596
-1.0123 -1.3348 0.3669
-0.8893 -1.4200 0.3669
-0.7591 -1.4939 0.3670
-0.6228 -1.5558 0.3670
-0.4815 -1.6053 0.3670
-0.3363 -1.6419 0.3671
-0.1885 -1.6654 0.3671
-0.0391 -1.6756 0.3671
0.1106 -1.6724 0.3671
0.2594 -1.6558 0.3670
0.4061 -1.6259 0.3670
0.5495 -1.5830 0.3670
0.6885 -1.5275 0.3669
0.8220 -1.4598 0.3669
0.9489 -1.3804 0.3668
4.9876 -6.0239 1.7127
5.5638 -5.6138 1.7310
6.0893 -5.1343 1.7444
6.5530 -4.5912 1.7523
6.9412 -3.9907 1.7535
7.2746 -3.3576 1.7547
7.5529 -2.6978 1.7565
7.7689 -2.0144 1.7577
4.6534 -0.7717 1.0330
4.6198 -0.3470 1.0146
5.0078 0.0720 1.0968
7.9771 0.8306 1.7564
7.8630 1.5376 1.7546
7.6840 2.2302 1.7523
7.4419 2.9021 1.7494
7.1392 3.5477 1.7459
6.7788 4.1613 1.7420
6.3644 4.7377 1.7376
5.9047 5.2766 1.7342
5.3729 5.7425 1.7223
1.0261 1.3145 0.3652
0.9046 1.4006 0.3652
0.7759 1.4756 0.3651
0.6410 1.5388 0.3651
0.5011 1.5898 0.3651
0.3572 1.6281 0.3650
0.2105 1.6534 0.3650
0.0621 1.6656 0.3650
-0.0868 1.6645 0.3650
-0.2350 1.6502 0.3650
-0.3814 1.6227 0.3651
-0.5247 1.5823 0.3651
-0.6639 1.5294 0.3651
-0.7978 1.4642 0.3652
-0.9254 1.3873 0.3652
-1.0457 1.2994 0.3653
-2.7648 2.8685 0.8725
-3.3196 2.8790 0.9623
-4.0079 2.8921 1.0824
-6.7072 3.9815 1.7082
-7.0393 3.3687 1.7091
-7.3148 2.7282 1.7098
-7.5316 2.0652 1.7103
-7.6876 1.3852 1.7107
-7.7815 0.6936 1.7109
-7.8126 -0.0036 1.7110
-7.7806 -0.7007 1.7109
-7.6858 -1.3921 1.7106
-7.5289 -2.0719 1.7102
-7.3114 -2.7345 1.7095
-7.0350 -3.3746 1.7088
-6.7022 -3.9868 1.7079
-6.3172 -4.5672 1.7072
-6.3290 -5.4991 1.8362
-5.8871 -6.1190 1.8596
-1.0491 -1.3060 0.3669
-0.9285 -1.3946 0.3669
-0.8004 -1.4721 0.3670
-0.6659 -1.5378 0.3670
-0.5260 -1.5912 0.3670
-0.3819 -1.6319 0.3670
-0.2348 -1.6595 0.3671
-0.0858 -1.6739 0.3671
0.0640 -1.6748 0.3671
0.2132 -1.6624 0.3670
0.3606 -1.6366 0.3670
0.5052 -1.5978 0.3670
0.6457 -1.5462 0.3670
0.7810 -1.4822 0.3669
0.9101 -1.4064 0.3669
1.0318 -1.3193 0.3668
5.3902 -5.7505 1.7261
5.9331 -5.2923 1.7412
6.4148 -4.7662 1.7502
6.8288 -4.1835 1.7539
7.1755 -3.5576 1.7540
7.4727 -2.9063 1.7560
7.7084 -2.2296 1.7574
4.7839 -0.9309 1.0673
4.5809 -0.4728 1.0086
4.7906 -0.0646 1.0493
7.9991 0.6082 1.7569
7.9056 1.3184 1.7553
7.7467 2.0162 1.7531
7.5240 2.6952 1.7503
7.2399 3.3496 1.7470
6.8971 3.9738 1.7433
6.4991 4.5623 1.7390
6.0565 5.1161 1.7363
5.5465 5.6065 1.7272
1.0623 1.2855 0.3652
0.9433 1.3749 0.3652
0.8167 1.4535 0.3651
0.6837 1.5204 0.3651
0.5452 1.5752 0.3651
0.4024 1.6175 0.3650
0.2565 1.6469 0.3650
0.1085 1.6632 0.3650
-0.0404 1.6663 0.3650
-0.1889 1.6561 0.3650
-0.3360 1.6327 0.3651
-0.4804 1.5963 0.3651
-0.6210 1.5472 0.3651
-0.7567 1.4858 0.3652
-0.8864 1.4125 0.3652
-1.0091 1.3280 0.3653
-2.6829 2.9434 0.8722
-3.1347 2.8755 0.9316
-3.7755 2.8877 1.0410
-6.5925 4.1661 1.7079
-6.9417 3.5630 1.7088
-7.2351 2.9306 1.7096
-7.4704 2.2740 1.7102
-7.6455 1.5987 1.7106
-7.7589 0.9101 1.7109
-7.8097 0.2141 1.7110
-7.7974 -0.4837 1.7109
-7.7220 -1.1775 1.7107
-7.5844 -1.8615 1.7103
-7.3856 -2.5301 1.7098
-7.1274 -3.1778 1.7090
-6.8119 -3.7993 1.7082
-6.4490 -4.3936 1.7091
-6.2969 -5.1706 1.7844
-6.0552 -5.9526 1.8596
-1.0850 -1.2762 0.3669
-0.9669 -1.3682 0.3669
-0.8411 -1.4492 0.3670
-0.7084 -1.5186 0.3670
-0.5701 -1.5759 0.3670
-0.4273 -1.6206 0.3670
-0.2809 -1.6523 0.3671
-0.1324 -1.6708 0.3671
0.0173 -1.6760 0.3671
0.1668 -1.6677 0.3670
0.3149 -1.6461 0.3670
0.4605 -1.6113 0.3670
0.6024 -1.5636 0.3670
0.7395 -1.5034 0.3669
0.8706 -1.4312 0.3669
0.9947 -1.3476 0.3668
5.2055 -5.8732 1.7187
5.7682 -5.4412 1.7366
6.2708 -4.9361 1.7478
6.7111 -4.3730 1.7543
7.0706 -3.7545 1.7533
7.3865 -3.1124 1.7554
7.6417 -2.4430 1.7570
7.8336 -1.7522 1.7580
4.6063 -0.6055 1.0175
4.6678 -0.1930 1.0231
8.0147 0.3852 1.7573
7.9419 1.0980 1.7558
7.8032 1.8003 1.7538
7.6002 2.4859 1.7512
7.3349 3.1486 1.7481
7.0101 3.7828 1.7445
6.6289 4.3829 1.7404
6.1977 4.9462 1.7366
5.7122 5.4610 1.7307
1.0978 1.2554 0.3652
0.9812 1.3482 0.3652
0.8569 1.4302 0.3651
0.7258 1.5008 0.3651
0.5889 1.5595 0.3651
0.4473 1.6057 0.3650
0.3022 1.6391 0.3650
0.1548 1.6595 0.3650
0.0060 1.6667 0.3650
-0.1427 1.6607 0.3650
-0.2904 1.6414 0.3650
-0.4357 1.6090 0.3651
-0.5776 1.5639 0.3651
-0.7150 1.5062 0.3651
-0.8467 1.4366 0.3652
-0.9716 1.3555 0.3652
-2.6798 3.1097 0.8990
-2.9611 2.8722 0.9034
-3.5601 2.8836 1.0033
-6.4727 4.3473 1.7076
-6.8386 3.7544 1.7085
-7.1498 3.1306 1.7093
-7.4034 2.4810 1.7100
-7.5975 1.8109 1.7105
-7.7303 1.1259 1.7108
-7.8006 0.4316 1.7110
-7.8080 -0.2663 1.7110
-7.7523 -0.9620 1.7108
-7.6339 -1.6496 1.7104
-7.4541 -2.3236 1.7099
-7.2141 -2.9784 1.7093
-6.9162 -3.6086 1.7085
-6.5629 -4.2091 1.7075
-6.2867 -4.8754 1.7423
-6.2187 -5.7816 1.8596
-5.6779 -6.3135 1.8596
-1.0046 -1.3407 0.3669
-0.8811 -1.4251 0.3669
-0.7505 -1.4982 0.3670
-0.6138 -1.5594 0.3670
-0.4722 -1.6080 0.3670
-0.3268 -1.6438 0.3671
-0.1788 -1.6665 0.3671
-0.0294 -1.6758 0.3671
0.1203 -1.6717 0.3671
0.2690 -1.6542 0.3670
0.4155 -1.6235 0.3670
0.5587 -1.5798 0.3670
0.6973 -1.5235 0.3669
0.8304 -1.4550 0.3669
0.9568 -1.3749 0.3668
5.0254 -5.9986 1.7138
5.5993 -5.5847 1.7319
6.1210 -5.1007 1.7449
6.5810 -4.5543 1.7527
6.9638 -3.9503 1.7534
7.2944 -3.3158 1.7548
7.5688 -2.6542 1.7566
7.7806 -1.9695 1.7577
4.6452 -0.7428 1.0302
4.6279 -0.3207 1.0160
8.0238 0.1618 1.7576
7.9717 0.8766 1.7563
7.8534 1.5829 1.7545
7.6703 2.2743 1.7521
7.4242 2.9448 1.7491
7.1176 3.5884 1.7457
6.7536 4.1998 1.7417
6.3358 4.7736 1.7373
5.8722 5.3089 1.7337
5.3364 5.7700 1.7212
1.0185 1.3204 0.3652
0.8964 1.4058 0.3651
0.7673 1.4801 0.3651
0.6321 1.5425 0.3651
0.4919 1.5926 0.3650
0.3478 1.6301 0.3650
0.2009 1.6546 0.3650
0.0525 1.6659 0.3650
-0.0964 1.6640 0.3650
-0.2445 1.6488 0.3650
-0.3907 1.6205 0.3651
-0.5338 1.5793 0.3651
-0.6727 1.5255 0.3651
-0.8063 1.4596 0.3652
-0.9335 1.3820 0.3652
-1.0532 1.2934 0.3653
-2.7976 2.8691 0.8776
-3.3595 2.8798 0.9691
-4.0585 2.8931 1.0915
-6.7303 3.9428 1.7083
-7.0588 3.3281 1.7091
-7.3307 2.6860 1.7098
-7.5435 2.0217 1.7104
-7.6955 1.3407 1.7107
-7.7854 0.6486 1.7109
-7.8125 -0.0487 1.7110
-7.7764 -0.7457 1.7109
-7.6775 -1.4364 1.7106
-7.5167 -2.1153 1.7101
-7.2953 -2.7767 1.7095
-7.0152 -3.4151 1.7087
-6.6788 -4.0254 1.7078
-6.2993 -4.6103 1.7095
-6.3408 -5.5740 1.8489
-5.8516 -6.1529 1.8596
-1.0415 -1.3121 0.3669
-0.9204 -1.4000 0.3669
-0.7919 -1.4767 0.3670
-0.6570 -1.5416 0.3670
-0.5168 -1.5942 0.3670
-0.3725 -1.6341 0.3670
-0.2252 -1.6608 0.3671
-0.0761 -1.6743 0.3671
0.0736 -1.6744 0.3671
0.2228 -1.6611 0.3670
0.3701 -1.6345 0.3670
0.5144 -1.5948 0.3670
0.6547 -1.5424 0.3670
0.7896 -1.4776 0.3669
0.9182 -1.4011 0.3669
1.0394 -1.3133 0.3668
5.4265 -5.7226 1.7272
5.9666 -5.2605 1.7421
6.4439 -4.7303 1.7506
6.8526 -4.1437 1.7538
7.1965 -3.5164 1.7541
7.4899 -2.8633 1.7561
7.7214 -2.1851 1.7574
4.7436 -0.8947 1.0572
4.5889 -0.4468 1.0097
4.8231 -0.0371 1.0563
7.9951 0.6544 1.7568
7.8973 1.3640 1.7551
7.7342 2.0607 1.7529
7.5075 2.7383 1.7501
7.2195 3.3910 1.7468
6.8730 4.0130 1.7430
6.4716 4.5990 1.7387
6.0267 5.1508 1.7362
5.5107 5.6352 1.7262
1.0549 1.2916 0.3652
0.9353 1.3804 0.3652
0.8083 1.4582 0.3651
0.6749 1.5243 0.3651
0.5361 1.5783 0.3651
0.3931 1.6198 0.3650
0.2469 1.6484 0.3650
0.0988 1.6638 0.3650
-0.0500 1.6660 0.3650
-0.1985 1.6550 0.3650
-0.3454 1.6307 0.3651
-0.4896 1.5935 0.3651
-0.6299 1.5436 0.3651
-0.7653 1.4814 0.3652
-0.8945 1.4074 0.3652
-1.0167 1.3221 0.3653
-2.6835 2.9101 0.8669
-3.1721 2.8762 0.9377
-3.8222 2.8886 1.0492
-6.6167 4.1280 1.7080
-6.9623 3.5229 1.7089
-7.2521 2.8888 1.7096
-7.4836 2.2308 1.7102
-7.6547 1.5545 1.7106
-7.7641 0.8653 1.7109
-7.8108 0.1689 1.7110
-7.7944 -0.5288 1.7109
-7.7150 -1.2221 1.7107
-7.5734 -1.9053 1.7103
-7.3707 -2.5727 1.7097
-7.1087 -3.2188 1.7090
-6.7896 -3.8384 1.7081
-6.4165 -4.4266 1.7072
-6.3009 -5.2351 1.7940
-6.0207 -5.9875 1.8596
-1.0776 -1.2825 0.3669
-0.9590 -1.3737 0.3669
-0.8327 -1.4540 0.3670
-0.6997 -1.5227 0.3670
-0.5610 -1.5792 0.3670
-0.4179 -1.6230 0.3670
-0.2714 -1.6539 0.3671
-0.1227 -1.6716 0.3671
0.0270 -1.6758 0.3671
0.1764 -1.6667 0.3670
0.3244 -1.6442 0.3670
0.4698 -1.6086 0.3670
0.6115 -1.5601 0.3670
0.7482 -1.4991 0.3669
0.8788 -1.4262 0.3669
1.0024 -1.3418 0.3668
5.2441 -5.8482 1.7203
5.8028 -5.4107 1.7376
6.3013 -4.9014 1.7483
6.7360 -4.3340 1.7542
7.0928 -3.7139 1.7534
7.4049 -3.0698 1.7555
7.6560 -2.3989 1.7571
7.8437 -1.7070 1.7580
4.5984 -0.5774 1.0150
4.6761 -0.1663 1.0247
8.0120 0.4315 1.7572
7.9349 1.1438 1.7557
7.7920 1.8452 1.7537
7.5849 2.5295 1.7511
7.3157 3.1905 1.7479
6.9871 3.8226 1.7442
6.6024 4.4205 1.7401
6.1688 4.9818 1.7365
5.6784 5.4918 1.7300
1.0905 1.2617 0.3652
0.9734 1.3538 0.3652
0.8486 1.4351 0.3651
0.7171 1.5050 0.3651
0.5799 1.5628 0.3651
0.4380 1.6082 0.3650
0.2928 1.6409 0.3650
0.1452 1.6604 0.3650
-0.0036 1.6667 0.3650
-0.1523 1.6598 0.3650
-0.2999 1.6397 0.3651
-0.4450 1.6065 0.3651
-0.5867 1.5605 0.3651
-0.7237 1.5021 0.3652
-0.8550 1.4317 0.3652
-0.9795 1.3499 0.3653
-2.6804 3.0744 0.8933
-2.9962 2.8729 0.9091
-3.6035 2.8844 1.0109
-6.4980 4.3100 1.7077
-6.8605 3.7149 1.7086
-7.1679 3.0893 1.7094
-7.4178 2.4382 1.7100
-7.6079 1.7670 1.7105
-7.7367 1.0812 1.7108
-7.8030 0.3864 1.7110
-7.8063 -0.3114 1.7110
-7.7465 -1.0067 1.7108
-7.6242 -1.6937 1.7104
-7.4403 -2.3667 1.7099
-7.1966 -3.0200 1.7092
-6.8950 -3.6484 1.7084
-6.5382 -4.2468 1.7074
-6.2883 -4.9351 1.7506
-6.1852 -5.8174 1.8596
-1.1129 -1.2519 0.3668
-0.9969 -1.3464 0.3669
-0.8728 -1.4302 0.3669
-0.7418 -1.5026 0.3670
-0.6048 -1.5629 0.3670
-0.4629 -1.6107 0.3670
-0.3173 -1.6457 0.3671
-0.1692 -1.6675 0.3671
-0.0197 -1.6759 0.3671
0.1299 -1.6710 0.3671
0.2785 -1.6526 0.3670
0.4249 -1.6211 0.3670
0.5678 -1.5766 0.3670
0.7061 -1.5194 0.3669
0.8388 -1.4502 0.3669
0.9647 -1.3693 0.3668
5.0610 -5.9707 1.7142
5.6347 -5.5554 1.7329
6.1524 -5.0670 1.7455
6.6088 -4.5173 1.7531
6.9862 -3.9098 1.7533
7.3140 -3.2738 1.7549
7.5844 -2.6106 1.7567
7.7921 -1.9245 1.7578
4.6370 -0.7140 1.0275
4.6361 -0.2944 1.0174
8.0225 0.2082 1.7575
7.9660 0.9226 1.7562
7.8435 1.6281 1.7544
7.6562 2.3183 1.7519
7.4061 2.9873 1.7489
7.0957 3.6290 1.7454
6.7282 4.2381 1.7414
6.3070 4.8093 1.7370
5.8396 5.3411 1.7331
1.1253 1.2309 0.3652
1.0108 1.3262 0.3652
0.8883 1.4110 0.3651
0.7587 1.4845 0.3651
0.6232 1.5461 0.3651
0.4827 1.5954 0.3650
0.3384 1.6321 0.3650
0.1914 1.6557 0.3650
0.0428 1.6662 0.3650
-0.1060 1.6634 0.3650
-0.2541 1.6474 0.3650
-0.4001 1.6182 0.3651
-0.5430 1.5762 0.3651
-0.6815 1.5216 0.3651
-0.8147 1.4549 0.3652
-0.9414 1.3766 0.3652
-2.6772 3.2491 0.9220
-2.8307 2.8697 0.8828
-3.4000 2.8805 0.9759
-4.1099 2.8941 1.1008
-6.7532 3.9040 1.7083
-7.0781 3.2873 1.7092
-7.3462 2.6436 1.7099
-7.5552 1.9781 1.7104
-7.7032 1.2962 1.7108
-7.7891 0.6037 1.7110
-7.8120 -0.0939 1.7110
-7.7719 -0.7906 1.7109
-7.6690 -1.4808 1.7105
-7.5042 -2.1587 1.7101
-7.2789 -2.8187 1.7095
-6.9951 -3.4555 1.7087
-6.6552 -4.0637 1.7077
-6.2942 -4.6623 1.7154
-6.3448 -5.6429 1.8596
-5.8160 -6.1866 1.8596
-1.0339 -1.3181 0.3669
-0.9123 -1.4053 0.3669
-0.7833 -1.4813 0.3670
-0.6481 -1.5454 0.3670
-0.5076 -1.5972 0.3670
-0.3631 -1.6362 0.3670
-0.2156 -1.6621 0.3671
-0.0664 -1.6747 0.3671
0.0833 -1.6740 0.3671
0.2324 -1.6598 0.3670
0.3795 -1.6323 0.3670
0.5237 -1.5918 0.3670
0.6636 -1.5386 0.3670
0.7981 -1.4730 0.3669
0.9263 -1.3957 0.3669
1.0469 -1.3073 0.3668
5.4627 -5.6945 1.7282
5.9990 -5.2278 1.7427
6.4727 -4.6941 1.7511
6.8761 -4.1039 1.7537
7.2173 -3.4750 1.7543
7.5067 -2.8201 1.7562
7.7342 -2.1405 1.7575
4.7042 -0.8591 1.0473
4.5970 -0.4208 1.0110
4.8560 -0.0093 1.0635
7.9908 0.7005 1.7567
7.8887 1.4095 1.7550
7.7215 2.1052 1.7527
7.4907 2.7814 1.7499
7.1988 3.4322 1.7466
6.8487 4.0520 1.7427
6.4438 4.6356 1.7384
5.9952 5.1842 1.7358
5.4749 5.6636 1.7251
1.0474 1.2976 0.3652
0.9273 1.3857 0.3652
0.7998 1.4628 0.3651
0.6660 1.5282 0.3651
0.5270 1.5814 0.3651
0.3837 1.6220 0.3650
0.2374 1.6498 0.3650
0.0892 1.6644 0.3650
-0.0597 1.6657 0.3650
-0.2081 1.6538 0.3650
-0.3549 1.6287 0.3651
-0.4988 1.5907 0.3651
-0.6389 1.5399 0.3651
-0.7738 1.4770 0.3652
-0.9027 1.4022 0.3652
-1.0244 1.3163 0.3653
-2.6841 2.8772 0.8617
-3.2100 2.8769 0.9440
-3.8697 2.8895 1.0577
-6.6407 4.0899 1.7080
-6.9828 3.4827 1.7089
-7.2689 2.8469 1.7097
-7.4965 2.1876 1.7102
-7.6637 1.5102 1.7107
-7.7690 0.8204 1.7109
-7.8117 0.1238 1.7110
-7.7912 -0.5738 1.7109
-7.7077 -1.2666 1.7107
-7.5621 -1.9490 1.7102
-7.3555 -2.6152 1.7097
-7.0897 -3.2598 1.7089
-6.7670 -3.8775 1.7080
-6.3907 -4.4637 1.7072
-6.3065 -5.3016 1.8043
-5.9860 -6.0222 1.8596
-1.0702 -1.2887 0.3669
-0.9511 -1.3793 0.3669
-0.8243 -1.4588 0.3670
-0.6909 -1.5267 0.3670
-0.5519 -1.5824 0.3670
-0.4085 -1.6254 0.3670
-0.2618 -1.6555 0.3671
-0.1130 -1.6722 0.3671
0.0367 -1.6756 0.3671
0.1860 -1.6656 0.3670
0.3339 -1.6423 0.3670
0.4791 -1.6058 0.3670
0.6205 -1.5565 0.3670
0.7568 -1.4947 0.3669
0.8871 -1.4211 0.3669
1.0102 -1.3360 0.3668
5.2825 -5.8230 1.7218
5.8371 -5.3801 1.7385
6.3315 -4.8665 1.7489
6.7606 -4.2948 1.7541
7.1148 -3.6732 1.7536
7.4230 -3.0272 1.7557
7.6701 -2.3547 1.7571
4.9017 -1.0371 1.0973
4.5905 -0.5495 1.0125
4.7014 -0.1400 1.0301
8.0090 0.4778 1.7571
7.9276 1.1896 1.7556
7.7805 1.8901 1.7535
7.5693 2.5730 1.7509
7.2962 3.2323 1.7477
6.9639 3.8624 1.7440
6.5757 4.4578 1.7398
6.1397 5.0171 1.7365
5.6443 5.5224 1.7294
7.6776 1.2348 1.7533
7.5278 1.9128 1.7512
7.3160 2.5731 1.7486
7.0445 3.2099 1.7454
6.7159 3.8178 1.7418
6.3335 4.3916 1.7377
5.9055 4.9303 1.7345
5.4068 5.4025 1.7233
1.0392 1.2427 0.3652
0.9240 1.3303 0.3652
0.8015 1.4073 0.3652
0.6726 1.4731 0.3651
0.5384 1.5271 0.3651
0.4000 1.5690 0.3651
0.2584 1.5984 0.3651
0.1147 1.6150 0.3651
-0.0299 1.6188 0.3651
-0.1742 1.6097 0.3651
-0.3172 1.5878 0.3651
-0.4577 1.5533 0.3651
-0.5945 1.5064 0.3651
-0.7267 1.4475 0.3652
-0.8531 1.3771 0.3652
-0.9727 1.2956 0.3653
-2.6823 2.9770 0.9035
-3.0978 2.8748 0.9529
-3.7296 2.8869 1.0634
-6.3778 4.0822 1.7073
-6.7202 3.4985 1.7082
-7.0087 2.8861 1.7090
-7.2408 2.2499 1.7096
-7.4146 1.5951 1.7100
-7.5285 0.9272 1.7103
-7.5818 0.2517 1.7104
-7.5738 -0.4259 1.7103
-7.5046 -1.1000 1.7101
-7.3749 -1.7650 1.7098
-7.1857 -2.4153 1.7092
-6.9387 -3.0457 1.7085
-6.6360 -3.6511 1.7077
-6.2930 -4.2348 1.7102
-6.2831 -5.0987 1.8244
-5.9149 -5.7479 1.8596
-1.0610 -1.2335 0.3668
-0.9468 -1.3234 0.3669
-0.8250 -1.4028 0.3669
-0.6966 -1.4710 0.3670
-0.5626 -1.5274 0.3670
-0.4241 -1.5716 0.3670
-0.2821 -1.6032 0.3670
-0.1379 -1.6220 0.3670
0.0074 -1.6278 0.3670
0.1526 -1.6206 0.3670
0.2966 -1.6005 0.3670
0.4382 -1.5675 0.3670
0.5763 -1.5220 0.3669
0.7098 -1.4644 0.3669
0.8375 -1.3950 0.3669
0.9585 -1.3145 0.3668
5.0082 -5.7168 1.7136
5.5528 -5.2989 1.7306
6.0479 -4.8176 1.7434
6.4817 -4.2771 1.7509
6.8453 -3.6858 1.7529
7.1482 -3.0607 1.7532
7.3994 -2.4127 1.7548
7.5894 -1.7437 1.7558
4.6278 -0.6355 1.0532
4.6724 -0.2203 1.0547
7.7777 0.3288 1.7552
7.7114 1.0208 1.7538
7.5812 1.7030 1.7519
7.3886 2.3695 1.7495
7.1354 3.0142 1.7465
6.8243 3.6317 1.7430
6.4583 4.2167 1.7390
6.0490 4.7705 1.7370
5.5700 5.2638 1.7279
1.0734 1.2133 0.3653
0.9607 1.3041 0.3652
0.8404 1.3845 0.3652
0.7134 1.4538 0.3651
0.5808 1.5115 0.3651
0.4436 1.5572 0.3651
0.3028 1.5906 0.3651
0.1596 1.6112 0.3651
0.0152 1.6190 0.3651
-0.1293 1.6140 0.3651
-0.2729 1.5960 0.3651
-0.4142 1.5654 0.3651
-0.5523 1.5223 0.3651
-0.6861 1.4671 0.3652
-0.8144 1.4002 0.3652
-0.9362 1.3222 0.3653
-1.0506 1.2335 0.3653
-2.9264 2.8716 0.9244
-3.5174 2.8828 1.0254
-6.2611 4.2579 1.7072
-6.6191 3.6838 1.7080
-6.9247 3.0798 1.7087
-7.1746 2.4505 1.7094
-7.3667 1.8009 1.7099
-7.4995 1.1366 1.7102
-7.5717 0.4628 1.7104
-7.5828 -0.2148 1.7104
-7.5327 -0.8906 1.7102
-7.4218 -1.5589 1.7099
-7.2510 -2.2145 1.7094
-7.0218 -2.8516 1.7088
-6.7362 -3.4653 1.7080
-6.3971 -4.0508 1.7072
-6.2782 -4.8109 1.7833
-6.0728 -5.5809 1.8596
-1.0949 -1.2034 0.3668
-0.9832 -1.2965 0.3669
-0.8637 -1.3792 0.3669
-0.7373 -1.4509 0.3670
-0.6049 -1.5111 0.3670
-0.4677 -1.5591 0.3670
-0.3267 -1.5947 0.3670
-0.1831 -1.6175 0.3670
-0.0380 -1.6274 0.3670
0.1074 -1.6243 0.3670
0.2519 -1.6082 0.3670
0.3944 -1.5792 0.3670
0.5337 -1.5375 0.3670
0.6687 -1.4836 0.3669
0.7984 -1.4178 0.3669
0.9216 -1.3407 0.3668
1.0374 -1.2529 0.3668
5.3889 -5.4373 1.7260
5.9006 -4.9751 1.7402
6.3530 -4.4510 1.7490
6.7415 -3.8759 1.7533
7.0577 -3.2575 1.7526
7.3275 -2.6173 1.7543
7.5369 -1.9542 1.7555
4.6673 -0.7740 1.0667
4.6326 -0.3480 1.0474
5.2017 0.0748 1.1729
7.7390 0.8058 1.7543
7.6286 1.4918 1.7526
7.4552 2.1638 1.7503
7.2207 2.8159 1.7474
6.9273 3.4425 1.7441
6.5781 4.0381 1.7403
6.1806 4.6009 1.7372
5.7252 5.1162 1.7312
1.1069 1.1830 0.3653
0.9967 1.2769 0.3652
0.8787 1.3606 0.3652
0.7537 1.4334 0.3651
0.6227 1.4948 0.3651
0.4868 1.5443 0.3651
0.3470 1.5815 0.3651
0.2045 1.6061 0.3651
0.0603 1.6180 0.3651
-0.0843 1.6169 0.3651
-0.2283 1.6030 0.3651
-0.3705 1.5763 0.3651
-0.5097 1.5371 0.3651
-0.6449 1.4856 0.3652
-0.7750 1.4223 0.3652
-0.8990 1.3477 0.3653
-1.0158 1.2622 0.3653
-2.7648 2.8685 0.8983
-3.3197 2.8791 0.9908
-4.0080 2.8922 1.1144
-6.5129 3.8662 1.7077
-6.8352 3.2711 1.7085
-7.1028 2.6491 1.7092
-7.3131 2.0053 1.7097
-7.4646 1.3449 1.7101
-7.5558 0.6735 1.7103
-7.5859 -0.0035 1.7104
-7.5549 -0.6804 1.7103
-7.4628 -1.3517 1.7100
-7.3106 -2.0118 1.7096
-7.0994 -2.6553 1.7090
-6.8312 -3.2768 1.7082
-6.5081 -3.8714 1.7074
-6.2808 -4.5409 1.7475
-6.2259 -5.4095 1.8596
-5.7183 -5.9435 1.8596
-1.0189 -1.2685 0.3668
-0.9018 -1.3546 0.3669
-0.7774 -1.4298 0.3669
-0.6467 -1.4936 0.3670
-0.5109 -1.5455 0.3670
-0.3710 -1.5850 0.3670
-0.2280 -1.6118 0.3670
-0.0833 -1.6257 0.3670
0.0621 -1.6267 0.3670
0.2070 -1.6146 0.3670
0.3503 -1.5896 0.3670
0.4907 -1.5518 0.3670
0.6272 -1.5017 0.3669
0.7586 -1.4396 0.3669
0.8839 -1.3660 0.3668
1.0021 -1.2814 0.3668
5.2141 -5.5627 1.7190
5.7455 -5.1249 1.7359
6.2178 -4.6199 1.7465
6.6303 -4.0618 1.7531
6.9635 -3.4525 1.7524
7.2498 -2.8196 1.7539
7.4782 -2.1630 1.7552
4.8081 -0.9357 1.1044
4.5936 -0.4741 1.0412
4.8099 -0.0648 1.0846
7.7603 0.5900 1.7548
7.6698 1.2791 1.7532
7.5159 1.9561 1.7511
7.3002 2.6150 1.7484
7.0249 3.2502 1.7452
6.6928 3.8560 1.7415
6.3070 4.4274 1.7374
5.8751 4.9628 1.7340
5.3724 5.4306 1.7224
1.0320 1.2487 0.3652
0.9163 1.3356 0.3652
0.7933 1.4119 0.3651
0.6641 1.4769 0.3651
0.5296 1.5302 0.3651
0.3909 1.5713 0.3651
0.2491 1.5998 0.3651
0.1054 1.6157 0.3651
-0.0392 1.6186 0.3651
-0.1835 1.6087 0.3651
-0.3264 1.5860 0.3651
-0.4667 1.5507 0.3651
-0.6032 1.5030 0.3651
-0.7351 1.4433 0.3652
-0.8610 1.3721 0.3652
-0.9802 1.2900 0.3653
-2.6829 2.9434 0.8980
-3.1348 2.8755 0.9591
-3.7756 2.8877 1.0717
-6.4015 4.0454 1.7074
-6.7405 3.4598 1.7083
-7.0254 2.8456 1.7090
-7.2538 2.2080 1.7096
-7.4237 1.5523 1.7100
-7.5338 0.8837 1.7103
-7.5831 0.2079 1.7104
-7.5711 -0.4697 1.7103
-7.4980 -1.1433 1.7101
-7.3644 -1.8075 1.7097
-7.1715 -2.4567 1.7092
-6.9208 -3.0857 1.7085
-6.6146 -3.6892 1.7076
-6.2883 -4.2850 1.7157
-6.2869 -5.1624 1.8341
-5.8816 -5.7820 1.8596
-1.0538 -1.2396 0.3668
-0.9391 -1.3289 0.3669
-0.8169 -1.4075 0.3669
-0.6881 -1.4750 0.3670
-0.5538 -1.5306 0.3670
-0.4150 -1.5740 0.3670
-0.2729 -1.6048 0.3670
-0.1286 -1.6228 0.3670
0.0168 -1.6278 0.3670
0.1620 -1.6197 0.3670
0.3059 -1.5987 0.3670
0.4473 -1.5650 0.3670
0.5851 -1.5187 0.3669
0.7182 -1.4602 0.3669
0.8456 -1.3901 0.3669
0.9661 -1.3089 0.3668
5.0421 -5.6888 1.7139
5.5863 -5.2696 1.7315
6.0776 -4.7841 1.7439
6.5078 -4.2405 1.7513
6.8662 -3.6460 1.7528
7.1662 -3.0196 1.7533
7.4135 -2.3700 1.7548
7.5996 -1.6999 1.7558
4.6198 -0.6073 1.0506
4.6808 -0.1936 1.0563
7.7754 0.3737 1.7551
7.7049 1.0653 1.7537
7.5706 1.7467 1.7518
7.3740 2.4119 1.7493
7.1170 3.0550 1.7463
6.8022 3.6706 1.7427
6.4328 4.2533 1.7388
6.0196 4.8040 1.7365
5.5365 5.2930 1.7270
1.0664 1.2195 0.3653
0.9532 1.3096 0.3652
0.8324 1.3893 0.3652
0.7050 1.4579 0.3651
0.5720 1.5149 0.3651
0.4345 1.5598 0.3651
0.2936 1.5923 0.3651
0.1503 1.6121 0.3651
0.0059 1.6191 0.3651
-0.1387 1.6132 0.3651
-0.2821 1.5944 0.3651
-0.4233 1.5630 0.3651
-0.5611 1.5191 0.3651
-0.6945 1.4631 0.3652
-0.8224 1.3955 0.3652
-0.9438 1.3167 0.3653
-2.6798 3.1097 0.9256
-2.9611 2.8722 0.9301
-3.5601 2.8836 1.0330
-6.2856 4.2216 1.7072
-6.6405 3.6456 1.7080
-6.9425 3.0398 1.7088
-7.1888 2.4090 1.7094
-7.3771 1.7584 1.7099
-7.5060 1.0932 1.7102
-7.5743 0.4190 1.7104
-7.5814 -0.2586 1.7104
-7.5274 -0.9341 1.7102
-7.4125 -1.6018 1.7099
-7.2379 -2.2563 1.7094
-7.0050 -2.8921 1.7087
-6.7159 -3.5041 1.7079
-6.3736 -4.0877 1.7072
-6.2776 -4.8683 1.7911
-6.0404 -5.6159 1.8596
-1.0879 -1.2097 0.3668
-0.9757 -1.3021 0.3669
-0.8558 -1.3842 0.3669
-0.7289 -1.4552 0.3670
-0.5962 -1.5146 0.3670
-0.4586 -1.5618 0.3670
-0.3175 -1.5966 0.3670
-0.1737 -1.6186 0.3670
-0.0286 -1.6276 0.3670
0.1168 -1.6236 0.3670
0.2612 -1.6067 0.3670
0.4035 -1.5768 0.3670
0.5426 -1.5344 0.3670
0.6773 -1.4797 0.3669
0.8066 -1.4132 0.3669
0.9293 -1.3354 0.3668
1.0446 -1.2469 0.3668
5.4232 -5.4090 1.7270
5.9322 -4.9434 1.7410
6.3801 -4.4153 1.7494
6.7635 -3.8367 1.7532
7.0769 -3.2169 1.7527
7.3429 -2.5750 1.7544
7.5483 -1.9107 1.7556
4.6590 -0.7450 1.0638
4.6408 -0.3216 1.0489
7.7842 0.1570 1.7554
7.7338 0.8505 1.7542
7.6193 1.5357 1.7524
7.4419 2.2066 1.7501
7.2035 2.8572 1.7472
6.9064 3.4820 1.7439
6.5537 4.0754 1.7400
6.1537 4.6364 1.7372
5.6935 5.1473 1.7305
1.1000 1.1894 0.3653
0.9893 1.2826 0.3652
0.8708 1.3656 0.3652
0.7454 1.4377 0.3651
0.6140 1.4984 0.3651
0.4778 1.5471 0.3651
0.3378 1.5835 0.3651
0.1952 1.6073 0.3651
0.0510 1.6183 0.3651
-0.0937 1.6164 0.3651
-0.2376 1.6017 0.3651
-0.3796 1.5742 0.3651
-0.5186 1.5341 0.3651
-0.6535 1.4819 0.3652
-0.7832 1.4178 0.3652
-0.9067 1.3425 0.3653
-1.0231 1.2564 0.3653
-2.7976 2.8691 0.9035
-3.3596 2.8798 0.9977
-4.0586 2.8931 1.1238
-6.5353 3.8286 1.7077
-6.8542 3.2316 1.7086
-7.1181 2.6081 1.7092
-7.3247 1.9630 1.7098
-7.4723 1.3018 1.7101
-7.5596 0.6298 1.7103
-7.5858 -0.0473 1.7104
-7.5508 -0.7241 1.7103
-7.4548 -1.3948 1.7100
-7.2987 -2.0540 1.7095
-7.0838 -2.6962 1.7089
-6.8119 -3.3162 1.7082
-6.4854 -3.9088 1.7073
-6.2803 -4.5961 1.7547
-6.1945 -5.4454 1.8596
-5.6838 -5.9765 1.8596
-1.0116 -1.2744 0.3669
-0.8939 -1.3598 0.3669
-0.7691 -1.4343 0.3669
-0.6381 -1.4973 0.3670
-0.5020 -1.5484 0.3670
-0.3618 -1.5871 0.3670
-0.2187 -1.6131 0.3670
-0.0739 -1.6262 0.3670
0.0715 -1.6263 0.3670
0.2164 -1.6133 0.3670
0.3595 -1.5875 0.3670
0.4997 -1.5490 0.3670
0.6358 -1.4981 0.3669
0.7669 -1.4352 0.3669
0.8918 -1.3608 0.3668
1.0095 -1.2756 0.3668
5.2506 -5.5371 1.7205
5.7780 -5.0943 1.7368
6.2464 -4.5853 1.7471
6.6551 -4.0243 1.7535
6.9831 -3.4121 1.7524
7.2664 -2.7778 1.7540
7.4909 -2.1199 1.7553
4.7674 -0.8992 1.0939
4.6016 -0.4480 1.0424
4.8426 -0.0373 1.0919
7.7564 0.6348 1.7547
7.6618 1.3233 1.7531
7.5039 1.9993 1.7509
7.2842 2.6569 1.7482
7.0051 3.2903 1.7450
6.6694 3.8941 1.7413
6.2815 4.4639 1.7375
5.8446 4.9952 1.7335
5.3379 5.4585 1.7214
1.0247 1.2546 0.3652
0.9085 1.3409 0.3652
0.7852 1.4165 0.3651
0.6556 1.4807 0.3651
0.5208 1.5332 0.3651
0.3818 1.5735 0.3651
0.2399 1.6012 0.3651
0.0960 1.6162 0.3651
-0.0486 1.6184 0.3651
-0.1928 1.6076 0.3651
-0.3356 1.5841 0.3651
-0.4756 1.5479 0.3651
-0.6119 1.4995 0.3651
-0.7434 1.4390 0.3652
-0.8690 1.3671 0.3652
-0.9876 1.2843 0.3653
-2.6835 2.9101 0.8925
-3.1721 2.8763 0.9654
-3.8223 2.8886 1.0802
-6.4251 4.0085 1.7075
-6.7606 3.4208 1.7083
-7.0419 2.8050 1.7090
-7.2666 2.1661 1.7096
-7.4327 1.5094 1.7100
-7.5389 0.8402 1.7103
-7.5842 0.1640 1.7104
-7.5683 -0.5135 1.7103
-7.4912 -1.1867 1.7101
-7.3537 -1.8500 1.7097
-7.1570 -2.4981 1.7091
-6.9027 -3.1256 1.7084
-6.5929 -3.7272 1.7076
-6.2836 -4.3353 1.7212
-6.2908 -5.2267 1.8441
-5.8481 -5.8159 1.8596
-1.0467 -1.2457 0.3668
-0.9314 -1.3343 0.3669
-0.8087 -1.4122 0.3669
-0.6795 -1.4789 0.3670
-0.5449 -1.5338 0.3670
-0.4059 -1.5764 0.3670
-0.2636 -1.6064 0.3670
-0.1192 -1.6235 0.3670
0.0262 -1.6277 0.3670
0.1713 -1.6188 0.3670
0.3151 -1.5969 0.3670
0.4563 -1.5623 0.3670
0.5939 -1.5152 0.3669
0.7267 -1.4560 0.3669
0.8536 -1.3852 0.3669
0.9736 -1.3033 0.3668
5.0759 -5.6607 1.7143
5.6197 -5.2400 1.7324
6.1071 -4.7504 1.7445
6.5336 -4.2038 1.7517
6.8868 -3.6061 1.7527
7.1840 -2.9783 1.7534
7.4274 -2.3272 1.7549
7.6094 -1.6560 1.7558
4.6118 -0.5791 1.0480
4.6892 -0.1668 1.0579
7.7728 0.4186 1.7551
7.6981 1.1097 1.7536
7.5598 1.7903 1.7516
7.3592 2.4542 1.7491
7.0984 3.0957 1.7460
6.7800 3.7093 1.7425
6.4071 4.2897 1.7385
5.9900 4.8374 1.7360
5.5027 5.3220 1.7260
1.0593 1.2256 0.3653
0.9456 1.3151 0.3652
0.8243 1.3941 0.3652
0.6966 1.4619 0.3651
0.5633 1.5181 0.3651
0.4255 1.5623 0.3651
0.2844 1.5939 0.3651
0.1410 1.6129 0.3651
-0.0035 1.6191 0.3651
-0.1480 1.6124 0.3651
-0.2913 1.5928 0.3651
-0.4323 1.5605 0.3651
-0.5699 1.5159 0.3651
-0.7030 1.4591 0.3652
-0.8305 1.3907 0.3652
-0.9514 1.3113 0.3653
-2.6804 3.0744 0.9196
-2.9963 2.8729 0.9359
-3.6035 2.8845 1.0407
-6.3200 4.1920 1.7099
-6.6617 3.6073 1.7081
-6.9602 2.9997 1.7088
-7.2027 2.3675 1.7095
-7.3873 1.7157 1.7099
-7.5123 1.0498 1.7102
-7.5766 0.3752 1.7104
-7.5798 -0.3024 1.7104
-7.5218 -0.9776 1.7102
-7.4030 -1.6446 1.7098
-7.2246 -2.2980 1.7093
-6.9880 -2.9325 1.7087
-6.6953 -3.5427 1.7079
-6.3498 -4.1244 1.7072
-6.2789 -4.9277 1.7996
-6.0079 -5.6507 1.8596
-1.0809 -1.2160 0.3668
-0.9682 -1.3078 0.3669
-0.8477 -1.3891 0.3669
-0.7205 -1.4594 0.3670
-0.5874 -1.5180 0.3670
-0.4496 -1.5644 0.3670
-0.3082 -1.5984 0.3670
-0.1643 -1.6196 0.3670
-0.0192 -1.6278 0.3670
0.1262 -1.6229 0.3670
0.2705 -1.6051 0.3670
0.4126 -1.5745 0.3670
0.5515 -1.5312 0.3670
0.6858 -1.4758 0.3669
0.8147 -1.4085 0.3669
0.9370 -1.3300 0.3668
1.0518 -1.2408 0.3668
5.4573 -5.3805 1.7279
5.9632 -4.9111 1.7418
6.4070 -4.3794 1.7498
6.7852 -3.7974 1.7531
7.0959 -3.1762 1.7529
7.3580 -2.5327 1.7545
7.5594 -1.8671 1.7556
4.6507 -0.7161 1.0609
4.6490 -0.2952 1.0503
7.7829 0.2020 1.7554
7.7283 0.8951 1.7541
7.6097 1.5796 1.7523
7.4283 2.2493 1.7499
7.1860 2.8985 1.7470
6.8852 3.5214 1.7436
6.5290 4.1126 1.7398
6.1266 4.6717 1.7371
5.6616 5.1782 1.7299
1.0931 1.1957 0.3653
0.9819 1.2883 0.3652
0.8629 1.3706 0.3652
0.7370 1.4420 0.3651
0.6054 1.5019 0.3651
0.4689 1.5498 0.3651
0.3287 1.5854 0.3651
0.1859 1.6084 0.3651
0.0416 1.6185 0.3651
-0.1030 1.6158 0.3651
-0.2468 1.6003 0.3651
-0.3887 1.5719 0.3651
-0.5274 1.5311 0.3651
-0.6620 1.4781 0.3652
-0.7914 1.4133 0.3652
-0.9145 1.3372 0.3653
-1.0303 1.2505 0.3653
-2.8308 2.8698 0.9089
-3.4001 2.8806 1.0047
-4.1100 2.8941 1.1334
-6.5576 3.7909 1.7078
-6.8730 3.1921 1.7086
-7.1332 2.5670 1.7093
-7.3361 1.9207 1.7098
-7.4798 1.2586 1.7102
-7.5631 0.5861 1.7103
-7.5854 -0.0912 1.7104
-7.5464 -0.7677 1.7103
-7.4465 -1.4378 1.7100
-7.2866 -2.0961 1.7095
-7.0679 -2.7370 1.7089
-6.7924 -3.3554 1.7081
-6.4625 -3.9461 1.7072
-6.2797 -4.6516 1.7620
-6.1629 -5.4811 1.8596
-1.1143 -1.1853 0.3668
-1.0042 -1.2802 0.3669
-0.8861 -1.3649 0.3669
-0.7608 -1.4387 0.3669
-0.6294 -1.5010 0.3670
-0.4930 -1.5513 0.3670
-0.3526 -1.5892 0.3670
-0.2094 -1.6143 0.3670
-0.0645 -1.6266 0.3670
0.0809 -1.6258 0.3670
0.2257 -1.6121 0.3670
0.3686 -1.5854 0.3670
0.5086 -1.5461 0.3670
0.6445 -1.4943 0.3669
0.7752 -1.4307 0.3669
0.8996 -1.3556 0.3668
1.0169 -1.2697 0.3668
5.2870 -5.5114 1.7220
5.8104 -5.0634 1.7377
6.2746 -4.5505 1.7476
6.6783 -3.9858 1.7535
7.0021 -3.3714 1.7522
7.2827 -2.7359 1.7541
7.5033 -2.0766 1.7553
4.7276 -0.8634 1.0836
4.6097 -0.4219 1.0437
4.8758 -0.0093 1.0993
7.7522 0.6796 1.7546
7.6535 1.3675 1.7529
7.4915 2.0425 1.7507
7.2679 2.6987 1.7480
6.9851 3.3303 1.7448
6.6458 3.9320 1.7410
6.2554 4.5000 1.7374
5.8138 5.0273 1.7329
1.1260 1.1648 0.3653
1.0174 1.2605 0.3652
0.9008 1.3461 0.3652
0.7770 1.4210 0.3651
0.6470 1.4845 0.3651
0.5119 1.5362 0.3651
0.3727 1.5757 0.3651
0.2306 1.6026 0.3651
0.0867 1.6168 0.3651
-0.0580 1.6181 0.3651
-0.2021 1.6065 0.3651
-0.3447 1.5821 0.3651
-0.4846 1.5452 0.3651
-0.6206 1.4959 0.3652
-0.7517 1.4347 0.3652
-0.8769 1.3621 0.3652
-0.9951 1.2786 0.3653
-2.6841 2.8772 0.8872
-3.2100 2.8770 0.9719
-3.8698 2.8895 1.0889
-6.4483 3.9714 1.7075
-6.7805 3.3818 1.7084
-7.0582 2.7644 1.7091
-7.2791 2.1241 1.7097
-7.4414 1.4664 1.7101
-7.5437 0.7966 1.7103
-7.5850 0.1202 1.7104
-7.5651 -0.5572 1.7103
-7.4841 -1.2299 1.7101
-7.3428 -1.8925 1.7097
-7.1423 -2.5394 1.7091
-6.8843 -3.1653 1.7084
-6.5710 -3.7652 1.7075
-6.2821 -4.3878 1.7277
-6.2959 -5.2927 1.8545
-5.8144 -5.8495 1.8596
-1.0394 -1.2517 0.3668
-0.9237 -1.3396 0.3669
-0.8006 -1.4169 0.3669
-0.6710 -1.4828 0.3670
-0.5360 -1.5369 0.3670
-0.3968 -1.5787 0.3670
-0.2543 -1.6079 0.3670
-0.1098 -1.6242 0.3670
0.0356 -1.6275 0.3670
0.1807 -1.6178 0.3670
0.3243 -1.5951 0.3670
0.4654 -1.5597 0.3670
0.6026 -1.5118 0.3669
0.7350 -1.4518 0.3669
0.8616 -1.3802 0.3668
0.9812 -1.2976 0.3668
5.1104 -5.6333 1.7149
5.6528 -5.2102 1.7333
6.1364 -4.7165 1.7450
6.5592 -4.1668 1.7521
6.9072 -3.5661 1.7527
7.2016 -2.9369 1.7536
7.4411 -2.2844 1.7550
7.6191 -1.6120 1.7559
4.6039 -0.5511 1.0454
4.7200 -0.1406 1.0647
7.7699 0.4635 1.7550
7.6911 1.1541 1.7535
7.5487 1.8338 1.7515
7.3441 2.4964 1.7489
7.0795 3.1363 1.7458
6.7575 3.7479 1.7422
6.3812 4.3260 1.7382
5.9602 4.8705 1.7355
5.4689 5.3507 1.7251
7.4546 1.1990 1.7513
7.3094 1.8573 1.7493
7.1041 2.4986 1.7467
6.8408 3.1171 1.7437
6.5221 3.7077 1.7402
6.1572 4.2693 1.7379
5.7303 4.7840 1.7315
1.1141 1.1132 0.3653
1.0102 1.2081 0.3653
0.8982 1.2932 0.3652
0.7791 1.3681 0.3652
0.6539 1.4320 0.3651
0.5234 1.4845 0.3651
0.3888 1.5252 0.3651
0.2512 1.5538 0.3651
0.1115 1.5700 0.3651
-0.0291 1.5737 0.3651
-0.1694 1.5649 0.3651
-0.3084 1.5436 0.3651
-0.4449 1.5100 0.3651
-0.5780 1.4644 0.3652
-0.7064 1.4071 0.3652
-0.8293 1.3387 0.3653
-0.9456 1.2595 0.3653
-1.0544 1.1703 0.3654
-3.0979 2.8749 0.9803
-3.7296 2.8869 1.0940
-6.1991 3.9678 1.7072
-6.5304 3.3998 1.7077
-6.8107 2.8046 1.7084
-7.0362 2.1863 1.7090
-7.2050 1.5501 1.7094
-7.3157 0.9010 1.7097
-7.3674 0.2446 1.7098
-7.3596 -0.4139 1.7098
-7.2925 -1.0689 1.7096
-7.1665 -1.7151 1.7092
-6.9827 -2.3471 1.7087
-6.7428 -2.9597 1.7080
-6.4487 -3.5480 1.7072
-6.2748 -4.2227 1.7543
-6.2253 -5.0518 1.8596
-5.7496 -5.5872 1.8596
-1.0313 -1.1989 0.3668
-0.9203 -1.2863 0.3669
-0.8019 -1.3635 0.3669
-0.6771 -1.4297 0.3669
-0.5468 -1.4846 0.3670
-0.4122 -1.5275 0.3670
-0.2742 -1.5583 0.3670
-0.1341 -1.5766 0.3670
0.0072 -1.5822 0.3670
0.1483 -1.5752 0.3670
0.2883 -1.5556 0.3670
0.4260 -1.5236 0.3670
0.5602 -1.4794 0.3669
0.6899 -1.4233 0.3669
0.8141 -1.3559 0.3668
0.9317 -1.2777 0.3668
1.0418 -1.1892 0.3667
5.3825 -5.1365 1.7257
5.8645 -4.6715 1.7391
6.2887 -4.1498 1.7476
6.6535 -3.5825 1.7528
6.9417 -2.9723 1.7515
7.1843 -2.3426 1.7527
7.3687 -1.6930 1.7537
4.6415 -0.6374 1.0867
4.6856 -0.2209 1.0880
7.5516 0.3192 1.7532
7.4874 0.9911 1.7518
7.3612 1.6536 1.7500
7.1745 2.3008 1.7476
6.9290 2.9270 1.7447
6.6272 3.5269 1.7413
6.2748 4.0969 1.7382
5.8706 4.6298 1.7342
5.3996 5.1027 1.7232
1.0435 1.1795 0.3653
0.9339 1.2677 0.3652
0.8170 1.3459 0.3652
0.6935 1.4133 0.3652
0.5646 1.4694 0.3651
0.4312 1.5138 0.3651
0.2944 1.5462 0.3651
0.1552 1.5663 0.3651
0.0148 1.5739 0.3651
-0.1257 1.5690 0.3651
-0.2653 1.5516 0.3651
-0.4027 1.5218 0.3651
-0.5369 1.4799 0.3652
-0.6669 1.4262 0.3652
-0.7916 1.3612 0.3652
-0.9101 1.2853 0.3653
-1.0213 1.1991 0.3653
-2.9265 2.8716 0.9510
-3.5174 2.8829 1.0549
-6.1544 4.1853 1.7263
-6.4322 3.5798 1.7075
-6.7291 2.9929 1.7082
-6.9719 2.3813 1.7088
-7.1585 1.7500 1.7093
-7.2875 1.1044 1.7096
-7.3577 0.4497 1.7098
-7.3685 -0.2087 1.7098
-7.3198 -0.8654 1.7096
-7.2120 -1.5149 1.7093
-7.0461 -2.1519 1.7089
-6.8235 -2.7711 1.7082
-6.5460 -3.3675 1.7075
-6.2768 -3.9746 1.7232
-6.2691 -4.8040 1.8319
-5.9031 -5.4249 1.8596
-1.0642 -1.1697 0.3668
-0.9557 -1.2601 0.3668
-0.8395 -1.3406 0.3669
-0.7166 -1.4103 0.3669
-0.5880 -1.4687 0.3670
-0.4546 -1.5154 0.3670
-0.3175 -1.5500 0.3670
-0.1779 -1.5722 0.3670
-0.0369 -1.5818 0.3670
0.1044 -1.5788 0.3670
0.2449 -1.5631 0.3670
0.3834 -1.5349 0.3670
0.5188 -1.4945 0.3669
0.6500 -1.4421 0.3669
0.7760 -1.3781 0.3668
0.8958 -1.3032 0.3668
1.0084 -1.2179 0.3667
5.2173 -5.2642 1.7191
5.7188 -4.8218 1.7351
6.1624 -4.3175 1.7453
6.5466 -3.7639 1.7516
6.8578 -3.1652 1.7519
7.1146 -2.5412 1.7523
7.3177 -1.8974 1.7535
4.6812 -0.7763 1.1006
4.6455 -0.3490 1.0806
7.5589 0.1088 1.7535
7.5141 0.7824 1.7523
7.4071 1.4484 1.7506
7.2391 2.1010 1.7484
7.0117 2.7344 1.7456
6.7272 3.3430 1.7424
6.3884 3.9217 1.7387
6.0052 4.4704 1.7365
5.5536 4.9628 1.7275
1.0760 1.1500 0.3653
0.9689 1.2413 0.3652
0.8542 1.3226 0.3652
0.7327 1.3934 0.3652
0.6053 1.4531 0.3651
0.4732 1.5013 0.3651
0.3373 1.5374 0.3651
0.1988 1.5614 0.3651
0.0586 1.5729 0.3651
-0.0820 1.5718 0.3651
-0.2219 1.5583 0.3651
-0.3601 1.5324 0.3651
-0.4955 1.4942 0.3651
-0.6269 1.4442 0.3652
-0.7534 1.3826 0.3652
-0.8739 1.3101 0.3653
-0.9875 1.2270 0.3653
-2.7649 2.8686 0.9241
-3.3197 2.8791 1.0193
-4.0081 2.8922 1.1464
-6.3290 3.7570 1.7072
-6.6422 3.1787 1.7080
-6.9021 2.5743 1.7087
-7.1064 1.9486 1.7092
-7.2536 1.3069 1.7096
-7.3421 0.6545 1.7098
-7.3715 -0.0034 1.7098
-7.3413 -0.6612 1.7097
-7.2519 -1.3135 1.7094
-7.1040 -1.9549 1.7090
-6.8989 -2.5803 1.7085
-6.6383 -3.1843 1.7077
-6.3256 -3.7628 1.7072
-6.2718 -4.5345 1.7951
-6.0519 -5.2583 1.8596
-1.0963 -1.1395 0.3668
-0.9904 -1.2330 0.3668
-0.8765 -1.3166 0.3669
-0.7556 -1.3897 0.3669
-0.6286 -1.4518 0.3669
-0.4966 -1.5022 0.3670
-0.3606 -1.5406 0.3670
-0.2217 -1.5666 0.3670
-0.0810 -1.5802 0.3670
0.0604 -1.5811 0.3670
0.2012 -1.5693 0.3670
0.3405 -1.5450 0.3670
0.4770 -1.5084 0.3669
0.6096 -1.4597 0.3669
0.7374 -1.3993 0.3669
0.8592 -1.3277 0.3668
0.9741 -1.2455 0.3668
5.0536 -5.3914 1.7140
5.5689 -4.9674 1.7309
6.0313 -4.4813 1.7428
6.4330 -3.9410 1.7499
6.7684 -3.3558 1.7523
7.0391 -2.7377 1.7519
7.2608 -2.1002 1.7532
4.8474 -0.9433 1.1455
4.6063 -0.4754 1.0741
4.8307 -0.0651 1.1206
7.5348 0.5729 1.7527
7.4471 1.2420 1.7512
7.2979 1.8994 1.7491
7.0888 2.5393 1.7466
6.8218 3.1562 1.7435
6.4997 3.7448 1.7399
6.1322 4.3047 1.7378
5.7006 4.8154 1.7309
1.1077 1.1197 0.3653
1.0032 1.2139 0.3653
0.8907 1.2984 0.3652
0.7712 1.3725 0.3652
0.6456 1.4358 0.3651
0.5148 1.4875 0.3651
0.3800 1.5275 0.3651
0.2422 1.5552 0.3651
0.1024 1.5706 0.3651
-0.0382 1.5735 0.3651
-0.1784 1.5639 0.3651
-0.3173 1.5418 0.3651
-0.4537 1.5074 0.3651
-0.5864 1.4611 0.3652
-0.7146 1.4030 0.3652
-0.8370 1.3338 0.3653
-0.9529 1.2540 0.3653
-2.6829 2.9434 0.9238
-3.1348 2.8756 0.9867
-3.7757 2.8878 1.1026
-6.2219 3.9319 1.7072
-6.5502 3.3621 1.7078
-6.8269 2.7652 1.7085
-7.0488 2.1457 1.7090
-7.2139 1.5084 1.7095
-7.3209 0.8587 1.7097
-7.3687 0.2020 1.7098
-7.3571 -0.4564 1.7098
-7.2861 -1.1110 1.7095
-7.1563 -1.7564 1.7092
-6.9689 -2.3873 1.7086
-6.7254 -2.9986 1.7080
-6.4366 -3.5906 1.7095
-6.2743 -4.2753 1.7611
-6.1960 -5.0877 1.8596
-5.7172 -5.6204 1.8596
-1.0243 -1.2049 0.3668
-0.9128 -1.2916 0.3669
-0.7940 -1.3681 0.3669
-0.6688 -1.4336 0.3669
-0.5382 -1.4877 0.3670
-0.4033 -1.5299 0.3670
-0.2652 -1.5598 0.3670
-0.1250 -1.5773 0.3670
0.0163 -1.5822 0.3670
0.1574 -1.5744 0.3670
0.2973 -1.5539 0.3670
0.4348 -1.5211 0.3669
0.5687 -1.4761 0.3669
0.6981 -1.4193 0.3669
0.8219 -1.3512 0.3668
0.9391 -1.2723 0.3668
1.0487 -1.1832 0.3667
5.4150 -5.1080 1.7267
5.8942 -4.6397 1.7399
6.3142 -4.1144 1.7481
6.6738 -3.5438 1.7527
6.9581 -2.9319 1.7513
7.1980 -2.3011 1.7528
7.3786 -1.6504 1.7537
4.6334 -0.6090 1.0840
4.6940 -0.1941 1.0897
7.5494 0.3628 1.7531
7.4811 1.0343 1.7517
7.3510 1.6960 1.7498
7.1603 2.3420 1.7474
6.9111 2.9667 1.7445
6.6059 3.5646 1.7411
6.2508 4.1329 1.7381
5.8421 4.6624 1.7337
5.3671 5.1311 1.7223
1.0366 1.1855 0.3653
0.9266 1.2731 0.3652
0.8092 1.3506 0.3652
0.6854 1.4172 0.3651
0.5561 1.4726 0.3651
0.4224 1.5163 0.3651
0.2854 1.5479 0.3651
0.1461 1.5672 0.3651
0.0057 1.5739 0.3651
-0.1348 1.5682 0.3651
-0.2742 1.5500 0.3651
-0.4115 1.5194 0.3651
-0.5455 1.4768 0.3652
-0.6752 1.4224 0.3652
-0.7995 1.3566 0.3652
-0.9175 1.2800 0.3653
-1.0282 1.1932 0.3653
-2.9612 2.8723 0.9569
-3.5602 2.8837 1.0627
-6.1578 4.1358 1.7205
-6.4530 3.5427 1.7075
-6.7464 2.9540 1.7083
-6.9856 2.3410 1.7089
-7.1686 1.7087 1.7093
-7.2938 1.0623 1.7096
-7.3602 0.4072 1.7098
-7.3671 -0.2513 1.7098
-7.3146 -0.9077 1.7096
-7.2030 -1.5565 1.7093
-7.0334 -2.1925 1.7088
-6.8072 -2.8104 1.7082
-6.5263 -3.4051 1.7074
-6.2764 -4.0254 1.7295
-6.2684 -4.8612 1.8399
-5.8716 -5.4589 1.8596
-1.0574 -1.1758 0.3668
-0.9484 -1.2657 0.3668
-0.8318 -1.3454 0.3669
-0.7085 -1.4144 0.3669
-0.5795 -1.4721 0.3670
-0.4458 -1.5181 0.3670
-0.3086 -1.5518 0.3670
-0.1688 -1.5732 0.3670
-0.0278 -1.5820 0.3670
0.1135 -1.5781 0.3670
0.2539 -1.5617 0.3670
0.3922 -1.5327 0.3670
0.5274 -1.4914 0.3669
0.6583 -1.4383 0.3669
0.7840 -1.3736 0.3668
0.9033 -1.2980 0.3668
1.0154 -1.2120 0.3667
5.2518 -5.2381 1.7205
5.7494 -4.7910 1.7359
6.1890 -4.2831 1.7458
6.5695 -3.7267 1.7519
6.8756 -3.1254 1.7518
7.1295 -2.5002 1.7524
7.3288 -1.8551 1.7535
4.6729 -0.7472 1.0976
4.6538 -0.3225 1.0820
7.5579 0.1524 1.7534
7.5091 0.8257 1.7522
7.3981 1.4911 1.7505
7.2261 2.1426 1.7482
6.9950 2.7745 1.7455
6.7069 3.3814 1.7422
6.3647 3.9580 1.7385
5.9777 4.5038 1.7360
5.5220 4.9922 1.7267
1.0693 1.1562 0.3653
0.9617 1.2469 0.3652
0.8465 1.3275 0.3652
0.7246 1.3976 0.3652
0.5969 1.4566 0.3651
0.4645 1.5040 0.3651
0.3284 1.5394 0.3651
0.1897 1.5625 0.3651
0.0495 1.5732 0.3651
-0.0911 1.5713 0.3651
-0.2309 1.5570 0.3651
-0.3690 1.5303 0.3651
-0.5041 1.4914 0.3651
-0.6353 1.4406 0.3652
-0.7614 1.3783 0.3652
-0.8815 1.3050 0.3653
-0.9946 1.2213 0.3653
-2.7977 2.8692 0.9295
-3.3596 2.8799 1.0264
-4.0587 2.8932 1.1561
-6.3508 3.7205 1.7072
-6.6607 3.1404 1.7080
-6.9170 2.5344 1.7087
-7.1177 1.9076 1.7092
-7.2611 1.2650 1.7096
-7.3458 0.6120 1.7098
-7.3713 -0.0460 1.7098
-7.3373 -0.7036 1.7097
-7.2441 -1.3553 1.7094
-7.0924 -1.9959 1.7090
-6.8837 -2.6200 1.7084
-6.6196 -3.2225 1.7077
-6.3037 -3.7993 1.7072
-6.2713 -4.5895 1.8025
-6.0214 -5.2932 1.8596
-1.0897 -1.1458 0.3668
-0.9833 -1.2387 0.3668
-0.8689 -1.3217 0.3669
-0.7476 -1.3941 0.3669
-0.6202 -1.4554 0.3669
-0.4879 -1.5050 0.3670
-0.3517 -1.5426 0.3670
-0.2126 -1.5679 0.3670
-0.0718 -1.5806 0.3670
0.0695 -1.5807 0.3670
0.2103 -1.5681 0.3670
0.3494 -1.5430 0.3670
0.4857 -1.5056 0.3669
0.6180 -1.4561 0.3669
0.7454 -1.3950 0.3669
0.8668 -1.3227 0.3668
0.9813 -1.2399 0.3668
5.0856 -5.3631 1.7143
5.6003 -4.9376 1.7318
6.0589 -4.4476 1.7434
6.4570 -3.9045 1.7502
6.7874 -3.3165 1.7522
7.0553 -2.6971 1.7520
7.2731 -2.0582 1.7532
4.7996 -0.9052 1.1329
4.6144 -0.4493 1.0754
4.8673 -0.0375 1.1290
7.5310 0.6164 1.7527
7.4393 1.2849 1.7511
7.2862 1.9413 1.7490
7.0733 2.5800 1.7464
6.8026 3.1952 1.7433
6.4770 3.7817 1.7397
6.1070 4.3399 1.7378
5.6708 4.8466 1.7303
1.1012 1.1260 0.3653
0.9961 1.2196 0.3653
0.8832 1.3035 0.3652
0.7633 1.3770 0.3652
0.6373 1.4394 0.3651
0.5062 1.4905 0.3651
0.3712 1.5296 0.3651
0.2332 1.5566 0.3651
0.0933 1.5712 0.3651
-0.0472 1.5733 0.3651
-0.1875 1.5628 0.3651
-0.3262 1.5399 0.3651
-0.4624 1.5048 0.3651
-0.5949 1.4577 0.3652
-0.7227 1.3989 0.3652
-0.8447 1.3290 0.3653
-0.9601 1.2485 0.3653
-2.6835 2.9101 0.9182
-3.1722 2.8763 0.9932
-3.8224 2.8887 1.1113
-6.2445 3.8958 1.7072
-6.5697 3.3243 1.7078
-6.8430 2.7258 1.7085
-7.0612 2.1049 1.7091
-7.2226 1.4667 1.7095
-7.3257 0.8164 1.7097
-7.3698 0.1594 1.7098
-7.3543 -0.4989 1.7097
-7.2795 -1.1531 1.7095
-7.1459 -1.7977 1.7091
-6.9548 -2.4275 1.7086
-6.7077 -3.0373 1.7079
-6.4071 -3.6222 1.7072
-6.2738 -4.3282 1.7679
-6.1665 -5.1234 1.8596
-5.6847 -5.6533 1.8596
-1.0173 -1.2108 0.3668
-0.9054 -1.2969 0.3669
-0.7861 -1.3727 0.3669
-0.6605 -1.4375 0.3669
-0.5296 -1.4908 0.3670
-0.3945 -1.5322 0.3670
-0.2562 -1.5614 0.3670
-0.1158 -1.5780 0.3670
0.0255 -1.5820 0.3670
0.1665 -1.5734 0.3670
0.3063 -1.5522 0.3670
0.4435 -1.5186 0.3669
0.5772 -1.4728 0.3669
0.7063 -1.4152 0.3669
0.8297 -1.3464 0.3668
0.9464 -1.2668 0.3668
1.0555 -1.1771 0.3667
5.4473 -5.0792 1.7275
5.9236 -4.6077 1.7407
6.3393 -4.0788 1.7485
6.6938 -3.5050 1.7526
6.9754 -2.8918 1.7515
7.2115 -2.2596 1.7529
7.3881 -1.6078 1.7538
4.6254 -0.5808 1.0813
4.7075 -0.1674 1.0926
7.5468 0.4065 1.7530
7.4745 1.0775 1.7516
7.3404 1.7383 1.7497
7.1460 2.3831 1.7472
6.8931 3.0062 1.7443
6.5843 3.6022 1.7408
6.2266 4.1688 1.7381
5.8131 4.6945 1.7331
5.3346 5.1593 1.7214
1.0298 1.1915 0.3653
0.9192 1.2784 0.3652
0.8014 1.3552 0.3652
0.6772 1.4212 0.3651
0.5476 1.4758 0.3651
0.4137 1.5187 0.3651
0.2765 1.5495 0.3651
0.1371 1.5680 0.3651
-0.0034 1.5740 0.3651
-0.1439 1.5674 0.3651
-0.2832 1.5484 0.3651
-0.4203 1.5170 0.3651
-0.5540 1.4736 0.3652
-0.6834 1.4184 0.3652
-0.8073 1.3520 0.3652
-0.9249 1.2747 0.3653
-1.0351 1.1873 0.3654
-2.9964 2.8730 0.9629
-3.6036 2.8845 1.0707
-6.1635 4.0883 1.7155
-6.4736 3.5055 1.7076
-6.7636 2.9150 1.7083
-6.9992 2.3006 1.7089
-7.1785 1.6672 1.7094
-7.2999 1.0201 1.7097
-7.3624 0.3646 1.7098
-7.3655 -0.2939 1.7098
-7.3091 -0.9499 1.7096
-7.1938 -1.5981 1.7093
-7.0205 -2.2331 1.7088
-6.7906 -2.8496 1.7082
-6.5063 -3.4427 1.7074
-6.2760 -4.0765 1.7358
-6.2695 -4.9204 1.8486
-5.8400 -5.4928 1.8596
-1.0506 -1.1819 0.3668
-0.9411 -1.2711 0.3668
-0.8240 -1.3502 0.3669
-0.7003 -1.4185 0.3669
-0.5709 -1.4755 0.3670
-0.4370 -1.5206 0.3670
-0.2996 -1.5536 0.3670
-0.1597 -1.5742 0.3670
-0.0186 -1.5821 0.3670
0.1226 -1.5775 0.3670
0.2629 -1.5602 0.3670
0.4011 -1.5304 0.3670
0.5360 -1.4883 0.3669
0.6666 -1.4344 0.3669
0.7919 -1.3690 0.3668
0.9108 -1.2927 0.3668
1.0223 -1.2061 0.3667
5.2862 -5.2119 1.7219
5.7798 -4.7600 1.7367
6.2154 -4.2484 1.7463
6.5922 -3.6894 1.7522
6.8932 -3.0855 1.7518
7.1442 -2.4591 1.7525
7.3396 -1.8128 1.7536
4.6646 -0.7182 1.0947
4.6620 -0.2960 1.0835
7.5566 0.1961 1.7533
7.5038 0.8691 1.7521
7.3888 1.5338 1.7504
7.2130 2.1841 1.7481
6.9780 2.8146 1.7453
6.6863 3.4196 1.7420
6.3414 3.9944 1.7384
5.9499 4.5370 1.7355
5.4902 5.0215 1.7258
1.0626 1.1624 0.3653
0.9545 1.2524 0.3652
0.8388 1.3324 0.3652
0.7165 1.4018 0.3652
0.5885 1.4600 0.3651
0.4558 1.5066 0.3651
0.3195 1.5412 0.3651
0.1807 1.5636 0.3651
0.0404 1.5734 0.3651
-0.1001 1.5708 0.3651
-0.2399 1.5557 0.3651
-0.3778 1.5281 0.3651
-0.5127 1.4884 0.3652
-0.6436 1.4369 0.3652
-0.7693 1.3739 0.3652
-0.8890 1.2999 0.3653
-1.0016 1.2156 0.3653
-2.8308 2.8698 0.9350
-3.4001 2.8806 1.0336
-4.1101 2.8942 1.1660
-6.3724 3.6839 1.7073
-6.6789 3.1019 1.7081
-6.9317 2.4944 1.7087
-7.1287 1.8664 1.7092
-7.2683 1.2231 1.7096
-7.3493 0.5696 1.7098
-7.3709 -0.0886 1.7098
-7.3331 -0.7460 1.7097
-7.2360 -1.3972 1.7094
-7.0807 -2.0368 1.7090
-6.8682 -2.6597 1.7084
-6.6006 -3.2606 1.7076
-6.2884 -3.8396 1.7090
-6.2707 -4.6450 1.8101
-5.9907 -5.3279 1.8596
-1.0831 -1.1521 0.3668
-0.9761 -1.2444 0.3668
-0.8613 -1.3267 0.3669
-0.7395 -1.3984 0.3669
-0.6118 -1.4589 0.3670
-0.4792 -1.5078 0.3670
-0.3427 -1.5446 0.3670
-0.2035 -1.5691 0.3670
-0.0627 -1.5810 0.3670
0.0787 -1.5803 0.3670
0.2194 -1.5669 0.3670
0.3583 -1.5410 0.3670
0.4944 -1.5027 0.3669
0.6264 -1.4525 0.3669
0.7535 -1.3906 0.3669
0.8744 -1.3177 0.3668
0.9884 -1.2342 0.3668
5.1191 -5.3363 1.7152
5.6316 -4.9076 1.7326
6.0863 -4.4139 1.7439
6.4807 -3.8679 1.7506
6.8061 -3.2770 1.7521
7.0711 -2.6564 1.7521
7.2851 -2.0162 1.7533
4.7529 -0.8680 1.1207
4.6225 -0.4231 1.0767
4.9045 -0.0094 1.1376
7.5269 0.6599 1.7526
7.4312 1.3278 1.7510
7.2742 1.9832 1.7488
7.0575 2.6205 1.7462
6.7832 3.2340 1.7430
6.4541 3.8186 1.7394
6.0816 4.3750 1.7377
5.6407 4.8776 1.7297
1.0946 1.1324 0.3653
0.9891 1.2254 0.3653
0.8756 1.3086 0.3652
0.7553 1.3813 0.3652
0.6289 1.4431 0.3651
0.4976 1.4934 0.3651
0.3623 1.5317 0.3651
0.2242 1.5579 0.3651
0.0843 1.5717 0.3651
-0.0563 1.5730 0.3651
-0.1965 1.5617 0.3651
-0.3351 1.5380 0.3651
-0.4711 1.5021 0.3651
-0.6033 1.4542 0.3652
-0.7307 1.3947 0.3652
-0.8524 1.3241 0.3653
-0.9673 1.2429 0.3653
-2.6841 2.8772 0.9127
-3.2101 2.8770 0.9999
-3.8699 2.8896 1.1202
-6.2669 3.8597 1.7072
-6.5890 3.2863 1.7079
-6.8588 2.6863 1.7086
-7.0734 2.0641 1.7091
-7.2310 1.4250 1.7095
-7.3304 0.7741 1.7097
-7.3706 0.1168 1.7098
-7.3512 -0.5414 1.7097
-7.2726 -1.1951 1.7095
-7.1353 -1.8390 1.7091
-6.9405 -2.4676 1.7086
-6.6899 -3.0759 1.7079
-6.3861 -3.6592 1.7072
-6.2733 -4.3816 1.7749
-6.1368 -5.1590 1.8596
-5.6519 -5.6861 1.8596
-1.0103 -1.2166 0.3668
-0.8979 -1.3021 0.3669
-0.7781 -1.3772 0.3669
-0.6522 -1.4413 0.3669
-0.5210 -1.4939 0.3670
-0.3856 -1.5345 0.3670
-0.2472 -1.5628 0.3670
-0.1067 -1.5787 0.3670
0.0346 -1.5819 0.3670
0.1756 -1.5724 0.3670
0.3152 -1.5504 0.3670
0.4523 -1.5160 0.3669
0.5857 -1.4694 0.3669
0.7145 -1.4111 0.3669
0.8374 -1.3416 0.3668
0.9537 -1.2613 0.3668
1.0623 -1.1710 0.3667
5.4794 -5.0503 1.7284
5.9524 -4.5751 1.7414
6.3641 -4.0429 1.7488
6.7137 -3.4661 1.7525
6.9924 -2.8516 1.7516
7.2248 -2.2180 1.7530
7.3975 -1.5651 1.7538
4.6174 -0.5527 1.0787
4.7387 -0.1411 1.0996
7.5440 0.4500 1.7530
7.4677 1.1206 1.7515
7.3297 1.7806 1.7496
7.1313 2.4241 1.7471
6.8747 3.0456 1.7441
6.5624 3.6398 1.7406
6.2021 4.2046 1.7380
5.7839 4.7264 1.7325
5.3018 5.1873 1.7204
7.2437 1.1650 1.7495
7.1028 1.8048 1.7475
6.9036 2.4280 1.7450
6.6480 3.0293 1.7420
6.3405 3.6044 1.7391
5.9841 4.1494 1.7364
5.5626 4.6440 1.7279
1.0838 1.0830 0.3653
0.9827 1.1752 0.3653
0.8738 1.2580 0.3652
0.7579 1.3309 0.3652
0.6361 1.3931 0.3652
0.5092 1.4442 0.3651
0.3783 1.4838 0.3651
0.2443 1.5115 0.3651
0.1085 1.5273 0.3651
-0.0283 1.5309 0.3651
-0.1648 1.5223 0.3651
-0.3000 1.5016 0.3651
-0.4328 1.4689 0.3652
-0.5622 1.4246 0.3652
-0.6872 1.3689 0.3652
-0.8067 1.3022 0.3653
-0.9199 1.2252 0.3653
-1.0257 1.1384 0.3654
-3.0980 2.8750 1.0078
-3.7297 2.8870 1.1247
-6.1551 3.9396 1.7426
-6.3506 3.3061 1.7072
-6.6230 2.7273 1.7079
-6.8422 2.1261 1.7085
-7.0064 1.5073 1.7089
-7.1140 0.8762 1.7092
-7.1643 0.2378 1.7093
-7.1567 -0.4025 1.7092
-7.0914 -1.0394 1.7090
-6.9689 -1.6678 1.7087
-6.7903 -2.2824 1.7082
-6.5570 -2.8782 1.7075
-6.2820 -3.4561 1.7097
-6.2660 -4.2168 1.8010
-6.0556 -4.9141 1.8596
-1.1030 -1.0718 0.3667
-1.0031 -1.1662 0.3668
-0.8951 -1.2512 0.3668
-0.7800 -1.3262 0.3669
-0.6586 -1.3907 0.3669
-0.5319 -1.4440 0.3669
-0.4009 -1.4858 0.3670
-0.2667 -1.5157 0.3670
-0.1304 -1.5335 0.3670
0.0070 -1.5390 0.3670
0.1443 -1.5322 0.3670
0.2804 -1.5131 0.3670
