ply
format ascii 1.0
element vertex 2139
property float32 x
property float32 y
property float32 z
end_header
-7.5942 8.9523 1.7483
-8.2960 8.1739 1.7344
-8.9255 7.3466 1.7216
-5.5692 3.8049 1.0045
-9.9750 5.5803 1.7022
-10.3911 4.6497 1.6954
-10.7287 3.6921 1.6897
-10.9669 2.7085 1.6823
-11.1035 1.7102 1.6731
-11.1566 0.7095 1.6649
-11.1270 -0.2872 1.6577
-10.9873 -1.2703 1.6472
-10.7668 -2.2321 1.6376
-10.4699 -3.1669 1.6290
-10.0905 -4.0658 1.6201
-9.6371 -4.9238 1.6117
-9.1186 -5.7379 1.6045
-7.5127 -5.7226 1.4065
-7.9012 -7.2185 1.5938
-7.2106 -7.8776 1.5904
-6.4677 -8.4742 1.5876
-5.6598 -8.9757 1.5803
-1.0402 -2.0312 0.3398
-0.8524 -2.1096 0.3388
-0.6593 -2.1721 0.3381
-0.4621 -2.2184 0.3375
-0.2621 -2.2483 0.3371
-0.0605 -2.2616 0.3369
0.1415 -2.2583 0.3370
0.3426 -2.2384 0.3372
0.5416 -2.2021 0.3377
0.7374 -2.1493 0.3384
0.9286 -2.0804 0.3393
5.6194 -10.0672 1.7170
6.5227 -9.5666 1.7244
7.3861 -8.9906 1.7328
8.2034 -8.3417 1.7424
8.9687 -7.6227 1.7529
9.6761 -6.8371 1.7645
10.3196 -5.9888 1.7769
10.8936 -5.0822 1.7902
11.3923 -4.1225 1.8043
11.8105 -3.1153 1.8191
12.1418 -2.0666 1.8342
12.3671 -0.9826 1.8476
12.4970 0.1253 1.8612
12.5285 1.2486 1.8751
12.4345 2.3739 1.8853
12.2281 3.4892 1.8938
11.9206 4.5861 1.9021
11.5044 5.6508 1.9088
10.9716 6.6647 1.9118
10.3487 7.6280 1.9146
9.6405 8.5324 1.9173
8.8467 9.3642 1.9185
7.9708 10.1091 1.9172
7.0332 10.7732 1.9160
6.0411 11.3515 1.9150
1.0387 2.4586 0.3975
3.9250 12.2344 1.9135
2.8174 12.5323 1.9130
1.6881 12.7314 1.9126
0.5458 12.8301 1.9125
-0.6007 12.8276 1.9125
-1.7426 12.7242 1.9127
-2.8710 12.5204 1.9130
-3.9774 12.2179 1.9135
-1.0489 2.4532 0.3973
-5.6102 10.4340 1.7643
-6.5221 9.8975 1.7653
-7.3296 9.2144 1.7535
-8.0562 8.4548 1.7392
-8.7115 7.6440 1.7260
-5.5570 4.0594 1.0249
-9.8095 5.9015 1.7049
-10.2530 4.9818 1.6976
-10.6185 4.0331 1.6916
-10.8985 3.0594 1.6858
-11.0649 2.0634 1.6763
-11.1474 1.0629 1.6677
-11.1469 0.0641 1.6601
-11.0464 -0.9252 1.6509
-10.8536 -1.8952 1.6408
-10.5833 -2.8401 1.6319
-10.2344 -3.7531 1.6234
-9.8049 -4.6255 1.6145
-9.3090 -5.4556 1.6069
-8.7502 -6.2391 1.6005
-6.9515 -5.9596 1.3636
-7.4604 -7.6513 1.5915
-6.7374 -8.2730 1.5889
-5.9494 -8.8065 1.5828
-1.1050 -1.9997 0.3402
-0.9194 -2.0837 0.3392
-0.7280 -2.1519 0.3383
-0.5321 -2.2039 0.3377
-0.3330 -2.2396 0.3372
-0.1318 -2.2588 0.3370
0.0702 -2.2614 0.3369
0.2717 -2.2474 0.3371
0.4716 -2.2168 0.3375
0.6687 -2.1698 0.3381
0.8616 -2.1066 0.3390
1.0492 -2.0274 0.3400
6.2079 -9.7521 1.7216
7.0860 -9.2026 1.7297
7.9203 -8.5791 1.7389
8.7047 -7.8845 1.7491
9.4332 -7.1220 1.7603
10.1000 -6.2953 1.7724
10.6991 -5.4088 1.7854
11.2251 -4.4673 1.7992
11.6723 -3.4762 1.8138
12.0357 -2.4415 1.8289
12.2982 -1.3686 1.8428
12.4622 -0.2683 1.8564
12.5288 0.8506 1.8702
12.4832 1.9773 1.8823
12.3126 3.0968 1.8908
12.0407 4.2012 1.8992
11.6683 5.2812 1.9074
11.1704 6.3119 1.9108
10.5788 7.2940 1.9137
9.9001 8.2201 1.9164
9.1395 9.0823 1.9189
8.2877 9.8549 1.9176
7.3710 10.5481 1.9164
6.3973 11.1573 1.9154
1.1145 2.4217 0.3970
4.3095 12.1059 1.9137
3.2116 12.4383 1.9131
2.0890 12.6725 1.9127
0.9503 12.8067 1.9125
-0.1957 12.8401 1.9124
-1.3403 12.7722 1.9126
-2.4745 12.6038 1.9129
-3.5896 12.3359 1.9133
-0.9720 2.4878 0.3978
-5.2774 10.6040 1.7640
-6.2053 10.0962 1.7649
-7.0538 9.4659 1.7581
-7.8075 8.7293 1.7441
-8.4884 7.9359 1.7306
-9.0961 7.0955 1.7181
-5.7454 3.7082 1.0184
-10.1051 5.3103 1.7001
-10.4984 4.3711 1.6936
-10.8127 3.4067 1.6883
-11.0157 2.4161 1.6795
-11.1278 1.4164 1.6706
-11.1565 0.4163 1.6626
-11.0954 -0.5776 1.6546
-10.9307 -1.5551 1.6443
-10.6875 -2.5095 1.6349
-10.3687 -3.4354 1.6267
-9.9644 -4.3219 1.6175
-9.4915 -5.1675 1.6095
-8.9545 -5.9679 1.6026
-7.0937 -5.7033 1.3555
-7.7039 -7.4178 1.5927
-6.9983 -8.0601 1.5897
-6.2345 -8.6286 1.5854
-5.4159 -9.1097 1.5783
-0.9857 -2.0558 0.3395
-0.7962 -2.1296 0.3386
-0.6018 -2.1874 0.3379
-0.4036 -2.2289 0.3373
-0.2030 -2.2539 0.3370
-0.0012 -2.2624 0.3369
0.2007 -2.2542 0.3370
0.4013 -2.2295 0.3374
0.5995 -2.1883 0.3379
0.7940 -2.1308 0.3386
0.9836 -2.0572 0.3396
5.8883 -9.9282 1.7191
6.7805 -9.4053 1.7267
7.6310 -8.8076 1.7355
8.4337 -8.1378 1.7454
9.1826 -7.3988 1.7562
9.8718 -6.5944 1.7680
10.4955 -5.7285 1.7807
11.0480 -4.8058 1.7943
11.5236 -3.8316 1.8086
11.9172 -2.8116 1.8235
12.2176 -1.7514 1.8381
12.4153 -0.6595 1.8516
12.5166 0.4538 1.8653
12.5186 1.5800 1.8791
12.3845 2.7026 1.8878
12.1483 3.8134 1.8962
11.8113 4.9031 1.9045
11.3576 5.9531 1.9097
10.7980 6.9531 1.9127
10.1495 7.8999 1.9154
9.4172 8.7855 1.9180
8.5965 9.5909 1.9181
7.7017 10.3126 1.9168
6.7473 10.9520 1.9157
5.7407 11.5044 1.9148
4.6898 11.9655 1.9140
3.6027 12.3320 1.9133
2.4878 12.6011 1.9129
1.3538 12.7708 1.9126
0.2094 12.8398 1.9124
-0.9367 12.8077 1.9125
-2.0755 12.6747 1.9127
-3.1984 12.4418 1.9132
-4.2967 12.1106 1.9137
-4.9395 10.7635 1.7637
-5.8826 10.2849 1.7645
-6.7665 9.7050 1.7619
-7.5501 8.9972 1.7492
-8.2561 8.2218 1.7352
-8.8899 7.3973 1.7223
-5.5692 3.8487 1.0082
-9.9476 5.6349 1.7026
-10.3684 4.7061 1.6957
-10.7107 3.7500 1.6900
-10.9561 2.7680 1.6829
-11.0978 1.7699 1.6736
-11.1558 0.7693 1.6653
-11.1311 -0.2278 1.6581
-10.9980 -1.2121 1.6478
-10.7822 -2.1753 1.6381
-10.4897 -3.1119 1.6295
-10.1155 -4.0133 1.6207
-9.6661 -4.8737 1.6122
-9.1513 -5.6906 1.6049
-7.6073 -5.7308 1.4184
-7.9409 -7.1773 1.5941
-7.2533 -7.8399 1.5906
-6.5147 -8.4421 1.5881
-5.7091 -8.9477 1.5807
-1.0512 -2.0260 0.3399
-0.8637 -2.1054 0.3389
-0.6709 -2.1688 0.3381
-0.4740 -2.2161 0.3375
-0.2741 -2.2470 0.3371
-0.0726 -2.2613 0.3369
0.1294 -2.2590 0.3370
0.3306 -2.2401 0.3372
0.5298 -2.2047 0.3377
0.7258 -2.1529 0.3384
0.9173 -2.0850 0.3392
5.5643 -10.0946 1.7166
6.4698 -9.5987 1.7239
7.3357 -9.0271 1.7323
8.1559 -8.3825 1.7418
8.9245 -7.6676 1.7523
9.6355 -6.8858 1.7637
10.2831 -6.0411 1.7761
10.8613 -5.1380 1.7894
11.3647 -4.1813 1.8034
11.7879 -3.1768 1.8182
12.1254 -2.1305 1.8334
12.3563 -1.0481 1.8468
12.4920 0.0586 1.8604
12.5294 1.1812 1.8742
12.4437 2.3069 1.8848
12.2433 3.4230 1.8933
11.9418 4.5212 1.9016
11.5333 5.5888 1.9087
11.0060 6.6055 1.9116
10.3884 7.5720 1.9145
9.6851 8.4801 1.9171
8.8969 9.3173 1.9186
8.0250 10.0668 1.9173
7.0908 10.7358 1.9161
6.1018 11.3195 1.9151
1.0516 2.4525 0.3974
3.9903 12.2135 1.9135
2.8843 12.5173 1.9130
1.7561 12.7223 1.9126
0.6143 12.8270 1.9125
-0.5322 12.8306 1.9125
-1.6746 12.7332 1.9126
-2.8041 12.5354 1.9130
-3.9121 12.2387 1.9135
-1.0360 2.4592 0.3974
-5.5543 10.4635 1.7642
-6.4688 9.9317 1.7652
-7.2839 9.2581 1.7544
-8.0148 8.5017 1.7401
-8.6744 7.6938 1.7268
-9.2603 6.8409 1.7146
-9.7805 5.9554 1.7054
-10.2286 5.0376 1.6980
-10.5988 4.0905 1.6919
-10.8859 3.1187 1.6864
-11.0573 2.1231 1.6768
-11.1448 1.1226 1.6682
-11.1492 0.1236 1.6605
-11.0554 -0.8666 1.6515
-10.8673 -1.8378 1.6414
-10.6016 -2.7844 1.6324
-10.2579 -3.6997 1.6240
-9.8325 -4.5745 1.6150
-9.3404 -5.4072 1.6073
-8.7853 -6.1937 1.6008
-6.9600 -5.9028 1.3591
-7.5020 -7.6123 1.5917
-6.7820 -8.2375 1.5891
-5.9980 -8.7770 1.5832
-1.1159 -1.9942 0.3403
-0.9306 -2.0791 0.3392
-0.7396 -2.1483 0.3384
-0.5439 -2.2013 0.3377
-0.3450 -2.2380 0.3372
-0.1439 -2.2581 0.3370
0.0581 -2.2617 0.3369
0.2597 -2.2487 0.3371
0.4598 -2.2191 0.3375
0.6570 -2.1731 0.3381
0.8502 -2.1108 0.3389
1.0382 -2.0326 0.3399
6.1541 -9.7826 1.7212
7.0347 -9.2375 1.7292
7.8718 -8.6184 1.7383
8.6593 -7.9279 1.7484
9.3913 -7.1694 1.7596
10.0619 -6.3464 1.7717
10.6653 -5.4634 1.7846
11.1958 -4.5250 1.7984
11.6479 -3.5367 1.8129
12.0164 -2.5044 1.8280
12.2854 -1.4336 1.8420
12.4551 -0.3346 1.8556
12.5276 0.7834 1.8693
12.4902 1.9102 1.8817
12.3257 3.0302 1.8903
12.0598 4.1359 1.8987
11.6934 5.2175 1.9069
11.2029 6.2516 1.9106
10.6166 7.2368 1.9135
9.9430 8.1665 1.9162
9.1871 9.0327 1.9187
8.3405 9.8109 1.9177
7.4275 10.5090 1.9165
6.4569 11.1233 1.9154
5.4365 11.6493 1.9145
4.3741 12.0830 1.9138
3.2780 12.4211 1.9132
2.1566 12.6612 1.9128
1.0186 12.8015 1.9125
-0.1272 12.8409 1.9124
-1.2720 12.7791 1.9126
-2.4072 12.6166 1.9128
-3.5237 12.3547 1.9133
-0.9589 2.4935 0.3979
-5.2206 10.6317 1.7639
-6.1511 10.1288 1.7648
-7.0057 9.5069 1.7587
-7.7646 8.7751 1.7450
-8.4497 7.9847 1.7313
-9.0619 7.1469 1.7188
-5.6837 3.7115 1.0109
-10.0792 5.3655 1.7005
-10.4771 4.4280 1.6939
-10.7961 3.4650 1.6886
-11.0063 2.4757 1.6801
-11.1234 1.4763 1.6711
-11.1571 0.4760 1.6631
-11.1027 -0.5186 1.6553
-10.9427 -1.4973 1.6448
-10.7042 -2.4532 1.6355
-10.3898 -3.3809 1.6272
-9.9906 -4.2701 1.6181
-9.5216 -5.1181 1.6099
-8.9883 -5.9214 1.6030
-7.1618 -5.6954 1.3627
-7.7444 -7.3777 1.5929
-7.0419 -8.0234 1.5898
-6.2822 -8.5976 1.5858
-5.4658 -9.0829 1.5787
-0.9968 -2.0509 0.3396
-0.8077 -2.1257 0.3386
-0.6135 -2.1844 0.3379
-0.4156 -2.2269 0.3374
-0.2151 -2.2529 0.3370
-0.0133 -2.2623 0.3369
0.1886 -2.2552 0.3370
0.3894 -2.2314 0.3373
0.5877 -2.1912 0.3379
0.7825 -2.1346 0.3386
0.9725 -2.0620 0.3395
5.8338 -9.9570 1.7186
6.7283 -9.4387 1.7262
7.5814 -8.8454 1.7350
8.3871 -8.1798 1.7447
9.1395 -7.4448 1.7555
9.8324 -6.6443 1.7673
10.4602 -5.7819 1.7799
11.0171 -4.8625 1.7934
11.4975 -3.8912 1.8077
11.8961 -2.8737 1.8226
12.2028 -1.8158 1.8373
12.4061 -0.7255 1.8508
12.5133 0.3868 1.8644
12.5213 1.5125 1.8783
12.3954 2.6357 1.8873
12.1653 3.7475 1.8957
11.8342 4.8387 1.9041
11.3882 5.8919 1.9095
10.8339 6.8947 1.9125
10.1906 7.8449 1.9153
9.4632 8.7344 1.9179
8.6479 9.5452 1.9182
7.7569 10.2717 1.9169
6.8059 10.9162 1.9158
5.8022 11.4739 1.9148
4.7537 11.9406 1.9140
3.6685 12.3128 1.9134
2.5551 12.5878 1.9129
1.4220 12.7634 1.9126
0.2779 12.8386 1.9124
-0.8683 12.8125 1.9125
-2.0078 12.6855 1.9127
-3.1319 12.4585 1.9131
-4.2319 12.1331 1.9137
-4.8818 10.7894 1.7637
-5.8274 10.3159 1.7645
-6.7171 9.7447 1.7626
-7.5056 9.0418 1.7501
-8.2159 8.2696 1.7360
-8.8541 7.4479 1.7231
-5.5638 3.8890 1.0109
-9.9200 5.6895 1.7031
-10.3454 4.7624 1.6961
-10.6925 3.8078 1.6904
-10.9449 2.8274 1.6835
-11.0917 1.8297 1.6742
-11.1547 0.8290 1.6658
-11.1349 -0.1685 1.6585
-11.0084 -1.1538 1.6484
-10.7973 -2.1185 1.6387
-10.5093 -3.0568 1.6300
-10.1402 -3.9606 1.6212
-9.6948 -4.8235 1.6126
-9.1838 -5.6431 1.6053
-8.6110 -6.4151 1.5992
-7.9803 -7.1359 1.5943
-7.2958 -7.8019 1.5908
-6.5616 -8.4096 1.5885
-5.7583 -8.9194 1.5811
-1.0622 -2.0207 0.3400
-0.8751 -2.1011 0.3390
-0.6826 -2.1655 0.3381
-0.4858 -2.2137 0.3375
-0.2861 -2.2456 0.3371
-0.0846 -2.2609 0.3369
0.1174 -2.2596 0.3370
0.3187 -2.2417 0.3372
0.5180 -2.2073 0.3376
0.7142 -2.1565 0.3383
0.9060 -2.0895 0.3392
5.5090 -10.1218 1.7162
6.4167 -9.6305 1.7234
7.2852 -9.0634 1.7318
8.1083 -8.4230 1.7412
8.8802 -7.7122 1.7516
9.5948 -6.9343 1.7630
10.2462 -6.0933 1.7754
10.8288 -5.1935 1.7886
11.3368 -4.2399 1.8026
11.7649 -3.2380 1.8173
12.1080 -2.1941 1.8326
12.3451 -1.1136 1.8460
12.4866 -0.0081 1.8596
12.5300 1.1138 1.8734
12.4524 2.2398 1.8843
12.2581 3.3567 1.8928
11.9626 4.4562 1.9011
11.5619 5.5266 1.9085
11.0401 6.5461 1.9115
10.4278 7.5158 1.9143
9.7295 8.4276 1.9170
8.9469 9.2700 1.9187
8.0789 10.0242 1.9174
7.1483 10.6982 1.9162
6.1623 11.2871 1.9151
1.0645 2.4464 0.3973
4.0555 12.1923 1.9136
2.9511 12.5019 1.9130
1.8240 12.7128 1.9127
0.6827 12.8236 1.9125
-0.4637 12.8333 1.9125
-1.6066 12.7418 1.9126
-2.7371 12.5500 1.9130
-3.8466 12.2592 1.9135
-1.0230 2.4652 0.3975
-5.4982 10.4927 1.7642
-6.4155 9.9658 1.7651
-7.2381 9.3015 1.7552
-7.9731 8.5484 1.7409
-8.6371 7.7434 1.7275
-9.2274 6.8930 1.7153
-9.7513 6.0092 1.7058
-10.2040 5.0934 1.6984
-10.5789 4.1478 1.6923
-10.8730 3.1779 1.6870
-11.0494 2.1829 1.6773
-11.1419 1.1825 1.6686
-11.1513 0.1832 1.6609
-11.0641 -0.8078 1.6521
-10.8808 -1.7804 1.6420
-10.6196 -2.7287 1.6329
-10.2811 -3.6462 1.6246
-9.8599 -4.5234 1.6155
-9.3716 -5.3588 1.6077
-8.8202 -6.1481 1.6012
-6.9686 -5.8463 1.3547
-7.5435 -7.5731 1.5919
-6.8264 -8.2018 1.5892
-6.0464 -8.7472 1.5836
-5.2197 -9.2120 1.5768
-0.9419 -2.0745 0.3393
-0.7511 -2.1446 0.3384
-0.5557 -2.1986 0.3377
-0.3569 -2.2362 0.3372
-0.1559 -2.2574 0.3370
0.0460 -2.2619 0.3369
0.2477 -2.2499 0.3371
0.4479 -2.2213 0.3375
0.6453 -2.1763 0.3381
0.8388 -2.1150 0.3388
1.0271 -2.0377 0.3398
6.1003 -9.8128 1.7207
6.9833 -9.2722 1.7287
7.8231 -8.6574 1.7377
8.6137 -7.9711 1.7478
9.3493 -7.2166 1.7589
10.0237 -6.3974 1.7709
10.6313 -5.5178 1.7838
11.1662 -4.5826 1.7975
11.6232 -3.5971 1.8120
11.9968 -2.5673 1.8271
12.2722 -1.4986 1.8412
12.4477 -0.4010 1.8547
12.5260 0.7162 1.8685
12.4968 1.8429 1.8812
12.3384 2.9636 1.8898
12.0785 4.0703 1.8982
11.7181 5.1537 1.9065
11.2350 6.1912 1.9104
10.6542 7.1794 1.9133
9.9857 8.1126 1.9160
9.2345 8.9829 1.9186
8.3931 9.7666 1.9178
7.4837 10.4696 1.9166
6.5164 11.0891 1.9155
5.4988 11.6205 1.9146
4.4386 12.0597 1.9138
3.3443 12.4037 1.9132
2.2242 12.6497 1.9128
1.0869 12.7960 1.9125
-0.0587 12.8414 1.9124
-1.2039 12.7857 1.9125
-2.3397 12.6292 1.9128
-3.4576 12.3731 1.9133
-0.9458 2.4990 0.3979
-5.1636 10.6592 1.7639
-6.0967 10.1612 1.7648
-6.9574 9.5477 1.7594
-7.7214 8.8207 1.7458
-8.4108 8.0333 1.7321
-9.0274 7.1982 1.7195
-5.6306 3.7199 1.0050
-10.0529 5.4206 1.7009
-10.4555 4.4849 1.6943
-10.7793 3.5232 1.6889
-10.9967 2.5353 1.6807
-11.1188 1.5361 1.6716
-11.1574 0.5357 1.6635
-11.1097 -0.4595 1.6560
-10.9546 -1.4393 1.6454
-10.7206 -2.3968 1.6360
-10.4106 -3.3264 1.6276
-10.0165 -4.2180 1.6186
-9.5515 -5.0687 1.6104
-9.0220 -5.8747 1.6034
-7.2314 -5.6880 1.3702
-7.7848 -7.3372 1.5932
-7.0853 -7.9864 1.5900
-6.3299 -8.5664 1.5863
-5.5156 -9.0558 1.5791
-1.0079 -2.0459 0.3397
-0.8191 -2.1216 0.3387
-0.6252 -2.1814 0.3379
-0.4275 -2.2248 0.3374
-0.2271 -2.2518 0.3370
-0.0254 -2.2622 0.3369
0.1766 -2.2561 0.3370
0.3774 -2.2333 0.3373
0.5760 -2.1941 0.3378
0.7710 -2.1385 0.3385
0.9613 -2.0668 0.3395
5.7791 -9.9857 1.7182
6.6760 -9.4718 1.7258
7.5317 -8.8829 1.7344
8.3404 -8.2216 1.7441
9.0961 -7.4905 1.7549
9.7928 -6.6939 1.7666
10.4246 -5.8351 1.7792
10.9859 -4.9190 1.7926
11.4710 -3.9506 1.8068
11.8747 -2.9357 1.8217
12.1877 -1.8801 1.8365
12.3966 -0.7914 1.8499
12.5096 0.3198 1.8636
12.5237 1.4450 1.8775
12.4059 2.5689 1.8868
12.1819 3.6816 1.8952
11.8568 4.7742 1.9036
11.4184 5.8305 1.9094
10.8696 6.8362 1.9123
10.2315 7.7897 1.9151
9.5089 8.6831 1.9177
8.6991 9.4993 1.9183
7.8119 10.2305 1.9170
6.8643 10.8801 1.9159
5.8635 11.4430 1.9149
1.0010 2.4758 0.3977
3.7343 12.2932 1.9134
2.6223 12.5741 1.9129
1.4901 12.7558 1.9126
0.3464 12.8369 1.9124
-0.7999 12.8169 1.9125
-1.9401 12.6959 1.9127
-3.0653 12.4748 1.9131
-4.1670 12.1553 1.9137
-4.8241 10.8150 1.7636
-2.4397 12.0849 1.9138
-0.7283 2.4540 0.3974
-0.9418 2.3730 0.3963
-5.1197 10.1509 1.7648
-6.0076 9.6585 1.7656
-6.8284 9.0620 1.7613
-7.5489 8.3500 1.7473
-8.2019 7.5864 1.7343
-8.7846 6.7774 1.7223
-5.8029 3.7016 1.0684
-9.7526 5.0588 1.7054
-10.1281 4.1537 1.6993
-10.4183 3.2215 1.6928
-10.6044 2.2667 1.6833
-10.7096 1.3051 1.6747
-10.7343 0.3432 1.6671
-10.6664 -0.6124 1.6585
-10.5058 -1.5519 1.6485
-10.2696 -2.4693 1.6396
-9.9602 -3.3591 1.6317
-9.5683 -4.2110 1.6228
-9.1109 -5.0235 1.6150
-8.5915 -5.7925 1.6085
-8.0140 -6.5140 1.6031
-7.3822 -7.1844 1.5990
-6.7001 -7.8004 1.5962
-5.9533 -8.3328 1.5897
-1.1144 -1.8973 0.3416
-0.9377 -1.9828 0.3405
-0.7551 -2.0531 0.3396
-0.5678 -2.1080 0.3389
-0.3770 -2.1471 0.3384
-0.1838 -2.1703 0.3381
0.0105 -2.1775 0.3380
0.2047 -2.1687 0.3381
0.3977 -2.1438 0.3385
0.5882 -2.1031 0.3390
0.7751 -2.0466 0.3397
0.9572 -1.9747 0.3406
5.7195 -9.5271 1.7249
6.5748 -9.0181 1.7324
7.3892 -8.4371 1.7409
8.1567 -7.7869 1.7505
8.8717 -7.0706 1.7610
9.5284 -6.2917 1.7724
10.1213 -5.4544 1.7847
10.6449 -4.5631 1.7978
11.0939 -3.6230 1.8116
11.4633 -2.6400 1.8260
11.7406 -1.6191 1.8397
11.9214 -0.5695 1.8527
12.0094 0.4996 1.8658
12.0019 1.5799 1.8791
11.8653 2.6557 1.8874
11.6309 3.7193 1.8955
11.3000 4.7617 1.9035
10.8628 5.7679 1.9092
10.3202 6.7236 1.9120
9.6928 7.6278 1.9146
8.9854 8.4728 1.9171
8.2008 9.2483 1.9187
7.3386 9.9366 1.9175
6.4196 10.5457 1.9164
5.4508 11.0709 1.9155
0.9194 2.3832 0.3965
0.7050 2.4619 0.3975
2.3233 12.1075 1.9137
1.2340 12.2647 1.9134
0.1352 12.3252 1.9133
-0.9647 12.2886 1.9134
-2.0571 12.1551 1.9137
-0.6511 2.4777 0.3977
-0.8674 2.4040 0.3967
-4.7962 10.3057 1.7645
-5.6989 9.8414 1.7653
-6.5558 9.2966 1.7658
-7.3019 8.6077 1.7522
-7.9791 7.8616 1.7388
-8.5870 7.0680 1.7264
-5.5542 3.7947 1.0442
-9.6021 5.3717 1.7079
-10.0041 4.4765 1.7013
-10.3304 3.5550 1.6959
-10.5480 2.6050 1.6865
-10.6816 1.6452 1.6776
-10.7347 0.6827 1.6697
-10.7046 -0.2762 1.6622
-10.5713 -1.2223 1.6519
-10.3615 -2.1481 1.6426
-10.0778 -3.0483 1.6344
-9.7144 -3.9143 1.6258
-9.2798 -4.7412 1.6176
-8.7819 -5.5260 1.6106
-7.4856 -5.7020 1.4607
-7.6114 -6.9537 1.6003
-6.9466 -7.5892 1.5971
-6.2234 -8.1542 1.5923
-5.4470 -8.6383 1.5852
-1.0008 -1.9543 0.3408
-0.8202 -2.0301 0.3399
-0.6344 -2.0904 0.3391
-0.4447 -2.1351 0.3385
-0.2523 -2.1639 0.3382
-0.0582 -2.1768 0.3380
0.1362 -2.1736 0.3381
0.3297 -2.1544 0.3383
0.5213 -2.1193 0.3388
0.7096 -2.0684 0.3394
0.8935 -2.0019 0.3403
5.4086 -9.6894 1.7225
6.2770 -9.2063 1.7296
7.1065 -8.6504 1.7378
7.8913 -8.0243 1.7470
8.6255 -7.3310 1.7572
9.3035 -6.5738 1.7683
9.9195 -5.7566 1.7803
10.4682 -4.8838 1.7931
10.9441 -3.9603 1.8066
11.3422 -2.9918 1.8209
11.6552 -1.9838 1.8352
11.8680 -0.9429 1.8481
11.9892 0.1202 1.8612
12.0157 1.1975 1.8744
11.9249 2.2766 1.8845
11.7248 3.3456 1.8927
11.4278 4.3965 1.9007
11.0334 5.4194 1.9082
10.5217 6.3915 1.9110
9.9238 7.3148 1.9137
9.2441 8.1816 1.9162
8.4879 8.9844 1.9186
7.6501 9.7022 1.9179
6.7503 10.3399 1.9168
5.7982 10.8952 1.9158
0.9931 2.3505 0.3961
0.7816 2.4364 0.3972
2.7043 12.0290 1.9139
1.6203 12.2202 1.9135
0.5239 12.3150 1.9134
-0.5766 12.3127 1.9134
-1.6726 12.2133 1.9135
-2.7557 12.0176 1.9139
-0.7918 2.4324 0.3971
-1.0028 2.3454 0.3960
-5.3847 10.0146 1.7650
-6.2596 9.4993 1.7659
-7.0466 8.8588 1.7571
-7.7477 8.1310 1.7434
-8.3803 7.3534 1.7307
-5.5514 4.0554 1.0672
-9.4422 5.6805 1.7105
-9.8707 4.7960 1.7035
-10.2239 3.8832 1.6977
-10.4813 2.9423 1.6899
-10.6436 1.9849 1.6807
-10.7252 1.0226 1.6724
-10.7264 0.0617 1.6651
-10.6273 -0.8901 1.6554
-10.4442 -1.8237 1.6458
-10.1863 -2.7335 1.6371
-9.8522 -3.6130 1.6289
-9.4407 -4.4537 1.6204
-8.9647 -5.2539 1.6130
-8.4279 -6.0093 1.6068
-7.2160 -6.1864 1.4754
-7.1871 -7.3710 1.5981
-6.4887 -7.9675 1.5950
-5.7254 -8.4749 1.5876
-1.0632 -1.9240 0.3412
-0.8847 -2.0051 0.3402
-0.7006 -2.0709 0.3394
-0.5121 -2.1211 0.3387
-0.3205 -2.1556 0.3383
-0.1269 -2.1741 0.3380
0.0675 -2.1766 0.3380
0.2615 -2.1630 0.3382
0.4539 -2.1335 0.3386
0.6435 -2.0881 0.3392
0.8291 -2.0271 0.3400
1.0095 -1.9507 0.3410
5.9744 -9.3854 1.7270
6.8183 -8.8549 1.7348
7.6196 -8.2533 1.7436
8.3723 -7.5834 1.7535
9.0707 -6.8483 1.7643
9.7093 -6.0518 1.7760
10.2824 -5.1981 1.7885
10.7846 -4.2920 1.8018
11.2108 -3.3387 1.8158
11.5559 -2.3442 1.8303
11.8031 -1.3136 1.8435
11.9570 -0.2574 1.8565
12.0172 0.8158 1.8697
11.9724 1.8964 1.8816
11.8066 2.9696 1.8898
11.5438 4.0278 1.8979
11.1847 5.0623 1.9057
10.7126 6.0532 1.9100
10.1446 6.9947 1.9128
9.4932 7.8823 1.9154
8.7634 8.7086 1.9178
7.9541 9.4582 1.9183
7.0745 10.1238 1.9172
6.1401 10.7087 1.9162
1.0655 2.3154 0.3956
0.8573 2.4084 0.3968
0.6406 2.4810 0.3978
2.0051 12.1636 1.9136
0.9121 12.2925 1.9134
-0.1879 12.3246 1.9133
-1.2865 12.2594 1.9135
-2.3751 12.0977 1.9138
-0.7153 2.4582 0.3974
-0.9293 2.3784 0.3964
-5.0653 10.1778 1.7647
-5.9558 9.6902 1.7656
-6.7832 9.1028 1.7622
-7.5077 8.3941 1.7481
-8.1648 7.6334 1.7350
-8.7518 6.8269 1.7230
-5.7369 3.7028 1.0599
-9.7278 5.1120 1.7058
-10.1078 4.2085 1.6996
-10.4047 3.2782 1.6934
-10.5955 2.3240 1.6838
-10.7055 1.3627 1.6752
-10.7351 0.4006 1.6676
-10.6736 -0.5556 1.6591
-10.5176 -1.4963 1.6491
-10.2858 -2.4152 1.6401
-9.9808 -3.3069 1.6321
-9.5936 -4.1611 1.6233
-9.1400 -4.9761 1.6154
-8.6243 -5.7478 1.6088
-8.0501 -6.4723 1.6034
-7.4215 -7.1459 1.5992
-6.7422 -7.7652 1.5963
-5.9994 -8.3032 1.5901
-5.2126 -8.7676 1.5833
-0.9484 -1.9781 0.3405
-0.7662 -2.0494 0.3396
-0.5791 -2.1051 0.3389
-0.3885 -2.1452 0.3384
-0.1954 -2.1694 0.3381
-0.0012 -2.1775 0.3380
0.1931 -2.1696 0.3381
0.3862 -2.1457 0.3384
0.5769 -2.1060 0.3389
0.7641 -2.0505 0.3397
0.9465 -1.9795 0.3406
5.6672 -9.5553 1.7245
6.5248 -9.0505 1.7319
7.3418 -8.4738 1.7404
8.1123 -7.8276 1.7499
8.8306 -7.1152 1.7604
9.4909 -6.3400 1.7717
10.0878 -5.5060 1.7840
10.6156 -4.6178 1.7970
11.0692 -3.6805 1.8108
11.4435 -2.6998 1.8251
11.7270 -1.6811 1.8390
11.9132 -0.6329 1.8519
12.0068 0.4353 1.8650
12.0051 1.5152 1.8783
11.8763 2.5917 1.8869
11.6476 3.6563 1.8950
11.3225 4.7002 1.9030
10.8924 5.7093 1.9090
10.3550 6.6678 1.9118
9.7325 7.5754 1.9145
9.0298 8.4241 1.9170
8.2504 9.2047 1.9188
7.3918 9.8976 1.9176
6.4760 10.5116 1.9165
5.5100 11.0419 1.9156
0.9320 2.3778 0.3964
0.7180 2.4577 0.3975
2.3879 12.0951 1.9137
1.2995 12.2580 1.9135
0.2010 12.3244 1.9133
-0.8991 12.2935 1.9134
-1.9922 12.1658 1.9136
-0.6379 2.4814 0.3977
-0.8547 2.4090 0.3968
-1.0629 2.3161 0.3956
-5.6461 9.8714 1.7653
-6.5075 9.3335 1.7662
-7.2593 8.6507 1.7530
-7.9406 7.9076 1.7396
-8.5526 7.1167 1.7271
-5.5538 3.8380 1.0479
-9.5757 5.4242 1.7083
-9.9822 4.5308 1.7017
-10.3131 3.6107 1.6962
-10.5374 2.6622 1.6871
-10.6759 1.7027 1.6782
-10.7338 0.7401 1.6701
-10.7101 -0.2192 1.6629
-10.5815 -1.1662 1.6525
-10.3762 -2.0934 1.6431
-10.0967 -2.9953 1.6348
-9.7383 -3.8636 1.6263
-9.3075 -4.6929 1.6181
-8.8133 -5.4804 1.6110
-7.5395 -5.6797 1.4653
-7.6495 -6.9140 1.6006
-6.9877 -7.5528 1.5972
-6.2686 -8.1232 1.5928
-5.4944 -8.6112 1.5856
-1.0114 -1.9493 0.3409
-0.8312 -2.0260 0.3399
-0.6457 -2.0872 0.3391
-0.4562 -2.1329 0.3386
-0.2638 -2.1627 0.3382
-0.0698 -2.1765 0.3380
0.1246 -2.1743 0.3381
0.3182 -2.1560 0.3383
0.5099 -2.1218 0.3387
0.6985 -2.0718 0.3394
0.8827 -2.0063 0.3402
1.0613 -1.9254 0.3413
6.2262 -9.2372 1.7292
7.0582 -8.6856 1.7373
7.8457 -8.0637 1.7464
8.5831 -7.3743 1.7566
9.2646 -6.6206 1.7676
9.8845 -5.8070 1.7796
10.4374 -4.9374 1.7923
10.9178 -4.0169 1.8058
11.3207 -3.0508 1.8200
11.6397 -2.0452 1.8345
11.8578 -1.0058 1.8473
11.9845 0.0562 1.8604
12.0168 1.1329 1.8736
11.9338 2.2124 1.8840
11.7395 3.2821 1.8922
11.4483 4.3343 1.9002
11.0611 5.3600 1.9080
10.5548 6.3347 1.9108
9.9619 7.2611 1.9136
9.2869 8.1315 1.9161
8.5352 8.9384 1.9185
7.7020 9.6616 1.9180
6.8056 10.3040 1.9169
5.8565 10.8644 1.9159
1.0054 2.3447 0.3960
0.7945 2.4319 0.3971
2.7685 12.0146 1.9139
1.6856 12.2115 1.9135
0.5896 12.3120 1.9134
-0.5108 12.3155 1.9134
-1.6074 12.2219 1.9135
-2.6915 12.0320 1.9139
-0.7790 2.4369 0.3971
-0.9904 2.3512 0.3960
-5.3310 10.0429 1.7650
-6.2086 9.5322 1.7659
-7.0026 8.9006 1.7580
-7.7077 8.1759 1.7442
-8.3445 7.4012 1.7314
-5.5592 4.1067 1.0729
-9.4142 5.7324 1.7110
-9.8472 4.8497 1.7039
-10.2049 3.9385 1.6980
-10.4691 2.9993 1.6905
-10.6363 2.0423 1.6812
-10.7226 1.0801 1.6729
-10.7286 0.1189 1.6655
-10.6358 -0.8337 1.6560
-10.4573 -1.7685 1.6463
-10.2037 -2.6799 1.6376
-9.8747 -3.5615 1.6295
-9.4672 -4.4045 1.6208
-8.9949 -5.2072 1.6134
-8.4616 -5.9655 1.6071
-6.8767 -5.8321 1.3997
-7.2272 -7.3334 1.5983
-6.5330 -7.9351 1.5955
-5.7721 -8.4464 1.5880
-1.0737 -1.9187 0.3413
-0.8955 -2.0006 0.3402
-0.7117 -2.0674 0.3394
-0.5235 -2.1185 0.3387
-0.3320 -2.1539 0.3383
-0.1385 -2.1734 0.3381
0.0559 -2.1769 0.3380
0.2500 -2.1643 0.3382
0.4425 -2.1357 0.3386
0.6323 -2.0913 0.3391
0.8182 -2.0312 0.3399
0.9989 -1.9557 0.3409
5.9227 -9.4148 1.7266
6.7690 -8.8886 1.7343
7.5730 -8.2912 1.7431
8.3287 -7.6253 1.7529
9.0306 -6.8941 1.7636
9.6729 -6.1011 1.7752
10.2501 -5.2507 1.7877
10.7567 -4.3476 1.8010
11.1875 -3.3969 1.8149
11.5377 -2.4047 1.8295
11.7911 -1.3760 1.8427
11.9504 -0.3211 1.8557
12.0163 0.7514 1.8689
11.9792 1.8320 1.8811
11.8192 2.9057 1.8893
11.5622 3.9652 1.8974
11.2089 5.0013 1.9053
10.7438 5.9954 1.9098
10.1809 6.9398 1.9126
9.5344 7.8309 1.9152
8.8091 8.6611 1.9177
8.0047 9.4160 1.9184
7.1287 10.0862 1.9172
6.1973 10.6761 1.9162
1.0777 2.3092 0.3956
0.8700 2.4034 0.3968
0.6538 2.4773 0.3977
2.0700 12.1528 1.9136
0.9777 12.2876 1.9134
-0.1221 12.3254 1.9133
-1.2210 12.2661 1.9135
-2.3105 12.1100 1.9137
-0.7023 2.4623 0.3975
-0.9167 2.3838 0.3965
-5.0107 10.2044 1.7647
-5.9037 9.7215 1.7655
-6.7378 9.1434 1.7631
-7.4663 8.4379 1.7490
-8.1275 7.6802 1.7358
-8.7188 6.8763 1.7237
-5.6720 3.7039 1.0516
-9.7027 5.1651 1.7063
-10.0872 4.2633 1.6999
-10.3906 3.3349 1.6940
-10.5864 2.3813 1.6844
-10.7012 1.4202 1.6757
-10.7356 0.4580 1.6680
-10.6804 -0.4989 1.6597
-10.5291 -1.4407 1.6496
-10.3017 -2.3610 1.6406
-10.0011 -3.2544 1.6326
-9.6187 -4.1111 1.6238
-9.1689 -4.9286 1.6159
-8.6568 -5.7030 1.6092
-8.0860 -6.4304 1.6037
-7.4605 -7.1071 1.5995
-6.7842 -7.7297 1.5965
-6.0453 -8.2733 1.5906
-5.2605 -8.7417 1.5837
-0.9591 -1.9734 0.3406
-0.7772 -2.0456 0.3397
-0.5904 -2.1023 0.3390
-0.3999 -2.1433 0.3384
-0.2070 -2.1684 0.3381
-0.0128 -2.1775 0.3380
0.1815 -2.1706 0.3381
0.3747 -2.1476 0.3384
0.5656 -2.1088 0.3389
0.7530 -2.0542 0.3396
0.9357 -1.9841 0.3405
5.6148 -9.5830 1.7241
6.4746 -9.0828 1.7315
7.2942 -8.5102 1.7399
8.0676 -7.8682 1.7493
8.7892 -7.1596 1.7597
9.4532 -6.3880 1.7710
10.0540 -5.5574 1.7832
10.5861 -4.6723 1.7962
11.0443 -3.7378 1.8099
11.4235 -2.7596 1.8243
11.7130 -1.7429 1.8382
11.9046 -0.6962 1.8511
12.0039 0.3711 1.8642
12.0079 1.4505 1.8775
11.8869 2.5276 1.8864
11.6640 3.5931 1.8946
11.3446 4.6385 1.9025
10.9218 5.6505 1.9088
10.3895 6.6119 1.9116
9.7721 7.5227 1.9143
9.0740 8.3752 1.9168
8.2997 9.1609 1.9189
7.4448 9.8584 1.9176
6.5322 10.4772 1.9166
5.5690 11.0127 1.9156
0.9445 2.3724 0.3964
0.7310 2.4535 0.3974
2.4525 12.0823 1.9138
1.3649 12.2510 1.9135
0.2667 12.3231 1.9133
-0.8334 12.2981 1.9134
-1.9272 12.1761 1.9136
-0.6247 2.4851 0.3978
-0.8419 2.4139 0.3968
-1.0507 2.3222 0.3957
-5.5932 9.9011 1.7652
-6.4574 9.3678 1.7662
-7.2165 8.6934 1.7538
-7.9018 7.9535 1.7403
-8.5181 7.1652 1.7278
-5.5533 3.8816 1.0517
-9.5490 5.4767 1.7088
-9.9600 4.5850 1.7020
-10.2954 3.6664 1.6965
-10.5265 2.7193 1.6877
-10.6699 1.7602 1.6787
-10.7326 0.7977 1.6706
-10.7153 -0.1621 1.6635
-10.5913 -1.1101 1.6531
-10.3905 -2.0387 1.6437
-10.1155 -2.9422 1.6353
-9.7620 -3.8128 1.6268
-9.3351 -4.6445 1.6185
-8.8446 -5.4346 1.6114
-8.2941 -6.1790 1.6055
-7.1559 -6.3987 1.4901
-7.0286 -7.5162 1.5974
-6.3137 -8.0919 1.5932
-5.5417 -8.5839 1.5860
-1.0220 -1.9443 0.3410
-0.8421 -2.0218 0.3400
-0.6569 -2.0840 0.3392
-0.4676 -2.1306 0.3386
-0.2754 -2.1613 0.3382
-0.0815 -2.1761 0.3380
0.1130 -2.1748 0.3380
0.3067 -2.1576 0.3383
0.4985 -2.1243 0.3387
0.6873 -2.0753 0.3393
0.8718 -2.0106 0.3402
1.0508 -1.9307 0.3412
6.1751 -9.2679 1.7287
7.0096 -8.7206 1.7368
7.8000 -8.1027 1.7459
8.5406 -7.4173 1.7559
9.2256 -6.6675 1.7669
9.8493 -5.8573 1.7788
10.4063 -4.9909 1.7915
10.8912 -4.0732 1.8050
11.2989 -3.1098 1.8191
11.6238 -2.1064 1.8337
11.8473 -1.0687 1.8465
11.9796 -0.0078 1.8596
12.0175 1.0683 1.8728
11.9423 2.1481 1.8835
11.7539 3.2186 1.8917
11.4684 4.2721 1.8997
11.0872 5.2997 1.9076
10.5875 6.2777 1.9107
9.9997 7.2072 1.9134
9.3295 8.0812 1.9160
8.5822 8.8921 1.9183
7.7538 9.6207 1.9181
6.8607 10.2679 1.9169
5.9146 10.8333 1.9159
1.0177 2.3389 0.3959
0.8074 2.4272 0.3971
2.8326 11.9998 1.9139
1.7507 12.2024 1.9136
0.6553 12.3087 1.9134
-0.4451 12.3180 1.9134
-1.5421 12.2302 1.9135
-2.6272 12.0460 1.9138
-0.7660 2.4414 0.3972
-0.9781 2.3569 0.3961
-5.2772 10.0709 1.7649
-6.1575 9.5649 1.7658
-6.9584 8.9421 1.7588
-7.6674 8.2207 1.7450
-8.3084 7.4488 1.7321
-8.8787 6.6325 1.7203
-9.3860 5.7841 1.7114
-9.8234 4.9034 1.7043
-10.1857 3.9936 1.6983
-10.4565 3.0562 1.6911
-10.6285 2.0997 1.6817
-10.7196 1.1377 1.6733
-10.7305 0.1763 1.6659
-10.6440 -0.7772 1.6567
-10.4701 -1.7132 1.6469
-10.2209 -2.6262 1.6381
-9.8969 -3.5099 1.6300
-9.4934 -4.3552 1.6213
-9.0249 -5.1605 1.6138
-8.4952 -5.9215 1.6074
-6.8878 -5.7786 1.3956
-7.2671 -7.2956 1.5984
-6.5766 -7.9017 1.5958
-5.8186 -8.4177 1.5885
-1.0841 -1.9133 0.3414
-0.9063 -1.9962 0.3403
-0.7228 -2.0638 0.3394
-0.5348 -2.1159 0.3388
-0.3435 -2.1523 0.3383
-0.1501 -2.1727 0.3381
0.0443 -2.1771 0.3380
0.2384 -2.1655 0.3382
0.4311 -2.1379 0.3385
0.6210 -2.0944 0.3391
0.8072 -2.0352 0.3399
0.9883 -1.9607 0.3408
5.8709 -9.4439 1.7261
6.7196 -8.9221 1.7338
7.5262 -8.3289 1.7425
8.2851 -7.6669 1.7523
8.9903 -6.9395 1.7629
9.6363 -6.1502 1.7745
10.2175 -5.3030 1.7870
10.7285 -4.4029 1.8002
11.1640 -3.4550 1.8141
11.5191 -2.4650 1.8286
11.7786 -1.4383 1.8420
11.9435 -0.3847 1.8549
12.0151 0.6869 1.8681
11.9857 1.7676 1.8806
11.8316 2.8419 1.8888
11.5802 3.9024 1.8969
11.2327 4.9402 1.9048
10.7746 5.9375 1.9097
10.2170 6.8848 1.9124
9.5753 7.7793 1.9151
8.8546 8.6133 1.9175
8.0552 9.3735 1.9185
7.1826 10.0484 1.9173
6.2544 10.6432 1.9163
1.0898 2.3030 0.3955
0.8827 2.3983 0.3967
0.6669 2.4734 0.3977
2.1349 12.1418 1.9137
1.0433 12.2822 1.9134
-0.0563 12.3259 1.9133
-1.1555 12.2723 1.9134
-2.2458 12.1221 1.9137
-0.6892 2.4664 0.3975
-0.9042 2.3890 0.3965
-4.9561 10.2307 1.7646
-5.8516 9.7526 1.7655
-6.6923 9.1838 1.7639
-7.4246 8.4816 1.7498
-8.0899 7.7268 1.7366
-8.6854 6.9255 1.7244
-5.6112 3.7071 1.0439
-9.6774 5.2181 1.7067
-10.0663 4.3179 1.7003
-10.3763 3.3915 1.6946
-10.5770 2.4385 1.6849
-10.6967 1.4778 1.6762
-10.7358 0.5154 1.6684
-10.6870 -0.4420 1.6604
-10.5403 -1.3849 1.6502
-10.3174 -2.3067 1.6411
-10.0210 -3.2019 1.6330
-9.6435 -4.0610 1.6243
-9.1976 -4.8809 1.6163
-8.6891 -5.6580 1.6095
-7.4083 -5.8272 1.4631
-7.4993 -7.0682 1.5997
-6.8259 -7.6941 1.5966
-6.0910 -8.2432 1.5910
-5.3084 -8.7156 1.5841
-0.9698 -1.9686 0.3407
-0.7882 -2.0417 0.3397
-0.6017 -2.0993 0.3390
-0.4114 -2.1412 0.3385
-0.2186 -2.1673 0.3381
-0.0244 -2.1774 0.3380
0.1699 -2.1714 0.3381
0.3632 -2.1494 0.3384
0.5543 -2.1116 0.3389
0.7420 -2.0579 0.3396
0.9250 -1.9887 0.3405
5.5622 -9.6107 1.7237
6.4243 -9.1147 1.7310
7.2464 -8.5464 1.7393
8.0228 -7.9085 1.7487
8.7477 -7.2037 1.7591
9.4152 -6.4358 1.7703
10.0200 -5.6086 1.7825
10.5563 -4.7266 1.7954
11.0191 -3.7949 1.8091
11.4031 -2.8191 1.8234
11.6987 -1.8047 1.8374
11.8958 -0.7594 1.8503
12.0006 0.3068 1.8634
12.0104 1.3857 1.8767
11.8971 2.4635 1.8859
11.6801 3.5299 1.8941
11.3664 4.5768 1.9021
10.9508 5.5917 1.9087
10.4238 6.5558 1.9115
9.8113 7.4698 1.9142
9.1179 8.3260 1.9167
8.3488 9.1169 1.9189
7.4976 9.8189 1.9177
6.5882 10.4425 1.9166
5.6278 10.9831 1.9157
0.9570 2.3669 0.3963
0.7440 2.4493 0.3974
2.5170 12.0692 1.9138
1.4302 12.2436 1.9135
0.3325 12.3215 1.9134
-0.7678 12.3023 1.9134
-1.8622 12.1861 1.9136
-0.6115 2.4887 0.3978
-0.8292 2.4187 0.3969
-1.0385 2.3282 0.3957
-0.4860 2.4076 0.3968
-0.6975 2.3502 0.3960
-0.9021 2.2729 0.3950
-4.9215 9.7579 1.7655
-5.7749 9.2844 1.7663
-6.5735 8.7238 1.7646
-7.2693 8.0407 1.7511
-7.9003 7.3075 1.7385
-8.4638 6.5299 1.7269
-5.7943 3.6961 1.1103
-9.4010 4.8764 1.7108
-9.7642 4.0045 1.7048
-10.0329 3.1023 1.6965
-10.2142 2.1833 1.6873
-10.3175 1.2574 1.6790
-10.3430 0.3307 1.6717
-10.2751 -0.5899 1.6626
-10.1227 -1.4953 1.6530
-9.8970 -2.3797 1.6444
-9.6004 -3.2378 1.6367
-9.2245 -4.0596 1.6281
-8.7850 -4.8438 1.6206
-8.2854 -5.5861 1.6142
-7.0054 -5.6941 1.4584
-7.1207 -6.9299 1.6051
-6.4599 -7.5208 1.6016
-5.7367 -8.0295 1.5941
-1.0736 -1.8279 0.3425
-0.9035 -1.9105 0.3414
-0.7276 -1.9785 0.3405
-0.5472 -2.0315 0.3399
-0.3633 -2.0693 0.3394
-0.1772 -2.0917 0.3391
0.0101 -2.0986 0.3390
0.1973 -2.0901 0.3391
0.3833 -2.0661 0.3395
0.5669 -2.0267 0.3400
0.7469 -1.9722 0.3407
0.9223 -1.9027 0.3416
5.5120 -9.1815 1.7300
6.3353 -8.6896 1.7372
7.1188 -8.1283 1.7455
7.8566 -7.5004 1.7547
8.5434 -6.8090 1.7648
9.1737 -6.0575 1.7759
9.7419 -5.2499 1.7877
10.2431 -4.3908 1.8003
10.6720 -3.4853 1.8136
11.0241 -2.5388 1.8275
11.2864 -1.5565 1.8405
11.4571 -0.5473 1.8529
11.5384 0.4800 1.8656
11.5280 1.5175 1.8783
11.3967 2.5508 1.8866
11.1696 3.5718 1.8944
10.8500 4.5721 1.9020
10.4345 5.5405 1.9085
9.9127 6.4581 1.9112
9.3096 7.3262 1.9137
8.6297 8.1375 1.9161
7.8785 8.8849 1.9183
7.0543 9.5516 1.9182
6.1710 10.1372 1.9172
1.0774 2.1882 0.3940
0.8806 2.2826 0.3952
0.6751 2.3577 0.3962
0.4630 2.4127 0.3969
0.2462 2.4471 0.3973
0.0270 2.4603 0.3975
-0.1925 2.4522 0.3974
-0.4101 2.4229 0.3970
-0.6235 2.3728 0.3963
-0.8307 2.3024 0.3954
-1.0297 2.2127 0.3943
-5.4782 9.4603 1.7660
-6.3000 8.9339 1.7660
-7.0308 8.2881 1.7557
-7.6850 7.5719 1.7428
-8.2726 6.8092 1.7309
-5.5488 3.7909 1.0856
-9.2554 5.1777 1.7132
-9.6443 4.3155 1.7068
-9.9502 3.4241 1.6999
-10.1591 2.5090 1.6904
-10.2899 1.5848 1.6819
-10.3428 0.6577 1.6742
-10.3111 -0.2661 1.6662
-10.1850 -1.1776 1.6563
-9.9849 -2.0700 1.6473
-9.7132 -2.9380 1.6393
-9.3647 -3.7734 1.6310
-8.9473 -4.5714 1.6231
-8.4686 -5.3289 1.6164
-7.4856 -5.7020 1.5201
-7.3415 -6.7071 1.6064
-6.7008 -7.3207 1.6032
-5.9966 -7.8569 1.5967
-5.2493 -8.3247 1.5898
-0.9643 -1.8830 0.3417
-0.7903 -1.9562 0.3408
-0.6114 -2.0145 0.3401
-0.4286 -2.0576 0.3395
-0.2431 -2.0855 0.3392
-0.0561 -2.0980 0.3390
0.1312 -2.0949 0.3391
0.3178 -2.0763 0.3393
0.5024 -2.0424 0.3398
0.6838 -1.9931 0.3404
0.8609 -1.9289 0.3412
1.0326 -1.8499 0.3422
6.0488 -8.8715 1.7345
6.8469 -8.3344 1.7424
7.6015 -7.7297 1.7513
8.3070 -7.0603 1.7611
8.9578 -6.3296 1.7719
9.5486 -5.5413 1.7834
10.0740 -4.6999 1.7958
10.5290 -3.8101 1.8088
10.9088 -2.8775 1.8225
11.2053 -1.9072 1.8362
11.4068 -0.9063 1.8485
11.5201 0.1155 1.8611
11.5423 1.1503 1.8738
11.4546 2.1869 1.8838
11.2604 3.2131 1.8917
10.9734 4.2217 1.8993
10.5947 5.2040 1.9068
10.1065 6.1392 1.9103
9.5316 7.0257 1.9129
8.8783 7.8578 1.9153
8.1517 8.6286 1.9176
7.3536 9.3262 1.9186
6.4888 9.9393 1.9175
5.5738 10.4734 1.9166
0.9512 2.2514 0.3948
0.7486 2.3334 0.3959
0.5386 2.3956 0.3967
0.3232 2.4373 0.3972
0.1046 2.4580 0.3974
-0.1151 2.4575 0.3974
-0.3336 2.4357 0.3971
-0.5487 2.3928 0.3966
-0.7584 2.3295 0.3958
-0.9605 2.2465 0.3947
-5.1762 9.6268 1.7657
-6.0171 9.1312 1.7665
-6.7843 8.5289 1.7605
-7.4614 7.8305 1.7473
-8.0728 7.0836 1.7350
-5.5459 4.0513 1.1095
-9.1008 5.4752 1.7157
-9.5152 4.6233 1.7090
-9.8569 3.7438 1.7033
-10.0942 2.8336 1.6937
-10.2526 1.9119 1.6848
-10.3330 0.9852 1.6768
-10.3359 0.0594 1.6697
-10.2381 -0.8575 1.6597
-10.0639 -1.7573 1.6504
-9.8172 -2.6345 1.6420
-9.4969 -3.4827 1.6341
-9.1020 -4.2939 1.6258
-8.6445 -5.0662 1.6186
-8.1280 -5.7954 1.6126
-6.8603 -5.8814 1.4598
-6.9326 -7.1100 1.6042
-6.2517 -7.6765 1.5993
-5.5173 -8.1668 1.5921
-1.0243 -1.8537 0.3421
-0.8524 -1.9320 0.3411
-0.6751 -1.9956 0.3403
-0.4935 -2.0441 0.3397
-0.3089 -2.0774 0.3393
-0.1223 -2.0953 0.3391
0.0651 -2.0977 0.3390
0.2521 -2.0846 0.3392
0.4375 -2.0561 0.3396
0.6201 -2.0123 0.3402
0.7989 -1.9533 0.3409
0.9727 -1.8795 0.3419
5.7575 -9.0445 1.7320
6.5696 -8.5320 1.7395
7.3403 -7.9508 1.7481
8.0638 -7.3039 1.7576
8.7345 -6.5945 1.7680
9.3471 -5.8261 1.7793
9.8962 -5.0029 1.7913
10.3767 -4.1296 1.8042
10.7835 -3.2115 1.8176
11.1121 -2.2542 1.8317
11.3456 -1.2626 1.8441
11.4903 -0.2473 1.8566
11.5450 0.7838 1.8693
11.5009 1.8217 1.8811
11.3397 2.8521 1.8889
11.0853 3.8679 1.8966
10.7388 4.8605 1.9042
10.2900 5.8145 1.9093
9.7439 6.7184 1.9120
9.1178 7.5706 1.9145
8.4164 8.3637 1.9168
7.6454 9.0912 1.9189
6.8004 9.7316 1.9179
5.9023 10.2940 1.9169
1.0206 2.2178 0.3944
0.8211 2.3066 0.3955
0.6135 2.3760 0.3964
0.3997 2.4250 0.3970
0.1820 2.4532 0.3974
-0.0375 2.4601 0.3975
-0.2567 2.4458 0.3973
-0.4732 2.4103 0.3968
-0.6851 2.3542 0.3961
-0.8901 2.2780 0.3951
-4.8692 9.7838 1.7654
-5.7251 9.3148 1.7662
-6.5299 8.7629 1.7654
-7.2295 8.0830 1.7518
-7.8645 7.3526 1.7392
-8.4321 6.5775 1.7276
-5.7285 3.6973 1.1014
-9.3770 4.9277 1.7112
-9.7446 4.0573 1.7052
-10.0196 3.1568 1.6970
-10.2056 2.2384 1.6878
-10.3134 1.3128 1.6795
-10.3437 0.3860 1.6721
-10.2819 -0.5352 1.6632
-10.1339 -1.4417 1.6535
-9.9125 -2.3275 1.6449
-9.6203 -3.1874 1.6372
-9.2488 -4.0115 1.6286
-8.8130 -4.7981 1.6210
-8.3169 -5.5430 1.6146
-7.7642 -6.2424 1.6094
-7.1585 -6.8927 1.6053
-6.5019 -7.4884 1.6021
-5.7809 -8.0009 1.5946
-1.0835 -1.8225 0.3425
-0.9138 -1.9060 0.3415
-0.7383 -1.9748 0.3406
-0.5581 -2.0287 0.3399
-0.3744 -2.0674 0.3394
-0.1883 -2.0908 0.3391
-0.0011 -2.0987 0.3390
0.1861 -2.0910 0.3391
0.3722 -2.0679 0.3394
0.5560 -2.0295 0.3399
0.7363 -1.9758 0.3406
0.9119 -1.9072 0.3415
5.4617 -9.2088 1.7296
6.2872 -8.7210 1.7368
7.0732 -8.1638 1.7449
7.8139 -7.5398 1.7541
8.5040 -6.8520 1.7642
9.1377 -6.1041 1.7752
9.7098 -5.2997 1.7870
10.2151 -4.4435 1.7995
10.6485 -3.5406 1.8128
11.0053 -2.5965 1.8266
11.2734 -1.6161 1.8398
11.4494 -0.6082 1.8522
11.5361 0.4182 1.8648
11.5313 1.4554 1.8776
11.4073 2.4894 1.8861
11.1858 3.5113 1.8939
10.8717 4.5131 1.9016
10.4630 5.4842 1.9083
9.9462 6.4046 1.9110
9.3478 7.2759 1.9136
8.6724 8.0907 1.9160
7.9254 8.8421 1.9182
7.1054 9.5141 1.9183
6.2252 10.1045 1.9172
1.0888 2.1820 0.3939
0.8926 2.2774 0.3952
0.6876 2.3537 0.3961
0.4758 2.4100 0.3968
0.2593 2.4456 0.3973
0.0401 2.4601 0.3975
-0.1794 2.4533 0.3974
-0.3971 2.4253 0.3970
-0.6109 2.3764 0.3964
-0.8186 2.3072 0.3955
-1.0181 2.2185 0.3943
-5.4275 9.4891 1.7659
-6.2526 8.9679 1.7661
-6.9896 8.3293 1.7565
-7.6477 7.6160 1.7436
-8.2394 6.8560 1.7316
-5.5483 3.8342 1.0895
-9.2298 5.2283 1.7136
-9.6231 4.3678 1.7072
-9.9352 3.4784 1.7005
-10.1488 2.5640 1.6910
-10.2842 1.6402 1.6824
-10.3418 0.7131 1.6746
-10.3162 -0.2111 1.6669
-10.1947 -1.1236 1.6569
-9.9989 -2.0173 1.6478
-9.7314 -2.8869 1.6398
-9.3877 -3.7245 1.6315
-8.9740 -4.5248 1.6235
-8.4988 -5.2848 1.6167
-7.5395 -5.6797 1.5249
-7.3783 -6.6688 1.6066
-6.7404 -7.2855 1.6034
-6.0400 -7.8270 1.5971
-5.2950 -8.2986 1.5902
-0.9745 -1.8782 0.3418
-0.8009 -1.9522 0.3409
-0.6222 -2.0114 0.3401
-0.4396 -2.0555 0.3396
-0.2543 -2.0843 0.3392
-0.0673 -2.0976 0.3390
0.1201 -2.0955 0.3391
0.3067 -2.0779 0.3393
0.4914 -2.0448 0.3397
0.6731 -1.9965 0.3404
0.8505 -1.9332 0.3412
1.0225 -1.8551 0.3422
5.9998 -8.9014 1.7341
6.8004 -8.3684 1.7419
7.5578 -7.7677 1.7508
8.2663 -7.1021 1.7605
8.9206 -6.3749 1.7712
9.5151 -5.5900 1.7827
10.0446 -4.7516 1.7950
10.5039 -3.8646 1.8080
10.8883 -2.9343 1.8217
11.1906 -1.9662 1.8354
11.3972 -0.9667 1.8478
11.5158 0.0540 1.8603
11.5436 1.0883 1.8731
11.4633 2.1252 1.8834
11.2747 3.1522 1.8912
10.9931 4.1620 1.8989
10.6199 5.1462 1.9064
10.1383 6.0847 1.9101
9.5682 6.9742 1.9127
8.9195 7.8098 1.9152
8.1971 8.5843 1.9174
7.4035 9.2871 1.9186
6.5420 9.9049 1.9176
5.6297 10.4437 1.9166
0.9630 2.2459 0.3948
0.7609 2.3290 0.3958
0.5513 2.3925 0.3966
0.3362 2.4354 0.3972
0.1177 2.4574 0.3974
-0.1020 2.4581 0.3974
-0.3206 2.4376 0.3972
-0.5360 2.3960 0.3966
-0.7460 2.3339 0.3958
-0.9487 2.2520 0.3948
-5.1246 9.6540 1.7656
-5.9681 9.1630 1.7665
-6.7418 8.5690 1.7613
-7.4227 7.8736 1.7480
-8.0381 7.1295 1.7357
-5.5510 4.1007 1.1149
-9.0738 5.5251 1.7162
-9.4924 4.6750 1.7093
-9.8385 3.7971 1.7036
-10.0823 2.8885 1.6942
-10.2454 1.9672 1.6853
-10.3304 1.0406 1.6772
-10.3379 0.1146 1.6701
-10.2462 -0.8031 1.6603
-10.0764 -1.7041 1.6509
-9.8340 -2.5828 1.6425
-9.5184 -3.4330 1.6346
-9.1274 -4.2464 1.6262
-8.6735 -5.0212 1.6190
-8.1604 -5.7531 1.6129
-6.8399 -5.8009 1.4488
-6.9713 -7.0737 1.6044
-6.2944 -7.6452 1.5998
-5.5622 -8.1393 1.5925
-1.0344 -1.8485 0.3422
-0.8629 -1.9277 0.3412
-0.6858 -1.9922 0.3404
-0.5045 -2.0417 0.3397
-0.3200 -2.0759 0.3393
-0.1335 -2.0947 0.3391
0.0539 -2.0980 0.3390
0.2409 -2.0859 0.3392
0.4265 -2.0582 0.3396
0.6093 -2.0153 0.3401
0.7884 -1.9573 0.3409
0.9625 -1.8843 0.3418
5.7077 -9.0730 1.7316
6.5222 -8.5646 1.7391
7.2955 -7.9874 1.7475
8.0219 -7.3444 1.7570
8.6960 -6.6386 1.7673
9.3122 -5.8736 1.7786
9.8653 -5.0535 1.7906
10.3500 -4.1832 1.8034
10.7614 -3.2675 1.8168
11.0948 -2.3124 1.8308
11.3341 -1.3226 1.8434
11.4842 -0.3086 1.8559
11.5443 0.7219 1.8685
11.5075 1.7599 1.8806
11.3520 2.7908 1.8884
11.1031 3.8078 1.8962
10.7621 4.8020 1.9038
10.3200 5.7590 1.9091
9.7788 6.6658 1.9118
9.1574 7.5212 1.9143
8.4603 8.3181 1.9166
7.6933 9.0497 1.9188
6.8525 9.6954 1.9179
5.9573 10.2627 1.9169
1.0323 2.2119 0.3943
0.8333 2.3019 0.3955
0.6261 2.3724 0.3964
0.4127 2.4226 0.3970
0.1951 2.4521 0.3974
-0.0244 2.4603 0.3975
-0.2436 2.4472 0.3973
-0.4604 2.4130 0.3968
-0.6726 2.3581 0.3961
-0.8780 2.2831 0.3952
-4.8168 9.8094 1.7654
-5.6751 9.3450 1.7662
-6.4837 8.7985 1.7656
-7.1895 8.1251 1.7526
-7.8284 7.3976 1.7399
-8.4001 6.6249 1.7282
-5.6638 3.6985 1.0927
-9.3527 4.9788 1.7116
-9.7247 4.1100 1.7055
-10.0060 3.2114 1.6976
-10.1967 2.2936 1.6884
-10.3092 1.3682 1.6800
-10.3440 0.4413 1.6725
-10.2883 -0.4806 1.6638
-10.1448 -1.3881 1.6541
-9.9277 -2.2753 1.6453
-9.6397 -3.1368 1.6376
-9.2729 -3.9633 1.6291
-8.8408 -4.7522 1.6214
-8.3482 -5.4997 1.6149
-7.7987 -6.2019 1.6096
-7.1961 -6.8553 1.6055
-6.5437 -7.4558 1.6025
-5.8251 -7.9720 1.5950
-1.0935 -1.8171 0.3426
-0.9242 -1.9014 0.3415
-0.7489 -1.9711 0.3406
-0.5690 -2.0259 0.3399
-0.3854 -2.0655 0.3394
-0.1995 -2.0898 0.3391
-0.0123 -2.0986 0.3390
0.1750 -2.0919 0.3391
0.3612 -2.0698 0.3394
0.5451 -2.0322 0.3399
0.7256 -1.9795 0.3406
0.9016 -1.9118 0.3415
5.4112 -9.2357 1.7292
6.2389 -8.7521 1.7363
7.0274 -8.1990 1.7444
7.7710 -7.5789 1.7535
8.4642 -6.8948 1.7636
9.1015 -6.1503 1.7745
9.6774 -5.3493 1.7863
10.1869 -4.4961 1.7988
10.6247 -3.5958 1.8120
10.9862 -2.6539 1.8258
11.2602 -1.6755 1.8390
11.4413 -0.6691 1.8514
11.5335 0.3565 1.8640
11.5342 1.3932 1.8768
11.4176 2.4278 1.8857
11.2016 3.4507 1.8935
10.8930 4.4539 1.9011
10.4912 5.4278 1.9082
9.9794 6.3509 1.9109
9.3858 7.2253 1.9134
8.7149 8.0437 1.9158
7.9719 8.7991 1.9181
7.1563 9.4763 1.9183
6.2792 10.0714 1.9173
1.1002 2.1757 0.3939
0.9046 2.2723 0.3951
0.7001 2.3497 0.3961
0.4886 2.4072 0.3968
0.2723 2.4441 0.3973
0.0532 2.4598 0.3975
-0.1663 2.4543 0.3974
-0.3842 2.4275 0.3970
-0.5983 2.3799 0.3964
-0.8063 2.3119 0.3955
-1.0065 2.2244 0.3944
-5.3766 9.5177 1.7659
-6.2050 9.0017 1.7662
-6.9482 8.3703 1.7573
-7.6102 7.6600 1.7443
-8.2060 6.9026 1.7322
-5.5478 3.8778 1.0934
-9.2041 5.2788 1.7140
-9.6016 4.4200 1.7075
-9.9200 3.5326 1.7011
-10.1382 2.6190 1.6915
-10.2783 1.6956 1.6828
-10.3406 0.7685 1.6751
-10.3211 -0.1561 1.6675
-10.2040 -1.0695 1.6574
-10.0127 -1.9645 1.6483
-9.7494 -2.8357 1.6402
-9.4104 -3.6755 1.6320
-9.0005 -4.4780 1.6240
-8.5289 -5.2406 1.6171
-7.9991 -5.9593 1.6114
-7.4148 -6.6303 1.6068
-6.7799 -7.2502 1.6035
-6.0834 -7.7968 1.5975
-5.3405 -8.2722 1.5906
-0.9847 -1.8733 0.3419
-0.8114 -1.9482 0.3409
-0.6330 -2.0083 0.3402
-0.4506 -2.0533 0.3396
-0.2654 -2.0830 0.3392
-0.0785 -2.0973 0.3390
0.1089 -2.0961 0.3391
0.2956 -2.0794 0.3393
0.4804 -2.0472 0.3397
0.6623 -1.9998 0.3403
0.8400 -1.9374 0.3411
1.0124 -1.8601 0.3421
5.9507 -8.9310 1.7337
6.7537 -8.4022 1.7414
7.5138 -7.8054 1.7502
8.2255 -7.1436 1.7599
8.8831 -6.4200 1.7705
9.4813 -5.6384 1.7820
10.0148 -4.8031 1.7943
10.4785 -3.9189 1.8072
10.8675 -2.9911 1.8208
11.1755 -2.0251 1.8347
11.3873 -1.0272 1.8470
11.5113 -0.0075 1.8596
11.5445 1.0262 1.8723
11.4716 2.0634 1.8829
11.2886 3.0912 1.8907
11.0126 4.1023 1.8984
10.6447 5.0882 1.9059
10.1698 6.0300 1.9099
9.6046 6.9225 1.9126
8.9604 7.7615 1.9150
8.2422 8.5399 1.9173
7.4532 9.2478 1.9187
6.5950 9.8701 1.9176
5.6856 10.4138 1.9167
0.9748 2.2403 0.3947
0.7732 2.3246 0.3958
0.5640 2.3893 0.3966
0.3491 2.4335 0.3971
0.1308 2.4567 0.3974
-0.0888 2.4587 0.3974
-0.3076 2.4394 0.3972
-0.5232 2.3990 0.3967
-0.7337 2.3382 0.3959
-0.9368 2.2575 0.3948
-5.0728 9.6810 1.7656
-5.9189 9.1944 1.7665
-6.6991 8.6089 1.7622
-7.3838 7.9166 1.7488
-8.0033 7.1752 1.7364
-8.5547 6.3905 1.7250
-9.0465 5.5749 1.7166
-9.4694 4.7267 1.7097
-9.8199 3.8502 1.7039
-10.0701 2.9432 1.6948
-10.2378 2.0225 1.6858
-10.3274 1.0961 1.6777
-10.3396 0.1699 1.6705
-10.2540 -0.7487 1.6609
-10.0886 -1.6508 1.6514
-9.8504 -2.5310 1.6430
-9.5397 -3.3833 1.6351
-9.1525 -4.1989 1.6267
-8.7023 -4.9761 1.6194
-8.1927 -5.7107 1.6133
-6.8604 -5.7555 1.4466
-7.0097 -7.0372 1.6046
-6.3369 -7.6137 1.6002
-5.6070 -8.1116 1.5929
-1.0445 -1.8433 0.3423
-0.8733 -1.9234 0.3412
-0.6966 -1.9888 0.3404
-0.5154 -2.0391 0.3398
-0.3311 -2.0743 0.3393
-0.1446 -2.0940 0.3391
0.0427 -2.0983 0.3390
0.2298 -2.0870 0.3392
0.4154 -2.0603 0.3395
0.5985 -2.0183 0.3401
0.7778 -1.9611 0.3408
0.9522 -1.8891 0.3417
5.6578 -9.1011 1.7312
6.4746 -8.5969 1.7386
7.2505 -8.0238 1.7470
7.9799 -7.3846 1.7564
8.6573 -6.6824 1.7667
9.2771 -5.9209 1.7779
9.8341 -5.1040 1.7899
10.3230 -4.2365 1.8026
10.7389 -3.3234 1.8160
11.0771 -2.3705 1.8299
11.3224 -1.3826 1.8426
11.4777 -0.3697 1.8551
11.5433 0.6600 1.8678
11.5139 1.6980 1.8801
11.3639 2.7296 1.8880
11.1206 3.7475 1.8957
10.7850 4.7433 1.9033
10.3497 5.7033 1.9090
9.8135 6.6129 1.9116
9.1967 7.4716 1.9142
8.5040 8.2723 1.9165
7.7410 9.0079 1.9187
6.9043 9.6591 1.9180
6.0122 10.2310 1.9170
1.0439 2.2060 0.3942
0.8454 2.2970 0.3954
0.6387 2.3687 0.3963
0.4255 2.4202 0.3970
0.2082 2.4509 0.3974
-0.0112 2.4604 0.3975
-0.2306 2.4486 0.3973
-0.4475 2.4157 0.3969
-0.6600 2.3620 0.3962
-0.8660 2.2882 0.3952
-1.0634 2.1951 0.3940
-5.6250 9.3749 1.7661
-6.4370 8.8335 1.7657
-7.1492 8.1671 1.7534
-7.7921 7.4423 1.7407
-8.3678 6.6723 1.7289
-5.6043 3.7025 1.0851
-9.3282 5.0298 1.7120
-9.7045 4.1627 1.7058
-9.9921 3.2659 1.6982
-10.1875 2.3487 1.6889
-10.3047 1.4236 1.6805
-10.3441 0.4966 1.6729
-10.2946 -0.4258 1.6644
-10.1555 -1.3343 1.6547
-9.9427 -2.2229 1.6458
-9.6589 -3.0862 1.6380
-9.2967 -3.9149 1.6295
-8.8683 -4.7062 1.6218
-8.3793 -5.4563 1.6153
-7.4083 -5.8272 1.5226
-7.2335 -6.8177 1.6057
-6.5845 -7.4219 1.6028
-5.8691 -7.9429 1.5954
-1.1034 -1.8116 0.3427
-0.9345 -1.8968 0.3416
-0.7595 -1.9674 0.3407
-0.5798 -2.0231 0.3400
-0.3965 -2.0636 0.3395
-0.2107 -2.0888 0.3391
-0.0235 -2.0985 0.3390
0.1638 -2.0928 0.3391
0.3501 -2.0715 0.3394
0.5342 -2.0349 0.3399
0.7150 -1.9830 0.3405
0.8912 -1.9162 0.3414
1.0618 -1.8347 0.3424
6.1905 -8.7830 1.7358
6.9815 -8.2340 1.7439
7.7279 -7.6178 1.7530
8.4243 -6.9375 1.7629
9.0651 -6.1965 1.7738
9.6449 -5.3986 1.7855
10.1584 -4.5484 1.7980
10.6006 -3.6509 1.8112
10.9668 -2.7113 1.8250
11.2466 -1.7349 1.8383
11.4330 -0.7298 1.8507
11.5305 0.2948 1.8633
11.5367 1.3311 1.8760
11.4275 2.3663 1.8852
11.2172 3.3900 1.8930
10.9141 4.3946 1.9007
10.5191 5.3713 1.9080
10.0124 6.2970 1.9107
9.4235 7.1746 1.9133
8.7570 7.9965 1.9157
8.0182 8.7558 1.9179
7.2070 9.4384 1.9184
6.3331 10.0380 1.9173
1.1116 2.1694 0.3938
0.9166 2.2670 0.3950
0.7125 2.3457 0.3960
0.5014 2.4044 0.3968
0.2853 2.4425 0.3972
0.0664 2.4595 0.3975
-0.1532 2.4552 0.3974
-0.3713 2.4297 0.3971
-0.5856 2.3833 0.3965
-0.7941 2.3165 0.3956
-0.9948 2.2301 0.3945
-0.4662 2.3095 0.3955
-0.6692 2.2546 0.3948
-0.8655 2.1807 0.3938
-1.0533 2.0885 0.3927
-5.5562 8.9328 1.7660
-6.3251 8.3941 1.7644
-7.0092 7.7530 1.7545
-7.6196 7.0478 1.7424
-8.1650 6.2993 1.7312
-5.7857 3.6906 1.1520
-9.0732 4.7064 1.7158
-9.4221 3.8641 1.7095
-9.6743 2.9914 1.6999
-9.8510 2.1056 1.6911
-9.9523 1.2129 1.6831
-9.9785 0.3190 1.6760
-9.9109 -0.5690 1.6665
-9.7658 -1.4426 1.6572
-9.5498 -2.2962 1.6488
-9.2651 -3.1247 1.6414
-8.9039 -3.9186 1.6331
-8.4811 -4.6762 1.6258
-7.9999 -5.3936 1.6197
-7.0054 -5.6941 1.5155
-6.8766 -6.6924 1.6108
-6.2316 -7.2549 1.6055
-5.5348 -7.7470 1.5983
-1.0356 -1.7633 0.3433
-0.8716 -1.8432 0.3423
-0.7021 -1.9089 0.3414
-0.5280 -1.9602 0.3408
-0.3506 -1.9967 0.3403
-0.1710 -2.0184 0.3400
0.0097 -2.0251 0.3400
0.1904 -2.0169 0.3401
0.3698 -1.9936 0.3404
0.5470 -1.9556 0.3409
0.7207 -1.9028 0.3416
0.8897 -1.8356 0.3424
1.0531 -1.7543 0.3435
6.1123 -8.3836 1.7417
6.8670 -7.8408 1.7497
7.5773 -7.2338 1.7586
8.2380 -6.5656 1.7684
8.8437 -5.8396 1.7790
9.3893 -5.0599 1.7905
9.8698 -4.2308 1.8027
10.2804 -3.3574 1.8155
10.6165 -2.4450 1.8288
10.8652 -1.4984 1.8412
11.0267 -0.5268 1.8532
11.1022 0.4618 1.8653
11.0893 1.4598 1.8776
10.9628 2.4537 1.8859
10.7427 3.4353 1.8933
10.4337 4.3967 1.9007
10.0373 5.3296 1.9078
9.5355 6.2124 1.9105
8.9548 7.0471 1.9129
8.3005 7.8270 1.9152
7.5777 8.5455 1.9173
6.7906 9.1946 1.9188
5.9404 9.7585 1.9178
1.0338 2.0997 0.3929
0.8449 2.1899 0.3940
0.6477 2.2618 0.3949
0.4441 2.3144 0.3956
0.2362 2.3473 0.3960
0.0259 2.3599 0.3962
-0.1846 2.3522 0.3961
-0.3933 2.3242 0.3957
-0.5981 2.2762 0.3951
-0.7970 2.2089 0.3942
-0.9881 2.1231 0.3931
-5.2732 9.1063 1.7665
-6.0592 8.5923 1.7650
-6.7785 7.9908 1.7590
-7.4113 7.3022 1.7466
-7.9799 6.5683 1.7350
-5.5434 3.7872 1.1270
-8.9322 4.9970 1.7182
-9.3088 4.1654 1.7120
-9.5938 3.3015 1.7032
-9.7972 2.4197 1.6941
-9.9252 1.5287 1.6858
-9.9778 0.6345 1.6784
-9.9447 -0.2566 1.6700
-9.8253 -1.1360 1.6604
-9.6341 -1.9973 1.6517
-9.3735 -2.8353 1.6439
-9.0387 -3.6420 1.6359
-8.6373 -4.4130 1.6282
-8.1763 -5.1450 1.6217
-7.5146 -5.7241 1.5858
