ply
format ascii 1.0
element vertex 2174
property float32 x
property float32 y
property float32 z
end_header
8.9994 5.3972 1.7616
8.4544 6.1593 1.7559
7.8428 6.8653 1.7497
7.1710 7.5093 1.7431
5.4459 6.8324 1.4667
5.6776 8.5993 1.7298
1.0313 1.9144 0.3650
0.8562 1.9986 0.3650
0.6742 2.0669 0.3650
0.4870 2.1187 0.3649
0.2958 2.1536 0.3649
0.1024 2.1714 0.3649
-0.0919 2.1719 0.3649
-0.2855 2.1551 0.3649
-0.4768 2.1211 0.3650
-0.6643 2.0703 0.3650
-0.8466 2.0029 0.3650
-1.0222 1.9196 0.3651
-6.0588 9.2733 1.8595
-6.3002 7.9826 1.7071
-6.9943 7.3951 1.7087
-7.6343 6.7478 1.7104
-8.2137 6.0447 1.7120
-8.7231 5.2886 1.7125
-8.4655 4.1481 1.5825
-9.5246 3.6528 1.7125
-9.8128 2.7878 1.7125
-10.0225 1.9005 1.7125
-10.1521 0.9981 1.7125
-10.2007 0.0876 1.7125
-10.1678 -0.8236 1.7125
-10.0537 -1.7281 1.7125
-9.8592 -2.6189 1.7125
-9.5860 -3.4887 1.7125
-9.2362 -4.3307 1.7125
-8.3929 -4.8933 1.6309
-8.3153 -5.9020 1.7118
-7.7450 -6.6123 1.7095
-7.1139 -7.2673 1.7072
-7.0134 -8.5791 1.8602
-6.2317 -9.1893 1.8639
-1.0608 -1.9121 0.3671
-0.8859 -1.9994 0.3671
-0.7039 -2.0706 0.3671
-0.5163 -2.1254 0.3672
-0.3244 -2.1631 0.3672
-0.1300 -2.1834 0.3672
0.0655 -2.1863 0.3672
0.2604 -2.1716 0.3672
0.4532 -2.1396 0.3671
0.6424 -2.0904 0.3671
0.8264 -2.0245 0.3671
1.0037 -1.9424 0.3670
5.5743 -8.7666 1.7440
6.3610 -8.2680 1.7512
7.1138 -7.7103 1.7611
7.7791 -7.0492 1.7623
8.4011 -6.3443 1.7672
8.9557 -5.5824 1.7716
9.4375 -4.7701 1.7751
9.8415 -3.9147 1.7780
10.1636 -3.0238 1.7801
4.7773 -0.9673 0.8182
4.5563 -0.5049 0.7695
4.7660 -0.0999 0.8002
5.1844 0.3554 0.8723
10.4619 1.6653 1.7784
10.2556 2.5888 1.7756
9.9639 3.4873 1.7721
9.5899 4.3526 1.7679
9.1377 5.1772 1.7631
8.6121 5.9538 1.7576
8.0184 6.6759 1.7515
7.3626 7.3376 1.7449
6.6512 7.9337 1.7379
4.9724 7.1405 1.4607
1.0784 1.8883 0.3650
0.9054 1.9768 0.3650
0.7252 2.0496 0.3650
0.5392 2.1060 0.3649
0.3490 2.1457 0.3649
0.1560 2.1682 0.3649
-0.0382 2.1735 0.3649
-0.2321 2.1615 0.3649
-0.4242 2.1322 0.3650
-0.6129 2.0860 0.3650
-0.7968 2.0232 0.3650
-0.9744 1.9442 0.3651
-5.8276 9.4203 1.8595
-6.2253 8.3020 1.7420
-6.8072 7.5637 1.7082
-7.4630 6.9328 1.7100
-8.0598 6.2445 1.7116
-8.5896 5.5028 1.7125
-8.4820 4.4197 1.6056
-9.4314 3.8873 1.7125
-9.7408 3.0297 1.7125
-9.9724 2.1478 1.7125
-10.1243 1.2489 1.7125
-10.1954 0.3399 1.7125
-10.1850 -0.5717 1.7125
-10.0933 -1.4789 1.7125
-9.9210 -2.3742 1.7125
-9.6694 -3.2505 1.7125
-9.3405 -4.1009 1.7125
-8.4558 -4.6536 1.6202
-8.4615 -5.6964 1.7123
-7.9092 -6.4210 1.7102
-7.2943 -7.0919 1.7078
-7.2210 -8.4000 1.8595
-6.4525 -9.0257 1.8625
-5.6327 -9.5860 1.8664
-0.9351 -1.9768 0.3671
-0.7549 -2.0526 0.3671
-0.5687 -2.1119 0.3672
-0.3778 -2.1543 0.3672
-0.1840 -2.1795 0.3672
0.0114 -2.1872 0.3672
0.2066 -2.1774 0.3672
0.4002 -2.1502 0.3671
0.5905 -2.1057 0.3671
0.7761 -2.0444 0.3671
0.9554 -1.9667 0.3670
5.3493 -8.8911 1.7419
6.1481 -8.4140 1.7494
6.9098 -7.8712 1.7582
7.5960 -7.2333 1.7608
8.2355 -6.5453 1.7659
8.8093 -5.7985 1.7704
9.3118 -4.9995 1.7742
9.7378 -4.1553 1.7773
10.0829 -3.2734 1.7796
4.9678 -1.1345 0.8554
4.5889 -0.6238 0.7774
4.5726 -0.2091 0.7684
4.9784 0.2177 0.8365
10.5036 1.4065 1.7790
10.3214 2.3354 1.7764
10.0530 3.2416 1.7732
9.7014 4.1169 1.7692
9.2704 4.9536 1.7645
8.7646 5.7441 1.7591
8.1891 6.4819 1.7532
7.5499 7.1608 1.7468
6.8532 7.7756 1.7399
5.0848 6.9298 1.4429
5.3107 8.7873 1.7236
0.9540 1.9539 0.3650
0.7757 2.0311 0.3650
0.5912 2.0921 0.3649
0.4020 2.1364 0.3649
0.2096 2.1637 0.3649
0.0156 2.1738 0.3649
-0.1785 2.1665 0.3649
-0.3713 2.1420 0.3649
-0.5611 2.1005 0.3650
-0.7465 2.0422 0.3650
-0.9260 1.9676 0.3651
-5.5928 9.5616 1.8595
-6.2153 8.7306 1.7991
-6.6161 7.7274 1.7077
-7.2873 7.1133 1.7095
-7.9009 6.4404 1.7111
-8.4508 5.7136 1.7125
-8.4580 4.6768 1.6224
-9.3323 4.1194 1.7125
-9.6629 3.2697 1.7125
-9.9162 2.3939 1.7125
-10.0904 1.4989 1.7125
-10.1839 0.5920 1.7125
-10.1961 -0.3196 1.7125
-10.1268 -1.2288 1.7125
-9.9766 -2.1280 1.7125
-9.7468 -3.0103 1.7125
-9.4391 -3.8686 1.7125
-9.0560 -4.6959 1.7125
-8.6005 -5.4857 1.7125
-8.0685 -6.2257 1.7108
-7.4704 -6.9119 1.7085
-7.4265 -8.2189 1.8595
-6.6699 -8.8583 1.8614
-5.8659 -9.4402 1.8658
-0.9837 -1.9530 0.3671
-0.8054 -2.0332 0.3671
-0.6207 -2.0972 0.3671
-0.4310 -2.1443 0.3672
-0.2378 -2.1743 0.3672
-0.0428 -2.1869 0.3672
0.1527 -2.1819 0.3672
0.3469 -2.1595 0.3672
0.5383 -2.1197 0.3671
0.7253 -2.0630 0.3671
0.9065 -1.9898 0.3671
1.0804 -1.9006 0.3670
5.9299 -8.5517 1.7469
6.7014 -8.0259 1.7552
7.4118 -7.4161 1.7601
8.0648 -6.7418 1.7646
8.6574 -6.0107 1.7693
9.1802 -5.2254 1.7732
9.6278 -4.3929 1.7765
9.9957 -3.5207 1.7790
10.2801 -2.6167 1.7807
4.6207 -0.7449 0.7857
4.5680 -0.3223 0.7687
4.8721 0.0924 0.8180
10.5385 1.1466 1.7795
10.3805 2.0803 1.7772
10.1357 2.9936 1.7741
9.8068 3.8783 1.7703
9.3974 4.7264 1.7658
8.9118 5.5304 1.7607
8.3550 6.2834 1.7549
7.7328 6.9792 1.7486
7.0513 7.6122 1.7419
5.3156 6.8808 1.4596
5.5407 8.6756 1.7280
1.0021 1.9298 0.3650
0.8257 2.0113 0.3650
0.6428 2.0768 0.3650
0.4547 2.1258 0.3649
0.2631 2.1579 0.3649
0.0694 2.1727 0.3649
-0.1249 2.1703 0.3649
-0.3182 2.1505 0.3649
-0.5090 2.1137 0.3650
-0.6957 2.0600 0.3650
-0.8770 1.9899 0.3650
-1.0513 1.9039 0.3651
-6.1990 9.1802 1.8595
-6.4210 7.8863 1.7072
-7.1071 7.2893 1.7090
-7.7371 6.6322 1.7107
-8.3058 5.9201 1.7122
-8.8024 5.1555 1.7125
-8.7749 4.1357 1.6285
-9.5790 3.5077 1.7125
-9.8540 2.6385 1.7125
-10.0502 1.7481 1.7125
-10.1661 0.8437 1.7125
-10.2009 -0.0673 1.7125
-10.1541 -0.9779 1.7125
-10.0262 -1.8806 1.7125
-9.8183 -2.7683 1.7125
-9.5319 -3.6339 1.7125
-9.1694 -4.4705 1.7125
-8.3767 -5.0559 1.6425
-8.2230 -6.0263 1.7114
-7.6420 -6.7276 1.7091
-7.0025 -7.3743 1.7071
-6.8837 -8.6864 1.8606
-6.0949 -9.2880 1.8649
-1.0316 -1.9280 0.3671
-0.8555 -2.0126 0.3671
-0.6724 -2.0811 0.3671
-0.4839 -2.1330 0.3672
-0.2916 -2.1677 0.3672
-0.0968 -2.1851 0.3672
0.0986 -2.1850 0.3672
0.2933 -2.1674 0.3672
0.4857 -2.1324 0.3671
0.6741 -2.0804 0.3671
0.8570 -2.0117 0.3671
1.0331 -1.9268 0.3670
5.7107 -8.6868 1.7451
6.4919 -8.1780 1.7528
7.2385 -7.6102 1.7631
7.8893 -6.9337 1.7632
8.5002 -6.2187 1.7680
9.0429 -5.4477 1.7722
9.5118 -4.6276 1.7757
9.9021 -3.7656 1.7784
10.2099 -2.8696 1.7803
4.6977 -0.8771 0.8022
4.5628 -0.4356 0.7694
4.7925 -0.0276 0.8045
10.5666 0.8858 1.7800
10.4330 1.8236 1.7779
10.2120 2.7434 1.7751
9.9060 3.6368 1.7715
9.5185 4.4958 1.7671
9.0535 5.3127 1.7622
8.5159 6.0805 1.7566
7.9112 6.7927 1.7504
7.2455 7.4436 1.7438
6.5253 8.0281 1.7367
5.7598 8.5450 1.7299
1.0495 1.9044 0.3650
0.8752 1.9903 0.3650
0.6939 2.0604 0.3650
0.5072 2.1139 0.3649
0.3164 2.1507 0.3649
0.1231 2.1703 0.3649
-0.0712 2.1727 0.3649
-0.2649 2.1577 0.3649
-0.4565 2.1256 0.3650
-0.6445 2.0765 0.3650
-0.8275 2.0109 0.3650
-1.0038 1.9292 0.3651
-5.9700 9.3307 1.8595
-6.2395 8.0630 1.7115
-6.9226 7.4608 1.7085
-7.5687 6.8197 1.7103
-8.1549 6.1223 1.7118
-8.6722 5.3717 1.7125
-8.4841 4.2582 1.5936
-9.4893 3.7436 1.7125
-9.7857 2.8814 1.7125
-10.0039 1.9962 1.7125
-10.1421 1.0950 1.7125
-10.1994 0.1850 1.7125
-10.1752 -0.7262 1.7125
-10.0697 -1.6320 1.7125
-9.8838 -2.5246 1.7125
-9.6189 -3.3970 1.7125
-9.2771 -4.2423 1.7125
-8.4029 -4.7922 1.6239
-8.3724 -5.8231 1.7120
-7.8090 -6.5389 1.7098
-7.1840 -7.2002 1.7074
-7.0939 -8.5104 1.8599
-6.3179 -9.1274 1.8635
-1.0790 -1.9018 0.3671
-0.9050 -1.9908 0.3671
-0.7237 -2.0638 0.3671
-0.5365 -2.1203 0.3672
-0.3451 -2.1599 0.3672
-0.1509 -2.1821 0.3672
0.0446 -2.1868 0.3672
0.2396 -2.1740 0.3672
0.4328 -2.1438 0.3671
0.6224 -2.0965 0.3671
0.8070 -2.0323 0.3671
0.9851 -1.9519 0.3670
5.4880 -8.8156 1.7432
6.2793 -8.3251 1.7505
7.0343 -7.7718 1.7597
7.7090 -7.1209 1.7617
8.3378 -6.4224 1.7667
8.8999 -5.6663 1.7711
9.3897 -4.8591 1.7748
9.8022 -4.0079 1.7777
10.1332 -3.1205 1.7799
4.8282 -1.0257 0.8286
4.5673 -0.5503 0.7723
4.7495 -0.1449 0.7977
5.0192 0.2960 0.8440
10.4788 1.5655 1.7786
10.2818 2.4912 1.7759
9.9990 3.3927 1.7725
9.6337 4.2620 1.7684
9.1896 5.0913 1.7636
8.6716 5.8733 1.7582
8.0848 6.6016 1.7522
7.4354 7.2700 1.7457
6.7297 7.8733 1.7387
5.0042 7.0418 1.4502
1.0964 1.8780 0.3650
0.9242 1.9681 0.3650
0.7447 2.0426 0.3650
0.5593 2.1008 0.3649
0.3695 2.1422 0.3649
0.1768 2.1666 0.3649
-0.0174 2.1738 0.3649
-0.2114 2.1636 0.3649
-0.4038 2.1362 0.3650
-0.5930 2.0918 0.3650
-0.7774 2.0307 0.3650
-0.9558 1.9534 0.3651
-5.7374 9.4755 1.8595
-6.2215 8.4643 1.7635
-6.7339 7.6275 1.7080
-7.3957 7.0030 1.7098
-7.9990 6.3206 1.7114
-8.5366 5.5846 1.7125
-8.4736 4.5188 1.6121
-9.3938 3.9772 1.7125
-9.7114 3.1226 1.7125
-9.9514 2.2430 1.7125
-10.1120 1.3455 1.7125
-10.1917 0.4372 1.7125
-10.1900 -0.4745 1.7125
-10.1070 -1.3824 1.7125
-9.9432 -2.2793 1.7125
-9.7000 -3.1580 1.7125
-9.3793 -4.0115 1.7125
-8.6820 -4.6706 1.6550
-8.5162 -5.6157 1.7125
-7.9713 -6.3461 1.7104
-7.3628 -7.0230 1.7081
-7.3009 -8.3307 1.8595
-6.5372 -8.9621 1.8622
-5.7232 -9.5304 1.8662
-0.9539 -1.9677 0.3671
-0.7745 -2.0452 0.3671
-0.5888 -2.1064 0.3672
-0.3984 -2.1506 0.3672
-0.2048 -2.1777 0.3672
-0.0095 -2.1873 0.3672
0.1858 -2.1793 0.3672
0.3796 -2.1539 0.3672
0.5704 -2.1113 0.3671
0.7565 -2.0517 0.3671
0.9366 -1.9757 0.3670
5.2620 -8.9381 1.7411
6.0641 -8.4676 1.7484
6.8292 -7.9310 1.7569
7.5240 -7.3031 1.7602
8.1702 -6.6217 1.7654
8.7513 -5.8809 1.7700
9.2617 -5.0871 1.7739
9.6960 -4.2474 1.7770
10.0500 -3.3692 1.7794
10.3199 -2.4606 1.7810
4.6011 -0.6703 0.7805
4.5709 -0.2528 0.7685
4.9368 0.1687 0.8292
10.5178 1.3063 1.7792
10.3450 2.2371 1.7768
10.0857 3.1462 1.7736
9.7428 4.0252 1.7696
9.3201 4.8662 1.7650
8.8220 5.6620 1.7597
10.1410 1.0455 1.7760
9.9949 1.9445 1.7739
9.7653 2.8245 1.7710
9.4548 3.6776 1.7673
9.0666 4.4962 1.7631
8.6049 5.2730 1.7581
8.0745 6.0015 1.7527
7.4806 6.6755 1.7466
6.8293 7.2896 1.7402
5.3548 6.8514 1.5149
5.3770 8.3156 1.7251
0.9762 1.8543 0.3651
0.8066 1.9338 0.3650
0.6307 1.9980 0.3650
0.4498 2.0462 0.3650
0.2653 2.0781 0.3650
0.0787 2.0935 0.3650
-0.1086 2.0922 0.3650
-0.2950 2.0742 0.3650
-0.4790 2.0397 0.3650
-0.6593 1.9890 0.3650
-0.8343 1.9223 0.3651
-1.0028 1.8404 0.3651
-5.9234 8.8796 1.8595
-6.2267 7.7364 1.7301
-6.8055 7.0592 1.7082
-7.4157 6.4295 1.7099
-7.9670 5.7466 1.7113
-8.4539 5.0156 1.7125
-8.5363 4.0822 1.6484
-9.2112 3.4321 1.7125
-9.4809 2.5959 1.7125
-9.6748 1.7390 1.7125
-9.7914 0.8682 1.7125
-9.8298 -0.0095 1.7125
-9.7897 -0.8871 1.7125
-9.6714 -1.7577 1.7125
-9.4758 -2.6142 1.7125
-9.2046 -3.4498 1.7125
-8.8598 -4.2579 1.7125
-8.3774 -4.9921 1.6989
-7.9544 -5.7609 1.7110
-7.3994 -6.4404 1.7089
-6.7876 -7.0678 1.7071
-6.6788 -8.3309 1.8601
-5.9176 -8.9080 1.8631
-1.0044 -1.8520 0.3670
-0.8352 -1.9345 0.3671
-0.6591 -2.0015 0.3671
-0.4778 -2.0525 0.3671
-0.2927 -2.0870 0.3671
-0.1052 -2.1048 0.3671
0.0832 -2.1058 0.3671
0.2709 -2.0899 0.3671
0.4563 -2.0572 0.3671
0.6382 -2.0081 0.3671
0.8148 -1.9429 0.3670
0.9849 -1.8621 0.3670
5.4432 -8.3825 1.7412
6.1964 -7.8967 1.7487
6.9148 -7.3524 1.7583
7.5503 -6.7116 1.7599
8.1411 -6.0267 1.7646
8.6666 -5.2879 1.7687
9.1215 -4.5015 1.7720
9.5012 -3.6746 1.7747
9.8019 -2.8146 1.7766
4.6957 -0.9041 0.8331
4.5440 -0.4597 0.7957
4.7725 -0.0544 0.8315
10.1664 0.7946 1.7765
10.0438 1.6973 1.7745
9.8371 2.5833 1.7718
9.5487 3.4447 1.7684
9.1816 4.2735 1.7643
8.7398 5.0626 1.7596
8.2278 5.8051 1.7542
7.6509 6.4947 1.7484
7.0149 7.1259 1.7420
6.3259 7.6938 1.7352
4.8710 7.1392 1.5056
1.0218 1.8296 0.3651
0.8543 1.9133 0.3650
0.6799 1.9818 0.3650
0.5003 2.0345 0.3650
0.3166 2.0709 0.3650
0.1304 2.0909 0.3650
-0.0568 2.0942 0.3650
-0.2436 2.0808 0.3650
-0.4284 2.0509 0.3650
-0.6099 2.0046 0.3650
-0.7865 1.9423 0.3651
-0.9569 1.8646 0.3651
-5.7019 9.0234 1.8595
-6.2175 8.1287 1.7829
-6.6270 7.2234 1.7077
-7.2525 6.6093 1.7094
-7.8206 5.9406 1.7109
-8.3264 5.2227 1.7123
-8.4205 4.2859 1.6460
-9.1235 3.6589 1.7125
-9.4137 2.8296 1.7125
-9.6288 1.9778 1.7125
-9.7669 1.1102 1.7125
-9.8270 0.2337 1.7125
-9.8087 -0.6447 1.7125
-9.7119 -1.5179 1.7125
-9.5376 -2.3790 1.7125
-9.2871 -3.2211 1.7125
-8.9624 -4.0374 1.7125
-8.4034 -4.7299 1.6799
-8.0969 -5.5640 1.7115
-7.5591 -6.2575 1.7095
-6.9612 -6.8986 1.7073
-6.8810 -8.1609 1.8596
-6.1331 -8.7545 1.8621
-1.0499 -1.8265 0.3670
-0.8827 -1.9132 0.3671
-0.7084 -1.9845 0.3671
-0.5285 -2.0400 0.3671
-0.3442 -2.0791 0.3671
-0.1572 -2.1016 0.3671
0.0311 -2.1072 0.3671
0.2191 -2.0960 0.3671
0.4053 -2.0679 0.3671
0.5883 -2.0233 0.3671
0.7665 -1.9625 0.3670
0.9386 -1.8860 0.3670
5.2284 -8.5052 1.7393
5.9934 -8.0400 1.7470
6.7196 -7.5088 1.7554
7.3786 -6.8932 1.7591
7.9839 -6.2219 1.7634
8.5280 -5.4974 1.7676
9.0030 -4.7235 1.7712
9.4039 -3.9071 1.7740
9.7268 -3.0555 1.7761
4.7980 -1.0476 0.8555
4.5576 -0.5752 0.8003
4.7298 -0.1710 0.8245
4.9033 0.2614 0.8554
10.0862 1.4488 1.7752
9.9026 2.3403 1.7727
9.6365 3.2092 1.7694
9.2908 4.0478 1.7655
8.8693 4.8487 1.7609
8.3762 5.6047 1.7558
7.8167 6.3095 1.7500
7.1965 6.9574 1.7438
6.5215 7.5432 1.7371
5.3360 7.4197 1.5921
1.0668 1.8038 0.3651
0.9013 1.8917 0.3650
0.7288 1.9644 0.3650
0.5504 2.0215 0.3650
0.3677 2.0625 0.3650
0.1821 2.0870 0.3650
-0.0050 2.0949 0.3650
-0.1920 2.0862 0.3650
-0.3775 2.0608 0.3650
-0.5601 2.0190 0.3650
-0.7382 1.9611 0.3651
-0.9104 1.8876 0.3651
-5.4770 9.1617 1.8595
-6.2075 8.5457 1.8401
-6.4444 7.3830 1.7073
-7.0850 6.7849 1.7090
-7.6695 6.1308 1.7105
-8.1929 5.4260 1.7119
-8.4152 4.5487 1.6665
-9.0302 3.8834 1.7125
-9.3409 3.0616 1.7125
-9.5769 2.2154 1.7125
-9.7365 1.3514 1.7125
-9.8183 0.4767 1.7125
-9.8216 -0.4019 1.7125
-9.7465 -1.2772 1.7125
-9.5935 -2.1423 1.7125
-9.3639 -2.9904 1.7125
-9.0595 -3.8145 1.7125
-8.6828 -4.6082 1.7125
-8.2343 -5.3635 1.7120
-7.7141 -6.0707 1.7101
-7.1323 -6.7267 1.7080
-7.0803 -7.9877 1.8595
-6.3448 -8.5961 1.8613
-1.0947 -1.7999 0.3670
-0.9298 -1.8907 0.3670
-0.7573 -1.9663 0.3671
-0.5787 -2.0262 0.3671
-0.3955 -2.0699 0.3671
-0.2091 -2.0970 0.3671
-0.0211 -2.1073 0.3671
0.1672 -2.1008 0.3671
0.3541 -2.0773 0.3671
0.5381 -2.0373 0.3671
0.7178 -1.9809 0.3671
0.8917 -1.9087 0.3670
1.0584 -1.8212 0.3670
5.7855 -8.1756 1.7448
6.5212 -7.6603 1.7526
7.2075 -7.0752 1.7595
7.8219 -6.4128 1.7621
8.3842 -5.7031 1.7665
8.8788 -4.9422 1.7703
9.3006 -4.1368 1.7733
9.6455 -3.2942 1.7756
9.9098 -2.4219 1.7772
4.5888 -0.6949 0.8085
4.5522 -0.2775 0.7945
4.8920 0.1396 0.8526
10.1221 1.1992 1.7757
9.9617 2.0955 1.7734
9.7182 2.9715 1.7704
9.3942 3.8193 1.7667
8.9933 4.6313 1.7623
8.5195 5.4003 1.7572
7.9779 6.1199 1.7517
7.3738 6.7841 1.7456
6.7134 7.3876 1.7390
6.0029 7.9258 1.7321
1.1111 1.7769 0.3651
0.9479 1.8688 0.3651
0.7772 1.9458 0.3650
0.6003 2.0073 0.3650
0.4186 2.0528 0.3650
0.2337 2.0819 0.3650
0.0469 2.0944 0.3650
-0.1403 2.0903 0.3650
-0.3264 2.0695 0.3650
-0.5099 2.0322 0.3650
-0.6894 1.9787 0.3650
-0.8634 1.9095 0.3651
-1.0306 1.8250 0.3651
-6.0576 8.7886 1.8595
-6.2593 7.5396 1.7071
-6.9131 6.9562 1.7085
-7.5136 6.3171 1.7101
-8.0545 5.6258 1.7116
-8.5291 4.8867 1.7125
-8.8750 4.0797 1.7017
-9.2623 3.2917 1.7125
-9.5192 2.4516 1.7125
-9.7001 1.5919 1.7125
-9.8035 0.7194 1.7125
-9.8285 -0.1588 1.7125
-9.7751 -1.0357 1.7125
-9.6436 -1.9044 1.7125
-9.4350 -2.7578 1.7125
-9.1511 -3.5892 1.7125
-8.7941 -4.3920 1.7125
-8.3610 -5.1560 1.7113
-7.8645 -5.8799 1.7107
-7.2991 -6.5506 1.7086
-7.2178 -7.7480 1.8447
-6.5525 -8.4327 1.8604
-5.7839 -9.0004 1.8638
-0.9762 -1.8671 0.3670
-0.8057 -1.9470 0.3671
-0.6287 -2.0113 0.3671
-0.4466 -2.0595 0.3671
-0.2610 -2.0912 0.3671
-0.0732 -2.1062 0.3671
0.1152 -2.1043 0.3671
0.3026 -2.0855 0.3671
0.4875 -2.0500 0.3671
0.6686 -1.9981 0.3671
0.8442 -1.9302 0.3670
1.0131 -1.8469 0.3670
5.5734 -8.3041 1.7423
6.3217 -7.8093 1.7504
7.0317 -7.2529 1.7599
7.6550 -6.5993 1.7607
8.2351 -5.9048 1.7653
8.7490 -5.1575 1.7693
9.1914 -4.3637 1.7725
9.5580 -3.5306 1.7751
9.8449 -2.6658 1.7769
4.6190 -0.8168 0.8172
4.5474 -0.3903 0.7951
4.7990 0.0181 0.8360
10.1516 0.9487 1.7762
10.0145 1.8492 1.7741
9.7938 2.7316 1.7713
9.4917 3.5880 1.7678
9.1117 4.4106 1.7635
8.6576 5.1922 1.7587
8.1343 5.9261 1.7533
7.5469 6.6062 1.7473
6.9014 7.2270 1.7409
5.4159 6.7948 1.5138
5.4614 8.2717 1.7268
0.9939 1.8449 0.3651
0.8251 1.9260 0.3650
0.6498 1.9919 0.3650
0.4693 2.0418 0.3650
0.2851 2.0755 0.3650
0.0987 2.0926 0.3650
-0.0886 2.0931 0.3650
-0.2751 2.0769 0.3650
-0.4595 2.0442 0.3650
-0.6402 1.9951 0.3650
-0.8159 1.9302 0.3651
-0.9851 1.8499 0.3651
-5.8383 8.9358 1.8595
-6.2232 7.8851 1.7500
-6.7371 7.1231 1.7080
-7.3532 6.4994 1.7097
-7.9111 5.8220 1.7112
-8.4056 5.0962 1.7125
-8.4378 4.1345 1.6369
-9.1780 3.5199 1.7125
-9.4556 2.6863 1.7125
-9.6577 1.8313 1.7125
-9.7827 0.9617 1.7125
-9.8295 0.0844 1.7125
-9.7977 -0.7936 1.7125
-9.6877 -1.6653 1.7125
-9.5004 -2.5236 1.7125
-9.2371 -3.3618 1.7125
-8.9001 -4.1731 1.7125
-8.3875 -4.8902 1.6914
-8.0100 -5.6853 1.7112
-7.4616 -6.3703 1.7092
-6.8548 -7.0026 1.7071
-6.7571 -8.2656 1.8599
-6.0011 -8.8491 1.8627
-1.0221 -1.8423 0.3670
-0.8536 -1.9264 0.3671
-0.6782 -1.9951 0.3671
-0.4974 -2.0478 0.3671
-0.3126 -2.0841 0.3671
-0.1253 -2.1037 0.3671
0.0631 -2.1065 0.3671
0.2509 -2.0924 0.3671
0.4367 -2.0615 0.3671
0.6190 -2.0141 0.3671
0.7962 -1.9506 0.3670
0.9671 -1.8715 0.3670
5.3607 -8.4307 1.7405
6.1185 -7.9528 1.7480
6.8396 -7.4131 1.7572
7.4836 -6.7813 1.7594
8.0810 -6.1025 1.7641
8.6137 -5.3692 1.7683
9.0764 -4.5876 1.7717
9.4644 -3.7647 1.7744
9.7737 -2.9078 1.7764
4.7454 -0.9608 0.8435
4.5399 -0.5031 0.7957
4.7559 -0.0997 0.8287
10.1745 0.6975 1.7767
10.0609 1.6015 1.7748
9.8631 2.4897 1.7722
9.5833 3.3540 1.7688
9.2244 4.1868 1.7648
8.7904 4.9804 1.7601
8.2857 5.7282 1.7548
7.7155 6.4237 1.7490
7.0855 7.0614 1.7427
6.4019 7.6363 1.7360
4.9341 7.0854 1.5042
1.0392 1.8198 0.3651
0.8725 1.9051 0.3650
0.6989 1.9752 0.3650
0.5197 2.0296 0.3650
0.3364 2.0678 0.3650
0.1504 2.0895 0.3650
-0.0368 2.0946 0.3650
-0.2237 2.0830 0.3650
-0.4088 2.0549 0.3650
-0.5907 2.0103 0.3650
-0.7679 1.9497 0.3651
-0.9390 1.8736 0.3651
-5.6155 9.0775 1.8595
-6.2137 8.2866 1.8044
-6.5569 7.2856 1.7076
-7.1884 6.6776 1.7092
-7.7628 6.0145 1.7108
-8.2755 5.3016 1.7121
-8.4183 4.3865 1.6537
-9.0881 3.7458 1.7125
-9.3863 2.9194 1.7125
-9.6095 2.0697 1.7125
-9.7559 1.2034 1.7125
-9.8244 0.3275 1.7125
-9.8144 -0.5509 1.7125
-9.7260 -1.4251 1.7125
-9.5599 -2.2878 1.7125
-9.3174 -3.1322 1.7125
-9.0006 -3.9516 1.7125
-8.4413 -4.6456 1.6786
-8.1506 -5.4870 1.7117
-7.6195 -6.1859 1.7098
-7.0278 -6.8328 1.7076
-6.9582 -8.0943 1.8595
-6.2148 -8.6933 1.8617
-1.0673 -1.8164 0.3670
-0.9009 -1.9046 0.3671
-0.7274 -1.9776 0.3671
-0.5479 -2.0348 0.3671
-0.3641 -2.0757 0.3671
-0.1773 -2.1000 0.3671
0.0109 -2.1074 0.3671
0.1991 -2.0980 0.3671
0.3856 -2.0717 0.3671
0.5690 -2.0289 0.3671
0.7478 -1.9698 0.3670
0.9205 -1.8949 0.3670
5.1445 -8.5508 1.7385
5.9141 -8.0937 1.7463
6.6433 -7.5677 1.7543
7.3131 -6.9640 1.7593
7.9219 -6.2961 1.7629
8.4731 -5.5772 1.7672
8.9557 -4.8083 1.7708
9.3647 -3.9961 1.7738
9.6962 -3.1479 1.7760
4.8731 -1.1128 0.8708
4.5696 -0.6212 0.8034
4.5550 -0.2083 0.7944
4.9056 0.2146 0.8554
10.1008 1.3526 1.7754
9.9262 2.2460 1.7730
9.6688 3.1177 1.7698
9.3314 3.9599 1.7660
8.9178 4.7651 1.7615
8.4321 5.5263 1.7563
7.8795 6.2368 1.7507
7.2655 6.8911 1.7445
6.5960 7.4838 1.7379
5.3949 7.3524 1.5887
1.0840 1.7936 0.3651
0.9194 1.8830 0.3650
0.7475 1.9574 0.3650
0.5697 2.0162 0.3650
0.3874 2.0589 0.3650
0.2020 2.0852 0.3650
0.0150 2.0949 0.3650
-0.1721 2.0879 0.3650
-0.3578 2.0643 0.3650
-0.5408 2.0243 0.3650
-0.7194 1.9681 0.3650
-0.8923 1.8962 0.3651
-1.0582 1.8092 0.3651
-6.1904 8.6956 1.8595
-6.3731 7.4436 1.7071
-7.0191 6.8516 1.7088
-7.6099 6.2032 1.7104
-8.1401 5.5035 1.7118
-8.4148 4.6529 1.6751
-8.9927 3.9695 1.7125
-9.3112 3.1507 1.7125
-9.5553 2.3068 1.7125
-9.7231 1.4444 1.7125
-9.8133 0.5704 1.7125
-9.8250 -0.3080 1.7125
-9.7583 -1.1841 1.7125
-9.6136 -2.0506 1.7125
-9.3921 -2.9008 1.7125
-9.0956 -3.7278 1.7125
-8.7264 -4.5250 1.7125
-8.2860 -5.2851 1.7121
-7.7727 -5.9975 1.7103
-7.1973 -6.6592 1.7082
-7.1563 -7.9198 1.8595
-6.4253 -8.5334 1.8609
-5.6497 -9.0923 1.8649
-0.9478 -1.8817 0.3670
-0.7760 -1.9590 0.3671
-0.5981 -2.0206 0.3671
-0.4153 -2.0661 0.3671
-0.2292 -2.0949 0.3671
-0.0412 -2.1070 0.3671
0.1471 -2.1023 0.3671
0.3342 -2.0806 0.3671
0.5186 -2.0424 0.3671
0.6988 -1.9877 0.3671
0.8734 -1.9172 0.3670
1.0410 -1.8313 0.3670
5.7034 -8.2250 1.7437
6.4454 -7.7193 1.7519
7.1402 -7.1443 1.7596
7.7580 -6.4853 1.7616
8.3272 -5.7814 1.7660
8.8293 -5.0257 1.7699
9.2592 -4.2247 1.7730
9.6124 -3.3857 1.7754
9.8855 -2.5163 1.7771
4.6009 -0.7418 0.8119
4.5504 -0.3210 0.7947
4.8518 0.0921 0.8454
10.1343 1.1026 1.7759
9.9829 2.0006 1.7737
9.7481 2.8791 1.7707
9.4326 3.7303 1.7671
9.0396 4.5465 1.7628
8.5735 5.3204 1.7578
8.0388 6.0456 1.7523
7.4412 6.7160 1.7462
6.7864 7.3262 1.7397
5.3402 6.9126 1.5218
5.3264 8.3401 1.7240
0.9657 1.8597 0.3651
0.7957 1.9383 0.3650
0.6194 2.0015 0.3650
0.4382 2.0487 0.3650
0.2535 2.0796 0.3650
0.0669 2.0939 0.3650
-0.1204 2.0915 0.3650
-0.3067 2.0725 0.3650
-0.4905 2.0370 0.3650
-0.6705 1.9852 0.3650
-0.8451 1.9176 0.3651
-1.0131 1.8347 0.3651
-5.9734 8.8461 1.8595
-6.2311 7.6531 1.7193
-6.8456 7.0212 1.7083
-7.4522 6.3880 1.7099
-7.9997 5.7019 1.7114
-8.4821 4.9679 1.7125
-8.6544 4.0789 1.6668
-9.2304 3.3801 1.7125
-9.4953 2.5424 1.7125
-9.6844 1.6845 1.7125
-9.7961 0.8130 1.7125
-9.8296 -0.0649 1.7125
-9.7846 -0.9423 1.7125
-9.6613 -1.8122 1.7125
-9.4610 -2.6676 1.7125
-9.1850 -3.5017 1.7125
-8.8357 -4.3078 1.7125
-8.3713 -5.0527 1.7034
-7.9213 -5.8052 1.7109
-7.3624 -6.4815 1.7088
-6.8578 -7.2220 1.7350
-6.6321 -8.3689 1.8603
-5.8686 -8.9432 1.8635
-0.9940 -1.8576 0.3670
-0.8242 -1.9392 0.3671
-0.6479 -2.0052 0.3671
-0.4663 -2.0551 0.3671
-0.2809 -2.0886 0.3671
-0.0933 -2.1054 0.3671
0.0950 -2.1053 0.3671
0.2826 -2.0883 0.3671
0.4679 -2.0546 0.3671
0.6495 -2.0044 0.3671
0.8258 -1.9382 0.3670
0.9954 -1.8565 0.3670
5.4917 -8.3536 1.7416
6.2430 -7.8645 1.7493
6.9588 -7.3162 1.7590
7.5894 -6.6701 1.7602
8.1762 -5.9817 1.7649
8.6974 -5.2396 1.7689
9.1477 -4.4505 1.7722
9.5226 -3.6213 1.7748
9.8181 -2.7595 1.7767
4.6669 -0.8714 0.8271
4.5455 -0.4339 0.7955
4.7823 -0.0276 0.8331
10.1612 0.8518 1.7764
10.0332 1.7537 1.7744
9.8213 2.6384 1.7716
9.5278 3.4980 1.7682
9.1559 4.3245 1.7640
8.7095 5.1109 1.7592
8.1933 5.8502 1.7539
7.6125 6.5363 1.7480
6.9729 7.1637 1.7416
5.5290 6.8023 1.5271
4.8589 7.2086 1.5145
1.0115 1.8353 0.3651
0.8435 1.9181 0.3650
0.6688 1.9856 0.3650
0.4888 2.0372 0.3650
0.3049 2.0727 0.3650
0.1186 2.0916 0.3650
-0.0686 2.0938 0.3650
-0.2553 2.0794 0.3650
-0.4400 2.0484 0.3650
-0.6211 2.0011 0.3650
-0.7974 1.9379 0.3651
-0.9674 1.8592 0.3651
-5.7527 8.9911 1.8595
-6.2196 8.0372 1.7705
-6.6680 7.1864 1.7079
-7.2901 6.5687 1.7095
-7.8544 5.8968 1.7110
-8.3561 5.1759 1.7124
-8.4234 4.2278 1.6419
-9.1440 3.6074 1.7125
-9.4295 2.7765 1.7125
-9.6398 1.9235 1.7125
-9.7730 1.0551 1.7125
-9.8282 0.1783 1.7125
-9.8049 -0.7000 1.7125
-9.7032 -1.5726 1.7125
-9.5240 -2.4327 1.7125
-9.2688 -3.2734 1.7125
-8.9395 -4.0879 1.7125
-8.3976 -4.7892 1.6841
-8.0649 -5.6092 1.7114
-7.5231 -6.2996 1.7094
-6.9216 -6.9372 1.7072
-6.8352 -8.2000 1.8597
-6.0844 -8.7900 1.8624
-1.0396 -1.8324 0.3670
-0.8719 -1.9181 0.3671
-0.6972 -1.9885 0.3671
-0.5169 -2.0429 0.3671
-0.3325 -2.0810 0.3671
-0.1454 -2.1024 0.3671
0.0429 -2.1070 0.3671
0.2309 -2.0947 0.3671
0.4170 -2.0656 0.3671
0.5997 -2.0199 0.3671
0.7776 -1.9581 0.3670
0.9492 -1.8807 0.3670
5.2777 -8.4778 1.7397
6.0400 -8.0079 1.7474
6.7644 -7.4736 1.7561
7.4170 -6.8512 1.7590
8.0202 -6.1778 1.7636
8.5601 -5.4499 1.7678
9.0305 -4.6732 1.7714
9.4266 -3.8543 1.7742
9.7445 -3.0008 1.7763
4.7962 -1.0189 0.8542
4.5491 -0.5481 0.7982
4.7394 -0.1446 0.8260
4.9419 0.2914 0.8624
10.0771 1.5055 1.7750
9.8882 2.3958 1.7725
9.6170 3.2631 1.7692
9.2664 4.0995 1.7652
8.8402 4.8977 1.7606
8.3429 5.6507 1.7554
7.7794 6.3521 1.7497
7.1555 6.9962 1.7434
6.4773 7.5780 1.7367
5.3359 7.5086 1.6047
1.0566 1.8098 0.3651
0.8907 1.8967 0.3650
0.7177 1.9685 0.3650
0.5390 2.0246 0.3650
0.3561 2.0645 0.3650
0.1703 2.0880 0.3650
-0.0168 2.0949 0.3650
-0.2038 2.0851 0.3650
-0.3891 2.0587 0.3650
-0.5714 2.0158 0.3650
-0.7492 1.9570 0.3651
-0.9211 1.8825 0.3651
-5.5286 9.1307 1.8595
-6.2098 8.4483 1.8266
-6.4863 7.3470 1.7074
-7.1235 6.7453 1.7091
-7.7044 6.0878 1.7106
-8.2238 5.3799 1.7120
-8.4160 4.4880 1.6616
-9.0519 3.8325 1.7125
-9.3580 3.0089 1.7125
-9.5893 2.1613 1.7125
-9.7439 1.2965 1.7125
-9.8208 0.4213 1.7125
-9.8192 -0.4572 1.7125
-9.7392 -1.3321 1.7125
-9.5813 -2.1964 1.7125
-9.3469 -3.0431 1.7125
-9.0379 -3.8655 1.7125
-8.6567 -4.6570 1.7125
-8.2035 -5.4095 1.7119
-7.6792 -6.1136 1.7100
-7.0937 -6.7663 1.7078
-7.0352 -8.0275 1.8595
-6.2967 -8.6324 1.8614
-1.0846 -1.8061 0.3670
-0.9191 -1.8959 0.3671
-0.7462 -1.9706 0.3671
-0.5673 -2.0295 0.3671
-0.3839 -2.0721 0.3671
-0.1973 -2.0982 0.3671
-0.0092 -2.1074 0.3671
0.1790 -2.0998 0.3671
0.3658 -2.0753 0.3671
0.5496 -2.0342 0.3671
0.7289 -1.9768 0.3671
0.9024 -1.9036 0.3670
1.0686 -1.8152 0.3670
5.8338 -8.1460 1.7455
6.5665 -7.6259 1.7532
7.2469 -7.0341 1.7594
7.8592 -6.3697 1.7624
8.4174 -5.6565 1.7667
8.9076 -4.8926 1.7705
9.3247 -4.0847 1.7735
9.6646 -3.2400 1.7758
9.9237 -2.3661 1.7773
4.5816 -0.6674 0.8066
4.5532 -0.2518 0.7944
4.9074 0.1677 0.8554
10.1145 1.2562 1.7756
9.9488 2.1514 1.7733
9.7001 3.0259 1.7702
9.3712 3.8716 1.7664
8.9655 4.6811 1.7620
8.4873 5.4472 1.7569
9.7656 1.0069 1.7727
9.6254 1.8726 1.7706
9.4049 2.7202 1.7678
9.1065 3.5421 1.7643
8.7334 4.3309 1.7602
8.2895 5.0797 1.7555
7.7794 5.7821 1.7502
7.2081 6.4323 1.7444
6.5814 7.0250 1.7382
5.3404 6.8330 1.5659
1.0980 1.6981 0.3651
0.9419 1.7892 0.3651
0.7783 1.8660 0.3651
0.6086 1.9279 0.3650
0.4340 1.9744 0.3650
0.2560 2.0052 0.3650
0.0759 2.0200 0.3650
-0.1048 2.0188 0.3650
-0.2846 2.0014 0.3650
-0.4622 1.9681 0.3650
-0.6361 1.9191 0.3651
-0.8050 1.8549 0.3651
-0.9676 1.7758 0.3652
-5.7150 8.5671 1.8595
-6.2156 7.7226 1.7900
-6.5635 6.8082 1.7076
-7.1518 6.2007 1.7091
-7.6833 5.5420 1.7106
-8.1534 4.8374 1.7118
-8.5284 4.0784 1.7070
-8.8871 3.3113 1.7125
-9.1472 2.5045 1.7125
-9.3343 1.6778 1.7125
-9.4469 0.8377 1.7125
-9.4839 -0.0091 1.7125
-9.4452 -0.8559 1.7125
-9.3311 -1.6958 1.7125
-9.1424 -2.5222 1.7125
-8.8807 -3.3284 1.7125
-8.5480 -4.1081 1.7125
-8.1441 -4.8531 1.7118
-7.6719 -5.5562 1.7104
-7.1373 -6.2123 1.7085
-6.7257 -7.0034 1.7533
-6.4428 -8.0366 1.8599
-5.7070 -8.5910 1.8623
-0.9690 -1.7866 0.3670
-0.8057 -1.8662 0.3670
-0.6359 -1.9308 0.3671
-0.4610 -1.9800 0.3671
-0.2824 -2.0133 0.3671
-0.1015 -2.0305 0.3671
0.0802 -2.0315 0.3671
0.2613 -2.0161 0.3671
0.4402 -1.9846 0.3671
0.6156 -1.9372 0.3670
0.7861 -1.8743 0.3670
0.9502 -1.7964 0.3670
5.2366 -8.0644 1.7362
5.9632 -7.5996 1.7442
6.6550 -7.0762 1.7540
7.2781 -6.4696 1.7583
7.8416 -5.8050 1.7617
8.3471 -5.0929 1.7656
8.7846 -4.3353 1.7688
9.1498 -3.5387 1.7714
9.4390 -2.7104 1.7732
4.6520 -0.8957 0.8554
4.5268 -0.4579 0.8215
4.7623 -0.0543 0.8600
9.7900 0.7652 1.7731
9.6723 1.6345 1.7712
9.4738 2.4879 1.7686
9.1967 3.3177 1.7653
8.8439 4.1164 1.7614
8.4192 4.8769 1.7568
7.9269 5.5928 1.7517
7.3720 6.2579 1.7461
6.7600 6.8670 1.7399
6.0970 7.4153 1.7334
4.8531 7.1131 1.5548
0.9859 1.7654 0.3651
0.8243 1.8462 0.3651
0.6561 1.9122 0.3650
0.4827 1.9631 0.3650
0.3055 1.9983 0.3650
0.1258 2.0175 0.3650
-0.0548 2.0207 0.3650
-0.2350 2.0078 0.3650
-0.4134 1.9789 0.3650
-0.5885 1.9342 0.3651
-0.7589 1.8742 0.3651
-0.9233 1.7991 0.3651
-5.5013 8.7059 1.8595
-6.2060 8.1138 1.8445
-6.3940 6.9697 1.7078
-6.9945 6.3742 1.7087
-7.5422 5.7291 1.7102
-8.0297 5.0366 1.7115
-8.4162 4.2837 1.7052
-8.8024 3.5301 1.7125
-9.0825 2.7301 1.7125
-9.2900 1.9082 1.7125
-9.4232 1.0711 1.7125
-9.4812 0.2254 1.7125
-9.4635 -0.6220 1.7125
-9.3702 -1.4645 1.7125
-9.2020 -2.2953 1.7125
-8.9603 -3.1077 1.7125
-8.6470 -3.8953 1.7125
-8.2632 -4.6510 1.7122
-7.8090 -5.3662 1.7109
-7.2912 -6.0357 1.7091
-6.7154 -6.6550 1.7071
-6.6387 -7.8736 1.8596
-5.9145 -8.4425 1.8613
-1.0129 -1.7621 0.3670
-0.8516 -1.8457 0.3670
-0.6834 -1.9145 0.3671
-0.5098 -1.9680 0.3671
-0.3321 -2.0057 0.3671
-0.1517 -2.0274 0.3671
0.0300 -2.0328 0.3671
0.2114 -2.0220 0.3671
0.3910 -1.9949 0.3671
0.5675 -1.9519 0.3670
0.7395 -1.8933 0.3670
0.9055 -1.8195 0.3670
1.0642 -1.7311 0.3669
5.7675 -7.7369 1.7424
6.4653 -7.2246 1.7506
7.1173 -6.6491 1.7587
7.6904 -5.9932 1.7605
8.2138 -5.2948 1.7646
8.6706 -4.5491 1.7680
9.0562 -3.7626 1.7707
9.3668 -2.9424 1.7728
4.8408 -1.0569 0.8947
4.5384 -0.5728 0.8260
4.7198 -0.1707 0.8528
4.8517 0.2586 0.8773
9.7130 1.3952 1.7718
9.5367 2.2538 1.7694
9.2811 3.0909 1.7663
8.9489 3.8989 1.7626
8.5436 4.6706 1.7582
8.0696 5.3995 1.7532
7.5315 6.0793 1.7477
6.9347 6.7044 1.7417
6.2852 7.2699 1.7353
5.3450 7.4322 1.6530
1.0293 1.7405 0.3651
0.8697 1.8253 0.3651
0.7032 1.8955 0.3650
0.5311 1.9506 0.3650
0.3548 1.9901 0.3650
0.1757 2.0138 0.3650
-0.0048 2.0214 0.3650
-0.1853 2.0130 0.3650
-0.3643 1.9885 0.3650
-0.5404 1.9482 0.3651
-0.7123 1.8923 0.3651
-0.8785 1.8214 0.3651
-1.0377 1.7359 0.3652
-6.0524 8.3322 1.8595
-6.2370 7.1453 1.7126
-6.8330 6.5436 1.7083
-7.3964 5.9126 1.7098
-7.9011 5.2327 1.7112
-8.3425 4.5094 1.7123
-8.7124 3.7468 1.7125
-9.0122 2.9539 1.7125
-9.2399 2.1374 1.7125
-9.3939 1.3039 1.7125
-9.4728 0.4599 1.7125
-9.4760 -0.3877 1.7125
-9.4035 -1.2323 1.7125
-9.2560 -2.0669 1.7125
-9.0344 -2.8851 1.7125
-8.7408 -3.6803 1.7125
-8.3772 -4.4460 1.7125
-7.9413 -5.1726 1.7113
-7.4405 -5.8553 1.7096
-6.8800 -6.4888 1.7076
-6.8312 -7.7067 1.8595
-6.1192 -8.2905 1.8606
-1.0561 -1.7364 0.3670
-0.8970 -1.8240 0.3670
-0.7306 -1.8970 0.3670
-0.5583 -1.9547 0.3671
-0.3816 -1.9969 0.3671
-0.2018 -2.0230 0.3671
-0.0203 -2.0330 0.3671
0.1613 -2.0266 0.3671
0.3416 -2.0040 0.3671
0.5191 -1.9654 0.3671
0.6924 -1.9110 0.3670
0.8602 -1.8414 0.3670
1.0211 -1.7570 0.3669
5.5685 -7.8690 1.7406
6.2767 -7.3730 1.7484
6.9505 -6.8229 1.7586
7.5345 -6.1772 1.7592
8.0754 -5.4930 1.7635
8.5511 -4.7598 1.7671
8.9569 -3.9839 1.7701
9.2885 -3.1723 1.7723
9.5428 -2.3322 1.7738
4.5694 -0.6920 0.8345
4.5346 -0.2764 0.8203
4.7355 0.1351 0.8554
9.7475 1.1549 1.7724
9.5935 2.0180 1.7702
9.3596 2.8619 1.7672
9.0483 3.6786 1.7637
8.6629 4.4611 1.7594
8.2074 5.2025 1.7546
7.6865 5.8964 1.7492
7.1054 6.5372 1.7434
6.4699 7.1196 1.7371
5.7901 7.6448 1.7316
1.0721 1.7146 0.3651
0.9146 1.8032 0.3651
0.7499 1.8775 0.3651
0.5792 1.9369 0.3650
0.4039 1.9807 0.3650
0.2255 2.0088 0.3650
0.0452 2.0209 0.3650
-0.1354 2.0169 0.3650
-0.3150 1.9969 0.3650
-0.4920 1.9609 0.3650
-0.6652 1.9093 0.3651
-0.8331 1.8425 0.3651
-0.9944 1.7609 0.3652
-5.8444 8.4794 1.8595
-6.2210 7.4935 1.7586
-6.6673 6.7089 1.7079
-7.2462 6.0923 1.7094
-7.7676 5.4254 1.7108
-8.2269 4.7135 1.7120
-8.6171 3.9611 1.7125
-8.9363 3.1759 1.7125
-9.1842 2.3653 1.7125
-9.3587 1.5359 1.7125
-9.4585 0.6941 1.7125
-9.4827 -0.1532 1.7125
-9.4311 -0.9993 1.7125
-9.3043 -1.8373 1.7125
-9.1030 -2.6608 1.7125
-8.8291 -3.4629 1.7125
-8.4847 -4.2374 1.7125
-8.0685 -4.9757 1.7116
-7.5853 -5.6711 1.7101
-7.0407 -6.3187 1.7082
-7.0197 -7.5353 1.8595
-6.3207 -8.1343 1.8600
-1.0987 -1.7097 0.3670
-0.9418 -1.8012 0.3670
-0.7773 -1.8783 0.3670
-0.6065 -1.9403 0.3671
-0.4309 -1.9868 0.3671
-0.2517 -2.0174 0.3671
-0.0706 -2.0318 0.3671
0.1111 -2.0300 0.3671
0.2919 -2.0119 0.3671
0.4703 -1.9777 0.3671
0.6450 -1.9276 0.3670
0.8144 -1.8621 0.3670
0.9773 -1.7818 0.3669
5.3644 -7.9927 1.7381
6.0835 -7.5150 1.7458
6.7686 -6.9814 1.7558
7.3740 -6.3571 1.7580
7.9321 -5.6875 1.7624
8.4263 -4.9673 1.7662
8.8519 -4.2025 1.7693
9.2044 -3.4000 1.7717
9.4803 -2.5671 1.7735
4.6006 -0.8136 0.8436
4.5298 -0.3888 0.8209
4.7374 0.0179 0.8554
9.7758 0.9136 1.7729
9.6442 1.7808 1.7708
9.4322 2.6308 1.7681
9.1420 3.4557 1.7647
8.7767 4.2484 1.7607
8.3402 5.0018 1.7560
7.8369 5.7095 1.7508
7.2719 6.3655 1.7450
6.6508 6.9646 1.7389
5.4023 6.7778 1.5650
5.2543 7.9580 1.7219
0.9590 1.7801 0.3651
0.7961 1.8585 0.3651
0.6270 1.9220 0.3650
0.4528 1.9702 0.3650
0.2751 2.0027 0.3650
0.0952 2.0192 0.3650
-0.0855 2.0197 0.3650
-0.2655 2.0040 0.3650
-0.4434 1.9724 0.3650
-0.6178 1.9251 0.3651
-0.7873 1.8625 0.3651
-0.9505 1.7849 0.3651
-5.6329 8.6213 1.8595
-6.2120 7.8708 1.8105
-6.4976 6.8699 1.7074
-7.0916 6.2681 1.7090
-7.6293 5.6146 1.7104
-8.1062 4.9147 1.7117
-8.4262 4.1289 1.6943
-8.8550 3.3960 1.7125
-9.1229 2.5918 1.7125
-9.3179 1.7669 1.7125
-9.4384 0.9279 1.7125
-9.4836 0.0814 1.7125
-9.4530 -0.7657 1.7125
-9.3469 -1.6066 1.7125
-9.1661 -2.4348 1.7125
-8.9121 -3.2435 1.7125
-8.5869 -4.0262 1.7125
-8.1907 -4.7754 1.7120
-7.7254 -5.4833 1.7106
-7.1972 -6.1446 1.7088
-6.6269 -6.7698 1.7106
-6.5189 -7.9743 1.8598
-5.7873 -8.5339 1.8618
-0.9860 -1.7773 0.3670
-0.8235 -1.8584 0.3670
-0.6543 -1.9247 0.3671
-0.4799 -1.9755 0.3671
-0.3016 -2.0106 0.3671
-0.1208 -2.0295 0.3671
0.0608 -2.0321 0.3671
0.2420 -2.0185 0.3671
0.4213 -1.9887 0.3671
0.5971 -1.9430 0.3670
0.7681 -1.8818 0.3670
0.9330 -1.8055 0.3670
5.1573 -8.1108 1.7355
5.8876 -7.6526 1.7434
6.5827 -7.1347 1.7528
7.2166 -6.5394 1.7585
7.7838 -5.8781 1.7612
8.2962 -5.1713 1.7652
8.7412 -4.4182 1.7685
9.1143 -3.6254 1.7711
9.4118 -2.8002 1.7731
4.7034 -0.9523 0.8665
4.5236 -0.5013 0.8218
4.7459 -0.0995 0.8571
9.7978 0.6717 1.7733
9.6888 1.5423 1.7715
9.4988 2.3977 1.7689
9.2299 3.2304 1.7657
8.8851 4.0327 1.7618
8.4678 4.7977 1.7573
7.9825 5.5186 1.7523
7.4341 6.1894 1.7467
6.8280 6.8048 1.7406
6.1700 7.3598 1.7341
4.9180 7.0624 1.5540
1.0028 1.7559 0.3651
0.8419 1.8382 0.3651
0.6743 1.9059 0.3650
0.5014 1.9584 0.3650
0.3246 1.9952 0.3650
0.1451 2.0162 0.3650
-0.0355 2.0211 0.3650
-0.2158 2.0100 0.3650
-0.3944 1.9828 0.3650
-0.5699 1.9398 0.3651
-0.7409 1.8813 0.3651
-0.9061 1.8078 0.3651
-1.0640 1.7200 0.3652
-6.1782 8.2393 1.8595
-6.3246 7.0274 1.7071
-6.9326 6.4400 1.7086
-7.4864 5.8003 1.7100
-7.9806 5.1127 1.7114
-8.4106 4.3825 1.7125
-8.7683 3.6140 1.7125
-9.0560 2.8167 1.7125
-9.2713 1.9968 1.7125
-9.4126 1.1611 1.7125
-9.4787 0.3160 1.7125
-9.4690 -0.5316 1.7125
-9.3837 -1.3749 1.7125
-9.2235 -2.2073 1.7125
-8.9896 -3.0220 1.7125
-8.6839 -3.8126 1.7125
-8.3079 -4.5722 1.7123
-7.8607 -5.2919 1.7110
-7.3493 -5.9665 1.7093
-6.7793 -6.5911 1.7073
-6.7133 -7.8095 1.8595
-5.9943 -8.3848 1.8611
-1.0296 -1.7523 0.3670
-0.8692 -1.8374 0.3670
-0.7017 -1.9079 0.3671
-0.5286 -1.9630 0.3671
-0.3512 -2.0025 0.3671
-0.1710 -2.0259 0.3671
0.0106 -2.0330 0.3671
0.1920 -2.0239 0.3671
0.3720 -1.9986 0.3671
0.5489 -1.9573 0.3670
0.7214 -1.9003 0.3670
0.8881 -1.8281 0.3670
1.0476 -1.7412 0.3669
5.6911 -7.7885 1.7418
6.3932 -7.2828 1.7498
7.0541 -6.7173 1.7588
7.6308 -6.0647 1.7600
8.1610 -5.3718 1.7642
8.6251 -4.6308 1.7677
9.0185 -3.8483 1.7705
9.3373 -3.0314 1.7726
9.5781 -2.1873 1.7740
4.5503 -0.6185 0.8292
4.5374 -0.2075 0.8201
4.8028 0.2101 0.8680
9.7271 1.3025 1.7720
9.5594 2.1630 1.7697
9.3121 3.0027 1.7667
8.9879 3.8141 1.7630
8.5903 4.5901 1.7587
8.1234 5.3239 1.7537
7.5919 6.0092 1.7483
7.0011 6.6404 1.7423
6.3569 7.2125 1.7360
5.4010 7.3607 1.6485
1.0459 1.7306 0.3651
0.8871 1.8169 0.3651
0.7213 1.8887 0.3651
0.5497 1.9454 0.3650
0.3738 1.9866 0.3650
0.1949 2.0120 0.3650
0.0145 2.0214 0.3650
-0.1660 2.0147 0.3650
-0.3453 1.9919 0.3650
-0.5218 1.9532 0.3650
-0.6942 1.8990 0.3651
-0.8610 1.8296 0.3651
-1.0211 1.7457 0.3652
-5.9726 8.3896 1.8595
-6.2263 7.2721 1.7286
-6.7695 6.6079 1.7081
-7.3390 5.9824 1.7096
-7.8501 5.3075 1.7110
-8.2984 4.5885 1.7122
-8.6762 3.8298 1.7125
-8.9835 3.0398 1.7125
-9.2191 2.2256 1.7125
-9.3810 1.3936 1.7125
-9.4679 0.5503 1.7125
-9.4793 -0.2972 1.7125
-9.4149 -1.1424 1.7125
-9.2753 -1.9784 1.7125
-9.0616 -2.7987 1.7125
-8.7755 -3.5966 1.7125
-8.4193 -4.3658 1.7125
-7.9910 -5.0970 1.7114
-7.4970 -5.7847 1.7098
-6.9426 -6.4236 1.7079
-6.9044 -7.6411 1.8595
-6.1976 -8.2311 1.8604
-1.0726 -1.7262 0.3670
-0.9143 -1.8153 0.3670
-0.7487 -1.8899 0.3670
-0.5770 -1.9493 0.3671
-0.4006 -1.9931 0.3671
-0.2211 -2.0210 0.3671
-0.0397 -2.0327 0.3671
0.1419 -2.0281 0.3671
0.3224 -2.0072 0.3671
0.5003 -1.9703 0.3671
0.6742 -1.9176 0.3670
0.8426 -1.8495 0.3670
1.0042 -1.7667 0.3669
5.4909 -7.9185 1.7399
6.2025 -7.4285 1.7474
6.8807 -6.8847 1.7575
7.4731 -6.2472 1.7588
8.0207 -5.5686 1.7631
8.5036 -4.8403 1.7668
8.9170 -4.0686 1.7698
9.2567 -3.2605 1.7721
9.5194 -2.4231 1.7737
4.5814 -0.7386 0.8379
4.5328 -0.3198 0.8205
4.7366 0.0899 0.8554
9.7592 1.0618 1.7726
9.6138 1.9266 1.7704
9.3883 2.7729 1.7676
9.0851 3.5929 1.7641
8.7074 4.3794 1.7599
8.2592 5.1254 1.7552
7.7451 5.8247 1.7498
7.1702 6.4714 1.7440
6.5402 7.0604 1.7378
5.3190 6.8852 1.5710
1.0884 1.7043 0.3651
0.9318 1.7944 0.3651
0.7678 1.8703 0.3651
0.5977 1.9312 0.3650
0.4228 1.9768 0.3650
0.2447 2.0066 0.3650
0.0645 2.0204 0.3650
-0.1161 2.0181 0.3650
-0.2959 1.9998 0.3650
-0.4733 1.9655 0.3650
-0.6469 1.9155 0.3651
-0.8155 1.8503 0.3651
-0.9776 1.7703 0.3652
-5.7632 8.5348 1.8595
-6.2176 7.6366 1.7781
-6.6022 6.7715 1.7077
-7.1870 6.1606 1.7092
-7.7148 5.4989 1.7107
-8.1809 4.7915 1.7119
-8.5789 4.0433 1.7125
-8.9056 3.2611 1.7125
-9.1612 2.4530 1.7125
-9.3436 1.6252 1.7125
-9.4514 0.7844 1.7125
-9.4837 -0.0626 1.7125
-9.4403 -0.9091 1.7125
-9.3214 -1.7484 1.7125
-9.1280 -2.5737 1.7125
-8.8618 -3.3784 1.7125
-8.5247 -4.1562 1.7125
-8.1163 -4.8987 1.7118
-7.6400 -5.5990 1.7103
-7.1017 -6.2519 1.7084
-6.8221 -7.1844 1.7889
-6.3976 -8.0731 1.8599
-5.6589 -8.6237 1.8625
-0.9589 -1.7921 0.3670
-0.7952 -1.8707 0.3670
-0.6250 -1.9344 0.3671
-0.4498 -1.9826 0.3671
-0.2710 -2.0149 0.3671
-0.0900 -2.0311 0.3671
0.0917 -2.0310 0.3671
0.2727 -2.0146 0.3671
0.4514 -1.9821 0.3671
0.6265 -1.9337 0.3670
0.7966 -1.8699 0.3670
0.9603 -1.7910 0.3669
5.2842 -8.0380 1.7369
6.0080 -7.5684 1.7448
6.6973 -7.0412 1.7547
7.3141 -6.4282 1.7582
7.8754 -5.7616 1.7619
8.3767 -5.0464 1.7658
8.8098 -4.2861 1.7690
9.1703 -3.4873 1.7715
9.4546 -2.6573 1.7733
4.6365 -0.8657 0.8516
4.5279 -0.4322 0.8213
4.7374 -0.0273 0.8554
9.7850 0.8203 1.7730
9.6622 1.6888 1.7711
9.4586 2.5410 1.7684
9.1766 3.3690 1.7651
8.8192 4.1655 1.7611
8.3901 4.9234 1.7565
7.8937 5.6362 1.7514
7.3350 6.2980 1.7457
6.7197 6.9034 1.7395
5.5131 6.7828 1.5783
4.8310 7.1671 1.5607
0.9760 1.7709 0.3651
0.8139 1.8508 0.3651
0.6453 1.9159 0.3650
0.4716 1.9657 0.3650
0.2942 1.9999 0.3650
0.1145 2.0182 0.3650
-0.0662 2.0204 0.3650
-0.2463 2.0065 0.3650
-0.4245 1.9766 0.3650
-0.5993 1.9309 0.3651
-0.7694 1.8699 0.3651
-0.9334 1.7939 0.3651
-5.5503 8.6747 1.8595
-6.2083 8.0225 1.8317
-6.4310 6.9309 1.7072
-7.0307 6.3350 1.7088
-7.5747 5.6868 1.7103
-8.0583 4.9915 1.7116
-8.4164 4.2242 1.7004
-8.8222 3.4804 1.7125
-9.0977 2.6788 1.7125
-9.3006 1.8558 1.7125
-9.4291 1.0180 1.7125
-9.4824 0.1720 1.7125
-9.4599 -0.6753 1.7125
-9.3618 -1.5173 1.7125
-9.1889 -2.3471 1.7125
-8.9426 -3.1582 1.7125
-8.6249 -3.9440 1.7125
-8.2365 -4.6973 1.7121
-7.7782 -5.4098 1.7108
-7.2565 -6.0763 1.7090
-6.6778 -6.6928 1.7071
-6.5945 -7.9112 1.8597
-5.8679 -8.4773 1.8616
-1.0029 -1.7678 0.3670
-0.8412 -1.8504 0.3670
-0.6726 -1.9183 0.3671
-0.4987 -1.9708 0.3671
-0.3208 -2.0076 0.3671
-0.1402 -2.0282 0.3671
0.0414 -2.0326 0.3671
0.2227 -2.0208 0.3671
0.4023 -1.9927 0.3671
0.5785 -1.9487 0.3670
0.7501 -1.8891 0.3670
0.9157 -1.8143 0.3670
1.0739 -1.7251 0.3669
5.8122 -7.7058 1.7428
6.5090 -7.1914 1.7514
7.1543 -6.6086 1.7586
7.7253 -5.9506 1.7608
8.2446 -5.2491 1.7648
8.6971 -4.5006 1.7682
9.0780 -3.7118 1.7709
9.3837 -2.8897 1.7729
4.7624 -1.0117 0.8791
4.5310 -0.5460 0.8241
4.7294 -0.1443 0.8544
5.0027 0.2950 0.9049
9.7043 1.4498 1.7717
9.5229 2.3073 1.7692
9.2623 3.1428 1.7661
8.9254 3.9487 1.7623
8.5157 4.7179 1.7579
8.0375 5.4439 1.7528
7.4955 6.1204 1.7473
6.8953 6.7419 1.7413
6.2426 7.3035 1.7348
5.0248 7.0707 1.5663
1.0195 1.7463 0.3651
0.8594 1.8301 0.3651
0.6925 1.8994 0.3650
0.5201 1.9535 0.3650
0.3436 1.9921 0.3650
0.1644 2.0147 0.3650
-0.0162 2.0214 0.3650
-0.1966 2.0119 0.3650
-0.3755 1.9864 0.3650
-0.5514 1.9451 0.3651
-0.7229 1.8883 0.3651
-0.8887 1.8164 0.3651
-1.0475 1.7300 0.3652
-6.0993 8.2979 1.8595
-6.2572 7.0875 1.7071
-6.8701 6.5053 1.7084
-7.4301 5.8711 1.7099
-7.9308 5.1883 1.7112
-8.3681 4.4625 1.7124
-8.7334 3.6976 1.7125
-9.0287 2.9031 1.7125
-9.2518 2.0853 1.7125
-9.4011 1.2509 1.7125
-9.4752 0.4065 1.7125
-9.4737 -0.4411 1.7125
-9.3964 -1.2852 1.7125
-9.2442 -2.1191 1.7125
-9.0180 -2.9360 1.7125
-8.7199 -3.7295 1.7125
-8.3517 -4.4930 1.7124
-7.9116 -5.2170 1.7112
-7.4069 -5.8968 1.7095
-6.8428 -6.5269 1.7075
-6.7876 -7.7450 1.8595
-6.0733 -8.3260 1.8608
-1.0463 -1.7424 0.3670
-0.8867 -1.8290 0.3670
-0.7199 -1.9011 0.3670
-0.5473 -1.9579 0.3671
-0.3703 -1.9990 0.3671
-0.1904 -2.0241 0.3671
-0.0089 -2.0330 0.3671
0.1727 -2.0257 0.3671
0.3529 -2.0021 0.3671
0.5302 -1.9624 0.3670
0.7032 -1.9071 0.3670
0.8706 -1.8365 0.3670
1.0309 -1.7512 0.3669
5.6142 -7.8393 1.7411
6.3202 -7.3399 1.7489
6.9902 -6.7849 1.7590
7.5705 -6.1356 1.7595
8.1074 -5.4482 1.7637
8.5788 -4.7121 1.7673
8.9800 -3.9337 1.7702
9.3069 -3.1201 1.7724
9.5562 -2.2785 1.7739
4.5623 -0.6646 0.8325
4.5357 -0.2508 0.8202
4.7549 0.1625 0.8591
9.7402 1.2097 1.7722
9.5811 2.0719 1.7700
9.3422 2.9142 1.7670
9.0261 3.7290 1.7634
8.6362 4.5091 1.7591
8.1764 5.2477 1.7543
9.4163 0.9708 1.7695
9.2815 1.8057 1.7675
9.0693 2.6232 1.7648
8.7822 3.4160 1.7615
8.4231 4.1770 1.7575
7.9958 4.8997 1.7530
7.5045 5.5778 1.7479
6.9543 6.2058 1.7423
6.3504 6.7784 1.7363
5.3404 6.8330 1.6211
1.0607 1.6404 0.3652
0.9099 1.7284 0.3651
0.7519 1.8026 0.3651
0.5879 1.8624 0.3651
0.4192 1.9073 0.3650
0.2473 1.9371 0.3650
0.0733 1.9514 0.3650
-0.1012 1.9502 0.3650
-0.2749 1.9334 0.3651
-0.4465 1.9013 0.3651
-0.6145 1.8539 0.3651
-0.7777 1.7918 0.3651
-0.9347 1.7155 0.3652
-5.5203 8.2753 1.8595
-6.2045 7.7088 1.8498
-6.3383 6.5746 1.7071
-6.9055 5.9872 1.7085
-7.4185 5.3510 1.7099
-7.8722 4.6705 1.7111
-8.2628 3.9514 1.7121
-8.5843 3.1985 1.7125
-8.8356 2.4192 1.7125
-9.0163 1.6207 1.7125
-9.1250 0.8091 1.7125
-9.1608 -0.0088 1.7125
-9.1235 -0.8268 1.7125
-9.0132 -1.6381 1.7125
-8.8310 -2.4363 1.7125
-8.5782 -3.2151 1.7125
-8.2553 -3.9673 1.7121
-7.8633 -4.6857 1.7111
-7.4079 -5.3651 1.7098
-6.8924 -5.9991 1.7081
-6.6988 -6.9753 1.8078
-6.2229 -7.7622 1.8597
-1.0861 -1.6350 0.3669
-0.9359 -1.7256 0.3670
-0.7782 -1.8025 0.3670
-0.6142 -1.8649 0.3670
-0.4452 -1.9124 0.3670
-0.2727 -1.9446 0.3671
-0.0980 -1.9612 0.3671
0.0775 -1.9621 0.3671
0.2524 -1.9473 0.3670
0.4252 -1.9168 0.3670
0.5946 -1.8711 0.3670
0.7592 -1.8103 0.3670
0.9177 -1.7351 0.3669
1.0688 -1.6460 0.3669
5.7388 -7.3136 1.7378
6.4115 -6.8173 1.7494
7.0287 -6.2479 1.7579
7.5628 -5.5986 1.7590
8.0497 -4.9115 1.7627
8.4710 -4.1805 1.7658
8.8227 -3.4122 1.7683
9.1013 -2.6134 1.7701
4.6343 -0.8923 0.8822
4.5093 -0.4561 0.8472
4.5758 -0.0522 0.8554
9.4397 0.7378 1.7700
9.3266 1.5761 1.7682
9.1357 2.3991 1.7657
8.8690 3.1995 1.7625
8.5295 3.9700 1.7587
8.1206 4.7040 1.7543
7.6466 5.3950 1.7494
7.1121 6.0373 1.7439
6.5225 6.6258 1.7380
5.8863 7.1590 1.7325
1.1010 1.6137 0.3652
0.9524 1.7054 0.3651
0.7963 1.7834 0.3651
0.6338 1.8473 0.3651
0.4663 1.8964 0.3651
0.2951 1.9304 0.3650
0.1216 1.9490 0.3650
-0.0529 1.9521 0.3650
-0.2270 1.9396 0.3650
-0.3993 1.9117 0.3651
-0.5685 1.8685 0.3651
-0.7331 1.8105 0.3651
-0.8919 1.7380 0.3652
-1.0437 1.6516 0.3652
-6.0435 7.9013 1.8595
-6.2272 6.7876 1.7219
-6.7537 6.1547 1.7081
-7.2823 5.5317 1.7095
-7.7528 4.8629 1.7108
-8.1612 4.1539 1.7118
-8.5026 3.4098 1.7125
-8.7731 2.6371 1.7125
-8.9735 1.8432 1.7125
-9.1022 1.0346 1.7125
-9.1583 0.2178 1.7125
-9.1411 -0.6008 1.7125
-9.0510 -1.4146 1.7125
-8.8885 -2.2171 1.7125
-8.6551 -3.0019 1.7125
-8.3521 -3.7625 1.7124
-7.9782 -4.4906 1.7114
-7.5401 -5.1814 1.7102
-7.0408 -5.8285 1.7086
-6.4885 -6.4301 1.7076
-6.4125 -7.6054 1.8596
-5.7112 -8.1524 1.8607
-0.9783 -1.7019 0.3670
-0.8225 -1.7826 0.3670
-0.6601 -1.8491 0.3670
-0.4924 -1.9008 0.3670
-0.3207 -1.9372 0.3671
-0.1465 -1.9581 0.3671
0.0289 -1.9634 0.3671
0.2041 -1.9529 0.3671
0.3777 -1.9268 0.3670
0.5482 -1.8852 0.3670
0.7142 -1.8286 0.3670
0.8746 -1.7573 0.3669
1.0278 -1.6720 0.3669
5.5501 -7.4452 1.7359
6.2284 -6.9599 1.7459
6.8687 -6.4169 1.7571
7.4172 -5.7802 1.7578
7.9213 -5.1062 1.7617
8.3612 -4.3868 1.7650
8.7326 -3.6281 1.7677
9.0317 -2.8371 1.7697
9.2555 -2.0208 1.7709
4.5194 -0.5704 0.8515
4.5731 -0.1654 0.8554
9.4571 0.5042 1.7704
9.3658 1.3453 1.7687
9.1962 2.1733 1.7664
8.9502 2.9807 1.7634
8.6305 3.7602 1.7598
8.2405 4.5049 1.7556
7.7840 5.2084 1.7508
7.2658 5.8648 1.7455
6.6909 6.4686 1.7397
6.0649 7.0152 1.7335
5.3897 7.4943 1.7256
0.9943 1.6814 0.3652
0.8402 1.7632 0.3651
0.6793 1.8311 0.3651
0.5131 1.8843 0.3651
0.3428 1.9225 0.3650
0.1697 1.9454 0.3650
-0.0046 1.9528 0.3650
-0.1790 1.9446 0.3650
-0.3519 1.9209 0.3651
-0.5221 1.8820 0.3651
-0.6881 1.8280 0.3651
-0.8486 1.7595 0.3652
-1.0025 1.6769 0.3652
-5.8462 8.0483 1.8595
-6.2188 7.1245 1.7678
-6.5978 6.3184 1.7077
-7.1417 5.7089 1.7091
-7.6287 5.0522 1.7104
-8.0547 4.3538 1.7116
-8.4156 3.6191 1.7125
-8.7052 2.8533 1.7125
-8.9252 2.0646 1.7125
-9.0739 1.2595 1.7125
-9.1501 0.4442 1.7125
-9.1532 -0.3745 1.7125
-9.0832 -1.1903 1.7125
-8.9407 -1.9965 1.7125
-8.7267 -2.7868 1.7125
-8.4430 -3.5549 1.7125
-8.0882 -4.2926 1.7117
-7.6676 -4.9944 1.7106
-7.1848 -5.6541 1.7091
-6.6442 -6.2663 1.7073
-6.5985 -7.4441 1.8595
-5.9098 -8.0068 1.8603
-1.0200 -1.6771 0.3669
-0.8663 -1.7617 0.3670
-0.7056 -1.8322 0.3670
-0.5393 -1.8880 0.3670
-0.3685 -1.9287 0.3671
-0.1949 -1.9539 0.3671
-0.0196 -1.9635 0.3671
0.1558 -1.9574 0.3671
0.3299 -1.9356 0.3670
0.5014 -1.8983 0.3670
0.6688 -1.8458 0.3670
0.8308 -1.7785 0.3669
0.9862 -1.6970 0.3669
5.3595 -7.5736 1.7344
6.0396 -7.0945 1.7417
6.6977 -6.5747 1.7544
7.2700 -5.9603 1.7573
7.7880 -5.2975 1.7607
8.2462 -4.5901 1.7642
8.6369 -3.8416 1.7670
8.9563 -3.0588 1.7692
9.2012 -2.2488 1.7706
4.5342 -0.6866 0.8572
4.5171 -0.2754 0.8460
4.7421 0.1353 0.8868
9.3989 1.1136 1.7693
9.2508 1.9460 1.7671
9.0258 2.7598 1.7643
8.7262 3.5477 1.7609
8.3552 4.3027 1.7568
7.9167 5.0182 1.7522
7.4151 5.6882 1.7470
6.8553 6.3071 1.7413
6.2429 6.8699 1.7353
5.5858 7.3751 1.7294
1.0357 1.6563 0.3652
0.8835 1.7420 0.3651
0.7244 1.8137 0.3651
0.5595 1.8710 0.3651
0.3902 1.9134 0.3650
0.2178 1.9406 0.3650
0.0437 1.9523 0.3650
-0.1308 1.9484 0.3650
-0.3043 1.9290 0.3651
-0.4753 1.8943 0.3651
-0.6426 1.8444 0.3651
-0.8048 1.7799 0.3651
-0.9606 1.7011 0.3652
-5.6453 8.1905 1.8595
-6.2101 7.4803 1.8174
-6.4379 6.4780 1.7072
-6.9967 5.8825 1.7087
-7.4998 5.2384 1.7101
-7.9431 4.5509 1.7113
-8.3227 3.8258 1.7123
-8.6319 3.0677 1.7125
-8.8714 2.2848 1.7125
-9.0399 1.4835 1.7125
-9.1363 0.6705 1.7125
-9.1597 -0.1480 1.7125
-9.1099 -0.9652 1.7125
-8.9873 -1.7748 1.7125
-8.7929 -2.5701 1.7125
-8.5284 -3.3450 1.7125
-8.1933 -4.0919 1.7120
-7.7903 -4.8041 1.7109
-7.3244 -5.4761 1.7095
-6.7993 -6.1020 1.7078
-6.7806 -7.2786 1.8595
-6.1053 -7.8571 1.8600
-1.0612 -1.6513 0.3669
-0.9096 -1.7397 0.3670
-0.7507 -1.8141 0.3670
-0.5858 -1.8740 0.3670
-0.4161 -1.9189 0.3671
-0.2431 -1.9485 0.3671
-0.0682 -1.9624 0.3671
0.1073 -1.9607 0.3671
0.2819 -1.9432 0.3670
0.4543 -1.9101 0.3670
0.6230 -1.8618 0.3670
0.7866 -1.7986 0.3670
0.9440 -1.7209 0.3669
5.1657 -7.6966 1.7327
5.8544 -7.2320 1.7393
6.5222 -6.7273 1.7515
7.1218 -6.1397 1.7577
7.6499 -5.4852 1.7596
8.1260 -4.7902 1.7633
8.5358 -4.0524 1.7663
8.8753 -3.2785 1.7687
9.1411 -2.4752 1.7703
4.5661 -0.8075 0.8668
4.5124 -0.3873 0.8466
4.6087 0.0174 0.8615
9.4261 0.8809 1.7697
9.2996 1.7172 1.7678
9.0956 2.5369 1.7652
8.8164 3.3327 1.7619
8.4648 4.0975 1.7580
8.0445 4.8245 1.7535
7.5599 5.5077 1.7485
7.0157 6.1412 1.7429
6.4173 6.7200 1.7370
5.4023 6.7778 1.6202
1.0764 1.6302 0.3652
0.9264 1.7196 0.3651
0.7691 1.7953 0.3651
0.6057 1.8567 0.3651
0.4374 1.9032 0.3651
0.2658 1.9346 0.3650
0.0920 1.9506 0.3650
-0.0826 1.9510 0.3650
-0.2565 1.9359 0.3651
-0.4283 1.9054 0.3651
-0.5968 1.8597 0.3651
-0.7605 1.7992 0.3651
-0.9182 1.7243 0.3652
-1.0687 1.6356 0.3652
-6.1628 7.8086 1.8595
-6.2752 6.6348 1.7071
-6.8474 6.0523 1.7083
-7.3664 5.4211 1.7097
-7.8267 4.7452 1.7110
-8.2242 4.0299 1.7120
-8.5534 3.2803 1.7125
-8.8121 2.5035 1.7125
-9.0005 1.7067 1.7125
-9.1169 0.8963 1.7125
-9.1605 0.0787 1.7125
-9.1310 -0.7396 1.7125
-9.0285 -1.5519 1.7125
-8.8538 -2.3518 1.7125
-8.6085 -3.1330 1.7125
-8.2933 -3.8885 1.7122
-7.9082 -4.6107 1.7112
-7.4595 -5.2946 1.7100
-6.9502 -5.9337 1.7083
-6.5890 -6.7312 1.7608
-6.2966 -7.7022 1.8597
-5.5880 -8.2399 1.8611
-0.9523 -1.7166 0.3670
-0.7953 -1.7949 0.3670
-0.6320 -1.8589 0.3670
-0.4635 -1.9080 0.3670
-0.2913 -1.9419 0.3671
-0.1167 -1.9602 0.3671
