ply
format ascii 1.0
element vertex 1965
property float32 x
property float32 y
property float32 z
end_header
15.0013 10.9525 -20.6286
13.8098 12.1132 -20.4014
15.5688 16.3359 -25.0627
14.0085 17.6107 -24.9919
-2.6585 -3.2559 -4.6683
22.4652 3.5826 -25.2654
20.7578 5.2460 -23.7787
19.2286 6.7356 -22.6278
17.8991 8.1295 -21.8332
16.5900 9.4048 -21.1797
15.3473 10.6154 -20.7249
14.1475 11.7842 -20.4491
16.0172 15.9695 -25.1199
14.4534 17.2472 -24.9916
22.9941 3.0674 -25.7637
21.2247 4.7911 -24.1655
19.5148 6.2814 -22.7684
18.2889 7.7498 -22.0602
16.9559 9.0484 -21.3450
15.6968 10.2749 -20.8358
14.4870 11.4535 -20.5104
14.6592 13.8878 -22.4268
14.8984 16.8836 -25.0077
-5.5352 5.4115 -8.5972
-4.6501 -3.5809 -6.5184
-2.4952 -3.3070 -4.6009
23.4455 2.5204 -26.1889
21.7073 4.3209 -24.5814
19.9448 5.8625 -23.0880
18.5590 7.3112 -22.1536
17.3278 8.6861 -21.5269
15.9402 9.8624 -20.8178
14.8287 11.1206 -20.5856
13.6409 12.2778 -20.3826
15.3444 16.5192 -25.0402
13.7852 17.7932 -24.9981
-2.5963 -3.2642 -4.6322
23.9528 1.9581 -26.6910
22.2072 3.8339 -25.0285
20.5289 5.4690 -23.5948
19.0211 6.9378 -22.4864
17.7063 8.3173 -21.7263
16.4083 9.5818 -21.1029
15.1732 10.7850 -20.6748
13.9778 11.9496 -20.4235
15.7918 16.1537 -25.0891
14.2300 17.4297 -24.9897
22.7259 3.3286 -25.5090
20.9884 5.0213 -23.9678
19.3247 6.4947 -22.6419
18.0922 7.9414 -21.9439
16.7715 9.2280 -21.2600
15.5208 10.4464 -20.7783
14.3163 11.6198 -20.4779
16.2412 15.7865 -25.1546
14.6749 17.0662 -24.9976
-2.4597 -3.3484 -4.6143
23.2654 2.8031 -26.0257
21.3151 4.5276 -24.2009
19.7275 6.0743 -22.9246
18.4861 7.5576 -22.1804
17.1403 8.8687 -21.4335
15.8723 10.1040 -20.8966
14.5562 11.2106 -20.4051
13.4721 12.4421 -20.3671
15.1203 16.7023 -25.0218
13.4859 17.8755 -24.8688
-5.4474 5.4628 -8.5681
-4.6966 -3.5225 -6.5202
-2.5424 -3.2820 -4.6108
23.6963 2.2432 -26.4351
21.9540 4.0807 -24.8000
20.3034 5.6886 -23.4176
18.6864 7.0884 -22.1963
13.9792 11.9482 -20.1724
15.7937 16.1522 -24.7806
14.2319 17.4282 -24.6822
-2.7430 -3.2729 -4.6843
22.7281 3.3265 -25.1972
20.9903 5.0194 -23.6744
19.4389 6.5308 -22.4947
18.0938 7.9398 -21.6748
16.7730 9.2266 -20.9991
15.5223 10.4449 -20.5231
14.3177 11.6184 -20.2262
16.2431 15.7849 -24.8454
14.6767 17.0647 -24.6901
-5.6693 5.4034 -8.5911
23.2676 2.8009 -25.7076
21.3171 4.5257 -23.9049
19.7292 6.0726 -22.6438
18.4878 7.5560 -21.9085
17.1418 8.8672 -21.1705
15.8737 10.1026 -20.6400
14.5576 11.2092 -20.1543
13.4735 12.4408 -20.1166
15.1222 16.7008 -24.7141
13.4877 17.8740 -24.5627
-4.7411 -3.5551 -6.5004
-2.5670 -3.3130 -4.5975
23.7683 2.2475 -26.1889
21.9560 4.0787 -24.4966
20.1654 5.6476 -22.9715
18.6881 7.0868 -21.9243
17.3968 8.4434 -21.2122
16.2295 9.7560 -20.7719
15.0013 10.9525 -20.3747
13.8098 12.1132 -20.1504
15.5688 16.3359 -24.7543
14.0085 17.6107 -24.6843
-2.6704 -3.2704 -4.6315
22.4652 3.5826 -24.9545
20.7578 5.2459 -23.4861
19.2286 6.7356 -22.3494
17.8991 8.1295 -21.5646
16.5900 9.4048 -20.9191
15.3473 10.6154 -20.4699
14.1475 11.7842 -20.1975
16.0172 15.9695 -24.8108
14.4534 17.2472 -24.6841
22.9941 3.0674 -25.4467
21.2247 4.7911 -23.8682
19.6481 6.3243 -22.6419
18.2889 7.7498 -21.7888
16.9559 9.0484 -21.0823
15.6968 10.2749 -20.5795
14.4870 11.4535 -20.2581
14.6592 13.8878 -22.1508
14.8984 16.8836 -24.7000
-5.5755 5.4509 -8.5532
-2.5309 -3.3543 -4.6093
23.5446 2.5311 -25.9760
21.7073 4.3210 -24.2789
19.9448 5.8625 -22.8040
18.5590 7.3112 -21.8810
17.3277 8.6861 -21.2621
15.9402 9.8624 -20.5617
14.8287 11.1206 -20.3323
13.6409 12.2778 -20.1318
15.3444 16.5192 -24.7321
13.7852 17.7932 -24.6905
-2.6147 -3.2874 -4.6076
23.9528 1.9581 -26.3626
22.2072 3.8339 -24.7205
20.5289 5.4689 -23.3045
19.0211 6.9378 -22.2097
17.7063 8.3173 -21.4590
16.4083 9.5818 -20.8432
15.1732 10.7850 -20.4204
13.9778 11.9496 -20.1722
15.7918 16.1537 -24.7804
14.2300 17.4297 -24.6822
-2.7417 -3.2720 -4.6827
22.7259 3.3286 -25.1951
20.9884 5.0213 -23.6729
19.4371 6.5325 -22.4934
18.0922 7.9414 -21.6739
16.7715 9.2280 -20.9984
15.5208 10.4464 -20.5227
14.3163 11.6198 -20.2260
16.2412 15.7865 -24.8450
14.6749 17.0662 -24.6900
-5.6702 5.4031 -8.5916
23.2654 2.8031 -25.7054
21.3151 4.5276 -23.9032
19.7274 6.0743 -22.6426
18.4861 7.5576 -21.9075
17.1403 8.8687 -21.1698
15.8723 10.1040 -20.6395
14.5562 11.2106 -20.1540
13.4721 12.4421 -20.1165
15.1203 16.7023 -24.7140
13.4859 17.8755 -24.5628
-4.7406 -3.5555 -6.5003
-2.5666 -3.3132 -4.5974
23.7681 2.2500 -26.1889
21.9540 4.0807 -24.4948
20.1636 5.6494 -22.9701
18.6864 7.0884 -21.9232
13.9792 11.9482 -19.9245
15.7937 16.1522 -24.4760
14.2319 17.4282 -24.3789
-2.7460 -3.2764 -4.6317
22.7281 3.3265 -24.8875
20.9903 5.0194 -23.3835
19.4389 6.5308 -22.2182
18.0938 7.9398 -21.4084
16.7730 9.2266 -20.7410
15.5223 10.4449 -20.2709
14.3177 11.6184 -19.9776
16.2431 15.7849 -24.5400
14.6767 17.0647 -24.3867
-5.7049 5.4373 -8.5389
23.2676 2.8009 -25.3917
21.3171 4.5257 -23.6111
19.8661 6.1147 -22.5207
18.4878 7.5560 -21.6393
17.1418 8.8672 -20.9103
15.8737 10.1026 -20.3864
14.5576 11.2092 -19.9067
13.4735 12.4408 -19.8694
15.1222 16.7008 -24.4104
13.4877 17.8740 -24.2608
-4.8031 -3.6017 -6.5046
-2.6025 -3.3588 -4.6038
23.8298 2.2533 -25.9339
21.9560 4.0787 -24.1956
20.1654 5.6476 -22.6892
18.6881 7.0868 -21.6549
17.3968 8.4434 -20.9515
16.2295 9.7560 -20.5166
15.0013 10.9525 -20.1243
13.8098 12.1132 -19.9028
15.5688 16.3359 -24.4500
14.0085 17.6107 -24.3810
-2.6880 -3.2920 -4.6047
22.4652 3.5826 -24.6478
20.6148 5.2098 -23.0377
19.2286 6.7356 -22.0748
17.8991 8.1295 -21.2996
16.5900 9.4048 -20.6621
15.3473 10.6154 -20.2184
14.1475 11.7842 -19.9493
16.0172 15.9695 -24.5059
14.4534 17.2472 -24.3808
-5.8275 5.4133 -8.6178
-2.8338 -3.2952 -4.7089
22.9941 3.0674 -25.1340
21.2247 4.7911 -23.5748
19.6501 6.3250 -22.3660
18.2889 7.7498 -21.5210
16.9559 9.0484 -20.8232
15.6968 10.2749 -20.3266
14.4870 11.4535 -20.0091
14.6592 13.8878 -21.8786
14.8985 16.8836 -24.3965
23.5446 2.5311 -25.6568
21.7073 4.3210 -23.9805
19.9448 5.8625 -22.5237
18.5590 7.3112 -21.6121
17.3277 8.6861 -21.0008
15.9402 9.8624 -20.3090
14.8287 11.1206 -20.0824
13.6409 12.2778 -19.8844
15.3444 16.5192 -24.4281
13.7852 17.7932 -24.3871
-4.8471 -3.5393 -6.5027
-2.6395 -3.3186 -4.5942
23.9528 1.9581 -26.0386
22.2072 3.8339 -24.4167
20.4129 5.4381 -22.8881
19.0211 6.9378 -21.9368
17.7063 8.3173 -21.1953
16.4083 9.5818 -20.5871
15.1732 10.7850 -20.1694
13.9778 11.9496 -19.9243
15.7918 16.1537 -24.4758
14.2300 17.4297 -24.3789
-2.7454 -3.2765 -4.6314
22.7259 3.3286 -24.8855
20.9884 5.0213 -23.3819
19.4371 6.5325 -22.2170
18.0922 7.9414 -21.4075
16.7714 9.2280 -20.7403
15.5208 10.4464 -20.2704
14.3163 11.6198 -19.9774
16.2412 15.7865 -24.5397
14.6749 17.0662 -24.3866
-5.7056 5.4368 -8.5390
23.2654 2.8031 -25.3895
21.3151 4.5276 -23.6094
19.8643 6.1164 -22.5194
18.4861 7.5576 -21.6383
17.1403 8.8687 -20.9096
15.8723 10.1040 -20.3859
14.5562 11.2106 -19.9063
13.4721 12.4421 -19.8693
15.1203 16.7023 -24.4102
13.4859 17.8755 -24.2609
-2.6023 -3.3593 -4.6040
23.8274 2.2556 -25.9316
21.9540 4.0807 -24.1938
20.1636 5.6494 -22.6878
18.6864 7.0884 -21.6538
13.8833 11.8662 -19.5448
15.7937 16.1522 -24.1755
14.2319 17.4282 -24.0796
-2.7623 -3.2959 -4.6021
22.7281 3.3265 -24.5819
20.8457 4.9849 -22.9373
19.4389 6.5308 -21.9454
18.0938 7.9398 -21.1456
16.7730 9.2266 -20.4863
15.5223 10.4449 -20.0220
14.3177 11.6184 -19.7324
16.2431 15.7849 -24.2387
14.6767 17.0647 -24.0873
-5.7712 5.5005 -8.5319
23.2676 2.8009 -25.0799
21.3171 4.5257 -23.3212
19.8661 6.1147 -22.2442
18.4878 7.5560 -21.3736
17.1418 8.8672 -20.6536
15.8737 10.1026 -20.1361
14.5576 11.2092 -19.6623
13.3811 12.3554 -19.4908
15.1222 16.7008 -24.1107
13.4877 17.8740 -23.9630
23.8298 2.2533 -25.6156
21.9560 4.0787 -23.8985
20.3053 5.6868 -22.5661
18.6881 7.0868 -21.3890
17.3968 8.4434 -20.6943
16.2295 9.7560 -20.2647
15.0013 10.9525 -19.8773
13.7151 12.0300 -19.5235
15.5688 16.3359 -24.1499
14.0085 17.6107 -24.0816
-2.7134 -3.3232 -4.5913
22.4652 3.5826 -24.3452
20.6148 5.2098 -22.7548
19.2286 6.7356 -21.8037
17.8991 8.1295 -21.0381
16.5900 9.4048 -20.4084
15.3473 10.6154 -19.9701
14.1475 11.7842 -19.7044
16.0172 15.9695 -24.2050
14.4534 17.2472 -24.0815
-5.8365 5.4217 -8.5250
-2.8221 -3.2816 -4.6318
22.9941 3.0674 -24.8254
21.2247 4.7911 -23.2854
19.6501 6.3250 -22.0914
18.2889 7.7498 -21.2568
16.9559 9.0484 -20.5676
15.6968 10.2749 -20.0770
14.4870 11.4535 -19.7634
14.6592 13.8878 -21.6100
14.8984 16.8836 -24.0970
23.5446 2.5311 -25.3418
21.7073 4.3209 -23.6861
19.9448 5.8625 -22.2472
18.5590 7.3112 -21.3467
17.3278 8.6861 -20.7429
15.9402 9.8624 -20.0597
14.8287 11.1206 -19.8358
13.5473 12.1935 -19.5055
15.3444 16.5192 -24.1282
13.7852 17.7932 -24.0877
-4.8937 -3.5733 -6.4845
-2.6744 -3.3625 -4.5978
23.9528 1.9581 -25.7189
22.2072 3.8339 -24.1169
20.4444 5.4464 -22.6419
19.0211 6.9378 -21.6674
17.7063 8.3173 -20.9351
16.4083 9.5818 -20.3343
15.1732 10.7850 -19.9218
13.8819 11.8676 -19.5446
15.7918 16.1537 -24.1753
14.2300 17.4297 -24.0796
-2.7619 -3.2961 -4.6020
22.7259 3.3286 -24.5799
20.8439 4.9867 -22.9358
19.4371 6.5325 -21.9442
18.0922 7.9414 -21.1447
16.7714 9.2280 -20.4857
15.5208 10.4464 -20.0216
14.3163 11.6198 -19.7321
16.2412 15.7865 -24.2384
14.6749 17.0662 -24.0872
-5.7715 5.4996 -8.5315
23.2654 2.8031 -25.0778
21.3151 4.5277 -23.3195
19.8643 6.1164 -22.2429
18.4861 7.5576 -21.3726
17.1403 8.8687 -20.6529
15.8723 10.1040 -20.1356
14.5562 11.2106 -19.6619
13.3797 12.3568 -19.4907
15.1203 16.7023 -24.1105
13.4859 17.8755 -23.9631
23.8274 2.2556 -25.6132
21.9540 4.0807 -23.8967
20.3034 5.6886 -22.5647
18.6864 7.0884 -21.3879
13.9092 11.8884 -19.3411
15.7937 16.1522 -23.8790
14.2319 17.4282 -23.7842
-5.9734 5.4091 -8.5181
-2.7880 -3.3266 -4.5880
22.7281 3.3265 -24.2804
20.8457 4.9849 -22.6559
19.4389 6.5308 -21.6762
18.0938 7.9398 -20.8862
16.7730 9.2266 -20.2350
15.5223 10.4449 -19.7764
14.2195 11.5387 -19.3566
16.2431 15.7849 -23.9414
14.6768 17.0647 -23.7918
-2.8999 -3.2860 -4.6326
23.2676 2.8009 -24.7723
21.3171 4.5257 -23.0351
19.8661 6.1147 -21.9713
18.4878 7.5560 -21.1114
17.1418 8.8672 -20.4002
15.8737 10.1026 -19.8890
14.5576 11.2092 -19.4210
13.3811 12.3554 -19.2517
15.1222 16.7008 -23.8149
13.4877 17.8740 -23.6690
23.8298 2.2533 -25.3013
21.9560 4.0787 -23.6053
20.3053 5.6868 -22.2893
18.6881 7.0868 -21.1266
17.3968 8.4434 -20.4404
16.2295 9.7560 -20.0161
14.8984 10.8773 -19.4987
13.7151 12.0300 -19.2840
15.5688 16.3359 -23.8536
14.0085 17.6107 -23.7862
-5.0026 -3.5554 -6.4874
-2.7470 -3.3643 -4.5911
22.4652 3.5826 -24.0466
20.7578 5.2459 -22.6316
19.2286 6.7356 -21.5362
17.8991 8.1295 -20.7800
16.5900 9.4048 -20.1580
15.3473 10.6154 -19.7251
14.0592 11.7106 -19.3411
16.0172 15.9695 -23.9080
14.4534 17.2472 -23.7860
-5.8941 5.4752 -8.5036
-2.8359 -3.2977 -4.5974
22.9941 3.0674 -24.5208
21.1217 4.7679 -22.8881
19.6501 6.3250 -21.8204
18.2889 7.7498 -20.9960
16.9559 9.0484 -20.3153
15.6968 10.2749 -19.8307
14.3876 11.3749 -19.3870
14.6592 13.8878 -21.3449
14.8984 16.8836 -23.8013
23.5446 2.5311 -25.0309
21.7073 4.3209 -23.3956
19.9448 5.8625 -21.9742
18.5590 7.3112 -21.0849
17.3278 8.6861 -20.4885
15.9402 9.8624 -19.8136
14.7269 11.0443 -19.4580
13.5473 12.1935 -19.2662
15.3444 16.5192 -23.8322
13.7852 17.7932 -23.7922
23.9528 1.9581 -25.4034
22.2072 3.8339 -23.8211
20.5289 5.4689 -22.4566
19.0211 6.9378 -21.4016
17.7063 8.3173 -20.6782
16.4083 9.5818 -20.0849
15.0691 10.7110 -19.5424
13.9079 11.8899 -19.3411
15.7918 16.1537 -23.8787
14.2300 17.4297 -23.7842
-5.9743 5.4088 -8.5187
-2.7876 -3.3269 -4.5879
22.7259 3.3286 -24.2784
20.8438 4.9867 -22.6544
19.4371 6.5325 -21.6750
18.0922 7.9414 -20.8853
16.7715 9.2280 -20.2344
15.5208 10.4464 -19.7759
14.2181 11.5401 -19.3563
16.2412 15.7865 -23.9411
14.6749 17.0662 -23.7917
-2.8994 -3.2861 -4.6323
23.2654 2.8031 -24.7702
21.3151 4.5276 -23.0335
19.8643 6.1164 -21.9700
18.4861 7.5576 -21.1104
17.1403 8.8687 -20.3995
15.8723 10.1040 -19.8885
14.5562 11.2106 -19.4207
13.3797 12.3568 -19.2516
15.1203 16.7023 -23.8148
13.4859 17.8755 -23.6691
23.8274 2.2556 -25.2990
21.9540 4.0807 -23.6036
20.3034 5.6886 -22.2879
18.6864 7.0884 -21.1256
13.9026 11.8827 -19.0949
15.7937 16.1522 -23.5862
14.2319 17.4282 -23.4926
-6.0225 5.4536 -8.4829
-2.8180 -3.3623 -4.5804
22.7281 3.3265 -23.9827
20.9903 5.0194 -22.5334
19.4389 6.5308 -21.4105
18.0938 7.9398 -20.6301
16.7730 9.2266 -19.9870
15.4158 10.3733 -19.3999
14.2195 11.5387 -19.1193
16.2431 15.7849 -23.6479
14.6768 17.0647 -23.5001
-2.9135 -3.3014 -4.5972
23.2676 2.8009 -24.4686
21.3171 4.5257 -22.7527
19.8661 6.1146 -21.7019
18.4878 7.5560 -20.8526
17.1418 8.8672 -20.1501
15.7648 10.0332 -19.5104
14.5576 11.2092 -19.1830
13.4369 12.4069 -19.0949
15.1222 16.7008 -23.5229
13.4877 17.8740 -23.3788
23.8298 2.2533 -24.9911
21.9560 4.0787 -23.3159
20.3053 5.6867 -22.0160
18.6881 7.0868 -20.8676
17.3968 8.4434 -20.1898
16.2295 9.7560 -19.7707
14.8983 10.8773 -19.2597
13.7492 12.0599 -19.0949
15.5688 16.3359 -23.5612
14.0085 17.6107 -23.4946
-6.1169 5.3979 -8.5176
-5.0505 -3.5895 -6.4692
22.4652 3.5826 -23.7518
20.7578 5.2459 -22.3541
19.2286 6.7356 -21.2722
17.8991 8.1295 -20.5252
16.5900 9.4048 -19.9109
15.2420 10.5426 -19.3496
14.0525 11.7051 -19.0949
16.0172 15.9695 -23.6150
14.4534 17.2472 -23.4944
-2.8621 -3.3281 -4.5829
22.9941 3.0674 -24.2202
21.1538 4.7751 -22.6419
19.6502 6.3250 -21.5529
18.2889 7.7498 -20.7386
16.9559 9.0484 -20.0662
15.5891 10.2044 -19.4532
14.3876 11.3749 -19.1494
14.6592 13.8878 -21.0832
14.8985 16.8836 -23.5096
-2.9789 -3.2902 -4.6340
23.5446 2.5311 -24.7240
21.5578 4.2912 -22.9496
19.9448 5.8625 -21.7049
18.5590 7.3112 -20.8264
17.3277 8.6861 -20.2373
15.9402 9.8624 -19.5707
14.7269 11.0443 -19.2195
13.5935 12.2351 -19.0949
15.3444 16.5192 -23.5400
13.7852 17.7932 -23.5005
23.9528 1.9581 -25.0919
22.2072 3.8339 -23.5291
20.5289 5.4689 -22.1813
19.0211 6.9378 -21.1392
17.7063 8.3173 -20.4247
16.4083 9.5818 -19.8386
15.0990 10.7323 -19.3411
13.9013 11.8842 -19.0949
15.7918 16.1537 -23.5860
14.2300 17.4297 -23.4926
-6.0232 5.4530 -8.4831
-2.8177 -3.3628 -4.5806
22.7259 3.3286 -23.9808
20.9884 5.0213 -22.5319
19.4371 6.5325 -21.4093
18.0922 7.9414 -20.6293
16.7715 9.2280 -19.9863
15.4143 10.3747 -19.3995
14.2181 11.5401 -19.1190
16.2412 15.7865 -23.6476
14.6749 17.0662 -23.5000
-2.9130 -3.3015 -4.5969
23.2654 2.8031 -24.4665
21.3151 4.5276 -22.7511
19.8643 6.1164 -21.7007
18.4861 7.5576 -20.8516
17.1403 8.8687 -20.1494
15.7634 10.0346 -19.5099
14.5562 11.2106 -19.1827
13.4356 12.4084 -19.0949
15.1203 16.7023 -23.5228
13.4859 17.8755 -23.3789
23.8274 2.2556 -24.9888
21.9540 4.0807 -23.3142
20.3035 5.6886 -22.0147
18.6864 7.0884 -20.8666
13.9792 11.9482 -18.9649
15.7937 16.1522 -23.2972
14.1524 17.3309 -23.0752
-5.1633 -3.5710 -6.4743
22.7281 3.3265 -23.6889
20.9903 5.0194 -22.2573
19.4389 6.5308 -21.1481
18.0938 7.9398 -20.3774
16.7730 9.2266 -19.7421
15.4158 10.3733 -19.1622
14.3177 11.6184 -19.0155
16.2431 15.7849 -23.3581
14.5948 16.9694 -23.0825
-2.9375 -3.3285 -4.5782
23.2676 2.8009 -24.1688
21.3171 4.5257 -22.4739
19.8660 6.1147 -21.4360
18.4878 7.5560 -20.5971
17.1418 8.8672 -19.9032
15.7648 10.0332 -19.2714
14.5576 11.2092 -18.9479
13.4735 12.4408 -18.9124
15.1222 16.7008 -23.2347
13.4877 17.8740 -23.0924
-3.0706 -3.3053 -4.6526
23.8298 2.2533 -24.6849
21.8205 4.0535 -22.8881
20.3053 5.6867 -21.7463
18.6881 7.0868 -20.6119
17.3968 8.4434 -19.9425
16.1181 9.6891 -19.3945
14.9541 10.9181 -19.0949
13.8098 12.1132 -18.9442
15.5688 16.3359 -23.2725
13.9303 17.5124 -23.0772
-6.1581 5.4343 -8.4700
-5.1164 -3.6363 -6.4733
22.4652 3.5826 -23.4608
20.7578 5.2459 -22.0802
19.2286 6.7356 -21.0116
17.8991 8.1295 -20.2737
16.4761 9.3403 -19.5320
15.2420 10.5426 -19.1126
14.1475 11.7842 -18.9885
16.0172 15.9695 -23.3256
14.3727 17.1509 -23.0770
-2.8883 -3.3586 -4.5684
22.9941 3.0674 -23.9235
21.2247 4.7911 -22.4394
19.6501 6.3250 -21.2888
18.2889 7.7498 -20.4845
16.9559 9.0484 -19.8204
15.5891 10.2044 -19.2148
14.4870 11.4535 -19.0454
14.6592 13.8878 -20.8249
14.8153 16.7893 -23.0918
-2.9929 -3.3056 -4.5987
23.5446 2.5311 -24.4211
21.5578 4.2912 -22.6684
19.9448 5.8625 -21.4389
18.5590 7.3112 -20.5712
17.3278 8.6861 -19.9893
15.9486 9.8676 -19.3411
14.8130 11.1088 -19.0949
13.6409 12.2778 -18.9267
15.3444 16.5192 -23.2516
13.7082 17.6938 -23.0829
-6.2727 5.3940 -8.5318
23.9528 1.9581 -24.7845
22.0543 3.8075 -23.0807
20.5289 5.4689 -21.9095
19.0211 6.9378 -20.8802
17.7063 8.3173 -20.1745
16.2957 9.5160 -19.4611
15.0917 10.7271 -19.0949
13.9778 11.9496 -18.9647
15.7918 16.1537 -23.2970
14.1506 17.3324 -23.0752
-5.1625 -3.5712 -6.4737
22.7259 3.3286 -23.6869
20.9884 5.0213 -22.2558
19.4371 6.5325 -21.1470
18.0922 7.9414 -20.3765
16.7715 9.2280 -19.7414
15.4143 10.3747 -19.1618
14.3163 11.6198 -19.0152
16.2412 15.7865 -23.3578
14.5930 16.9709 -23.0825
-2.9371 -3.3288 -4.5782
23.2654 2.8031 -24.1667
21.3151 4.5276 -22.4723
19.8643 6.1164 -21.4348
18.4861 7.5576 -20.5961
17.1403 8.8687 -19.9025
15.7634 10.0347 -19.2709
14.5562 11.2106 -18.9476
13.4721 12.4421 -18.9123
15.1203 16.7023 -23.2346
13.4859 17.8755 -23.0925
-3.0690 -3.3043 -4.6508
23.8274 2.2556 -24.6827
21.8201 4.0558 -22.8881
20.3034 5.6886 -21.7449
18.6864 7.0884 -20.6109
13.9792 11.9482 -18.7326
15.7087 16.0653 -22.8881
14.1524 17.3309 -22.7926
-5.2113 -3.6041 -6.4544
22.7281 3.3265 -23.3987
20.9903 5.0194 -21.9847
19.4389 6.5308 -20.8891
18.0938 7.9398 -20.1278
16.6579 9.1633 -19.3664
15.5223 10.4449 -19.0583
14.3177 11.6184 -18.7826
16.1524 15.6968 -22.9432
14.5948 16.9694 -22.7998
-2.9644 -3.3591 -4.5636
23.2676 2.8009 -23.8728
21.3171 4.5257 -22.1987
19.8661 6.1147 -21.1735
18.4878 7.5560 -20.3448
17.0242 8.8064 -19.5246
15.8142 10.0647 -19.0949
14.5576 11.2092 -18.7158
13.4735 12.4408 -18.6808
15.0377 16.6075 -22.8220
13.4877 17.8740 -22.8096
-3.0744 -3.3094 -4.6014
23.8298 2.2533 -24.3826
21.8534 4.0596 -22.6419
20.3053 5.6868 -21.4799
18.6881 7.0868 -20.3595
17.3968 8.4434 -19.6982
16.1181 9.6891 -19.1569
15.0013 10.9525 -18.9205
13.8098 12.1132 -18.7122
15.5015 16.2653 -22.8881
13.9303 17.5123 -22.7945
-6.2308 5.4985 -8.4650
22.3105 3.5579 -23.0138
20.7578 5.2459 -21.8098
19.2286 6.7356 -20.7542
17.8991 8.1295 -20.0254
16.4761 9.3403 -19.2927
15.3473 10.6154 -19.0089
14.1475 11.7842 -18.7559
15.9277 15.8804 -22.9112
14.3726 17.1509 -22.7943
-2.9332 -3.4109 -4.5826
22.9941 3.0674 -23.6305
21.2247 4.7911 -22.1646
19.6501 6.3250 -21.0280
18.2889 7.7498 -20.2336
16.8395 8.9863 -19.4433
15.6839 10.2665 -19.0949
14.4870 11.4535 -18.8121
14.6592 13.8878 -20.5698
14.8153 16.7893 -22.8090
-3.0135 -3.3284 -4.5737
23.5446 2.5311 -24.1220
21.7073 4.3209 -22.5460
19.9448 5.8625 -21.1763
18.5590 7.3112 -20.3192
17.3278 8.6861 -19.7445
15.9402 9.8624 -19.0941
14.8287 11.1206 -18.8810
13.6409 12.2778 -18.6949
15.2587 16.4270 -22.8386
13.7082 17.6938 -22.8002
-6.2951 5.4134 -8.4575
23.9528 1.9581 -24.4809
22.0543 3.8075 -22.7980
20.5289 5.4689 -21.6411
19.0211 6.9378 -20.6245
17.7063 8.3173 -19.9274
16.2957 9.5160 -19.2227
15.1732 10.7850 -18.9629
13.9778 11.9496 -18.7324
15.7070 16.0669 -22.8881
14.1506 17.3324 -22.7926
-5.2108 -3.6046 -6.4542
22.7259 3.3286 -23.3968
20.9884 5.0213 -21.9832
19.4371 6.5325 -20.8880
18.0922 7.9414 -20.1269
16.6564 9.1647 -19.3658
15.5208 10.4464 -19.0578
14.3163 11.6198 -18.7823
16.1505 15.6983 -22.9429
14.5930 16.9709 -22.7998
-2.9640 -3.3593 -4.5636
23.2654 2.8031 -23.8707
21.3151 4.5276 -22.1971
19.8643 6.1164 -21.1723
18.4861 7.5576 -20.3438
17.0227 8.8079 -19.5239
15.8131 10.0663 -19.0949
14.5562 11.2106 -18.7155
13.4721 12.4421 -18.6807
15.0359 16.6090 -22.8219
13.4859 17.8755 -22.8096
-3.0739 -3.3095 -4.6011
23.8274 2.2556 -24.3804
21.8530 4.0619 -22.6419
20.3034 5.6886 -21.4786
18.6864 7.0884 -20.3585
13.9792 11.9482 -18.5032
15.7324 16.0895 -22.6419
14.2319 17.4282 -22.6399
-5.2767 -3.6494 -6.4554
22.5716 3.3036 -22.9530
20.9903 5.0194 -21.7154
19.4389 6.5308 -20.6333
18.0938 7.9398 -19.8813
16.6579 9.1632 -19.1293
15.5223 10.4449 -18.8249
14.3177 11.6184 -18.5526
16.1524 15.6968 -22.6622
14.6734 17.0608 -22.6419
-3.0050 -3.4050 -4.5694
23.2676 2.8009 -23.5804
21.3171 4.5257 -21.9268
19.8661 6.1147 -20.9142
18.4878 7.5560 -20.0957
17.0242 8.8064 -19.2855
15.8737 10.1026 -18.9321
14.5576 11.2092 -18.4866
13.4735 12.4408 -18.4520
15.1041 16.6807 -22.6419
13.4877 17.8740 -22.5302
-6.4390 5.3963 -8.4532
-3.0910 -3.3273 -4.5696
23.8298 2.2533 -24.0840
21.9560 4.0787 -22.4696
20.3053 5.6867 -21.2169
18.6881 7.0868 -20.1101
17.3968 8.4434 -19.4570
16.2295 9.7560 -19.0531
15.0013 10.9525 -18.6888
13.8098 12.1132 -18.4830
15.5249 16.2898 -22.6419
14.0085 17.6107 -22.6418
22.3105 3.5580 -22.7320
20.7578 5.2459 -21.5427
19.2286 6.7356 -20.5001
17.8991 8.1295 -19.7802
16.5094 9.3591 -19.0949
15.3473 10.6154 -18.7761
14.1475 11.7842 -18.5262
15.9356 15.8882 -22.6419
14.4534 17.2472 -22.6416
-5.3288 -3.5862 -6.4628
22.9941 3.0674 -23.3411
21.2247 4.7911 -21.8931
19.6501 6.3250 -20.7705
18.2889 7.7498 -19.9858
16.8395 8.9863 -19.2052
15.6968 10.2749 -18.8766
14.4870 11.4535 -18.5818
14.6592 13.8878 -20.3179
14.8890 16.8729 -22.6419
-3.0411 -3.3589 -4.5591
23.5446 2.5311 -23.8266
21.7073 4.3209 -22.2699
19.9448 5.8625 -20.9170
18.5590 7.3112 -20.0704
17.2089 8.6265 -19.3689
15.9402 9.8624 -18.8603
14.8287 11.1206 -18.6498
13.6409 12.2778 -18.4660
15.3148 16.4874 -22.6419
13.7818 17.7888 -22.6419
-6.3529 5.4630 -8.4305
-3.1572 -3.3131 -4.6048
23.9528 1.9581 -24.1811
22.1748 3.8283 -22.6419
20.5289 5.4689 -21.3761
19.0211 6.9378 -20.3719
17.5848 8.2602 -19.5483
16.3880 9.5700 -19.0949
15.1732 10.7850 -18.7306
13.9778 11.9496 -18.5030
15.7307 16.0911 -22.6419
14.2300 17.4297 -22.6399
-5.2766 -3.6501 -6.4557
22.5694 3.3057 -22.9511
20.9884 5.0213 -21.7140
19.4371 6.5325 -20.6322
18.0922 7.9414 -19.8805
16.6564 9.1647 -19.1287
15.5208 10.4464 -18.8245
14.3163 11.6198 -18.5523
16.1505 15.6983 -22.6620
14.6716 17.0623 -22.6419
-3.0047 -3.4055 -4.5696
23.2654 2.8031 -23.5784
21.3151 4.5276 -21.9253
19.8643 6.1164 -20.9130
18.4861 7.5576 -20.0947
17.0227 8.8079 -19.2848
15.8723 10.1040 -18.9317
14.5562 11.2106 -18.4864
13.4721 12.4421 -18.4519
15.1023 16.6824 -22.6419
13.4859 17.8755 -22.5303
-6.4401 5.3960 -8.4537
-3.0906 -3.3276 -4.5695
23.8274 2.2556 -24.0818
21.9540 4.0807 -22.4679
20.3034 5.6886 -21.2156
18.6864 7.0884 -20.1092
13.9792 11.9482 -18.2766
15.7937 16.1522 -22.4518
14.2319 17.4282 -22.3627
22.5716 3.3036 -22.6720
20.9903 5.0194 -21.4496
19.4389 6.5308 -20.3807
17.9697 7.8853 -19.5031
16.7730 9.2265 -19.0256
15.5223 10.4449 -18.5944
14.3177 11.6184 -18.3254
16.2431 15.7849 -22.5105
14.6767 17.0647 -22.3698
23.2676 2.8009 -23.2917
21.3171 4.5257 -21.6584
19.8661 6.1147 -20.6581
18.4878 7.5560 -19.8496
17.0649 8.8275 -19.0949
15.8737 10.1026 -18.7003
14.5576 11.2092 -18.2603
13.4735 12.4408 -18.2261
15.1222 16.7008 -22.3915
13.4877 17.8740 -22.2544
-6.4857 5.4354 -8.4102
-3.1193 -3.3578 -4.5549
23.8298 2.2533 -23.7891
21.9560 4.0787 -22.1945
20.3053 5.6867 -20.9571
18.6881 7.0868 -19.8639
17.3968 8.4434 -19.2187
16.2295 9.7560 -18.8198
15.0013 10.9525 -18.4600
13.8098 12.1132 -18.2567
15.5688 16.3359 -22.4279
14.0085 17.6107 -22.3646
-3.2424 -3.3163 -4.6095
22.4652 3.5826 -22.6094
20.7578 5.2459 -21.2789
19.2286 6.7356 -20.2491
17.7763 8.0737 -19.4040
16.5900 9.4048 -18.9532
15.3473 10.6154 -18.5462
14.1475 11.7842 -18.2994
16.0172 15.9695 -22.4791
14.4534 17.2472 -22.3644
-5.3746 -3.6170 -6.4385
22.8357 3.0463 -22.8965
21.2247 4.7911 -21.6251
19.6501 6.3250 -20.5162
18.2889 7.7498 -19.7411
16.9504 9.0455 -19.0949
15.6968 10.2749 -18.6455
14.4870 11.4535 -18.3543
14.6592 13.8878 -20.0691
14.8984 16.8836 -22.3788
-6.5899 5.3805 -8.4552
-3.0766 -3.3981 -4.5558
23.5447 2.5311 -23.5349
21.7073 4.3209 -21.9973
19.9448 5.8625 -20.6609
18.5590 7.3112 -19.8247
17.2089 8.6265 -19.1317
15.9402 9.8624 -18.6294
14.8287 11.1206 -18.4215
13.6409 12.2778 -18.2398
15.3444 16.5192 -22.4078
13.7852 17.7932 -22.3702
-3.1718 -3.3285 -4.5695
23.9528 1.9581 -23.8851
22.2072 3.8339 -22.3973
20.5289 5.4689 -21.1144
19.0211 6.9378 -20.1225
17.6141 8.2740 -19.3411
16.4083 9.5818 -18.8844
15.1732 10.7850 -18.5013
13.9778 11.9496 -18.2765
15.7918 16.1537 -22.4516
14.2300 17.4297 -22.3627
22.5694 3.3057 -22.6701
20.9884 5.0213 -21.4481
19.4371 6.5325 -20.3796
17.9681 7.8869 -19.5023
16.7715 9.2280 -19.0250
15.5208 10.4464 -18.5940
14.3163 11.6198 -18.3252
16.2412 15.7865 -22.5102
14.6749 17.0662 -22.3697
23.2654 2.8031 -23.2897
21.3151 4.5276 -21.6568
19.8643 6.1164 -20.6569
18.4861 7.5576 -19.8487
17.0640 8.8293 -19.0949
15.8723 10.1040 -18.6999
14.5562 11.2106 -18.2600
13.4721 12.4421 -18.2260
15.1203 16.7023 -22.3914
13.4859 17.8755 -22.2545
-6.4864 5.4348 -8.4103
-3.1189 -3.3580 -4.5548
23.8274 2.2556 -23.7869
21.9540 4.0807 -22.1928
20.3034 5.6886 -20.9558
18.6864 7.0884 -19.8629
13.9792 11.9482 -18.0528
15.7937 16.1522 -22.1768
14.2319 17.4282 -22.0888
-3.3554 -3.3451 -4.6512
22.7281 3.3265 -22.5496
20.9903 5.0194 -21.1869
19.4389 6.5308 -20.1311
17.9697 7.8853 -19.2643
16.7730 9.2266 -18.7926
15.5223 10.4449 -18.3667
14.3177 11.6184 -18.1010
16.2431 15.7849 -22.2348
14.6767 17.0647 -22.0959
-5.4983 -3.5987 -6.4510
23.1479 2.7865 -22.8881
21.3171 4.5257 -21.3932
19.8660 6.1147 -20.4052
18.3609 7.5042 -19.4720
17.1418 8.8672 -18.9461
15.8737 10.1026 -18.4713
14.5576 11.2092 -18.0367
13.4735 12.4408 -18.0029
15.1222 16.7008 -22.1173
13.4877 17.8740 -21.9819
-6.5624 5.4996 -8.4054
-3.1486 -3.3893 -4.5414
23.8298 2.2533 -23.4978
21.9560 4.0787 -21.9227
20.3053 5.6867 -20.7005
18.6881 7.0868 -19.6207
17.3968 8.4434 -18.9834
16.2295 9.7560 -18.5893
15.0013 10.9525 -18.2339
13.8098 12.1132 -18.0332
15.5688 16.3359 -22.1533
14.0085 17.6107 -22.0907
-3.2574 -3.3317 -4.5742
22.4652 3.5826 -22.3325
20.7578 5.2459 -21.0184
19.2286 6.7356 -20.0011
17.7763 8.0737 -19.1664
16.5900 9.4048 -18.7211
15.3473 10.6154 -18.3191
14.1475 11.7842 -18.0753
16.0172 15.9695 -22.2039
14.4534 17.2472 -22.0905
-5.4349 -3.6575 -6.4311
22.8617 3.0498 -22.6419
21.2247 4.7911 -21.3603
19.6501 6.3250 -20.2650
18.1634 7.6966 -19.3656
16.9559 9.0484 -18.8672
15.6968 10.2749 -18.4171
14.4870 11.4535 -18.1295
14.3706 13.6144 -19.4331
14.8985 16.8836 -22.1048
-6.6231 5.4075 -8.3937
23.3825 2.5136 -23.0865
21.7073 4.3209 -21.7279
19.9448 5.8625 -20.4079
18.5590 7.3112 -19.5819
17.3278 8.6861 -19.0280
15.9402 9.8624 -18.4013
14.8287 11.1206 -18.1959
13.6409 12.2778 -18.0165
15.3444 16.5192 -22.1334
13.7852 17.7932 -22.0962
-3.1981 -3.3560 -4.5509
23.9528 1.9581 -23.5926
22.2072 3.8339 -22.1231
20.5289 5.4689 -20.8558
19.0211 6.9378 -19.8761
17.6055 8.2699 -19.0949
16.4083 9.5818 -18.6532
15.1732 10.7850 -18.2748
13.9778 11.9496 -18.0527
15.7918 16.1537 -22.1766
14.2300 17.4297 -22.0888
-3.3536 -3.3440 -4.6492
22.7259 3.3286 -22.5478
20.9884 5.0213 -21.1855
19.4371 6.5325 -20.1300
17.9681 7.8869 -19.2635
16.7715 9.2280 -18.7920
15.5208 10.4463 -18.3663
14.3163 11.6198 -18.1008
16.2412 15.7865 -22.2345
14.6749 17.0662 -22.0958
-5.4974 -3.5989 -6.4503
23.1476 2.7889 -22.8881
21.3151 4.5276 -21.3916
19.8643 6.1164 -20.4040
18.3593 7.5058 -19.4711
17.1403 8.8687 -18.9454
15.8723 10.1040 -18.4709
14.5562 11.2106 -18.0364
13.4721 12.4421 -18.0028
15.1203 16.7023 -22.1172
13.4859 17.8755 -21.9819
-6.5626 5.4986 -8.4049
-3.1484 -3.3898 -4.5417
23.8274 2.2556 -23.4957
21.9540 4.0806 -21.9211
20.3034 5.6886 -20.6992
18.6864 7.0884 -19.6197
13.9792 11.9482 -17.8317
15.7937 16.1522 -21.9052
14.2319 17.4282 -21.8183
-3.3450 -3.3347 -4.5800
22.7281 3.3265 -22.2734
20.9903 5.0194 -20.9274
19.4389 6.5308 -19.8845
18.0325 7.9129 -19.0949
16.7730 9.2266 -18.5625
15.5223 10.4449 -18.1417
14.3177 11.6184 -17.8793
16.2431 15.7849 -21.9625
14.6767 17.0647 -21.8252
-6.7730 5.3879 -8.3921
-5.5383 -3.6249 -6.4183
23.1829 2.7907 -22.6419
21.3171 4.5257 -21.1311
19.8661 6.1147 -20.1552
18.3609 7.5042 -19.2335
17.1418 8.8672 -18.7140
15.8737 10.1026 -18.2451
14.5576 11.2092 -17.8158
13.4735 12.4408 -17.7824
15.1222 16.7008 -21.8464
13.4877 17.8740 -21.7126
-3.1973 -3.4417 -4.5552
23.6657 2.2378 -23.0501
21.9560 4.0787 -21.6542
20.3053 5.6868 -20.4469
18.6881 7.0868 -19.3803
17.3968 8.4434 -18.7509
16.2295 9.7560 -18.3616
15.0013 10.9525 -18.0106
13.8098 12.1132 -17.8123
15.5688 16.3359 -21.8820
14.0085 17.6107 -21.8201
-3.2784 -3.3532 -4.5473
22.4652 3.5826 -22.0590
20.7578 5.2459 -20.7609
19.2286 6.7356 -19.7561
17.8991 8.1295 -19.0624
16.5900 9.4048 -18.4918
15.3473 10.6154 -18.0947
14.1475 11.7842 -17.8539
16.0172 15.9695 -21.9319
14.4534 17.2472 -21.8200
22.9941 3.0674 -22.4940
21.2247 4.7911 -21.0986
19.6501 6.3250 -20.0168
18.1634 7.6966 -19.1284
16.9559 9.0484 -18.6361
15.6968 10.2749 -18.1916
14.4870 11.4535 -17.9074
14.3707 13.6145 -19.1952
14.8985 16.8836 -21.8340
-6.6810 5.4548 -8.3633
23.3825 2.5137 -22.8038
21.7073 4.3209 -21.4618
19.9448 5.8625 -20.1579
18.5590 7.3112 -19.3421
17.3278 8.6861 -18.7950
15.9402 9.8624 -18.1759
14.8287 11.1206 -17.9730
13.6409 12.2778 -17.7958
15.3444 16.5192 -21.8623
13.7852 17.7932 -21.8256
-3.2273 -3.3866 -4.5362
23.9528 1.9581 -23.3036
22.2072 3.8339 -21.8521
20.5289 5.4689 -20.6004
18.8901 6.8900 -19.4974
17.7063 8.3173 -18.9690
16.4083 9.5818 -18.4247
15.1732 10.7850 -18.0509
13.9778 11.9496 -17.8315
15.7918 16.1537 -21.9050
14.2300 17.4297 -21.8183
-3.3444 -3.3348 -4.5796
22.7259 3.3286 -22.2716
20.9884 5.0213 -20.9260
19.4371 6.5325 -19.8834
18.0317 7.9148 -19.0949
16.7715 9.2280 -18.5619
15.5208 10.4463 -18.1413
14.3163 11.6198 -17.8791
16.2412 15.7865 -21.9622
14.6749 17.0662 -21.8252
-6.7740 5.3876 -8.3927
-5.5378 -3.6254 -6.4181
23.1826 2.7931 -22.6419
21.3151 4.5276 -21.1296
19.8643 6.1164 -20.1541
18.3593 7.5058 -19.2326
17.1403 8.8687 -18.7133
15.8723 10.1040 -18.2446
14.5562 11.2106 -17.8155
13.4721 12.4421 -17.7823
15.1203 16.7023 -21.8463
13.4859 17.8755 -21.7127
-3.1971 -3.4423 -4.5554
23.6633 2.2401 -23.0480
21.9540 4.0807 -21.6526
20.3034 5.6886 -20.4456
18.6864 7.0884 -19.3794
13.9792 11.9482 -17.6132
15.7937 16.1522 -21.6368
14.2319 17.4282 -21.5509
-3.3605 -3.3501 -4.5448
22.7281 3.3265 -22.0005
20.9903 5.0194 -20.6710
19.3050 6.4858 -19.5056
18.0938 7.9398 -18.9250
16.7730 9.2266 -18.3350
15.5223 10.4449 -17.9195
14.3177 11.6184 -17.6602
16.2431 15.7849 -21.6934
14.6768 17.0647 -21.5578
-6.8194 5.4248 -8.3461
-5.5924 -3.6603 -6.4016
23.2676 2.8009 -22.4462
21.3171 4.5257 -20.8722
19.8661 6.1147 -19.9083
18.4548 7.5425 -19.0949
17.1418 8.8672 -18.4847
15.8737 10.1026 -18.0215
14.5576 11.2092 -17.5975
13.4735 12.4408 -17.5645
15.1222 16.7008 -21.5788
13.4877 17.8740 -21.4466
23.6657 2.2378 -22.7677
21.9560 4.0787 -21.3889
20.3053 5.6868 -20.1964
18.6881 7.0868 -19.1429
17.3968 8.4434 -18.5211
16.2295 9.7560 -18.1367
15.0013 10.9525 -17.7899
13.8098 12.1132 -17.5940
15.5688 16.3359 -21.6138
14.0085 17.6107 -21.5528
-3.3083 -3.3838 -4.5325
22.4652 3.5826 -21.7887
20.7578 5.2459 -20.5065
19.0962 6.6892 -19.3797
17.8991 8.1295 -18.8288
16.5900 9.4048 -18.2652
15.3473 10.6154 -17.8730
14.1475 11.7842 -17.6352
16.0172 15.9695 -21.6632
14.4534 17.2472 -21.5526
-6.9538 5.3877 -8.4254
-3.4339 -3.3374 -4.5864
22.9941 3.0674 -22.2184
21.2247 4.7911 -20.8401
19.6501 6.3250 -19.7715
18.2889 7.7498 -19.0245
16.9559 9.0484 -18.4077
15.6968 10.2749 -17.9687
14.4870 11.4535 -17.6880
14.4729 13.7114 -19.0949
14.8985 16.8836 -21.5665
-5.6726 -3.6106 -6.4403
23.5045 2.5267 -22.6419
21.7073 4.3209 -21.1988
19.9448 5.8625 -19.9109
18.5590 7.3112 -19.1051
17.3278 8.6861 -18.5647
15.9402 9.8624 -17.9532
14.8287 11.1206 -17.7528
13.6409 12.2778 -17.5778
15.3444 16.5192 -21.5945
13.7852 17.7932 -21.5582
-3.2702 -3.4317 -4.5402
23.9528 1.9581 -23.0181
22.2072 3.8339 -21.5844
20.5289 5.4689 -20.3480
18.8901 6.8900 -19.2585
17.7063 8.3173 -18.7366
16.4083 9.5818 -18.1990
15.1732 10.7850 -17.8298
13.9778 11.9496 -17.6131
15.7918 16.1537 -21.6366
14.2300 17.4297 -21.5509
-3.3599 -3.3502 -4.5444
22.7259 3.3286 -21.9988
20.9884 5.0213 -20.6696
19.3032 6.4875 -19.5045
18.0922 7.9414 -18.9243
16.7715 9.2280 -18.3344
15.5208 10.4464 -17.9191
14.3163 11.6198 -17.6600
16.2412 15.7865 -21.6931
14.6749 17.0662 -21.5578
-6.8201 5.4242 -8.3462
-5.5923 -3.6610 -6.4019
23.2654 2.8031 -22.4443
21.3151 4.5276 -20.8707
19.8643 6.1164 -19.9071
18.4540 7.5445 -19.0949
17.1403 8.8687 -18.4841
15.8723 10.1040 -18.0211
14.5562 11.2106 -17.5972
13.4721 12.4421 -17.5644
15.1203 16.7023 -21.5787
13.4859 17.8755 -21.4467
23.6633 2.2401 -22.7656
21.9540 4.0807 -21.3873
20.3034 5.6886 -20.1951
18.6864 7.0884 -19.1420
13.9792 11.9482 -17.3973
15.7937 16.1522 -21.3716
14.2319 17.4282 -21.2867
-3.3905 -3.3801 -4.5292
22.7281 3.3265 -21.7308
20.9903 5.0194 -20.4176
19.3050 6.4858 -19.2665
18.0938 7.9398 -18.6930
16.7730 9.2266 -18.1102
15.5223 10.4449 -17.6998
14.3177 11.6184 -17.4437
16.2431 15.7849 -21.4274
14.6767 17.0647 -21.2935
-6.8945 5.4846 -8.3345
-3.5474 -3.3604 -4.6227
23.2676 2.8009 -22.1711
21.3171 4.5257 -20.6163
19.7292 6.0725 -19.5288
18.4878 7.5560 -18.8946
17.1418 8.8672 -18.2581
15.8737 10.1026 -17.8006
14.5576 11.2092 -17.3817
13.4735 12.4408 -17.3492
15.1222 16.7008 -21.3142
13.4877 17.8740 -21.1837
23.8270 2.2530 -22.6419
21.9560 4.0787 -21.1267
20.3053 5.6867 -19.9488
18.6881 7.0868 -18.9082
17.3968 8.4434 -18.2941
16.2295 9.7560 -17.9143
15.0013 10.9525 -17.5718
13.8098 12.1132 -17.3783
15.5688 16.3359 -21.3489
14.0085 17.6107 -21.2886
-3.3433 -3.4195 -4.5243
22.4652 3.5826 -21.5216
20.7578 5.2459 -20.2551
19.0962 6.6892 -19.1421
17.8991 8.1295 -18.5980
16.5900 9.4048 -18.0413
15.3473 10.6154 -17.6539
14.1475 11.7842 -17.4190
16.0172 15.9695 -21.3976
14.4534 17.2472 -21.2884
-6.9617 5.3938 -8.3315
-3.4499 -3.3529 -4.5512
22.9941 3.0674 -21.9460
21.2247 4.7911 -20.5846
19.5148 6.2814 -19.3946
18.2889 7.7498 -18.7913
16.9559 9.0484 -18.1821
15.6968 10.2749 -17.7484
14.4870 11.4535 -17.4712
14.6526 13.8815 -19.0949
14.8984 16.8836 -21.3021
-5.7055 -3.6315 -6.3982
23.5446 2.5311 -22.4025
21.7073 4.3209 -20.9389
19.9448 5.8625 -19.6669
18.5590 7.3112 -18.8709
17.3278 8.6861 -18.3371
15.9402 9.8624 -17.7331
14.8287 11.1206 -17.5352
13.6409 12.2778 -17.3623
15.3444 16.5192 -21.3297
13.7852 17.7932 -21.2939
23.9528 1.9581 -22.7359
22.2072 3.8339 -21.3198
20.5289 5.4689 -20.0985
18.9621 6.9163 -19.0949
17.7063 8.3173 -18.5069
16.4083 9.5818 -17.9759
15.1732 10.7850 -17.6112
13.9778 11.9496 -17.3971
15.7918 16.1537 -21.3714
14.2300 17.4297 -21.2867
-3.3901 -3.3804 -4.5291
22.7259 3.3286 -21.7291
20.9884 5.0213 -20.4162
19.3032 6.4875 -19.2654
18.0922 7.9414 -18.6923
16.7715 9.2280 -18.1097
15.5208 10.4464 -17.6994
14.3163 11.6198 -17.4435
16.2412 15.7865 -21.4272
14.6749 17.0662 -21.2935
-6.8946 5.4835 -8.3340
-3.5454 -3.3592 -4.6206
23.2654 2.8031 -22.1692
21.3151 4.5276 -20.6149
19.7275 6.0743 -19.5277
18.4861 7.5576 -18.8937
17.1403 8.8687 -18.2575
15.8723 10.1040 -17.8002
14.5562 11.2106 -17.3815
13.4721 12.4421 -17.3491
15.1203 16.7023 -21.3141
13.4859 17.8755 -21.1837
23.8268 2.2555 -22.6419
21.9540 4.0807 -21.1251
20.3034 5.6886 -19.9476
18.6864 7.0884 -18.9073
13.9792 11.9482 -17.1839
15.7937 16.1522 -21.1094
14.2319 17.4282 -21.0256
-7.1227 5.3751 -8.3382
-3.4213 -3.4108 -4.5143
22.7281 3.3265 -21.4642
20.9903 5.0194 -20.1671
19.3707 6.5079 -19.0949
18.0938 7.9398 -18.4637
16.7730 9.2266 -17.8881
15.5223 10.4449 -17.4826
14.3177 11.6184 -17.2297
16.2431 15.7849 -21.1646
14.6767 17.0647 -21.0323
-3.5420 -3.3553 -4.5590
23.2676 2.8009 -21.8991
21.3171 4.5257 -20.3634
19.7292 6.0725 -19.2892
18.4878 7.5560 -18.6628
17.1418 8.8672 -18.0341
15.8737 10.1026 -17.5822
14.5576 11.2092 -17.1685
13.4735 12.4408 -17.1364
15.1222 16.7008 -21.0527
13.4877 17.8740 -20.9238
23.8298 2.2533 -22.3668
21.9560 4.0787 -20.8675
20.3053 5.6868 -19.7041
18.6881 7.0868 -18.6762
17.3968 8.4434 -18.0697
16.2295 9.7560 -17.6946
15.0013 10.9525 -17.3563
13.8098 12.1132 -17.1652
15.5688 16.3359 -21.0870
14.0085 17.6107 -21.0274
-3.3949 -3.4723 -4.5377
22.4652 3.5826 -21.2576
20.7578 5.2459 -20.0067
19.2286 6.7356 -19.0384
17.8991 8.1295 -18.3698
16.5900 9.4048 -17.8200
15.3473 10.6154 -17.4373
14.1475 11.7842 -17.2053
16.0172 15.9695 -21.1351
14.4534 17.2472 -21.0272
-7.0204 5.4393 -8.2988
-3.4734 -3.3758 -4.5261
22.9941 3.0674 -21.6768
21.2247 4.7911 -20.3321
19.5148 6.2814 -19.1567
18.2889 7.7498 -18.5608
16.9559 9.0484 -17.9590
15.6968 10.2749 -17.5307
14.4870 11.4535 -17.2569
14.6592 13.8878 -18.8692
14.8985 16.8836 -21.0408
-5.7583 -3.6652 -6.3783
23.5446 2.5311 -22.1277
21.7073 4.3209 -20.6821
19.9448 5.8625 -19.4256
18.5590 7.3112 -18.6394
17.3278 8.6861 -18.1121
15.9402 9.8624 -17.5155
14.8287 11.1206 -17.3201
13.6409 12.2778 -17.1493
15.3444 16.5192 -21.0681
13.7852 17.7932 -21.0327
-3.4439 -3.6140 -4.6648
23.9528 1.9581 -22.4570
22.2072 3.8339 -21.0582
20.5289 5.4689 -19.8520
19.0211 6.9378 -18.9194
17.7063 8.3173 -18.2799
16.4083 9.5818 -17.7553
15.1732 10.7850 -17.3951
13.9778 11.9496 -17.1837
15.7918 16.1537 -21.1092
14.2300 17.4297 -21.0256
-7.1238 5.3747 -8.3388
-3.4209 -3.4111 -4.5142
22.7259 3.3286 -21.4625
20.9884 5.0213 -20.1658
19.3700 6.5100 -19.0949
18.0922 7.9414 -18.4629
16.7715 9.2280 -17.8875
15.5208 10.4464 -17.4822
14.3163 11.6198 -17.2295
16.2412 15.7865 -21.1643
14.6749 17.0662 -21.0323
-3.5414 -3.3554 -4.5587
23.2654 2.8031 -21.8972
21.3151 4.5276 -20.3620
19.7274 6.0743 -19.2881
18.4861 7.5576 -18.6619
17.1403 8.8687 -18.0335
15.8723 10.1040 -17.5818
14.5562 11.2106 -17.1682
13.4721 12.4421 -17.1363
15.1203 16.7023 -21.0526
13.4859 17.8755 -20.9239
23.8274 2.2556 -22.3647
21.9540 4.0807 -20.8659
20.3034 5.6886 -19.7029
18.6864 7.0884 -18.6753
13.9792 11.9482 -16.9729
15.7937 16.1522 -20.8502
14.2319 17.4282 -20.7675
-7.1638 5.4061 -8.2833
-3.4689 -3.4583 -4.5209
22.7281 3.3265 -21.2007
20.9903 5.0194 -19.9195
19.4389 6.5308 -18.9268
18.0938 7.9398 -18.2370
16.7730 9.2266 -17.6684
15.5223 10.4449 -17.2680
14.3177 11.6184 -17.0182
16.2431 15.7849 -20.9047
14.6767 17.0647 -20.7741
-3.5584 -3.3708 -4.5238
23.2676 2.8009 -21.6302
21.3171 4.5257 -20.1134
19.7733 6.0861 -19.0949
18.4878 7.5560 -18.4337
17.1418 8.8672 -17.8127
15.8737 10.1026 -17.3663
14.5576 11.2092 -16.9577
13.4735 12.4408 -16.9260
15.1222 16.7008 -20.7943
13.4877 17.8740 -20.6669
-5.8858 -3.6412 -6.3879
23.8298 2.2533 -22.0921
21.9560 4.0787 -20.6113
20.1790 5.6514 -19.3411
18.6881 7.0868 -18.4469
17.3968 8.4434 -17.8478
16.2295 9.7560 -17.4773
15.0013 10.9525 -17.1431
13.8098 12.1132 -16.9544
15.5688 16.3359 -20.8281
14.0085 17.6107 -20.7692
-3.4568 -3.5356 -4.5637
22.4652 3.5826 -20.9965
20.7578 5.2459 -19.7610
19.2286 6.7356 -18.8046
17.8991 8.1295 -18.1443
16.5900 9.4048 -17.6012
15.3473 10.6154 -17.2232
14.1475 11.7842 -16.9940
16.0172 15.9695 -20.8756
14.4534 17.2472 -20.7691
-3.5050 -3.4065 -4.5111
22.9941 3.0674 -21.4107
21.2247 4.7911 -20.0825
19.6501 6.3250 -19.0527
18.2889 7.7498 -18.3329
16.9559 9.0484 -17.7385
15.6968 10.2749 -17.3154
14.4870 11.4535 -17.0450
14.6592 13.8878 -18.6375
14.8984 16.8836 -20.7824
-5.8274 -3.7091 -6.3755
-3.6358 -3.3574 -4.5676
23.5446 2.5311 -21.8560
21.7073 4.3209 -20.4281
19.9448 5.8625 -19.1871
18.5590 7.3112 -18.4105
17.3278 8.6861 -17.8898
15.9402 9.8624 -17.3005
14.8287 11.1206 -17.1074
13.6409 12.2778 -16.9387
15.3444 16.5192 -20.8094
13.7852 17.7932 -20.7744
-3.4439 -3.6140 -4.6076
23.9528 1.9581 -22.1813
22.2072 3.8339 -20.7997
20.3875 5.4313 -19.4732
19.0211 6.9378 -18.6871
17.7063 8.3173 -18.0555
16.4083 9.5818 -17.5373
15.1732 10.7850 -17.1815
13.9778 11.9496 -16.9727
15.7918 16.1537 -20.8500
14.2300 17.4297 -20.7675
-7.1645 5.4054 -8.2834
-3.4688 -3.4588 -4.5212
22.7259 3.3286 -21.1990
20.9884 5.0213 -19.9182
19.4371 6.5325 -18.9258
18.0922 7.9414 -18.2363
16.7715 9.2280 -17.6679
15.5208 10.4464 -17.2676
14.3163 11.6198 -17.0180
16.2412 15.7865 -20.9044
14.6749 17.0662 -20.7740
-3.5577 -3.3709 -4.5235
23.2654 2.8031 -21.6284
21.3151 4.5276 -20.1119
19.7727 6.0882 -19.0949
18.4861 7.5576 -18.4328
17.1403 8.8687 -17.8121
15.8723 10.1040 -17.3659
14.5562 11.2106 -16.9575
13.4721 12.4421 -16.9259
15.1203 16.7023 -20.7941
13.4859 17.8755 -20.6670
-5.8848 -3.6414 -6.3872
23.8274 2.2556 -22.0901
21.9540 4.0807 -20.6098
20.1784 5.6535 -19.3411
18.6864 7.0884 -18.4460
13.9792 11.9482 -16.7643
15.7937 16.1522 -20.5940
14.2319 17.4282 -20.5122
-7.2301 5.4561 -8.2573
-3.4734 -3.4627 -4.4712
22.7281 3.3265 -20.9402
20.8457 4.9849 -19.5392
19.4389 6.5308 -18.6942
18.0938 7.9398 -18.0129
16.7730 9.2266 -17.4513
15.5223 10.4449 -17.0558
14.3177 11.6184 -16.8090
16.2431 15.7849 -20.6478
14.6768 17.0647 -20.5188
-3.5903 -3.4010 -4.5083
23.2676 2.8009 -21.3644
21.3171 4.5257 -19.8662
19.8661 6.1147 -18.9487
18.4878 7.5560 -18.2071
17.1418 8.8672 -17.5938
15.8737 10.1026 -17.1529
14.5576 11.2092 -16.7493
13.4735 12.4408 -16.7179
15.1222 16.7008 -20.5387
13.4877 17.8740 -20.4129
-5.9317 -3.6696 -6.3585
-3.7676 -3.3908 -4.6208
23.8298 2.2533 -21.8206
21.9560 4.0787 -20.3580
20.1701 5.6489 -19.0949
18.6881 7.0868 -18.2202
17.3968 8.4434 -17.6285
16.2295 9.7560 -17.2625
15.0013 10.9525 -16.9325
13.8098 12.1132 -16.7460
15.5688 16.3359 -20.5721
14.0085 17.6107 -20.5140
-7.3206 5.3786 -8.2812
-3.4568 -3.5356 -4.5077
22.4652 3.5826 -20.7385
20.6148 5.2098 -19.3837
19.2286 6.7356 -18.5735
17.8991 8.1295 -17.9213
16.5900 9.4048 -17.3849
15.3473 10.6154 -17.0116
14.1475 11.7842 -16.7852
16.0172 15.9695 -20.6191
14.4534 17.2472 -20.5138
-3.5428 -3.4432 -4.5038
22.9941 3.0674 -21.1475
21.2247 4.7911 -19.8357
19.6501 6.3250 -18.8186
18.2889 7.7498 -18.1076
16.9559 9.0484 -17.5205
15.6968 10.2749 -17.1026
14.4870 11.4535 -16.8355
14.6592 13.8878 -18.4085
14.8985 16.8836 -20.5270
-3.6526 -3.3730 -4.5324
23.5446 2.5311 -21.5874
21.7073 4.3209 -20.1771
19.9448 5.8625 -18.9513
18.5590 7.3112 -18.1842
17.3278 8.6861 -17.6699
15.9402 9.8624 -17.0879
14.8287 11.1206 -16.8972
13.6409 12.2778 -16.7306
15.3444 16.5192 -20.5536
13.7852 17.7932 -20.5191
-3.4439 -3.6140 -4.5509
23.9528 1.9581 -21.9087
22.2072 3.8339 -20.5440
20.3875 5.4313 -19.2338
19.0211 6.9378 -18.4574
17.7063 8.3173 -17.8336
16.4083 9.5818 -17.3218
15.1732 10.7850 -16.9704
13.9778 11.9496 -16.7641
15.7918 16.1537 -20.5938
14.2300 17.4297 -20.5122
-7.2302 5.4550 -8.2568
-3.4726 -3.4627 -4.4706
22.7259 3.3286 -20.9385
20.8438 4.9867 -19.5379
19.4371 6.5325 -18.6932
18.0922 7.9414 -18.0121
16.7715 9.2280 -17.4508
15.5208 10.4463 -17.0554
14.3163 11.6198 -16.8088
16.2412 15.7865 -20.6475
14.6749 17.0662 -20.5187
-3.5899 -3.4013 -4.5082
23.2654 2.8031 -21.3626
21.3151 4.5276 -19.8648
19.8643 6.1164 -18.9477
18.4861 7.5576 -18.2063
17.1403 8.8687 -17.5932
15.8723 10.1040 -17.1525
14.5562 11.2106 -16.7491
13.4721 12.4421 -16.7179
15.1203 16.7023 -20.5386
13.4859 17.8755 -20.4130
-5.9311 -3.6701 -6.3584
-3.7654 -3.3895 -4.6186
23.8274 2.2556 -21.8187
21.9540 4.0807 -20.3565
20.1695 5.6510 -19.0949
18.6864 7.0884 -18.2193
13.9792 11.9482 -16.5580
15.7937 16.1522 -20.3406
14.2319 17.4282 -20.2598
-3.4734 -3.4627 -4.4161
22.7281 3.3265 -20.6825
20.8915 4.9958 -19.3411
19.4389 6.5308 -18.4642
18.0938 7.9398 -17.7913
16.7730 9.2266 -17.2366
15.5223 10.4449 -16.8459
14.3177 11.6184 -16.6022
16.2431 15.7849 -20.3937
14.6767 17.0647 -20.2663
-3.6229 -3.4319 -4.4933
23.2676 2.8009 -21.1015
21.3171 4.5257 -19.6218
19.8661 6.1147 -18.7156
18.4878 7.5560 -17.9831
17.1418 8.8672 -17.3773
15.8737 10.1026 -16.9419
14.5576 11.2092 -16.5432
13.4735 12.4408 -16.5122
15.1222 16.7008 -20.2860
13.4877 17.8740 -20.1617
-5.9905 -3.7060 -6.3426
-3.7498 -3.3747 -4.5424
-3.5331 -3.8031 -4.6740
23.8298 2.2533 -21.5521
21.9560 4.0787 -20.1075
20.3053 5.6868 -18.9864
18.6881 7.0868 -17.9961
17.3968 8.4434 -17.4115
16.2295 9.7560 -17.0501
15.0013 10.9525 -16.7241
13.8098 12.1132 -16.5400
15.5688 16.3359 -20.3190
14.0085 17.6107 -20.2616
-7.3717 5.4161 -8.2364
-3.4568 -3.5356 -4.4522
22.4652 3.5826 -20.4833
20.6148 5.2098 -19.1452
19.2286 6.7356 -18.3450
17.8991 8.1295 -17.7008
16.5900 9.4048 -17.1710
15.3473 10.6154 -16.8023
14.1475 11.7842 -16.5787
16.0172 15.9695 -20.3654
14.4534 17.2472 -20.2614
-3.5732 -3.4728 -4.4865
22.9941 3.0674 -20.8873
21.0785 4.7581 -19.4567
19.6501 6.3250 -18.5870
18.2889 7.7498 -17.8848
16.9559 9.0484 -17.3050
15.6968 10.2749 -16.8922
14.4870 11.4535 -16.6284
14.6592 13.8878 -18.1820
14.8985 16.8836 -20.2745
-3.6764 -3.3949 -4.5058
23.5446 2.5311 -21.3218
21.7073 4.3210 -19.9288
19.9448 5.8625 -18.7181
18.5590 7.3112 -17.9605
17.3278 8.6861 -17.4525
15.9402 9.8624 -16.8776
14.8287 11.1206 -16.6893
13.6409 12.2778 -16.5247
15.3444 16.5192 -20.3008
13.7852 17.7932 -20.2666
-7.5209 5.3787 -8.3254
-6.0743 -3.6519 -6.3817
-3.4439 -3.6140 -4.4949
23.9528 1.9581 -21.6391
22.2072 3.8339 -20.2913
20.4924 5.4592 -19.0949
19.0211 6.9378 -18.2303
17.7063 8.3173 -17.6141
16.4083 9.5818 -17.1087
15.1732 10.7850 -16.7616
13.9778 11.9496 -16.5579
15.7918 16.1537 -20.3404
14.2300 17.4297 -20.2598
-3.4726 -3.4627 -4.4156
22.7259 3.3286 -20.6808
20.8910 4.9980 -19.3411
19.4371 6.5325 -18.4632
18.0922 7.9414 -17.7905
16.7715 9.2280 -17.2360
15.5208 10.4464 -16.8455
14.3163 11.6198 -16.6020
16.2412 15.7865 -20.3935
14.6749 17.0662 -20.2663
-3.6224 -3.4322 -4.4932
23.2654 2.8031 -21.0997
21.3151 4.5276 -19.6204
19.8643 6.1164 -18.7145
18.4861 7.5576 -17.9823
17.1403 8.8687 -17.3767
15.8723 10.1040 -16.9415
14.5562 11.2106 -16.5430
13.4721 12.4421 -16.5122
15.1203 16.7023 -20.2859
13.4859 17.8755 -20.1618
-5.9904 -3.7068 -6.3429
-3.7491 -3.3749 -4.5420
-3.5326 -3.8034 -4.6739
23.8274 2.2556 -21.5502
21.9540 4.0807 -20.1060
20.3034 5.6886 -18.9853
18.6864 7.0884 -17.9952
13.9792 11.9482 -16.3540
15.7937 16.1522 -20.0900
14.2319 17.4282 -20.0103
-3.4734 -3.4627 -4.3617
22.7281 3.3265 -20.4277
20.8828 4.9937 -19.0949
19.4389 6.5308 -18.2367
18.0938 7.9398 -17.5721
16.7730 9.2266 -17.0242
15.5223 10.4449 -16.6384
14.3177 11.6184 -16.3977
16.2431 15.7849 -20.1425
14.6768 17.0647 -20.0166
-3.6724 -3.4787 -4.4985
23.2676 2.8009 -20.8415
21.3171 4.5257 -19.3800
19.8660 6.1147 -18.4850
18.4878 7.5560 -17.7616
17.1418 8.8672 -17.1632
15.8737 10.1026 -16.7332
14.5576 11.2092 -16.3394
13.4735 12.4408 -16.3088
15.1222 16.7008 -20.0361
13.4877 17.8740 -19.9134
-3.7671 -3.3903 -4.5071
-3.5782 -3.8517 -4.6754
23.8298 2.2533 -21.2866
21.9560 4.0787 -19.8598
20.3053 5.6868 -18.7525
18.6881 7.0868 -17.7743
17.3968 8.4434 -17.1970
16.2295 9.7560 -16.8401
15.0013 10.9525 -16.5181
13.8098 12.1132 -16.3362
15.5688 16.3359 -20.0686
14.0085 17.6107 -20.0120
-7.4507 5.4742 -8.2221
-3.4568 -3.5356 -4.3973
22.4652 3.5826 -20.2310
20.7578 5.2459 -19.0405
19.2286 6.7356 -18.1190
17.8991 8.1295 -17.4827
16.5900 9.4048 -16.9595
15.3473 10.6154 -16.5953
14.1475 11.7842 -16.3744
16.0172 15.9695 -20.1145
14.4534 17.2472 -20.0118
-3.5732 -3.4728 -4.4312
22.9941 3.0674 -20.6300
21.0785 4.7581 -19.2170
19.6501 6.3250 -18.3580
18.2889 7.7498 -17.6645
16.9559 9.0484 -17.0918
15.6968 10.2749 -16.6841
14.4870 11.4535 -16.4235
14.6592 13.8878 -17.9580
14.8985 16.8836 -20.0247
-3.7098 -3.4258 -4.4906
23.5446 2.5311 -21.0591
21.5578 4.2912 -19.5477
19.9448 5.8625 -18.4875
18.5590 7.3112 -17.7392
17.3278 8.6861 -17.2375
15.9402 9.8624 -16.6697
14.8287 11.1206 -16.4837
13.6409 12.2778 -16.3211
15.3444 16.5192 -20.0507
13.7852 17.7932 -20.0170
-7.5238 5.3808 -8.2260
-6.1089 -3.6727 -6.3390
-3.8488 -3.3763 -4.5531
-3.4439 -3.6140 -4.4396
23.9528 1.9581 -21.3725
22.2072 3.8339 -20.0413
20.5289 5.4689 -18.8933
19.0211 6.9378 -18.0057
17.7063 8.3173 -17.3971
16.4083 9.5818 -16.8979
15.1732 10.7850 -16.5551
13.9778 11.9496 -16.3539
15.7918 16.1537 -20.0898
14.2300 17.4297 -20.0103
-3.4726 -3.4627 -4.3612
22.7259 3.3286 -20.4260
20.8823 4.9959 -19.0949
19.4371 6.5325 -18.2358
18.0922 7.9414 -17.5713
16.7715 9.2280 -17.0237
15.5208 10.4464 -16.6380
14.3163 11.6198 -16.3975
16.2412 15.7865 -20.1422
14.6749 17.0662 -20.0166
-3.6722 -3.4793 -4.4988
23.2654 2.8031 -20.8398
21.3151 4.5276 -19.3786
19.8643 6.1164 -18.4840
18.4861 7.5576 -17.7607
17.1403 8.8687 -17.1626
15.8723 10.1040 -16.7327
14.5562 11.2106 -16.3392
13.4721 12.4421 -16.3087
15.1203 16.7023 -20.0360
13.4859 17.8755 -19.9134
-3.7664 -3.3904 -4.5067
-3.5778 -3.8521 -4.6754
23.8274 2.2556 -21.2847
21.9540 4.0807 -19.8583
20.3034 5.6886 -18.7514
18.6864 7.0884 -17.7735
13.9792 11.9482 -16.1523
15.7937 16.1522 -19.8421
14.2319 17.4282 -19.7634
-3.4734 -3.4627 -4.3079
22.7281 3.3265 -20.1757
20.9903 5.0194 -18.9564
