ply
format ascii 1.0
element vertex 2050
property float32 x
property float32 y
property float32 z
end_header
16.7972 7.9411 0.1145
15.5908 9.1565 0.1114
14.4385 10.3173 0.1093
16.6203 14.2812 0.1350
15.1224 15.5475 0.1336
17.0117 25.2584 0.1876
18.0395 32.7627 0.2304
10.9688 24.9701 0.1680
-16.8828 32.4138 0.2251
-16.9226 26.4248 0.1933
-18.9273 24.4376 0.1904
-22.5128 24.2427 0.2038
-27.6915 24.9301 0.2295
-33.2635 24.9507 0.2562
-8.6603 4.3420 0.0597
-16.9778 6.6894 0.1124
-16.9841 4.9930 0.1091
-16.9900 3.3825 0.1067
-17.9258 1.9273 0.1111
-16.3332 0.2891 0.1006
-22.1933 -1.5943 0.1371
-22.2007 -3.6083 0.1386
-8.5282 -4.8689 0.0605
-33.8439 -33.9515 0.2953
-16.0715 -45.9053 0.2996
-10.1805 -40.3146 0.2561
-2.6892 -39.1752 0.2419
12.4810 -41.9624 0.2697
16.6941 -41.9780 0.2783
25.3250 -40.6349 0.2949
26.9880 -8.2950 0.1739
23.2091 1.3812 0.1432
21.3954 3.2085 0.1333
19.8054 4.8102 0.1255
18.4533 6.2727 0.1201
17.1410 7.5947 0.1155
15.9156 8.8293 0.1121
14.7507 10.0029 0.1098
13.9594 11.4115 0.1111
15.5307 15.2024 0.1339
14.0488 16.4552 0.1333
21.6795 37.1838 0.2651
11.5879 24.7141 0.1681
-5.2920 27.9048 0.1750
-16.2120 33.0830 0.2270
-16.2353 26.7765 0.1929
-17.9829 24.4341 0.1869
-21.6103 24.4475 0.2010
-26.3556 24.9252 0.2235
-31.6087 24.9446 0.2480
-38.1573 24.9283 0.2808
-16.3022 8.6804 0.1138
-16.9760 7.1748 0.1135
-16.9824 5.4486 0.1099
-16.9884 3.8178 0.1073
-16.3262 2.1618 0.1014
-17.9301 0.7578 0.1105
-22.1913 -1.0475 0.1369
-22.1987 -3.0509 0.1380
-11.5736 -41.5120 0.2655
-3.6581 -39.1877 0.2424
10.7745 -39.7717 0.2538
15.7919 -42.7348 0.2806
24.1015 -40.8730 0.2923
28.7272 -40.0530 0.3036
23.7568 0.8295 0.1464
21.8678 2.7325 0.1358
20.2234 4.3891 0.1275
19.2770 6.0292 0.1244
17.4913 7.2418 0.1166
16.2449 8.4975 0.1129
15.0657 9.6855 0.1103
13.9308 10.8288 0.1087
15.9408 14.8556 0.1342
14.4544 16.1123 0.1333
14.6162 29.2809 0.2016
0.7895 49.5228 0.3051
-4.6145 28.0796 0.1753
-16.8936 29.4701 0.2093
-17.0723 24.4307 0.1836
-20.5608 24.4436 0.1968
-25.0878 24.9205 0.2178
-30.0543 24.9388 0.2406
-37.5920 25.8970 0.2812
-16.9742 7.6703 0.1147
-16.9807 5.9115 0.1108
-16.9868 4.2579 0.1079
-16.3247 2.5707 0.1018
-17.9285 1.1990 0.1107
-22.1893 -0.5022 0.1367
-22.1966 -2.4973 0.1376
-12.9116 -42.2719 0.2723
-9.6449 -45.9191 0.2890
-4.6322 -39.2001 0.2431
5.6862 -37.4690 0.2334
9.7326 -39.7678 0.2522
14.3487 -41.9693 0.2732
22.6543 -40.6681 0.2868
27.8316 -40.8868 0.3047
8.1459 -8.2926 0.0716
44.5398 0.4614 0.2744
22.3586 2.2381 0.1384
20.6546 3.9547 0.1295
19.1447 5.4758 0.1227
17.8488 6.8817 0.1178
16.5793 8.1606 0.1138
15.3841 9.3647 0.1109
14.2391 10.5183 0.1091
16.3534 14.5068 0.1347
14.8606 15.7689 0.1335
-16.8872 31.2098 0.2186
-16.2437 24.5043 0.1811
-19.5539 24.4399 0.1928
-21.6848 22.6243 0.1931
-28.5900 24.9334 0.2337
-34.0939 24.7425 0.2595
-16.9723 8.1767 0.1161
-16.9789 6.3822 0.1117
-16.9851 4.7034 0.1086
-16.9910 3.1047 0.1064
-17.9268 1.6417 0.1109
-16.3341 0.0313 0.1006
-22.1946 -1.9469 0.1372
-8.5066 -5.0362 0.0609
-14.8796 -44.7533 0.2905
-9.6486 -40.9180 0.2590
-2.1685 -41.0693 0.2533
13.2062 -41.9651 0.2710
17.4675 -41.9809 0.2801
22.6453 -43.1072 0.2999
26.0555 -40.3729 0.2960
9.1522 -8.1816 0.0756
22.8693 1.7236 0.1413
21.1004 3.5056 0.1318
19.5431 5.0745 0.1244
18.2140 6.5138 0.1192
16.9192 7.8182 0.1148
15.7062 9.0402 0.1116
14.5496 10.2054 0.1095
16.4675 13.9011 0.1328
15.2679 15.4245 0.1337
18.4415 32.8095 0.2319
11.1237 24.7324 0.1671
-5.7267 27.7926 0.1748
-8.8821 22.1081 0.1468
-16.7887 32.9341 0.2277
-16.5973 26.4236 0.1922
-18.5863 24.4363 0.1891
-22.1193 24.2412 0.2022
-27.2066 24.9283 0.2273
-32.6605 24.9485 0.2532
-38.5123 24.3018 0.2805
-8.6274 4.4205 0.0597
-16.9772 6.8616 0.1128
-16.9835 5.1548 0.1093
-16.9895 3.5373 0.1069
-17.4121 2.0265 0.1080
-17.9311 0.4745 0.1105
-22.1926 -1.3989 0.1370
-22.2000 -3.4089 0.1384
-8.5378 -4.7757 0.0603
-16.7458 -46.5211 0.3046
-10.5851 -40.4217 0.2574
-3.0345 -39.1797 0.2421
11.4521 -39.7742 0.2550
16.2690 -41.9764 0.2773
16.8493 -34.0802 0.2342
24.9811 -40.8763 0.2951
26.9345 -8.5375 0.1741
23.4018 1.1871 0.1443
21.5620 3.0406 0.1341
19.9531 4.6614 0.1262
18.5877 6.1373 0.1206
17.2653 7.4696 0.1159
16.0326 8.7114 0.1124
14.8627 9.8900 0.1100
13.7335 11.0276 0.1085
15.6769 15.0788 0.1340
14.1935 16.3328 0.1333
24.8236 34.3323 0.2610
22.1063 37.1638 0.2664
-5.0505 27.9671 0.1751
-16.8975 28.4275 0.2037
-17.6542 24.4329 0.1857
-21.2306 24.4461 0.1995
-25.8957 24.9235 0.2214
-31.0430 24.9425 0.2453
-38.1555 25.4066 0.2824
-16.3015 8.8641 0.1143
-16.9754 7.3505 0.1140
-16.9818 5.6130 0.1102
-16.9878 3.9743 0.1075
-16.3257 2.3074 0.1016
-17.9295 0.9151 0.1106
-22.1906 -0.8528 0.1368
-22.1980 -2.8530 0.1379
-22.0337 -6.9764 0.1424
-12.1357 -42.0993 0.2699
-4.0050 -39.1921 0.2427
10.4011 -39.7703 0.2532
15.7428 -43.7775 0.2866
23.6206 -40.8713 0.2908
28.7245 -40.7988 0.3074
8.3478 -8.2341 0.0722
23.9583 0.6265 0.1476
22.0408 2.5583 0.1367
20.3757 4.2357 0.1282
19.0089 5.7631 0.1224
17.6181 7.1142 0.1170
16.3637 8.3779 0.1132
15.1789 9.5714 0.1105
14.0406 10.7182 0.1088
16.0878 14.7314 0.1344
14.5993 15.9898 0.1334
14.8316 29.0722 0.2011
1.2225 49.4914 0.3050
-16.8914 30.0736 0.2125
-16.7551 24.4296 0.1825
-20.1968 24.4423 0.1953
-24.6504 24.9189 0.2159
-29.5219 24.9369 0.2381
-34.6027 24.2873 0.2604
-16.9735 7.8497 0.1152
-16.9801 6.0785 0.1111
-16.9862 4.4162 0.1081
-16.9921 2.8285 0.1061
-17.9279 1.3569 0.1108
-22.1886 -0.3078 0.1367
-22.1959 -2.3006 0.1375
-13.7071 -43.5087 0.2810
-9.5869 -43.7353 0.2758
9.2074 -39.1021 0.2475
13.9387 -41.9678 0.2724
18.2512 -41.9838 0.2820
22.6961 -41.5957 0.2919
27.3095 -40.8849 0.3029
8.1569 -8.4507 0.0724
18.3201 6.4069 0.2391
17.0176 7.7191 0.2302
15.7992 8.9466 0.2237
14.6389 10.1154 0.2192
15.2400 12.6826 0.2443
15.3848 15.3257 0.2676
11.2984 24.6561 0.3342
-5.5333 27.8426 0.3498
-8.7431 22.2119 0.2941
-16.4977 32.9330 0.4538
-16.3389 26.4227 0.3828
-18.3159 24.4353 0.3763
-21.9960 24.4489 0.4052
-26.8241 24.9269 0.4512
-32.1870 24.9467 0.5017
-38.1591 24.4553 0.5584
-8.6479 4.5080 0.1202
-16.9767 7.0005 0.2262
-16.9830 5.2853 0.2191
-16.9890 3.6619 0.2141
-16.3762 2.0227 0.2033
-17.9307 0.6005 0.2210
-22.1920 -1.2425 0.2738
-22.1994 -3.2493 0.2764
-8.5448 -4.7011 0.1202
-29.0140 -23.5487 0.4604
-24.9072 -24.2098 0.4279
-11.0585 -41.0507 0.5238
-3.3117 -39.1820 0.4845
3.8153 -40.2535 0.4982
11.1497 -39.7731 0.5089
15.9303 -41.9752 0.5531
24.2163 -40.2577 0.5788
49.3853 -6.7159 0.6141
23.5586 1.0292 0.2905
21.6972 2.9044 0.2697
20.0728 4.5409 0.2536
18.6964 6.0279 0.2420
17.3656 7.3686 0.2324
16.1268 8.6165 0.2253
14.9529 9.7991 0.2203
13.8212 10.9392 0.2172
15.7942 14.9796 0.2682
14.3096 16.2347 0.2666
20.7381 42.4719 0.5823
13.6612 35.7703 0.4718
8.3348 29.4941 0.3776
-4.8566 28.0172 0.3503
-20.8584 44.3217 0.6035
-16.8958 28.8846 0.4123
-17.3936 24.4319 0.3695
-20.9302 24.4450 0.3965
-25.5328 24.9221 0.4396
-30.5981 24.9408 0.4864
-38.1541 25.7945 0.5674
-16.3009 9.0128 0.2295
-16.9748 7.4923 0.2286
-16.9813 5.7455 0.2209
-16.9874 4.1002 0.2153
-16.3253 2.4244 0.2033
-17.9290 1.0414 0.2213
-22.1900 -0.6967 0.2735
-22.1974 -2.6945 0.2755
-22.0210 -6.8026 0.2840
-25.4859 -23.5842 0.4278
-12.4916 -42.2172 0.5424
-9.6691 -48.1262 0.6048
-4.2838 -39.1945 0.4858
10.1029 -39.7692 0.5055
14.7610 -41.9708 0.5481
22.6899 -39.9055 0.5655
27.8108 -40.0968 0.6012
8.2217 -8.2245 0.1433
27.9400 0.5342 0.3443
22.1813 2.4167 0.2749
20.4992 4.1113 0.2576
19.0051 5.6164 0.2442
17.7204 7.0111 0.2348
16.4594 8.2815 0.2270
15.2701 9.4796 0.2214
14.1288 10.6293 0.2178
16.2059 14.6316 0.2690
14.7156 15.8915 0.2668
15.0778 29.0489 0.4032
16.4254 40.0319 0.5331
1.5700 49.4749 0.6099
-16.8896 30.5715 0.4303
-16.5033 24.4286 0.3632
-19.9086 24.4412 0.3884
-24.3053 24.9176 0.4289
-29.1029 24.9353 0.4722
-33.0670 23.5579 0.5002
-16.9730 7.9947 0.2312
-16.9796 6.2133 0.2228
-16.9857 4.5437 0.2166
-16.9916 2.9513 0.2125
-17.9274 1.4835 0.2216
-22.1880 -0.1519 0.2734
-22.1953 -2.1430 0.2747
-26.7605 -23.5713 0.4394
-14.1009 -43.6858 0.5656
-9.6593 -42.6318 0.5385
8.8492 -38.8009 0.4903
13.6118 -41.9666 0.5436
17.9011 -41.9825 0.5623
22.6486 -42.2115 0.5902
26.8949 -40.8834 0.6029
9.2512 -8.1254 0.1517
39.8206 -7.4208 0.4991
43.5932 -0.2365 0.5371
22.6846 1.9096 0.2805
20.9396 3.6676 0.2619
19.3997 5.2190 0.2475
18.0827 6.6461 0.2374
16.7972 7.9411 0.2289
15.5908 9.1565 0.2228
14.4385 10.3173 0.2186
16.6203 14.2812 0.2700
15.1224 15.5475 0.2672
17.0117 25.2584 0.3752
18.0395 32.7627 0.4608
10.9688 24.9701 0.3360
5.9033 24.6471 0.3123
-16.8828 32.4138 0.4503
-16.9226 26.4248 0.3866
-18.9274 24.4376 0.3808
-22.5128 24.2427 0.4076
-27.6915 24.9301 0.4591
-33.2635 24.9507 0.5123
-8.6601 4.3419 0.1194
-16.9778 6.6894 0.2248
-16.9841 4.9930 0.2181
-16.9900 3.3825 0.2134
-17.9258 1.9273 0.2221
-16.3332 0.2891 0.2013
-22.1933 -1.5943 0.2741
-22.2007 -3.6083 0.2771
-8.5280 -4.8688 0.1210
-28.1067 -23.5578 0.4518
-24.9151 -24.9943 0.4348
-15.7570 -45.0070 0.5875
-10.1924 -40.3615 0.5129
-2.6891 -39.1741 0.4838
12.4810 -41.9624 0.5394
16.6941 -41.9780 0.5566
24.9963 -40.1074 0.5822
26.9870 -8.2947 0.3478
30.9175 -6.5506 0.3894
23.2091 1.3812 0.2865
21.3954 3.2085 0.2665
19.8054 4.8102 0.2511
18.4533 6.2727 0.2401
17.1410 7.5947 0.2310
15.9156 8.8293 0.2242
14.7507 10.0029 0.2196
13.9594 11.4115 0.2221
15.5307 15.2024 0.2678
14.0488 16.4552 0.2666
21.6795 37.1838 0.5303
11.5879 24.7141 0.3363
12.9022 35.4520 0.4648
-5.2921 27.9048 0.3499
-16.2120 33.0830 0.4539
-16.2353 26.7765 0.3858
-17.9829 24.4341 0.3738
-21.6103 24.4475 0.4020
-26.3556 24.9252 0.4469
-31.6087 24.9446 0.4961
-38.1573 24.9283 0.5616
-16.3022 8.6804 0.2276
-16.9760 7.1748 0.2271
-16.9824 5.4486 0.2197
-16.9884 3.8178 0.2145
-16.3262 2.1618 0.2029
-17.9301 0.7578 0.2211
-22.1913 -1.0475 0.2737
-22.1987 -3.0509 0.2761
-29.5325 -23.5434 0.4653
-24.9029 -23.7851 0.4243
-11.5497 -41.4262 0.5298
-3.6580 -39.1865 0.4849
10.7745 -39.7717 0.5077
15.7919 -42.7348 0.5613
24.1015 -40.8730 0.5846
28.7272 -40.0530 0.6073
23.7568 0.8295 0.2929
21.8678 2.7325 0.2715
20.2234 4.3891 0.2550
19.2770 6.0292 0.2489
17.4913 7.2418 0.2332
16.2449 8.4975 0.2259
15.0657 9.6855 0.2207
13.9308 10.8288 0.2174
15.9408 14.8556 0.2685
14.4544 16.1123 0.2667
14.6162 29.2809 0.4032
8.5782 29.3703 0.3770
0.7896 49.5315 0.6104
-4.6145 28.0797 0.3506
-20.5170 44.6060 0.6049
-16.8936 29.4701 0.4185
-17.0723 24.4307 0.3672
-20.5607 24.4436 0.3935
-25.0878 24.9205 0.4357
-30.0543 24.9388 0.4812
-37.5920 25.8970 0.5624
-16.9742 7.6703 0.2295
-16.9807 5.9115 0.2215
-16.9868 4.2579 0.2158
-16.3247 2.5707 0.2036
-17.9285 1.1990 0.2214
-22.1893 -0.5022 0.2735
-22.1966 -2.4973 0.2752
-25.9332 -23.5797 0.4318
-13.1722 -43.1250 0.5555
-9.7236 -46.2934 0.5828
-4.6320 -39.1990 0.4863
5.6860 -37.4681 0.4669
9.7326 -39.7678 0.5044
14.3487 -41.9693 0.5465
22.6543 -40.6681 0.5735
27.8316 -40.8868 0.6094
8.1457 -8.2924 0.1432
39.6494 -6.7433 0.4955
44.5398 0.4614 0.5488
22.3586 2.2381 0.2768
20.6546 3.9547 0.2591
19.1447 5.4758 0.2453
17.8488 6.8817 0.2357
16.5793 8.1606 0.2277
15.3841 9.3647 0.2219
14.2391 10.5183 0.2181
16.3534 14.5068 0.2693
14.8606 15.7689 0.2670
16.6078 39.4881 0.5278
-16.8872 31.2098 0.4372
-16.2437 24.5043 0.3622
-19.5539 24.4399 0.3856
-21.6689 22.6076 0.3858
-28.5900 24.9334 0.4674
-34.0939 24.7425 0.5190
-16.9723 8.1767 0.2321
-16.9789 6.3822 0.2235
-16.9851 4.7034 0.2171
-16.9910 3.1047 0.2128
-17.9268 1.6417 0.2218
-16.3341 0.0312 0.2012
-22.1946 -1.9469 0.2745
-8.5063 -5.0360 0.1218
-27.2323 -23.5666 0.4437
-14.9109 -44.8477 0.5823
-9.6437 -40.8976 0.5177
-2.1685 -41.0693 0.5067
13.2062 -41.9651 0.5420
17.4675 -41.9809 0.5602
22.6453 -43.1072 0.5999
26.0555 -40.3729 0.5920
9.1522 -8.1816 0.1512
22.8693 1.7236 0.2826
21.1004 3.5056 0.2635
19.5431 5.0745 0.2488
18.2140 6.5138 0.2383
16.9192 7.8182 0.2296
15.7062 9.0402 0.2233
14.5496 10.2054 0.2190
16.4675 13.9011 0.2655
15.2679 15.4245 0.2674
18.4415 32.8095 0.4637
11.1237 24.7324 0.3341
-5.7267 27.7927 0.3496
-8.8818 22.1074 0.2935
-16.7887 32.9341 0.4555
-16.5973 26.4236 0.3845
-18.5863 24.4363 0.3783
-22.1193 24.2412 0.4043
-27.2066 24.9283 0.4546
-32.6605 24.9485 0.5064
-38.5123 24.3018 0.5611
-8.6272 4.4204 0.1194
-16.9772 6.8616 0.2256
-16.9835 5.1548 0.2187
-16.9895 3.5373 0.2138
-17.4121 2.0265 0.2160
-17.9311 0.4745 0.2210
-22.1926 -1.3989 0.2740
-22.2000 -3.4089 0.2767
-8.5378 -4.7757 0.1205
-28.6060 -23.5528 0.4565
-24.9106 -24.5559 0.4310
-16.4034 -45.5699 0.5967
-10.6193 -40.5524 0.5165
-3.0344 -39.1785 0.4841
11.4521 -39.7742 0.5099
16.2690 -41.9764 0.5546
16.8489 -34.0794 0.4684
24.5122 -40.1090 0.5791
26.9322 -8.5367 0.3481
30.7161 -6.7896 0.3876
23.4018 1.1871 0.2887
21.5620 3.0406 0.2683
19.9532 4.6614 0.2525
18.5877 6.1373 0.2412
17.2653 7.4696 0.2318
16.0326 8.7114 0.2248
14.8627 9.8900 0.2200
13.7335 11.0276 0.2170
15.6769 15.0788 0.2680
14.1935 16.3328 0.2666
24.8236 34.3323 0.5220
22.1063 37.1638 0.5328
20.4782 42.6977 0.5835
13.3822 35.7923 0.4708
-5.0505 27.9672 0.3502
-21.1313 44.0945 0.6024
-16.8975 28.4275 0.4075
-17.6542 24.4329 0.3714
-21.2306 24.4461 0.3989
-25.8957 24.9235 0.4428
-31.0430 24.9425 0.4906
-38.1555 25.4066 0.5648
-16.3015 8.8641 0.2286
-16.9754 7.3505 0.2279
-16.9818 5.6130 0.2204
-16.9878 3.9743 0.2150
-16.3257 2.3074 0.2031
-17.9295 0.9151 0.2212
-22.1906 -0.8528 0.2736
-22.1980 -2.8530 0.2757
-22.0330 -6.9762 0.2847
-25.1332 -23.5877 0.4247
-12.1331 -42.0903 0.5397
-4.0049 -39.1909 0.4854
10.4011 -39.7703 0.5065
15.7428 -43.7775 0.5732
23.6206 -40.8713 0.5816
28.2290 -40.0951 0.6041
8.3472 -8.2336 0.1445
23.9583 0.6265 0.2953
22.0408 2.5583 0.2734
20.3757 4.2357 0.2564
19.0089 5.7631 0.2447
17.6181 7.1142 0.2341
16.3637 8.3779 0.2265
15.1789 9.5714 0.2211
14.0406 10.7182 0.2176
16.0878 14.7314 0.2688
14.5993 15.9898 0.2668
14.8316 29.0722 0.4021
1.2227 49.5001 0.6101
-20.1739 44.8916 0.6064
-16.8914 30.0736 0.4250
-16.7551 24.4296 0.3650
-20.1968 24.4423 0.3907
-24.6504 24.9189 0.4319
-29.5219 24.9369 0.4761
-34.6027 24.2873 0.5209
-16.9735 7.8497 0.2304
-16.9801 6.0785 0.2222
-16.9862 4.4162 0.2162
-16.9921 2.8285 0.2122
-17.9279 1.3568 0.2215
-22.1886 -0.3078 0.2734
-22.1959 -2.3006 0.2749
-26.3887 -23.5751 0.4360
-13.6874 -43.4463 0.5612
-9.5201 -43.4309 0.5478
9.2074 -39.1021 0.4949
13.9387 -41.9678 0.5448
18.2512 -41.9838 0.5640
22.6961 -41.5957 0.5838
27.3094 -40.8849 0.6057
8.1564 -8.4501 0.1447
18.3201 6.4069 0.3587
17.0176 7.7191 0.3454
15.7992 8.9466 0.3356
14.6389 10.1154 0.3289
15.2399 12.6826 0.3664
15.3848 15.3257 0.4014
11.2984 24.6561 0.5013
12.6194 35.6432 0.6988
6.2832 24.5182 0.4678
-5.4387 27.3664 0.5157
-8.7428 22.2112 0.4412
-16.4977 32.9330 0.6808
-16.3389 26.4227 0.5742
-18.3159 24.4353 0.5644
-21.9960 24.4489 0.6078
-26.8241 24.9269 0.6768
-32.1870 24.9467 0.7526
-38.1591 24.4553 0.8377
-8.6476 4.5078 0.1802
-16.9767 7.0005 0.3394
-16.9830 5.2853 0.3287
-16.9890 3.6619 0.3212
-16.3762 2.0227 0.3050
-17.9307 0.6005 0.3316
-22.1920 -1.2425 0.4108
-22.1994 -3.2493 0.4147
-29.0138 -23.5486 0.6906
-24.9076 -24.2103 0.6420
-19.6900 -41.6128 0.8508
-11.0569 -41.0448 0.7856
-3.3116 -39.1809 0.7267
3.8151 -40.2516 0.7473
11.1497 -39.7731 0.7634
15.9303 -41.9752 0.8298
23.7581 -39.4959 0.8518
20.3065 -6.5939 0.3946
30.5698 -6.9828 0.5795
49.2817 -6.7018 0.9192
23.5586 1.0292 0.4358
21.6972 2.9044 0.4046
20.0728 4.5409 0.3804
18.6964 6.0279 0.3631
17.3656 7.3686 0.3486
16.1269 8.6165 0.3379
14.9529 9.7991 0.3304
13.8212 10.9392 0.3258
15.7942 14.9796 0.4023
14.3096 16.2347 0.4000
20.6502 42.2919 0.8699
13.4827 35.3030 0.6984
8.2278 29.1153 0.5592
-4.7735 27.5381 0.5166
-20.8587 44.3222 0.9054
-16.8958 28.8846 0.6185
-17.3936 24.4319 0.5543
-20.9302 24.4450 0.5948
-25.5328 24.9221 0.6594
-30.5981 24.9408 0.7296
-38.1541 25.7945 0.8512
-16.3009 9.0128 0.3443
-16.9748 7.4923 0.3429
-16.9813 5.7455 0.3313
-16.9874 4.1002 0.3230
-16.3253 2.4244 0.3050
-17.9290 1.0414 0.3319
-22.1900 -0.6967 0.4103
-22.1974 -2.6945 0.4133
-22.0205 -6.8025 0.4260
-25.4858 -23.5841 0.6418
-20.5384 -40.7858 0.8440
-12.5786 -42.5113 0.8194
-9.6582 -48.0720 0.9062
-4.2836 -39.1933 0.7287
10.1029 -39.7692 0.7584
14.7610 -41.9708 0.8223
22.6899 -39.9055 0.8484
27.6847 -39.9149 0.8978
8.2215 -8.2242 0.2149
39.8098 -6.4123 0.7452
27.9400 0.5342 0.5165
22.1813 2.4167 0.4124
20.4991 4.1113 0.3864
19.0051 5.6164 0.3663
17.7204 7.0111 0.3522
16.4594 8.2815 0.3405
15.2701 9.4796 0.3322
14.1288 10.6293 0.3268
16.2059 14.6316 0.4035
14.7156 15.8915 0.4003
15.0778 29.0489 0.6049
16.2828 39.6843 0.7928
8.9418 28.9113 0.5593
1.5703 49.4836 0.9150
-4.1057 27.7104 0.5177
-16.8896 30.5715 0.6455
-16.5033 24.4286 0.5449
-19.9086 24.4412 0.5826
-24.3053 24.9176 0.6433
-29.1029 24.9353 0.7083
-33.0342 23.5345 0.7496
-16.9730 7.9947 0.3468
-16.9796 6.2133 0.3342
-16.9857 4.5437 0.3250
-16.9916 2.9513 0.3187
-17.9274 1.4835 0.3325
-22.1880 -0.1519 0.4101
-22.1953 -2.1430 0.4121
-26.7604 -23.5712 0.6591
-22.2341 -41.5802 0.8715
-14.2009 -43.9954 0.8544
-9.6515 -42.5975 0.8072
8.8492 -38.8009 0.7355
13.6118 -41.9666 0.8154
17.9011 -41.9825 0.8435
22.6486 -42.2115 0.8853
26.2544 -39.9096 0.8829
9.2512 -8.1254 0.2276
39.4958 -7.3603 0.7425
43.5932 -0.2365 0.8057
22.6846 1.9096 0.4207
20.9396 3.6676 0.3929
19.3997 5.2190 0.3713
18.0827 6.6461 0.3561
16.7972 7.9411 0.3434
15.5908 9.1565 0.3342
14.4385 10.3173 0.3280
16.6203 14.2812 0.4050
15.1224 15.5475 0.4009
17.0117 25.2584 0.5628
18.0395 32.7627 0.6913
10.9688 24.9701 0.5041
4.7095 19.6628 0.3737
-5.9552 27.6736 0.5232
-16.8828 32.4138 0.6755
-16.9226 26.4248 0.5800
-18.9274 24.4376 0.5713
-22.5128 24.2427 0.6115
-27.6915 24.9301 0.6887
-33.2635 24.9507 0.7685
-8.6599 4.3418 0.1790
-16.9778 6.6894 0.3373
-16.9841 4.9930 0.3272
-16.9900 3.3825 0.3202
-17.9258 1.9273 0.3332
-16.3332 0.2891 0.3019
-22.1933 -1.5943 0.4112
-22.2007 -3.6083 0.4157
-8.5278 -4.8687 0.1815
-28.1066 -23.5577 0.6778
-24.9155 -24.9947 0.6523
-15.7195 -44.8999 0.8792
-10.1864 -40.3377 0.7689
-2.6890 -39.1729 0.7257
12.4810 -41.9624 0.8091
16.6941 -41.9780 0.8349
24.6172 -39.4991 0.8602
26.9861 -8.2944 0.5218
30.8132 -6.5285 0.5821
23.2091 1.3812 0.4297
21.3954 3.2085 0.3999
19.8054 4.8102 0.3767
18.4533 6.2727 0.3602
17.1410 7.5947 0.3465
15.9156 8.8293 0.3364
14.7507 10.0029 0.3294
13.9594 11.4115 0.3332
15.5307 15.2024 0.4017
14.0488 16.4552 0.3999
21.6795 37.1838 0.7955
11.5879 24.7141 0.5045
12.8472 35.3007 0.6943
-5.2016 27.4276 0.5160
-16.2120 33.0830 0.6809
-16.2353 26.7765 0.5787
-17.9829 24.4341 0.5607
-21.6103 24.4475 0.6031
-26.3556 24.9252 0.6704
-31.6087 24.9446 0.7442
-38.1573 24.9283 0.8424
-16.3022 8.6804 0.3413
-16.9760 7.1748 0.3406
-16.9824 5.4486 0.3296
-16.9884 3.8178 0.3218
-16.3262 2.1618 0.3044
-17.9301 0.7578 0.3317
-22.1913 -1.0475 0.4106
-22.1987 -3.0509 0.4141
-29.5324 -23.5433 0.6980
-24.9033 -23.7855 0.6365
-19.9944 -41.3161 0.8483
-11.5217 -41.3257 0.7929
-8.9885 -48.7072 0.9154
-3.6579 -39.1853 0.7274
10.7745 -39.7717 0.7616
15.7471 -42.6136 0.8396
23.2884 -39.4942 0.8474
28.6307 -39.9184 0.9079
20.2093 -6.7586 0.3938
30.6580 -7.2860 0.5824
49.0777 -7.1124 0.9165
23.7568 0.8295 0.4393
21.8678 2.7325 0.4073
20.2234 4.3891 0.3825
19.2770 6.0292 0.3733
17.4913 7.2418 0.3499
16.2449 8.4975 0.3388
15.0657 9.6855 0.3310
13.9308 10.8288 0.3261
15.9408 14.8556 0.4027
14.4544 16.1123 0.4001
14.6162 29.2809 0.6049
8.4401 28.8973 0.5564
0.7897 49.5402 0.9157
-4.5356 27.5995 0.5169
-20.5172 44.6065 0.9075
-16.8936 29.4701 0.6278
-17.0723 24.4307 0.5509
-20.5607 24.4436 0.5903
-25.0878 24.9205 0.6536
-30.0543 24.9388 0.7218
-37.5920 25.8970 0.8437
-16.9742 7.6703 0.3443
-16.9807 5.9115 0.3323
-16.9868 4.2579 0.3237
-16.3247 2.5707 0.3054
-17.9285 1.1990 0.3321
-22.1893 -0.5022 0.4102
-22.1966 -2.4973 0.4128
-25.9331 -23.5796 0.6478
-20.8380 -40.4938 0.8417
-13.1450 -43.0360 0.8317
-9.6518 -45.9520 0.8678
-4.6319 -39.1978 0.7295
5.6859 -37.4672 0.7004
9.7326 -39.7678 0.7567
14.3487 -41.9693 0.8198
22.6543 -40.6681 0.8604
27.1687 -39.9130 0.8924
8.1455 -8.2922 0.2148
39.5696 -6.7297 0.7418
44.5398 0.4614 0.8232
22.3586 2.2381 0.4153
20.6546 3.9547 0.3887
19.1447 5.4758 0.3680
17.8488 6.8817 0.3536
16.5793 8.1606 0.3415
15.3841 9.3647 0.3329
14.2391 10.5183 0.3272
16.3534 14.5068 0.4040
14.8606 15.7689 0.4005
16.5385 39.3234 0.7884
-16.8872 31.2098 0.6559
-16.2437 24.5043 0.5434
-19.5539 24.4399 0.5785
-21.6539 22.5920 0.5784
-28.5900 24.9334 0.7011
-34.0939 24.7425 0.7786
-16.9723 8.1767 0.3482
-16.9789 6.3822 0.3352
-16.9851 4.7034 0.3257
-16.9910 3.1047 0.3192
-17.9268 1.6417 0.3327
-16.3341 0.0312 0.3019
-22.1946 -1.9469 0.4118
-8.5060 -5.0358 0.1827
-27.2322 -23.5665 0.6656
-23.3039 -42.6777 0.8987
-14.8980 -44.8087 0.8727
-9.6177 -40.7871 0.7745
-2.1685 -41.0693 0.7601
13.2062 -41.9651 0.8131
17.4675 -41.9809 0.8404
22.6453 -43.1072 0.8999
25.8919 -40.1194 0.8825
9.1522 -8.1816 0.2269
22.8693 1.7236 0.4239
21.1004 3.5056 0.3953
19.5431 5.0745 0.3732
18.2140 6.5138 0.3575
16.9192 7.8182 0.3445
15.7062 9.0402 0.3349
14.5496 10.2054 0.3285
16.4675 13.9011 0.3983
15.2679 15.4245 0.4011
18.4415 32.8095 0.6956
11.1237 24.7324 0.5012
4.8733 19.5876 0.3731
-5.6287 27.3174 0.5155
-8.8815 22.1066 0.4403
-16.7887 32.9341 0.6832
-16.5973 26.4236 0.5767
-18.5863 24.4363 0.5674
-22.1193 24.2412 0.6065
-27.2066 24.9283 0.6820
-32.6605 24.9485 0.7596
-38.5123 24.3018 0.8417
-8.6270 4.4203 0.1792
-16.9772 6.8616 0.3384
-16.9835 5.1548 0.3280
-16.9895 3.5373 0.3207
-17.4121 2.0265 0.3240
-17.9311 0.4745 0.3315
-22.1926 -1.3989 0.4110
-22.2000 -3.4089 0.4151
-8.6256 -4.8248 0.1827
-28.6059 -23.5527 0.6848
-24.9111 -24.5563 0.6465
-16.3760 -45.4937 0.8936
-10.6012 -40.4833 0.7734
-3.0343 -39.1773 0.7262
11.4521 -39.7742 0.7650
16.2690 -41.9764 0.8320
16.8485 -34.0786 0.7026
24.1384 -39.4973 0.8555
26.9314 -8.5365 0.5222
30.5899 -6.7617 0.5790
49.5305 -6.3815 0.9230
23.4018 1.1871 0.4331
21.5620 3.0406 0.4025
19.9531 4.6614 0.3787
18.5877 6.1373 0.3618
17.2653 7.4696 0.3477
16.0326 8.7114 0.3372
14.8627 9.8900 0.3300
13.7335 11.0276 0.3255
15.6769 15.0788 0.4020
14.1935 16.3328 0.3999
24.8236 34.3323 0.7830
22.1063 37.1638 0.7992
20.3883 42.5103 0.8714
13.1443 35.1562 0.6937
-4.9642 27.4889 0.5163
-21.1315 44.0951 0.9037
-16.8975 28.4275 0.6112
-17.6542 24.4329 0.5571
-21.2306 24.4461 0.5984
-25.8957 24.9235 0.6643
-31.0430 24.9425 0.7360
-38.1555 25.4066 0.8472
-16.3015 8.8641 0.3429
-16.9754 7.3505 0.3419
-16.9818 5.6130 0.3306
-16.9878 3.9743 0.3224
-16.3257 2.3074 0.3047
-17.9295 0.9151 0.3318
-22.1906 -0.8528 0.4104
-22.1980 -2.8530 0.4136
-22.0324 -6.9760 0.4271
-25.1331 -23.5876 0.6370
-20.2970 -41.0211 0.8459
-12.1591 -42.1805 0.8113
-4.0048 -39.1897 0.7281
10.4011 -39.7703 0.7598
15.7428 -43.7774 0.8598
22.8237 -39.4925 0.8430
28.1033 -39.9165 0.9022
8.3467 -8.2330 0.2167
49.3995 -7.6014 0.9238
23.9583 0.6265 0.4430
22.0408 2.5583 0.4101
20.3757 4.2357 0.3846
19.0089 5.7631 0.3671
17.6181 7.1142 0.3512
16.3637 8.3779 0.3398
15.1789 9.5714 0.3317
14.0406 10.7182 0.3265
16.0878 14.7314 0.4032
14.5993 15.9898 0.4002
14.8316 29.0722 0.6032
8.6859 28.7993 0.5560
1.2230 49.5088 0.9153
-4.2971 27.6610 0.5174
-20.1741 44.8922 0.9096
-16.8914 30.0736 0.6375
-16.7551 24.4296 0.5475
-20.1968 24.4423 0.5860
-24.6504 24.9189 0.6478
-29.5219 24.9369 0.7142
-34.6027 24.2873 0.7814
-16.9735 7.8497 0.3456
-16.9801 6.0785 0.3333
-16.9862 4.4162 0.3244
-16.9921 2.8285 0.3184
-17.9279 1.3569 0.3323
-22.1886 -0.3078 0.4101
-22.1959 -2.3006 0.4124
-26.3886 -23.5750 0.6540
-21.4213 -40.7463 0.8508
-13.8223 -43.8745 0.8502
-9.7027 -44.2636 0.8375
9.2073 -39.1020 0.7424
13.9387 -41.9678 0.8173
18.2512 -41.9838 0.8461
22.6512 -41.5134 0.8740
26.6590 -39.9111 0.8871
8.1559 -8.4496 0.2170
18.3201 6.4069 0.4783
17.0176 7.7191 0.4605
15.7992 8.9466 0.4475
14.6389 10.1154 0.4385
15.2400 12.6826 0.4886
15.3848 15.3257 0.5352
11.2984 24.6561 0.6684
12.5992 35.5862 0.9304
4.8903 19.0829 0.4855
3.3916 46.9926 1.1612
-5.4387 27.3665 0.6876
-8.7425 22.2104 0.5883
-16.4977 32.9330 0.9078
-16.3389 26.4227 0.7656
-18.3159 24.4353 0.7526
-21.9960 24.4489 0.8105
-26.8241 24.9269 0.9025
-32.1870 24.9467 1.0036
-38.1591 24.4553 1.1170
-8.6472 4.5076 0.2403
-16.9767 7.0005 0.4526
-16.9830 5.2853 0.4383
-16.9890 3.6619 0.4283
-16.3762 2.0227 0.4067
-17.9307 0.6005 0.4421
-22.1920 -1.2425 0.5478
-22.1994 -3.2493 0.5529
-29.7724 -13.0664 0.8013
-24.0190 -13.2146 0.6756
-21.5520 -14.5048 0.6402
-29.0137 -23.5484 0.9209
-24.9080 -24.2107 0.8561
-19.6893 -41.6113 1.1345
-16.5135 -44.8837 1.1786
-11.0831 -41.1419 1.0501
-8.5494 -48.7149 1.2189
-3.3115 -39.1797 0.9690
3.8016 -40.1094 0.9929
11.1497 -39.7731 1.0180
15.9304 -41.9752 1.1065
24.0019 -39.9013 1.1476
35.3838 -15.1015 0.9481
20.2584 -6.5783 0.5249
30.4522 -6.9560 0.7698
23.5586 1.0292 0.5812
21.6972 2.9044 0.5395
20.0728 4.5409 0.5072
18.6964 6.0279 0.4841
17.3656 7.3686 0.4649
16.1269 8.6165 0.4506
14.9529 9.7991 0.4406
13.8212 10.9392 0.4344
15.7942 14.9796 0.5365
14.3096 16.2347 0.5333
20.7340 42.4634 1.1646
5.0632 13.2574 0.3497
8.1894 28.9798 0.7422
4.6370 47.8568 1.1850
-4.7735 27.5381 0.6888
-20.8589 44.3228 1.2073
-16.8958 28.8846 0.8247
-17.3936 24.4319 0.7391
-20.9302 24.4450 0.7931
-25.5328 24.9221 0.8793
-30.5981 24.9408 0.9729
-38.1541 25.7945 1.1350
-16.3009 9.0128 0.4591
-16.9748 7.4923 0.4573
-16.9813 5.7455 0.4418
-16.9874 4.1002 0.4307
-16.3253 2.4244 0.4067
-17.9290 1.0414 0.4426
-22.1900 -0.6967 0.5471
-22.1974 -2.6945 0.5511
-22.0200 -6.8023 0.5680
-25.4707 -13.2096 0.7071
-21.8683 -13.9504 0.6393
-22.9227 -17.6897 0.7136
-25.4857 -23.5840 0.8558
-20.5377 -40.7844 1.1254
-12.5870 -42.5395 1.0933
-9.7285 -48.4218 1.2172
-4.2835 -39.1921 0.9716
10.1029 -39.7692 1.0112
14.7610 -41.9708 1.0965
22.6395 -39.8169 1.1288
27.6847 -39.9149 1.1971
8.2213 -8.2240 0.2866
34.4942 -15.7334 0.9344
20.1390 -7.0904 0.5262
27.9400 0.5342 0.6887
22.1813 2.4167 0.5499
20.4992 4.1113 0.5153
19.0051 5.6164 0.4884
17.7204 7.0111 0.4697
16.4594 8.2815 0.4541
15.2701 9.4796 0.4429
14.1288 10.6293 0.4357
16.2059 14.6316 0.5381
14.7156 15.8915 0.5338
15.0778 29.0489 0.8066
16.3306 39.8009 1.0603
8.9080 28.8022 0.7430
5.9557 48.9263 1.2147
-4.1057 27.7104 0.6904
-16.8896 30.5715 0.8608
-16.5033 24.4286 0.7266
-19.9086 24.4412 0.7769
-24.3053 24.9176 0.8579
-29.1029 24.9353 0.9445
-33.0033 23.5125 0.9987
-16.9730 7.9947 0.4624
-16.9796 6.2133 0.4456
-16.9857 4.5437 0.4333
-16.9916 2.9513 0.4250
-17.9274 1.4835 0.4433
-22.1880 -0.1519 0.5468
-22.1953 -2.1430 0.5495
-27.6493 -13.4891 0.7582
-22.1724 -13.3905 0.6384
-23.6563 -17.3465 0.7229
-26.7603 -23.5711 0.8789
-22.2343 -41.5807 1.1621
-14.2571 -44.1697 1.1438
-9.7589 -43.0714 1.0884
8.8492 -38.8009 0.9808
13.6118 -41.9666 1.0873
17.9011 -41.9825 1.1248
22.6486 -42.2115 1.1806
26.1193 -39.7043 1.1712
9.2512 -8.1254 0.3034
34.8334 -16.9327 0.9545
37.8866 -14.3932 0.9988
43.5932 -0.2365 1.0744
22.6846 1.9096 0.5610
20.9396 3.6676 0.5239
19.3997 5.2190 0.4951
18.0827 6.6461 0.4748
16.7972 7.9411 0.4579
15.5908 9.1565 0.4456
14.4385 10.3173 0.4373
16.6203 14.2812 0.5400
15.1224 15.5475 0.5345
17.0117 25.2584 0.7505
18.0395 32.7627 0.9217
10.9688 24.9701 0.6722
4.6090 19.2431 0.4877
2.6239 46.5854 1.1499
-5.9549 27.6720 0.6976
-16.8828 32.4138 0.9007
-16.9226 26.4248 0.7733
-18.9274 24.4376 0.7618
-22.5128 24.2427 0.8153
-27.6915 24.9301 0.9183
-33.2635 24.9507 1.0248
-8.6597 4.3417 0.2387
-16.9778 6.6894 0.4497
-16.9841 4.9930 0.4363
-16.9900 3.3825 0.4269
-17.9258 1.9273 0.4443
-16.3332 0.2891 0.4026
-22.1933 -1.5943 0.5484
-22.2007 -3.6083 0.5543
-28.5825 -13.0860 0.7747
-8.5276 -4.8685 0.2420
-21.3422 -14.8583 0.6409
-28.1065 -23.5576 0.9038
-24.9159 -24.9952 0.8698
-15.4753 -44.2024 1.1542
-10.1856 -40.3346 1.0252
-2.6889 -39.1717 0.9676
12.4810 -41.9624 1.0789
16.6941 -41.9780 1.1133
24.8699 -39.9045 1.1588
36.3325 -14.8330 0.9672
20.7303 -6.3716 0.5345
30.7121 -6.5071 0.7737
23.2091 1.3812 0.5730
21.3954 3.2085 0.5332
19.8054 4.8102 0.5023
18.4533 6.2727 0.4803
17.1410 7.5947 0.4620
15.9156 8.8293 0.4486
14.7507 10.0029 0.4392
13.9594 11.4115 0.4444
15.5307 15.2024 0.5356
14.0488 16.4552 0.5332
21.6795 37.1838 1.0608
11.5879 24.7141 0.6727
12.8294 35.2519 0.9245
5.0994 19.1980 0.4895
3.8281 47.2705 1.1688
-5.2016 27.4277 0.6880
-16.2120 33.0830 0.9080
-16.2353 26.7765 0.7717
-17.9829 24.4341 0.7477
-21.6103 24.4475 0.8042
-26.3556 24.9252 0.8940
-31.6087 24.9446 0.9923
-38.1573 24.9283 1.1233
-16.3022 8.6804 0.4552
-16.9760 7.1748 0.4542
-16.9824 5.4486 0.4395
-16.9884 3.8178 0.4291
-16.3262 2.1618 0.4059
-17.9301 0.7578 0.4423
-22.1913 -1.0475 0.5475
-22.1987 -3.0509 0.5522
-30.4688 -13.0550 0.8169
-24.5220 -13.2129 0.6865
-21.6662 -14.3076 0.6399
-29.5322 -23.5432 0.9308
-24.9037 -23.7859 0.8487
-19.9937 -41.3147 1.1312
-11.5579 -41.4558 1.0606
-3.6578 -39.1841 0.9699
10.7745 -39.7717 1.0155
15.7471 -42.6136 1.1196
23.5275 -39.8996 1.1415
28.6307 -39.9184 1.2107
34.8732 -15.2460 0.9380
20.1255 -6.7306 0.5230
30.5111 -7.2511 0.7729
23.7568 0.8295 0.5858
21.8678 2.7325 0.5431
20.2234 4.3891 0.5100
19.2770 6.0292 0.4978
17.4913 7.2418 0.4666
16.2449 8.4975 0.4518
15.0657 9.6855 0.4414
13.9308 10.8288 0.4348
15.9408 14.8556 0.5370
14.4544 16.1123 0.5335
14.6162 29.2809 0.8065
5.1767 13.2065 0.3496
8.4070 28.7840 0.7390
5.0991 48.2219 1.1951
0.7899 49.5489 1.2213
-4.5356 27.5995 0.6893
-20.5175 44.6070 1.2101
-16.8936 29.4701 0.8372
-17.0723 24.4307 0.7345
-20.5607 24.4436 0.7872
-25.0878 24.9205 0.8715
-30.0543 24.9388 0.9625
-37.5920 25.8970 1.1250
-16.9742 7.6703 0.4591
-16.9807 5.9115 0.4431
-16.9868 4.2579 0.4316
-16.3247 2.5707 0.4073
-17.9285 1.1990 0.4428
-22.1893 -0.5022 0.5470
-22.1966 -2.4973 0.5505
-27.6585 -14.0383 0.7644
-21.9782 -13.7512 0.6389
-22.9220 -17.3709 0.7088
-25.9329 -23.5795 0.8638
-20.8373 -40.4924 1.1223
-13.1875 -43.1752 1.1126
-9.6696 -46.0364 1.1593
-4.6318 -39.1966 0.9727
5.6858 -37.4663 0.9339
9.7326 -39.7678 1.0090
14.3487 -41.9693 1.0931
22.3796 -40.1749 1.1334
27.1687 -39.9130 1.1899
8.1453 -8.2920 0.2865
34.6136 -16.1554 0.9414
20.3184 -7.3542 0.5325
40.0764 -6.8159 1.0019
44.5398 0.4614 1.0977
22.3586 2.2381 0.5538
20.6546 3.9547 0.5183
19.1447 5.4758 0.4907
17.8488 6.8817 0.4714
16.5793 8.1606 0.4554
15.3841 9.3647 0.4439
14.2391 10.5183 0.4363
16.3534 14.5068 0.5388
14.8606 15.7689 0.5340
16.5679 39.3933 1.0532
9.2152 28.8964 0.7475
5.4508 24.4558 0.6175
6.4570 49.4319 1.2286
1.8829 46.4890 1.1467
-6.4158 46.0826 1.1467
-11.2668 48.6129 1.2298
-16.8872 31.2098 0.8746
-16.2437 24.5043 0.7246
-19.5539 24.4399 0.7714
-21.6389 22.5763 0.7707
-28.5900 24.9334 0.9349
-34.0939 24.7425 1.0382
-16.9723 8.1767 0.4643
-16.9789 6.3822 0.4470
-16.9851 4.7034 0.4344
-16.9910 3.1047 0.4257
-17.9268 1.6417 0.4437
-16.3341 0.0312 0.4026
-22.1946 -1.9469 0.5491
-27.6443 -13.1881 0.7548
-8.5057 -5.0357 0.2436
-24.0946 -17.3455 0.7317
-27.2321 -23.5664 0.8875
-23.3042 -42.6782 1.1984
-14.9248 -44.8894 1.1658
-9.6176 -40.7867 1.0327
-2.1685 -41.0693 1.0136
9.1742 -41.9157 1.0575
13.2062 -41.9651 1.0842
17.4675 -41.9809 1.1206
22.6453 -43.1072 1.2000
25.8571 -40.0656 1.1752
9.1522 -8.1816 0.3025
37.3205 -14.5534 0.9872
22.8693 1.7236 0.5652
21.1004 3.5056 0.5271
19.5431 5.0745 0.4976
18.2140 6.5138 0.4767
16.9192 7.8182 0.4593
15.7062 9.0402 0.4466
14.5496 10.2054 0.4380
16.4675 13.9011 0.5311
15.2679 15.4245 0.5349
18.4415 32.8095 0.9276
11.1237 24.7324 0.6683
4.7601 19.1326 0.4859
3.0473 46.7978 1.1558
-5.6288 27.3174 0.6874
-8.8812 22.1059 0.5871
-16.7887 32.9341 0.9110
-16.5973 26.4236 0.7690
-18.5863 24.4363 0.7566
-22.1193 24.2412 0.8088
-27.2066 24.9283 0.9094
-32.6605 24.9485 1.0129
-38.5123 24.3018 1.1223
-8.6268 4.4202 0.2389
-16.9772 6.8616 0.4513
-16.9835 5.1548 0.4374
-16.9894 3.5373 0.4277
-17.4121 2.0265 0.4320
-17.9311 0.4745 0.4421
-22.1926 -1.3989 0.5480
-22.2000 -3.4089 0.5535
-29.2327 -13.0753 0.7892
-8.6253 -4.8247 0.2436
-21.4591 -14.6625 0.6405
-28.6058 -23.5526 0.9132
-24.9115 -24.5568 0.8621
-15.9665 -44.3563 1.1618
-10.6041 -40.4943 1.0316
-3.0342 -39.1762 0.9684
4.0862 -40.1103 0.9936
11.4521 -39.7742 1.0200
16.2690 -41.9764 1.1095
16.8481 -34.0778 0.9369
24.3861 -39.9027 1.1525
35.8014 -14.9833 0.9565
20.3872 -6.4622 0.5271
30.4614 -6.7332 0.7688
23.4018 1.1871 0.5775
21.5620 3.0406 0.5367
19.9531 4.6614 0.5050
18.5877 6.1373 0.4824
17.2653 7.4696 0.4636
16.0326 8.7114 0.4497
14.8627 9.8900 0.4400
13.7335 11.0276 0.4341
15.6769 15.0788 0.5361
14.1935 16.3328 0.5333
24.8236 34.3323 1.0441
22.1063 37.1638 1.0657
20.4750 42.6911 1.1669
4.9827 13.3268 0.3506
5.3446 19.4336 0.4967
4.2734 47.5842 1.1774
-4.9642 27.4889 0.6884
-21.1318 44.0956 1.2051
-16.8975 28.4275 0.8150
-17.6542 24.4329 0.7429
-21.2306 24.4461 0.7980
-25.8957 24.9235 0.8858
-31.0430 24.9425 0.9814
-38.1555 25.4066 1.1297
-16.3015 8.8641 0.4573
-16.9754 7.3505 0.4559
-16.9818 5.6130 0.4408
-16.9878 3.9743 0.4300
-16.3257 2.3074 0.4063
-17.9295 0.9151 0.4424
-22.1906 -0.8528 0.5473
-22.1980 -2.8530 0.5516
-22.0317 -6.9758 0.5695
-31.1929 -13.0431 0.8332
-25.0415 -13.2111 0.6978
-21.7790 -14.1097 0.6395
-25.1330 -23.5875 0.8495
-20.2963 -41.0197 1.1279
-12.1468 -42.1377 1.0808
-4.0046 -39.1886 0.9708
10.4011 -39.7703 1.0131
15.7428 -43.7774 1.1465
23.0580 -39.8978 1.1357
28.1033 -39.9165 1.2031
8.3462 -8.2325 0.2889
34.3997 -15.3992 0.9288
20.1070 -6.9207 0.5241
30.9543 -7.6436 0.7858
23.9583 0.6265 0.5907
22.0408 2.5583 0.5468
20.3757 4.2357 0.5129
19.0089 5.7631 0.4895
17.6181 7.1142 0.4683
16.3637 8.3779 0.4531
15.1789 9.5714 0.4422
14.0406 10.7182 0.4353
16.0878 14.7314 0.5376
14.5993 15.9898 0.5336
14.8316 29.0722 0.8043
8.6505 28.6816 0.7383
5.5707 48.6083 1.2058
1.2232 49.5175 1.2207
-4.2972 27.6610 0.6899
-20.1744 44.8927 1.2130
-16.8914 30.0736 0.8501
-16.7551 24.4296 0.7301
-20.1968 24.4423 0.7814
-24.6504 24.9189 0.8638
-29.5219 24.9369 0.9524
-34.6027 24.2873 1.0419
-16.9735 7.8497 0.4609
-16.9801 6.0785 0.4445
-16.9862 4.4162 0.4325
-16.9921 2.8285 0.4245
-17.9279 1.3569 0.4431
-22.1886 -0.3078 0.5469
-22.1959 -2.3006 0.5499
-27.6534 -13.7325 0.7609
-22.0867 -13.5513 0.6386
-23.3122 -17.3473 0.7161
-26.3885 -23.5749 0.8721
-21.4215 -40.7468 1.1345
-13.7525 -43.6529 1.1279
-9.7111 -44.3018 1.1177
9.2073 -39.1020 0.9900
13.9387 -41.9678 1.0898
18.2512 -41.9838 1.1282
22.6512 -41.5134 1.1655
26.6590 -39.9111 1.1828
8.1554 -8.4491 0.2894
34.7348 -16.5842 0.9486
18.3201 6.4069 0.5980
17.0176 7.7191 0.5757
15.7992 8.9466 0.5594
14.6389 10.1154 0.5482
15.2399 12.6826 0.6109
15.3848 15.3257 0.6691
11.2984 24.6561 0.8356
12.6615 35.7621 1.1688
4.8703 19.0050 0.6045
3.3964 47.0581 1.4536
-0.7930 45.6731 1.4074
-4.8959 45.6804 1.4155
-5.4387 27.3666 0.8596
-8.7422 22.2097 0.7354
-16.4977 32.9330 1.1349
-16.3389 26.4227 0.9571
-18.3159 24.4353 0.9409
-21.9960 24.4489 1.0132
-26.8241 24.9269 1.1282
-32.1870 24.9467 1.2547
-38.1591 24.4553 1.3964
-8.6469 4.5075 0.3004
-16.9767 7.0005 0.5658
-16.9830 5.2853 0.5480
-16.9890 3.6619 0.5354
-16.3762 2.0227 0.5084
-17.9307 0.6005 0.5527
-22.1920 -1.2425 0.6848
-22.1994 -3.2493 0.6912
-46.3037 -11.0739 1.4668
-45.6803 -15.3490 1.4847
-29.7750 -13.0676 1.0018
-24.0193 -13.2147 0.8446
-21.3247 -14.3518 0.7919
-29.0136 -23.5483 1.1513
-24.9085 -24.2111 1.0702
-19.6887 -41.6099 1.4183
-11.0720 -41.1006 1.3114
-3.3114 -39.1785 1.2114
3.7985 -40.0769 1.2403
11.1497 -39.7731 1.2726
15.9304 -41.9752 1.3832
24.0019 -39.9013 1.4346
35.3828 -15.1011 1.1853
20.2172 -6.5649 0.6549
31.0732 -7.0978 0.9820
49.1200 -6.6798 1.5273
23.5586 1.0292 0.7265
21.6972 2.9044 0.6744
20.0728 4.5409 0.6341
18.6964 6.0279 0.6052
17.3656 7.3686 0.5812
16.1268 8.6165 0.5633
14.9529 9.7991 0.5508
13.8212 10.9392 0.5431
15.7942 14.9796 0.6707
14.3096 16.2347 0.6668
20.8654 42.7326 1.4651
4.9923 13.0719 0.4311
5.4167 19.1679 0.6137
4.6442 47.9309 1.4837
0.3294 45.8624 1.4131
-3.7570 45.5872 1.4093
-4.7735 27.5382 0.8611
-20.8591 44.3233 1.5093
-16.8958 28.8846 1.0310
-17.3936 24.4319 0.9240
-20.9302 24.4450 0.9915
-25.5328 24.9221 1.0993
-30.5981 24.9408 1.2162
-38.1541 25.7945 1.4190
-16.3009 9.0128 0.5739
-16.9748 7.4923 0.5717
-16.9813 5.7455 0.5523
-16.9874 4.1002 0.5384
-16.3253 2.4244 0.5085
-17.9290 1.0414 0.5533
-22.1900 -0.6967 0.6840
-22.1974 -2.6945 0.6889
-46.4379 -9.9079 1.4629
-22.0194 -6.8021 0.7100
-45.0917 -18.4837 1.5014
-25.4710 -13.2098 0.8840
-21.3221 -13.6020 0.7792
-22.9236 -17.6904 0.8921
-25.4856 -23.5839 1.0698
-20.5370 -40.7830 1.4068
-12.5656 -42.4675 1.3645
-9.7959 -48.7573 1.5322
-4.2834 -39.1910 1.2146
10.1029 -39.7692 1.2642
14.7610 -41.9708 1.3707
22.6084 -39.7623 1.4092
27.6847 -39.9149 1.4966
8.2211 -8.2238 0.3583
9.4979 -6.5924 0.3562
34.4927 -15.7327 1.1680
20.0401 -7.0556 0.6546
27.9400 0.5342 0.8610
22.1813 2.4167 0.6874
20.4991 4.1113 0.6441
19.0051 5.6164 0.6106
17.7204 7.0111 0.5871
16.4594 8.2815 0.5677
15.2701 9.4796 0.5538
14.1288 10.6293 0.5447
16.2059 14.6316 0.6727
14.7156 15.8915 0.6673
15.0778 29.0489 1.0084
8.8720 28.6855 0.9251
5.9653 49.0051 1.5210
1.4638 46.1268 1.4219
-2.6329 45.5917 1.4070
-4.1057 27.7105 0.8631
-16.8896 30.5715 1.0761
-16.5033 24.4286 0.9083
-19.9086 24.4412 0.9712
-24.3053 24.9176 1.0724
-29.1029 24.9353 1.1808
-32.9725 23.4906 1.2473
-16.9730 7.9947 0.5780
-16.9796 6.2132 0.5571
-16.9857 4.5437 0.5417
-16.9916 2.9512 0.5313
-17.9274 1.4835 0.5542
-22.1880 -0.1519 0.6836
-22.1953 -2.1430 0.6870
-43.9645 -8.2577 1.3782
-46.0489 -12.9963 1.4742
-45.3282 -17.2940 1.4947
-27.6507 -13.4897 0.9479
-21.8933 -13.2219 0.7880
-23.6563 -17.3465 0.9038
-26.7602 -23.5710 1.0987
-22.2346 -41.5812 1.4528
-14.2750 -44.2251 1.4318
-9.7859 -43.1906 1.3644
8.8492 -38.8009 1.2261
13.6118 -41.9666 1.3593
17.9011 -41.9825 1.4061
22.6486 -42.2115 1.4759
26.0844 -39.6513 1.4623
9.2512 -8.1254 0.3794
34.8319 -16.9320 1.1932
37.8854 -14.3928 1.2486
43.5932 -0.2365 1.3431
22.6846 1.9096 0.7014
20.9396 3.6676 0.6550
19.3996 5.2190 0.6189
18.0827 6.6460 0.5936
16.7972 7.9411 0.5724
15.5908 9.1565 0.5571
14.4385 10.3173 0.5467
16.6203 14.2812 0.6751
15.1224 15.5475 0.6682
17.0117 25.2584 0.9383
18.0395 32.7627 1.1523
10.9688 24.9701 0.8403
4.5949 19.1843 0.6078
2.6274 46.6470 1.4395
-1.5125 45.6193 1.4063
-5.6435 45.8185 1.4223
-5.9545 27.6704 0.8720
-16.8828 32.4138 1.1260
-16.9226 26.4248 0.9668
-18.9274 24.4376 0.9523
-22.5128 24.2427 1.0193
-27.6915 24.9301 1.1480
-33.2635 24.9507 1.2811
-8.6595 4.3416 0.2984
-16.9778 6.6894 0.5622
-16.9841 4.9930 0.5454
-16.9900 3.3825 0.5337
-17.9258 1.9273 0.5555
-16.3332 0.2891 0.5033
-22.1933 -1.5943 0.6855
-22.2007 -3.6083 0.6930
-46.2091 -11.8253 1.4696
-45.5478 -16.1089 1.4885
-28.5849 -13.0871 0.9686
-8.5274 -4.8684 0.3025
-21.3264 -14.8474 0.8006
-28.1063 -23.5575 1.1299
-24.9164 -24.9956 1.0874
-16.1082 -46.0101 1.5019
-10.2080 -40.4235 1.2845
-2.6889 -39.1706 1.2097
12.4810 -41.9624 1.3488
16.6941 -41.9780 1.3918
24.8699 -39.9045 1.4487
36.3314 -14.8326 1.2090
20.5089 -6.3036 0.6610
23.2091 1.3812 0.7163
21.3954 3.2085 0.6666
19.8054 4.8102 0.6279
18.4533 6.2727 0.6005
17.1410 7.5947 0.5776
15.9156 8.8293 0.5608
14.7507 10.0029 0.5491
13.9594 11.4115 0.5555
15.5307 15.2024 0.6696
14.0488 16.4552 0.6666
21.6795 37.1838 1.3261
11.5879 24.7141 0.8410
12.8707 35.3652 1.1595
5.0597 19.0485 0.6072
3.8336 47.3391 1.4633
-0.3935 45.7526 1.4097
-4.4889 45.6535 1.4134
-5.2016 27.4277 0.8601
-16.2120 33.0830 1.1351
-16.2353 26.7765 0.9648
-17.9829 24.4341 0.9347
-21.6103 24.4475 1.0053
-26.3556 24.9252 1.1176
-31.6087 24.9446 1.2406
-38.1573 24.9283 1.4043
-16.3022 8.6804 0.5690
-16.9760 7.1748 0.5678
-16.9824 5.4486 0.5495
-16.9884 3.8178 0.5365
-16.3262 2.1618 0.5074
-17.9301 0.7578 0.5529
-22.1913 -1.0475 0.6845
-22.1987 -3.0509 0.6904
-46.3534 -10.6574 1.4654
-45.7508 -14.9281 1.4827
-30.4715 -13.0561 1.0214
-24.5222 -13.2130 0.8582
-21.3238 -14.0814 0.7873
-29.5321 -23.5431 1.1636
-24.9042 -23.7863 1.0610
-19.9930 -41.3133 1.4141
-11.5842 -41.5500 1.3290
-3.6577 -39.1830 1.2125
10.7745 -39.7717 1.2695
15.7471 -42.6136 1.3997
23.5275 -39.8996 1.4271
28.6307 -39.9184 1.5135
34.8722 -15.2456 1.1726
20.0416 -6.7025 0.6511
49.0520 -7.1087 1.5271
23.7568 0.8295 0.7324
21.8678 2.7325 0.6790
20.2234 4.3891 0.6376
19.2770 6.0292 0.6223
17.4913 7.2418 0.5833
16.2449 8.4975 0.5648
15.0657 9.6855 0.5518
13.9308 10.8288 0.5436
15.9408 14.8556 0.6713
14.4544 16.1123 0.6669
14.6162 29.2809 1.0083
5.0166 12.7980 0.4235
8.3967 28.7486 0.9227
5.1026 48.2550 1.4950
0.7319 45.9128 1.4147
-3.3520 45.5426 1.4070
-4.5356 27.5996 0.8617
-20.5177 44.6076 1.5128
-16.8936 29.4701 1.0466
-17.0723 24.4307 0.9183
-20.5607 24.4436 0.9841
-25.0878 24.9205 1.0895
-30.0543 24.9388 1.2032
-37.5920 25.8970 1.4064
-16.9742 7.6703 0.5739
-16.9807 5.9115 0.5540
-16.9868 4.2579 0.5395
-16.3247 2.5707 0.5092
-17.9285 1.1990 0.5536
-22.1893 -0.5022 0.6838
-22.1966 -2.4973 0.6882
-43.8896 -8.9630 1.3801
-45.9375 -13.7512 1.4774
-45.1780 -18.0586 1.4990
-27.6599 -14.0390 0.9557
-21.3212 -13.3401 0.7749
-22.9228 -17.3715 0.8861
-25.9328 -23.5794 1.0799
-20.8366 -40.4911 1.4030
-13.1807 -43.1529 1.3902
-9.8456 -46.8745 1.4757
-4.6316 -39.1954 1.2160
5.6705 -37.3654 1.1644
9.7326 -39.7678 1.2614
14.3487 -41.9693 1.3665
22.3488 -40.1196 1.4149
27.1687 -39.9130 1.4876
8.1451 -8.2918 0.3581
9.4457 -6.6795 0.3564
34.6121 -16.1547 1.1768
20.1135 -7.2801 0.6590
44.5398 0.4614 1.3723
22.3586 2.2381 0.6923
20.6546 3.9547 0.6479
19.1447 5.4758 0.6135
17.8488 6.8817 0.5894
16.5793 8.1606 0.5693
15.3841 9.3647 0.5549
14.2391 10.5183 0.5454
16.3534 14.5068 0.6735
14.8606 15.7689 0.6676
16.6336 39.5493 1.3219
9.1997 28.8478 0.9329
5.4111 24.2774 0.7663
6.4570 49.4319 1.5359
1.8758 46.3148 1.4281
-2.2319 45.5825 1.4061
-6.4039 45.9965 1.4308
-11.2668 48.6129 1.5375
-16.8872 31.2098 1.0933
-16.2437 24.5043 0.9058
-19.5539 24.4399 0.9643
-21.6239 22.5607 0.9628
-28.5900 24.9334 1.1688
-34.0939 24.7425 1.2979
-16.9723 8.1767 0.5804
-16.9789 6.3822 0.5589
-16.9851 4.7034 0.5430
-16.9910 3.1047 0.5322
-17.9268 1.6417 0.5546
-16.3341 0.0312 0.5032
-22.1946 -1.9469 0.6864
-44.0009 -7.8663 1.3771
-46.1079 -12.5781 1.4725
-45.4085 -16.8707 1.4925
-27.6457 -13.1888 0.9437
-8.5054 -5.0355 0.3045
-24.0946 -17.3455 0.9147
-27.2320 -23.5663 1.1096
-23.3045 -42.6788 1.4982
-14.9386 -44.9308 1.4588
-9.7271 -41.2512 1.3058
-2.1129 -40.0174 1.2346
9.1742 -41.9157 1.3220
13.2062 -41.9651 1.3554
17.4675 -41.9809 1.4009
22.6453 -43.1072 1.5002
25.8225 -40.0119 1.4672
9.1522 -8.1816 0.3782
37.3194 -14.5530 1.2341
22.8693 1.7236 0.7066
21.1004 3.5056 0.6590
19.5431 5.0745 0.6221
18.2140 6.5138 0.5960
16.9192 7.8182 0.5742
15.7062 9.0402 0.5583
14.5496 10.2054 0.5475
16.4675 13.9011 0.6640
15.2679 15.4245 0.6687
18.4415 32.8095 1.1596
11.1237 24.7324 0.8355
4.7415 19.0579 0.6051
3.0514 46.8616 1.4469
-1.1141 45.6752 1.4077
-5.2308 45.7681 1.4193
-5.6288 27.3175 0.8593
-8.8809 22.1052 0.7340
-16.7887 32.9341 1.1389
-16.5973 26.4236 0.9614
-18.5863 24.4363 0.9459
-22.1193 24.2412 1.0111
-27.2066 24.9283 1.1369
-32.6605 24.9485 1.2662
-38.5123 24.3018 1.4030
-8.6266 4.4201 0.2986
-16.9772 6.8616 0.5642
-16.9835 5.1548 0.5468
-16.9895 3.5373 0.5347
-17.4121 2.0265 0.5401
-17.9311 0.4745 0.5526
-22.1926 -1.3989 0.6851
-22.2000 -3.4089 0.6920
-46.2624 -11.4081 1.4680
-45.6222 -15.6870 1.4864
-29.2353 -13.0764 0.9867
-8.6251 -4.8245 0.3045
-21.3255 -14.5711 0.7958
-28.6056 -23.5524 1.1416
-24.9120 -24.5572 1.0777
-16.7952 -46.6584 1.5278
-10.6562 -40.6930 1.2960
-3.0341 -39.1750 1.2106
4.0829 -40.0778 1.2412
11.4521 -39.7742 1.2752
16.2690 -41.9764 1.3870
16.7983 -33.9770 1.1678
24.3861 -39.9027 1.4408
35.8003 -14.9829 1.1957
20.3238 -6.4421 0.6569
31.1836 -6.8929 0.9839
49.5046 -6.3782 1.5378
23.4018 1.1871 0.7219
21.5620 3.0406 0.6709
19.9531 4.6614 0.6313
18.5877 6.1373 0.6031
17.2653 7.4696 0.5796
16.0326 8.7114 0.5622
14.8627 9.8900 0.5500
13.7335 11.0276 0.5426
15.6769 15.0788 0.6702
14.1935 16.3328 0.6667
24.8236 34.3323 1.3053
22.1063 37.1638 1.3323
20.6075 42.9674 1.4682
4.8768 13.0435 0.4290
5.2546 19.1063 0.6105
4.2762 47.6155 1.4729
0.0072 45.8091 1.4114
-4.0789 45.5795 1.4099
-4.9642 27.4890 0.8606
-21.1320 44.0961 1.5065
-16.8975 28.4275 1.0189
-17.6542 24.4329 0.9287
-21.2306 24.4461 0.9976
-25.8957 24.9235 1.1073
-31.0430 24.9425 1.2269
-38.1555 25.4066 1.4123
-16.3015 8.8641 0.5717
-16.9754 7.3505 0.5699
-16.9818 5.6130 0.5510
-16.9878 3.9743 0.5375
-16.3257 2.3074 0.5080
-17.9295 0.9151 0.5531
-22.1906 -0.8528 0.6842
-22.1980 -2.8530 0.6895
-46.4011 -10.2415 1.4640
-22.0310 -6.9756 0.7120
-31.1957 -13.0443 1.0418
-25.0418 -13.2112 0.8723
-21.3228 -13.8142 0.7828
-25.1329 -23.5874 1.0619
-20.2956 -41.0183 1.4100
-12.1860 -42.2736 1.3555
-4.0045 -39.1874 1.2136
10.4011 -39.7703 1.2665
15.7428 -43.7774 1.4333
23.0580 -39.8978 1.4197
28.1033 -39.9165 1.5040
8.3457 -8.2320 0.3612
9.5577 -6.5349 0.3567
34.3982 -15.3985 1.1611
20.0285 -6.8937 0.6526
49.3579 -7.5950 1.5386
23.9583 0.6265 0.7384
22.0408 2.5583 0.6836
20.3757 4.2357 0.6412
19.0089 5.7631 0.6120
17.6181 7.1142 0.5854
16.3637 8.3779 0.5664
15.1789 9.5714 0.5529
14.0406 10.7182 0.5442
16.0878 14.7314 0.6721
14.5993 15.9898 0.6671
14.8316 29.0722 1.0055
5.1883 12.9023 0.4285
8.6500 28.6801 0.9229
5.5796 48.6859 1.5098
1.1376 46.0520 1.4193
-2.9537 45.5789 1.4072
-4.2972 27.6611 0.8625
-20.1746 44.8932 1.5164
-16.8914 30.0736 1.0627
-16.7551 24.4296 0.9127
-20.1968 24.4423 0.9769
-24.6504 24.9189 1.0799
-29.5219 24.9369 1.1906
-34.6027 24.2873 1.3025
-16.9735 7.8497 0.5762
-16.9801 6.0785 0.5557
-16.9862 4.4162 0.5407
-16.9921 2.8285 0.5307
-17.9279 1.3568 0.5539
-22.1886 -0.3078 0.6837
-22.1959 -2.3006 0.6875
-43.9325 -8.5717 1.3791
-46.0001 -13.3322 1.4756
-45.2622 -17.6341 1.4966
-27.6548 -13.7332 0.9513
-21.5517 -13.2231 0.7790
-23.3122 -17.3473 0.8953
-26.3884 -23.5748 1.0902
-21.4218 -40.7473 1.4183
-13.8443 -43.9445 1.4195
-9.7555 -44.5045 1.4037
9.2074 -39.1021 1.2377
13.9387 -41.9678 1.3625
18.2512 -41.9838 1.4104
22.6512 -41.5134 1.4570
26.6590 -39.9111 1.4787
8.1549 -8.4485 0.3618
34.7333 -16.5834 1.1858
18.3201 6.4069 0.7176
17.0176 7.7191 0.6910
15.7992 8.9466 0.6714
14.6389 10.1154 0.6580
15.2400 12.6826 0.7331
15.3848 15.3257 0.8030
30.3976 36.2425 1.7491
5.0753 7.2849 0.3283
23.1594 40.5338 1.7262
11.2984 24.6561 1.0029
4.8505 18.9277 0.7225
7.5347 46.2601 1.7331
3.3339 46.1930 1.7125
-0.7930 45.6731 1.6891
-4.8959 45.6804 1.6988
-5.4387 27.3666 1.0317
-13.5390 46.1116 1.7770
-8.7341 22.1891 0.8818
-16.4977 32.9330 1.3620
-16.3389 26.4227 1.1487
-18.3159 24.4353 1.1292
-21.9960 24.4489 1.2161
-26.8241 24.9269 1.3540
-32.1870 24.9467 1.5058
-37.1159 23.7868 1.6301
-8.6466 4.5073 0.3606
-16.9767 7.0005 0.6790
-16.9830 5.2853 0.6577
-16.9890 3.6619 0.6426
-16.3762 2.0227 0.6101
-17.9307 0.6005 0.6634
-22.1920 -1.2425 0.8219
-22.1994 -3.2493 0.8296
-41.6752 -9.9669 1.5845
-41.0239 -13.7844 1.6003
-29.7776 -13.0687 1.2025
-24.0195 -13.2148 1.0137
-21.3254 -14.3523 0.9505
-28.7919 -23.3684 1.3712
-24.9089 -24.2115 1.2845
-29.2755 -34.0473 1.6604
-27.2385 -38.0916 1.7316
-15.9845 -43.4459 1.7118
-11.0905 -41.1694 1.5766
-8.0017 -45.5941 1.7117
-3.3113 -39.1774 1.4538
3.7955 -40.0444 1.4873
8.7797 -47.1999 1.7752
11.1497 -39.7731 1.5274
15.9303 -41.9752 1.6601
16.7010 -34.3860 1.4135
24.0019 -39.9013 1.7218
9.7610 -6.4259 0.4321
35.3817 -15.1006 1.4225
20.1761 -6.5516 0.7844
49.3052 -6.7050 1.8399
23.5586 1.0292 0.8719
21.6972 2.9044 0.8094
20.0728 4.5409 0.7610
18.6964 6.0279 0.7264
17.3656 7.3686 0.6975
16.1268 8.6165 0.6761
14.9529 9.7991 0.6611
13.8212 10.9392 0.6518
15.7942 14.9796 0.8049
14.3096 16.2347 0.8002
27.8660 37.9754 1.7417
24.2110 40.0590 1.7308
20.3135 41.6022 1.7119
4.9037 12.8398 0.5082
5.3939 19.0873 0.7334
8.9524 47.5745 1.7900
4.4626 46.0575 1.7110
0.3294 45.8624 1.6959
-3.7570 45.5872 1.6914
-4.7735 27.5382 1.0335
-12.0268 45.0203 1.7231
-16.8958 28.8846 1.2374
-17.3936 24.4319 1.1090
-20.9302 24.4450 1.1900
-25.5328 24.9221 1.3193
-30.5981 24.9408 1.4597
-36.7559 24.8492 1.6406
-16.3009 9.0128 0.6888
-16.9748 7.4923 0.6861
-16.9813 5.7455 0.6629
-16.9874 4.1002 0.6462
-16.3253 2.4244 0.6103
-17.9290 1.0414 0.6641
-22.1900 -0.6967 0.8209
-22.1974 -2.6945 0.8268
-39.2907 -8.3830 1.4855
-22.0189 -6.8020 0.8521
-40.4124 -16.5656 1.6150
-25.4712 -13.2099 1.0610
-21.3228 -13.6024 0.9352
-22.9245 -17.6910 1.0707
-25.4855 -23.5838 1.2839
-29.9522 -33.1526 1.6521
-27.6365 -36.7097 1.6991
