ply
format ascii 1.0
element vertex 2178
property float32 x
property float32 y
property float32 z
end_header
1.0614 -0.4461 0.3663
5.1339 -1.6362 1.7142
5.2776 -1.1756 1.7201
5.3733 -0.7015 1.7239
5.4187 -0.2194 1.7252
5.4167 0.2650 1.7252
5.3674 0.7467 1.7240
5.2701 1.2206 1.7209
1.0927 0.3584 0.3658
1.0562 0.4544 0.3658
1.0113 0.5468 0.3657
0.9584 0.6348 0.3657
0.8978 0.7177 0.3657
0.8301 0.7949 0.3656
0.7558 0.8657 0.3656
0.6755 0.9296 0.3656
0.5898 0.9861 0.3655
0.4994 1.0347 0.3655
0.4051 1.0751 0.3655
0.3075 1.1069 0.3655
0.2075 1.1299 0.3655
0.1058 1.1439 0.3655
0.0033 1.1488 0.3655
-0.0992 1.1445 0.3655
-0.2009 1.1311 0.3655
-0.3011 1.1087 0.3655
-0.3988 1.0775 0.3655
-0.4934 1.0377 0.3655
-0.5841 0.9896 0.3656
-0.6701 0.9336 0.3656
-0.7508 0.8701 0.3656
-0.8256 0.7998 0.3657
-0.8937 0.7230 0.3657
-0.9548 0.6404 0.3657
-1.0083 0.5527 0.3658
-1.0537 0.4606 0.3658
-5.5437 1.8540 1.8596
-5.6870 1.3520 1.8596
-5.7850 0.8391 1.8596
-5.8368 0.3195 1.8596
-5.8420 -0.2026 1.8596
-5.8006 -0.7231 1.8596
-5.7130 -1.2378 1.8596
-5.5797 -1.7427 1.8596
-1.0641 -0.4400 0.3663
-1.0207 -0.5332 0.3664
-0.9692 -0.6223 0.3664
-0.9099 -0.7064 0.3664
-0.8433 -0.7848 0.3665
-0.7700 -0.8570 0.3665
-0.6905 -0.9224 0.3665
-0.6055 -0.9804 0.3666
-0.5156 -1.0306 0.3666
-0.4216 -1.0725 0.3666
-0.3242 -1.1059 0.3666
-0.2243 -1.1305 0.3666
-0.1225 -1.1460 0.3666
-0.0197 -1.1524 0.3666
0.0832 -1.1495 0.3666
0.1854 -1.1375 0.3666
0.2862 -1.1164 0.3666
0.3846 -1.0863 0.3666
0.4800 -1.0476 0.3666
0.5715 -1.0005 0.3666
0.6585 -0.9454 0.3665
0.7401 -0.8828 0.3665
0.8159 -0.8132 0.3664
0.8851 -0.7370 0.3664
0.9472 -0.6550 0.3664
1.0018 -0.5678 0.3663
1.0483 -0.4761 0.3663
1.0864 -0.3806 0.3662
5.2368 -1.3239 1.7184
5.3487 -0.8537 1.7231
4.8351 -0.3337 1.5418
5.4225 0.1108 1.7254
5.3882 0.5940 1.7245
5.3070 1.0711 1.7223
5.1750 1.5359 1.7173
1.0688 0.4242 0.3658
1.0265 0.5178 0.3658
0.9761 0.6073 0.3657
0.9179 0.6919 0.3657
0.8524 0.7710 0.3656
0.7801 0.8439 0.3656
0.7017 0.9100 0.3656
0.6176 0.9689 0.3655
0.5286 1.0201 0.3655
0.4355 1.0632 0.3655
0.3389 1.0977 0.3655
0.2395 1.1236 0.3655
0.1383 1.1404 0.3655
0.0360 1.1482 0.3655
-0.0666 1.1469 0.3655
-0.1687 1.1364 0.3655
-0.2694 1.1168 0.3655
-0.3680 1.0884 0.3655
-0.4637 1.0513 0.3655
-0.5557 1.0058 0.3655
-0.6433 0.9522 0.3656
-0.7258 0.8911 0.3656
-0.8025 0.8229 0.3656
-0.8728 0.7481 0.3657
-0.9362 0.6673 0.3657
-0.9921 0.5812 0.3658
-1.0401 0.4904 0.3658
-1.0799 0.3957 0.3659
-5.6463 1.5132 1.8596
-5.7588 1.0033 1.8596
-5.8253 0.4854 1.8596
-5.8454 -0.0364 1.8596
-5.8188 -0.5578 1.8596
-5.7459 -1.0748 1.8596
-5.6270 -1.5833 1.8596
-1.0761 -0.4095 0.3663
-1.0354 -0.5040 0.3663
-0.9864 -0.5944 0.3664
-0.9296 -0.6802 0.3664
-0.8653 -0.7605 0.3665
-0.7940 -0.8348 0.3665
-0.7164 -0.9024 0.3665
-0.6331 -0.9628 0.3666
-0.5447 -1.0155 0.3666
-0.4519 -1.0601 0.3666
-0.3556 -1.0962 0.3666
-0.2563 -1.1236 0.3666
-0.1550 -1.1421 0.3666
-0.0525 -1.1513 0.3666
0.0504 -1.1514 0.3666
0.1530 -1.1423 0.3666
0.2543 -1.1241 0.3666
0.3536 -1.0968 0.3666
0.4500 -1.0608 0.3666
0.5428 -1.0164 0.3666
0.6313 -0.9638 0.3665
0.7147 -0.9035 0.3665
0.7924 -0.8361 0.3665
0.8638 -0.7619 0.3664
0.9282 -0.6817 0.3664
0.9852 -0.5961 0.3663
1.0344 -0.5058 0.3663
1.0752 -0.4114 0.3662
5.1913 -1.4707 1.7165
5.3182 -1.0047 1.7218
4.8213 -0.4709 1.5411
5.4235 -0.0434 1.7254
5.4043 0.4406 1.7249
5.3379 0.9201 1.7232
5.2221 1.3895 1.7191
1.0804 0.3937 0.3658
1.0409 0.4884 0.3658
0.9930 0.5793 0.3657
0.9372 0.6655 0.3657
0.8740 0.7464 0.3656
0.8038 0.8214 0.3656
0.7273 0.8897 0.3656
0.6449 0.9510 0.3655
0.5574 1.0047 0.3655
0.4655 1.0504 0.3655
0.3699 1.0877 0.3655
0.2714 1.1163 0.3655
0.1707 1.1360 0.3655
0.0686 1.1467 0.3655
-0.0340 1.1483 0.3655
-0.1363 1.1407 0.3655
-0.2375 1.1240 0.3655
-0.3369 1.0984 0.3655
-0.4336 1.0640 0.3655
-0.5269 1.0211 0.3655
-0.6159 0.9701 0.3656
-0.7001 0.9114 0.3656
-0.7787 0.8453 0.3656
-0.8511 0.7726 0.3657
-0.9168 0.6936 0.3657
-0.9751 0.6091 0.3658
-1.0257 0.5197 0.3658
-1.0682 0.4262 0.3659
-5.6009 1.6732 1.8596
-5.7279 1.1667 1.8596
-5.8092 0.6509 1.8596
-5.8441 0.1299 1.8596
-5.8324 -0.3921 1.8596
-5.7741 -0.9110 1.8596
-5.6698 -1.4226 1.8596
-1.0873 -0.3787 0.3663
-1.0493 -0.4743 0.3663
-1.0029 -0.5661 0.3664
-0.9485 -0.6534 0.3664
-0.8865 -0.7356 0.3665
-0.8174 -0.8118 0.3665
-0.7418 -0.8816 0.3665
-0.6602 -0.9443 0.3666
-0.5734 -0.9996 0.3666
-0.4819 -1.0468 0.3666
-0.3866 -1.0857 0.3666
-0.2882 -1.1159 0.3666
-0.1874 -1.1372 0.3666
-0.0852 -1.1494 0.3666
0.0177 -1.1524 0.3666
0.1204 -1.1462 0.3666
0.2222 -1.1308 0.3666
0.3222 -1.1065 0.3666
0.4197 -1.0732 0.3666
0.5137 -1.0314 0.3666
0.6037 -0.9814 0.3665
0.6888 -0.9235 0.3665
0.7684 -0.8583 0.3665
0.8418 -0.7862 0.3664
0.9085 -0.7079 0.3664
0.9679 -0.6239 0.3663
1.0196 -0.5350 0.3663
1.0631 -0.4418 0.3663
5.1411 -1.6158 1.7144
5.2829 -1.1545 1.7203
5.3764 -0.6800 1.7240
5.4196 -0.1976 1.7253
5.4155 0.2868 1.7252
5.3641 0.7683 1.7239
5.2645 1.2416 1.7207
1.0912 0.3628 0.3658
1.0544 0.4587 0.3658
1.0091 0.5509 0.3657
0.9558 0.6386 0.3657
0.8949 0.7213 0.3657
0.8269 0.7982 0.3656
0.7523 0.8687 0.3656
0.6717 0.9323 0.3655
0.5858 0.9884 0.3655
0.4952 1.0367 0.3655
0.4007 1.0767 0.3655
0.3030 1.1081 0.3655
0.2029 1.1307 0.3655
0.1012 1.1443 0.3655
-0.0013 1.1488 0.3655
-0.1038 1.1441 0.3655
-0.2055 1.1303 0.3655
-0.3055 1.1075 0.3655
-0.4032 1.0759 0.3655
-0.4976 1.0357 0.3655
-0.5881 0.9872 0.3656
-0.6739 0.9309 0.3656
-0.7543 0.8671 0.3656
-0.8288 0.7964 0.3657
-0.8966 0.7194 0.3657
-0.9574 0.6366 0.3657
-1.0105 0.5487 0.3658
-1.0556 0.4564 0.3658
-5.5511 1.8318 1.8596
-5.6924 1.3291 1.8596
-5.7883 0.8159 1.8596
-5.8380 0.2961 1.8596
-5.8411 -0.2261 1.8596
-5.7977 -0.7464 1.8596
-5.7079 -1.2608 1.8596
-5.5727 -1.7651 1.8596
-1.0623 -0.4443 0.3663
-1.0186 -0.5373 0.3664
-0.9667 -0.6262 0.3664
-0.9070 -0.7100 0.3664
-0.8401 -0.7882 0.3665
-0.7665 -0.8601 0.3665
-0.6868 -0.9252 0.3665
-0.6015 -0.9828 0.3666
-0.5115 -1.0327 0.3666
-0.4173 -1.0742 0.3666
-0.3198 -1.1072 0.3666
-0.2197 -1.1314 0.3666
-0.1179 -1.1465 0.3666
-0.0151 -1.1524 0.3666
0.0878 -1.1492 0.3666
0.1900 -1.1367 0.3666
0.2907 -1.1152 0.3666
0.3890 -1.0848 0.3666
0.4842 -1.0456 0.3666
0.5755 -0.9982 0.3666
0.6623 -0.9428 0.3665
0.7437 -0.8798 0.3665
0.8191 -0.8099 0.3664
0.8880 -0.7335 0.3664
0.9498 -0.6512 0.3664
1.0040 -0.5638 0.3663
1.0502 -0.4719 0.3663
1.0880 -0.3762 0.3662
5.2428 -1.3030 1.7186
5.3526 -0.8322 1.7232
4.8549 -0.3155 1.5477
5.4220 0.1326 1.7254
5.3856 0.6156 1.7244
5.3021 1.0923 1.7222
5.1680 1.5564 1.7170
1.0670 0.4285 0.3658
1.0244 0.5219 0.3658
0.9736 0.6112 0.3657
0.9151 0.6956 0.3657
0.8493 0.7744 0.3656
0.7767 0.8470 0.3656
0.6980 0.9128 0.3656
0.6137 0.9714 0.3655
0.5245 1.0222 0.3655
0.4312 1.0649 0.3655
0.3344 1.0991 0.3655
0.2350 1.1245 0.3655
0.1337 1.1410 0.3655
0.0314 1.1484 0.3655
-0.0712 1.1466 0.3655
-0.1732 1.1357 0.3655
-0.2739 1.1157 0.3655
-0.3724 1.0869 0.3655
-0.4679 1.0494 0.3655
-0.5597 1.0035 0.3655
-0.6471 0.9496 0.3656
-0.7293 0.8882 0.3656
-0.8058 0.8197 0.3656
-0.8758 0.7446 0.3657
-0.9388 0.6635 0.3657
-0.9944 0.5772 0.3658
-1.0421 0.4862 0.3658
-1.0815 0.3913 0.3659
-5.6523 1.4905 1.8596
-5.7628 0.9801 1.8596
-5.8272 0.4620 1.8596
-5.8452 -0.0598 1.8596
-5.8166 -0.5812 1.8596
-5.7415 -1.0979 1.8596
-5.6206 -1.6059 1.8596
-1.0745 -0.4138 0.3663
-1.0334 -0.5081 0.3663
-0.9840 -0.5984 0.3664
-0.9268 -0.6839 0.3664
-0.8622 -0.7640 0.3665
-0.7907 -0.8379 0.3665
-0.7128 -0.9052 0.3665
-0.6292 -0.9653 0.3666
-0.5406 -1.0177 0.3666
-0.4477 -1.0619 0.3666
-0.3511 -1.0977 0.3666
-0.2518 -1.1247 0.3666
-0.1504 -1.1427 0.3666
-0.0479 -1.1515 0.3666
0.0551 -1.1512 0.3666
0.1576 -1.1417 0.3666
0.2588 -1.1230 0.3666
0.3580 -1.0954 0.3666
0.4543 -1.0590 0.3666
0.5469 -1.0142 0.3666
0.6352 -0.9613 0.3665
0.7184 -0.9007 0.3665
0.7958 -0.8329 0.3665
0.8668 -0.7585 0.3664
0.9310 -0.6780 0.3664
0.9876 -0.5922 0.3663
1.0364 -0.5016 0.3663
1.0769 -0.4071 0.3662
5.1980 -1.4501 1.7167
5.3228 -0.9834 1.7220
4.8149 -0.4507 1.5384
5.4236 -0.0216 1.7254
5.4023 0.4623 1.7249
5.3338 0.9415 1.7230
5.2158 1.4103 1.7188
1.0788 0.3980 0.3658
1.0389 0.4926 0.3658
0.9907 0.5833 0.3657
0.9346 0.6693 0.3657
0.8710 0.7499 0.3656
0.8005 0.8246 0.3656
0.7237 0.8926 0.3656
0.6411 0.9536 0.3655
0.5534 1.0069 0.3655
0.4613 1.0522 0.3655
0.3656 1.0891 0.3655
0.2669 1.1174 0.3655
0.1661 1.1367 0.3655
0.0640 1.1470 0.3655
-0.0386 1.1481 0.3655
-0.1409 1.1401 0.3655
-0.2421 1.1231 0.3655
-0.3413 1.0970 0.3655
-0.4379 1.0623 0.3655
-0.5310 1.0190 0.3655
-0.6198 0.9676 0.3656
-0.7038 0.9086 0.3656
-0.7821 0.8422 0.3656
-0.8542 0.7691 0.3657
-0.9196 0.6899 0.3657
-0.9776 0.6052 0.3658
-1.0278 0.5156 0.3658
-1.0699 0.4219 0.3659
-5.6076 1.6506 1.8596
-5.7325 1.1436 1.8596
-5.8117 0.6275 1.8596
-5.8445 0.1064 1.8596
-5.8307 -0.4155 1.8596
-5.7704 -0.9342 1.8596
-5.6640 -1.4454 1.8596
-1.0858 -0.3831 0.3663
-1.0474 -0.4785 0.3663
-1.0006 -0.5701 0.3664
-0.9459 -0.6572 0.3664
-0.8835 -0.7391 0.3665
-0.8142 -0.8151 0.3665
-0.7382 -0.8846 0.3665
-0.6564 -0.9470 0.3666
-0.5693 -1.0019 0.3666
-0.4777 -1.0487 0.3666
-0.3822 -1.0872 0.3666
-0.2837 -1.1170 0.3666
-0.1829 -1.1379 0.3666
-0.0806 -1.1497 0.3666
0.0223 -1.1523 0.3666
0.1250 -1.1457 0.3666
0.2268 -1.1299 0.3666
0.3267 -1.1052 0.3666
0.4240 -1.0715 0.3666
0.5179 -1.0294 0.3666
0.6076 -0.9790 0.3665
0.6925 -0.9208 0.3665
0.7718 -0.8552 0.3665
0.8450 -0.7828 0.3664
0.9113 -0.7042 0.3664
0.9704 -0.6200 0.3663
1.0217 -0.5309 0.3663
1.0649 -0.4375 0.3662
5.1485 -1.5954 1.7147
5.2882 -1.1335 1.7205
5.3793 -0.6584 1.7241
5.4205 -0.1759 1.7253
5.4142 0.3085 1.7252
5.3607 0.7898 1.7238
5.2588 1.2626 1.7205
1.0898 0.3672 0.3658
1.0525 0.4629 0.3658
1.0069 0.5549 0.3657
0.9532 0.6425 0.3657
0.8920 0.7249 0.3657
0.8237 0.8015 0.3656
0.7488 0.8717 0.3656
0.6680 0.9350 0.3655
0.5818 0.9908 0.3655
0.4911 1.0387 0.3655
0.3964 1.0783 0.3655
0.9229 0.6442 0.3657
0.8616 0.7239 0.3657
0.7935 0.7979 0.3656
0.7191 0.8654 0.3656
0.6389 0.9260 0.3656
0.5537 0.9793 0.3655
0.4641 1.0247 0.3655
0.3708 1.0620 0.3655
0.2745 1.0908 0.3655
0.1761 1.1109 0.3655
0.0762 1.1222 0.3655
-0.0242 1.1245 0.3655
-0.1245 1.1179 0.3655
-0.2237 1.1024 0.3655
-0.3212 1.0781 0.3655
-0.4162 1.0451 0.3655
-0.5078 1.0039 0.3655
-0.5954 0.9547 0.3656
-0.6783 0.8978 0.3656
-0.7558 0.8338 0.3656
-0.8272 0.7631 0.3657
-0.8921 0.6863 0.3657
-0.9499 0.6040 0.3658
-1.0002 0.5169 0.3658
-1.0424 0.4257 0.3659
-1.0764 0.3310 0.3659
-5.5987 1.1873 1.8596
-5.6823 0.6830 1.8596
-5.7206 0.1732 1.8596
-5.7133 -0.3380 1.8596
-5.6603 -0.8465 1.8596
-5.5622 -1.3482 1.8596
-1.0675 -0.3622 0.3663
-1.0310 -0.4561 0.3663
-0.9863 -0.5464 0.3664
-0.9337 -0.6323 0.3664
-0.8737 -0.7131 0.3664
-0.8067 -0.7883 0.3665
-0.7332 -0.8573 0.3665
-0.6538 -0.9193 0.3665
-0.5692 -0.9741 0.3666
-0.4800 -1.0210 0.3666
-0.3870 -1.0599 0.3666
-0.2909 -1.0902 0.3666
-0.1925 -1.1118 0.3666
-0.0925 -1.1246 0.3666
0.0082 -1.1283 0.3666
0.1089 -1.1231 0.3666
0.2087 -1.1089 0.3666
0.3068 -1.0858 0.3666
0.4024 -1.0540 0.3666
0.4948 -1.0138 0.3666
0.5833 -0.9656 0.3665
0.6671 -0.9096 0.3665
0.7455 -0.8464 0.3665
0.8180 -0.7764 0.3664
0.8839 -0.7002 0.3664
0.9427 -0.6185 0.3663
0.9940 -0.5318 0.3663
1.0374 -0.4409 0.3663
1.0725 -0.3466 0.3662
5.1467 -1.1682 1.7148
5.2429 -0.7059 1.7189
5.2917 -0.2356 1.7211
5.2924 0.2376 1.7213
5.2450 0.7082 1.7197
1.0981 0.2497 0.3659
1.0713 0.3466 0.3658
1.0359 0.4408 0.3658
0.9923 0.5314 0.3657
0.9408 0.6177 0.3657
0.8819 0.6992 0.3657
0.8159 0.7750 0.3656
0.7434 0.8446 0.3656
0.6650 0.9075 0.3656
0.5813 0.9632 0.3655
0.4930 1.0111 0.3655
0.4008 1.0510 0.3655
0.3054 1.0826 0.3655
0.2076 1.1055 0.3655
0.1081 1.1196 0.3655
0.0078 1.1248 0.3655
-0.0926 1.1210 0.3655
-0.1923 1.1083 0.3655
-0.2904 1.0867 0.3655
-0.3863 1.0565 0.3655
-0.4790 1.0179 0.3655
-0.5680 0.9712 0.3656
-0.6524 0.9167 0.3656
-0.7317 0.8549 0.3656
-0.8052 0.7863 0.3657
-0.8722 0.7114 0.3657
-0.9323 0.6308 0.3657
-0.9850 0.5451 0.3658
-1.0299 0.4551 0.3658
-1.0665 0.3615 0.3659
-5.5627 1.3461 1.8596
-5.6606 0.8443 1.8596
-5.7134 0.3358 1.8596
-5.7206 -0.1754 1.8596
-5.6821 -0.6851 1.8596
-5.5983 -1.1895 1.8596
-1.0773 -0.3317 0.3662
-1.0435 -0.4266 0.3663
-1.0014 -0.5181 0.3663
-0.9513 -0.6054 0.3664
-0.8936 -0.6880 0.3664
-0.8287 -0.7651 0.3665
-0.7572 -0.8360 0.3665
-0.6797 -0.9003 0.3665
-0.5966 -0.9575 0.3666
-0.5089 -1.0070 0.3666
-0.4170 -1.0484 0.3666
-0.3218 -1.0815 0.3666
-0.2240 -1.1059 0.3666
-0.1244 -1.1215 0.3666
-0.0239 -1.1281 0.3666
0.0769 -1.1257 0.3666
0.1771 -1.1144 0.3666
0.2758 -1.0941 0.3666
0.3723 -1.0651 0.3666
0.4658 -1.0275 0.3666
0.5556 -0.9818 0.3665
0.6410 -0.9282 0.3665
0.7212 -0.8672 0.3665
0.7956 -0.7993 0.3664
0.8636 -0.7251 0.3664
0.9248 -0.6451 0.3664
0.9785 -0.5599 0.3663
1.0245 -0.4703 0.3663
1.0622 -0.3769 0.3662
1.0915 -0.2806 0.3662
5.2174 -0.8542 1.7178
4.8249 -0.3525 1.5719
5.2974 0.0870 1.7215
5.2653 0.5590 1.7204
5.1854 1.0249 1.7174
1.0807 0.3160 0.3659
1.0481 0.4111 0.3658
1.0071 0.5030 0.3658
0.9581 0.5908 0.3657
0.9014 0.6738 0.3657
0.8376 0.7515 0.3656
0.7671 0.8232 0.3656
0.6906 0.8883 0.3656
0.6085 0.9463 0.3655
0.5216 0.9967 0.3655
0.4306 1.0392 0.3655
0.3361 1.0735 0.3655
0.2390 1.0991 0.3655
0.1399 1.1161 0.3655
0.0398 1.1241 0.3655
-0.0607 1.1232 0.3655
-0.1607 1.1133 0.3655
-0.2594 1.0945 0.3655
-0.3560 1.0671 0.3655
-0.4499 1.0311 0.3655
-0.5401 0.9869 0.3656
-0.6261 0.9349 0.3656
-0.7071 0.8753 0.3656
-0.7824 0.8088 0.3657
-0.8516 0.7359 0.3657
-0.9140 0.6570 0.3657
-0.9691 0.5729 0.3658
-1.0165 0.4842 0.3658
-1.0557 0.3916 0.3659
-5.5222 1.5037 1.8596
-5.6343 1.0049 1.8596
-5.7015 0.4982 1.8596
-5.7232 -0.0126 1.8596
-5.6993 -0.5233 1.8596
-5.6298 -1.0297 1.8596
-1.0862 -0.3009 0.3662
-1.0552 -0.3967 0.3663
-1.0157 -0.4893 0.3663
-0.9681 -0.5781 0.3664
-0.9128 -0.6623 0.3664
-0.8501 -0.7412 0.3665
-0.7807 -0.8141 0.3665
-0.7050 -0.8806 0.3665
-0.6236 -0.9401 0.3666
-0.5373 -0.9921 0.3666
-0.4466 -1.0361 0.3666
-0.3524 -1.0719 0.3666
-0.2554 -1.0991 0.3666
-0.1563 -1.1175 0.3666
-0.0559 -1.1270 0.3666
0.0449 -1.1275 0.3666
0.1453 -1.1190 0.3666
0.2446 -1.1015 0.3666
0.3419 -1.0752 0.3666
0.4364 -1.0404 0.3666
0.5275 -0.9972 0.3666
0.6143 -0.9461 0.3665
0.6962 -0.8874 0.3665
0.7726 -0.8217 0.3665
0.8427 -0.7494 0.3664
0.9061 -0.6711 0.3664
0.9623 -0.5875 0.3663
1.0107 -0.4992 0.3663
1.0511 -0.4070 0.3662
1.0831 -0.3115 0.3662
5.1871 -1.0015 1.7165
4.8267 -0.4910 1.5764
5.2976 -0.0637 1.7214
5.2807 0.4092 1.7210
5.2160 0.8776 1.7186
1.0893 0.2852 0.3659
1.0594 0.3812 0.3658
1.0210 0.4741 0.3658
0.9745 0.5633 0.3657
0.9203 0.6479 0.3657
0.8587 0.7274 0.3657
0.7903 0.8010 0.3656
0.7156 0.8683 0.3656
0.6352 0.9286 0.3656
0.5498 0.9815 0.3655
0.4600 1.0266 0.3655
0.3665 1.0635 0.3655
0.2701 1.0919 0.3655
0.1716 1.1116 0.3655
0.0717 1.1225 0.3655
-0.0287 1.1244 0.3655
-0.1290 1.1174 0.3655
-0.2282 1.1015 0.3655
-0.3256 1.0768 0.3655
-0.4204 1.0435 0.3655
-0.5118 1.0019 0.3655
-0.5992 0.9523 0.3656
-0.6819 0.8951 0.3656
-0.7591 0.8307 0.3656
-0.8303 0.7598 0.3657
-0.8949 0.6827 0.3657
-0.9523 0.6002 0.3658
-1.0022 0.5129 0.3658
-1.0441 0.4215 0.3659
-1.0777 0.3267 0.3659
-5.6035 1.1648 1.8596
-5.6850 0.6601 1.8596
-5.7213 0.1502 1.8596
-5.7118 -0.3610 1.8596
-5.6569 -0.8692 1.8596
-5.5567 -1.3705 1.8596
-1.0660 -0.3665 0.3663
-1.0292 -0.4602 0.3663
-0.9841 -0.5503 0.3664
-0.9312 -0.6360 0.3664
-0.8708 -0.7166 0.3664
-0.8035 -0.7916 0.3665
-0.7297 -0.8602 0.3665
-0.6501 -0.9220 0.3665
-0.5653 -0.9764 0.3666
-0.4759 -1.0230 0.3666
-0.3828 -1.0614 0.3666
-0.2865 -1.0914 0.3666
-0.1880 -1.1126 0.3666
-0.0880 -1.1250 0.3666
0.0128 -1.1283 0.3666
0.1134 -1.1226 0.3666
0.2131 -1.1080 0.3666
0.3111 -1.0845 0.3666
0.4067 -1.0524 0.3666
0.4989 -1.0118 0.3666
0.5872 -0.9632 0.3665
0.6707 -0.9069 0.3665
0.7489 -0.8434 0.3665
0.8211 -0.7731 0.3664
0.8867 -0.6966 0.3664
0.9452 -0.6147 0.3663
0.9962 -0.5278 0.3663
1.0391 -0.4368 0.3662
1.0738 -0.3422 0.3662
5.1521 -1.1476 1.7150
5.2461 -0.6849 1.7190
5.2928 -0.2143 1.7211
5.2913 0.2589 1.7213
5.2417 0.7293 1.7196
1.0971 0.2541 0.3659
1.0699 0.3509 0.3658
1.0341 0.4449 0.3658
0.9902 0.5354 0.3657
0.9384 0.6215 0.3657
0.8791 0.7027 0.3657
0.8128 0.7783 0.3656
0.7400 0.8476 0.3656
0.6614 0.9102 0.3656
0.5775 0.9655 0.3655
0.4890 1.0131 0.3655
0.3966 1.0526 0.3655
0.3011 1.0838 0.3655
0.2032 1.1063 0.3655
0.1036 1.1200 0.3655
0.0033 1.1248 0.3655
-0.0971 1.1206 0.3655
-0.1967 1.1075 0.3655
-0.2948 1.0856 0.3655
-0.3905 1.0550 0.3655
-0.4831 1.0160 0.3655
-0.5719 0.9689 0.3656
-0.6561 0.9141 0.3656
-0.7351 0.8520 0.3656
-0.8083 0.7830 0.3657
-0.8751 0.7079 0.3657
-0.9348 0.6270 0.3657
-0.9872 0.5412 0.3658
-1.0317 0.4510 0.3658
-1.0680 0.3572 0.3659
-5.5681 1.3237 1.8596
-5.6640 0.8215 1.8596
-5.7147 0.3128 1.8596
-5.7198 -0.1984 1.8596
-5.6793 -0.7080 1.8596
-5.5935 -1.2119 1.8596
-1.0759 -0.3360 0.3663
-1.0418 -0.4308 0.3663
-0.9993 -0.5221 0.3663
-0.9489 -0.6092 0.3664
-0.8908 -0.6916 0.3664
-0.8256 -0.7684 0.3665
-0.7539 -0.8391 0.3665
-0.6760 -0.9031 0.3665
-0.5928 -0.9599 0.3666
-0.5048 -1.0090 0.3666
-0.4128 -1.0501 0.3666
-0.3174 -1.0828 0.3666
-0.2196 -1.1068 0.3666
-0.1199 -1.1220 0.3666
-0.0193 -1.1282 0.3666
0.0814 -1.1254 0.3666
0.1815 -1.1136 0.3666
0.2802 -1.0930 0.3666
0.3766 -1.0636 0.3666
0.4699 -1.0256 0.3666
0.5595 -0.9796 0.3665
0.6447 -0.9256 0.3665
0.7246 -0.8643 0.3665
0.7988 -0.7961 0.3664
0.8666 -0.7216 0.3664
0.9274 -0.6413 0.3664
0.9808 -0.5559 0.3663
1.0263 -0.4661 0.3663
1.0637 -0.3727 0.3662
1.0926 -0.2762 0.3662
5.2213 -0.8333 1.7180
4.8328 -0.3336 1.5740
5.2970 0.1083 1.7215
5.2627 0.5801 1.7203
5.1807 1.0456 1.7173
1.0795 0.3204 0.3659
1.0464 0.4154 0.3658
1.0051 0.5070 0.3658
0.9557 0.5946 0.3657
0.8987 0.6774 0.3657
0.8346 0.7548 0.3656
0.7638 0.8262 0.3656
0.6870 0.8910 0.3656
0.6047 0.9487 0.3655
0.5176 0.9988 0.3655
0.4264 1.0410 0.3655
0.3318 1.0748 0.3655
0.2345 1.1001 0.3655
0.1354 1.1166 0.3655
0.0353 1.1242 0.3655
-0.0652 1.1229 0.3655
-0.1652 1.1126 0.3655
-0.2638 1.0935 0.3655
-0.3603 1.0656 0.3655
-0.4540 1.0293 0.3655
-0.5441 0.9847 0.3656
-0.6298 0.9323 0.3656
-0.7106 0.8725 0.3656
-0.7857 0.8057 0.3657
-0.8545 0.7324 0.3657
-0.9166 0.6533 0.3657
-0.9714 0.5690 0.3658
-1.0184 0.4801 0.3658
-1.0573 0.3874 0.3659
-5.5282 1.4815 1.8596
-5.6383 0.9823 1.8596
-5.7035 0.4753 1.8596
-5.7231 -0.0356 1.8596
-5.6971 -0.5462 1.8596
-5.6257 -1.0524 1.8596
-1.0850 -0.3053 0.3662
-1.0536 -0.4009 0.3663
-1.0137 -0.4934 0.3663
-0.9658 -0.5820 0.3664
-0.9101 -0.6659 0.3664
-0.8471 -0.7446 0.3665
-0.7774 -0.8173 0.3665
-0.7014 -0.8835 0.3665
-0.6198 -0.9426 0.3666
-0.5333 -0.9942 0.3666
-0.4425 -1.0379 0.3666
-0.3481 -1.0733 0.3666
-0.2509 -1.1001 0.3666
-0.1518 -1.1181 0.3666
-0.0514 -1.1272 0.3666
0.0494 -1.1273 0.3666
0.1498 -1.1184 0.3666
0.2490 -1.1005 0.3666
0.3462 -1.0739 0.3666
0.4406 -1.0386 0.3666
0.5315 -0.9951 0.3666
0.6181 -0.9436 0.3665
0.6998 -0.8846 0.3665
0.7759 -0.8186 0.3665
0.8457 -0.7460 0.3664
0.9088 -0.6675 0.3664
0.9646 -0.5836 0.3663
1.0127 -0.4952 0.3663
1.0527 -0.4028 0.3662
1.0843 -0.3072 0.3662
5.1917 -0.9808 1.7167
4.8183 -0.4706 1.5730
5.2978 -0.0424 1.7214
5.2789 0.4304 1.7209
5.2119 0.8984 1.7184
1.0882 0.2895 0.3659
1.0579 0.3854 0.3658
1.0191 0.4782 0.3658
0.9722 0.5672 0.3657
0.9177 0.6516 0.3657
0.8557 0.7308 0.3656
0.7870 0.8042 0.3656
0.7121 0.8711 0.3656
0.6315 0.9311 0.3656
0.5458 0.9837 0.3655
0.4558 1.0284 0.3655
0.3622 1.0649 0.3655
0.2657 1.0930 0.3655
0.1671 1.1123 0.3655
0.0672 1.1228 0.3655
-0.0332 1.1243 0.3655
-0.1334 1.1169 0.3655
-0.2326 1.1005 0.3655
-0.3299 1.0754 0.3655
-0.4245 1.0418 0.3655
-0.5158 0.9998 0.3655
-0.6031 0.9499 0.3656
-0.6855 0.8923 0.3656
-0.7624 0.8277 0.3656
-0.8333 0.7564 0.3657
-0.8976 0.6791 0.3657
-0.9548 0.5964 0.3658
-1.0043 0.5089 0.3658
-1.0458 0.4173 0.3659
-1.0790 0.3223 0.3659
-5.6081 1.1423 1.8596
-5.6877 0.6373 1.8596
-5.7218 0.1272 1.8596
-5.7104 -0.3839 1.8596
-5.6533 -0.8919 1.8596
-5.5512 -1.3928 1.8596
-1.0645 -0.3708 0.3663
-1.0273 -0.4644 0.3663
-0.9819 -0.5543 0.3664
-0.9286 -0.6398 0.3664
-0.8679 -0.7201 0.3664
-0.8003 -0.7948 0.3665
-0.7262 -0.8631 0.3665
-0.6464 -0.9246 0.3665
-0.5613 -0.9786 0.3666
-0.4718 -1.0249 0.3666
-0.3785 -1.0629 0.3666
-0.2821 -1.0925 0.3666
-0.1835 -1.1133 0.3666
-0.0834 -1.1253 0.3666
0.0173 -1.1282 0.3666
0.1179 -1.1222 0.3666
0.2176 -1.1072 0.3666
0.3155 -1.0833 0.3666
0.4109 -1.0507 0.3666
0.5030 -1.0098 0.3666
0.5910 -0.9608 0.3665
0.6744 -0.9042 0.3665
0.7523 -0.8403 0.3665
0.8242 -0.7698 0.3664
0.8895 -0.6931 0.3664
0.9477 -0.6109 0.3663
0.9983 -0.5238 0.3663
1.0409 -0.4326 0.3662
1.0752 -0.3379 0.3662
5.1573 -1.1271 1.7153
5.2493 -0.6639 1.7192
5.2938 -0.1930 1.7212
5.2901 0.2801 1.7213
5.2384 0.7503 1.7194
1.0960 0.2585 0.3659
1.0684 0.3552 0.3658
1.0323 0.4491 0.3658
0.9880 0.5393 0.3657
0.9358 0.6253 0.3657
0.8762 0.7062 0.3657
0.8096 0.7815 0.3656
0.7366 0.8506 0.3656
0.6577 0.9128 0.3656
0.5736 0.9678 0.3655
0.4849 1.0151 0.3655
0.3924 1.0542 0.3655
0.2967 1.0850 0.3655
0.1987 1.1071 0.3655
0.0991 1.1204 0.3655
-0.0013 1.1248 0.3655
-0.1016 1.1202 0.3655
-0.2012 1.1067 0.3655
-0.2991 1.0844 0.3655
-0.3947 1.0534 0.3655
-0.4872 1.0140 0.3655
-0.5758 0.9666 0.3656
-0.6598 0.9114 0.3656
-0.7386 0.8490 0.3656
-0.8115 0.7798 0.3657
-0.8779 0.7043 0.3657
-0.9374 0.6233 0.3658
-0.9894 0.5372 0.3658
-1.0335 0.4468 0.3658
-1.0694 0.3529 0.3659
-5.5733 1.3013 1.8596
-5.6672 0.7988 1.8596
-5.7159 0.2899 1.8596
-5.7190 -0.2213 1.8596
-5.6764 -0.7308 1.8596
-5.5885 -1.2344 1.8596
-1.0746 -0.3404 0.3663
-1.0401 -0.4350 0.3663
-0.9972 -0.5261 0.3663
-0.9464 -0.6131 0.3664
-0.8880 -0.6951 0.3664
-0.8226 -0.7717 0.3665
-0.7505 -0.8421 0.3665
-0.6724 -0.9058 0.3665
-0.5889 -0.9622 0.3666
-0.5008 -1.0110 0.3666
-0.4086 -1.0517 0.3666
-0.3131 -1.0840 0.3666
-0.2151 -1.1077 0.3666
-0.1154 -1.1225 0.3666
-0.0148 -1.1283 0.3666
0.0860 -1.1251 0.3666
0.1860 -1.1129 0.3666
0.2846 -1.0918 0.3666
0.3808 -1.0620 0.3666
0.4741 -1.0237 0.3666
0.5635 -0.9773 0.3665
0.6484 -0.9230 0.3665
0.7281 -0.8614 0.3665
0.8020 -0.7929 0.3664
0.8694 -0.7181 0.3664
0.9299 -0.6376 0.3664
0.9830 -0.5520 0.3663
1.0282 -0.4620 0.3663
1.0652 -0.3684 0.3662
1.0937 -0.2718 0.3662
5.2251 -0.8124 1.7181
4.8549 -0.3155 1.5808
5.2965 0.1296 1.7215
5.2601 0.6013 1.7202
5.1759 1.0663 1.7171
1.0782 0.3247 0.3659
1.0447 0.4196 0.3658
1.0030 0.5110 0.3658
0.9533 0.5984 0.3657
0.8960 0.6810 0.3657
0.8315 0.7582 0.3656
0.7605 0.8293 0.3656
0.6834 0.8938 0.3656
0.6009 0.9511 0.3655
0.5136 1.0009 0.3655
0.4222 1.0427 0.3655
0.3275 1.0761 0.3655
0.2301 1.1010 0.3655
0.1309 1.1171 0.3655
0.0307 1.1244 0.3655
-0.0697 1.1226 0.3655
-0.1696 1.1120 0.3655
-0.2682 1.0924 0.3655
-0.3646 1.0642 0.3655
-0.4581 1.0275 0.3655
-0.5480 0.9826 0.3656
-0.6336 0.9298 0.3656
-0.7141 0.8696 0.3656
-0.7889 0.8025 0.3657
-0.8575 0.7290 0.3657
-0.9192 0.6497 0.3657
-0.9737 0.5651 0.3658
-1.0203 0.4760 0.3658
-1.0589 0.3831 0.3659
-5.5341 1.4593 1.8596
-5.6422 0.9596 1.8596
-5.7053 0.4523 1.8596
-5.7229 -0.0586 1.8596
-5.6949 -0.5690 1.8596
-5.6214 -1.0750 1.8596
-1.0838 -0.3097 0.3662
-1.0520 -0.4052 0.3663
-1.0118 -0.4975 0.3663
-0.9634 -0.5859 0.3664
-0.9074 -0.6696 0.3664
-0.8441 -0.7480 0.3665
-0.7741 -0.8204 0.3665
-0.6979 -0.8863 0.3665
-0.6160 -0.9451 0.3666
-0.5293 -0.9964 0.3666
-0.4383 -1.0397 0.3666
-0.3438 -1.0747 0.3666
-0.2465 -1.1011 0.3666
-0.1473 -1.1187 0.3666
-0.0469 -1.1274 0.3666
0.0539 -1.1271 0.3666
0.1543 -1.1178 0.3666
0.2534 -1.0995 0.3666
0.3505 -1.0724 0.3666
0.4448 -1.0368 0.3666
0.5355 -0.9929 0.3665
0.6219 -0.9411 0.3665
0.7033 -0.8818 0.3665
0.7791 -0.8154 0.3665
0.8487 -0.7426 0.3664
0.9115 -0.6638 0.3664
0.9669 -0.5798 0.3663
1.0147 -0.4911 0.3663
1.0543 -0.3985 0.3662
1.0855 -0.3028 0.3662
5.1961 -0.9600 1.7169
4.8100 -0.4503 1.5697
5.2980 -0.0211 1.7214
5.2769 0.4516 1.7208
5.2078 0.9193 1.7183
1.0870 0.2939 0.3659
1.0563 0.3897 0.3658
1.0172 0.4823 0.3658
0.9700 0.5711 0.3657
0.9150 0.6553 0.3657
0.8528 0.7343 0.3656
0.7838 0.8074 0.3656
0.7086 0.8740 0.3656
0.6277 0.9337 0.3655
0.5418 0.9859 0.3655
0.4517 1.0302 0.3655
0.3579 1.0664 0.3655
0.2613 1.0940 0.3655
0.1627 1.1130 0.3655
0.0627 1.1230 0.3655
-0.0378 1.1242 0.3655
-0.1379 1.1163 0.3655
-0.2370 1.0996 0.3655
-0.3342 1.0741 0.3655
-0.4287 1.0401 0.3655
-0.5199 0.9977 0.3655
-0.6069 0.9474 0.3656
-0.6891 0.8896 0.3656
-0.7658 0.8246 0.3656
-0.8364 0.7531 0.3657
-0.9003 0.6755 0.3657
-0.9571 0.5925 0.3658
-1.0063 0.5048 0.3658
-1.0475 0.4131 0.3659
-1.0803 0.3180 0.3659
-5.6126 1.1197 1.8596
-5.6902 0.6144 1.8596
-5.7223 0.1042 1.8596
-5.7088 -0.4069 1.8596
-5.6497 -0.9146 1.8596
-5.5455 -1.4151 1.8596
-1.0630 -0.3751 0.3663
-1.0255 -0.4685 0.3663
-0.9797 -0.5582 0.3664
-0.9261 -0.6435 0.3664
-0.8650 -0.7236 0.3664
-0.7971 -0.7980 0.3665
-0.7228 -0.8660 0.3665
-0.6427 -0.9272 0.3665
-0.5574 -0.9809 0.3666
-0.4677 -1.0268 0.3666
-0.3742 -1.0644 0.3666
-0.2777 -1.0936 0.3666
-0.1790 -1.1141 0.3666
-0.0789 -1.1256 0.3666
0.0218 -1.1282 0.3666
0.1224 -1.1217 0.3666
0.2220 -1.1063 0.3666
0.3198 -1.0820 0.3666
0.4151 -1.0491 0.3666
0.5070 -1.0078 0.3666
0.5949 -0.9585 0.3665
0.6780 -0.9015 0.3665
0.7556 -0.8373 0.3665
0.8273 -0.7664 0.3664
0.8923 -0.6895 0.3664
0.9501 -0.6070 0.3663
1.0004 -0.5198 0.3663
1.0426 -0.4284 0.3662
1.0765 -0.3336 0.3662
5.1624 -1.1065 1.7155
5.2523 -0.6428 1.7193
5.2946 -0.1718 1.7212
5.2888 0.3014 1.7212
5.2349 0.7713 1.7193
1.0950 0.2629 0.3659
1.0670 0.3595 0.3658
1.0305 0.4532 0.3658
0.9858 0.5433 0.3657
0.9333 0.6290 0.3657
0.8734 0.7097 0.3657
0.8065 0.7848 0.3656
0.7332 0.8535 0.3656
0.6540 0.9155 0.3656
0.5697 0.9701 0.3655
0.4808 1.0170 0.3655
0.3881 1.0558 0.3655
0.9039 0.6310 0.3657
0.8439 0.7091 0.3657
0.7772 0.7815 0.3656
0.7043 0.8476 0.3656
0.6258 0.9070 0.3656
0.5423 0.9592 0.3655
0.4545 1.0037 0.3655
0.3631 1.0402 0.3655
0.2689 1.0684 0.3655
0.1725 1.0881 0.3655
0.0747 1.0992 0.3655
-0.0237 1.1014 0.3655
-0.1219 1.0949 0.3655
-0.2191 1.0797 0.3655
-0.3146 1.0559 0.3655
-0.4076 1.0237 0.3655
-0.4974 0.9833 0.3656
-0.5832 0.9350 0.3656
-0.6643 0.8794 0.3656
-0.7402 0.8166 0.3656
-0.8102 0.7474 0.3657
-0.8738 0.6722 0.3657
-0.9304 0.5916 0.3658
-0.9796 0.5063 0.3658
-1.0210 0.4169 0.3659
-1.0543 0.3242 0.3659
-1.0791 0.2288 0.3660
-5.5655 0.6689 1.8596
-5.6029 0.1696 1.8596
-5.5957 -0.3310 1.8596
-5.5439 -0.8291 1.8596
-1.0728 -0.2600 0.3662
-1.0455 -0.3548 0.3663
-1.0098 -0.4467 0.3663
-0.9660 -0.5351 0.3664
-0.9145 -0.6192 0.3664
-0.8557 -0.6985 0.3664
-0.7900 -0.7721 0.3665
-0.7181 -0.8396 0.3665
-0.6403 -0.9004 0.3665
-0.5575 -0.9540 0.3666
-0.4701 -1.0000 0.3666
-0.3790 -1.0380 0.3666
-0.2849 -1.0677 0.3666
-0.1885 -1.0889 0.3666
-0.0906 -1.1014 0.3666
0.0081 -1.1051 0.3666
0.1067 -1.1000 0.3666
0.2044 -1.0860 0.3666
0.3005 -1.0634 0.3666
0.3941 -1.0323 0.3666
0.4846 -0.9930 0.3666
0.5713 -0.9457 0.3665
0.6533 -0.8909 0.3665
0.7302 -0.8289 0.3665
0.8011 -0.7604 0.3664
0.8657 -0.6858 0.3664
0.9233 -0.6057 0.3663
0.9736 -0.5209 0.3663
1.0160 -0.4319 0.3662
1.0504 -0.3394 0.3662
1.0763 -0.2443 0.3661
1.0937 -0.1473 0.3661
5.1679 -0.2301 1.7161
5.1686 0.2321 1.7164
1.0932 0.1476 0.3659
1.0755 0.2445 0.3659
1.0492 0.3395 0.3658
1.0146 0.4317 0.3658
0.9719 0.5205 0.3658
0.9215 0.6050 0.3657
0.8638 0.6848 0.3657
0.7991 0.7591 0.3656
0.7281 0.8273 0.3656
0.6514 0.8889 0.3656
0.5694 0.9434 0.3655
0.4829 0.9904 0.3655
0.3926 1.0295 0.3655
0.2992 1.0603 0.3655
0.2033 1.0828 0.3655
0.1059 1.0966 0.3655
0.0076 1.1017 0.3655
-0.0907 1.0980 0.3655
-0.1883 1.0855 0.3655
-0.2845 1.0644 0.3655
-0.3783 1.0348 0.3655
-0.4692 0.9970 0.3655
-0.5563 0.9512 0.3656
-0.6390 0.8979 0.3656
-0.7167 0.8373 0.3656
-0.7886 0.7701 0.3657
-0.8543 0.6968 0.3657
-0.9132 0.6178 0.3658
-0.9648 0.5339 0.3658
-1.0087 0.4458 0.3658
-1.0446 0.3540 0.3659
-1.0721 0.2594 0.3659
-5.5442 0.8269 1.8596
-5.5959 0.3289 1.8596
-5.6029 -0.1718 1.8596
-5.5652 -0.6711 1.8596
-1.0798 -0.2294 0.3662
-1.0551 -0.3249 0.3662
-1.0220 -0.4178 0.3663
-0.9808 -0.5074 0.3663
-0.9317 -0.5930 0.3664
-0.8752 -0.6738 0.3664
-0.8117 -0.7493 0.3665
-0.7416 -0.8188 0.3665
-0.6657 -0.8818 0.3665
-0.5844 -0.9377 0.3665
-0.4984 -0.9862 0.3666
-0.4084 -1.0268 0.3666
-0.3152 -1.0592 0.3666
-0.2194 -1.0831 0.3666
-0.1219 -1.0984 0.3666
-0.0234 -1.1049 0.3666
0.0753 -1.1026 0.3666
0.1734 -1.0914 0.3666
0.2701 -1.0715 0.3666
0.3646 -1.0431 0.3666
0.4562 -1.0064 0.3666
0.5442 -0.9616 0.3665
0.6277 -0.9091 0.3665
0.7063 -0.8494 0.3665
0.7792 -0.7829 0.3664
0.8459 -0.7102 0.3664
0.9058 -0.6318 0.3664
0.9584 -0.5484 0.3663
1.0034 -0.4606 0.3663
1.0403 -0.3692 0.3662
1.0690 -0.2748 0.3662
1.0891 -0.1783 0.3661
4.8249 -0.3525 1.6049
5.1735 0.0850 1.7165
1.0970 0.1165 0.3660
1.0821 0.2139 0.3659
1.0585 0.3095 0.3659
1.0265 0.4027 0.3658
0.9864 0.4926 0.3658
0.9384 0.5786 0.3657
0.8829 0.6600 0.3657
0.8204 0.7360 0.3656
0.7514 0.8062 0.3656
0.6764 0.8700 0.3656
0.5960 0.9268 0.3656
0.5109 0.9762 0.3655
0.4217 1.0179 0.3655
0.3292 1.0514 0.3655
0.2340 1.0766 0.3655
0.1370 1.0931 0.3655
0.0390 1.1010 0.3655
-0.0595 1.1001 0.3655
-0.1574 1.0904 0.3655
-0.2541 1.0721 0.3655
-0.3487 1.0452 0.3655
-0.4406 1.0099 0.3655
-0.5290 0.9667 0.3656
-0.6132 0.9157 0.3656
-0.6925 0.8574 0.3656
-0.7664 0.7922 0.3657
-0.8341 0.7207 0.3657
-0.8952 0.6435 0.3657
-0.9491 0.5611 0.3658
-0.9956 0.4743 0.3658
-1.0340 0.3836 0.3659
-1.0643 0.2898 0.3659
-5.5184 0.9843 1.8596
-5.5842 0.4879 1.8596
-5.6055 -0.0123 1.8596
-5.5820 -0.5125 1.8596
-1.0858 -0.1986 0.3662
-1.0639 -0.2947 0.3662
-1.0335 -0.3885 0.3663
-0.9948 -0.4793 0.3663
-0.9482 -0.5662 0.3664
-0.8940 -0.6486 0.3664
-0.8326 -0.7259 0.3664
-0.7646 -0.7974 0.3665
-0.6904 -0.8625 0.3665
-0.6108 -0.9207 0.3665
-0.5262 -0.9716 0.3666
-0.4374 -1.0148 0.3666
-0.3452 -1.0498 0.3666
-0.2501 -1.0764 0.3666
-0.1531 -1.0945 0.3666
-0.0548 -1.1038 0.3666
0.0439 -1.1043 0.3666
0.1423 -1.0959 0.3666
0.2395 -1.0788 0.3666
0.3348 -1.0531 0.3666
0.4274 -1.0190 0.3666
0.5166 -0.9767 0.3665
0.6017 -0.9266 0.3665
0.6819 -0.8692 0.3665
0.7566 -0.8048 0.3664
0.8254 -0.7340 0.3664
0.8875 -0.6573 0.3664
0.9425 -0.5754 0.3663
0.9899 -0.4890 0.3663
1.0295 -0.3986 0.3662
1.0608 -0.3051 0.3662
1.0836 -0.2092 0.3661
4.8267 -0.4910 1.6095
5.1736 -0.0622 1.7164
5.1572 0.3996 1.7160
1.0878 0.1830 0.3659
1.0669 0.2793 0.3659
1.0376 0.3734 0.3658
1.0000 0.4644 0.3658
0.9545 0.5517 0.3657
0.9014 0.6346 0.3657
0.8410 0.7124 0.3657
0.7740 0.7846 0.3656
0.7009 0.8504 0.3656
0.6221 0.9095 0.3656
0.5385 0.9613 0.3655
0.4505 1.0055 0.3655
0.3590 1.0416 0.3655
0.2646 1.0695 0.3655
0.1681 1.0888 0.3655
0.0702 1.0994 0.3655
-0.0281 1.1013 0.3655
-0.1263 1.0944 0.3655
-0.2235 1.0788 0.3655
-0.3189 1.0546 0.3655
-0.4117 1.0220 0.3655
-0.5013 0.9813 0.3656
-0.5869 0.9327 0.3656
-0.6679 0.8767 0.3656
-0.7435 0.8137 0.3656
-0.8132 0.7441 0.3657
-0.8765 0.6687 0.3657
-0.9328 0.5879 0.3658
-0.9816 0.5024 0.3658
-1.0227 0.4128 0.3659
-1.0556 0.3199 0.3659
-1.0801 0.2245 0.3660
-5.5681 0.6465 1.8596
-5.6036 0.1471 1.8596
-5.5944 -0.3535 1.8596
-5.5405 -0.8513 1.8596
-1.0718 -0.2643 0.3662
-1.0441 -0.3590 0.3663
-1.0080 -0.4508 0.3663
-0.9639 -0.5390 0.3664
-0.9120 -0.6229 0.3664
-0.8529 -0.7019 0.3664
-0.7869 -0.7753 0.3665
-0.7147 -0.8425 0.3665
-0.6367 -0.9030 0.3665
-0.5536 -0.9562 0.3666
-0.4661 -1.0019 0.3666
-0.3749 -1.0395 0.3666
-0.2806 -1.0689 0.3666
-0.1841 -1.0897 0.3666
-0.0861 -1.1018 0.3666
0.0125 -1.1051 0.3666
0.1111 -1.0995 0.3666
0.2087 -1.0852 0.3666
0.3047 -1.0622 0.3666
0.3983 -1.0307 0.3666
0.4886 -0.9910 0.3665
0.5751 -0.9434 0.3665
0.6569 -0.8882 0.3665
0.7335 -0.8260 0.3665
0.8042 -0.7572 0.3664
0.8684 -0.6823 0.3664
0.9257 -0.6020 0.3663
0.9757 -0.5169 0.3663
1.0178 -0.4278 0.3662
1.0517 -0.3352 0.3662
1.0773 -0.2400 0.3661
1.0943 -0.1429 0.3661
5.1690 -0.2093 1.7162
5.1675 0.2528 1.7163
1.0926 0.1520 0.3659
1.0745 0.2489 0.3659
1.0479 0.3437 0.3658
1.0129 0.4358 0.3658
0.9698 0.5244 0.3658
0.9191 0.6087 0.3657
0.8610 0.6883 0.3657
0.7961 0.7623 0.3656
0.7248 0.8302 0.3656
0.6478 0.8915 0.3656
0.5656 0.9457 0.3655
0.4789 0.9923 0.3655
0.3884 1.0310 0.3655
0.2949 1.0615 0.3655
0.1990 1.0836 0.3655
0.1015 1.0970 0.3655
0.0032 1.1017 0.3655
-0.0951 1.0976 0.3655
-0.1927 1.0848 0.3655
-0.2887 1.0633 0.3655
-0.3825 1.0333 0.3655
-0.4732 0.9951 0.3655
-0.5601 0.9490 0.3656
-0.6426 0.8953 0.3656
-0.7200 0.8345 0.3656
-0.7917 0.7670 0.3657
-0.8571 0.6933 0.3657
-0.9156 0.6141 0.3658
-0.9669 0.5301 0.3658
-1.0105 0.4417 0.3658
-1.0460 0.3498 0.3659
-1.0732 0.2551 0.3659
-5.5475 0.8046 1.8596
-5.5971 0.3064 1.8596
-5.6021 -0.1943 1.8596
-5.5625 -0.6934 1.8596
-1.0788 -0.2337 0.3662
-1.0538 -0.3291 0.3662
-1.0204 -0.4219 0.3663
-0.9788 -0.5113 0.3663
-0.9293 -0.5967 0.3664
-0.8725 -0.6773 0.3664
-0.8086 -0.7526 0.3665
-0.7383 -0.8218 0.3665
-0.6621 -0.8845 0.3665
-0.5806 -0.9401 0.3666
-0.4944 -0.9882 0.3666
-0.4043 -1.0284 0.3666
-0.3109 -1.0605 0.3666
-0.2150 -1.0840 0.3666
-0.1174 -1.0989 0.3666
-0.0189 -1.1050 0.3666
0.0798 -1.1022 0.3666
0.1778 -1.0907 0.3666
0.2744 -1.0705 0.3666
0.3688 -1.0416 0.3666
0.4603 -1.0045 0.3666
0.5480 -0.9594 0.3665
0.6314 -0.9066 0.3665
0.7097 -0.8465 0.3665
0.7823 -0.7797 0.3664
0.8487 -0.7068 0.3664
0.9083 -0.6281 0.3664
0.9606 -0.5445 0.3663
1.0052 -0.4566 0.3663
1.0418 -0.3650 0.3662
1.0701 -0.2705 0.3662
1.0898 -0.1739 0.3661
4.8328 -0.3336 1.6071
5.1731 0.1057 1.7165
1.0965 0.1209 0.3660
1.0812 0.2182 0.3659
1.0573 0.3138 0.3659
1.0249 0.4068 0.3658
0.9844 0.4966 0.3658
0.9360 0.5824 0.3657
0.8802 0.6635 0.3657
0.8174 0.7393 0.3656
0.7481 0.8093 0.3656
0.6729 0.8727 0.3656
0.5923 0.9292 0.3656
0.5070 0.9783 0.3655
0.4176 1.0196 0.3655
0.3250 1.0527 0.3655
0.2297 1.0775 0.3655
0.1327 1.0937 0.3655
0.0345 1.1011 0.3655
-0.0639 1.0998 0.3655
-0.1618 1.0898 0.3655
-0.2584 1.0710 0.3655
-0.3529 1.0438 0.3655
-0.4447 1.0082 0.3655
-0.5329 0.9645 0.3656
-0.6169 0.9132 0.3656
-0.6960 0.8546 0.3656
-0.7695 0.7891 0.3657
-0.8370 0.7174 0.3657
-0.8978 0.6399 0.3657
-0.9514 0.5573 0.3658
-0.9975 0.4703 0.3658
-1.0356 0.3794 0.3659
-1.0655 0.2855 0.3659
-5.5223 0.9621 1.8596
-5.5862 0.4655 1.8596
-5.6054 -0.0349 1.8596
-5.5799 -0.5349 1.8596
-1.0850 -0.2030 0.3662
-1.0627 -0.2990 0.3662
-1.0319 -0.3927 0.3663
-0.9929 -0.4833 0.3663
-0.9459 -0.5700 0.3664
-0.8914 -0.6522 0.3664
-0.8297 -0.7292 0.3664
-0.7614 -0.8004 0.3665
-0.6870 -0.8653 0.3665
-0.6071 -0.9232 0.3665
-0.5223 -0.9737 0.3666
-0.4334 -1.0165 0.3666
-0.3409 -1.0512 0.3666
-0.2458 -1.0774 0.3666
-0.1487 -1.0951 0.3666
-0.0503 -1.1040 0.3666
0.0484 -1.1041 0.3666
0.1467 -1.0953 0.3666
0.2438 -1.0778 0.3666
0.3390 -1.0517 0.3666
0.4315 -1.0172 0.3666
0.5205 -0.9746 0.3665
0.6054 -0.9242 0.3665
0.6854 -0.8664 0.3665
0.7599 -0.8017 0.3664
0.8283 -0.7306 0.3664
0.8901 -0.6537 0.3664
0.9448 -0.5716 0.3663
0.9919 -0.4850 0.3663
1.0311 -0.3945 0.3662
1.0620 -0.3009 0.3662
1.0845 -0.2049 0.3661
4.8183 -0.4706 1.6061
5.1739 -0.0414 1.7165
5.1554 0.4203 1.7159
1.0870 0.1874 0.3659
1.0658 0.2836 0.3659
1.0361 0.3775 0.3658
0.9982 0.4684 0.3658
0.9523 0.5555 0.3657
0.8988 0.6382 0.3657
0.8382 0.7158 0.3657
0.7709 0.7877 0.3656
0.6974 0.8532 0.3656
0.6185 0.9120 0.3656
0.5346 0.9635 0.3655
0.4465 1.0073 0.3655
0.3548 1.0431 0.3655
0.2603 1.0705 0.3655
0.1637 1.0895 0.3655
0.0658 1.0997 0.3655
-0.0326 1.1012 0.3655
-0.1307 1.0939 0.3655
-0.2278 1.0779 0.3655
-0.3231 1.0534 0.3655
-0.4158 1.0204 0.3655
-0.5053 0.9793 0.3656
-0.5907 0.9303 0.3656
-0.6714 0.8740 0.3656
-0.7468 0.8107 0.3656
-0.8162 0.7409 0.3657
-0.8792 0.6652 0.3657
-0.9351 0.5841 0.3658
-0.9836 0.4984 0.3658
-1.0243 0.4087 0.3659
-1.0569 0.3157 0.3659
-1.0810 0.2202 0.3660
-5.5707 0.6242 1.8596
-5.6041 0.1246 1.8596
-5.5929 -0.3760 1.8596
-5.5370 -0.8736 1.8596
-1.0707 -0.2687 0.3662
-1.0426 -0.3632 0.3663
-1.0062 -0.4548 0.3663
-0.9617 -0.5429 0.3664
-0.9095 -0.6266 0.3664
-0.8501 -0.7053 0.3664
-0.7838 -0.7784 0.3665
-0.7113 -0.8453 0.3665
-0.6331 -0.9055 0.3665
-0.5498 -0.9585 0.3666
-0.4621 -1.0038 0.3666
-0.3707 -1.0410 0.3666
-0.2763 -1.0700 0.3666
-0.1797 -1.0904 0.3666
-0.0817 -1.1021 0.3666
0.0170 -1.1050 0.3666
0.1155 -1.0991 0.3666
0.2131 -1.0843 0.3666
0.3090 -1.0610 0.3666
0.4024 -1.0291 0.3666
0.4926 -0.9890 0.3665
0.5789 -0.9411 0.3665
0.6605 -0.8856 0.3665
0.7368 -0.8230 0.3665
0.8072 -0.7539 0.3664
0.8712 -0.6788 0.3664
0.9282 -0.5983 0.3663
0.9777 -0.5130 0.3663
1.0195 -0.4237 0.3662
1.0531 -0.3310 0.3662
1.0782 -0.2356 0.3661
1.0948 -0.1385 0.3661
5.1699 -0.1885 1.7162
5.1663 0.2736 1.7163
1.0919 0.1564 0.3659
1.0735 0.2532 0.3659
1.0465 0.3479 0.3658
1.0111 0.4398 0.3658
0.9677 0.5283 0.3658
0.9166 0.6124 0.3657
0.8582 0.6917 0.3657
0.7930 0.7655 0.3656
0.7215 0.8331 0.3656
0.6442 0.8941 0.3656
0.5618 0.9479 0.3655
0.4749 0.9942 0.3655
0.3843 1.0326 0.3655
0.2906 1.0627 0.3655
0.1946 1.0844 0.3655
0.0971 1.0974 0.3655
-0.0012 1.1017 0.3655
-0.0995 1.0972 0.3655
-0.1971 1.0840 0.3655
-0.2930 1.0621 0.3655
-0.3866 1.0318 0.3655
-0.4772 0.9932 0.3655
-0.5640 0.9467 0.3656
-0.6462 0.8927 0.3656
-0.7234 0.8316 0.3656
-0.7948 0.7638 0.3657
-0.8599 0.6899 0.3657
-0.9181 0.6105 0.3658
-0.9690 0.5262 0.3658
-1.0122 0.4377 0.3658
-1.0474 0.3456 0.3659
-1.0742 0.2508 0.3659
-5.5506 0.7823 1.8596
-5.5983 0.2839 1.8596
-5.6013 -0.2168 1.8596
-5.5596 -0.7158 1.8596
-1.0779 -0.2381 0.3662
-1.0525 -0.3334 0.3662
-1.0187 -0.4260 0.3663
-0.9767 -0.5153 0.3663
-0.9269 -0.6004 0.3664
-0.8698 -0.6808 0.3664
-0.8056 -0.7558 0.3665
-0.7350 -0.8248 0.3665
-0.6585 -0.8871 0.3665
-0.5768 -0.9424 0.3666
-0.4904 -0.9902 0.3666
-0.4001 -1.0301 0.3666
-0.3066 -1.0617 0.3666
-0.2107 -1.0849 0.3666
-0.1130 -1.0993 0.3666
-0.0145 -1.1050 0.3666
0.0842 -1.1019 0.3666
0.1822 -1.0900 0.3666
0.2787 -1.0693 0.3666
0.3730 -1.0402 0.3666
0.4643 -1.0027 0.3666
0.5519 -0.9572 0.3665
0.6350 -0.9040 0.3665
0.7131 -0.8437 0.3665
0.7855 -0.7766 0.3664
0.8515 -0.7033 0.3664
0.9108 -0.6245 0.3663
0.9628 -0.5406 0.3663
1.0070 -0.4525 0.3663
1.0433 -0.3608 0.3662
1.0712 -0.2662 0.3662
1.0905 -0.1696 0.3661
4.8549 -0.3155 1.6140
5.1726 0.1265 1.7165
1.0960 0.1253 0.3660
1.0803 0.2226 0.3659
1.0560 0.3180 0.3659
1.0233 0.4109 0.3658
0.9824 0.5005 0.3658
0.9337 0.5861 0.3657
0.8776 0.6670 0.3657
0.8145 0.7426 0.3656
0.7449 0.8123 0.3656
0.6694 0.8754 0.3656
0.5885 0.9316 0.3656
0.5030 0.9803 0.3655
0.4135 1.0212 0.3655
0.3207 1.0540 0.3655
0.2254 1.0784 0.3655
0.1283 1.0942 0.3655
0.0301 1.1013 0.3655
-0.0683 1.0996 0.3655
-0.1661 1.0891 0.3655
-0.2627 1.0700 0.3655
-0.3571 1.0423 0.3655
-0.4487 1.0064 0.3655
-0.5368 0.9624 0.3656
-0.6206 0.9107 0.3656
-0.6994 0.8518 0.3656
-0.7727 0.7860 0.3657
-0.8399 0.7140 0.3657
-0.9003 0.6363 0.3657
-0.9536 0.5535 0.3658
-0.9994 0.4662 0.3658
-1.0371 0.3753 0.3659
-1.0666 0.2813 0.3659
-5.5262 0.9399 1.8596
-5.5880 0.4430 1.8596
-5.6052 -0.0574 1.8596
-5.5777 -0.5573 1.8596
-1.0842 -0.2073 0.3662
-1.0615 -0.3033 0.3662
-1.0303 -0.3968 0.3663
-0.9909 -0.4873 0.3663
-0.9436 -0.5738 0.3664
-0.8887 -0.6558 0.3664
-0.8268 -0.7326 0.3664
-0.7582 -0.8035 0.3665
-0.6835 -0.8680 0.3665
-0.6034 -0.9256 0.3665
-0.5184 -0.9758 0.3666
-0.4293 -1.0182 0.3666
-0.3367 -1.0525 0.3666
-0.2414 -1.0784 0.3666
-0.1443 -1.0957 0.3666
-0.0459 -1.1042 0.3666
0.0528 -1.1039 0.3666
0.1511 -1.0947 0.3666
0.2482 -1.0768 0.3666
0.3433 -1.0504 0.3666
0.4356 -1.0155 0.3666
0.5244 -0.9725 0.3665
0.6091 -0.9217 0.3665
0.6888 -0.8636 0.3665
0.7631 -0.7986 0.3664
0.8312 -0.7273 0.3664
0.8927 -0.6501 0.3664
0.9470 -0.5678 0.3663
0.9938 -0.4810 0.3663
1.0326 -0.3903 0.3662
1.0632 -0.2966 0.3662
1.0853 -0.2005 0.3661
4.8100 -0.4503 1.6027
5.1740 -0.0206 1.7165
5.1534 0.4410 1.7159
1.0862 0.1917 0.3659
1.0646 0.2879 0.3659
1.0346 0.3817 0.3658
0.9963 0.4724 0.3658
0.9500 0.5594 0.3657
0.8962 0.6418 0.3657
0.8353 0.7192 0.3657
0.7677 0.7908 0.3656
0.6940 0.8560 0.3656
0.6148 0.9145 0.3656
0.5307 0.9656 0.3655
0.4424 1.0091 0.3655
0.3506 1.0445 0.3655
0.2560 1.0716 0.3655
0.1593 1.0901 0.3655
0.0614 1.1000 0.3655
-0.0370 1.1011 0.3655
-0.1351 1.0934 0.3655
-0.2321 1.0770 0.3655
-0.3273 1.0520 0.3655
-0.4199 1.0187 0.3655
-0.5092 0.9772 0.3656
-0.5944 0.9280 0.3656
-0.6749 0.8713 0.3656
-0.7500 0.8077 0.3657
-0.8192 0.7376 0.3657
-0.8818 0.6616 0.3657
-0.9375 0.5804 0.3658
-0.9856 0.4945 0.3658
-1.0260 0.4046 0.3659
-1.0581 0.3115 0.3659
-1.0818 0.2158 0.3660
-5.5731 0.6018 1.8596
-5.6046 0.1020 1.8596
-5.5913 -0.3985 1.8596
-5.5335 -0.8958 1.8596
-1.0696 -0.2730 0.3662
-1.0412 -0.3674 0.3663
-1.0043 -0.4589 0.3663
-0.9595 -0.5467 0.3664
-0.9070 -0.6302 0.3664
-0.8472 -0.7087 0.3664
-0.7807 -0.7816 0.3665
-0.7079 -0.8482 0.3665
-0.6294 -0.9081 0.3665
-0.5459 -0.9607 0.3666
-0.4580 -1.0056 0.3666
-0.3665 -1.0425 0.3666
-0.2720 -1.0711 0.3666
-0.1754 -1.0911 0.3666
-0.0773 -1.1024 0.3666
0.0214 -1.1049 0.3666
0.1199 -1.0986 0.3666
0.2174 -1.0835 0.3666
0.3133 -1.0597 0.3666
0.4065 -1.0275 0.3666
0.4966 -0.9870 0.3665
0.5826 -0.9387 0.3665
0.6640 -0.8829 0.3665
0.7401 -0.8201 0.3665
0.8102 -0.7507 0.3664
0.8739 -0.6753 0.3664
0.9305 -0.5946 0.3663
0.9798 -0.5091 0.3663
1.0212 -0.4196 0.3662
1.0544 -0.3267 0.3662
1.0792 -0.2313 0.3661
1.0954 -0.1341 0.3661
5.1707 -0.1678 1.7163
5.1651 0.2943 1.7163
1.0913 0.1608 0.3659
1.0724 0.2575 0.3659
1.0451 0.3521 0.3658
1.0093 0.4439 0.3658
0.9656 0.5321 0.3657
0.9141 0.6161 0.3657
0.8554 0.6951 0.3657
0.7899 0.7686 0.3656
0.7181 0.8360 0.3656
0.6406 0.8966 0.3656
0.5580 0.9502 0.3655
0.4709 0.9961 0.3655
0.3802 1.0341 0.3655
0.8856 0.6182 0.3657
0.8268 0.6947 0.3657
0.7615 0.7657 0.3656
0.6901 0.8305 0.3656
0.6131 0.8887 0.3656
0.5314 0.9398 0.3655
0.4454 0.9834 0.3655
0.3558 1.0192 0.3655
0.2634 1.0468 0.3655
0.1690 1.0661 0.3655
0.0732 1.0769 0.3655
-0.0232 1.0792 0.3655
-0.1194 1.0728 0.3655
-0.2147 1.0579 0.3655
-0.3083 1.0346 0.3655
-0.3994 1.0030 0.3655
-0.4873 0.9634 0.3656
-0.5714 0.9162 0.3656
-0.6509 0.8616 0.3656
-0.7253 0.8001 0.3657
-0.7938 0.7323 0.3657
-0.8561 0.6586 0.3657
-0.9116 0.5797 0.3658
-0.9598 0.4961 0.3658
-1.0003 0.4085 0.3659
-1.0329 0.3176 0.3659
-1.0573 0.2242 0.3660
-1.0732 0.1290 0.3660
-1.0806 0.0327 0.3661
-1.0794 -0.0639 0.3661
-1.0695 -0.1599 0.3662
-1.0511 -0.2548 0.3662
-1.0243 -0.3476 0.3663
-0.9893 -0.4377 0.3663
-0.9464 -0.5243 0.3663
-0.8960 -0.6067 0.3664
-0.8384 -0.6843 0.3664
-0.7740 -0.7565 0.3665
-0.7035 -0.8226 0.3665
-0.6273 -0.8822 0.3665
-0.5462 -0.9347 0.3665
-0.4606 -0.9797 0.3666
-0.3714 -1.0170 0.3666
-0.2791 -1.0461 0.3666
-0.1847 -1.0669 0.3666
-0.0887 -1.0791 0.3666
0.0079 -1.0827 0.3666
0.1045 -1.0777 0.3666
0.2002 -1.0640 0.3666
0.2944 -1.0419 0.3666
0.3861 -1.0114 0.3666
0.4748 -0.9728 0.3665
0.5597 -0.9265 0.3665
0.6401 -0.8728 0.3665
0.7154 -0.8121 0.3665
0.7849 -0.7450 0.3664
0.8482 -0.6719 0.3664
0.9046 -0.5935 0.3663
0.9539 -0.5103 0.3663
0.9955 -0.4231 0.3662
1.0291 -0.3325 0.3662
1.0545 -0.2394 0.3661
1.0716 -0.1443 0.3661
1.0800 -0.0481 0.3660
1.0798 0.0485 0.3660
1.0711 0.1446 0.3659
1.0537 0.2396 0.3659
1.0280 0.3326 0.3659
0.9941 0.4230 0.3658
0.9523 0.5099 0.3658
0.9029 0.5928 0.3657
0.8463 0.6709 0.3657
0.7830 0.7437 0.3656
0.7134 0.8105 0.3656
0.6382 0.8709 0.3656
0.5579 0.9243 0.3656
0.4732 0.9704 0.3655
0.3847 1.0087 0.3655
0.2931 1.0389 0.3655
0.1992 1.0609 0.3655
0.1038 1.0744 0.3655
0.0075 1.0794 0.3655
-0.0889 1.0758 0.3655
-0.1845 1.0636 0.3655
-0.2787 1.0429 0.3655
-0.3707 1.0139 0.3655
-0.4597 0.9769 0.3656
-0.5451 0.9320 0.3656
-0.6261 0.8797 0.3656
-0.7022 0.8204 0.3656
-0.7727 0.7546 0.3657
-0.8370 0.6827 0.3657
-0.8947 0.6053 0.3658
-0.9452 0.5231 0.3658
-0.9883 0.4368 0.3658
-1.0234 0.3469 0.3659
-1.0505 0.2542 0.3659
-1.0691 0.1595 0.3660
-1.0792 0.0634 0.3660
-1.0807 -0.0331 0.3661
-1.0736 -0.1294 0.3661
-1.0579 -0.2248 0.3662
-1.0337 -0.3183 0.3662
-1.0013 -0.4093 0.3663
-0.9609 -0.4971 0.3663
-0.9129 -0.5810 0.3664
-0.8575 -0.6602 0.3664
-0.7952 -0.7341 0.3664
-0.7266 -0.8022 0.3665
-0.6522 -0.8639 0.3665
-0.5725 -0.9187 0.3665
-0.4883 -0.9662 0.3666
-0.4001 -1.0060 0.3666
-0.3088 -1.0377 0.3666
-0.2149 -1.0612 0.3666
-0.1194 -1.0761 0.3666
-0.0229 -1.0825 0.3666
0.0738 -1.0802 0.3666
0.1699 -1.0693 0.3666
0.2646 -1.0498 0.3666
0.3572 -1.0220 0.3666
0.4470 -0.9860 0.3665
0.5331 -0.9421 0.3665
0.6150 -0.8907 0.3665
0.6920 -0.8322 0.3665
0.7634 -0.7670 0.3664
0.8287 -0.6958 0.3664
0.8874 -0.6190 0.3663
0.9390 -0.5373 0.3663
0.9831 -0.4513 0.3663
1.0193 -0.3617 0.3662
1.0474 -0.2693 0.3662
1.0671 -0.1747 0.3661
1.0782 -0.0788 0.3661
1.0808 0.0178 0.3660
1.0748 0.1141 0.3660
1.0602 0.2095 0.3659
1.0371 0.3033 0.3659
1.0058 0.3946 0.3658
0.9664 0.4827 0.3658
0.9194 0.5669 0.3657
0.8651 0.6466 0.3657
0.8038 0.7212 0.3657
0.7362 0.7899 0.3656
0.6627 0.8524 0.3656
0.5840 0.9081 0.3656
0.5006 0.9565 0.3655
0.4132 0.9973 0.3655
0.3225 1.0302 0.3655
0.2293 1.0548 0.3655
0.1343 1.0710 0.3655
0.0382 1.0788 0.3655
-0.0582 1.0779 0.3655
-0.1542 1.0684 0.3655
-0.2489 1.0504 0.3655
-0.3417 1.0240 0.3655
-0.4317 0.9895 0.3655
-0.5183 0.9471 0.3656
-0.6008 0.8971 0.3656
-0.6785 0.8400 0.3656
-0.7509 0.7762 0.3657
-0.8172 0.7062 0.3657
-0.8771 0.6305 0.3657
-0.9300 0.5498 0.3658
-0.9754 0.4647 0.3658
-1.0131 0.3758 0.3659
-1.0428 0.2840 0.3659
-1.0641 0.1898 0.3660
-1.0769 0.0941 0.3660
-1.0812 -0.0024 0.3661
-1.0768 -0.0989 0.3661
-1.0638 -0.1946 0.3662
-1.0423 -0.2888 0.3662
-1.0125 -0.3807 0.3663
-0.9747 -0.4696 0.3663
-0.9290 -0.5547 0.3664
-0.8759 -0.6355 0.3664
-0.8157 -0.7112 0.3664
-0.7491 -0.7812 0.3665
-0.6765 -0.8450 0.3665
-0.5984 -0.9021 0.3665
-0.5155 -0.9519 0.3666
-0.4286 -0.9942 0.3666
-0.3382 -1.0285 0.3666
-0.2450 -1.0546 0.3666
-0.1500 -1.0723 0.3666
-0.0537 -1.0814 0.3666
0.0430 -1.0819 0.3666
0.1394 -1.0737 0.3666
0.2347 -1.0569 0.3666
0.3280 -1.0317 0.3666
0.4188 -0.9983 0.3666
0.5061 -0.9569 0.3665
0.5895 -0.9078 0.3665
0.6681 -0.8515 0.3665
0.7413 -0.7885 0.3664
0.8086 -0.7191 0.3664
0.8695 -0.6440 0.3664
0.9234 -0.5638 0.3663
0.9699 -0.4791 0.3663
1.0086 -0.3906 0.3662
1.0393 -0.2990 0.3662
1.0617 -0.2050 0.3661
1.0756 -0.1094 0.3661
1.0809 -0.0130 0.3660
1.0776 0.0835 0.3660
1.0657 0.1793 0.3659
1.0454 0.2737 0.3659
1.0166 0.3658 0.3658
0.9798 0.4550 0.3658
0.9352 0.5406 0.3657
0.8831 0.6218 0.3657
0.8240 0.6980 0.3657
0.7584 0.7687 0.3656
0.6867 0.8332 0.3656
0.6096 0.8911 0.3656
0.5276 0.9419 0.3655
0.4414 0.9852 0.3655
0.3517 1.0206 0.3655
0.2592 1.0479 0.3655
0.1647 1.0668 0.3655
0.0688 1.0772 0.3655
-0.0276 1.0791 0.3655
-0.1238 1.0723 0.3655
-0.2190 1.0570 0.3655
-0.3124 1.0333 0.3655
-0.4034 1.0014 0.3655
-0.4912 0.9614 0.3656
-0.5751 0.9139 0.3656
-0.6544 0.8590 0.3656
-0.7285 0.7972 0.3657
-0.7968 0.7291 0.3657
-0.8588 0.6552 0.3657
-0.9139 0.5760 0.3658
-0.9618 0.4922 0.3658
-1.0020 0.4045 0.3659
-1.0342 0.3135 0.3659
-1.0582 0.2200 0.3660
-1.0738 0.1247 0.3660
-1.0807 0.0284 0.3661
-1.0791 -0.0682 0.3661
-1.0689 -0.1642 0.3662
-1.0501 -0.2590 0.3662
-1.0229 -0.3517 0.3663
-0.9876 -0.4416 0.3663
-0.9443 -0.5281 0.3663
-0.8936 -0.6103 0.3664
-0.8356 -0.6877 0.3664
-0.7710 -0.7596 0.3665
-0.7002 -0.8254 0.3665
-0.6238 -0.8847 0.3665
-0.5424 -0.9369 0.3665
-0.4567 -0.9816 0.3666
-0.3673 -1.0185 0.3666
-0.2749 -1.0472 0.3666
-0.1804 -1.0676 0.3666
-0.0844 -1.0794 0.3666
0.0123 -1.0827 0.3666
0.1088 -1.0772 0.3666
0.2045 -1.0632 0.3666
0.2986 -1.0407 0.3666
0.3902 -1.0098 0.3666
0.4787 -0.9709 0.3665
0.5634 -0.9243 0.3665
0.6436 -0.8702 0.3665
0.7186 -0.8092 0.3664
0.7879 -0.7418 0.3664
0.8508 -0.6685 0.3664
0.9070 -0.5898 0.3663
0.9559 -0.5065 0.3663
0.9972 -0.4191 0.3662
1.0304 -0.3284 0.3662
1.0555 -0.2351 0.3661
1.0721 -0.1400 0.3661
1.0802 -0.0437 0.3660
1.0796 0.0528 0.3660
1.0705 0.1489 0.3659
1.0528 0.2438 0.3659
1.0267 0.3368 0.3658
0.9924 0.4270 0.3658
0.9502 0.5138 0.3658
0.9005 0.5964 0.3657
0.8436 0.6743 0.3657
0.7800 0.7469 0.3656
0.7101 0.8134 0.3656
0.6347 0.8735 0.3656
0.5542 0.9265 0.3656
0.4692 0.9722 0.3655
0.3806 1.0102 0.3655
0.2889 1.0401 0.3655
0.1950 1.0617 0.3655
0.0994 1.0748 0.3655
0.0031 1.0794 0.3655
-0.0932 1.0754 0.3655
-0.1888 1.0628 0.3655
-0.2829 1.0418 0.3655
-0.3748 1.0124 0.3655
-0.4636 0.9750 0.3656
-0.5488 0.9298 0.3656
-0.6297 0.8772 0.3656
-0.7055 0.8176 0.3656
-0.7757 0.7514 0.3657
-0.8398 0.6793 0.3657
-0.8971 0.6017 0.3658
-0.9473 0.5193 0.3658
-0.9900 0.4328 0.3659
-1.0248 0.3428 0.3659
-1.0515 0.2500 0.3659
-1.0697 0.1552 0.3660
-1.0795 0.0591 0.3660
-1.0806 -0.0375 0.3661
-1.0731 -0.1338 0.3661
-1.0570 -0.2290 0.3662
-1.0325 -0.3225 0.3662
-0.9997 -0.4134 0.3663
