ply
format ascii 1.0
element vertex 2176
property float32 x
property float32 y
property float32 z
end_header
0.8366 0.2526 0.3699
0.8133 0.3273 0.3711
0.7832 0.3997 0.3722
0.7465 0.4693 0.3732
0.7036 0.5355 0.3742
0.6546 0.5977 0.3752
0.6001 0.6552 0.3761
0.5404 0.7077 0.3769
0.4759 0.7545 0.3776
0.4074 0.7952 0.3782
0.3353 0.8295 0.3787
0.2602 0.8571 0.3791
0.1828 0.8776 0.3794
0.1038 0.8908 0.3796
0.0239 0.8967 0.3797
-0.0562 0.8952 0.3796
-0.1358 0.8862 0.3795
-0.2141 0.8700 0.3792
-0.2906 0.8466 0.3788
-0.3646 0.8162 0.3784
-0.4353 0.7792 0.3778
-0.5022 0.7360 0.3771
-0.5647 0.6868 0.3763
-0.6223 0.6323 0.3755
-0.6746 0.5728 0.3746
-0.7211 0.5090 0.3736
-0.7615 0.4414 0.3725
-0.7955 0.3706 0.3714
-0.8228 0.2972 0.3703
-0.8434 0.2219 0.3691
-0.8571 0.1453 0.3680
-0.8638 0.0680 0.3668
-0.8637 -0.0093 0.3656
-0.8566 -0.0861 0.3644
-0.8428 -0.1617 0.3632
-0.8225 -0.2355 0.3621
-0.7957 -0.3070 0.3610
-0.7629 -0.3757 0.3600
-0.7244 -0.4410 0.3590
-0.6803 -0.5026 0.3580
-0.6312 -0.5599 0.3571
-0.5775 -0.6126 0.3563
-0.5194 -0.6604 0.3556
-0.4576 -0.7028 0.3550
-0.3925 -0.7397 0.3544
-0.3245 -0.7707 0.3540
-0.2541 -0.7958 0.3536
-0.1820 -0.8146 0.3533
-0.1085 -0.8272 0.3531
-0.0342 -0.8334 0.3530
0.0403 -0.8332 0.3531
0.1145 -0.8265 0.3532
0.1879 -0.8135 0.3534
0.2600 -0.7942 0.3537
0.3302 -0.7687 0.3541
0.3980 -0.7372 0.3546
0.4630 -0.6999 0.3552
0.5245 -0.6570 0.3559
0.5823 -0.6089 0.3566
0.6358 -0.5558 0.3574
0.6846 -0.4981 0.3583
0.7282 -0.4362 0.3593
0.7664 -0.3705 0.3603
0.7988 -0.3015 0.3614
0.8250 -0.2298 0.3625
0.8449 -0.1557 0.3636
0.8581 -0.0800 0.3648
0.8647 -0.0031 0.3660
0.8643 0.0743 0.3672
0.8570 0.1516 0.3684
0.8427 0.2282 0.3695
0.8215 0.3035 0.3707
0.7936 0.3767 0.3718
0.7590 0.4473 0.3729
0.7180 0.5146 0.3739
0.6710 0.5782 0.3749
0.6182 0.6373 0.3758
0.5601 0.6914 0.3766
0.4971 0.7400 0.3773
0.4299 0.7828 0.3780
0.3588 0.8192 0.3785
0.2846 0.8490 0.3790
0.2079 0.8717 0.3793
0.1294 0.8873 0.3796
0.0497 0.8956 0.3797
-0.0304 0.8965 0.3797
-0.1103 0.8899 0.3795
-0.1891 0.8760 0.3793
-0.2663 0.8549 0.3790
-0.3411 0.8267 0.3785
-0.4129 0.7918 0.3780
-0.4811 0.7505 0.3773
-0.5451 0.7032 0.3766
-0.6043 0.6504 0.3758
-0.6584 0.5924 0.3749
-0.7068 0.5299 0.3739
-0.7492 0.4635 0.3729
-0.7852 0.3936 0.3718
-0.8148 0.3210 0.3707
-0.8376 0.2463 0.3695
-0.8535 0.1700 0.3683
-0.8624 0.0929 0.3671
-0.8645 0.0155 0.3660
-0.8596 -0.0615 0.3648
-0.8480 -0.1375 0.3636
-0.8297 -0.2120 0.3625
-0.8050 -0.2843 0.3614
-0.7741 -0.3539 0.3603
-0.7374 -0.4204 0.3593
-0.6951 -0.4832 0.3583
-0.6476 -0.5420 0.3574
-0.5952 -0.5962 0.3566
-0.5385 -0.6456 0.3558
-0.4779 -0.6898 0.3552
-0.4137 -0.7284 0.3546
-0.3466 -0.7614 0.3541
-0.2770 -0.7884 0.3537
-0.2053 -0.8092 0.3534
-0.1322 -0.8238 0.3532
-0.0582 -0.8321 0.3531
0.0163 -0.8339 0.3530
0.0907 -0.8293 0.3531
0.1644 -0.8184 0.3533
0.2370 -0.8011 0.3536
0.3078 -0.7775 0.3540
0.3765 -0.7480 0.3544
0.4424 -0.7125 0.3550
0.5051 -0.6714 0.3556
0.5642 -0.6249 0.3564
0.6191 -0.5734 0.3572
0.6694 -0.5171 0.3580
0.7148 -0.4565 0.3590
0.7547 -0.3920 0.3600
0.7890 -0.3240 0.3610
0.8172 -0.2531 0.3621
0.8392 -0.1797 0.3633
0.8546 -0.1045 0.3644
0.8633 -0.0279 0.3656
0.8652 0.0494 0.3668
0.8601 0.1268 0.3680
0.8480 0.2037 0.3692
0.8291 0.2794 0.3703
0.8033 0.3534 0.3715
0.7708 0.4249 0.3725
0.7319 0.4934 0.3736
0.6868 0.5582 0.3746
0.6358 0.6188 0.3755
0.5793 0.6745 0.3764
0.5179 0.7250 0.3771
0.4519 0.7697 0.3778
0.3820 0.8082 0.3784
0.3088 0.8401 0.3789
0.2328 0.8652 0.3792
0.1548 0.8831 0.3795
0.0754 0.8938 0.3796
-0.0047 0.8970 0.3797
-0.0847 0.8928 0.3796
-0.1639 0.8813 0.3794
-0.2417 0.8624 0.3791
-0.3173 0.8365 0.3787
-0.3902 0.8038 0.3782
-0.4596 0.7645 0.3776
-0.5250 0.7191 0.3768
-0.5858 0.6679 0.3760
-0.6416 0.6116 0.3752
-0.6918 0.5505 0.3742
-0.7362 0.4853 0.3732
-0.7743 0.4164 0.3721
-0.8060 0.3446 0.3710
-0.8310 0.2705 0.3699
-0.8491 0.1947 0.3687
-0.8603 0.1177 0.3675
-0.8646 0.0404 0.3663
-0.8619 -0.0368 0.3652
-0.8524 -0.1132 0.3640
-0.8363 -0.1882 0.3628
-0.8136 -0.2613 0.3617
-0.7847 -0.3318 0.3606
-0.7498 -0.3994 0.3596
-0.7093 -0.4634 0.3586
-0.6634 -0.5235 0.3577
-0.6126 -0.5793 0.3568
-0.5572 -0.6303 0.3561
-0.4978 -0.6761 0.3554
-0.4347 -0.7166 0.3548
-0.3685 -0.7514 0.3542
-0.2996 -0.7804 0.3538
-0.2286 -0.8032 0.3535
-0.1559 -0.8198 0.3532
-0.0821 -0.8301 0.3531
-0.0077 -0.8340 0.3530
0.0668 -0.8315 0.3531
0.1408 -0.8226 0.3532
0.2138 -0.8073 0.3535
0.2852 -0.7858 0.3538
0.3547 -0.7581 0.3543
0.4215 -0.7245 0.3548
0.4853 -0.6852 0.3554
0.5456 -0.6404 0.3561
0.6019 -0.5905 0.3569
0.6537 -0.5357 0.3577
0.7007 -0.4765 0.3587
0.7425 -0.4132 0.3596
0.7786 -0.3463 0.3607
0.8088 -0.2762 0.3618
0.8328 -0.2036 0.3629
0.8504 -0.1289 0.3640
0.8612 -0.0526 0.3652
0.8653 0.0245 0.3664
0.8625 0.1020 0.3676
0.8527 0.1791 0.3688
0.8359 0.2553 0.3699
0.8123 0.3298 0.3711
0.7820 0.4022 0.3722
0.7451 0.4717 0.3733
0.7019 0.5378 0.3743
0.6528 0.5998 0.3752
0.5981 0.6572 0.3761
0.5382 0.7094 0.3769
0.4736 0.7560 0.3776
0.4049 0.7965 0.3782
0.3327 0.8306 0.3787
0.2575 0.8579 0.3791
0.1801 0.8781 0.3794
0.1010 0.8911 0.3796
0.0211 0.8968 0.3797
-0.0590 0.8950 0.3796
-0.1385 0.8858 0.3795
-0.2169 0.8693 0.3792
-0.2933 0.8456 0.3788
-0.3671 0.8150 0.3783
-0.4377 0.7778 0.3778
-0.5044 0.7343 0.3771
-0.5668 0.6850 0.3763
-0.6242 0.6302 0.3755
-0.6763 0.5706 0.3745
-0.7226 0.5067 0.3735
-0.7628 0.4389 0.3725
-0.7965 0.3680 0.3714
-0.8237 0.2946 0.3703
-0.8440 0.2192 0.3691
-0.8575 0.1426 0.3679
-0.8640 0.0653 0.3667
-0.8635 -0.0120 0.3655
-0.8562 -0.0888 0.3644
-0.8422 -0.1643 0.3632
-0.8216 -0.2380 0.3621
-0.7947 -0.3095 0.3610
-0.7617 -0.3780 0.3599
-0.7229 -0.4433 0.3589
-0.6787 -0.5047 0.3580
-0.6294 -0.5619 0.3571
-0.5755 -0.6144 0.3563
-0.5173 -0.6620 0.3556
-0.4554 -0.7042 0.3550
-0.3901 -0.7409 0.3544
-0.3220 -0.7717 0.3539
-0.2516 -0.7965 0.3536
-0.1794 -0.8152 0.3533
-0.1059 -0.8275 0.3531
-0.0316 -0.8335 0.3530
0.0429 -0.8330 0.3531
0.1171 -0.8262 0.3532
0.1905 -0.8129 0.3534
0.2625 -0.7934 0.3537
0.3326 -0.7677 0.3541
0.4003 -0.7360 0.3546
0.4652 -0.6985 0.3552
0.5266 -0.6554 0.3559
0.5843 -0.6071 0.3566
0.6376 -0.5538 0.3575
0.6862 -0.4960 0.3584
0.7297 -0.4339 0.3593
0.7676 -0.3681 0.3603
0.7998 -0.2991 0.3614
0.8258 -0.2272 0.3625
0.8454 -0.1531 0.3637
0.8585 -0.0773 0.3648
0.8648 -0.0004 0.3660
0.8641 0.0770 0.3672
0.8566 0.1543 0.3684
0.8421 0.2309 0.3696
0.8207 0.3061 0.3707
0.7925 0.3792 0.3718
0.7577 0.4497 0.3729
0.7165 0.5170 0.3740
0.6692 0.5803 0.3749
0.6162 0.6392 0.3758
0.5580 0.6932 0.3766
0.4948 0.7417 0.3774
0.4274 0.7842 0.3780
0.3562 0.8204 0.3786
0.2820 0.8499 0.3790
0.2052 0.8724 0.3793
0.1266 0.8878 0.3796
0.0469 0.8958 0.3797
-0.0332 0.8964 0.3797
-0.1131 0.8895 0.3795
-0.1919 0.8754 0.3793
-0.2690 0.8540 0.3790
-0.3437 0.8256 0.3785
-0.4154 0.7905 0.3780
-0.4834 0.7490 0.3773
-0.5472 0.7015 0.3766
-0.6063 0.6484 0.3757
-0.6602 0.5903 0.3748
-0.7084 0.5277 0.3739
-0.7505 0.4611 0.3728
-0.7864 0.3911 0.3718
-0.8157 0.3184 0.3706
-0.8382 0.2436 0.3695
-0.8539 0.1673 0.3683
-0.8626 0.0902 0.3671
-0.8644 0.0128 0.3659
-0.8593 -0.0642 0.3647
-0.8474 -0.1402 0.3636
-0.8289 -0.2145 0.3624
-0.8040 -0.2868 0.3613
-0.7729 -0.3563 0.3602
-0.7360 -0.4227 0.3592
-0.6935 -0.4854 0.3583
-0.6458 -0.5440 0.3574
-0.5933 -0.5980 0.3566
-0.5365 -0.6472 0.3558
-0.4757 -0.6912 0.3551
-0.4114 -0.7297 0.3546
-0.3442 -0.7624 0.3541
-0.2745 -0.7892 0.3537
-0.2028 -0.8099 0.3534
-0.1296 -0.8242 0.3532
-0.0556 -0.8323 0.3531
0.0189 -0.8339 0.3530
0.0933 -0.8291 0.3531
0.1670 -0.8179 0.3533
0.2395 -0.8003 0.3536
0.3103 -0.7766 0.3540
0.3788 -0.7468 0.3544
0.4447 -0.7112 0.3550
0.5073 -0.6699 0.3557
0.5662 -0.6232 0.3564
0.6209 -0.5715 0.3572
0.6711 -0.5151 0.3581
0.7163 -0.4543 0.3590
0.7560 -0.3897 0.3600
0.7901 -0.3216 0.3611
0.8181 -0.2506 0.3622
0.8398 -0.1771 0.3633
0.8550 -0.1018 0.3645
0.8635 -0.0252 0.3656
0.8651 0.0521 0.3668
0.8598 0.1295 0.3680
0.8475 0.2064 0.3692
0.8283 0.2821 0.3704
0.8023 0.3560 0.3715
0.7696 0.4274 0.3726
0.7304 0.4957 0.3736
0.6851 0.5604 0.3746
0.6339 0.6208 0.3755
0.5772 0.6764 0.3764
0.5156 0.7267 0.3771
0.4495 0.7712 0.3778
0.3795 0.8094 0.3784
0.3061 0.8411 0.3789
0.2301 0.8659 0.3792
0.1520 0.8836 0.3795
0.0726 0.8940 0.3796
-0.0075 0.8970 0.3797
-0.0875 0.8925 0.3796
-0.1667 0.8807 0.3794
-0.2444 0.8616 0.3791
-0.3200 0.8355 0.3787
-0.3927 0.8025 0.3782
-0.4620 0.7630 0.3775
-0.5272 0.7174 0.3768
-0.5879 0.6661 0.3760
-0.6434 0.6095 0.3751
-0.6935 0.5483 0.3742
-0.7377 0.4829 0.3732
-0.7756 0.4140 0.3721
-0.8070 0.3421 0.3710
-0.8317 0.2679 0.3698
-0.8496 0.1920 0.3687
-0.8606 0.1150 0.3675
-0.8646 0.0377 0.3663
-0.8617 -0.0395 0.3651
-0.8520 -0.1159 0.3639
-0.8356 -0.1908 0.3628
-0.8127 -0.2638 0.3617
-0.7836 -0.3343 0.3606
-0.7485 -0.4017 0.3596
-0.7077 -0.4656 0.3586
-0.6617 -0.5256 0.3577
-0.6107 -0.5811 0.3568
-0.5552 -0.6320 0.3560
-0.4956 -0.6777 0.3554
-0.4324 -0.7179 0.3547
-0.3661 -0.7526 0.3542
-0.2971 -0.7813 0.3538
-0.2260 -0.8039 0.3535
-0.1533 -0.8203 0.3532
-0.0794 -0.8304 0.3531
-0.0050 -0.8341 0.3530
0.0694 -0.8313 0.3531
0.1434 -0.8222 0.3532
0.2163 -0.8067 0.3535
0.2877 -0.7849 0.3538
0.3571 -0.7571 0.3543
0.4238 -0.7233 0.3548
0.4875 -0.6837 0.3554
0.5477 -0.6388 0.3561
0.6038 -0.5886 0.3569
0.6555 -0.5337 0.3578
0.7023 -0.4743 0.3587
0.7439 -0.4109 0.3597
0.7798 -0.3438 0.3607
0.8098 -0.2737 0.3618
0.8336 -0.2010 0.3629
0.8509 -0.1262 0.3641
0.8615 -0.0499 0.3653
0.8653 0.0272 0.3664
0.8622 0.1047 0.3676
0.8522 0.1818 0.3688
0.8352 0.2579 0.3700
0.8114 0.3324 0.3711
0.7808 0.4047 0.3722
0.7437 0.4741 0.3733
0.7003 0.5400 0.3743
0.6510 0.6019 0.3753
0.5960 0.6591 0.3761
0.5360 0.7111 0.3769
0.4712 0.7575 0.3776
0.4024 0.7978 0.3782
0.3301 0.8317 0.3787
0.2548 0.8587 0.3791
0.1773 0.8787 0.3794
0.0982 0.8915 0.3796
0.0183 0.8968 0.3797
-0.0618 0.8948 0.3796
-0.1413 0.8853 0.3795
-0.2196 0.8686 0.3792
-0.2959 0.8447 0.3788
-0.3696 0.8138 0.3783
-0.4401 0.7764 0.3777
-0.5067 0.7327 0.3771
-0.5689 0.6832 0.3763
-0.6262 0.6282 0.3754
-0.6780 0.5684 0.3745
-0.7241 0.5043 0.3735
-0.7641 0.4365 0.3725
-0.7976 0.3655 0.3714
-0.8245 0.2919 0.3702
-0.8446 0.2165 0.3691
-0.8578 0.1398 0.3679
-0.8641 0.0625 0.3667
-0.8634 -0.0148 0.3655
-0.8559 -0.0914 0.3643
-0.8416 -0.1669 0.3632
-0.8208 -0.2406 0.3620
-0.7936 -0.3119 0.3609
-0.7604 -0.3804 0.3599
-0.7214 -0.4455 0.3589
-0.6770 -0.5068 0.3580
-0.6276 -0.5638 0.3571
-0.5735 -0.6162 0.3563
-0.5152 -0.6635 0.3556
-0.4531 -0.7056 0.3549
-0.3878 -0.7421 0.3544
-0.3196 -0.7727 0.3539
-0.2491 -0.7973 0.3536
-0.1768 -0.8157 0.3533
-0.1033 -0.8278 0.3531
-0.0290 -0.8336 0.3530
0.0455 -0.8329 0.3531
0.1197 -0.8258 0.3532
0.1930 -0.8123 0.3534
0.2650 -0.7926 0.3537
0.3350 -0.7667 0.3541
0.4027 -0.7348 0.3546
0.4674 -0.6971 0.3552
0.5287 -0.6538 0.3559
0.5862 -0.6053 0.3567
0.6394 -0.5519 0.3575
0.6878 -0.4939 0.3584
0.7311 -0.4317 0.3594
0.7689 -0.3658 0.3604
0.8008 -0.2966 0.3614
0.8266 -0.2246 0.3626
0.8460 -0.1504 0.3637
0.8588 -0.0746 0.3649
0.8649 0.0024 0.3661
0.8640 0.0798 0.3673
0.8562 0.1571 0.3684
0.8414 0.2336 0.3696
0.8198 0.3087 0.3708
0.7914 0.3817 0.3719
0.7563 0.4521 0.3730
0.7149 0.5192 0.3740
0.6675 0.5825 0.3750
0.6143 0.6412 0.3758
0.5558 0.6950 0.3767
0.4925 0.7433 0.3774
0.4250 0.7856 0.3780
0.3537 0.8215 0.3786
0.2793 0.8508 0.3790
0.2024 0.8731 0.3793
0.1238 0.8882 0.3796
0.0441 0.8959 0.3797
-0.0361 0.8963 0.3797
-0.1159 0.8892 0.3795
-0.1946 0.8747 0.3793
-0.2716 0.8531 0.3790
-0.3463 0.8245 0.3785
-0.4178 0.7891 0.3779
-0.4857 0.7474 0.3773
-0.5494 0.6997 0.3765
-0.6083 0.6465 0.3757
-0.6620 0.5882 0.3748
-0.7100 0.5254 0.3738
-0.7519 0.4587 0.3728
-0.7875 0.3886 0.3717
-0.8166 0.3158 0.3706
-0.8389 0.2410 0.3694
-0.8543 0.1646 0.3683
-0.8628 0.0874 0.3671
-0.8644 0.0101 0.3659
-0.8590 -0.0669 0.3647
-0.8469 -0.1428 0.3635
-0.8282 -0.2171 0.3624
-0.8030 -0.2893 0.3613
-0.7717 -0.3587 0.3602
-0.7346 -0.4249 0.3592
-0.6919 -0.4875 0.3582
-0.6440 -0.5459 0.3574
-0.5914 -0.5998 0.3565
-0.5344 -0.6489 0.3558
-0.4735 -0.6927 0.3551
-0.4091 -0.7310 0.3545
-0.3418 -0.7635 0.3541
-0.2720 -0.7901 0.3537
-0.2002 -0.8105 0.3534
-0.1270 -0.8246 0.3532
-0.0529 -0.8324 0.3531
0.0216 -0.8338 0.3530
0.0959 -0.8288 0.3531
0.1696 -0.8174 0.3533
0.2420 -0.7996 0.3536
0.3127 -0.7757 0.3540
0.3812 -0.7457 0.3545
0.4469 -0.7098 0.3550
0.5094 -0.6683 0.3557
0.5682 -0.6215 0.3564
0.6228 -0.5696 0.3572
0.6728 -0.5130 0.3581
0.7177 -0.4521 0.3590
0.7573 -0.3873 0.3600
0.7912 -0.3191 0.3611
0.8190 -0.2480 0.3622
0.8405 -0.1745 0.3633
0.8554 -0.0991 0.3645
0.8637 -0.0225 0.3657
0.8650 0.0549 0.3669
0.8595 0.1323 0.3681
0.8469 0.2091 0.3692
0.8275 0.2847 0.3704
0.8012 0.3585 0.3715
0.7683 0.4298 0.3726
0.7289 0.4981 0.3737
0.2070 0.8558 0.3791
0.1298 0.8714 0.3793
0.0516 0.8797 0.3794
-0.0271 0.8808 0.3794
-0.1056 0.8747 0.3793
-0.1831 0.8612 0.3791
-0.2590 0.8407 0.3788
-0.3326 0.8133 0.3783
-0.4033 0.7793 0.3778
-0.4704 0.7390 0.3772
-0.5335 0.6927 0.3764
-0.5919 0.6410 0.3756
-0.6452 0.5842 0.3747
-0.6930 0.5230 0.3738
-0.7349 0.4579 0.3728
-0.7706 0.3893 0.3717
-0.7999 0.3181 0.3706
-0.8226 0.2447 0.3695
-0.8385 0.1698 0.3683
-0.8476 0.0940 0.3672
-0.8499 0.0179 0.3660
-0.8454 -0.0578 0.3648
-0.8342 -0.1326 0.3637
-0.8165 -0.2059 0.3626
-0.7925 -0.2771 0.3615
-0.7624 -0.3457 0.3604
-0.7265 -0.4112 0.3594
-0.6851 -0.4731 0.3585
-0.6386 -0.5310 0.3576
-0.5873 -0.5846 0.3568
-0.5317 -0.6333 0.3560
-0.4722 -0.6770 0.3554
-0.4092 -0.7153 0.3548
-0.3433 -0.7479 0.3543
-0.2749 -0.7747 0.3539
-0.2045 -0.7954 0.3536
-0.1326 -0.8100 0.3534
-0.0598 -0.8183 0.3533
0.0135 -0.8204 0.3532
0.0866 -0.8161 0.3533
0.1592 -0.8055 0.3535
0.2306 -0.7887 0.3538
0.3004 -0.7657 0.3541
0.3680 -0.7368 0.3546
0.4329 -0.7021 0.3551
0.4947 -0.6619 0.3558
0.5529 -0.6163 0.3565
0.6070 -0.5658 0.3573
0.6567 -0.5106 0.3581
0.7014 -0.4511 0.3591
0.7409 -0.3878 0.3600
0.7747 -0.3210 0.3611
0.8027 -0.2514 0.3621
0.8244 -0.1793 0.3633
0.8398 -0.1053 0.3644
0.8485 -0.0301 0.3656
0.8505 0.0459 0.3667
0.8457 0.1220 0.3679
0.8341 0.1976 0.3691
0.8157 0.2721 0.3702
0.7905 0.3448 0.3713
0.7588 0.4152 0.3724
0.7207 0.4825 0.3734
0.6765 0.5464 0.3744
0.6266 0.6060 0.3753
0.5713 0.6610 0.3761
0.5111 0.7107 0.3769
0.4464 0.7548 0.3776
0.3778 0.7929 0.3781
0.3060 0.8244 0.3786
0.2314 0.8493 0.3790
0.1548 0.8671 0.3792
0.0768 0.8778 0.3794
-0.0018 0.8813 0.3794
-0.0804 0.8774 0.3794
-0.1583 0.8663 0.3792
-0.2348 0.8481 0.3789
-0.3092 0.8229 0.3785
-0.3809 0.7910 0.3780
-0.4492 0.7526 0.3774
-0.5137 0.7082 0.3767
-0.5736 0.6582 0.3759
-0.6286 0.6030 0.3750
-0.6782 0.5432 0.3741
-0.7221 0.4792 0.3731
-0.7598 0.4117 0.3721
-0.7912 0.3413 0.3710
-0.8160 0.2685 0.3699
-0.8341 0.1940 0.3687
-0.8454 0.1184 0.3675
-0.8499 0.0424 0.3664
-0.8476 -0.0335 0.3652
-0.8385 -0.1087 0.3640
-0.8229 -0.1825 0.3629
-0.8009 -0.2544 0.3618
-0.7727 -0.3239 0.3607
-0.7387 -0.3905 0.3597
-0.6990 -0.4536 0.3588
-0.6541 -0.5129 0.3579
-0.6043 -0.5679 0.3570
-0.5500 -0.6182 0.3563
-0.4917 -0.6635 0.3556
-0.4298 -0.7036 0.3550
-0.3648 -0.7380 0.3544
-0.2971 -0.7667 0.3540
-0.2273 -0.7894 0.3537
-0.1559 -0.8060 0.3534
-0.0833 -0.8163 0.3533
-0.0101 -0.8204 0.3532
0.0631 -0.8181 0.3533
0.1359 -0.8096 0.3534
0.2078 -0.7947 0.3537
0.2781 -0.7738 0.3540
0.3465 -0.7468 0.3544
0.4123 -0.7139 0.3550
0.4752 -0.6754 0.3556
0.5346 -0.6315 0.3562
0.5901 -0.5826 0.3570
0.6412 -0.5288 0.3578
0.6876 -0.4707 0.3588
0.7288 -0.4085 0.3597
0.7645 -0.3428 0.3607
0.7944 -0.2741 0.3618
0.8181 -0.2027 0.3629
0.8356 -0.1293 0.3640
0.8464 -0.0544 0.3652
0.8506 0.0214 0.3664
0.8480 0.0975 0.3675
0.8386 0.1734 0.3687
0.8223 0.2483 0.3698
0.7993 0.3216 0.3710
0.7697 0.3928 0.3721
0.7336 0.4612 0.3731
0.6914 0.5263 0.3741
0.6433 0.5873 0.3750
0.5896 0.6438 0.3759
0.5309 0.6953 0.3767
0.4676 0.7413 0.3774
0.4003 0.7813 0.3780
0.3294 0.8150 0.3785
0.2556 0.8420 0.3789
0.1796 0.8622 0.3792
0.1020 0.8752 0.3794
0.0235 0.8810 0.3794
-0.0552 0.8795 0.3794
-0.1334 0.8707 0.3792
-0.2104 0.8547 0.3790
-0.2856 0.8317 0.3786
-0.3582 0.8019 0.3782
-0.4277 0.7656 0.3776
-0.4934 0.7231 0.3769
-0.5549 0.6749 0.3762
-0.6115 0.6213 0.3753
-0.6629 0.5629 0.3744
-0.7086 0.5002 0.3734
-0.7484 0.4338 0.3724
-0.7818 0.3642 0.3713
-0.8088 0.2921 0.3702
-0.8290 0.2181 0.3691
-0.8425 0.1428 0.3679
-0.8492 0.0668 0.3667
-0.8491 -0.0092 0.3656
-0.8422 -0.0846 0.3644
-0.8287 -0.1589 0.3633
-0.8087 -0.2315 0.3622
-0.7825 -0.3019 0.3611
-0.7503 -0.3694 0.3601
-0.7123 -0.4337 0.3591
-0.6691 -0.4943 0.3581
-0.6208 -0.5507 0.3573
-0.5679 -0.6025 0.3565
-0.5109 -0.6495 0.3558
-0.4501 -0.6913 0.3552
-0.3860 -0.7276 0.3546
-0.3191 -0.7581 0.3541
-0.2500 -0.7828 0.3538
-0.1790 -0.8013 0.3535
-0.1067 -0.8137 0.3533
-0.0337 -0.8198 0.3532
0.0396 -0.8195 0.3533
0.1126 -0.8130 0.3534
0.1848 -0.8002 0.3536
0.2557 -0.7812 0.3539
0.3248 -0.7561 0.3543
0.3915 -0.7251 0.3548
0.4553 -0.6884 0.3554
0.5159 -0.6462 0.3560
0.5727 -0.5988 0.3568
0.6253 -0.5466 0.3576
0.6732 -0.4898 0.3585
0.7161 -0.4289 0.3594
0.7536 -0.3643 0.3604
0.7854 -0.2965 0.3614
0.8112 -0.2259 0.3625
0.8307 -0.1531 0.3637
0.8437 -0.0786 0.3648
0.8500 -0.0030 0.3660
0.8496 0.0731 0.3671
0.8424 0.1491 0.3683
0.8283 0.2243 0.3695
0.8075 0.2983 0.3706
0.7799 0.3702 0.3717
0.7459 0.4396 0.3728
0.7056 0.5058 0.3738
0.6594 0.5681 0.3747
0.6075 0.6262 0.3756
0.5503 0.6794 0.3764
0.4885 0.7271 0.3771
0.4223 0.7691 0.3778
0.3525 0.8049 0.3783
0.2796 0.8341 0.3788
0.2043 0.8565 0.3791
0.1271 0.8718 0.3793
0.0488 0.8799 0.3794
-0.0299 0.8807 0.3794
-0.1083 0.8743 0.3793
-0.1858 0.8606 0.3791
-0.2616 0.8399 0.3788
-0.3351 0.8123 0.3783
-0.4057 0.7780 0.3778
-0.4727 0.7375 0.3771
-0.5356 0.6910 0.3764
-0.5938 0.6391 0.3756
-0.6470 0.5822 0.3747
-0.6946 0.5208 0.3738
-0.7363 0.4555 0.3728
-0.7718 0.3869 0.3717
-0.8008 0.3155 0.3706
-0.8232 0.2421 0.3695
-0.8389 0.1671 0.3683
-0.8478 0.0913 0.3671
-0.8498 0.0152 0.3660
-0.8451 -0.0605 0.3648
-0.8337 -0.1352 0.3636
-0.8158 -0.2084 0.3625
-0.7916 -0.2795 0.3614
-0.7612 -0.3480 0.3604
-0.7251 -0.4134 0.3594
-0.6836 -0.4752 0.3584
-0.6369 -0.5330 0.3576
-0.5854 -0.5864 0.3567
-0.5297 -0.6350 0.3560
-0.4700 -0.6784 0.3553
-0.4070 -0.7165 0.3548
-0.3409 -0.7489 0.3543
-0.2724 -0.7755 0.3539
-0.2020 -0.7960 0.3536
-0.1301 -0.8104 0.3534
-0.0572 -0.8185 0.3533
0.0160 -0.8203 0.3532
0.0892 -0.8158 0.3533
0.1617 -0.8050 0.3535
0.2331 -0.7880 0.3538
0.3028 -0.7648 0.3542
0.3703 -0.7357 0.3546
0.4351 -0.7008 0.3552
0.4968 -0.6604 0.3558
0.5549 -0.6146 0.3565
0.6089 -0.5639 0.3573
0.6583 -0.5086 0.3582
0.7029 -0.4489 0.3591
0.7422 -0.3855 0.3601
0.7758 -0.3186 0.3611
0.8036 -0.2489 0.3622
0.8251 -0.1767 0.3633
0.8402 -0.1027 0.3644
0.8487 -0.0274 0.3656
0.8505 0.0486 0.3668
0.8455 0.1247 0.3679
0.8336 0.2002 0.3691
0.8149 0.2747 0.3702
0.7895 0.3473 0.3714
0.7576 0.4176 0.3724
0.7193 0.4849 0.3735
0.6749 0.5485 0.3744
0.6247 0.6080 0.3753
0.5693 0.6628 0.3762
0.5089 0.7124 0.3769
0.4440 0.7563 0.3776
0.3754 0.7941 0.3782
0.3034 0.8254 0.3786
0.2287 0.8500 0.3790
0.1521 0.8676 0.3793
0.0741 0.8781 0.3794
-0.0046 0.8813 0.3794
-0.0832 0.8772 0.3794
-0.1610 0.8658 0.3792
-0.2375 0.8473 0.3789
-0.3118 0.8219 0.3785
-0.3834 0.7897 0.3780
-0.4516 0.7512 0.3774
-0.5158 0.7066 0.3767
-0.5756 0.6563 0.3759
-0.6305 0.6010 0.3750
-0.6799 0.5410 0.3741
-0.7235 0.4769 0.3731
-0.7610 0.4093 0.3720
-0.7922 0.3387 0.3709
-0.8168 0.2659 0.3698
-0.8346 0.1914 0.3687
-0.8457 0.1157 0.3675
-0.8499 0.0397 0.3663
-0.8474 -0.0362 0.3652
-0.8381 -0.1113 0.3640
-0.8223 -0.1851 0.3629
-0.8000 -0.2569 0.3618
-0.7716 -0.3263 0.3607
-0.7374 -0.3928 0.3597
-0.6975 -0.4558 0.3587
-0.6524 -0.5149 0.3578
-0.6025 -0.5697 0.3570
-0.5480 -0.6199 0.3562
-0.4896 -0.6650 0.3555
-0.4276 -0.7049 0.3549
-0.3625 -0.7391 0.3544
-0.2947 -0.7676 0.3540
-0.2248 -0.7901 0.3537
-0.1533 -0.8064 0.3534
-0.0807 -0.8166 0.3533
-0.0075 -0.8204 0.3532
0.0657 -0.8179 0.3533
0.1385 -0.8092 0.3534
0.2103 -0.7941 0.3537
0.2806 -0.7729 0.3540
0.3489 -0.7457 0.3545
0.4146 -0.7127 0.3550
0.4774 -0.6740 0.3556
0.5366 -0.6299 0.3563
0.5920 -0.5807 0.3570
0.6429 -0.5268 0.3579
0.6891 -0.4686 0.3588
0.7301 -0.4063 0.3597
0.7656 -0.3405 0.3608
0.7953 -0.2716 0.3618
0.8189 -0.2002 0.3629
0.8361 -0.1267 0.3641
0.8467 -0.0517 0.3652
0.8507 0.0241 0.3664
0.8478 0.1002 0.3676
0.8381 0.1760 0.3687
0.8216 0.2509 0.3699
0.7984 0.3242 0.3710
0.7685 0.3953 0.3721
0.7322 0.4636 0.3731
0.6898 0.5285 0.3741
0.6415 0.5894 0.3751
0.5877 0.6457 0.3759
0.5288 0.6970 0.3767
0.4653 0.7428 0.3774
0.3978 0.7826 0.3780
0.3268 0.8161 0.3785
0.2530 0.8429 0.3789
0.1769 0.8627 0.3792
0.0993 0.8755 0.3794
0.0207 0.8810 0.3794
-0.0579 0.8793 0.3794
-0.1361 0.8703 0.3792
-0.2131 0.8540 0.3790
-0.2882 0.8308 0.3786
-0.3607 0.8008 0.3781
-0.4300 0.7642 0.3776
-0.4956 0.7215 0.3769
-0.5569 0.6731 0.3761
-0.6134 0.6193 0.3753
-0.6646 0.5607 0.3744
-0.7101 0.4979 0.3734
-0.7496 0.4314 0.3724
-0.7829 0.3617 0.3713
-0.8096 0.2895 0.3702
-0.8296 0.2155 0.3690
-0.8429 0.1401 0.3679
-0.8493 0.0642 0.3667
-0.8489 -0.0118 0.3655
-0.8418 -0.0873 0.3644
-0.8281 -0.1615 0.3632
-0.8079 -0.2340 0.3621
-0.7814 -0.3043 0.3610
-0.7490 -0.3717 0.3600
-0.7109 -0.4359 0.3590
-0.6675 -0.4963 0.3581
-0.6190 -0.5526 0.3573
-0.5660 -0.6043 0.3565
-0.5088 -0.6511 0.3558
-0.4479 -0.6926 0.3551
-0.3837 -0.7287 0.3546
-0.3167 -0.7591 0.3541
-0.2475 -0.7835 0.3538
-0.1765 -0.8019 0.3535
-0.1042 -0.8140 0.3533
-0.0311 -0.8199 0.3532
0.0422 -0.8194 0.3533
0.1152 -0.8127 0.3534
0.1873 -0.7996 0.3536
0.2582 -0.7804 0.3539
0.3271 -0.7551 0.3543
0.3938 -0.7239 0.3548
0.4575 -0.6870 0.3554
0.5180 -0.6446 0.3560
0.5746 -0.5971 0.3568
0.6270 -0.5447 0.3576
0.6748 -0.4878 0.3585
0.7175 -0.4267 0.3594
0.7548 -0.3620 0.3604
0.7864 -0.2941 0.3615
0.8120 -0.2234 0.3626
0.8312 -0.1505 0.3637
0.8440 -0.0760 0.3649
0.8501 -0.0004 0.3660
0.8495 0.0757 0.3672
0.8420 0.1517 0.3684
0.8277 0.2270 0.3695
0.8066 0.3008 0.3706
0.7789 0.3727 0.3717
0.7446 0.4420 0.3728
0.7041 0.5080 0.3738
0.6576 0.5703 0.3748
0.6055 0.6281 0.3756
0.5482 0.6811 0.3765
0.4862 0.7287 0.3772
0.4199 0.7705 0.3778
0.3500 0.8060 0.3783
0.2770 0.8350 0.3788
0.2016 0.8571 0.3791
0.1244 0.8722 0.3793
0.0461 0.8801 0.3794
-0.0327 0.8806 0.3794
-0.1111 0.8739 0.3793
-0.1885 0.8600 0.3791
-0.2643 0.8390 0.3787
-0.3377 0.8112 0.3783
-0.4081 0.7767 0.3778
-0.4750 0.7359 0.3771
-0.5377 0.6893 0.3764
-0.5958 0.6372 0.3756
-0.6487 0.5801 0.3747
-0.6961 0.5185 0.3737
-0.7376 0.4531 0.3727
-0.7729 0.3844 0.3716
-0.8017 0.3130 0.3705
-0.8239 0.2395 0.3694
-0.8394 0.1645 0.3683
-0.8480 0.0886 0.3671
-0.8498 0.0126 0.3659
-0.8448 -0.0631 0.3647
-0.8332 -0.1378 0.3636
-0.8151 -0.2109 0.3625
-0.7906 -0.2820 0.3614
-0.7601 -0.3504 0.3603
-0.7238 -0.4157 0.3593
-0.6820 -0.4773 0.3584
-0.6351 -0.5350 0.3575
-0.5835 -0.5882 0.3567
-0.5276 -0.6366 0.3560
-0.4679 -0.6799 0.3553
-0.4047 -0.7177 0.3548
-0.3386 -0.7500 0.3543
-0.2700 -0.7763 0.3539
-0.1995 -0.7966 0.3536
-0.1275 -0.8108 0.3534
-0.0546 -0.8187 0.3533
0.0186 -0.8203 0.3533
0.0918 -0.8155 0.3533
0.1643 -0.8045 0.3535
0.2356 -0.7873 0.3538
0.3052 -0.7639 0.3542
0.3726 -0.7346 0.3546
0.4374 -0.6995 0.3552
0.4989 -0.6588 0.3558
0.5568 -0.6129 0.3565
0.6107 -0.5620 0.3573
0.6600 -0.5065 0.3582
0.7044 -0.4468 0.3591
0.7435 -0.3832 0.3601
0.7769 -0.3162 0.3611
0.8044 -0.2464 0.3622
0.8257 -0.1742 0.3633
0.8406 -0.1001 0.3645
0.8489 -0.0248 0.3656
0.8504 0.0513 0.3668
0.8451 0.1273 0.3680
0.8330 0.2029 0.3691
0.8141 0.2773 0.3703
0.7885 0.3498 0.3714
0.7563 0.4200 0.3725
0.7178 0.4872 0.3735
0.6732 0.5507 0.3745
0.6229 0.6100 0.3754
0.5672 0.6647 0.3762
0.5066 0.7140 0.3770
0.4417 0.7577 0.3776
0.3729 0.7953 0.3782
0.3008 0.8264 0.3786
0.2261 0.8508 0.3790
0.1493 0.8681 0.3793
0.0713 0.8783 0.3794
-0.0073 0.8813 0.3794
-0.0859 0.8769 0.3794
-0.1637 0.8653 0.3792
-0.2401 0.8466 0.3789
-0.3144 0.8209 0.3784
-0.3858 0.7885 0.3779
-0.4539 0.7497 0.3773
-0.5180 0.7049 0.3766
-0.5777 0.6545 0.3758
-0.6323 0.5989 0.3750
-0.6815 0.5388 0.3740
-0.7249 0.4746 0.3730
-0.7622 0.4068 0.3720
-0.7932 0.3362 0.3709
-0.8175 0.2633 0.3698
-0.8351 0.1887 0.3686
-0.8460 0.1131 0.3675
-0.8499 0.0370 0.3663
-0.8472 -0.0388 0.3651
-0.8377 -0.1139 0.3640
-0.8216 -0.1876 0.3628
-0.7991 -0.2594 0.3617
-0.7705 -0.3287 0.3607
-0.7361 -0.3950 0.3597
-0.6960 -0.4579 0.3587
-0.6507 -0.5169 0.3578
-0.6006 -0.5716 0.3570
-0.5461 -0.6215 0.3562
-0.4875 -0.6665 0.3555
-0.4253 -0.7062 0.3549
-0.3601 -0.7402 0.3544
-0.2923 -0.7685 0.3540
-0.2223 -0.7908 0.3537
-0.1508 -0.8069 0.3534
-0.0782 -0.8168 0.3533
-0.0050 -0.8204 0.3532
0.0683 -0.8177 0.3533
0.1410 -0.8087 0.3535
0.2128 -0.7935 0.3537
0.2830 -0.7721 0.3540
0.3512 -0.7446 0.3545
0.4169 -0.7114 0.3550
0.4795 -0.6725 0.3556
0.5386 -0.6283 0.3563
0.5938 -0.5789 0.3571
0.6446 -0.5249 0.3579
0.6906 -0.4664 0.3588
0.7315 -0.4040 0.3598
0.7668 -0.3381 0.3608
0.7962 -0.2691 0.3619
0.8196 -0.1976 0.3630
0.8365 -0.1241 0.3641
0.8470 -0.0491 0.3653
0.8507 0.0268 0.3664
0.8476 0.1029 0.3676
0.8377 0.1787 0.3688
0.8209 0.2535 0.3699
0.7975 0.3267 0.3710
0.7674 0.3977 0.3721
0.7309 0.4659 0.3732
0.6882 0.5307 0.3742
0.6397 0.5914 0.3751
0.5857 0.6476 0.3759
0.5266 0.6988 0.3767
0.4630 0.7443 0.3774
0.3954 0.7839 0.3780
0.3243 0.8171 0.3785
0.2503 0.8437 0.3789
0.1742 0.8633 0.3792
0.0965 0.8758 0.3794
0.0180 0.8811 0.3794
-0.0607 0.8791 0.3794
-0.1388 0.8698 0.3792
-0.2158 0.8533 0.3790
-0.2908 0.8299 0.3786
-0.3632 0.7996 0.3781
-0.4324 0.7628 0.3775
-0.4979 0.7199 0.3769
-0.5590 0.6713 0.3761
-0.6153 0.6173 0.3753
-0.6663 0.5586 0.3743
-0.7116 0.4956 0.3734
-0.7509 0.4290 0.3723
-0.7839 0.3592 0.3713
-0.8104 0.2870 0.3701
-0.8302 0.2128 0.3690
-0.8432 0.1375 0.3678
-0.8494 0.0615 0.3667
-0.8488 -0.0145 0.3655
-0.8414 -0.0899 0.3643
-0.8275 -0.1641 0.3632
-0.8070 -0.2366 0.3621
-0.7804 -0.3067 0.3610
-0.7478 -0.3741 0.3600
-0.7095 -0.4381 0.3590
-0.6658 -0.4984 0.3581
-0.6172 -0.5545 0.3572
-0.5641 -0.6060 0.3564
-0.5067 -0.6526 0.3557
-0.4457 -0.6940 0.3551
-0.3814 -0.7299 0.3546
-0.3143 -0.7600 0.3541
-0.2450 -0.7843 0.3538
-0.1739 -0.8024 0.3535
-0.1016 -0.8143 0.3533
-0.0285 -0.8200 0.3532
0.0448 -0.8193 0.3533
0.1177 -0.8123 0.3534
0.1899 -0.7991 0.3536
0.2606 -0.7796 0.3539
0.3295 -0.7541 0.3543
0.3961 -0.7227 0.3548
0.4597 -0.6856 0.3554
0.5200 -0.6431 0.3561
0.5765 -0.5953 0.3568
0.6288 -0.5427 0.3576
0.6764 -0.4857 0.3585
0.7189 -0.4245 0.3595
0.7561 -0.3597 0.3605
0.7874 -0.2916 0.3615
0.8128 -0.2209 0.3626
0.8318 -0.1479 0.3637
0.8443 -0.0733 0.3649
0.8502 0.0023 0.3661
0.8493 0.0784 0.3672
0.8416 0.1544 0.3684
0.8271 0.2296 0.3696
0.8057 0.3034 0.3707
0.7778 0.3752 0.3718
0.7433 0.4443 0.3728
0.7026 0.5103 0.3739
0.6559 0.5724 0.3748
0.6036 0.6301 0.3757
0.5461 0.6829 0.3765
0.4839 0.7303 0.3772
0.4175 0.7718 0.3778
0.3475 0.8072 0.3784
0.2744 0.8359 0.3788
0.1989 0.8578 0.3791
0.1216 0.8726 0.3793
0.0433 0.8802 0.3794
-0.0354 0.8805 0.3794
-0.1138 0.8736 0.3793
-0.1912 0.8594 0.3791
-0.2669 0.8382 0.3787
-0.3402 0.8101 0.3783
-0.4105 0.7753 0.3777
-0.4773 0.7344 0.3771
-0.5398 0.6875 0.3764
-0.5977 0.6352 0.3755
-0.6505 0.5780 0.3747
-0.6977 0.5163 0.3737
-0.7390 0.4508 0.3727
-0.7740 0.3819 0.3716
-0.8026 0.3104 0.3705
-0.8246 0.2368 0.3694
-0.8398 0.1618 0.3682
-0.8482 0.0860 0.3670
-0.8497 0.0099 0.3659
-0.8445 -0.0658 0.3647
-0.8327 -0.1404 0.3636
-0.8143 -0.2135 0.3624
-0.7896 -0.2844 0.3614
-0.7589 -0.3527 0.3603
-0.7224 -0.4179 0.3593
-0.6804 -0.4794 0.3584
-0.6334 -0.5369 0.3575
-0.5816 -0.5900 0.3567
-0.5256 -0.6382 0.3560
-0.4657 -0.6813 0.3553
-0.4024 -0.7190 0.3547
-0.3362 -0.7510 0.3543
-0.2675 -0.7771 0.3539
-0.1970 -0.7972 0.3536
-0.1250 -0.8112 0.3534
-0.0521 -0.8188 0.3533
0.0212 -0.8202 0.3533
0.0943 -0.8152 0.3533
0.1668 -0.8040 0.3535
0.2380 -0.7865 0.3538
0.3076 -0.7630 0.3542
0.3750 -0.7334 0.3547
0.4396 -0.6981 0.3552
0.5010 -0.6573 0.3558
0.5588 -0.6112 0.3566
0.6125 -0.5602 0.3574
0.6616 -0.5045 0.3582
0.7058 -0.4446 0.3592
0.7447 -0.3809 0.3601
0.7780 -0.3138 0.3612
0.8053 -0.2439 0.3623
0.8264 -0.1716 0.3634
0.8410 -0.0975 0.3645
0.8491 -0.0221 0.3657
0.8504 0.0539 0.3669
0.8448 0.1300 0.3680
0.8325 0.2055 0.3692
0.8133 0.2798 0.3703
0.7875 0.3524 0.3714
0.7551 0.4224 0.3725
0.7163 0.4895 0.3735
0.2034 0.8410 0.3789
0.1276 0.8563 0.3791
0.0507 0.8645 0.3792
-0.0267 0.8656 0.3792
-0.1037 0.8595 0.3791
-0.1799 0.8463 0.3789
-0.2545 0.8262 0.3785
-0.3268 0.7993 0.3781
-0.3963 0.7659 0.3776
-0.4623 0.7263 0.3770
-0.5243 0.6808 0.3763
-0.5817 0.6300 0.3755
-0.6341 0.5742 0.3746
-0.6811 0.5141 0.3737
-0.7224 0.4501 0.3727
-0.7575 0.3827 0.3716
-0.7864 0.3127 0.3705
-0.8087 0.2406 0.3694
-0.8244 0.1669 0.3683
-0.8334 0.0924 0.3671
-0.8357 0.0176 0.3660
-0.8313 -0.0568 0.3648
-0.8204 -0.1304 0.3637
-0.8030 -0.2024 0.3626
-0.7794 -0.2725 0.3615
-0.7499 -0.3400 0.3605
-0.7146 -0.4044 0.3595
-0.6739 -0.4654 0.3586
-0.6281 -0.5224 0.3577
-0.5777 -0.5750 0.3569
-0.5230 -0.6230 0.3562
-0.4645 -0.6660 0.3555
-0.4026 -0.7037 0.3550
-0.3377 -0.7358 0.3545
-0.2704 -0.7621 0.3541
-0.2012 -0.7825 0.3538
-0.1305 -0.7969 0.3536
-0.0588 -0.8051 0.3535
0.0132 -0.8071 0.3535
0.0852 -0.8029 0.3535
0.1566 -0.7925 0.3537
0.2269 -0.7759 0.3540
0.2955 -0.7533 0.3543
0.3620 -0.7249 0.3548
0.4259 -0.6907 0.3553
0.4867 -0.6511 0.3559
0.5439 -0.6063 0.3566
0.5971 -0.5565 0.3574
0.6459 -0.5022 0.3583
0.6899 -0.4437 0.3592
0.7287 -0.3814 0.3601
0.7620 -0.3157 0.3611
0.7894 -0.2472 0.3622
0.8108 -0.1763 0.3633
0.8258 -0.1036 0.3644
0.8344 -0.0296 0.3656
0.8363 0.0451 0.3667
0.8315 0.1199 0.3679
0.8200 0.1943 0.3690
0.8019 0.2675 0.3701
0.7771 0.3390 0.3712
0.7459 0.4081 0.3723
0.7084 0.4743 0.3733
0.6650 0.5370 0.3743
0.6159 0.5956 0.3751
0.5615 0.6496 0.3760
0.5023 0.6985 0.3767
0.4387 0.7418 0.3774
0.3713 0.7792 0.3779
0.3007 0.8102 0.3784
0.2274 0.8346 0.3788
0.1521 0.8521 0.3790
0.0755 0.8626 0.3792
-0.0018 0.8660 0.3792
-0.0790 0.8622 0.3791
-0.1556 0.8513 0.3789
-0.2307 0.8334 0.3787
-0.3039 0.8087 0.3783
-0.3743 0.7773 0.3778
-0.4415 0.7396 0.3772
-0.5048 0.6960 0.3765
-0.5638 0.6469 0.3757
-0.6178 0.5927 0.3749
-0.6666 0.5339 0.3740
-0.7098 0.4710 0.3730
-0.7469 0.4047 0.3720
-0.7778 0.3355 0.3709
-0.8022 0.2639 0.3698
-0.8201 0.1907 0.3687
-0.8312 0.1164 0.3675
-0.8357 0.0417 0.3664
-0.8334 -0.0330 0.3652
-0.8246 -0.1069 0.3641
-0.8093 -0.1795 0.3630
-0.7877 -0.2502 0.3619
-0.7600 -0.3186 0.3608
-0.7265 -0.3841 0.3598
-0.6875 -0.4462 0.3589
-0.6434 -0.5045 0.3580
-0.5944 -0.5586 0.3572
-0.5411 -0.6081 0.3564
-0.4837 -0.6527 0.3557
-0.4228 -0.6921 0.3551
-0.3589 -0.7261 0.3546
-0.2923 -0.7543 0.3542
-0.2236 -0.7766 0.3539
-0.1533 -0.7930 0.3536
-0.0819 -0.8031 0.3535
-0.0099 -0.8071 0.3534
0.0621 -0.8049 0.3535
0.1337 -0.7965 0.3536
0.2044 -0.7819 0.3539
0.2736 -0.7612 0.3542
0.3409 -0.7347 0.3546
0.4056 -0.7023 0.3551
0.4675 -0.6644 0.3557
0.5259 -0.6212 0.3564
0.5805 -0.5730 0.3572
0.6307 -0.5202 0.3580
0.6763 -0.4630 0.3589
0.7168 -0.4018 0.3598
0.7519 -0.3372 0.3608
0.7812 -0.2695 0.3619
0.8046 -0.1993 0.3629
0.8217 -0.1272 0.3641
0.8323 -0.0535 0.3652
0.8364 0.0211 0.3663
0.8338 0.0959 0.3675
0.8245 0.1704 0.3686
0.8084 0.2441 0.3698
0.7858 0.3162 0.3709
0.7566 0.3862 0.3719
0.7211 0.4534 0.3730
0.6796 0.5173 0.3740
0.6322 0.5772 0.3749
0.5795 0.6328 0.3757
0.5218 0.6834 0.3765
0.4596 0.7285 0.3772
0.3934 0.7678 0.3778
0.3237 0.8009 0.3783
0.2512 0.8275 0.3787
0.1765 0.8472 0.3789
0.1002 0.8600 0.3791
0.0231 0.8657 0.3792
-0.0542 0.8642 0.3792
-0.1311 0.8556 0.3790
-0.2068 0.8399 0.3788
-0.2806 0.8174 0.3784
-0.3520 0.7881 0.3779
-0.4203 0.7524 0.3774
-0.4849 0.7107 0.3767
-0.5453 0.6633 0.3760
-0.6010 0.6106 0.3752
-0.6516 0.5533 0.3743
-0.6965 0.4917 0.3733
-0.7356 0.4264 0.3723
-0.7686 0.3580 0.3712
-0.7951 0.2872 0.3701
-0.8150 0.2144 0.3690
-0.8284 0.1404 0.3679
-0.8350 0.0657 0.3667
-0.8349 -0.0090 0.3656
-0.8281 -0.0832 0.3644
-0.8149 -0.1563 0.3633
-0.7953 -0.2277 0.3622
-0.7695 -0.2969 0.3612
-0.7379 -0.3633 0.3601
-0.7006 -0.4266 0.3592
-0.6581 -0.4862 0.3583
-0.6107 -0.5417 0.3574
-0.5587 -0.5927 0.3566
-0.5026 -0.6389 0.3559
-0.4428 -0.6800 0.3553
-0.3798 -0.7158 0.3548
-0.3140 -0.7458 0.3543
-0.2459 -0.7701 0.3540
-0.1761 -0.7884 0.3537
-0.1050 -0.8005 0.3535
-0.0331 -0.8065 0.3535
0.0390 -0.8063 0.3535
0.1108 -0.7999 0.3536
0.1818 -0.7873 0.3538
0.2516 -0.7685 0.3541
0.3195 -0.7439 0.3545
0.3851 -0.7133 0.3550
0.4479 -0.6772 0.3555
0.5075 -0.6357 0.3562
0.5634 -0.5891 0.3569
0.6151 -0.5377 0.3577
0.6622 -0.4818 0.3586
0.7044 -0.4219 0.3595
0.7412 -0.3583 0.3605
0.7724 -0.2916 0.3615
0.7977 -0.2222 0.3626
0.8169 -0.1506 0.3637
0.8296 -0.0773 0.3648
0.8358 -0.0030 0.3660
0.8354 0.0718 0.3671
0.8282 0.1465 0.3683
0.8143 0.2205 0.3694
0.7938 0.2932 0.3705
0.7667 0.3639 0.3716
0.7332 0.4321 0.3727
0.6936 0.4971 0.3736
0.6481 0.5584 0.3746
0.5970 0.6154 0.3755
0.5409 0.6677 0.3762
0.4801 0.7146 0.3770
0.4151 0.7558 0.3776
0.3464 0.7910 0.3781
0.2748 0.8197 0.3785
0.2007 0.8416 0.3789
0.1249 0.8567 0.3791
0.0480 0.8647 0.3792
-0.0294 0.8655 0.3792
-0.1064 0.8592 0.3791
-0.1826 0.8457 0.3789
-0.2571 0.8254 0.3785
-0.3293 0.7982 0.3781
-0.3987 0.7646 0.3776
-0.4646 0.7248 0.3769
-0.5264 0.6791 0.3762
-0.5836 0.6281 0.3754
-0.6359 0.5722 0.3746
-0.6827 0.5119 0.3736
-0.7237 0.4477 0.3726
-0.7586 0.3803 0.3716
-0.7873 0.3102 0.3705
-0.8093 0.2380 0.3694
-0.8248 0.1643 0.3683
-0.8336 0.0898 0.3671
-0.8356 0.0150 0.3660
-0.8310 -0.0594 0.3648
-0.8199 -0.1329 0.3637
-0.8023 -0.2050 0.3626
-0.7785 -0.2749 0.3615
-0.7487 -0.3423 0.3605
-0.7132 -0.4066 0.3595
-0.6724 -0.4674 0.3586
-0.6264 -0.5243 0.3577
-0.5759 -0.5768 0.3569
-0.5210 -0.6246 0.3562
-0.4624 -0.6674 0.3555
-0.4004 -0.7049 0.3550
-0.3354 -0.7368 0.3545
-0.2680 -0.7629 0.3541
-0.1987 -0.7832 0.3538
-0.1280 -0.7973 0.3536
-0.0563 -0.8053 0.3535
0.0158 -0.8071 0.3535
0.0878 -0.8026 0.3535
0.1591 -0.7920 0.3537
0.2293 -0.7752 0.3540
0.2979 -0.7524 0.3543
0.3643 -0.7238 0.3548
0.4281 -0.6894 0.3553
0.4887 -0.6496 0.3560
0.5458 -0.6046 0.3567
0.5989 -0.5547 0.3574
0.6475 -0.5002 0.3583
0.6913 -0.4416 0.3592
0.7300 -0.3791 0.3602
0.7630 -0.3134 0.3612
0.7903 -0.2448 0.3622
0.8114 -0.1738 0.3633
0.8262 -0.1010 0.3645
0.8345 -0.0270 0.3656
0.8362 0.0478 0.3668
0.8312 0.1226 0.3679
0.8195 0.1969 0.3690
0.8011 0.2700 0.3702
0.7761 0.3414 0.3713
0.7447 0.4105 0.3723
0.7070 0.4766 0.3733
0.6633 0.5391 0.3743
0.6140 0.5976 0.3752
0.5595 0.6514 0.3760
0.5001 0.7001 0.3767
0.4364 0.7432 0.3774
0.3689 0.7804 0.3779
0.2981 0.8112 0.3784
0.2248 0.8353 0.3788
0.1494 0.8526 0.3790
0.0728 0.8629 0.3792
-0.0045 0.8660 0.3792
-0.0817 0.8620 0.3791
-0.1582 0.8508 0.3789
-0.2334 0.8327 0.3786
-0.3064 0.8077 0.3782
-0.3767 0.7761 0.3777
-0.4438 0.7382 0.3772
-0.5070 0.6944 0.3765
-0.5658 0.6451 0.3757
-0.6197 0.5907 0.3749
-0.6683 0.5317 0.3739
-0.7112 0.4688 0.3730
-0.7481 0.4023 0.3719
-0.7788 0.3330 0.3709
-0.8030 0.2614 0.3698
-0.8206 0.1881 0.3686
-0.8315 0.1138 0.3675
-0.8357 0.0390 0.3663
-0.8332 -0.0356 0.3652
-0.8242 -0.1094 0.3640
-0.8086 -0.1820 0.3629
-0.7868 -0.2527 0.3618
-0.7589 -0.3209 0.3608
-0.7252 -0.3863 0.3598
-0.6861 -0.4483 0.3588
-0.6417 -0.5065 0.3580
-0.5926 -0.5604 0.3571
-0.5391 -0.6098 0.3564
-0.4816 -0.6542 0.3557
-0.4206 -0.6934 0.3551
-0.3566 -0.7271 0.3546
-0.2899 -0.7552 0.3542
-0.2212 -0.7773 0.3539
-0.1508 -0.7934 0.3536
-0.0794 -0.8034 0.3535
-0.0074 -0.8072 0.3534
0.0647 -0.8047 0.3535
0.1363 -0.7961 0.3536
0.2069 -0.7813 0.3539
0.2760 -0.7604 0.3542
0.3432 -0.7336 0.3546
0.4079 -0.7011 0.3552
0.4696 -0.6630 0.3558
0.5279 -0.6196 0.3564
0.5823 -0.5713 0.3572
0.6324 -0.5182 0.3580
0.6778 -0.4609 0.3589
0.7181 -0.3996 0.3598
0.7530 -0.3349 0.3609
0.7822 -0.2671 0.3619
0.8053 -0.1968 0.3630
0.8221 -0.1246 0.3641
0.8326 -0.0509 0.3652
0.8364 0.0237 0.3664
0.8336 0.0985 0.3675
0.8240 0.1731 0.3687
0.8078 0.2466 0.3698
0.7849 0.3187 0.3709
0.7555 0.3886 0.3720
0.7198 0.4557 0.3730
0.6780 0.5194 0.3740
0.6305 0.5793 0.3749
0.5776 0.6347 0.3757
0.5197 0.6850 0.3765
0.4573 0.7300 0.3772
0.3910 0.7691 0.3778
0.3212 0.8020 0.3783
0.2486 0.8283 0.3787
0.1738 0.8478 0.3790
0.0975 0.8603 0.3791
0.0204 0.8658 0.3792
-0.0569 0.8640 0.3792
-0.1338 0.8552 0.3790
-0.2094 0.8393 0.3788
-0.2832 0.8164 0.3784
-0.3545 0.7869 0.3779
-0.4226 0.7511 0.3774
-0.4871 0.7091 0.3767
-0.5474 0.6615 0.3760
-0.6029 0.6087 0.3751
-0.6532 0.5512 0.3742
-0.6980 0.4894 0.3733
-0.7369 0.4240 0.3723
-0.7696 0.3556 0.3712
-0.7959 0.2846 0.3701
-0.8156 0.2118 0.3690
-0.8287 0.1378 0.3678
-0.8351 0.0631 0.3667
-0.8347 -0.0116 0.3655
-0.8278 -0.0858 0.3644
-0.8143 -0.1588 0.3633
-0.7945 -0.2302 0.3622
-0.7685 -0.2993 0.3611
-0.7367 -0.3656 0.3601
-0.6992 -0.4287 0.3591
-0.6565 -0.4882 0.3582
-0.6089 -0.5435 0.3574
-0.5568 -0.5944 0.3566
-0.5005 -0.6405 0.3559
-0.4406 -0.6814 0.3553
-0.3775 -0.7169 0.3548
-0.3116 -0.7468 0.3543
-0.2435 -0.7708 0.3540
-0.1736 -0.7889 0.3537
-0.1025 -0.8009 0.3535
-0.0306 -0.8066 0.3535
0.0415 -0.8062 0.3535
0.1133 -0.7995 0.3536
0.1843 -0.7867 0.3538
0.2540 -0.7678 0.3541
0.3218 -0.7429 0.3545
0.3874 -0.7122 0.3550
0.4501 -0.6758 0.3556
0.5095 -0.6341 0.3562
0.5653 -0.5873 0.3569
0.6168 -0.5358 0.3577
0.6637 -0.4798 0.3586
0.7057 -0.4197 0.3595
0.7424 -0.3560 0.3605
0.7734 -0.2892 0.3616
0.7985 -0.2197 0.3626
0.8174 -0.1480 0.3637
0.8299 -0.0747 0.3649
0.8359 -0.0004 0.3660
0.8352 0.0745 0.3672
0.8278 0.1492 0.3683
0.8137 0.2231 0.3695
0.7929 0.2957 0.3706
0.7656 0.3664 0.3716
0.7319 0.4344 0.3727
0.6921 0.4993 0.3737
0.6464 0.5605 0.3746
0.5951 0.6174 0.3755
0.5388 0.6694 0.3763
0.4778 0.7162 0.3770
0.4127 0.7572 0.3776
0.3440 0.7921 0.3781
0.2722 0.8205 0.3785
0.1981 0.8423 0.3789
0.1222 0.8571 0.3791
0.0453 0.8648 0.3792
-0.0321 0.8654 0.3792
-0.1091 0.8588 0.3791
-0.1852 0.8451 0.3788
-0.2597 0.8245 0.3785
-0.3318 0.7971 0.3781
-0.4011 0.7633 0.3775
-0.4668 0.7232 0.3769
-0.5285 0.6774 0.3762
-0.5856 0.6262 0.3754
-0.6376 0.5701 0.3745
-0.6842 0.5097 0.3736
-0.7250 0.4454 0.3726
-0.7598 0.3779 0.3716
-0.7881 0.3077 0.3705
-0.8100 0.2354 0.3694
-0.8252 0.1617 0.3682
-0.8338 0.0871 0.3671
-0.8356 0.0124 0.3659
-0.8307 -0.0621 0.3648
-0.8193 -0.1355 0.3636
-0.8015 -0.2075 0.3625
-0.7775 -0.2773 0.3615
-0.7476 -0.3446 0.3604
-0.7119 -0.4088 0.3595
-0.6708 -0.4695 0.3585
-0.6247 -0.5262 0.3577
-0.5740 -0.5786 0.3569
-0.5190 -0.6262 0.3561
-0.4603 -0.6688 0.3555
-0.3981 -0.7061 0.3549
-0.3331 -0.7378 0.3545
-0.2656 -0.7638 0.3541
-0.1962 -0.7838 0.3538
-0.1255 -0.7977 0.3536
-0.0538 -0.8055 0.3535
0.0183 -0.8070 0.3535
0.0903 -0.8023 0.3535
0.1616 -0.7915 0.3537
0.2318 -0.7745 0.3540
0.3003 -0.7515 0.3544
0.3666 -0.7227 0.3548
0.4303 -0.6881 0.3554
0.4908 -0.6481 0.3560
0.5478 -0.6029 0.3567
0.6007 -0.5529 0.3575
0.6492 -0.4982 0.3583
0.6928 -0.4394 0.3592
0.7312 -0.3769 0.3602
0.7641 -0.3110 0.3612
0.7911 -0.2423 0.3623
0.8120 -0.1713 0.3634
0.8266 -0.0984 0.3645
0.8347 -0.0243 0.3656
0.8362 0.0504 0.3668
0.8309 0.1252 0.3679
0.8190 0.1995 0.3691
0.8003 0.2726 0.3702
0.7751 0.3439 0.3713
0.7434 0.4129 0.3724
0.7055 0.4788 0.3734
0.6617 0.5413 0.3743
0.6122 0.5996 0.3752
0.5575 0.6532 0.3760
0.4979 0.7017 0.3768
0.4341 0.7446 0.3774
0.3664 0.7816 0.3780
0.2956 0.8121 0.3784
0.2221 0.8360 0.3788
0.1468 0.8531 0.3790
0.0701 0.8631 0.3792
-0.0072 0.8660 0.3792
-0.0844 0.8617 0.3791
-0.1609 0.8503 0.3789
-0.2360 0.8319 0.3786
-0.3089 0.8067 0.3782
-0.3792 0.7749 0.3777
-0.4461 0.7368 0.3771
-0.5091 0.6928 0.3764
-0.5677 0.6432 0.3757
-0.6215 0.5887 0.3748
-0.6699 0.5296 0.3739
-0.7126 0.4665 0.3729
-0.7493 0.3999 0.3719
-0.7797 0.3305 0.3708
-0.8037 0.2588 0.3697
-0.8211 0.1855 0.3686
-0.8317 0.1112 0.3674
-0.8357 0.0364 0.3663
-0.8330 -0.0382 0.3651
-0.8237 -0.1120 0.3640
-0.8080 -0.1845 0.3629
-0.7859 -0.2551 0.3618
-0.7578 -0.3233 0.3608
-0.7240 -0.3885 0.3598
-0.6846 -0.4504 0.3588
-0.6401 -0.5084 0.3579
-0.5908 -0.5622 0.3571
-0.5372 -0.6114 0.3564
-0.4796 -0.6557 0.3557
-0.4184 -0.6947 0.3551
-0.3543 -0.7282 0.3546
-0.2875 -0.7561 0.3542
-0.2187 -0.7780 0.3539
-0.1483 -0.7939 0.3536
-0.0769 -0.8036 0.3535
-0.0049 -0.8072 0.3534
0.0672 -0.8045 0.3535
0.1388 -0.7957 0.3537
0.2094 -0.7806 0.3539
0.2784 -0.7596 0.3542
0.3455 -0.7326 0.3547
0.4101 -0.6998 0.3552
0.4717 -0.6616 0.3558
0.5299 -0.6180 0.3565
0.5841 -0.5695 0.3572
0.6341 -0.5163 0.3580
0.6793 -0.4588 0.3589
0.7194 -0.3974 0.3599
0.7541 -0.3325 0.3609
0.7831 -0.2647 0.3619
0.8060 -0.1943 0.3630
0.8226 -0.1220 0.3641
0.8328 -0.0483 0.3653
0.8364 0.0263 0.3664
0.8334 0.1012 0.3676
0.8236 0.1757 0.3687
0.8071 0.2492 0.3699
0.7839 0.3212 0.3710
0.7543 0.3910 0.3720
0.7184 0.4580 0.3730
0.6764 0.5216 0.3740
0.6287 0.5813 0.3749
0.5756 0.6365 0.3758
0.5176 0.6867 0.3765
0.4550 0.7315 0.3772
0.3886 0.7704 0.3778
0.3187 0.8030 0.3783
0.2460 0.8291 0.3787
0.1712 0.8484 0.3790
0.0948 0.8607 0.3791
0.0177 0.8658 0.3792
-0.0597 0.8639 0.3792
-0.1364 0.8547 0.3790
-0.2120 0.8386 0.3787
-0.2857 0.8155 0.3784
-0.3569 0.7858 0.3779
-0.4250 0.7497 0.3773
-0.4893 0.7075 0.3767
-0.5494 0.6597 0.3759
-0.6047 0.6068 0.3751
-0.6549 0.5491 0.3742
-0.6995 0.4872 0.3732
-0.7381 0.4217 0.3722
-0.7706 0.3531 0.3712
-0.7967 0.2821 0.3701
-0.8162 0.2092 0.3689
-0.8290 0.1352 0.3678
-0.8352 0.0605 0.3667
-0.8346 -0.0143 0.3655
-0.8274 -0.0884 0.3644
-0.8137 -0.1614 0.3632
-0.7937 -0.2326 0.3621
-0.7675 -0.3017 0.3611
-0.7355 -0.3679 0.3601
-0.6978 -0.4309 0.3591
-0.6549 -0.4902 0.3582
-0.6072 -0.5454 0.3574
-0.5549 -0.5961 0.3566
-0.4985 -0.6420 0.3559
-0.4385 -0.6827 0.3553
-0.3752 -0.7181 0.3548
-0.3093 -0.7477 0.3543
-0.2411 -0.7716 0.3540
-0.1711 -0.7894 0.3537
-0.1000 -0.8012 0.3535
-0.0281 -0.8067 0.3535
0.0440 -0.8061 0.3535
0.1158 -0.7992 0.3536
0.1868 -0.7861 0.3538
0.2564 -0.7670 0.3541
0.3242 -0.7419 0.3545
0.3896 -0.7110 0.3550
0.4522 -0.6745 0.3556
0.5116 -0.6326 0.3562
0.5671 -0.5856 0.3570
0.6185 -0.5339 0.3578
0.6653 -0.4777 0.3586
0.7071 -0.4175 0.3596
0.7436 -0.3537 0.3606
0.7744 -0.2868 0.3616
0.7993 -0.2172 0.3627
0.8180 -0.1454 0.3638
0.8303 -0.0721 0.3649
0.8360 0.0023 0.3661
0.8351 0.0771 0.3672
0.8274 0.1518 0.3684
0.8131 0.2257 0.3695
0.7921 0.2983 0.3706
0.7645 0.3688 0.3717
0.7306 0.4368 0.3727
0.6906 0.5016 0.3737
0.6447 0.5626 0.3746
0.5932 0.6193 0.3755
0.5367 0.6712 0.3763
0.4756 0.7177 0.3770
0.4103 0.7585 0.3776
0.3415 0.7932 0.3781
0.2696 0.8214 0.3786
0.1954 0.8429 0.3789
0.1195 0.8575 0.3791
0.0425 0.8649 0.3792
-0.0348 0.8653 0.3792
-0.1118 0.8584 0.3791
-0.1879 0.8445 0.3788
-0.2623 0.8237 0.3785
-0.3343 0.7961 0.3781
-0.4035 0.7620 0.3775
-0.4690 0.7217 0.3769
-0.5306 0.6757 0.3762
-0.5875 0.6243 0.3754
-0.6394 0.5681 0.3745
-0.6858 0.5075 0.3736
-0.7264 0.4431 0.3726
-0.7609 0.3755 0.3715
-0.7890 0.3052 0.3704
-0.8107 0.2328 0.3693
-0.8256 0.1591 0.3682
-0.8339 0.0845 0.3670
-0.8355 0.0097 0.3659
-0.8305 -0.0647 0.3647
-0.8188 -0.1381 0.3636
-0.8008 -0.2099 0.3625
-0.7766 -0.2797 0.3614
-0.7464 -0.3469 0.3604
-0.7105 -0.4110 0.3594
-0.6693 -0.4716 0.3585
-0.6230 -0.5281 0.3576
-0.5722 -0.5803 0.3568
-0.5170 -0.6278 0.3561
-0.4581 -0.6702 0.3555
-0.3959 -0.7073 0.3549
-0.3307 -0.7388 0.3544
-0.2632 -0.7646 0.3541
-0.1938 -0.7843 0.3538
-0.1229 -0.7981 0.3536
-0.0512 -0.8056 0.3535
0.0209 -0.8070 0.3535
0.0928 -0.8021 0.3535
0.1641 -0.7910 0.3537
0.2342 -0.7738 0.3540
0.3026 -0.7506 0.3544
0.3689 -0.7215 0.3548
0.4324 -0.6868 0.3554
0.4929 -0.6466 0.3560
0.5497 -0.6013 0.3567
0.6025 -0.5510 0.3575
0.6508 -0.4962 0.3584
0.6942 -0.4373 0.3593
0.7325 -0.3746 0.3602
0.7651 -0.3086 0.3613
0.7919 -0.2398 0.3623
0.8126 -0.1687 0.3634
0.8270 -0.0958 0.3645
0.8349 -0.0217 0.3657
0.8361 0.0530 0.3668
0.8306 0.1278 0.3680
0.8184 0.2020 0.3691
0.7996 0.2751 0.3702
0.7741 0.3464 0.3713
0.7422 0.4152 0.3724
0.7041 0.4811 0.3734
0.1999 0.8266 0.3786
0.1254 0.8416 0.3788
0.0498 0.8497 0.3790
-0.0262 0.8508 0.3790
-0.1020 0.8448 0.3789
-0.1769 0.8319 0.3786
-0.2502 0.8121 0.3783
-0.3213 0.7856 0.3779
-0.3896 0.7528 0.3774
-0.4544 0.7139 0.3768
-0.5154 0.6692 0.3761
-0.5718 0.6193 0.3753
-0.6234 0.5645 0.3744
-0.6696 0.5054 0.3735
-0.7102 0.4425 0.3726
-0.7448 0.3763 0.3715
-0.7732 0.3075 0.3705
-0.7952 0.2365 0.3694
-0.8107 0.1641 0.3683
-0.8196 0.0909 0.3671
-0.8218 0.0173 0.3660
-0.8176 -0.0559 0.3649
-0.8069 -0.1282 0.3638
-0.7898 -0.1991 0.3627
-0.7667 -0.2680 0.3616
-0.7376 -0.3344 0.3606
-0.7030 -0.3978 0.3596
-0.6630 -0.4578 0.3587
-0.6180 -0.5139 0.3579
-0.5684 -0.5658 0.3571
-0.5146 -0.6130 0.3563
-0.4570 -0.6553 0.3557
-0.3961 -0.6924 0.3551
-0.3323 -0.7240 0.3547
-0.2661 -0.7499 0.3543
-0.1980 -0.7700 0.3540
-0.1284 -0.7842 0.3538
-0.0579 -0.7922 0.3537
0.0130 -0.7942 0.3537
0.0839 -0.7900 0.3537
0.1541 -0.7798 0.3539
0.2232 -0.7635 0.3542
0.2908 -0.7413 0.3545
0.3562 -0.7133 0.3550
0.4190 -0.6796 0.3555
0.4788 -0.6406 0.3561
0.5351 -0.5965 0.3568
0.5875 -0.5475 0.3575
0.6355 -0.4941 0.3584
0.6787 -0.4365 0.3593
0.7168 -0.3752 0.3602
0.7495 -0.3106 0.3612
0.7765 -0.2432 0.3623
0.7974 -0.1734 0.3633
0.8122 -0.1019 0.3644
0.8206 -0.0291 0.3656
0.8224 0.0444 0.3667
0.8177 0.1179 0.3678
0.8064 0.1910 0.3690
0.7885 0.2630 0.3701
0.7641 0.3333 0.3711
0.7333 0.4012 0.3722
0.6965 0.4663 0.3732
0.6537 0.5279 0.3741
0.6054 0.5855 0.3750
0.5519 0.6386 0.3758
0.4937 0.6866 0.3765
0.4312 0.7292 0.3772
0.3650 0.7659 0.3777
0.2955 0.7963 0.3782
0.2235 0.8203 0.3785
0.1495 0.8375 0.3788
0.0742 0.8479 0.3789
-0.0017 0.8512 0.3790
-0.0777 0.8475 0.3789
-0.1529 0.8368 0.3787
-0.2268 0.8192 0.3784
-0.2987 0.7949 0.3781
-0.3679 0.7640 0.3776
-0.4340 0.7270 0.3770
-0.4962 0.6842 0.3763
-0.5542 0.6359 0.3756
-0.6074 0.5826 0.3747
-0.6554 0.5249 0.3738
-0.6978 0.4631 0.3729
-0.7343 0.3979 0.3719
-0.7648 0.3299 0.3708
-0.7888 0.2595 0.3697
-0.8064 0.1875 0.3686
-0.8174 0.1145 0.3675
-0.8218 0.0410 0.3664
-0.8197 -0.0324 0.3652
-0.8110 -0.1051 0.3641
-0.7960 -0.1765 0.3630
-0.7748 -0.2461 0.3619
-0.7476 -0.3134 0.3609
-0.7147 -0.3778 0.3599
-0.6764 -0.4389 0.3590
-0.6330 -0.4963 0.3581
-0.5848 -0.5496 0.3573
-0.5323 -0.5983 0.3566
-0.4759 -0.6422 0.3559
-0.4161 -0.6810 0.3553
-0.3531 -0.7144 0.3548
-0.2876 -0.7422 0.3544
-0.2201 -0.7642 0.3541
-0.1509 -0.7803 0.3538
-0.0806 -0.7903 0.3537
-0.0098 -0.7942 0.3536
0.0611 -0.7921 0.3537
0.1316 -0.7837 0.3538
0.2012 -0.7694 0.3541
0.2693 -0.7491 0.3544
0.3354 -0.7229 0.3548
0.3991 -0.6910 0.3553
0.4600 -0.6538 0.3559
0.5174 -0.6112 0.3566
0.5711 -0.5638 0.3573
0.6205 -0.5117 0.3581
0.6653 -0.4554 0.3590
0.7051 -0.3953 0.3599
0.7396 -0.3317 0.3609
0.7685 -0.2651 0.3619
0.7914 -0.1961 0.3630
0.8081 -0.1251 0.3641
0.8186 -0.0526 0.3652
0.8225 0.0207 0.3663
0.8199 0.0943 0.3675
0.8107 0.1676 0.3686
0.7949 0.2400 0.3697
0.7726 0.3109 0.3708
0.7439 0.3797 0.3718
0.7090 0.4457 0.3729
0.6681 0.5085 0.3738
0.6215 0.5675 0.3747
0.5697 0.6220 0.3755
0.5129 0.6717 0.3763
0.4517 0.7161 0.3770
0.3866 0.7547 0.3776
0.3182 0.7872 0.3780
0.2469 0.8133 0.3784
0.1735 0.8327 0.3787
0.0985 0.8453 0.3789
0.0227 0.8509 0.3790
-0.0533 0.8494 0.3789
-0.1288 0.8410 0.3788
-0.2032 0.8256 0.3785
-0.2758 0.8034 0.3782
-0.3460 0.7746 0.3777
-0.4131 0.7396 0.3772
-0.4767 0.6986 0.3765
-0.5361 0.6520 0.3758
-0.5908 0.6003 0.3750
-0.6405 0.5439 0.3741
-0.6848 0.4834 0.3732
-0.7233 0.4192 0.3722
-0.7557 0.3520 0.3712
-0.7818 0.2824 0.3701
-0.8015 0.2108 0.3690
-0.8146 0.1381 0.3679
-0.8211 0.0646 0.3667
-0.8211 -0.0089 0.3656
-0.8145 -0.0818 0.3645
-0.8015 -0.1537 0.3634
-0.7823 -0.2240 0.3623
-0.7570 -0.2920 0.3612
-0.7259 -0.3574 0.3602
-0.6893 -0.4197 0.3593
-0.6475 -0.4783 0.3584
-0.6008 -0.5329 0.3576
-0.5497 -0.5832 0.3568
-0.4945 -0.6287 0.3561
-0.4357 -0.6691 0.3555
-0.3737 -0.7043 0.3550
-0.3089 -0.7339 0.3545
-0.2420 -0.7578 0.3542
-0.1733 -0.7758 0.3539
-0.1033 -0.7877 0.3537
-0.0326 -0.7936 0.3537
0.0383 -0.7934 0.3537
0.1090 -0.7871 0.3538
0.1789 -0.7747 0.3540
0.2475 -0.7562 0.3543
0.3144 -0.7319 0.3547
0.3789 -0.7019 0.3551
0.4407 -0.6663 0.3557
0.4993 -0.6255 0.3563
0.5543 -0.5796 0.3571
0.6051 -0.5290 0.3578
0.6514 -0.4740 0.3587
0.6929 -0.4150 0.3596
0.7291 -0.3525 0.3606
0.7598 -0.2868 0.3616
0.7847 -0.2185 0.3626
0.8034 -0.1481 0.3637
0.8159 -0.0760 0.3648
0.8220 -0.0029 0.3660
0.8215 0.0706 0.3671
0.8144 0.1441 0.3682
0.8007 0.2169 0.3694
0.7805 0.2883 0.3704
0.7538 0.3578 0.3715
0.7209 0.4248 0.3725
0.6819 0.4887 0.3735
0.6371 0.5490 0.3744
0.5869 0.6050 0.3753
0.5317 0.6563 0.3761
0.4719 0.7024 0.3768
0.4080 0.7430 0.3774
0.3405 0.7775 0.3779
0.2701 0.8056 0.3783
0.1973 0.8272 0.3786
0.1228 0.8420 0.3789
0.0472 0.8499 0.3790
-0.0289 0.8507 0.3790
-0.1046 0.8445 0.3788
-0.1795 0.8313 0.3786
