ply
format ascii 1.0
element vertex 2174
property float32 x
property float32 y
property float32 z
end_header
9.7661 3.9729 1.7699
9.3486 4.8156 1.7653
8.8556 5.6136 1.7601
8.2922 6.3600 1.7543
7.6641 7.0487 1.7480
6.9776 7.6742 1.7412
5.2124 6.8768 1.4485
5.4570 8.7182 1.7266
0.9847 1.9386 0.3650
0.8077 2.0185 0.3650
0.6244 2.0824 0.3649
0.4362 2.1297 0.3649
0.2445 2.1600 0.3649
0.0509 2.1732 0.3649
-0.1432 2.1691 0.3649
-0.3361 2.1478 0.3649
-0.5263 2.1094 0.3650
-0.7124 2.0542 0.3650
-0.8929 1.9827 0.3650
-1.0663 1.8955 0.3651
-4.2386 6.1722 1.2569
-6.4825 7.8373 1.7074
-7.1633 7.2356 1.7092
-7.7877 6.5742 1.7109
-8.3503 5.8586 1.7124
-8.8402 5.0908 1.7125
-8.8450 4.0906 1.6359
-9.6040 3.4391 1.7125
-9.8725 2.5688 1.7125
-10.0623 1.6781 1.7125
-10.1718 0.7739 1.7125
-10.2003 -0.1365 1.7125
-10.1475 -1.0457 1.7125
-10.0138 -1.9465 1.7125
-9.8003 -2.8319 1.7125
-9.5086 -3.6947 1.7125
-9.1412 -4.5281 1.7125
-8.3701 -5.1229 1.6474
-8.1855 -6.0759 1.7113
-7.6008 -6.7728 1.7090
-7.0770 -7.5414 1.7361
-6.8338 -8.7271 1.8607
-6.0427 -9.3241 1.8652
-1.0208 -1.9337 0.3671
-0.8443 -2.0173 0.3671
-0.6611 -2.0847 0.3671
-0.4726 -2.1355 0.3672
-0.2802 -2.1692 0.3672
-0.0856 -2.1856 0.3672
0.1097 -2.1845 0.3672
0.3040 -2.1659 0.3672
0.4960 -2.1300 0.3671
0.6839 -2.0771 0.3671
0.8664 -2.0076 0.3671
1.0418 -1.9221 0.3670
5.7505 -8.6630 1.7455
6.5297 -8.1523 1.7534
7.2512 -7.5588 1.7584
7.9193 -6.9018 1.7634
8.5266 -6.1848 1.7683
9.0654 -5.4124 1.7724
9.5305 -4.5911 1.7758
9.9170 -3.7284 1.7785
10.2209 -2.8321 1.7804
4.6793 -0.8563 0.7986
4.5639 -0.4196 0.7694
4.7984 -0.0114 0.8055
10.5634 0.9206 1.7800
10.4267 1.8569 1.7779
10.2029 2.7750 1.7750
9.8945 3.6664 1.7714
9.5047 4.5232 1.7670
9.0377 5.3378 1.7620
8.4985 6.1031 1.7564
7.8926 6.8128 1.7503
7.2259 7.4612 1.7436
6.5052 8.0432 1.7365
5.7398 8.5585 1.7299
1.0453 1.9068 0.3650
0.8709 1.9922 0.3650
0.6897 2.0617 0.3650
0.5031 2.1149 0.3649
0.3124 2.1513 0.3649
0.1193 2.1705 0.3649
-0.0748 2.1725 0.3649
-0.2683 2.1573 0.3649
-0.4596 2.1249 0.3650
-0.6474 2.0756 0.3650
-0.8300 2.0098 0.3650
-1.0061 1.9280 0.3651
-3.9697 6.1896 1.2344
-6.2412 8.0488 1.7098
-6.9294 7.4548 1.7086
-7.5743 6.8139 1.7103
-8.1593 6.1168 1.7119
-8.6755 5.3666 1.7125
-8.4842 4.2529 1.5932
-9.4910 3.7398 1.7125
-9.7867 2.8784 1.7125
-10.0044 1.9941 1.7125
-10.1424 1.0938 1.7125
-10.1995 0.1848 1.7125
-10.1754 -0.7255 1.7125
-10.0701 -1.6303 1.7125
-9.8846 -2.5220 1.7125
-9.6202 -3.3935 1.7125
-9.2792 -4.2380 1.7125
-8.4035 -4.7864 1.6235
-8.3764 -5.8177 1.7120
-7.8141 -6.5332 1.7098
-7.1904 -7.1942 1.7075
-7.1019 -8.5037 1.8599
-6.3273 -9.1207 1.8634
-1.0811 -1.9005 0.3671
-0.9074 -1.9896 0.3671
-0.7264 -2.0628 0.3671
-0.5396 -2.1195 0.3672
-0.3484 -2.1593 0.3672
-0.1544 -2.1818 0.3672
0.0408 -2.1869 0.3672
0.2357 -2.1744 0.3672
0.4287 -2.1446 0.3671
0.6182 -2.0977 0.3671
0.8027 -2.0340 0.3671
0.9808 -1.9540 0.3670
5.4672 -8.8274 1.7430
6.2588 -8.3393 1.7503
7.0139 -7.7882 1.7594
7.6900 -7.1402 1.7616
8.3199 -6.4443 1.7666
8.8836 -5.6907 1.7710
9.3752 -4.8858 1.7747
9.7899 -4.0368 1.7777
10.1234 -3.1515 1.7799
4.8437 -1.0450 0.8318
4.5724 -0.5661 0.7734
4.7437 -0.1607 0.7968
4.9437 0.2744 0.8312
10.4849 1.5284 1.7787
10.2916 2.4539 1.7761
10.0127 3.3556 1.7727
9.6512 4.2255 1.7686
9.2109 5.0558 1.7639
8.6966 5.8393 1.7585
8.1135 6.5693 1.7525
7.4675 7.2399 1.7460
6.7650 7.8458 1.7391
5.0215 7.0004 1.4462
1.1048 1.8730 0.3650
0.9333 1.9638 0.3650
0.7543 2.0391 0.3650
0.5694 2.0981 0.3649
0.3800 2.1404 0.3649
0.1876 2.1657 0.3649
-0.0063 2.1738 0.3649
-0.2002 2.1646 0.3649
-0.3925 2.1383 0.3649
-0.5817 2.0949 0.3650
-0.7663 2.0348 0.3650
-0.9448 1.9586 0.3651
-3.7100 6.2065 1.2138
-6.2192 8.5642 1.7768
-6.6887 7.6664 1.7079
-7.3534 7.0466 1.7097
-7.9602 6.3687 1.7113
-8.5022 5.6371 1.7125
-8.4734 4.5869 1.6175
-9.3685 4.0368 1.7125
-9.6912 3.1852 1.7125
-9.9367 2.3080 1.7125
-10.1029 1.4126 1.7125
-10.1887 0.5058 1.7125
-10.1932 -0.4050 1.7125
-10.1164 -1.3124 1.7125
-9.9591 -2.2095 1.7125
-9.7223 -3.0889 1.7125
-9.4081 -3.9437 1.7125
-8.8618 -4.6842 1.6827
-8.5577 -5.5526 1.7125
-8.0197 -6.2869 1.7106
-7.4169 -6.9677 1.7083
-7.3649 -8.2743 1.8595
-6.6054 -8.9089 1.8618
-5.7976 -9.4839 1.8660
-0.9696 -1.9600 0.3671
-0.7910 -2.0389 0.3671
-0.6060 -2.1014 0.3671
-0.4162 -2.1472 0.3672
-0.2230 -2.1758 0.3672
-0.0281 -2.1871 0.3672
0.1671 -2.1808 0.3672
0.3609 -2.1571 0.3671
0.5519 -2.1162 0.3671
0.7383 -2.0583 0.3671
0.9189 -1.9840 0.3670
5.1794 -8.9829 1.7407
5.9830 -8.5178 1.7474
6.7508 -7.9881 1.7557
7.4547 -7.3723 1.7600
8.1050 -6.6966 1.7649
8.6928 -5.9626 1.7696
9.2104 -5.1750 1.7735
9.6528 -4.3408 1.7767
10.0153 -3.4673 1.7792
10.2943 -2.5627 1.7808
4.6140 -0.7194 0.7839
4.5690 -0.2991 0.7686
4.8931 0.1172 0.8216
10.5323 1.1980 1.7795
10.3697 2.1298 1.7771
10.1206 3.0409 1.7740
9.7878 3.9229 1.7701
9.3748 4.7680 1.7656
8.8861 5.5688 1.7604
8.3266 6.3184 1.7547
7.7021 7.0105 1.7484
7.0188 7.6398 1.7416
5.2628 6.8693 1.4527
5.5048 8.6944 1.7275
0.9947 1.9335 0.3650
0.8182 2.0144 0.3650
0.6352 2.0791 0.3649
0.4472 2.1274 0.3649
0.2557 2.1587 0.3649
0.0621 2.1729 0.3649
-0.1319 2.1698 0.3649
-0.3250 2.1495 0.3649
-0.5154 2.1121 0.3650
-0.7018 2.0579 0.3650
-0.8827 1.9873 0.3650
-1.0565 1.9009 0.3651
-4.1938 6.1751 1.2531
-6.4415 7.8702 1.7073
-7.1254 7.2721 1.7091
-7.7532 6.6140 1.7108
-8.3196 5.9013 1.7123
-8.8137 5.1364 1.7125
-8.7836 4.1174 1.6285
-9.5861 3.4887 1.7125
-9.8591 2.6198 1.7125
-10.0535 1.7300 1.7125
-10.1677 0.8265 1.7125
-10.2009 -0.0838 1.7125
-10.1528 -0.9932 1.7125
-10.0237 -1.8948 1.7125
-9.8148 -2.7813 1.7125
-9.5276 -3.6456 1.7125
-9.1645 -4.4808 1.7125
-8.3756 -5.0670 1.6433
-8.2174 -6.0340 1.7114
-7.6364 -6.7340 1.7091
-6.9971 -7.3796 1.7071
-6.8783 -8.6910 1.8606
-6.0899 -9.2915 1.8649
-1.0308 -1.9284 0.3671
-0.8547 -2.0129 0.3671
-0.6719 -2.0813 0.3671
-0.4836 -2.1330 0.3672
-0.2914 -2.1677 0.3672
-0.0969 -2.1851 0.3672
0.0984 -2.1850 0.3672
0.2928 -2.1674 0.3672
0.4850 -2.1326 0.3671
0.6732 -2.0806 0.3671
0.8560 -2.0121 0.3671
1.0319 -1.9275 0.3670
5.7044 -8.6907 1.7451
6.4849 -8.1829 1.7527
7.2314 -7.6165 1.7631
7.8822 -6.9414 1.7631
8.4932 -6.2279 1.7680
9.0362 -5.4584 1.7722
9.5057 -4.6398 1.7757
9.8968 -3.7793 1.7784
10.2056 -2.8847 1.7803
4.7058 -0.8863 0.8039
4.5621 -0.4432 0.7694
4.7894 -0.0361 0.8040
10.5686 0.8661 1.7801
10.4370 1.8032 1.7780
10.2182 2.7225 1.7752
9.9146 3.6157 1.7716
4.9066 0.1937 0.8554
10.1073 1.3087 1.7755
9.9370 2.2020 1.7731
9.6839 3.0741 1.7700
9.3510 3.9171 1.7662
8.9417 4.7236 1.7617
8.4603 5.4864 1.7567
7.9118 6.1992 1.7510
7.3016 6.8560 1.7449
6.6359 7.4516 1.7383
5.4401 7.3335 1.5907
1.0935 1.7878 0.3651
0.9296 1.8780 0.3650
0.7583 1.9532 0.3650
0.5810 2.0129 0.3650
0.3991 2.0566 0.3650
0.2141 2.0840 0.3650
0.0274 2.0947 0.3650
-0.1596 2.0889 0.3650
-0.3452 2.0664 0.3650
-0.5282 2.0275 0.3650
-0.7070 1.9725 0.3650
-0.8802 1.9018 0.3651
-1.0465 1.8160 0.3651
-6.1332 8.7362 1.8595
-6.3234 7.4861 1.7071
-6.9722 6.8985 1.7087
-7.5667 6.2549 1.7103
-8.1012 5.5597 1.7117
-8.4204 4.7338 1.6828
-8.9642 4.0337 1.7125
-9.2882 3.2181 1.7125
-9.5383 2.3769 1.7125
-9.7122 1.5167 1.7125
-9.8088 0.6444 1.7125
-9.8272 -0.2330 1.7125
-9.7672 -1.1086 1.7125
-9.6294 -1.9753 1.7125
-9.4149 -2.8263 1.7125
-9.1253 -3.6548 1.7125
-8.7629 -4.4541 1.7125
-8.3299 -5.2174 1.7123
-7.8233 -5.9334 1.7105
-7.2539 -6.5994 1.7084
-7.2234 -7.8587 1.8595
-6.4978 -8.4771 1.8607
-5.7261 -9.0389 1.8641
-0.9642 -1.8733 0.3670
-0.7934 -1.9520 0.3671
-0.6162 -2.0151 0.3671
-0.4340 -2.0622 0.3671
-0.2484 -2.0927 0.3671
-0.0607 -2.1065 0.3671
0.1274 -2.1035 0.3671
0.3145 -2.0837 0.3671
0.4991 -2.0472 0.3671
0.6796 -1.9944 0.3671
0.8547 -1.9256 0.3670
1.0229 -1.8414 0.3670
5.6181 -8.2766 1.7427
6.3640 -7.7793 1.7510
7.0680 -7.2171 1.7598
7.6889 -6.5624 1.7610
8.2649 -5.8656 1.7656
8.7745 -5.1164 1.7695
9.2126 -4.3212 1.7727
9.5747 -3.4872 1.7752
9.8572 -2.6219 1.7769
4.6148 -0.7953 0.8158
4.5483 -0.3708 0.7950
4.8063 0.0383 0.8373
10.1473 0.9902 1.7762
10.0066 1.8890 1.7740
9.7824 2.7695 1.7712
9.4773 3.6237 1.7676
9.0945 4.4438 1.7634
8.6380 5.2228 1.7585
8.1125 5.9539 1.7531
7.5234 6.6311 1.7471
6.8766 7.2489 1.7407
5.3897 6.8067 1.5125
5.4339 8.2862 1.7263
0.9883 1.8478 0.3651
0.8194 1.9284 0.3650
0.6441 1.9937 0.3650
0.4637 2.0431 0.3650
0.2796 2.0762 0.3650
0.0933 2.0928 0.3650
-0.0937 2.0928 0.3650
-0.2800 2.0762 0.3650
-0.4641 2.0431 0.3650
-0.6445 1.9937 0.3650
-0.8199 1.9285 0.3651
-0.9887 1.8479 0.3651
-4.0569 6.1840 1.2885
-6.2239 7.8573 1.7462
-6.7492 7.1121 1.7081
-7.3637 6.4880 1.7097
-7.9199 5.8104 1.7112
-8.4128 5.0846 1.7125
-8.4451 4.1247 1.6373
-9.1823 3.5090 1.7125
-9.4587 2.6760 1.7125
-9.6597 1.8217 1.7125
-9.7837 0.9529 1.7125
-9.8297 0.0765 1.7125
-9.7973 -0.8005 1.7125
-9.6869 -1.6712 1.7125
-9.4992 -2.5285 1.7125
-9.2358 -3.3656 1.7125
-8.8988 -4.1760 1.7125
-8.3873 -4.8926 1.6916
-8.0094 -5.6864 1.7112
-7.4615 -6.3706 1.7092
-6.8553 -7.0023 1.7071
-6.7585 -8.2646 1.8599
-6.0034 -8.8476 1.8627
-1.0227 -1.8419 0.3670
-0.8544 -1.9260 0.3671
-0.6793 -1.9947 0.3671
-0.4987 -2.0474 0.3671
-0.3141 -2.0838 0.3671
-0.1270 -2.1036 0.3671
0.0611 -2.1065 0.3671
0.2487 -2.0926 0.3671
0.4344 -2.0620 0.3671
0.6165 -2.0148 0.3671
0.7937 -1.9516 0.3670
0.9644 -1.8728 0.3670
5.3477 -8.4384 1.7404
6.1054 -7.9622 1.7480
6.8263 -7.4240 1.7570
7.4710 -6.7945 1.7593
8.0691 -6.1176 1.7641
8.6027 -5.3862 1.7682
9.0666 -4.6064 1.7717
9.4559 -3.7853 1.7744
9.7669 -2.9301 1.7764
4.7579 -0.9751 0.8461
4.5388 -0.5144 0.7958
4.7515 -0.1118 0.8280
5.0749 0.3343 0.8860
10.0658 1.5737 1.7749
9.8709 2.4616 1.7723
9.5939 3.3260 1.7690
9.2381 4.1590 1.7649
8.8071 4.9533 1.7603
8.3053 5.7020 1.7550
7.7380 6.3988 1.7493
7.1109 7.0381 1.7430
6.4299 7.6149 1.7363
4.9649 7.0747 1.5057
1.0460 1.8159 0.3651
0.8798 1.9017 0.3650
0.7066 1.9724 0.3650
0.5278 2.0275 0.3650
0.3449 2.0664 0.3650
0.1592 2.0889 0.3650
-0.0278 2.0947 0.3650
-0.2145 2.0840 0.3650
-0.3995 2.0567 0.3650
-0.5814 2.0130 0.3650
-0.7587 1.9533 0.3651
-0.9300 1.8780 0.3651
-3.7943 6.2010 1.2665
-6.2117 8.3705 1.8159
-6.5195 7.3185 1.7075
-7.1534 6.7145 1.7092
-7.7307 6.0551 1.7107
-8.2466 5.3458 1.7121
-8.4170 4.4445 1.6582
-9.0673 3.7964 1.7125
-9.3697 2.9725 1.7125
-9.5975 2.1250 1.7125
-9.7488 1.2605 1.7125
-9.8224 0.3860 1.7125
-9.8177 -0.4916 1.7125
-9.7347 -1.3653 1.7125
-9.5741 -2.2281 1.7125
-9.3372 -3.0732 1.7125
-9.0259 -3.8937 1.7125
-8.5944 -4.6570 1.7029
-8.1875 -5.4334 1.7118
-7.6617 -6.1351 1.7099
-7.0750 -6.7855 1.7078
-7.0141 -8.0461 1.8595
-6.2751 -8.6488 1.8615
-1.0801 -1.8087 0.3670
-0.9146 -1.8980 0.3670
-0.7418 -1.9722 0.3671
-0.5629 -2.0307 0.3671
-0.3796 -2.0729 0.3671
-0.1932 -2.0985 0.3671
-0.0053 -2.1074 0.3671
0.1827 -2.0994 0.3671
0.3692 -2.0747 0.3671
0.5528 -2.0333 0.3671
0.7318 -1.9757 0.3670
0.9050 -1.9024 0.3670
1.0710 -1.8138 0.3670
5.8440 -8.1398 1.7457
6.5754 -7.6194 1.7533
7.2539 -7.0269 1.7594
7.8653 -6.3628 1.7624
8.4223 -5.6499 1.7668
8.9113 -4.8865 1.7705
9.3274 -4.0791 1.7735
9.6664 -3.2351 1.7758
9.9249 -2.3620 1.7773
4.5813 -0.6659 0.8065
4.5533 -0.2508 0.7944
4.9075 0.1683 0.8554
10.1146 1.2565 1.7756
9.9491 2.1508 1.7733
9.7008 3.0244 1.7702
9.3724 3.8693 1.7664
8.9674 4.6780 1.7620
8.4900 5.4436 1.7570
7.9452 6.1594 1.7514
7.3385 6.8196 1.7452
6.6758 7.4189 1.7387
5.5135 7.3527 1.6010
1.1027 1.7821 0.3651
0.9393 1.8732 0.3650
0.7684 1.9493 0.3650
0.5914 2.0099 0.3650
0.4098 2.0545 0.3650
0.2249 2.0828 0.3650
0.0382 2.0946 0.3650
-0.1488 2.0897 0.3650
-0.3346 2.0682 0.3650
-0.5177 2.0302 0.3650
-0.6968 1.9761 0.3650
-0.8704 1.9063 0.3651
-1.0371 1.8213 0.3651
-6.0879 8.7678 1.8595
-6.2847 7.5186 1.7071
-6.9361 6.9340 1.7086
-7.5339 6.2936 1.7102
-8.0720 5.6013 1.7116
-8.5437 4.8614 1.7125
-8.9431 4.0800 1.7125
-9.2715 3.2661 1.7125
-9.5258 2.4262 1.7125
-9.7043 1.5668 1.7125
-9.8054 0.6951 1.7125
-9.8283 -0.1823 1.7125
-9.7728 -1.0581 1.7125
-9.6395 -1.9256 1.7125
-9.4294 -2.7776 1.7125
-9.1441 -3.6076 1.7125
-8.7858 -4.4088 1.7125
-8.3572 -5.1746 1.7124
-7.8543 -5.8933 1.7107
-7.2885 -6.5623 1.7086
-7.2639 -7.8213 1.8595
-6.5408 -8.4423 1.8605
-5.7722 -9.0084 1.8639
-0.9739 -1.8682 0.3670
-0.8035 -1.9478 0.3671
-0.6266 -2.0119 0.3671
-0.4447 -2.0599 0.3671
-0.2592 -2.0914 0.3671
-0.0716 -2.1062 0.3671
0.1165 -2.1042 0.3671
0.3037 -2.0853 0.3671
0.4885 -2.0498 0.3671
0.6693 -1.9979 0.3671
0.8447 -1.9300 0.3670
1.0134 -1.8467 0.3670
5.5741 -8.3038 1.7423
6.3216 -7.8095 1.7504
7.0310 -7.2538 1.7599
7.6537 -6.6010 1.7607
8.2333 -5.9074 1.7653
8.7469 -5.1611 1.7693
9.1893 -4.3684 1.7725
9.5559 -3.5364 1.7751
9.8431 -2.6727 1.7769
4.6214 -0.8210 0.8177
4.5472 -0.3944 0.7952
4.7973 0.0134 0.8357
10.1529 0.9378 1.7763
10.0170 1.8374 1.7742
9.7976 2.7192 1.7714
9.4971 3.5751 1.7678
9.1187 4.3974 1.7636
8.6663 5.1790 1.7588
8.1447 5.9130 1.7534
7.5591 6.5935 1.7475
6.9155 7.2148 1.7410
5.4319 6.7876 1.5145
5.4795 8.2623 1.7272
0.9978 1.8427 0.3651
0.8294 1.9242 0.3650
0.6544 1.9903 0.3650
0.4743 2.0406 0.3650
0.2904 2.0747 0.3650
0.1041 2.0923 0.3650
-0.0829 2.0933 0.3650
-0.2693 2.0776 0.3650
-0.4535 2.0455 0.3650
-0.6342 1.9970 0.3650
-0.8099 1.9327 0.3651
-0.9792 1.8530 0.3651
-4.0132 6.1868 1.2847
-6.2219 7.9388 1.7572
-6.7119 7.1465 1.7080
-7.3297 6.5256 1.7096
-7.8894 5.8510 1.7111
-8.3863 5.1280 1.7125
-8.4264 4.1696 1.6378
-9.1641 3.5564 1.7125
-9.4447 2.7249 1.7125
-9.6501 1.8716 1.7125
-9.7786 1.0035 1.7125
-9.8291 0.1273 1.7125
-9.8013 -0.7499 1.7125
-9.6954 -1.6211 1.7125
-9.5121 -2.4794 1.7125
-9.2531 -3.3179 1.7125
-8.9203 -4.1299 1.7125
-8.3927 -4.8378 1.6876
-8.0392 -5.6453 1.7113
-7.4948 -6.3324 1.7093
-6.9095 -6.9850 1.7116
-6.8008 -8.2292 1.8598
-6.0485 -8.8157 1.8625
-1.0322 -1.8366 0.3670
-0.8644 -1.9215 0.3671
-0.6896 -1.9911 0.3671
-0.5093 -2.0448 0.3671
-0.3249 -2.0822 0.3671
-0.1379 -2.1029 0.3671
0.0502 -2.1068 0.3671
0.2379 -2.0939 0.3671
0.4237 -2.0642 0.3671
0.6061 -2.0180 0.3671
0.7836 -1.9557 0.3670
0.9548 -1.8778 0.3670
5.3028 -8.4639 1.7400
6.0630 -7.9921 1.7476
6.7857 -7.4569 1.7564
7.4346 -6.8319 1.7590
8.0362 -6.1583 1.7638
8.5737 -5.4299 1.7680
9.0417 -4.6527 1.7715
9.4355 -3.8338 1.7743
9.7511 -2.9804 1.7763
4.7855 -1.0066 0.8519
4.5462 -0.5390 0.7975
4.7426 -0.1361 0.8265
4.9601 0.3010 0.8657
10.0746 1.5218 1.7750
9.8844 2.4108 1.7724
9.6122 3.2767 1.7692
9.2608 4.1117 1.7652
8.8340 4.9085 1.7606
8.3362 5.6600 1.7554
7.7726 6.3600 1.7496
7.1487 7.0028 1.7434
6.4707 7.5833 1.7367
5.0348 7.0961 1.5158
1.0554 1.8105 0.3651
0.8896 1.8972 0.3650
0.7168 1.9688 0.3650
0.5383 2.0247 0.3650
0.3555 2.0646 0.3650
0.1700 2.0880 0.3650
-0.0169 2.0949 0.3650
-0.2037 2.0851 0.3650
-0.3889 2.0587 0.3650
-0.5710 2.0159 0.3650
-0.7486 1.9572 0.3650
-0.9203 1.8828 0.3651
-3.7520 6.2038 1.2631
-6.2096 8.4587 1.8280
-6.4813 7.3516 1.7074
-7.1182 6.7510 1.7091
-7.6990 6.0947 1.7106
-8.2185 5.3881 1.7120
-8.4157 4.4996 1.6625
-9.0475 3.8432 1.7125
-9.3542 3.0210 1.7125
-9.5864 2.1746 1.7125
-9.7422 1.3109 1.7125
-9.8202 0.4367 1.7125
-9.8201 -0.4409 1.7125
-9.7416 -1.3150 1.7125
-9.5855 -2.1786 1.7125
-9.3530 -3.0248 1.7125
-9.0459 -3.8470 1.7125
-8.6668 -4.6385 1.7125
-8.2159 -5.3913 1.7119
-7.6938 -6.0959 1.7101
-7.1105 -6.7493 1.7079
-7.0556 -8.0098 1.8595
-6.3193 -8.6156 1.8614
-1.0895 -1.8031 0.3670
-0.9244 -1.8933 0.3670
-0.7519 -1.9684 0.3671
-0.5734 -2.0277 0.3671
-0.3903 -2.0709 0.3671
-0.2040 -2.0975 0.3671
-0.0162 -2.1073 0.3671
0.1719 -2.1003 0.3671
0.3585 -2.0765 0.3671
0.5422 -2.0361 0.3671
0.7216 -1.9795 0.3670
0.8952 -1.9070 0.3670
1.0616 -1.8193 0.3670
5.7998 -8.1670 1.7450
6.5337 -7.6506 1.7527
7.2178 -7.0646 1.7595
7.8311 -6.4024 1.7622
8.3918 -5.6926 1.7666
8.8849 -4.9319 1.7703
9.3054 -4.1269 1.7734
9.6490 -3.2848 1.7757
9.9122 -2.4132 1.7772
4.5878 -0.6910 0.8083
4.5523 -0.2743 0.7945
4.8946 0.1426 0.8530
10.1216 1.2043 1.7757
9.9609 2.0996 1.7734
9.7174 2.9745 1.7704
9.3935 3.8213 1.7667
8.9928 4.6323 1.7623
8.5195 5.4006 1.7573
7.9785 6.1194 1.7517
7.3752 6.7830 1.7456
6.7155 7.3860 1.7391
6.0060 7.9238 1.7321
1.1119 1.7764 0.3651
0.9489 1.8683 0.3651
0.7784 1.9453 0.3650
0.6018 2.0068 0.3650
0.4204 2.0524 0.3650
0.2356 2.0816 0.3650
0.0490 2.0943 0.3650
-0.1380 2.0904 0.3650
-0.3239 2.0699 0.3650
-0.5072 2.0329 0.3650
-0.6866 1.9797 0.3650
-0.8605 1.9108 0.3651
-1.0276 1.8267 0.3651
-4.2386 6.1722 1.3044
-6.2457 7.5510 1.7071
-6.8997 6.9694 1.7085
-7.5009 6.3321 1.7101
-8.0426 5.6427 1.7115
-8.5185 4.9055 1.7125
-8.8211 4.0795 1.6931
-9.2545 3.3139 1.7125
-9.5132 2.4754 1.7125
-9.6960 1.6170 1.7125
-9.8016 0.7457 1.7125
-9.8291 -0.1314 1.7125
-9.7782 -1.0076 1.7125
-9.6493 -1.8757 1.7125
-9.4436 -2.7289 1.7125
-9.1626 -3.5603 1.7125
-8.8085 -4.3633 1.7125
-8.3646 -5.1196 1.7085
-7.8852 -5.8530 1.7108
-7.3228 -6.5251 1.7087
-7.0211 -7.4819 1.7875
-6.5839 -8.4079 1.8604
-5.8181 -8.9776 1.8637
-0.9835 -1.8632 0.3670
-0.8135 -1.9437 0.3671
-0.6370 -2.0086 0.3671
-0.4553 -2.0576 0.3671
-0.2700 -2.0900 0.3671
-0.0825 -2.1058 0.3671
0.1056 -2.1047 0.3671
0.2929 -2.0868 0.3671
0.4779 -2.0523 0.3671
0.6590 -2.0013 0.3671
0.8347 -1.9343 0.3670
1.0038 -1.8519 0.3670
5.5299 -8.3307 1.7419
6.2791 -7.8395 1.7498
6.9922 -7.2887 1.7596
7.6182 -6.6394 1.7605
8.2015 -5.9491 1.7651
8.7191 -5.2056 1.7691
9.1657 -4.4154 1.7724
9.5368 -3.5855 1.7750
9.8287 -2.7234 1.7768
4.6488 -0.8507 0.8233
4.5462 -0.4180 0.7953
4.7882 -0.0114 0.8342
10.1581 0.8853 1.7764
10.0272 1.7858 1.7743
9.8126 2.6688 1.7716
9.5167 3.5264 1.7681
9.1426 4.3509 1.7639
8.6944 5.1350 1.7591
8.1767 5.8720 1.7537
7.5947 6.5557 1.7478
6.9542 7.1806 1.7414
5.4928 6.7914 1.5217
5.5249 8.2381 1.7280
1.0073 1.8376 0.3651
0.8393 1.9199 0.3650
0.6647 1.9869 0.3650
0.4848 2.0382 0.3650
0.3011 2.0732 0.3650
0.1150 2.0918 0.3650
-0.0721 2.0937 0.3650
-0.2585 2.0790 0.3650
-0.4430 2.0478 0.3650
-0.6239 2.0003 0.3650
-0.7999 1.9368 0.3651
-0.9696 1.8580 0.3651
-3.9697 6.1897 1.2810
-6.2200 8.0214 1.7683
-6.6745 7.1806 1.7079
-7.2955 6.5631 1.7096
-7.8587 5.8914 1.7111
-8.3593 5.1710 1.7124
-8.4237 4.2226 1.6416
-9.1456 3.6037 1.7125
-9.4305 2.7736 1.7125
-9.6403 1.9215 1.7125
-9.7733 1.0540 1.7125
-9.8283 0.1781 1.7125
-9.8051 -0.6992 1.7125
-9.7036 -1.5710 1.7125
-9.5248 -2.4302 1.7125
-9.2701 -3.2700 1.7125
-8.9415 -4.0838 1.7125
-8.3981 -4.7833 1.6837
-8.0687 -5.6040 1.7114
-7.5280 -6.2940 1.7094
-6.9277 -6.9315 1.7072
-6.8430 -8.1936 1.8597
-6.0935 -8.7836 1.8624
-1.0417 -1.8312 0.3670
-0.8743 -1.9170 0.3671
-0.6999 -1.9875 0.3671
-0.5199 -2.0422 0.3671
-0.3357 -2.0805 0.3671
-0.1488 -2.1022 0.3671
0.0393 -2.1070 0.3671
0.2271 -2.0951 0.3671
0.4130 -2.0664 0.3671
0.5956 -2.0211 0.3671
0.7735 -1.9597 0.3670
0.9450 -1.8827 0.3670
5.2577 -8.4891 1.7396
6.0203 -8.0217 1.7472
6.7448 -7.4893 1.7558
7.3996 -6.8705 1.7591
8.0031 -6.1989 1.7635
8.5444 -5.4734 1.7677
9.0166 -4.6989 1.7713
9.4148 -3.8822 1.7741
9.7350 -3.0306 1.7762
4.8000 -1.0356 0.8554
4.5542 -0.5638 0.7994
4.7337 -0.1604 0.8251
4.9028 0.2721 0.8554
10.0830 1.4698 1.7751
9.8977 2.3599 1.7726
9.6301 3.2274 1.7694
9.2832 4.0644 1.7654
8.8607 4.8635 1.7609
8.3669 5.6179 1.7557
7.8069 6.3210 1.7500
7.1863 6.9673 1.7437
6.5113 7.5515 1.7371
5.3310 7.4318 1.5934
1.0647 1.8050 0.3651
0.8994 1.8926 0.3650
0.7269 1.9650 0.3650
0.5487 2.0219 0.3650
0.3662 2.0627 0.3650
0.1808 2.0871 0.3650
-0.0061 2.0949 0.3650
-0.1929 2.0861 0.3650
-0.3782 2.0607 0.3650
-0.5606 2.0188 0.3650
-0.7385 1.9610 0.3650
-0.9105 1.8875 0.3651
-3.7100 6.2065 1.2597
-6.2074 8.5480 1.8404
-6.4428 7.3846 1.7073
-7.0828 6.7873 1.7090
-7.6670 6.1341 1.7105
-8.1902 5.4303 1.7119
-8.4152 4.5554 1.6670
-9.0275 3.8899 1.7125
-9.3385 3.0692 1.7125
-9.5750 2.2240 1.7125
-9.7353 1.3612 1.7125
-9.8179 0.4875 1.7125
-9.8222 -0.3901 1.7125
-9.7483 -1.2646 1.7125
-9.5966 -2.1291 1.7125
-9.3685 -2.9765 1.7125
-9.0657 -3.8002 1.7125
-8.6906 -4.5937 1.7125
-8.2441 -5.3491 1.7120
-7.7258 -6.0565 1.7102
-7.1458 -6.7130 1.7080
-7.0969 -7.9732 1.8595
-6.3632 -8.5822 1.8612
-1.0988 -1.7974 0.3670
-0.9342 -1.8885 0.3670
-0.7621 -1.9644 0.3671
-0.5839 -2.0247 0.3671
-0.4010 -2.0688 0.3671
-0.2149 -2.0964 0.3671
-0.0270 -2.1072 0.3671
0.1610 -2.1012 0.3671
0.3478 -2.0784 0.3671
0.5317 -2.0389 0.3671
0.7114 -1.9832 0.3670
0.8853 -1.9116 0.3670
1.0522 -1.8248 0.3670
5.7555 -8.1939 1.7444
6.4928 -7.6828 1.7524
7.1816 -7.1021 1.7596
7.7967 -6.4418 1.7619
8.3612 -5.7352 1.7663
8.8583 -4.9772 1.7701
9.2831 -4.1745 1.7732
9.6312 -3.3344 1.7756
9.8992 -2.4643 1.7772
4.5944 -0.7163 0.8101
4.5514 -0.2979 0.7946
4.8727 0.1167 0.8491
10.1283 1.1521 1.7758
9.9725 2.0482 1.7736
9.7337 2.9246 1.7706
9.4144 3.7732 1.7669
9.0180 4.5865 1.7626
8.5488 5.3574 1.7576
8.0115 6.0793 1.7520
7.4117 6.7462 1.7460
6.7551 7.3528 1.7395
6.0483 7.8945 1.7325
5.2907 8.3562 1.7230
0.9586 1.8634 0.3651
0.7885 1.9412 0.3650
0.6121 2.0037 0.3650
0.4310 2.0502 0.3650
0.2464 2.0804 0.3650
0.0599 2.0941 0.3650
-0.1272 2.0911 0.3650
-0.3132 2.0715 0.3650
-0.4967 2.0354 0.3650
-0.6763 1.9832 0.3650
-0.8506 1.9152 0.3651
-1.0182 1.8319 0.3651
-4.1938 6.1751 1.3004
-6.2353 7.6182 1.7150
-6.8632 7.0045 1.7084
-7.4677 6.3705 1.7100
-8.0130 5.6839 1.7115
-8.4930 4.9494 1.7125
-8.7019 4.0791 1.6742
-9.2372 3.3618 1.7125
-9.5003 2.5244 1.7125
-9.6876 1.6671 1.7125
-9.7976 0.7964 1.7125
-9.8296 -0.0806 1.7125
-9.7833 -0.9571 1.7125
-9.6589 -1.8259 1.7125
-9.4576 -2.6800 1.7125
-9.1808 -3.5129 1.7125
-8.8309 -4.3177 1.7125
-8.3702 -5.0637 1.7043
-7.9159 -5.8126 1.7109
-7.3570 -6.4876 1.7088
-6.8745 -7.2502 1.7406
-6.6269 -8.3733 1.8603
-5.8638 -8.9466 1.8635
-0.9931 -1.8580 0.3670
-0.8235 -1.9394 0.3671
-0.6473 -2.0053 0.3671
-0.4659 -2.0552 0.3671
-0.2808 -2.0886 0.3671
-0.0934 -2.1053 0.3671
0.0948 -2.1053 0.3671
0.2822 -2.0883 0.3671
0.4673 -2.0547 0.3671
0.6486 -2.0047 0.3671
0.8247 -1.9386 0.3670
0.9942 -1.8571 0.3670
5.4856 -8.3574 1.7416
6.2364 -7.8693 1.7492
6.9519 -7.3221 1.7589
7.5826 -6.6776 1.7602
8.1695 -5.9905 1.7648
8.6910 -5.2499 1.7689
9.1419 -4.4622 1.7722
9.5175 -3.6344 1.7748
9.8140 -2.7740 1.7767
4.6749 -0.8805 0.8287
4.5452 -0.4416 0.7955
4.7792 -0.0360 0.8326
10.1631 0.8329 1.7765
10.0371 1.7341 1.7745
9.8272 2.6183 1.7717
9.5359 3.4776 1.7683
4.7813 0.1887 0.8640
9.7333 1.2603 1.7722
9.5697 2.1206 1.7699
9.3267 2.9607 1.7669
9.0067 3.7729 1.7632
8.6133 4.5501 1.7589
8.1504 5.2854 1.7540
7.6229 5.9728 1.7486
7.0359 6.6065 1.7427
6.3953 7.1815 1.7364
5.4472 7.3431 1.6509
1.0551 1.7250 0.3651
0.8969 1.8121 0.3651
0.7317 1.8847 0.3650
0.5606 1.9423 0.3650
0.3851 1.9844 0.3650
0.2066 2.0108 0.3650
0.0264 2.0212 0.3650
-0.1540 2.0156 0.3650
-0.3331 1.9939 0.3650
-0.5097 1.9564 0.3650
-0.6822 1.9033 0.3651
-0.8493 1.8351 0.3651
-1.0097 1.7522 0.3652
-5.9174 8.4288 1.8595
-6.2240 7.3684 1.7416
-6.7242 6.6531 1.7080
-7.2974 6.0323 1.7096
-7.8126 5.3617 1.7109
-8.2655 4.6468 1.7121
-8.6488 3.8918 1.7125
-8.9614 3.1049 1.7125
-9.2026 2.2933 1.7125
-9.3705 1.4633 1.7125
-9.4637 0.6217 1.7125
-9.4814 -0.2248 1.7125
-9.4236 -1.0696 1.7125
-9.2906 -1.9058 1.7125
-9.0836 -2.7269 1.7125
-8.8042 -3.5262 1.7125
-8.4546 -4.2974 1.7125
-8.0332 -5.0316 1.7116
-7.5456 -5.7228 1.7100
-6.9972 -6.3658 1.7081
-6.9692 -7.5822 1.8595
-6.2678 -8.1770 1.8603
-1.0876 -1.7168 0.3670
-0.9302 -1.8072 0.3670
-0.7654 -1.8831 0.3670
-0.5944 -1.9440 0.3671
-0.4187 -1.9894 0.3671
-0.2396 -2.0189 0.3671
-0.0586 -2.0322 0.3671
0.1229 -2.0293 0.3671
0.3034 -2.0102 0.3671
0.4814 -1.9750 0.3671
0.6556 -1.9240 0.3670
0.8245 -1.8577 0.3670
0.9868 -1.7765 0.3669
5.4083 -7.9676 1.7388
6.1241 -7.4861 1.7464
6.8061 -6.9496 1.7564
7.4066 -6.3215 1.7582
7.9607 -5.6497 1.7626
8.4509 -4.9277 1.7664
8.8722 -4.1616 1.7695
9.2205 -3.3582 1.7719
9.4922 -2.5248 1.7735
4.5951 -0.7919 0.8419
4.5307 -0.3694 0.8208
4.7374 0.0377 0.8554
9.7717 0.9535 1.7728
9.6366 1.8192 1.7708
9.4213 2.6673 1.7680
9.1281 3.4901 1.7646
8.7602 4.2805 1.7605
8.3213 5.0313 1.7558
7.8160 5.7363 1.7506
7.2493 6.3895 1.7448
6.6269 6.9857 1.7386
5.3756 6.7889 1.5636
1.1089 1.6910 0.3651
0.9536 1.7830 0.3651
0.7907 1.8607 0.3651
0.6215 1.9237 0.3650
0.4474 1.9714 0.3650
0.2698 2.0033 0.3650
0.0901 2.0194 0.3650
-0.0904 2.0194 0.3650
-0.2702 2.0034 0.3650
-0.4478 1.9714 0.3650
-0.6219 1.9238 0.3651
-0.7911 1.8608 0.3651
-0.9540 1.7831 0.3651
-4.0569 6.1840 1.3355
-6.2126 7.8432 1.8067
-6.5092 6.8593 1.7075
-7.1017 6.2572 1.7090
-7.6378 5.6035 1.7105
-8.1132 4.9036 1.7117
-8.4314 4.1180 1.6943
-8.8592 3.3855 1.7125
-9.1258 2.5819 1.7125
-9.3198 1.7576 1.7125
-9.4394 0.9194 1.7125
-9.4838 0.0738 1.7125
-9.4526 -0.7723 1.7125
-9.3460 -1.6124 1.7125
-9.1649 -2.4395 1.7125
-8.9108 -3.2472 1.7125
-8.5857 -4.0290 1.7125
-8.1897 -4.7773 1.7120
-7.7248 -5.4843 1.7106
-7.1971 -6.1449 1.7088
-6.6266 -6.7687 1.7104
-6.5203 -7.9733 1.8598
-5.7896 -8.5325 1.8619
-0.9866 -1.7769 0.3670
-0.8243 -1.8580 0.3670
-0.6553 -1.9243 0.3671
-0.4811 -1.9752 0.3671
-0.3031 -2.0103 0.3671
-0.1225 -2.0293 0.3671
0.0589 -2.0322 0.3671
0.2400 -2.0188 0.3671
0.4190 -1.9892 0.3671
0.5947 -1.9437 0.3670
0.7657 -1.8828 0.3670
0.9304 -1.8068 0.3670
5.1448 -8.1182 1.7354
5.8750 -7.6617 1.7433
6.5697 -7.1450 1.7526
7.2050 -6.5525 1.7585
7.7724 -5.8927 1.7612
8.2856 -5.1877 1.7651
8.7318 -4.4363 1.7685
9.1062 -3.6453 1.7711
9.4053 -2.8216 1.7730
4.7180 -0.9670 0.8696
4.5226 -0.5125 0.8218
4.7414 -0.1116 0.8564
4.9764 0.3278 0.9005
9.6935 1.5155 1.7716
9.5062 2.3707 1.7691
9.2402 3.2033 1.7659
8.8982 4.0059 1.7620
8.4838 4.7715 1.7575
8.0014 5.4933 1.7525
7.4558 6.1654 1.7469
6.8524 6.7823 1.7409
6.1971 7.3391 1.7344
4.9476 7.0500 1.5552
1.0093 1.7521 0.3651
0.8489 1.8350 0.3651
0.6818 1.9032 0.3650
0.5093 1.9563 0.3650
0.3328 1.9939 0.3650
0.1536 2.0156 0.3650
-0.0268 2.0212 0.3650
-0.2070 2.0109 0.3650
-0.3855 1.9845 0.3650
-0.5610 1.9423 0.3651
-0.7321 1.8847 0.3651
-0.8974 1.8121 0.3651
-1.0556 1.7251 0.3652
-6.1372 8.2701 1.8595
-6.2889 7.0595 1.7071
-6.8989 6.4756 1.7085
-7.4555 5.8395 1.7100
-7.9528 5.1553 1.7113
-8.3866 4.4285 1.7125
-8.7482 3.6628 1.7125
-9.0400 2.8679 1.7125
-9.2598 2.0502 1.7125
-9.4058 1.2161 1.7125
-9.4767 0.3724 1.7125
-9.4722 -0.4743 1.7125
-9.3921 -1.3173 1.7125
-9.2372 -2.1497 1.7125
-9.0087 -2.9650 1.7125
-8.7083 -3.7567 1.7125
-8.3380 -4.5181 1.7124
-7.8962 -5.2401 1.7112
-7.3900 -5.9176 1.7095
-6.8248 -6.5455 1.7075
-6.7673 -7.7630 1.8595
-6.0526 -8.3421 1.8610
-1.0420 -1.7449 0.3670
-0.8824 -1.8311 0.3670
-0.7156 -1.9026 0.3670
-0.5431 -1.9590 0.3671
-0.3662 -1.9997 0.3671
-0.1864 -2.0245 0.3671
-0.0051 -2.0330 0.3671
0.1763 -2.0253 0.3671
0.3562 -2.0014 0.3671
0.5332 -1.9616 0.3670
0.7060 -1.9060 0.3670
0.8731 -1.8352 0.3670
1.0332 -1.7498 0.3669
5.6238 -7.8332 1.7412
6.3287 -7.3335 1.7491
6.9970 -6.7780 1.7590
7.5763 -6.1291 1.7596
8.1121 -5.4419 1.7638
8.5824 -4.7061 1.7674
8.9826 -3.9283 1.7703
9.3087 -3.1153 1.7724
9.5573 -2.2746 1.7739
4.5619 -0.6631 0.8324
4.5357 -0.2498 0.8202
4.7555 0.1631 0.8592
9.7403 1.2100 1.7723
9.5814 2.0713 1.7700
9.3428 2.9128 1.7671
9.0273 3.7268 1.7634
8.6380 4.5062 1.7592
8.1790 5.2441 1.7543
7.6551 5.9344 1.7489
7.0714 6.5714 1.7431
6.4337 7.1499 1.7367
5.7533 7.6725 1.7316
1.0640 1.7196 0.3651
0.9063 1.8074 0.3651
0.7414 1.8809 0.3650
0.5707 1.9394 0.3650
0.3954 1.9824 0.3650
0.2170 2.0097 0.3650
0.0369 2.0211 0.3650
-0.1435 2.0164 0.3650
-0.3228 1.9956 0.3650
-0.4996 1.9590 0.3650
-0.6723 1.9068 0.3651
-0.8398 1.8394 0.3651
-1.0007 1.7574 0.3652
-5.8737 8.4592 1.8595
-6.2222 7.4439 1.7518
-6.6894 6.6874 1.7079
-7.2658 6.0696 1.7095
-7.7845 5.4018 1.7109
-8.2411 4.6893 1.7121
-8.6285 3.9364 1.7125
-8.9452 3.1512 1.7125
-9.1906 2.3408 1.7125
-9.3628 1.5117 1.7125
-9.4603 0.6706 1.7125
-9.4824 -0.1758 1.7125
-9.4290 -1.0209 1.7125
-9.3003 -1.8578 1.7125
-9.0976 -2.6799 1.7125
-8.8223 -3.4806 1.7125
-8.4767 -4.2536 1.7125
-8.0595 -4.9902 1.7116
-7.5755 -5.6841 1.7101
-7.0305 -6.3300 1.7082
-7.0083 -7.5461 1.8595
-6.3092 -8.1434 1.8601
-1.0964 -1.7111 0.3670
-0.9395 -1.8023 0.3670
-0.7751 -1.8791 0.3670
-0.6045 -1.9409 0.3671
-0.4290 -1.9872 0.3671
-0.2500 -2.0176 0.3671
-0.0691 -2.0319 0.3671
0.1124 -2.0299 0.3671
0.2930 -2.0117 0.3671
0.4712 -1.9774 0.3671
0.6457 -1.9274 0.3670
0.8149 -1.8619 0.3670
0.9776 -1.7816 0.3669
5.3651 -7.9925 1.7382
6.0834 -7.5153 1.7459
6.7678 -6.9823 1.7558
7.3727 -6.3587 1.7580
7.9303 -5.6900 1.7624
8.4243 -4.9707 1.7662
8.8498 -4.2070 1.7693
9.2024 -3.4056 1.7718
9.4786 -2.5737 1.7735
4.6016 -0.8175 0.8439
4.5297 -0.3929 0.8210
4.7376 0.0132 0.8554
9.7770 0.9031 1.7729
9.6466 1.7695 1.7709
9.4359 2.6188 1.7682
9.1471 3.4434 1.7648
8.7834 4.2358 1.7608
8.3485 4.9891 1.7561
7.8469 5.6968 1.7509
7.2837 6.3532 1.7452
6.6643 6.9528 1.7390
5.4186 6.7710 1.5659
5.2722 7.9497 1.7224
0.9628 1.7780 0.3651
0.8003 1.8566 0.3651
0.6314 1.9205 0.3650
0.4576 1.9690 0.3650
0.2802 2.0019 0.3650
0.1005 2.0189 0.3650
-0.0800 2.0199 0.3650
-0.2598 2.0047 0.3650
-0.4376 1.9737 0.3650
-0.6120 1.9269 0.3651
-0.7815 1.8649 0.3651
-0.9448 1.7879 0.3651
-4.0132 6.1869 1.3316
-6.2107 7.9245 1.8180
-6.4733 6.8924 1.7074
-7.0689 6.2934 1.7089
-7.6084 5.6426 1.7104
-8.0874 4.9452 1.7117
-8.4166 4.1648 1.6956
-8.8416 3.4312 1.7125
-9.1124 2.6290 1.7125
-9.3105 1.8058 1.7125
-9.4345 0.9682 1.7125
-9.4833 0.1228 1.7125
-9.4564 -0.7235 1.7125
-9.3542 -1.5640 1.7125
-9.1774 -2.3921 1.7125
-8.9275 -3.2011 1.7125
-8.6064 -3.9846 1.7125
-8.2146 -4.7351 1.7120
-7.7534 -5.4447 1.7107
-7.2293 -6.1080 1.7089
-6.6489 -6.7216 1.7071
-6.5612 -7.9393 1.8597
-5.8333 -8.5020 1.8617
-0.9958 -1.7718 0.3670
-0.8339 -1.8537 0.3670
-0.6653 -1.9209 0.3671
-0.4913 -1.9727 0.3671
-0.3134 -2.0087 0.3671
-0.1330 -2.0287 0.3671
0.0484 -2.0325 0.3671
0.2295 -2.0200 0.3671
0.4087 -1.9913 0.3671
0.5847 -1.9468 0.3670
0.7559 -1.8867 0.3670
0.9211 -1.8116 0.3670
1.0788 -1.7219 0.3669
5.8342 -7.6906 1.7430
6.5298 -7.1757 1.7518
7.1713 -6.5900 1.7586
7.7407 -5.9319 1.7609
8.2577 -5.2298 1.7649
8.7079 -4.4809 1.7683
9.0866 -3.6920 1.7710
9.3901 -2.8701 1.7729
4.7499 -0.9991 0.8764
4.5281 -0.5369 0.8233
4.7326 -0.1359 0.8549
5.0103 0.3041 0.9063
9.7019 1.4655 1.7717
9.5192 2.3218 1.7692
9.2577 3.1559 1.7661
8.9200 3.9604 1.7623
8.5097 4.7283 1.7578
8.0311 5.4529 1.7528
7.4890 6.1280 1.7473
6.8888 6.7482 1.7412
6.2363 7.3086 1.7348
5.0135 7.0661 1.5644
1.0183 1.7469 0.3651
0.8584 1.8306 0.3651
0.6916 1.8997 0.3650
0.5194 1.9537 0.3650
0.3431 1.9921 0.3650
0.1640 2.0147 0.3650
-0.0163 2.0214 0.3650
-0.1966 2.0119 0.3650
-0.3752 1.9864 0.3650
-0.5510 1.9452 0.3650
-0.7223 1.8885 0.3651
-0.8880 1.8167 0.3651
-1.0466 1.7305 0.3652
-6.0944 8.3017 1.8595
-6.2523 7.0919 1.7071
-6.8650 6.5108 1.7084
-7.4249 5.8777 1.7099
-7.9257 5.1961 1.7112
-8.3633 4.4716 1.7124
-8.7292 3.7079 1.7125
-9.0251 2.9146 1.7125
-9.2491 2.0980 1.7125
-9.3993 1.2647 1.7125
-9.4747 0.4214 1.7125
-9.4745 -0.4254 1.7125
-9.3988 -1.2687 1.7125
-9.2482 -2.1020 1.7125
-9.0239 -2.9184 1.7125
-8.7276 -3.7116 1.7125
-8.3616 -4.4751 1.7124
-7.9235 -5.1995 1.7112
-7.4210 -5.8797 1.7096
-6.8590 -6.5106 1.7076
-6.8073 -7.7279 1.8595
-6.0945 -8.3092 1.8606
-1.0510 -1.7395 0.3670
-0.8918 -1.8265 0.3670
-0.7254 -1.8989 0.3670
-0.5532 -1.9562 0.3671
-0.3765 -1.9978 0.3671
-0.1968 -2.0235 0.3671
-0.0156 -2.0330 0.3671
0.1658 -2.0262 0.3671
0.3459 -2.0033 0.3671
0.5231 -1.9643 0.3670
0.6962 -1.9096 0.3670
0.8636 -1.8397 0.3670
1.0241 -1.7552 0.3669
5.5821 -7.8604 1.7408
6.2889 -7.3639 1.7486
6.9613 -6.8135 1.7588
7.5434 -6.1672 1.7593
8.0828 -5.4830 1.7636
8.5571 -4.7499 1.7672
8.9614 -3.9743 1.7701
9.2919 -3.1632 1.7723
9.5450 -2.3238 1.7738
4.5684 -0.6881 0.8342
4.5348 -0.2733 0.8203
4.7356 0.1379 0.8554
9.7470 1.1597 1.7724
9.5928 2.0220 1.7702
9.3588 2.8647 1.7673
9.0476 3.6806 1.7637
8.6624 4.4621 1.7594
8.2074 5.2027 1.7546
7.6871 5.8959 1.7493
7.1067 6.5361 1.7434
6.4719 7.1181 1.7371
5.7930 7.6428 1.7317
1.0729 1.7141 0.3651
0.9156 1.8027 0.3651
0.7511 1.8770 0.3651
0.5807 1.9364 0.3650
0.4056 1.9804 0.3650
0.2274 2.0086 0.3650
0.0473 2.0209 0.3650
-0.1331 2.0171 0.3650
-0.3125 1.9972 0.3650
-0.4894 1.9615 0.3650
-0.6625 1.9102 0.3651
-0.8303 1.8437 0.3651
-0.9916 1.7625 0.3652
-4.2386 6.1723 1.3520
-6.2204 7.5204 1.7622
-6.6544 6.7215 1.7078
-7.2339 6.1068 1.7094
-7.7561 5.4417 1.7108
-8.2165 4.7316 1.7120
-8.6081 3.9810 1.7125
-8.9288 3.1973 1.7125
-9.1784 2.3883 1.7125
-9.3549 1.5601 1.7125
-9.4567 0.7195 1.7125
-9.4832 -0.1268 1.7125
-9.4341 -0.9722 1.7125
-9.3098 -1.8097 1.7125
-9.1113 -2.6329 1.7125
-8.8402 -3.4350 1.7125
-8.4985 -4.2098 1.7125
-8.0855 -4.9487 1.7117
-7.6052 -5.6452 1.7102
-7.0636 -6.2940 1.7083
-6.9729 -7.4306 1.8399
-6.3510 -8.1105 1.8600
-5.6101 -8.6566 1.8626
-0.9488 -1.7974 0.3670
-0.7848 -1.8751 0.3670
-0.6145 -1.9378 0.3671
-0.4392 -1.9849 0.3671
-0.2605 -2.0163 0.3671
-0.0796 -2.0315 0.3671
0.1019 -2.0305 0.3671
0.2826 -2.0132 0.3671
0.4610 -1.9799 0.3671
0.6357 -1.9307 0.3670
0.8053 -1.8661 0.3670
0.9684 -1.7866 0.3669
5.3218 -8.0171 1.7375
6.0426 -7.5443 1.7453
6.7293 -7.0147 1.7552
7.3406 -6.3975 1.7582
7.8998 -5.7302 1.7622
8.3976 -5.0136 1.7660
8.8271 -4.2523 1.7692
9.1840 -3.4528 1.7716
9.4648 -2.6226 1.7734
4.6186 -0.8452 0.8478
4.5286 -0.4164 0.8212
4.7376 -0.0112 0.8554
9.7821 0.8525 1.7730
9.6564 1.7197 1.7710
9.4502 2.5702 1.7684
9.1659 3.3964 1.7650
8.8064 4.1909 1.7610
8.3755 4.9467 1.7564
7.8777 5.6573 1.7512
7.3178 6.3167 1.7455
6.7016 6.9198 1.7394
5.4723 6.7660 1.5713
4.8403 7.2173 1.5691
0.9720 1.7731 0.3651
0.8099 1.8525 0.3651
0.6414 1.9172 0.3650
0.4678 1.9666 0.3650
0.2905 2.0005 0.3650
0.1109 2.0184 0.3650
-0.0695 2.0202 0.3650
-0.2495 2.0060 0.3650
-0.4274 1.9759 0.3650
-0.6020 1.9301 0.3651
-0.7718 1.8689 0.3651
-0.9355 1.7928 0.3651
-3.9697 6.1897 1.3277
-6.2087 8.0068 1.8295
-6.4373 6.9254 1.7073
-7.0359 6.3295 1.7089
-7.5788 5.6816 1.7103
-8.0614 4.9868 1.7116
-8.4164 4.2190 1.7000
-8.8237 3.4769 1.7125
-9.0987 2.6760 1.7125
-9.3011 1.8539 1.7125
-9.4294 1.0169 1.7125
-9.4825 0.1719 1.7125
-9.4600 -0.6746 1.7125
-9.3622 -1.5157 1.7125
-9.1897 -2.3447 1.7125
-8.9439 -3.1550 1.7125
-8.6269 -3.9401 1.7125
-8.2393 -4.6928 1.7121
-7.7819 -5.4048 1.7108
-7.2612 -6.0710 1.7090
-6.6836 -6.6871 1.7071
-6.6020 -7.9050 1.8597
-5.8768 -8.4712 1.8616
-1.0049 -1.7666 0.3670
-0.8434 -1.8494 0.3670
-0.6752 -1.9174 0.3671
-0.5015 -1.9701 0.3671
-0.3238 -2.0071 0.3671
-0.1435 -2.0280 0.3671
0.0379 -2.0327 0.3671
0.2191 -2.0211 0.3671
0.3985 -1.9934 0.3671
0.5746 -1.9498 0.3670
0.7462 -1.8906 0.3670
0.9117 -1.8163 0.3670
1.0699 -1.7275 0.3669
5.7933 -7.7191 1.7427
6.4898 -7.2062 1.7511
7.1375 -6.6272 1.7587
7.7088 -5.9710 1.7607
8.2296 -5.2717 1.7647
8.6837 -4.5254 1.7681
9.0667 -3.7386 1.7708
9.3747 -2.9184 1.7729
4.8004 -1.0357 0.8867
4.5355 -0.5615 0.8252
4.7237 -0.1600 0.8534
4.8631 0.2699 0.8795
9.7100 1.4154 1.7718
9.5320 2.2728 1.7694
9.2749 3.1083 1.7663
8.9416 3.9148 1.7625
8.5354 4.6850 1.7581
8.0606 5.4122 1.7531
7.5220 6.0904 1.7476
6.9250 6.7139 1.7416
6.2753 7.2779 1.7352
5.3407 7.4453 1.6545
1.0274 1.7416 0.3651
0.8678 1.8261 0.3651
0.7014 1.8961 0.3650
0.5295 1.9510 0.3650
0.3534 1.9903 0.3650
0.1744 2.0139 0.3650
-0.0059 2.0214 0.3650
-0.1862 2.0129 0.3650
-0.3650 1.9883 0.3650
-0.5409 1.9480 0.3650
-0.7125 1.8922 0.3651
-0.8786 1.8213 0.3651
-1.0377 1.7359 0.3652
-6.0514 8.3331 1.8595
-6.2367 7.1482 1.7129
-6.8309 6.5459 1.7083
-7.3940 5.9157 1.7098
-7.8984 5.2368 1.7112
-8.3398 4.5146 1.7123
-8.7099 3.7530 1.7125
-9.0099 2.9612 1.7125
-9.2381 2.1458 1.7125
-9.3927 1.3133 1.7125
-9.4724 0.4703 1.7125
-9.4766 -0.3764 1.7125
-9.4052 -1.2202 1.7125
-9.2589 -2.0541 1.7125
-9.0388 -2.8718 1.7125
-8.7467 -3.6665 1.7125
-8.3848 -4.4320 1.7125
-7.9507 -5.1587 1.7113
-7.4517 -5.8416 1.7097
-6.8930 -6.4755 1.7077
-6.8471 -7.6927 1.8595
-6.1371 -8.2772 1.8606
-1.0600 -1.7340 0.3670
-0.9012 -1.8218 0.3670
-0.7352 -1.8951 0.3670
-0.5633 -1.9533 0.3671
-0.3868 -1.9958 0.3671
-0.2073 -2.0224 0.3671
-0.0261 -2.0329 0.3671
0.1553 -2.0271 0.3671
0.3355 -2.0050 0.3671
0.5130 -1.9670 0.3670
0.6863 -1.9132 0.3670
0.8541 -1.8442 0.3670
1.0151 -1.7604 0.3669
5.5402 -7.8874 1.7404
6.2489 -7.3941 1.7480
6.9236 -6.8471 1.7582
7.5103 -6.2052 1.7591
8.0533 -5.5240 1.7633
8.5315 -4.7936 1.7670
8.9400 -4.0203 1.7700
9.2748 -3.2110 1.7722
9.5326 -2.3730 1.7738
4.5749 -0.7133 0.8360
4.5338 -0.2968 0.8204
4.7362 0.1135 0.8554
9.7535 1.1094 1.7725
9.6039 1.9725 1.7703
9.3744 2.8167 1.7674
9.0676 3.6342 1.7639
8.6867 4.4180 1.7597
8.2355 5.1611 1.7549
7.7189 5.8572 1.7496
7.1418 6.5006 1.7438
6.5100 7.0861 1.7375
5.8326 7.6130 1.7317
1.0817 1.7085 0.3651
0.9249 1.7980 0.3651
0.7608 1.8731 0.3651
0.5907 1.9334 0.3650
0.4159 1.9782 0.3650
0.2377 2.0074 0.3650
0.0578 2.0206 0.3650
-0.1227 2.0177 0.3650
-0.3022 1.9988 0.3650
-0.4793 1.9640 0.3650
-0.6526 1.9136 0.3651
-0.8208 1.8480 0.3651
-0.9824 1.7676 0.3652
-4.1938 6.1752 1.3478
-6.2186 7.5978 1.7728
-6.6192 6.7555 1.7077
-7.2019 6.1438 1.7093
-7.7275 5.4814 1.7107
-8.1916 4.7738 1.7119
-8.5874 4.0254 1.7125
-8.9122 3.2434 1.7125
-9.1660 2.4356 1.7125
-9.3467 1.6084 1.7125
-9.4529 0.7683 1.7125
-9.4837 -0.0778 1.7125
-9.4390 -0.9234 1.7125
-9.3190 -1.7616 1.7125
-9.1248 -2.5857 1.7125
-8.8578 -3.3893 1.7125
-8.5202 -4.1658 1.7125
-8.1113 -4.9071 1.7118
-7.6348 -5.6062 1.7103
-7.0965 -6.2579 1.7084
-6.8386 -7.2123 1.7946
-6.3926 -8.0773 1.8600
-5.6543 -8.6269 1.8625
-0.9581 -1.7925 0.3670
-0.7945 -1.8710 0.3670
-0.6245 -1.9345 0.3671
-0.4495 -1.9826 0.3671
-0.2709 -2.0149 0.3671
-0.0901 -2.0310 0.3671
0.0914 -2.0310 0.3671
0.2722 -2.0146 0.3671
0.4508 -1.9822 0.3671
0.6257 -1.9340 0.3670
0.7956 -1.8702 0.3670
0.9592 -1.7916 0.3669
5.2783 -8.0415 1.7369
6.0017 -7.5730 1.7448
6.6906 -7.0470 1.7546
7.3078 -6.4356 1.7583
7.8690 -5.7701 1.7619
8.3706 -5.0564 1.7658
8.8042 -4.2974 1.7690
9.1654 -3.5000 1.7715
9.4506 -2.6713 1.7733
4.6444 -0.8747 0.8534
4.5276 -0.4399 0.8214
4.7375 -0.0357 0.8554
9.7868 0.8021 1.7731
9.6659 1.6699 1.7712
9.4643 2.5217 1.7685
9.1845 3.3494 1.7652
4.8474 0.1913 0.9068
9.3853 1.2152 1.7691
9.2279 2.0449 1.7668
8.9941 2.8551 1.7640
8.6862 3.6386 1.7604
8.3075 4.3885 1.7563
7.8618 5.0983 1.7516
7.3538 5.7620 1.7464
6.7883 6.3740 1.7407
6.1710 6.9297 1.7346
5.5072 7.4239 1.7279
1.0192 1.6664 0.3652
0.8665 1.7505 0.3651
0.7068 1.8206 0.3651
0.5416 1.8763 0.3651
0.3721 1.9170 0.3650
0.1996 1.9425 0.3650
0.0255 1.9526 0.3650
-0.1487 1.9471 0.3650
-0.3218 1.9262 0.3651
-0.4924 1.8899 0.3651
-0.6590 1.8386 0.3651
-0.8205 1.7727 0.3651
-0.9754 1.6927 0.3652
-5.7158 8.1417 1.8595
-6.2132 7.3556 1.7999
-6.4928 6.4242 1.7074
-7.0460 5.8245 1.7089
-7.5433 5.1769 1.7102
-7.9804 4.4865 1.7114
-8.3537 3.7590 1.7124
-8.6561 2.9991 1.7125
-8.8891 2.2151 1.7125
-9.0513 1.4135 1.7125
-9.1413 0.6005 1.7125
-9.1584 -0.2172 1.7125
-9.1025 -1.0332 1.7125
-8.9741 -1.8409 1.7125
-8.7742 -2.6340 1.7125
-8.5043 -3.4061 1.7125
-8.1638 -4.1496 1.7119
-7.7563 -4.8581 1.7108
-7.2862 -5.5260 1.7094
-6.7572 -6.1475 1.7077
-6.7318 -7.3239 1.8595
-6.0536 -7.8976 1.8601
-1.0504 -1.6582 0.3669
-0.8985 -1.7454 0.3670
-0.7393 -1.8188 0.3670
-0.5741 -1.8776 0.3670
-0.4044 -1.9214 0.3670
-0.2314 -1.9499 0.3671
-0.0566 -1.9628 0.3671
0.1187 -1.9600 0.3671
0.2930 -1.9415 0.3670
0.4650 -1.9075 0.3670
0.6332 -1.8583 0.3670
0.7964 -1.7942 0.3669
0.9531 -1.7158 0.3669
5.2071 -7.6711 1.7331
5.8933 -7.2039 1.7398
6.5588 -6.6971 1.7523
7.1519 -6.1041 1.7577
7.6775 -5.4488 1.7599
8.1496 -4.7520 1.7635
8.5554 -4.0130 1.7665
8.8908 -3.2381 1.7688
9.1525 -2.4345 1.7704
4.5604 -0.7859 0.8651
4.5132 -0.3680 0.8465
4.6283 0.0368 0.8652
9.4221 0.9194 1.7697
9.2923 1.7542 1.7677
9.0852 2.5721 1.7651
8.8030 3.3659 1.7618
8.4489 4.1284 1.7578
8.0263 4.8530 1.7533
7.5397 5.5336 1.7483
6.9939 6.1644 1.7427
6.3943 6.7405 1.7368
5.3756 6.7889 1.6187
1.0713 1.6336 0.3652
0.9212 1.7224 0.3651
0.7638 1.7975 0.3651
0.6004 1.8583 0.3651
0.4322 1.9044 0.3650
0.2606 1.9353 0.3650
0.0870 1.9508 0.3650
-0.0873 1.9508 0.3650
-0.2610 1.9353 0.3650
-0.4326 1.9044 0.3651
-0.6008 1.8584 0.3651
-0.7642 1.7976 0.3651
-0.9216 1.7225 0.3652
-1.0717 1.6336 0.3652
-6.1767 7.7978 1.8595
-6.2864 6.6244 1.7071
-6.8571 6.0417 1.7084
-7.3746 5.4104 1.7098
-7.8334 4.7345 1.7110
-8.2296 4.0194 1.7121
-8.5574 3.2702 1.7125
-8.8150 2.4939 1.7125
-9.0023 1.6978 1.7125
-9.1178 0.8881 1.7125
-9.1607 0.0713 1.7125
-9.1306 -0.7460 1.7125
-9.0276 -1.5574 1.7125
-8.8527 -2.3564 1.7125
-8.6073 -3.1366 1.7125
-8.2921 -3.8912 1.7123
-7.9073 -4.6126 1.7112
-7.4589 -5.2956 1.7100
-6.9501 -5.9340 1.7083
-6.5884 -6.7297 1.7605
-6.2979 -7.7013 1.8597
-5.5901 -8.2386 1.8611
-0.9529 -1.7162 0.3670
-0.7961 -1.7946 0.3670
-0.6330 -1.8586 0.3670
-0.4647 -1.9077 0.3670
-0.2927 -1.9416 0.3671
-0.1184 -1.9600 0.3671
0.0569 -1.9628 0.3671
0.2318 -1.9498 0.3670
0.4047 -1.9213 0.3670
0.5744 -1.8774 0.3670
0.7395 -1.8185 0.3670
0.8986 -1.7451 0.3669
1.0506 -1.6577 0.3669
5.6533 -7.3726 1.7367
6.3287 -6.8829 1.7479
6.9580 -6.3280 1.7581
7.4961 -5.6832 1.7585
7.9905 -5.0029 1.7623
8.4201 -4.2780 1.7655
8.7808 -3.5150 1.7680
9.0688 -2.7207 1.7699
4.8588 -0.9958 0.9271
4.5064 -0.5107 0.8478
4.5749 -0.1077 0.8554
9.4492 0.6224 1.7702
9.3470 1.4613 1.7685
9.1669 2.2861 1.7661
8.9109 3.0892 1.7630
8.5818 3.8635 1.7593
8.1829 4.6022 1.7550
7.7183 5.2990 1.7501
7.1928 5.9480 1.7447
6.6115 6.5439 1.7389
5.9800 7.0820 1.7327
4.9476 7.0500 1.6100
0.9750 1.6926 0.3651
0.8201 1.7726 0.3651
0.6586 1.8386 0.3651
0.4920 1.8899 0.3651
0.3215 1.9261 0.3650
0.1484 1.9471 0.3650
-0.0259 1.9526 0.3650
-0.1999 1.9425 0.3650
-0.3724 1.9171 0.3651
-0.5419 1.8763 0.3651
-0.7072 1.8207 0.3651
-0.8669 1.7505 0.3652
-1.0197 1.6665 0.3652
-5.9281 7.9884 1.8595
-6.2222 6.9846 1.7486
-6.6614 6.2527 1.7079
-7.1986 5.6384 1.7093
-7.6786 4.9776 1.7106
-8.0972 4.2757 1.7117
-8.4502 3.5380 1.7125
-8.7321 2.7702 1.7125
-8.9444 1.9804 1.7125
-9.0853 1.1747 1.7125
-9.1539 0.3597 1.7125
-9.1495 -0.4582 1.7125
-9.0722 -1.2724 1.7125
-8.9225 -2.0765 1.7125
-8.7018 -2.8640 1.7125
-8.4117 -3.6287 1.7125
-8.0504 -4.3623 1.7116
-7.6241 -5.0595 1.7105
-7.1361 -5.7143 1.7089
-6.5911 -6.3213 1.7071
-6.5367 -7.4986 1.8595
-5.8445 -8.0553 1.8604
-1.0065 -1.6853 0.3669
-0.8522 -1.7685 0.3670
-0.6911 -1.8377 0.3670
-0.5245 -1.8921 0.3670
-0.3537 -1.9314 0.3671
-0.1800 -1.9553 0.3671
-0.0049 -1.9636 0.3671
0.1702 -1.9562 0.3670
0.3440 -1.9331 0.3670
0.5150 -1.8946 0.3670
0.6819 -1.8409 0.3670
0.8433 -1.7726 0.3669
0.9979 -1.6901 0.3669
5.4125 -7.5389 1.7348
6.0914 -7.0585 1.7429
6.7440 -6.5330 1.7552
7.3085 -5.9124 1.7573
7.8233 -5.2482 1.7610
8.2763 -4.5383 1.7644
8.6617 -3.7880 1.7672
8.9757 -3.0039 1.7693
9.2152 -2.1931 1.7707
4.5286 -0.6582 0.8554
4.5182 -0.2489 0.8459
4.7969 0.1645 0.8972
9.3920 1.1668 1.7692
9.2392 1.9973 1.7670
9.0097 2.8089 1.7642
8.7060 3.5942 1.7607
8.3313 4.3462 1.7566
7.8894 5.0584 1.7519
7.3848 5.7249 1.7467
6.8225 6.3401 1.7410
6.2080 6.8991 1.7349
5.5481 7.3988 1.7287
1.0278 1.6611 0.3652
0.8755 1.7460 0.3651
0.7162 1.8170 0.3651
0.5513 1.8735 0.3651
0.3820 1.9151 0.3650
0.2096 1.9415 0.3650
0.0356 1.9524 0.3650
-0.1387 1.9479 0.3650
-0.3119 1.9278 0.3651
-0.4826 1.8924 0.3651
-0.6495 1.8420 0.3651
-0.8113 1.7769 0.3651
-0.9667 1.6977 0.3652
-5.6736 8.1711 1.8595
-6.2113 7.4309 1.8104
-6.4592 6.4573 1.7073
-7.0155 5.8606 1.7088
-7.5161 5.2156 1.7101
-7.9569 4.5275 1.7113
-8.3339 3.8020 1.7123
-8.6405 3.0438 1.7125
-8.8776 2.2610 1.7125
-9.0438 1.4602 1.7125
-9.1380 0.6478 1.7125
-9.1594 -0.1698 1.7125
-9.1077 -0.9861 1.7125
-8.9835 -1.7945 1.7125
-8.7876 -2.5886 1.7125
-8.5217 -3.3621 1.7125
-8.1855 -4.1075 1.7120
-7.7816 -4.8182 1.7109
-7.3150 -5.4886 1.7095
-6.7893 -6.1129 1.7078
-6.7696 -7.2890 1.8595
-6.0942 -7.8660 1.8601
-1.0590 -1.6527 0.3669
-0.9075 -1.7408 0.3670
-0.7486 -1.8149 0.3670
-0.5838 -1.8746 0.3670
-0.4143 -1.9193 0.3670
-0.2415 -1.9487 0.3671
-0.0667 -1.9625 0.3671
0.1086 -1.9606 0.3671
0.2830 -1.9430 0.3670
0.4551 -1.9099 0.3670
0.6236 -1.8615 0.3670
0.7871 -1.7983 0.3670
0.9442 -1.7207 0.3669
5.1663 -7.6964 1.7328
5.8543 -7.2322 1.7393
6.5214 -6.7281 1.7516
7.1206 -6.1413 1.7577
7.6483 -5.4876 1.7596
8.1241 -4.7936 1.7633
8.5338 -4.0568 1.7663
8.8734 -3.2838 1.7687
9.1394 -2.4816 1.7703
4.5671 -0.8114 0.8671
4.5122 -0.3914 0.8466
4.6041 0.0129 0.8607
9.4272 0.8707 1.7698
9.3019 1.7062 1.7678
9.0992 2.5254 1.7652
8.8213 3.3207 1.7620
8.4713 4.0852 1.7581
8.0526 4.8122 1.7536
7.5696 5.4955 1.7486
7.0270 6.1294 1.7431
6.4303 6.7087 1.7371
5.4186 6.7710 1.6211
1.0797 1.6280 0.3652
0.9301 1.7176 0.3651
0.7731 1.7936 0.3651
0.6100 1.8552 0.3651
0.4421 1.9021 0.3650
0.2706 1.9339 0.3650
0.0971 1.9503 0.3650
-0.0773 1.9512 0.3650
-0.2510 1.9366 0.3650
-0.4227 1.9066 0.3651
-0.5912 1.8615 0.3651
-0.7549 1.8015 0.3651
-0.9127 1.7272 0.3652
-1.0632 1.6391 0.3652
-6.1363 7.8296 1.8595
-6.2521 6.6568 1.7071
-6.8255 6.0768 1.7083
-7.3462 5.4482 1.7097
-7.8085 4.7747 1.7109
-8.2084 4.0617 1.7120
-8.5404 3.3144 1.7125
-8.8020 2.5394 1.7125
-8.9934 1.7443 1.7125
-9.1131 0.9352 1.7125
-9.1602 0.1187 1.7125
-9.1343 -0.6988 1.7125
-9.0356 -1.5108 1.7125
-8.8648 -2.3106 1.7125
-8.6234 -3.0921 1.7125
-8.3124 -3.8485 1.7123
-7.9313 -4.5718 1.7113
-7.4866 -5.2572 1.7101
-6.9811 -5.8983 1.7084
-6.5407 -6.6122 1.7386
-6.3375 -7.6685 1.8597
-5.6324 -8.2092 1.8610
-0.9618 -1.7113 0.3670
-0.8054 -1.7904 0.3670
-0.6426 -1.8553 0.3670
-0.4745 -1.9053 0.3670
-0.3027 -1.9401 0.3671
-0.1285 -1.9594 0.3671
0.0468 -1.9630 0.3671
0.2217 -1.9510 0.3670
0.3948 -1.9233 0.3670
0.5647 -1.8803 0.3670
0.7301 -1.8223 0.3670
0.8896 -1.7497 0.3669
1.0420 -1.6632 0.3669
5.6142 -7.4005 1.7364
6.2904 -6.9126 1.7471
6.9248 -6.3634 1.7580
7.4656 -5.7211 1.7582
7.9636 -5.0435 1.7621
8.3971 -4.3210 1.7653
8.7619 -3.5601 1.7679
9.0542 -2.7674 1.7698
9.2712 -1.9501 1.7710
4.5102 -0.5347 0.8490
4.5743 -0.1313 0.8554
9.4527 0.5736 1.7703
9.3550 1.4131 1.7686
9.1794 2.2389 1.7662
8.9277 3.0434 1.7632
8.6027 3.8196 1.7595
8.2078 4.5605 1.7552
7.7469 5.2599 1.7504
7.2248 5.9118 1.7451
6.6466 6.5109 1.7393
6.0178 7.0525 1.7331
5.0135 7.0661 1.6196
0.9837 1.6876 0.3651
0.8292 1.7684 0.3651
0.6681 1.8351 0.3651
0.5018 1.8873 0.3651
0.3314 1.9245 0.3650
0.1584 1.9463 0.3650
-0.0158 1.9527 0.3650
-0.1899 1.9435 0.3650
-0.3625 1.9190 0.3651
-0.5322 1.8791 0.3651
-0.6978 1.8243 0.3651
-0.8578 1.7550 0.3652
-1.0110 1.6717 0.3652
-5.8867 8.0189 1.8595
-6.2205 7.0558 1.7583
-6.6287 6.2867 1.7078
-7.1691 5.6752 1.7092
-7.6525 5.0170 1.7105
-8.0748 4.3173 1.7116
-8.4318 3.5817 1.7125
-8.7176 2.8154 1.7125
-8.9340 2.0266 1.7125
-9.0792 1.2217 1.7125
-9.1519 0.4070 1.7125
-9.1518 -0.4109 1.7125
-9.0786 -1.2255 1.7125
-8.9332 -2.0304 1.7125
-8.7165 -2.8190 1.7125
-8.4303 -3.5852 1.7125
-8.0731 -4.3207 1.7117
-7.6505 -5.0203 1.7105
-7.1660 -5.6777 1.7090
-6.6239 -6.2874 1.7072
-6.5754 -7.4647 1.8595
-5.8859 -8.0248 1.8603
-1.0151 -1.6801 0.3669
-0.8613 -1.7641 0.3670
-0.7006 -1.8341 0.3670
-0.5343 -1.8894 0.3670
-0.3637 -1.9296 0.3670
-0.1901 -1.9544 0.3671
-0.0151 -1.9635 0.3671
0.1601 -1.9570 0.3671
0.3340 -1.9348 0.3670
0.5052 -1.8972 0.3670
0.6724 -1.8444 0.3670
0.8341 -1.7769 0.3669
0.9892 -1.6952 0.3669
5.3725 -7.5653 1.7345
6.0513 -7.0858 1.7418
6.7080 -6.5656 1.7546
7.2781 -5.9504 1.7573
7.7951 -5.2879 1.7608
8.2519 -4.5805 1.7643
8.6413 -3.8324 1.7671
8.9596 -3.0501 1.7692
9.2034 -2.2406 1.7707
4.5332 -0.6828 0.8570
4.5173 -0.2722 0.8460
4.7476 0.1383 0.8879
9.3984 1.1183 1.7693
9.2501 1.9497 1.7671
9.0250 2.7626 1.7643
8.7255 3.5496 1.7609
8.3548 4.3037 1.7568
7.9167 5.0184 1.7522
7.4156 5.6877 1.7470
6.8565 6.3060 1.7414
6.2449 6.8684 1.7353
5.5887 7.3733 1.7295
1.0364 1.6558 0.3652
0.8845 1.7415 0.3651
0.7256 1.8132 0.3651
0.5609 1.8706 0.3651
0.3918 1.9131 0.3650
0.2196 1.9404 0.3650
0.0457 1.9522 0.3650
-0.1286 1.9485 0.3650
-0.3019 1.9294 0.3651
-0.4728 1.8949 0.3651
-0.6400 1.8453 0.3651
-0.8021 1.7811 0.3651
-0.9579 1.7026 0.3652
-4.2386 6.1723 1.3997
-6.2095 7.5072 1.8212
-6.4254 6.4903 1.7072
-6.9848 5.8964 1.7087
-7.4888 5.2541 1.7101
-7.9331 4.5684 1.7113
-8.3138 3.8449 1.7123
-8.6247 3.0884 1.7125
-8.8658 2.3069 1.7125
-9.0362 1.5069 1.7125
-9.1346 0.6950 1.7125
-9.1602 -0.1225 1.7125
-9.1127 -0.9390 1.7125
-8.9927 -1.7481 1.7125
-8.8009 -2.5432 1.7125
-8.5390 -3.3180 1.7125
-8.2068 -4.0653 1.7120
-7.8067 -4.7781 1.7110
-7.3437 -5.4510 1.7096
-6.8213 -6.0781 1.7079
-6.8072 -7.2539 1.8595
-6.1346 -7.8341 1.8600
-1.0675 -1.6472 0.3669
-0.9164 -1.7360 0.3670
-0.7580 -1.8110 0.3670
-0.5935 -1.8716 0.3670
-0.4242 -1.9171 0.3670
-0.2516 -1.9474 0.3671
-0.0769 -1.9621 0.3671
0.0984 -1.9611 0.3671
