ply
format ascii 1.0
element vertex 1986
property float32 x
property float32 y
property float32 z
end_header
22.3084 2.2886 -2.7769
20.6108 3.9989 -2.5998
19.1054 5.5154 -2.4624
17.8126 6.9181 -2.3662
16.5456 8.1946 -2.2863
16.8335 7.9045 -2.1866
15.6252 9.1218 -2.1273
14.4717 10.2839 -2.0874
16.3574 13.9810 -2.5300
15.1660 15.5107 -2.5506
27.1536 33.2537 -5.0478
24.0760 35.5454 -5.0478
18.1344 32.7309 -4.3996
11.0066 24.8779 -3.1986
-16.2982 31.4958 -4.1696
-16.2400 25.5085 -3.5554
-18.8235 24.4380 -3.6269
-20.9132 22.6411 -3.6239
-23.6581 21.4138 -3.7519
-31.1627 23.5055 -4.5895
-40.3598 25.1258 -5.5898
-8.6543 4.3681 -1.1398
-16.3905 6.5089 -2.0735
-16.3966 4.8682 -2.0110
-16.3221 3.2951 -1.9578
-16.3276 1.8000 -1.9314
-16.3330 0.3331 -1.9208
-22.1931 -1.5341 -2.6156
-22.2005 -3.5467 -2.6434
-8.5534 -4.8525 -1.1562
-33.8718 -33.7951 -5.6258
0.6765 -37.3160 -4.3882
26.9304 -8.3595 -3.3154
23.2703 1.3196 -2.7405
21.4103 3.1495 -2.5445
19.8525 4.7628 -2.4004
18.4962 6.2295 -2.2948
17.1808 7.5547 -2.2067
15.9531 8.7915 -2.1417
14.7644 9.9516 -2.0935
13.5614 11.0226 -2.0548
15.5777 15.1626 -2.5560
14.0954 16.4158 -2.5440
24.9478 34.9390 -5.0478
21.7286 37.0270 -5.0478
-16.2111 33.3219 -4.3569
-16.3145 27.0816 -3.7173
-17.8756 24.4345 -3.5596
-20.5280 23.3576 -3.6562
-23.0262 21.9019 -3.7365
-31.6102 25.0934 -4.7453
-37.8843 24.9056 -5.3307
-16.3821 8.7835 -2.1856
-16.3887 6.9823 -2.0945
-16.3630 5.3020 -2.0224
-16.3205 3.7172 -1.9681
-16.3261 2.2098 -1.9371
-16.3315 0.7375 -1.9222
-22.1911 -0.9832 -2.6117
-22.1984 -2.9854 -2.6335
-31.3806 -24.8676 -4.7077
23.8253 0.7605 -2.8027
21.9267 2.6732 -2.5972
20.2753 4.3368 -2.4378
18.7445 5.8010 -2.3071
17.4895 7.1796 -2.2229
16.1688 8.3959 -2.1421
15.1045 9.6464 -2.1072
13.9685 10.7908 -2.0754
15.9914 14.8129 -2.5629
14.5043 16.0701 -2.5453
25.8044 34.3112 -5.0478
22.6378 36.4782 -5.0478
14.6773 29.1822 -3.8407
-16.3087 28.6522 -3.8763
-16.9616 24.4311 -3.4969
-20.4336 24.4439 -3.7460
-21.7603 21.7481 -3.6173
-23.6642 19.7592 -3.6248
-32.8989 22.8132 -4.7072
-21.6028 12.2801 -2.9217
-16.3870 7.4657 -2.1173
-16.3932 5.7636 -2.0431
-16.3189 4.1440 -1.9796
-16.3245 2.6223 -1.9440
-16.3300 1.1428 -1.9247
-22.1890 -0.4336 -2.6094
-22.1964 -2.4278 -2.6254
-31.4584 -23.6864 -4.6300
-31.2633 -33.7885 -5.4125
2.1823 -37.5444 -4.4218
5.5844 -37.5941 -4.4687
8.1346 -8.3337 -1.3693
22.4238 2.1724 -2.6489
20.7118 3.8971 -2.4780
19.1960 5.4242 -2.3454
17.8959 6.8343 -2.2524
16.6233 8.1163 -2.1750
15.4259 9.3226 -2.1192
14.2795 10.4775 -2.0824
16.4076 14.4610 -2.5715
14.9139 15.7239 -2.5481
26.6451 33.6625 -5.0478
23.5331 35.9071 -5.0478
-16.3024 30.3644 -4.0522
-16.3229 24.7987 -3.4907
-19.4240 24.4402 -3.6706
-21.7109 22.7997 -3.7017
-23.6605 20.7707 -3.7018
-32.2840 23.5903 -4.7012
-20.4980 12.3328 -2.8127
-16.3851 7.9600 -2.1418
-16.3915 6.2227 -2.0615
-16.3173 4.5760 -1.9926
-16.3230 3.0380 -1.9522
-16.3285 1.5494 -1.9285
-16.3339 0.0849 -1.9205
-22.1943 -1.8734 -2.6188
-8.4982 -4.9934 -1.1589
-31.1307 -22.2550 -4.4994
9.1288 -8.2159 -1.4440
22.7761 1.6391 -2.6849
21.1632 3.4424 -2.5210
19.5990 5.0181 -2.3787
18.2651 6.4623 -2.2780
16.9667 7.7703 -2.1942
15.7511 8.9950 -2.1327
14.5928 10.1619 -2.0908
14.9037 12.4944 -2.2867
15.2356 15.2873 -2.5377
27.4696 32.9932 -5.0478
24.4140 35.3140 -5.0478
21.1635 37.3528 -5.0478
11.2061 24.6894 -3.1879
-8.8096 22.1476 -2.8025
-16.2954 32.2405 -4.2474
-16.2380 26.0507 -3.6092
-18.4536 24.4366 -3.6004
-21.4330 23.6527 -3.7529
-23.6566 21.8266 -3.7845
-31.9369 24.5710 -4.7378
-39.1931 24.9215 -5.4609
-8.6341 4.4618 -1.1427
-16.3898 6.6904 -2.0814
-16.3959 5.0387 -2.0168
-16.3214 3.4574 -1.9616
-16.3270 1.9578 -1.9334
-16.3324 0.4890 -1.9212
-22.1923 -1.3214 -2.6139
-22.1997 -3.3297 -2.6394
3.9509 -40.1898 -4.7482
23.4814 1.1069 -2.7639
21.6308 2.9713 -2.5672
20.0140 4.6000 -2.4145
18.6431 6.0815 -2.3057
17.3165 7.4180 -2.2150
16.0807 8.6629 -2.1476
14.8019 9.7729 -2.0855
13.7784 10.9823 -2.0717
15.7370 15.0279 -2.5585
14.2531 16.2825 -2.5443
25.2801 34.6993 -5.0478
22.0808 36.8180 -5.0478
-16.2325 27.5365 -3.7583
-17.5192 24.4332 -3.5349
-20.0215 23.2245 -3.6053
-21.5161 20.8602 -3.5236
-30.7334 24.8792 -4.6491
-33.1752 22.2660 -4.6977
-16.3813 8.9854 -2.1968
-16.3881 7.1675 -2.1031
-16.3943 5.4855 -2.0326
-16.3199 3.8812 -1.9724
-16.3255 2.3686 -1.9396
-16.3309 0.8938 -1.9230
-22.1903 -0.7711 -2.6106
-22.1977 -2.7699 -2.6302
-22.0042 -6.8780 -2.7106
-31.3875 -24.3891 -4.6736
8.2644 -8.2132 -1.3699
24.0242 0.5374 -2.8254
22.1162 2.4823 -2.6167
20.4420 4.1690 -2.4530
18.8173 5.6274 -2.3093
17.5463 7.0081 -2.2215
16.4152 8.3259 -2.1641
15.2281 9.5219 -2.1117
14.0882 10.6702 -2.0779
16.1516 14.6775 -2.5660
14.6622 15.9366 -2.5462
26.1306 34.0634 -5.0478
22.9849 36.2605 -5.0478
14.9560 29.0426 -3.8409
-16.3063 29.2948 -3.9420
-16.6175 24.4298 -3.4739
-20.0392 24.4425 -3.7163
-21.7274 22.1335 -3.6467
-23.6628 20.1443 -3.6538
-32.7232 23.1568 -4.7134
-21.3796 12.4247 -2.9074
-16.3863 7.6551 -2.1265
-16.3926 5.9397 -2.0500
-16.3183 4.3099 -1.9844
-16.3239 2.7822 -1.9470
-16.3294 1.2994 -1.9260
-22.1882 -0.2218 -2.6090
-22.1956 -2.2137 -2.6226
1.8231 -37.5470 -4.4199
9.3146 -8.1305 -1.4537
46.9838 -8.6071 -5.6162
22.6209 1.9738 -2.6698
20.8841 3.7236 -2.4942
19.3501 5.2689 -2.3580
18.0373 6.6918 -2.2620
16.7550 7.9836 -2.1822
15.5509 9.1967 -2.1242
14.4001 10.3561 -2.0855
16.5689 14.3246 -2.5752
15.0721 15.5901 -2.5496
26.9651 33.4067 -5.0478
23.8747 35.6809 -5.0478
17.9416 32.8193 -4.3978
-16.2998 31.0671 -4.1250
-16.2907 25.2715 -3.5352
-19.0452 24.4388 -3.6429
-21.2095 22.7031 -3.6530
-23.6590 21.1725 -3.7330
-32.3110 24.0862 -4.7384
-40.5358 24.9184 -5.5946
-8.6890 4.3241 -1.1411
-16.3909 6.4021 -2.0690
-16.3969 4.7676 -2.0077
-16.3224 3.1993 -1.9557
-16.3279 1.7066 -1.9302
-16.3333 0.2408 -1.9206
-22.1936 -1.6602 -2.6167
-22.2010 -3.6757 -2.6459
-8.5187 -4.8967 -1.1553
23.1469 1.4439 -2.7268
21.3415 3.2627 -2.5384
19.7577 4.8583 -2.3922
18.4099 6.3165 -2.2884
17.1009 7.6352 -2.2020
15.8777 8.8674 -2.1383
14.7144 10.0394 -2.0944
13.4915 11.0930 -2.0536
15.4835 15.2423 -2.5546
14.0020 16.4948 -2.5439
24.7498 35.0795 -5.0478
21.5189 37.1492 -5.0478
11.4829 24.6710 -3.1996
-16.2128 32.8521 -4.3074
-16.3157 26.7406 -3.6831
-18.0892 24.4353 -3.5746
-20.0376 22.5413 -3.5461
-23.1109 21.7350 -3.7302
-31.9815 25.0948 -4.7797
-38.6843 25.1196 -5.4232
-16.3825 8.6649 -2.1790
-16.3891 6.8733 -2.0896
-16.3953 5.2102 -2.0227
-16.3208 3.6204 -1.9656
-16.3264 2.1159 -1.9357
-16.3318 0.6450 -1.9217
-22.1915 -1.1090 -2.6125
-22.1989 -3.1133 -2.6356
-31.3845 -25.1608 -4.7295
23.6963 0.8905 -2.7881
21.8158 2.7849 -2.5859
20.0322 4.4034 -2.4116
18.6855 5.8987 -2.3039
17.4532 7.2803 -2.2235
16.0929 8.4723 -2.1384
15.0316 9.7198 -2.1047
13.8977 10.8622 -2.0739
15.8966 14.8930 -2.5612
14.4108 16.1491 -2.5448
25.6100 34.4565 -5.0478
22.4311 36.6056 -5.0478
14.5817 29.4050 -3.8591
-16.2775 28.2251 -3.8309
-17.1676 24.4319 -3.5109
-20.6701 24.4448 -3.7639
-21.6775 21.4217 -3.5833
-23.6651 19.5339 -3.6079
-32.7193 22.4158 -4.6633
-16.3004 9.1445 -2.1975
-16.3874 7.3543 -2.1119
-16.3936 5.6598 -2.0392
-16.3193 4.0460 -1.9769
-16.3249 2.5277 -1.9423
-16.3303 1.0501 -1.9240
-22.1895 -0.5592 -2.6098
-22.1969 -2.5550 -2.6271
-31.4155 -23.9337 -4.6436
2.3960 -37.5554 -4.4246
5.7889 -37.5102 -4.4626
8.1622 -8.2679 -1.3660
35.5243 0.4557 -4.1772
22.3084 2.2886 -2.6367
20.6108 3.9989 -2.4685
19.1054 5.5154 -2.3381
17.8127 6.9181 -2.2468
16.5456 8.1946 -2.1709
16.8336 7.9045 -2.0705
15.6252 9.1218 -2.0144
14.4717 10.2839 -1.9766
16.3574 13.9810 -2.3958
15.1660 15.5107 -2.4152
18.1344 32.7309 -4.1661
11.0066 24.8779 -3.0288
-16.2982 31.4958 -3.9483
-16.3198 25.6339 -3.3833
-18.8235 24.4380 -3.4344
-21.8118 23.6140 -3.5790
-26.8901 24.3392 -4.0381
-31.4302 23.7073 -4.3832
-40.3598 25.1258 -5.2931
-8.6541 4.3680 -1.0793
-16.3103 6.4771 -1.9539
-16.3163 4.8443 -1.8950
-16.3220 3.2951 -1.8539
-16.3276 1.8000 -1.8289
-16.3330 0.3331 -1.8188
-22.1931 -1.5341 -2.4768
-22.2005 -3.5467 -2.5031
-8.5531 -4.8524 -1.0948
-31.1529 -25.9671 -4.5154
-33.8709 -33.7942 -5.3271
0.6776 -37.3782 -4.1622
26.9298 -8.3593 -3.1394
23.2703 1.3196 -2.5950
21.4103 3.1495 -2.4094
19.8525 4.7628 -2.2730
18.4962 6.2295 -2.1730
17.1808 7.5547 -2.0896
15.9531 8.7915 -2.0280
14.7643 9.9516 -1.9824
13.5614 11.0226 -1.9457
15.5777 15.1626 -2.4203
14.0954 16.4158 -2.4090
21.7914 37.1341 -4.7937
-16.2617 33.4259 -4.1386
-16.3145 27.0816 -3.5200
-17.8756 24.4345 -3.3707
-20.4853 23.3090 -3.4549
-23.0074 21.8841 -3.5353
-30.5760 24.2725 -4.3465
-37.8843 24.9056 -5.0477
-16.3821 8.7835 -2.0695
-16.3086 6.9482 -1.9737
-16.3147 5.2863 -1.9094
-16.3205 3.7172 -1.8636
-16.3261 2.2098 -1.8343
-16.3315 0.7375 -1.8201
-22.1911 -0.9832 -2.4731
-22.1984 -2.9854 -2.4937
3.1152 -37.5387 -4.1938
23.8253 0.7605 -2.6540
21.9267 2.6732 -2.4593
20.2753 4.3368 -2.3084
18.7445 5.8010 -2.1846
17.4895 7.1796 -2.1049
16.1688 8.3959 -2.0284
15.1045 9.6464 -1.9954
13.9685 10.7908 -1.9652
15.9914 14.8129 -2.4269
14.5043 16.0701 -2.4102
14.6773 29.1822 -3.6368
-16.3087 28.6522 -3.6706
-16.9616 24.4311 -3.3113
-20.4336 24.4439 -3.5471
-21.7228 21.7106 -3.4194
-29.0627 24.2669 -4.2154
-32.7563 22.7143 -4.4380
-21.4836 12.2124 -2.7514
-16.3870 7.4657 -2.0049
-16.3130 5.7354 -1.9252
-16.3189 4.1440 -1.8746
-16.3245 2.6223 -1.8408
-16.3300 1.1428 -1.8226
-22.1890 -0.4336 -2.4709
-22.1964 -2.4278 -2.4860
-31.3600 -28.3364 -4.7057
-31.2633 -33.7885 -5.1252
5.5841 -37.5924 -4.2313
8.1344 -8.3335 -1.2966
22.4238 2.1724 -2.5083
20.7118 3.8971 -2.3464
19.1960 5.4242 -2.2209
17.8959 6.8343 -2.1328
16.6233 8.1163 -2.0596
15.4259 9.3226 -2.0067
14.2795 10.4775 -1.9719
16.4076 14.4610 -2.4350
14.9139 15.7239 -2.4128
-16.3024 30.3644 -3.8371
-16.3229 24.7987 -3.3054
-19.4240 24.4402 -3.4758
-21.7156 22.8046 -3.5060
-27.6941 24.3116 -4.1029
-32.5846 23.8099 -4.4932
-20.4722 12.3172 -2.6600
-16.3851 7.9600 -2.0281
-16.3113 6.1923 -1.9425
-16.3173 4.5760 -1.8868
-16.3230 3.0380 -1.8486
-16.3285 1.5494 -1.8261
-16.3339 0.0849 -1.8186
-22.1943 -1.8734 -2.4798
-8.4979 -4.9932 -1.0974
-31.1332 -22.2567 -4.2609
-31.3862 -26.9803 -4.6081
9.1288 -8.2159 -1.3674
22.7761 1.6391 -2.5424
21.1632 3.4424 -2.3872
19.5990 5.0181 -2.2525
18.2651 6.4623 -2.1571
16.9667 7.7703 -2.0777
15.7511 8.9950 -2.0195
14.5928 10.1619 -1.9798
14.9037 12.4944 -2.1653
15.2356 15.2873 -2.4030
11.2061 24.6894 -3.0187
-8.8094 22.1471 -2.6537
-16.2954 32.2405 -4.0220
-16.2380 26.0507 -3.4177
-18.4537 24.4366 -3.4093
-21.4035 23.6202 -3.5489
-26.3514 24.3129 -3.9919
-32.6207 25.0972 -4.5824
-39.1931 24.9214 -5.1711
-8.6338 4.4616 -1.0820
-16.3096 6.6577 -1.9613
-16.3157 5.0140 -1.9004
-16.3214 3.4574 -1.8575
-16.3270 1.9578 -1.8308
-16.3324 0.4890 -1.8192
-22.1923 -1.3214 -2.4752
-22.1997 -3.3297 -2.4993
3.6904 -37.5392 -4.1996
23.4815 1.1069 -2.6172
21.6308 2.9713 -2.4309
20.0140 4.6000 -2.2864
18.6431 6.0815 -2.1833
17.3165 7.4180 -2.0974
16.0807 8.6629 -2.0336
14.8019 9.7729 -1.9748
13.7784 10.9823 -1.9617
15.7370 15.0279 -2.4227
14.2531 16.2825 -2.4093
-16.2325 27.5365 -3.5588
-17.5192 24.4332 -3.3473
-19.9906 23.1887 -3.4087
-22.5898 21.9012 -3.5030
-29.9812 24.2703 -4.2946
-33.1245 22.2320 -4.4416
-16.3813 8.9854 -2.0802
-16.3079 7.1325 -1.9817
-16.3141 5.4587 -1.9153
-16.3199 3.8812 -1.8677
-16.3255 2.3686 -1.8366
-16.3309 0.8938 -1.8209
-22.1903 -0.7711 -2.4721
-22.1977 -2.7699 -2.4906
-22.0035 -6.8777 -2.5667
8.2641 -8.2129 -1.2972
24.0242 0.5374 -2.6754
22.1162 2.4823 -2.4778
20.4420 4.1690 -2.3228
18.8173 5.6274 -2.1867
17.5463 7.0081 -2.1036
16.4152 8.3259 -2.0493
15.2281 9.5219 -1.9996
14.0882 10.6702 -1.9676
16.1516 14.6775 -2.4298
14.6622 15.9366 -2.4110
14.9560 29.0426 -3.6371
-16.3063 29.2948 -3.7328
-16.6175 24.4298 -3.2895
-20.0392 24.4425 -3.5190
-21.6828 22.0881 -3.4461
-28.5978 24.3455 -4.1815
-33.0939 23.4192 -4.5138
-21.2171 12.3302 -2.7322
-16.3863 7.6551 -2.0136
-16.3124 5.9106 -1.9317
-16.3183 4.3099 -1.8791
-16.3239 2.7822 -1.8437
-16.3294 1.2994 -1.8238
-22.1882 -0.2218 -2.4705
-22.1956 -2.2137 -2.4834
-31.3512 -27.7896 -4.6644
9.3146 -8.1305 -1.3766
46.9786 -8.6062 -5.3175
22.6209 1.9738 -2.5281
20.8841 3.7236 -2.3618
19.3501 5.2689 -2.2328
18.0373 6.6918 -2.1420
16.7550 7.9836 -2.0664
15.5509 9.1967 -2.0115
14.4001 10.3561 -1.9748
16.5689 14.3246 -2.4386
15.0721 15.5901 -2.4143
17.9416 32.8193 -4.1643
-16.2998 31.0671 -3.9061
-16.2907 25.2715 -3.3476
-19.0452 24.4388 -3.4496
-21.0991 22.5849 -3.4411
-27.1988 24.3403 -4.0637
-32.2528 24.0428 -4.4788
-40.5358 24.9184 -5.2976
-8.6887 4.3240 -1.0805
-16.3107 6.3707 -1.9496
-16.3167 4.7443 -1.8919
-16.3224 3.1993 -1.8519
-16.3279 1.7066 -1.8278
-16.3333 0.2408 -1.8187
-22.1936 -1.6602 -2.4779
-22.2010 -3.6757 -2.5054
-8.5185 -4.8966 -1.0939
23.1469 1.4439 -2.5821
21.3415 3.2627 -2.4037
19.7577 4.8583 -2.2653
18.4099 6.3165 -2.1670
17.1009 7.6352 -2.0851
15.8777 8.8674 -2.0248
14.7144 10.0394 -1.9832
13.4915 11.0930 -1.9446
15.4835 15.2423 -2.4190
14.0020 16.4948 -2.4089
21.5907 37.2733 -4.7958
11.4829 24.6710 -3.0297
-16.2926 33.0136 -4.0988
-16.3157 26.7406 -3.4876
-18.0892 24.4353 -3.3849
-20.0139 22.5146 -3.3539
-23.0921 21.7174 -3.5294
-31.9815 25.0948 -4.5260
-38.6843 25.1196 -5.1353
-16.3825 8.6649 -2.0634
-16.3090 6.8396 -1.9690
-16.3151 5.1847 -1.9060
-16.3208 3.6204 -1.8613
-16.3264 2.1159 -1.8329
-16.3318 0.6450 -1.8197
-22.1915 -1.1090 -2.4738
-22.1989 -3.1133 -2.4957
3.3273 -37.5192 -4.1937
23.6963 0.8905 -2.6401
21.8158 2.7849 -2.4486
20.0322 4.4034 -2.2835
18.6855 5.8987 -2.1816
17.4532 7.2803 -2.1055
16.0929 8.4723 -2.0249
15.0316 9.7198 -1.9930
13.8977 10.8622 -1.9639
15.8966 14.8930 -2.4252
14.4108 16.1491 -2.4098
14.5817 29.4050 -3.6543
-16.2775 28.2251 -3.6276
-17.1676 24.4319 -3.3245
-20.6701 24.4448 -3.5642
-21.6210 21.3659 -3.3843
-29.4983 24.3488 -4.2585
-34.0680 23.3398 -4.5978
-16.3004 9.1445 -2.0809
-16.3874 7.3543 -1.9998
-16.3134 5.6321 -1.9215
-16.3193 4.0460 -1.8719
-16.3249 2.5277 -1.8392
-16.3303 1.0501 -1.8219
-22.1895 -0.5592 -2.4713
-22.1969 -2.5550 -2.4876
-31.3885 -28.6861 -4.7343
5.7888 -37.5091 -4.2256
8.1620 -8.2677 -1.2935
36.5886 0.4693 -4.0740
22.3084 2.2886 -2.4968
20.6108 3.9989 -2.3375
19.1054 5.5154 -2.2140
17.8126 6.9181 -2.1275
16.5456 8.1946 -2.0557
16.8335 7.9045 -1.9546
15.6252 9.1218 -1.9016
14.4717 10.2839 -1.8660
16.3574 13.9810 -2.2616
15.1660 15.5107 -2.2800
18.1344 32.7309 -3.9329
11.0066 24.8779 -2.8592
-16.2982 31.4958 -3.7273
-16.3198 25.6339 -3.1939
-18.8235 24.4380 -3.2421
-21.7326 23.5282 -3.3664
-26.8901 24.3392 -3.8121
-32.1114 24.2211 -4.2275
-40.3598 25.1258 -4.9968
-8.6539 4.3679 -1.0188
-16.3103 6.4771 -1.8445
-16.3163 4.8443 -1.7889
-16.3221 3.2951 -1.7501
-16.3276 1.8000 -1.7265
-16.3330 0.3331 -1.7170
-22.1931 -1.5341 -2.3382
-22.2005 -3.5467 -2.3630
-8.5528 -4.8522 -1.0335
-31.1456 -25.9610 -4.2616
-33.8700 -33.7933 -5.0287
0.6771 -37.3497 -3.9263
4.0542 -37.5563 -3.9703
26.9291 -8.3591 -2.9636
23.2703 1.3196 -2.4497
21.4103 3.1495 -2.2745
19.8525 4.7628 -2.1458
18.4962 6.2295 -2.0513
17.1808 7.5547 -1.9726
15.9531 8.7915 -1.9145
14.7644 9.9517 -1.8714
13.5614 11.0226 -1.8368
15.5777 15.1626 -2.2848
14.0954 16.4158 -2.2741
21.7914 37.1341 -4.5253
-16.2617 33.4259 -3.9069
-16.3145 27.0816 -3.3230
-17.8756 24.4345 -3.1820
-20.4534 23.2728 -3.2565
-22.9887 21.8663 -3.3347
-30.6776 24.3532 -4.1168
-37.8843 24.9056 -4.7652
-16.3019 8.7406 -1.9441
-16.3086 6.9482 -1.8632
-16.3147 5.2864 -1.8025
-16.3205 3.7172 -1.7593
-16.3261 2.2098 -1.7316
-16.3315 0.7375 -1.7183
-22.1911 -0.9832 -2.3347
-22.1984 -2.9854 -2.3542
-31.3466 -29.7653 -4.5434
23.8253 0.7605 -2.5054
21.9267 2.6732 -2.3217
20.2753 4.3368 -2.1792
18.7445 5.8010 -2.0623
17.4895 7.1796 -1.9871
16.1688 8.3959 -1.9149
15.1045 9.6464 -1.8837
13.9685 10.7908 -1.8552
15.9914 14.8129 -2.2910
14.5043 16.0701 -2.2753
14.6773 29.1822 -3.4333
-16.3087 28.6522 -3.4651
-16.9616 24.4311 -3.1260
-20.4336 24.4439 -3.3486
-21.5944 21.5823 -3.2089
-29.0627 24.2669 -3.9794
-34.1093 23.6525 -4.3626
-21.3290 12.1245 -2.5786
-16.3068 7.4292 -1.8834
-16.3130 5.7354 -1.8175
-16.3189 4.1440 -1.7696
-16.3245 2.6223 -1.7378
-16.3300 1.1428 -1.7206
-22.1890 -0.4336 -2.3326
-22.1964 -2.4278 -2.3468
-31.2633 -33.7885 -4.8383
5.5838 -37.5907 -3.9943
8.1342 -8.3333 -1.2240
22.4238 2.1724 -2.3679
20.7118 3.8971 -2.2151
19.1960 5.4242 -2.0966
17.8959 6.8343 -2.0134
16.6233 8.1163 -1.9443
15.4259 9.3226 -1.8944
14.2795 10.4775 -1.8615
16.4076 14.4610 -2.2987
14.9139 15.7239 -2.2778
-16.3024 30.3644 -3.6223
-16.3229 24.7987 -3.1204
-19.4240 24.4402 -3.2812
-21.4931 22.5709 -3.2758
-27.6941 24.3116 -3.8732
-32.5259 23.7671 -4.2340
-20.4465 12.3018 -2.5080
-16.3050 7.9210 -1.9052
-16.3113 6.1923 -1.8338
-16.3173 4.5760 -1.7812
-16.3230 3.0380 -1.7451
-16.3285 1.5494 -1.7239
-16.3339 0.0849 -1.7168
-22.1943 -1.8734 -2.3410
-8.4976 -4.9931 -1.0359
-31.1051 -22.2367 -4.0188
4.6274 -37.5146 -3.9728
9.1288 -8.2159 -1.2908
22.7761 1.6391 -2.4001
21.1632 3.4424 -2.2536
19.5990 5.0181 -2.1264
18.2651 6.4623 -2.0364
16.9667 7.7703 -1.9614
15.7511 8.9950 -1.9064
14.5928 10.1619 -1.8690
14.9037 12.4944 -2.0441
15.2356 15.2873 -2.2685
11.2061 24.6894 -2.8497
-8.8092 22.1465 -2.5051
-16.2954 32.2405 -3.7968
-16.2380 26.0507 -3.2264
-18.4537 24.4366 -3.2185
-20.5831 22.7148 -3.2218
-26.3514 24.3129 -3.7684
-31.6584 24.3568 -4.1983
-39.1931 24.9215 -4.8816
-8.6335 4.4614 -1.0214
-16.3096 6.6577 -1.8515
-16.3157 5.0140 -1.7940
-16.3214 3.4574 -1.7535
-16.3270 1.9578 -1.7283
-16.3324 0.4890 -1.7174
-22.1923 -1.3214 -2.3366
-22.1997 -3.3297 -2.3594
3.9507 -40.1876 -4.2443
23.4815 1.1069 -2.4707
21.6308 2.9713 -2.2948
20.0140 4.6001 -2.1584
18.6431 6.0815 -2.0611
17.3165 7.4180 -1.9800
16.0807 8.6629 -1.9198
14.8019 9.7729 -1.8642
13.7784 10.9823 -1.8519
15.7370 15.0279 -2.2871
14.2531 16.2825 -2.2744
-16.2325 27.5365 -3.3596
-17.5192 24.4332 -3.1599
-19.9596 23.1528 -3.2129
-22.5379 21.8509 -3.2994
-30.0809 24.3509 -4.0677
-32.9346 22.1045 -4.1689
-16.3012 8.9415 -1.9541
-16.3079 7.1325 -1.8708
-16.3141 5.4587 -1.8081
-16.3199 3.8812 -1.7631
-16.3255 2.3686 -1.7338
-16.3309 0.8938 -1.7190
-22.1903 -0.7711 -2.3337
-22.1977 -2.7699 -2.3512
-22.0029 -6.8775 -2.4229
8.2639 -8.2127 -1.2246
24.0242 0.5374 -2.5257
22.1162 2.4823 -2.3391
20.4420 4.1690 -2.1928
18.8173 5.6274 -2.0643
17.5463 7.0081 -1.9859
16.4152 8.3259 -1.9345
15.2281 9.5219 -1.8877
14.0882 10.6702 -1.8575
16.1516 14.6775 -2.2938
14.6622 15.9366 -2.2761
14.9560 29.0426 -3.4335
-16.3063 29.2948 -3.5239
-16.6175 24.4298 -3.1054
-20.0392 24.4425 -3.3220
-22.0675 22.4800 -3.3109
-28.5978 24.3455 -3.9474
-33.1798 23.4799 -4.2722
-21.0944 12.2589 -2.5643
-16.3061 7.6176 -1.8916
-16.3124 5.9106 -1.8236
-16.3183 4.3099 -1.7739
-16.3239 2.7822 -1.7405
-16.3294 1.2994 -1.7217
-22.1882 -0.2218 -2.3322
-22.1956 -2.2137 -2.3444
9.3146 -8.1305 -1.2995
46.9734 -8.6052 -5.0193
22.6209 1.9738 -2.3866
20.8841 3.7236 -2.2296
19.3501 5.2689 -2.1078
18.0373 6.6918 -2.0221
16.7550 7.9836 -1.9507
15.5509 9.1967 -1.8989
14.4001 10.3561 -1.8643
16.5689 14.3246 -2.3021
15.0721 15.5901 -2.2791
17.9416 32.8193 -3.9312
-16.2998 31.0671 -3.6874
-16.2907 25.2715 -3.1602
-19.0452 24.4388 -3.2565
-21.4359 22.9454 -3.3003
-27.1988 24.3403 -3.8363
-31.9303 23.8024 -4.1859
-40.5358 24.9184 -5.0011
-8.6885 4.3239 -1.0200
-16.3107 6.3707 -1.8404
-16.3167 4.7443 -1.7860
-16.3224 3.1993 -1.7482
-16.3279 1.7066 -1.7255
-16.3333 0.2408 -1.7169
-22.1936 -1.6602 -2.3392
-22.2010 -3.6757 -2.3652
-8.5183 -4.8965 -1.0327
4.2654 -37.5233 -3.9693
23.1469 1.4440 -2.4376
21.3415 3.2627 -2.2691
19.7577 4.8583 -2.1385
18.4099 6.3165 -2.0457
17.1009 7.6352 -1.9684
15.8777 8.8674 -1.9114
14.7144 10.0394 -1.8722
13.4915 11.0930 -1.8358
15.4835 15.2423 -2.2836
14.0020 16.4948 -2.2741
21.5907 37.2733 -4.5274
11.4829 24.6710 -2.8601
-16.2926 33.0136 -3.8694
-16.3157 26.7406 -3.2924
-18.0892 24.4353 -3.1954
-20.7904 23.3882 -3.2890
-25.8759 24.3354 -3.7335
-31.0380 24.3545 -4.1466
-38.6843 25.1196 -4.8479
-16.3024 8.6225 -1.9383
-16.3090 6.8396 -1.8588
-16.3151 5.1847 -1.7993
-16.3208 3.6204 -1.7571
-16.3264 2.1159 -1.7303
-16.3318 0.6450 -1.7179
-22.1915 -1.1090 -2.3353
-22.1989 -3.1133 -2.3560
-31.3684 -30.1251 -4.5711
23.6963 0.8905 -2.4923
21.8158 2.7849 -2.3115
20.0322 4.4034 -2.1557
18.6855 5.8987 -2.0595
17.4532 7.2803 -1.9876
16.0929 8.4723 -1.9115
15.0316 9.7198 -1.8814
13.8977 10.8622 -1.8539
15.8966 14.8930 -2.2895
14.4108 16.1491 -2.2749
14.5817 29.4050 -3.4497
-16.2775 28.2251 -3.4245
-17.1676 24.4319 -3.1384
-20.6701 24.4448 -3.3646
-21.5649 21.3104 -3.1865
-29.4983 24.3488 -4.0202
-33.2018 22.7464 -4.2300
-16.3004 9.1445 -1.9644
-16.3072 7.3183 -1.8786
-16.3134 5.6321 -1.8139
-16.3193 4.0460 -1.7672
-16.3249 2.5277 -1.7363
-16.3303 1.0501 -1.7199
-22.1895 -0.5592 -2.3330
-22.1969 -2.5550 -2.3484
5.7886 -37.5081 -3.9889
8.1617 -8.2675 -1.2210
36.5886 0.4693 -3.8459
22.3084 2.2886 -2.3570
20.6108 3.9989 -2.2067
19.1054 5.5154 -2.0901
17.8126 6.9181 -2.0084
16.5456 8.1946 -1.9406
16.8335 7.9045 -1.8389
15.5131 9.0564 -1.7762
14.3679 10.2102 -1.7429
16.3574 13.9810 -2.1277
15.1660 15.5107 -2.1450
18.1344 32.7309 -3.7000
11.0066 24.8779 -2.6899
-16.2982 31.4958 -3.5066
-16.3198 25.6339 -3.0048
-18.8235 24.4380 -3.0501
-21.6540 23.4431 -3.1556
-26.8010 24.2585 -3.5744
-32.2944 24.3591 -3.9998
-40.3598 25.1258 -4.7009
-8.6537 4.3678 -0.9585
-16.3103 6.4771 -1.7353
-16.3163 4.8443 -1.6830
-16.3221 3.2951 -1.6465
-16.3276 1.8000 -1.6243
-16.3330 0.3331 -1.6153
-22.1931 -1.5341 -2.1997
-22.2005 -3.5467 -2.2230
-8.5525 -4.8520 -0.9723
-31.1353 -25.9524 -4.0079
-33.8692 -33.7925 -4.7308
26.9285 -8.3589 -2.7880
23.2703 1.3196 -2.3047
21.4103 3.1495 -2.1398
19.8525 4.7628 -2.0187
18.4962 6.2295 -1.9299
17.1808 7.5547 -1.8558
15.8386 8.7285 -1.7882
14.6805 9.8952 -1.7506
13.5614 11.0226 -1.7280
15.5777 15.1626 -2.1495
14.0954 16.4158 -2.1395
21.7914 37.1341 -4.2574
-16.2617 33.4259 -3.6755
-16.3145 27.0816 -3.1262
-17.8756 24.4345 -2.9936
-20.4218 23.2367 -3.0589
-22.1789 21.0960 -3.0267
-30.6776 24.3532 -3.8730
-36.9571 24.2960 -4.3733
-16.3019 8.7406 -1.8290
-16.3086 6.9482 -1.7528
-16.3147 5.2864 -1.6958
-16.3205 3.7172 -1.6551
-16.3261 2.2098 -1.6290
-16.3315 0.7375 -1.6165
-22.1911 -0.9832 -2.1964
-22.1984 -2.9854 -2.2147
-12.2838 -43.5649 -4.4757
23.8253 0.7605 -2.3570
21.9267 2.6732 -2.1842
20.2753 4.3368 -2.0502
18.7445 5.8010 -1.9402
17.4895 7.1796 -1.8694
16.1688 8.3959 -1.8015
14.9962 9.5772 -1.7594
13.8683 10.7134 -1.7328
15.9914 14.8129 -2.1554
14.5043 16.0701 -2.1405
14.6773 29.1822 -3.2299
-16.3087 28.6522 -3.2599
-16.9616 24.4311 -2.9409
-20.4336 24.4439 -3.1503
-22.5055 22.4928 -3.1462
-29.0627 24.2669 -3.7438
-33.1186 22.9656 -3.9851
-21.1768 12.0380 -2.4086
-16.3068 7.4292 -1.7719
-16.3130 5.7354 -1.7098
-16.3189 4.1440 -1.6648
-16.3245 2.6223 -1.6349
-16.3300 1.1428 -1.6187
-22.1890 -0.4336 -2.1945
-22.1964 -2.4278 -2.2079
-31.2633 -33.7885 -4.5518
5.5709 -37.5036 -3.7491
8.1340 -8.3331 -1.1514
22.4238 2.1724 -2.2276
20.7118 3.8971 -2.0839
19.1960 5.4242 -1.9724
17.8959 6.8343 -1.8942
16.6233 8.1163 -1.8292
15.3152 9.2558 -1.7694
14.1771 10.4024 -1.7387
16.4076 14.4610 -2.1626
14.9139 15.7239 -2.1429
-16.3024 30.3644 -3.4078
-16.3229 24.7987 -2.9356
-19.4240 24.4402 -3.0869
-21.3809 22.4532 -3.0657
-27.6941 24.3116 -3.6439
-32.5918 23.8152 -3.9914
-41.7697 25.1310 -4.8201
-16.3050 7.9210 -1.7924
-16.3113 6.1923 -1.7252
-16.3173 4.5760 -1.6757
-16.3230 3.0380 -1.6417
-16.3285 1.5494 -1.6218
-16.3339 0.0849 -1.6151
-22.1943 -1.8734 -2.2024
-8.4973 -4.9929 -0.9745
-31.2222 -22.3204 -3.7950
9.1288 -8.2159 -1.2144
22.7761 1.6391 -2.2580
21.1632 3.4424 -2.1201
19.5990 5.0181 -2.0005
18.2651 6.4623 -1.9158
16.9667 7.7703 -1.8452
15.6382 8.9304 -1.7807
14.4881 10.0890 -1.7457
14.9037 12.4944 -1.9230
15.2356 15.2873 -2.1341
11.2061 24.6894 -2.6810
-8.8090 22.1460 -2.3567
-16.2157 32.0827 -3.5545
-16.2380 26.0507 -3.0353
-18.4537 24.4366 -3.0279
-20.4968 22.6196 -3.0183
-26.3118 24.2763 -3.5399
-31.5391 24.2650 -3.9348
-39.1931 24.9215 -4.5925
-8.6332 4.4613 -0.9609
-16.3096 6.6577 -1.7419
-16.3157 5.0140 -1.6878
-16.3214 3.4574 -1.6497
-16.3270 1.9578 -1.6260
-16.3324 0.4890 -1.6157
-22.1923 -1.3214 -2.1983
-22.1997 -3.3297 -2.2197
-31.3285 -30.6667 -4.3349
-11.5967 -43.6571 -4.4665
3.9506 -40.1865 -3.9928
23.4815 1.1069 -2.3244
21.6308 2.9713 -2.1589
20.0140 4.6001 -2.0306
18.6431 6.0815 -1.9390
17.3165 7.4180 -1.8627
15.9654 8.6008 -1.7932
14.8019 9.7729 -1.7538
13.6796 10.9035 -1.7297
15.7370 15.0279 -2.1516
14.2531 16.2825 -2.1397
-16.2325 27.5365 -3.1607
-17.5192 24.4332 -2.9728
-19.9288 23.1170 -3.0179
-22.8266 22.1307 -3.1437
-30.0809 24.3509 -3.8268
-32.8791 22.0672 -3.9154
-16.3012 8.9415 -1.8384
-16.3079 7.1325 -1.7600
-16.3141 5.4587 -1.7010
-16.3199 3.8812 -1.6587
-16.3255 2.3686 -1.6312
-16.3309 0.8938 -1.6172
-22.1903 -0.7711 -2.1955
-22.1977 -2.7699 -2.2119
-22.0022 -6.8773 -2.2794
8.2637 -8.2125 -1.1520
24.0242 0.5374 -2.3761
22.1162 2.4823 -2.2006
20.4420 4.1690 -2.0629
18.8173 5.6274 -1.9421
17.5463 7.0081 -1.8683
16.2975 8.2662 -1.8069
15.1188 9.4536 -1.7631
13.9871 10.5937 -1.7350
16.1516 14.6775 -2.1580
14.6622 15.9366 -2.1413
14.9560 29.0426 -3.2301
-16.3063 29.2948 -3.3152
-16.6175 24.4298 -2.9215
-20.0392 24.4425 -3.1253
-21.6317 22.0361 -3.0533
-28.5978 24.3455 -3.7136
-32.7759 23.1941 -3.9703
-20.9732 12.1885 -2.3986
-16.3061 7.6176 -1.7796
-16.3124 5.9106 -1.7156
-16.3183 4.3099 -1.6689
-16.3239 2.7822 -1.6374
-16.3294 1.2994 -1.6198
-22.1882 -0.2218 -2.1941
-22.1956 -2.2137 -2.2056
5.2063 -37.5086 -3.7444
9.3146 -8.1305 -1.2226
46.9682 -8.6043 -4.7215
22.6209 1.9738 -2.2453
20.8841 3.7236 -2.0976
19.3501 5.2689 -1.9830
18.0373 6.6918 -1.9023
16.7550 7.9836 -1.8352
15.4393 9.1307 -1.7736
14.2968 10.2818 -1.7413
16.5689 14.3246 -2.1657
15.0721 15.5901 -2.1442
17.9416 32.8193 -3.6984
-16.2998 31.0671 -3.4690
-16.2907 25.2715 -2.9730
-19.0452 24.4388 -3.0636
-21.1952 22.6877 -3.0700
-27.1087 24.2597 -3.5971
-31.7080 23.6367 -3.9106
-40.5358 24.9184 -4.7049
-8.6882 4.3237 -0.9596
-16.3107 6.3707 -1.7315
-16.3167 4.7443 -1.6802
-16.3224 3.1993 -1.6447
-16.3279 1.7066 -1.6233
-16.3333 0.2408 -1.6152
-22.1936 -1.6602 -2.2006
-22.2010 -3.6757 -2.2251
-8.5181 -4.8964 -0.9715
23.1469 1.4440 -2.2932
21.3415 3.2627 -2.1348
19.7577 4.8583 -2.0118
18.4099 6.3165 -1.9245
17.1009 7.6352 -1.8518
15.7638 8.8038 -1.7853
14.6088 9.9674 -1.7487
13.4915 11.0930 -1.7271
15.4835 15.2423 -2.1484
14.0020 16.4948 -2.1394
21.5907 37.2733 -4.2592
11.4829 24.6710 -2.6908
-16.2926 33.0136 -3.6403
-16.3157 26.7406 -3.0974
-18.0892 24.4353 -3.0062
-20.7467 23.3390 -3.0877
-25.8759 24.3354 -3.5124
-31.0380 24.3545 -3.9011
-38.6843 25.1196 -4.5608
-16.3024 8.6225 -1.8236
-16.3090 6.8396 -1.7487
-16.3151 5.1847 -1.6927
-16.3208 3.6204 -1.6530
-16.3264 2.1159 -1.6279
-16.3318 0.6450 -1.6162
-22.1915 -1.1090 -2.1970
-22.1989 -3.1133 -2.2165
23.6963 0.8905 -2.3447
21.8158 2.7849 -2.1747
20.0322 4.4034 -2.0281
18.6855 5.8987 -1.9375
17.4532 7.2803 -1.8699
16.0929 8.4723 -1.7983
14.9238 9.6501 -1.7573
13.7980 10.7843 -1.7316
15.8966 14.8930 -2.1539
14.4108 16.1491 -2.1402
14.5817 29.4050 -3.2454
-16.2775 28.2251 -3.2217
-17.1676 24.4319 -2.9526
-20.6701 24.4448 -3.1654
-21.5092 21.2553 -2.9901
-29.4983 24.3488 -3.7821
-33.1427 22.7058 -3.9725
-16.3004 9.1445 -1.8481
-16.3072 7.3183 -1.7674
-16.3134 5.6321 -1.7065
-16.3193 4.0460 -1.6625
-16.3249 2.5277 -1.6334
-16.3303 1.0501 -1.6181
-22.1895 -0.5592 -2.1948
-22.1969 -2.5550 -2.2093
5.7885 -37.5071 -3.7526
8.1615 -8.2672 -1.1487
36.5886 0.4693 -3.6182
22.3084 2.2886 -2.2174
20.6108 3.9989 -2.0760
19.1054 5.5154 -1.9663
17.8126 6.9181 -1.8895
16.5456 8.1946 -1.8257
16.7128 7.8478 -1.7109
15.5131 9.0564 -1.6645
14.3679 10.2102 -1.6333
16.3574 13.9810 -1.9939
15.1660 15.5107 -2.0102
18.1344 32.7309 -3.4674
11.0066 24.8779 -2.5208
-16.2982 31.4958 -3.2861
-16.3198 25.6339 -2.8159
-18.8235 24.4380 -2.8584
-20.9703 22.7030 -2.8639
-26.8901 24.3392 -3.3609
-32.2944 24.3591 -3.7483
-40.3598 25.1258 -4.4054
-8.6535 4.3677 -0.8982
-16.3103 6.4771 -1.6262
-16.3163 4.8443 -1.5772
-16.3221 3.2952 -1.5430
-16.3276 1.8000 -1.5221
-16.3330 0.3331 -1.5138
-22.1931 -1.5341 -2.0614
-22.2005 -3.5467 -2.0833
-8.5523 -4.8519 -0.9111
-31.3645 -31.2935 -4.1056
26.9279 -8.3587 -2.6127
23.2703 1.3196 -2.1598
21.4103 3.1495 -2.0053
19.8525 4.7628 -1.8918
18.3636 6.1848 -1.7955
17.0575 7.5005 -1.7267
15.8386 8.7285 -1.6758
14.6805 9.8952 -1.6405
13.5614 11.0226 -1.6194
15.5777 15.1626 -2.0144
14.0954 16.4158 -2.0050
21.7914 37.1341 -3.9897
-16.2617 33.4259 -3.4445
-16.3145 27.0816 -2.9297
-17.8756 24.4345 -2.8054
-20.3902 23.2008 -2.8621
-22.1221 21.0420 -2.8291
-30.6776 24.3532 -3.6295
-37.0799 24.3768 -4.1120
-16.3019 8.7406 -1.7140
-16.3086 6.9482 -1.6426
-16.3147 5.2863 -1.5892
-16.3205 3.7172 -1.5510
-16.3261 2.2098 -1.5266
-16.3315 0.7375 -1.5149
-22.1911 -0.9832 -2.0583
-22.1984 -2.9854 -2.0755
-12.3637 -43.8483 -4.2216
23.8253 0.7605 -2.2089
21.9267 2.6732 -2.0469
20.2753 4.3368 -1.9213
18.7445 5.8010 -1.8182
17.4089 7.1465 -1.7438
16.1688 8.3959 -1.6882
14.9962 9.5772 -1.6488
13.8683 10.7134 -1.6239
15.9914 14.8129 -2.0199
14.5043 16.0701 -2.0060
14.6773 29.1822 -3.0269
-16.3087 28.6522 -3.0550
-16.9616 24.4311 -2.7560
-20.4336 24.4439 -2.9522
-22.4494 22.4369 -2.9411
-29.0627 24.2669 -3.5084
-33.0597 22.9247 -3.7279
-21.4185 12.1753 -2.2830
-16.3068 7.4292 -1.6605
-16.3130 5.7354 -1.6023
-16.3189 4.1440 -1.5602
-16.3245 2.6223 -1.5321
-16.3300 1.1428 -1.5169
-22.1890 -0.4336 -2.0565
-22.1964 -2.4278 -2.0691
-31.2633 -33.7885 -4.2656
5.5833 -37.5872 -3.5212
8.1338 -8.3329 -1.0790
22.4238 2.1724 -2.0876
20.7118 3.8971 -1.9529
19.1960 5.4242 -1.8484
17.7675 6.7852 -1.7624
16.5041 8.0581 -1.7019
15.3152 9.2558 -1.6582
14.1771 10.4024 -1.6294
16.4076 14.4610 -2.0266
14.9139 15.7239 -2.0082
-16.3024 30.3644 -3.1935
-16.3229 24.7987 -2.7510
-19.4240 24.4402 -2.8928
-21.6383 22.7235 -2.9076
-27.6941 24.3116 -3.4148
-32.3678 23.6515 -3.7147
-41.7697 25.1310 -4.5171
-16.3050 7.9210 -1.6797
-16.3113 6.1923 -1.6167
-16.3173 4.5760 -1.5704
-16.3230 3.0380 -1.5385
-16.3285 1.5494 -1.5199
-16.3339 0.0849 -1.5136
-22.1943 -1.8734 -2.0639
-8.4970 -4.9927 -0.9132
9.1288 -8.2159 -1.1381
22.7761 1.6391 -2.1160
21.1632 3.4424 -1.9868
19.5990 5.0181 -1.8747
18.1341 6.4159 -1.7824
16.8450 7.7146 -1.7168
15.6381 8.9304 -1.6687
14.4881 10.0890 -1.6360
14.6008 12.2404 -1.7655
15.2356 15.2873 -2.0000
11.2061 24.6894 -2.5124
-8.8087 22.1455 -2.2085
-16.2954 32.2405 -3.3474
-16.2380 26.0507 -2.8445
-18.4537 24.4366 -2.8375
-20.4112 22.5251 -2.8167
-26.3514 24.3129 -3.3224
-31.4702 24.2120 -3.6793
-38.3438 24.3815 -4.2105
-8.6328 4.4611 -0.9004
-16.3096 6.6577 -1.6324
-16.3157 5.0140 -1.5817
-16.3214 3.4574 -1.5460
-16.3270 1.9578 -1.5238
-16.3324 0.4890 -1.5141
-22.1923 -1.3214 -2.0601
-22.1997 -3.3297 -2.0801
-11.3684 -42.7978 -4.1033
3.9505 -40.1855 -3.7417
23.4815 1.1069 -2.1783
21.6308 2.9713 -2.0232
20.0140 4.6001 -1.9029
18.5094 6.0379 -1.8041
17.1922 7.3648 -1.7331
15.9654 8.6008 -1.6804
14.8019 9.7729 -1.6436
13.6796 10.9035 -1.6210
15.7370 15.0279 -2.0163
14.2531 16.2825 -2.0052
-16.2325 27.5365 -2.9620
-17.5192 24.4332 -2.7859
-21.0747 24.4463 -2.9908
-22.3708 21.6888 -2.8873
-29.9812 24.2703 -3.5744
-32.8238 22.0301 -3.6631
-16.3012 8.9415 -1.7228
-16.3079 7.1325 -1.6494
-16.3141 5.4587 -1.5941
-16.3199 3.8812 -1.5544
-16.3255 2.3686 -1.5286
-16.3309 0.8938 -1.5155
-22.1903 -0.7711 -2.0575
-22.1977 -2.7699 -2.0729
-22.0015 -6.8771 -2.1360
8.2635 -8.2123 -1.0796
24.0242 0.5374 -2.2267
22.1162 2.4823 -2.0622
20.4420 4.1690 -1.9332
18.8173 5.6274 -1.8200
17.5463 7.0081 -1.7508
16.2975 8.2662 -1.6933
15.1188 9.4536 -1.6523
13.9871 10.5937 -1.6259
16.1516 14.6775 -2.0223
14.6622 15.9366 -2.0067
14.9560 29.0426 -3.0271
-16.3063 29.2948 -3.1068
-16.6175 24.4298 -2.7378
-20.0392 24.4425 -2.9288
-21.5035 21.9054 -2.8444
-28.5978 24.3455 -3.4802
-33.4847 23.6957 -3.8011
-20.7468 12.0569 -2.2235
-16.3061 7.6176 -1.6677
-16.3124 5.9106 -1.6077
-16.3183 4.3099 -1.5640
-16.3239 2.7822 -1.5344
-16.3294 1.2994 -1.5179
-22.1882 -0.2218 -2.0561
-22.1956 -2.2137 -2.0669
9.3146 -8.1305 -1.1457
46.9630 -8.6033 -4.4242
22.6209 1.9738 -2.1041
20.8841 3.7236 -1.9657
19.3501 5.2689 -1.8583
17.9079 6.6438 -1.7699
16.6349 7.9263 -1.7075
15.4393 9.1307 -1.6621
14.2968 10.2818 -1.6318
16.5689 14.3246 -2.0296
15.0721 15.5901 -2.0094
17.9416 32.8193 -3.4659
-16.2998 31.0671 -3.2510
-16.2907 25.2715 -2.7861
-19.0452 24.4388 -2.8710
-21.3701 22.8750 -2.9008
-27.1988 24.3403 -3.3822
-31.7361 23.6576 -3.6680
-40.5358 24.9184 -4.4091
-8.6879 4.3236 -0.8992
-16.3107 6.3707 -1.6226
-16.3167 4.7443 -1.5746
-16.3224 3.1993 -1.5413
-16.3279 1.7066 -1.5212
-16.3333 0.2408 -1.5137
-22.1936 -1.6602 -2.0623
-22.2010 -3.6757 -2.0852
-8.5179 -4.8963 -0.9104
-31.3108 -31.5952 -4.1219
23.1469 1.4439 -2.1490
21.3415 3.2627 -2.0006
19.7577 4.8583 -1.8854
18.2778 6.2712 -1.7906
16.9782 7.5804 -1.7229
15.7638 8.8038 -1.6731
14.6088 9.9674 -1.6388
13.4915 11.0930 -1.6185
15.4835 15.2423 -2.0133
14.0020 16.4948 -2.0049
21.5907 37.2733 -3.9915
11.4829 24.6710 -2.5216
-16.2926 33.0136 -3.4114
-16.3157 26.7406 -2.9027
-18.0892 24.4353 -2.8172
-20.7032 23.2901 -2.8876
-25.8759 24.3354 -3.2915
-31.0380 24.3545 -3.6558
-37.5431 24.3785 -4.1480
-16.3024 8.6225 -1.7089
-16.3090 6.8396 -1.6388
-16.3151 5.1847 -1.5863
-16.3208 3.6204 -1.5491
-16.3264 2.1159 -1.5255
-16.3318 0.6450 -1.5145
-22.1915 -1.1090 -2.0589
-22.1989 -3.1133 -2.0772
-11.5571 -41.8932 -4.0270
23.6963 0.8905 -2.1973
21.8158 2.7849 -2.0379
20.0322 4.4034 -1.9006
18.6855 5.8987 -1.8157
17.3280 7.2281 -1.7398
16.0929 8.4723 -1.6853
14.9238 9.6501 -1.6468
13.7980 10.7842 -1.6228
15.8966 14.8930 -2.0185
14.4108 16.1491 -2.0056
14.5817 29.4050 -3.0414
-16.2775 28.2251 -3.0192
-17.1676 24.4319 -2.7670
-20.6701 24.4448 -2.9664
-21.4538 21.2006 -2.7949
-29.4616 24.3186 -3.5399
-33.0838 22.6655 -3.7161
-16.3004 9.1445 -1.7319
-16.3072 7.3183 -1.6563
-16.3134 5.6321 -1.5992
-16.3193 4.0460 -1.5580
-16.3249 2.5277 -1.5307
-16.3303 1.0501 -1.5164
-22.1895 -0.5592 -2.0568
-22.1969 -2.5550 -2.0704
5.7883 -37.5061 -3.5166
8.1613 -8.2670 -1.0765
35.9833 0.4616 -3.3346
22.3084 2.2886 -2.0780
20.6108 3.9989 -1.9455
19.1054 5.5154 -1.8427
17.6849 6.8685 -1.7580
16.4269 8.1358 -1.6986
16.7699 7.8747 -1.6017
15.6252 9.1218 -1.5642
14.4717 10.2839 -1.5349
16.3574 13.9810 -1.8603
15.1660 15.5107 -1.8755
18.1344 32.7309 -3.2350
11.0066 24.8779 -2.3519
-16.2982 31.4958 -3.0659
-16.3198 25.6339 -2.6272
-18.8235 24.4380 -2.6668
-20.8819 22.6072 -2.6607
-26.8901 24.3392 -3.1356
-32.2944 24.3591 -3.4972
-40.0188 24.9135 -4.0755
-8.6533 4.3676 -0.8380
-16.3103 6.4771 -1.5172
-16.3163 4.8443 -1.4715
-16.3220 3.2951 -1.4396
-16.3276 1.8000 -1.4201
-16.3330 0.3331 -1.4123
-22.1931 -1.5341 -1.9233
-22.2005 -3.5467 -1.9437
-8.5520 -4.8517 -0.8501
-33.8674 -33.7907 -4.1361
-11.2332 -43.9756 -3.9240
26.9272 -8.3585 -2.4375
23.2703 1.3196 -2.0150
21.4103 3.1495 -1.8709
19.7095 4.7285 -1.7523
18.3635 6.1848 -1.6752
17.0575 7.5005 -1.6110
15.9531 8.7915 -1.5748
14.7866 9.9667 -1.5416
13.6594 11.1022 -1.5218
15.5777 15.1626 -1.8794
14.0954 16.4158 -1.8706
21.7914 37.1341 -3.7224
-16.2617 33.4259 -3.2136
-16.2347 26.9491 -2.7200
-17.8756 24.4345 -2.6174
-20.3585 23.1648 -2.6662
-22.9329 21.8133 -2.7363
-30.6776 24.3532 -3.3863
-37.0799 24.3768 -3.8364
-16.3019 8.7406 -1.5992
-16.3086 6.9482 -1.5326
-16.3147 5.2864 -1.4827
-16.3205 3.7172 -1.4471
-16.3261 2.2098 -1.4243
-16.3315 0.7375 -1.4134
-22.1911 -0.9832 -1.9204
-22.1985 -2.9854 -1.9364
-11.7800 -41.7782 -3.7527
23.8253 0.7605 -2.0608
21.9267 2.6732 -1.9097
20.1293 4.3056 -1.7796
18.7445 5.8010 -1.6964
17.4089 7.1465 -1.6270
16.2856 8.4565 -1.5865
15.1045 9.6464 -1.5494
13.9685 10.7908 -1.5260
15.9914 14.8129 -1.8845
14.5043 16.0701 -1.8715
14.6773 29.1822 -2.8240
-16.3087 28.6522 -2.8503
-16.9616 24.4311 -2.5713
-20.4336 24.4439 -2.7544
-21.5992 21.5871 -2.6401
-29.0627 24.2669 -3.2733
-33.0009 22.8839 -3.4719
-21.1772 12.0382 -2.1060
-16.3068 7.4292 -1.5492
-16.3130 5.7354 -1.4950
-16.3189 4.1440 -1.4556
-16.3245 2.6223 -1.4294
-16.3300 1.1428 -1.4152
-22.1890 -0.4336 -1.9187
-22.1964 -2.4278 -1.9304
-31.2633 -33.7885 -3.9798
-13.5913 -44.0043 -3.9817
5.5831 -37.5854 -3.2851
8.1336 -8.3326 -1.0067
22.4238 2.1724 -1.9477
20.5626 3.8691 -1.8089
19.0577 5.3851 -1.7121
17.7675 6.7852 -1.6443
16.6233 8.1163 -1.5993
15.4259 9.3226 -1.5583
14.2795 10.4775 -1.5312
16.4076 14.4610 -1.8908
14.9139 15.7239 -1.8736
-16.3024 30.3644 -2.9795
-16.3229 24.7987 -2.5667
-19.4240 24.4402 -2.6990
-21.7577 22.8488 -2.7277
-27.6941 24.3116 -3.1859
-32.1400 23.4851 -3.4414
-41.4168 24.9186 -4.1788
-16.3050 7.9210 -1.5672
-16.3113 6.1923 -1.5084
-16.3173 4.5760 -1.4651
-16.3230 3.0380 -1.4354
-16.3285 1.5494 -1.4180
-16.3339 0.0849 -1.4122
-22.1943 -1.8734 -1.9256
-8.4967 -4.9925 -0.8520
-31.3305 -32.2243 -3.8856
-10.0367 -41.9390 -3.7282
9.1288 -8.2159 -1.0618
22.7761 1.6391 -1.9742
21.1632 3.4424 -1.8537
19.4579 4.9820 -1.7365
18.1341 6.4159 -1.6630
16.8450 7.7146 -1.6018
15.7511 8.9950 -1.5682
14.5928 10.1619 -1.5374
14.6008 12.2404 -1.6472
15.2356 15.2873 -1.8659
11.2061 24.6894 -2.3441
-8.8085 22.1450 -2.0604
-16.2954 32.2405 -3.1231
-16.2380 26.0507 -2.6539
-18.4537 24.4366 -2.6474
-21.2580 23.4596 -2.7370
-26.3514 24.3129 -3.0997
-31.4017 24.1593 -3.4253
-38.3438 24.3815 -3.9284
-8.6325 4.4609 -0.8401
-16.3096 6.6577 -1.5230
-16.3157 5.0140 -1.4757
-16.3214 3.4574 -1.4424
-16.3270 1.9578 -1.4216
-16.3324 0.4890 -1.4126
-22.1923 -1.3214 -1.9220
-22.1997 -3.3297 -1.9407
-11.4407 -43.0698 -3.8527
3.9504 -40.1844 -3.4909
23.4815 1.1069 -2.0323
21.6308 2.9713 -1.8876
19.8699 4.5669 -1.7626
18.5094 6.0379 -1.6832
17.1922 7.3648 -1.6170
16.0808 8.6629 -1.5791
14.9089 9.8435 -1.5445
13.7784 10.9823 -1.5233
15.7370 15.0279 -1.8812
14.2531 16.2825 -1.8708
-16.2325 27.5365 -2.7635
-17.5192 24.4332 -2.5992
-21.0747 24.4463 -2.7904
-22.2356 21.5578 -2.6775
-30.0809 24.3509 -3.3459
-32.7688 21.9932 -3.4119
-16.3012 8.9415 -1.6074
-16.3079 7.1325 -1.5388
-16.3141 5.4587 -1.4873
-16.3199 3.8812 -1.4503
-16.3255 2.3686 -1.4262
-16.3309 0.8938 -1.4140
-22.1903 -0.7711 -1.9196
-22.1977 -2.7699 -1.9340
-22.0008 -6.8769 -1.9928
8.2633 -8.2121 -1.0072
24.0242 0.5374 -2.0775
22.1162 2.4823 -1.9240
20.2947 4.1389 -1.7907
18.8173 5.6274 -1.6980
17.5463 7.0081 -1.6335
16.4152 8.3260 -1.5913
15.2281 9.5219 -1.5527
14.0882 10.6702 -1.5279
16.1516 14.6775 -1.8868
14.6622 15.9366 -1.8722
14.9560 29.0426 -2.8242
-16.3063 29.2948 -2.8986
-16.6175 24.4298 -2.5544
-20.0392 24.4425 -2.7326
-22.0991 22.5122 -2.7273
-28.5978 24.3455 -3.2470
-32.9596 23.3241 -3.4908
-20.5745 11.9568 -2.0573
-16.3061 7.6176 -1.5560
-16.3124 5.9106 -1.5000
-16.3183 4.3099 -1.4592
-16.3239 2.7822 -1.4316
-16.3294 1.2994 -1.4162
-22.1882 -0.2218 -1.9184
-22.1956 -2.2137 -1.9284
9.3146 -8.1305 -1.0689
46.9578 -8.6024 -4.1273
22.6209 1.9738 -1.9631
20.8841 3.7236 -1.8340
19.2107 5.2310 -1.7213
17.9079 6.6438 -1.6513
16.7252 7.9693 -1.6017
15.5509 9.1967 -1.5619
14.4001 10.3561 -1.5335
16.5689 14.3246 -1.8936
15.0721 15.5901 -1.8747
17.9416 32.8193 -3.2337
-16.2998 31.0671 -3.0331
-16.2907 25.2715 -2.5994
-19.0452 24.4388 -2.6786
-21.5286 23.0446 -2.7264
-27.1988 24.3403 -3.1555
-31.6699 23.6083 -3.4150
-40.5309 24.9154 -4.1132
-8.6876 4.3235 -0.8390
-16.3107 6.3707 -1.5139
-16.3167 4.7443 -1.4691
-16.3224 3.1993 -1.4380
-16.3279 1.7066 -1.4193
-16.3333 0.2408 -1.4122
-22.1936 -1.6602 -1.9241
-22.2010 -3.6757 -1.9455
-8.5177 -4.8962 -0.8494
23.1469 1.4440 -2.0050
21.3415 3.2627 -1.8665
19.6154 4.8233 -1.7463
18.2778 6.2712 -1.6706
16.9782 7.5804 -1.6075
15.8777 8.8674 -1.5723
14.7144 10.0394 -1.5400
14.3106 11.7664 -1.6017
15.4835 15.2423 -1.8784
14.0020 16.4948 -1.8706
21.5907 37.2733 -3.7240
11.4829 24.6710 -2.3526
-16.2926 33.0136 -3.1828
-16.2359 26.6097 -2.6949
-18.0892 24.4353 -2.6284
-20.6600 23.2415 -2.6884
-25.8759 24.3354 -3.0710
-31.0380 24.3545 -3.4108
-37.5431 24.3785 -3.8700
-16.3024 8.6225 -1.5944
-16.3090 6.8396 -1.5289
-16.3151 5.1847 -1.4800
-16.3208 3.6204 -1.4453
-16.3264 2.1159 -1.4233
-16.3318 0.6450 -1.4131
-22.1915 -1.1090 -1.9209
-22.1989 -3.1133 -1.9380
-11.5682 -41.9333 -3.7607
23.6963 0.8905 -2.0501
21.8158 2.7849 -1.9014
20.0322 4.4034 -1.7732
18.6566 5.8896 -1.6914
17.3280 7.2281 -1.6232
16.2092 8.5335 -1.5837
15.0316 9.7198 -1.5476
13.8977 10.8622 -1.5250
15.8966 14.8930 -1.8832
14.4108 16.1491 -1.8712
14.5817 29.4050 -2.8376
-16.2775 28.2251 -2.8169
-17.1676 24.4319 -2.5816
-20.6701 24.4448 -2.7676
-21.3987 21.1462 -2.6009
-29.4983 24.3488 -3.3068
-33.0340 22.6314 -3.4619
-16.3004 9.1445 -1.6159
-16.3072 7.3183 -1.5453
-16.3134 5.6321 -1.4920
-16.3193 4.0460 -1.4536
-16.3249 2.5277 -1.4282
-16.3303 1.0501 -1.4147
-22.1895 -0.5592 -1.9190
-22.1969 -2.5550 -1.9317
5.7881 -37.5050 -3.2809
8.1611 -8.2668 -1.0043
36.5886 0.4693 -3.1635
22.3084 2.2886 -1.9388
20.4623 3.9701 -1.8020
18.9678 5.4757 -1.7068
17.6849 6.8685 -1.6402
16.5456 8.1946 -1.5963
16.8335 7.9045 -1.4924
15.6252 9.1218 -1.4520
14.4717 10.2839 -1.4247
16.3347 13.9616 -1.7245
15.0779 15.4206 -1.7308
18.1344 32.7309 -3.0029
11.0066 24.8779 -2.1832
-16.2982 31.4958 -2.8459
-16.3198 25.6339 -2.4387
-18.8235 24.4380 -2.4755
-20.7938 22.5118 -2.4594
-26.8901 24.3392 -2.9107
-32.2944 24.3591 -3.2463
-40.0188 24.9135 -3.7830
-8.6530 4.3674 -0.7779
-16.3103 6.4771 -1.4084
-16.3163 4.8443 -1.3659
-16.3221 3.2951 -1.3363
-16.3276 1.8000 -1.3182
-16.3330 0.3331 -1.3110
-22.1931 -1.5341 -1.7853
-22.2005 -3.5467 -1.8042
-8.5517 -4.8516 -0.7890
-33.8666 -33.7899 -3.8393
-10.6377 -41.6442 -3.4493
26.9266 -8.3583 -2.2626
23.2703 1.3196 -1.8705
21.2939 3.1323 -1.7273
19.7095 4.7285 -1.6266
18.4962 6.2295 -1.5663
17.1808 7.5547 -1.5062
15.9531 8.7915 -1.4618
14.7866 9.9667 -1.4310
13.6594 11.1022 -1.4126
15.4872 15.0746 -1.7344
14.0135 16.3205 -1.7263
21.7914 37.1341 -3.4553
-16.2617 33.4259 -2.9831
-16.3145 27.0816 -2.5372
-17.8756 24.4345 -2.4296
-20.3269 23.1288 -2.4711
-22.9145 21.7957 -2.5379
-30.6776 24.3532 -3.1433
-36.9571 24.2960 -3.5494
-16.3019 8.7406 -1.4844
-16.3086 6.9482 -1.4226
-16.3147 5.2864 -1.3763
-16.3205 3.7172 -1.3433
-16.3261 2.2098 -1.3221
-16.3315 0.7375 -1.3120
-22.1911 -0.9832 -1.7826
-22.1984 -2.9854 -1.7975
-11.6087 -41.1708 -3.4329
23.8253 0.7605 -1.9130
21.7688 2.6539 -1.7599
20.1293 4.3056 -1.6519
19.0666 5.9007 -1.6017
17.5347 7.1982 -1.5211
16.2856 8.4565 -1.4726
15.1045 9.6464 -1.4383
13.9685 10.7908 -1.4165
15.8985 14.7269 -1.7391
14.4201 15.9768 -1.7272
14.6773 29.1822 -2.6214
-16.3087 28.6522 -2.6458
-16.9616 24.4311 -2.3868
-20.4336 24.4439 -2.5568
-21.4850 21.4730 -2.4377
-29.0627 24.2669 -3.0385
-32.9796 22.8692 -3.2207
-21.0374 11.9587 -1.9420
-16.3068 7.4292 -1.4381
-16.3130 5.7354 -1.3877
-16.3189 4.1440 -1.3512
-16.3245 2.6223 -1.3269
-16.3300 1.1428 -1.3137
-22.1890 -0.4336 -1.7810
-22.1964 -2.4278 -1.7919
-31.2633 -33.7885 -3.6942
-13.5707 -43.9375 -3.6904
-9.3255 -43.7175 -3.5873
5.5828 -37.5837 -3.0493
8.1334 -8.3324 -0.9344
22.2623 2.1568 -1.7949
20.5626 3.8691 -1.6791
19.1960 5.4242 -1.6008
17.8959 6.8343 -1.5373
16.6233 8.1163 -1.4846
15.4259 9.3226 -1.4465
14.2795 10.4775 -1.4213
16.3123 14.3770 -1.7450
14.8272 15.6325 -1.7291
-16.3024 30.3644 -2.7658
-16.3229 24.7987 -2.3825
-19.4240 24.4402 -2.5053
-21.8692 22.9660 -2.5450
-27.6941 24.3116 -2.9574
-32.5139 23.7583 -3.2316
-41.4168 24.9186 -3.8790
-16.3050 7.9210 -1.4547
-16.3113 6.1923 -1.4002
-16.3173 4.5760 -1.3600
-16.3230 3.0380 -1.3324
-16.3285 1.5494 -1.3163
-16.3339 0.0849 -1.3108
-22.1943 -1.8734 -1.7875
-8.4964 -4.9924 -0.7908
-9.9954 -41.7668 -3.4465
9.1288 -8.2159 -0.9856
22.7761 1.6391 -1.8325
21.0107 3.4176 -1.7083
19.4579 4.9820 -1.6119
18.2651 6.4623 -1.5548
16.9667 7.7703 -1.4976
15.7511 8.9950 -1.4556
14.5928 10.1619 -1.4271
15.2950 12.8225 -1.6017
15.2356 15.2873 -1.7321
11.2061 24.6894 -2.1759
-8.8083 22.1445 -1.9125
-16.2954 32.2405 -2.8990
-16.2380 26.0507 -2.4635
-18.4537 24.4366 -2.4574
-21.2132 23.4101 -2.5353
-26.3514 24.3129 -2.8773
-31.3330 24.1064 -3.1726
-38.3438 24.3815 -3.6465
-8.6322 4.4608 -0.7798
-16.3096 6.6577 -1.4137
-16.3157 5.0140 -1.3698
-16.3214 3.4574 -1.3389
-16.3270 1.9578 -1.3196
-16.3324 0.4890 -1.3113
-22.1923 -1.3214 -1.7841
-22.1997 -3.3297 -1.8015
-11.1963 -42.1497 -3.4999
3.9503 -40.1833 -3.2403
23.4815 1.1069 -1.8865
21.4750 2.9499 -1.7396
19.8699 4.5669 -1.6362
18.6431 6.0815 -1.5737
17.3165 7.4180 -1.5118
16.0807 8.6629 -1.4658
14.9089 9.8435 -1.4337
13.7784 10.9823 -1.4140
15.6456 14.9407 -1.7361
14.1703 16.1879 -1.7265
-16.2325 27.5365 -2.5652
-17.5192 24.4332 -2.4127
-21.0747 24.4463 -2.5902
-22.1782 21.5021 -2.4790
-30.0809 24.3509 -3.1059
-32.7140 21.9564 -3.1618
-16.3012 8.9415 -1.4921
-16.3079 7.1325 -1.4284
-16.3141 5.4587 -1.3806
-16.3199 3.8812 -1.3462
-16.3255 2.3686 -1.3239
-16.3309 0.8938 -1.3125
-22.1903 -0.7711 -1.7819
-22.1977 -2.7699 -1.7952
-22.0001 -6.8767 -1.8498
-12.1469 -41.5574 -3.4746
8.2631 -8.2119 -0.9349
24.0242 0.5374 -1.9285
21.9569 2.4644 -1.7731
20.2947 4.1389 -1.6622
18.9538 5.6682 -1.5876
17.6731 7.0587 -1.5272
16.4152 8.3260 -1.4771
15.2281 9.5219 -1.4413
14.0882 10.6702 -1.4183
16.0578 14.5922 -1.7413
14.5770 15.8441 -1.7278
14.9560 29.0426 -2.6216
-16.2277 29.1535 -2.6776
-16.6175 24.4298 -2.3711
-20.0392 24.4425 -2.5365
-22.0051 22.4164 -2.5209
-28.5978 24.3455 -3.0140
-32.9010 23.2826 -3.2346
-20.4052 11.8584 -1.8940
-16.3061 7.6176 -1.4443
-16.3124 5.9106 -1.3924
-16.3183 4.3099 -1.3545
-16.3239 2.7822 -1.3289
-16.3294 1.2994 -1.3146
-22.1882 -0.2218 -1.7807
-22.1956 -2.2137 -1.7901
-31.3014 -33.1887 -3.6612
-13.9353 -43.6370 -3.6762
-9.7616 -43.7142 -3.5945
9.3146 -8.1305 -0.9922
46.9526 -8.6014 -3.8307
22.4580 1.9596 -1.8091
20.7337 3.6967 -1.6901
19.2576 5.2437 -1.6017
18.0373 6.6918 -1.5439
16.7550 7.9836 -1.4895
15.5509 9.1967 -1.4499
14.4001 10.3561 -1.4234
16.4727 14.2414 -1.7475
14.9846 15.4995 -1.7301
17.0055 25.4149 -2.4540
17.9416 32.8193 -3.0017
-16.2998 31.0671 -2.8155
-16.2907 25.2715 -2.4129
-19.0452 24.4388 -2.4865
-21.1298 22.6178 -2.4839
-27.1988 24.3403 -2.9291
-31.5984 23.5550 -3.1629
-40.5309 24.9154 -3.8181
-8.6874 4.3233 -0.7787
-16.3107 6.3707 -1.4053
-16.3167 4.7443 -1.3637
-16.3224 3.1993 -1.3348
-16.3279 1.7066 -1.3175
-16.3333 0.2408 -1.3109
-22.1936 -1.6602 -1.7860
-22.2010 -3.6757 -1.8059
-8.5175 -4.8960 -0.7884
-10.4295 -41.8138 -3.4584
23.1469 1.4439 -1.8612
21.1878 3.2392 -1.7201
19.6154 4.8233 -1.6211
18.4099 6.3165 -1.5620
17.1009 7.6352 -1.5029
15.8777 8.8674 -1.4595
14.7144 10.0394 -1.4295
14.3481 11.7973 -1.4907
15.3935 15.1538 -1.7335
13.9207 16.3990 -1.7263
21.5907 37.2733 -3.4568
11.4829 24.6710 -2.1838
-16.2926 33.0136 -2.9544
-16.3157 26.7406 -2.5139
-18.0892 24.4353 -2.4398
-20.6234 23.2003 -2.4911
-25.8759 24.3354 -2.8506
-31.0380 24.3545 -3.1661
-37.4187 24.2977 -3.5804
-16.3024 8.6225 -1.4800
-16.3090 6.8396 -1.4193
-16.3151 5.1847 -1.3738
-16.3208 3.6204 -1.3416
-16.3264 2.1159 -1.3212
-16.3318 0.6450 -1.3117
-22.1915 -1.1090 -1.7831
-22.1989 -3.1133 -1.7989
-11.5390 -41.8276 -3.4821
23.6963 0.8905 -1.9030
21.6587 2.7648 -1.7522
20.0322 4.4034 -1.6460
19.0329 6.0084 -1.6017
17.4532 7.2803 -1.5176
16.2092 8.5335 -1.4701
15.0316 9.7198 -1.4365
13.8977 10.8622 -1.4155
15.8043 14.8065 -1.7380
14.3271 16.0554 -1.7269
14.5817 29.4050 -2.6340
-16.2775 28.2251 -2.6148
-17.1676 24.4319 -2.3963
-20.6701 24.4448 -2.5690
-21.4261 21.1732 -2.4174
-29.4983 24.3488 -3.0696
-32.8884 22.5317 -3.1993
-16.3004 9.1445 -1.4999
-16.3072 7.3183 -1.4344
-16.3134 5.6321 -1.3850
-16.3193 4.0460 -1.3493
-16.3249 2.5277 -1.3257
-16.3303 1.0501 -1.3132
-22.1895 -0.5592 -1.7813
-22.1969 -2.5550 -1.7931
-13.3914 -44.2424 -3.7096
-9.0874 -43.8146 -3.5910
5.7880 -37.5040 -3.0454
8.1609 -8.2666 -0.9322
36.5886 0.4693 -2.9365
22.1478 2.2721 -1.7867
20.4623 3.9701 -1.6728
19.1054 5.5154 -1.5958
17.8126 6.9181 -1.5335
16.5456 8.1946 -1.4817
16.8335 7.9045 -1.3772
15.6252 9.1218 -1.3399
14.4717 10.2839 -1.3147
16.4415 14.0529 -1.6017
15.1211 15.4648 -1.6017
18.1344 32.7309 -2.7710
11.0066 24.8779 -2.0146
-16.2982 31.4958 -2.6262
-16.3198 25.6339 -2.2504
-18.8235 24.4380 -2.2844
-21.2571 23.0135 -2.3200
-26.8071 24.2640 -2.6776
-32.2799 24.3482 -2.9943
