944 7.213965758681297 -54.75082015991211 -2.8988778591156006 2.0740342140197754 -1.000515670313007e-08 6.830188794992864e-06 0.11190558969974518 0.6540985107421875 256
1.5581884384155273 -16.62679672241211 -8.573790550231934
1.5791099071502686 -16.85009002685547 -8.557613372802734
1.6025891304016113 -17.100616455078125 -8.552408218383789
4.849658489227295 -16.844379425048828 -8.460349082946777
6.605525493621826 -16.841943740844727 -8.188530921936035
8.480354309082031 -16.810604095458984 -7.833015441894531
8.52342700958252 -16.8959903717041 -7.736402988433838
4.399357318878174 -46.94375228881836 -8.813763618469238
4.39935827255249 -46.94375991821289 -8.51351547241211
4.399357318878174 -46.94375991821289 -8.213933944702148
4.399347305297852 -46.943641662597656 -7.914979457855225
4.399326324462891 -46.943416595458984 -7.6166229248046875
4.399303913116455 -46.94318771362305 -7.31886100769043
4.399281978607178 -46.94295120239258 -7.021676063537598
4.399261951446533 -46.94272994995117 -6.725034236907959
4.399240493774414 -46.9425048828125 -6.428922176361084
4.399219989776611 -46.94227981567383 -6.133298397064209
16.336669921875 -26.01944351196289 -3.99662709236145
4.399198532104492 -46.94205093383789 -5.838160037994385
16.336669921875 -26.019447326660156 -3.8043267726898193
4.465914726257324 -47.653968811035156 -5.627568244934082
16.336669921875 -26.019439697265625 -3.612313747406006
4.600818157196045 -49.093544006347656 -5.489861965179443
16.336669921875 -26.019447326660156 -3.4205808639526367
16.336669921875 -26.019437789916992 -3.2291135787963867
16.336669921875 -26.01944351196289 -3.037890672683716
16.336669921875 -26.01944351196289 -2.8468968868255615
8.870256423950195 -46.90973663330078 -4.127413272857666
16.336671829223633 -26.019439697265625 -2.6561279296875
8.869317054748535 -46.90476989746094 -3.830883026123047
16.32102394104004 -25.994524002075195 -2.463200569152832
8.86838150024414 -46.89980697631836 -3.5347087383270264
16.336669921875 -26.019453048706055 -2.275181293487549
16.336669921875 -26.01944351196289 -2.084977626800537
16.336669921875 -26.019445419311523 -1.8949253559112549
16.25660514831543 -25.89192771911621 -1.696664810180664
16.25660514831543 -25.89192771911621 -1.5078257322311401
4.576612949371338 -48.83527755737305 -2.1163077354431152
16.256607055664062 -25.89192771911621 -1.3190991878509521
4.398616313934326 -46.93583297729492 -1.7431385517120361
16.25660514831543 -25.89192771911621 -1.1304692029953003
4.398161888122559 -46.93096923828125 -1.4522688388824463
16.25660514831543 -25.89192771911621 -0.941926121711731
4.397705078125 -46.92610549926758 -1.1615607738494873
16.25660514831543 -25.89193344116211 -0.7534547448158264
4.397249221801758 -46.92124938964844 -0.8710017204284668
16.25660514831543 -25.891942977905273 -0.5650404095649719
4.396792888641357 -46.91638946533203 -0.5805738568305969
16.25660514831543 -25.89193344116211 -0.3766680955886841
4.396339416503906 -46.91153335571289 -0.2902456521987915
16.922828674316406 -26.95302391052246 -0.19604675471782684
4.3958845138549805 -46.90667724609375 -6.561278951267013e-06
16.922828674316406 -26.95302391052246 -3.814697265625e-06
4.3954291343688965 -46.90182876586914 0.29018065333366394
16.922828674316406 -26.95302391052246 0.19604675471782684
4.394970417022705 -46.896942138671875 0.580322265625
16.922828674316406 -26.95302963256836 0.39210081100463867
4.3945159912109375 -46.89208221435547 0.8704535961151123
12.689488410949707 -32.354068756103516 0.642315685749054
16.922828674316406 -26.953033447265625 0.5881960988044739
12.689781188964844 -32.35481643676758 0.8565140962600708
16.922828674316406 -26.95302391052246 0.784328281879425
12.839247703552246 -44.59471893310547 1.429756760597229
12.61044692993164 -32.152530670166016 1.0640734434127808
16.922828674316406 -26.953022003173828 0.9805238246917725
-4.830360467167338e-06 -40.4698371887207 1.4964371919631958
3.7701635360717773 -40.229881286621094 1.4940836429595947
7.772714614868164 -41.1054573059082 1.5468724966049194
12.870250701904297 -44.702396392822266 1.720086932182312
12.61052417755127 -32.15272521972656 1.277071237564087
16.922828674316406 -26.95302391052246 1.1767902374267578
-4.830360467167338e-06 -40.4698371887207 1.7461278438568115
3.770162582397461 -40.229881286621094 1.743379831314087
7.772716045379639 -41.1054573059082 1.8049776554107666
12.356447219848633 -42.91778564453125 1.9269682168960571
12.610602378845215 -32.152923583984375 1.4901692867279053
21.65056037902832 -42.91791534423828 2.0740342140197754
16.92283058166504 -26.953020095825195 1.3731456995010376
-4.87804391013924e-06 -39.04401779174805 1.9256407022476196
3.6439476013183594 -38.883079528808594 1.9261062145233154
7.245110511779785 -38.31526184082031 1.9231857061386108
11.268190383911133 -39.13793182373047 2.0086822509765625
12.610679626464844 -32.15311813354492 1.7033895254135132
18.940570831298828 -37.545894622802734 2.0740342140197754
16.922828674316406 -26.95302391052246 1.5696139335632324
-4.873275429417845e-06 -37.31317901611328 2.070753812789917
3.4683520793914795 -37.00937271118164 2.0628936290740967
2.85776424407959 -15.113090515136719 0.8535874485969543
4.246669769287109 -14.75001049041748 0.8518266081809998
13.645666122436523 -34.79200744628906 2.0740342140197754
15.595630645751953 -30.915163040161133 1.9216341972351074
16.922828674316406 -26.95302391052246 1.7661933898925781
-4.7445296331716236e-06 -33.62693405151367 2.0740342140197754
3.1376168727874756 -33.48023223876953 2.0740342140197754
2.544440507888794 -13.456096649169922 0.8446494340896606
3.781924247741699 -13.135804176330566 0.8430976867675781
12.278130531311035 -31.30523681640625 2.0740342140197754
14.071502685546875 -27.894113540649414 1.9269551038742065
16.566967010498047 -26.386234283447266 1.9216341972351074
-3.900527644873364e-06 -30.561845779418945 2.0740342140197754
2.851623773574829 -30.428510665893555 2.0740342140197754
2.505204677581787 -13.248600006103516 0.915028989315033
3.408620595932007 -11.839203834533691 0.8360862731933594
10.351200103759766 -26.392213821411133 1.9238989353179932
12.78746223449707 -25.348609924316406 1.9267387390136719
15.09425163269043 -24.04062843322754 1.926401972770691
-1.6117095356094069e-06 -12.157111167907715 0.9002912640571594
2.421199321746826 -25.835636138916016 1.9216341972351074
2.505204677581787 -13.248604774475098 0.9985079765319824
3.3998732566833496 -11.808820724487305 0.9100217819213867
9.490250587463379 -24.196990966796875 1.9247949123382568
11.717592239379883 -23.22787857055664 1.9266090393066406
13.831117630004883 -22.028886795043945 1.9262347221374512
-1.4567374364560237e-06 -11.751901626586914 0.9431036114692688
2.2342512607574463 -23.840784072875977 1.9216341972351074
2.505204677581787 -13.24860954284668 1.0820571184158325
3.3997557163238525 -11.808415412902832 0.9861327409744263
8.756153106689453 -22.325334548950195 1.92450749874115
10.812432289123535 -21.43340492248535 1.9265334606170654
12.762426376342773 -20.326717376708984 1.9261215925216675
-1.4567374364560237e-06 -11.751901626586914 1.0160001516342163
2.2280702590942383 -23.77482795715332 2.064438581466675
2.505204439163208 -13.248600006103516 1.165693998336792
3.399639129638672 -11.80801010131836 1.0623184442520142
8.125508308410645 -20.71739959716797 1.9239391088485718
8.636032104492188 -17.11920928955078 1.6576857566833496
11.846550941467285 -18.867931365966797 1.9260891675949097
-1.4567374364560237e-06 -11.751901626586914 1.088973045349121
2.0884268283843994 -22.284759521484375 2.0740342140197754
2.505204439163208 -13.248600006103516 1.2494184970855713
3.3995213508605957 -11.80760383605957 1.1385793685913086
7.578312873840332 -19.322235107421875 1.9232540130615234
8.613189697265625 -17.07392692565918 1.7720469236373901
11.052643775939941 -17.603561401367188 1.9260809421539307
-1.4567374364560237e-06 -11.751901626586914 1.1620279550552368
1.9571311473846436 -20.88375473022461 2.0740342140197754
2.505204200744629 -13.248604774475098 1.3332384824752808
3.399404764175415 -11.807193756103516 1.2149215936660767
7.099157333374023 -18.100547790527344 1.922520399093628
8.541625022888184 -16.932065963745117 1.875217080116272
10.362548828125 -16.504335403442383 1.9269682168960571
-1.4567374364560237e-06 -11.751901626586914 1.2351715564727783
1.8412342071533203 -19.647071838378906 2.0740342140197754
2.505204677581787 -13.24860954284668 1.417157530784607
3.399287223815918 -11.806788444519043 1.2913486957550049
6.6761369705200195 -17.0219669342041 1.9217607975006104
8.25397777557373 -16.361867904663086 1.9261263608932495
9.74891185760498 -15.527153968811035 1.9269682168960571
-1.4567374364560237e-06 -11.751901626586914 1.3084132671356201
1.7381681203842163 -18.54728126525879 2.0740342140197754
2.505204200744629 -13.248604774475098 1.50118887424469
3.399170160293579 -11.806378364562988 1.3678737878799438
6.38594913482666 -16.28208351135254 1.947229266166687
7.787726879119873 -15.43758487701416 1.9250811338424683
9.2031888961792 -14.6580171585083 1.9269682168960571
-1.4567374364560237e-06 -11.751901626586914 1.3817538022994995
1.6459097862243652 -17.562829971313477 2.0740342140197754
2.505204200744629 -13.248604774475098 1.585335612297058
3.3990533351898193 -11.805973052978516 1.4444973468780518
6.361665725708008 -16.220172882080078 2.048557758331299
7.370527744293213 -14.610593795776367 1.9240800142288208
8.714714050292969 -13.879889488220215 1.9269682168960571
-1.4567374364560237e-06 -11.751901626586914 1.4551975727081299
1.5628479719161987 -16.676433563232422 2.0740342140197754
2.505204200744629 -13.248604774475098 1.6696016788482666
3.3989343643188477 -11.805562019348145 1.521224021911621
6.1157121658325195 -15.593074798583984 2.0740342140197754
6.995083332061768 -13.866347312927246 1.9231301546096802
8.273114204406738 -13.17660903930664 1.9265575408935547
-1.4567374364560237e-06 -11.751901626586914 1.5287585258483887
1.4876666069030762 -15.873995780944824 2.0740342140197754
2.505204200744629 -13.248604774475098 1.753999948501587
3.3988170623779297 -11.805150985717773 1.5980666875839233
5.821442127227783 -14.842771530151367 2.0740342140197754
6.655422687530518 -13.193038940429688 1.9222431182861328
7.870667934417725 -12.535626411437988 1.9254897832870483
-1.4567374364560237e-06 -11.751901626586914 1.6024351119995117
1.4192620515823364 -15.144147872924805 2.0740342140197754
2.826098918914795 -14.94565486907959 2.0740342140197754
3.3986973762512207 -11.804740905761719 1.6750253438949585
5.553779602050781 -14.160331726074219 2.0740342140197754
6.347405433654785 -12.582470893859863 1.9216341972351074
7.505002975463867 -11.953235626220703 1.924519419670105
-1.4567374364560237e-06 -11.751901626586914 1.6762347221374512
1.3567532300949097 -14.47739315032959 2.0740342140197754
2.701679229736328 -14.287639617919922 2.0740342140197754
3.3985791206359863 -11.804330825805664 1.7521069049835205
0.919614851474762 -2.3447155952453613 0.359240859746933
6.249091625213623 -12.387575149536133 1.9789997339248657
7.171281814575195 -11.421709060668945 1.9236339330673218
-1.4567374364560237e-06 -11.751901626586914 1.7501646280288696
1.2994543313980103 -13.865850448608398 2.0740342140197754
0.44808924198150635 -2.369683265686035 0.359160453081131
0.6675243377685547 -2.3185200691223145 0.35931259393692017
0.8814598917961121 -2.24743390083313 0.3595225512981415
6.233770847320557 -12.357197761535645 2.061215400695801
6.865457534790039 -10.934626579284668 1.9228224754333496
2.3961067086020194e-07 -2.3147356510162354 0.35931259393692017
0.2160004824399948 -2.304849863052368 0.3593449294567108
0.430223673582077 -2.27520489692688 0.35943466424942017
0.6408989429473877 -2.226041078567505 0.3595806658267975
0.8462808728218079 -2.157740831375122 0.35978254675865173
1.0446633100509644 -2.070833206176758 0.36003798246383667
6.5841498374938965 -10.486580848693848 1.9220761060714722
2.029538137549025e-07 -2.225853681564331 0.35957077145576477
0.2077053189277649 -2.2163374423980713 0.3596018850803375
0.41369831562042236 -2.1878089904785156 0.3596879541873932
0.616271436214447 -2.1404995918273926 0.3598286211490631
0.8137438893318176 -2.074781656265259 0.36002272367477417
1.0044710636138916 -1.9911599159240723 0.3602687120437622
6.325325012207031 -10.074360847473145 1.9216341972351074
4.515051728049002e-07 -2.143387794494629 0.3598100244998932
0.20000989735126495 -2.1342129707336426 0.35984006524086
0.39836591482162476 -2.10672926902771 0.3599230945110321
0.5934237241744995 -2.061143398284912 0.36005857586860657
0.7835589647293091 -1.9978182315826416 0.3602454960346222
0.9671861529350281 -1.9172539710998535 0.3604826331138611
6.242807865142822 -9.9429292678833 1.9708460569381714
4.798174018105783e-07 -2.0666589736938477 0.3600327968597412
0.19284924864768982 -2.057807207107544 0.36006149649620056
0.38410133123397827 -2.0312912464141846 0.3601417541503906
0.5721659064292908 -1.9873076677322388 0.36027267575263977
0.7554766535758972 -1.9262202978134155 0.3604530394077301
0.9325010180473328 -1.8484946489334106 0.36068159341812134
6.229748249053955 -9.92213249206543 2.041003942489624
5.078315439277503e-07 -1.995086669921875 0.3602406084537506
0.18616989254951477 -1.9865391254425049 0.36026838421821594
0.3707953095436096 -1.9609230756759644 0.36034590005874634
0.5523382425308228 -1.9184406995773315 0.3604724109172821
0.7292838096618652 -1.8594356775283813 0.3606463670730591
0.9001498818397522 -1.784368872642517 0.36086729168891907
1.0634994506835938 -1.693838119506836 0.36113280057907104
3.0636786618742917e-07 -1.928162693977356 0.3604348599910736
0.17992430925369263 -1.919895887374878 0.360461562871933
0.35835328698158264 -1.8951225280761719 0.3605366349220276
0.5337988138198853 -1.8540488481521606 0.3606588542461395
0.7047936320304871 -1.7969951629638672 0.36082732677459717
0.8699049949645996 -1.7244123220443726 0.36104080080986023
1.0277396440505981 -1.6368834972381592 0.361297607421875
4.380941334147792e-07 -1.8654428720474243 0.36061689257621765
0.1740712672472 -1.8574382066726685 0.3606431484222412
0.3466934859752655 -1.8334636688232422 0.36071547865867615
0.5164244771003723 -1.7937023639678955 0.36083388328552246
0.6818435788154602 -1.738478660583496 0.3609968423843384
0.8415620923042297 -1.6682288646697998 0.36120346188545227
0.9942313432693481 -1.5835124254226685 0.3614518642425537
4.452466839666158e-07 -1.8065365552902222 0.36078810691833496
0.1685742288827896 -1.7987847328186035 0.3608134388923645
0.33574336767196655 -1.7755515575408936 0.3608834743499756
0.5001081228256226 -1.737029790878296 0.3609980642795563
0.6602910757064819 -1.6835241317749023 0.3611561357975006
0.8149460554122925 -1.6154667139053345 0.3613561987876892
0.9627665281295776 -1.5334017276763916 0.36159682273864746
3.758072750770225e-07 -1.7511067390441895 0.36094895005226135
0.16340160369873047 -1.743588924407959 0.3609733581542969
0.3254389762878418 -1.72105872631073 0.36104169487953186
0.4847549796104431 -1.6837037801742554 0.3611524999141693
0.6400109529495239 -1.6318193674087524 0.36130598187446594
0.789902925491333 -1.5658231973648071 0.361500084400177
0.9331613183021545 -1.4862492084503174 0.36173322796821594
5.155801545697614e-07 -1.6988506317138672 0.36110061407089233
0.15852488577365875 -1.6915481090545654 0.3611244261264801
0.31572458148002625 -1.6696821451187134 0.36119064688682556
0.4702805280685425 -1.633431315422058 0.3612983524799347
0.6208933591842651 -1.583076000213623 0.361447274684906
0.7662952542304993 -1.5190238952636719 0.3616354167461395
0.9052549600601196 -1.4417999982833862 0.36186185479164124
4.836916787098744e-07 -1.649495244026184 0.36124372482299805
0.1539190411567688 -1.642403244972229 0.36126708984375
0.30654990673065186 -1.621163249015808 0.3613310158252716
0.4566100835800171 -1.5859485864639282 0.36143600940704346
0.6028382778167725 -1.5370396375656128 0.36158034205436707
0.7440003752708435 -1.4748300313949585 0.36176344752311707
0.8789012432098389 -1.399829626083374 0.36198318004608154
4.3213367462158203e-07 -1.6028056144714355 0.3613795340061188
0.14956220984458923 -1.5959101915359497 0.36140182614326477
0.2978706359863281 -1.5752673149108887 0.36146438121795654
0.4436790347099304 -1.5410354137420654 0.3615661561489105
0.5857586860656738 -1.4934954643249512 0.36170637607574463
0.722911536693573 -1.4330260753631592 0.36188429594039917
0.8539743423461914 -1.360127568244934 0.3620980679988861
1.7076730784992833e-07 -1.5585672855377197 0.36150771379470825
0.14543376863002777 -1.5518591403961182 0.361529678106308
0.2896474599838257 -1.5317745208740234 0.3615904152393341
0.4314267933368683 -1.4984773397445679 0.3616894483566284
0.5695770382881165 -1.4522331953048706 0.36182600259780884
0.7029314041137695 -1.3934214115142822 0.3619990348815918
0.8303583860397339 -1.3225129842758179 0.3622068762779236
3.85344009146138e-07 -1.5165847539901733 0.36162978410720825
0.14151637256145477 -1.5100594758987427 0.3616510033607483
0.2818441390991211 -1.490509271621704 0.3617100417613983
0.4198007583618164 -1.4580979347229004 0.3618064820766449
0.5542228817939758 -1.4130871295928955 0.36193937063217163
0.6839734315872192 -1.3558404445648193 0.36210769414901733
0.8079509735107422 -1.2868245840072632 0.3623100221157074
1.8060207196413103e-07 -1.4766921997070312 0.36174559593200684
0.1377939134836197 -1.4703353643417358 0.36176618933677673
0.27442893385887146 -1.4512954950332642 0.3618238866329193
0.40875327587127686 -1.419726848602295 0.3619178831577301
0.5396323800086975 -1.3758856058120728 0.3620469570159912
0.6659590601921082 -1.3201313018798828 0.362211138010025
0.7866595983505249 -1.2529157400131226 0.36240828037261963
1.567602083696329e-07 -1.4387378692626953 0.3618556261062622
0.1342516988515854 -1.4325402975082397 0.3618759214878082
0.26737383008003235 -1.4139868021011353 0.36193206906318665
0.39824193716049194 -1.3832168579101562 0.3620234727859497
0.5257505774497986 -1.3404923677444458 0.36214980483055115
0.6488197445869446 -1.2861524820327759 0.36230939626693726
0.7664029002189636 -1.2206496000289917 0.36250168085098267
-8.940696516468449e-10 -1.4025709629058838 0.36196088790893555
0.13087691366672516 -1.396527647972107 0.3619804382324219
0.26065126061439514 -1.3784315586090088 0.3620350658893585
0.3882268965244293 -1.3484317064285278 0.36212432384490967
0.5125244855880737 -1.3067699670791626 0.3622474670410156
0.632490873336792 -1.253786563873291 0.3624032437801361
0.7471050024032593 -1.1899136304855347 0.3625904619693756
2.416968243323936e-07 -1.3680737018585205 0.36206069588661194
0.12765756249427795 -1.3621755838394165 0.3620802164077759
0.25423893332481384 -1.344522476196289 0.36213362216949463
0.3786737322807312 -1.3152488470077515 0.36222043633461
0.49990832805633545 -1.2746018171310425 0.3623405396938324
0.6169148683547974 -1.2229113578796387 0.36249250173568726
0.7286973595619202 -1.160595417022705 0.36267516016960144
5.033612069382798e-07 -1.3351293802261353 0.3621565103530884
0.12458290159702301 -1.3293718099594116 0.36217543482780457
0.24811501801013947 -1.3121373653411865 0.36222732067108154
0.3695506155490875 -1.283561110496521 0.3623121678829193
0.4878602921962738 -1.243884801864624 0.36242949962615967
0.6020407676696777 -1.1934242248535156 0.36257797479629517
0.7111195921897888 -1.1326019763946533 0.3627563416957855
3.832578556739463e-07 -1.3036303520202637 0.3622480630874634
0.12164366245269775 -1.2980085611343384 0.3622663915157318
0.24226027727127075 -1.2811737060546875 0.3623170256614685
0.360828161239624 -1.253265619277954 0.3624000549316406
0.47634199261665344 -1.2145166397094727 0.3625144958496094
0.5878212451934814 -1.1652371883392334 0.3626594543457031
0.6943156123161316 -1.1058357954025269 0.362833708524704
7.212161534653205e-08 -1.2734788656234741 0.3623355031013489
0.11883028596639633 -1.2679883241653442 0.36235350370407104
0.23665650188922882 -1.2515387535095215 0.36240309476852417
0.3524802625179291 -1.2242746353149414 0.3624841272830963
0.46531808376312256 -1.1864089965820312 0.36259597539901733
0.5742118954658508 -1.138262391090393 0.3627375662326813
0.6782330870628357 -1.0802232027053833 0.3629077076911926
3.331899449676712e-07 -1.2445969581604004 0.3624192774295807
0.11613530665636063 -1.2392281293869019 0.36243683099746704
0.23128776252269745 -1.2231491804122925 0.36248549818992615
0.3444821536540985 -1.1964904069900513 0.3625645339488983
0.45475664734840393 -1.1594791412353516 0.36267393827438354
0.5611741542816162 -1.1124165058135986 0.362812340259552
0.6628262996673584 -1.0556862354278564 0.3629789650440216
4.224478971082135e-07 -1.2168967723846436 0.36249983310699463
0.11355032026767731 -1.2116448879241943 0.36251693964004517
0.2261398285627365 -1.1959223747253418 0.36256423592567444
0.3368126153945923 -1.1698542833328247 0.3626419007778168
0.44462886452674866 -1.1336586475372314 0.3627488613128662
0.5486716032028198 -1.0876312255859375 0.3628840446472168
0.6480522751808167 -1.0321563482284546 0.36304670572280884
1.6823410931010585e-07 -1.190309762954712 0.3625769019126892
0.11106937378644943 -1.185170292854309 0.3625936806201935
0.22119757533073425 -1.1697847843170166 0.36264023184776306
0.329450398683548 -1.1442832946777344 0.36271604895591736
0.43490731716156006 -1.1088690757751465 0.362820565700531
0.5366709232330322 -1.0638432502746582 0.3629530370235443
0.6338716149330139 -1.0095700025558472 0.3631121814250946
3.239512409436429e-07 -1.1647628545761108 0.3626510500907898
0.10868556797504425 -1.159735918045044 0.36266738176345825
0.21644984185695648 -1.144677758216858 0.3627128601074219
0.32237768173217773 -1.1197185516357422 0.36278730630874634
0.42556753754615784 -1.0850567817687988 0.3628895580768585
0.5251414179801941 -1.040988564491272 0.36301925778388977
0.6202483773231506 -0.9878734946250916 0.3631748855113983
3.9383769490086706e-07 -1.1401973962783813 0.3627223074436188
0.10639327019453049 -1.1352734565734863 0.3627384901046753
0.2118842899799347 -1.1205331087112427 0.3627830445766449
0.3155760169029236 -1.0960921049118042 0.3628556728363037
0.4165869951248169 -1.062158465385437 0.362955778837204
0.5140557885169983 -1.01901376247406 0.36308273673057556
0.6071493625640869 -0.9670079350471497 0.36323532462120056
1.7732381252244522e-07 -1.116559624671936 0.3627909719944
0.10418733954429626 -1.1117337942123413 0.36280685663223267
0.20749057829380035 -1.097296953201294 0.3628503382205963
0.30903103947639465 -1.0733593702316284 0.3629215955734253
0.4079442620277405 -1.0401248931884766 0.3630197048187256
0.5033873915672302 -0.9978649020195007 0.36314406991004944
0.5945438742637634 -0.9469296932220459 0.36329329013824463
9.432434922018729e-08 -1.093791127204895 0.3628571927547455
0.10206273943185806 -1.0890636444091797 0.362872451543808
0.20325878262519836 -1.0749155282974243 0.36291518807411194
0.302727073431015 -1.0514624118804932 0.3629850745201111
0.3996203541755676 -1.0189025402069092 0.3630811870098114
0.49311262369155884 -0.9774981737136841 0.3632029592990875
0.5824034214019775 -0.9275943636894226 0.36334913969039917
2.4005768750612333e-07 -1.0718427896499634 0.36292096972465515
0.10001465678215027 -1.0672138929367065 0.3629359304904938
0.19917979836463928 -1.0533450841903687 0.3629777431488037
0.2966507077217102 -1.030361533164978 0.3630461096763611
0.39159727096557617 -0.9984424114227295 0.36314040422439575
0.4832089841365814 -0.95786452293396 0.3632597327232361
0.5707016587257385 -0.9089581966400146 0.36340317130088806
3.856420391912252e-07 -1.0506757497787476 0.3629823327064514
0.09803921729326248 -1.0461357831954956 0.3629971146583557
0.19524522125720978 -1.032536506652832 0.36303818225860596
0.2907899022102356 -1.0100034475326538 0.36310529708862305
0.3838585317134857 -0.9787154197692871 0.3631974756717682
0.4736569821834564 -0.9389297962188721 0.3633146584033966
0.5594159364700317 -0.8909819722175598 0.3634553551673889
3.2141804240382044e-07 -1.0302411317825317 0.36304181814193726
0.0961325541138649 -1.0257853269577026 0.3630561828613281
0.19144746661186218 -1.0124558210372925 0.3630964457988739
0.2851327657699585 -0.9903535842895508 0.36316221952438354
0.37638869881629944 -0.9596675634384155 0.3632526993751526
0.46443670988082886 -0.9206500053405762 0.3633674681186676
0.5485221147537231 -0.8736316561698914 0.36350539326667786
4.288554009690415e-07 -1.0104999542236328 0.3630988895893097
0.09429043531417847 -1.0061331987380981 0.36311325430870056
0.18777868151664734 -0.9930540919303894 0.36315277218818665
0.27966782450675964 -0.9713732004165649 0.36321714520454407
0.36917319893836975 -0.9412696361541748 0.3633059561252594
0.45553043484687805 -0.9029958844184875 0.36341872811317444
0.5379993915557861 -0.8568726778030396 0.363553911447525
1.5452503987489763e-07 -0.991422712802887 0.36315444111824036
0.09251023083925247 -0.987135648727417 0.363168329000473
0.18423284590244293 -0.9743020534515381 0.363207072019577
0.2743856608867645 -0.9530278444290161 0.3632704019546509
0.36219894886016846 -0.9234874248504639 0.3633575439453125
0.446922242641449 -0.8859331607818604 0.36346784234046936
0.5278291702270508 -0.8406760096549988 0.36360061168670654
1.8551945402123238e-07 -0.9729705452919006 0.3632078468799591
0.09078830480575562 -0.968758225440979 0.36322158575057983
0.1808032989501953 -0.9561654329299927 0.3632597327232361
0.26927685737609863 -0.9352835416793823 0.3633216917514801
0.35545337200164795 -0.906291663646698 0.3634074330329895
0.4385961890220642 -0.8694276213645935 0.3635157644748688
0.5179926156997681 -0.825007438659668 0.36364609003067017
2.8297304766056186e-07 -0.955109179019928 0.3632597327232361
0.08912167698144913 -0.950976550579071 0.36327314376831055
0.17748400568962097 -0.9386101365089417 0.36331069469451904
0.26433268189430237 -0.918110728263855 0.3633715808391571
0.34892532229423523 -0.889643132686615 0.3634556531906128
0.43053901195526123 -0.8534548282623291 0.3635621666908264
0.5084730982780457 -0.8098471760749817 0.3636898696422577
1.89840790199014e-07 -0.9378142356872559 0.3633100688457489
0.08750766515731812 -0.9337565898895264 0.3633232116699219
0.17426951229572296 -0.9216116070747375 0.36335983872413635
0.25954458117485046 -0.9014803171157837 0.36341995000839233
0.342603474855423 -0.8735272288322449 0.3635023534297943
0.4227362275123596 -0.8379903435707092 0.363606721162796
0.4992549419403076 -0.7951660752296448 0.3637324571609497
2.680718864667142e-07 -0.92105633020401 0.36335861682891846
0.08594419062137604 -0.9170688986778259 0.36337172985076904
0.17115500569343567 -0.9051406383514404 0.3634077310562134
0.2549053430557251 -0.8853627443313599 0.3634663224220276
0.3364782929420471 -0.8579097390174866 0.36354750394821167
0.41517606377601624 -0.8230048418045044 0.36365005373954773
0.49032309651374817 -0.7809396386146545 0.3637736439704895
2.7015803993890586e-07 -0.90480637550354 0.3634057641029358
0.08442793041467667 -0.9008941650390625 0.3634185791015625
0.1681356579065323 -0.8891727924346924 0.363454133272171
0.250407338142395 -0.8697436451911926 0.3635118007659912
0.3305395543575287 -0.8427662253379822 0.3635914623737335
0.4078466296195984 -0.8084738850593567 0.36369216442108154
0.48166424036026 -0.7671482563018799 0.3638136088848114
2.3394822790123726e-07 -0.8890445232391357 0.36345168948173523
0.0829574316740036 -0.8851978182792664 0.36346420645713806
0.16520632803440094 -0.8736787438392639 0.3634989857673645
0.24604423344135284 -0.8545886278152466 0.36355575919151306
0.3247790038585663 -0.8280822038650513 0.3636338710784912
0.4007367193698883 -0.7943779826164246 0.36373305320739746
0.4732649028301239 -0.7537676095962524 0.3638520836830139
1.9758938663017034e-07 -0.8737515807151794 0.36349594593048096
0.08152995258569717 -0.869970440864563 0.36350828409194946
0.1623636782169342 -0.8586488366127014 0.3635423183441162
0.24180994927883148 -0.839883029460907 0.3635983169078827
0.31918853521347046 -0.8138280510902405 0.36367538571357727
0.39383700489997864 -0.7807023525238037 0.3637724220752716
0.4651135206222534 -0.7407878041267395 0.3638896048069
2.186000358506135e-07 -0.8588980436325073 0.3635389506816864
0.08014404028654099 -0.855177640914917 0.36355116963386536
0.15960317850112915 -0.8440486192703247 0.3635847270488739
0.23769812285900116 -0.8255976438522339 0.3636396825313568
0.3137596547603607 -0.7999843955039978 0.36371535062789917
0.38713666796684265 -0.767422616481781 0.3638111650943756
0.45719805359840393 -0.7281794548034668 0.3639262318611145
3.3468006677139783e-07 -0.8444644212722778 0.3635809123516083
0.07879728823900223 -0.84080970287323 0.3635929822921753
0.15692123770713806 -0.8298637270927429 0.3636259436607361
0.23370331525802612 -0.8117226362228394 0.3636799454689026
0.30848532915115356 -0.7865366339683533 0.3637542724609375
0.38062742352485657 -0.7545192837715149 0.36384841799736023
0.44950851798057556 -0.715933084487915 0.3639616370201111
2.6032327582470316e-07 -0.8304410576820374 0.36362165212631226
0.07748819887638092 -0.8268423080444336 0.36363357305526733
0.15431448817253113 -0.8160792589187622 0.363665908575058
0.22982005774974823 -0.7982335686683655 0.36371901631355286
0.30335888266563416 -0.7734650373458862 0.3637922704219818
0.3743003308773041 -0.7419727444648743 0.36388471722602844
0.44203418493270874 -0.7040287852287292 0.36399611830711365
3.5732983860725653e-07 -0.8167983889579773 0.36366134881973267
0.07621529698371887 -0.8132607340812683 0.3636729419231415
0.15177932381629944 -0.802670955657959 0.3637046813964844
0.2260444015264511 -0.7851206660270691 0.36375686526298523
0.29837390780448914 -0.7607550621032715 0.3638288676738739
0.36814770102500916 -0.7297780513763428 0.363920122385025
0.43476614356040955 -0.6924520134925842 0.3640293776988983
3.457069297496673e-08 -0.8035268187522888 0.3636997938156128
0.07497706264257431 -0.800045371055603 0.36371108889579773
0.1493130326271057 -0.7896290421485901 0.3637426793575287
0.22237057983875275 -0.7723596096038818 0.36379408836364746
0.29352349042892456 -0.7483872175216675 0.3638648986816406
0.36216193437576294 -0.7179157733917236 0.36395445466041565
0.42769521474838257 -0.68118816614151 0.36406204104423523
2.3663044146360335e-07 -0.7906118631362915 0.3637373149394989
0.07377170771360397 -0.7871865630149841 0.3637484610080719
0.14691197872161865 -0.7769339084625244 0.3637794554233551
0.21879465878009796 -0.7599403858184814 0.3638300895690918
0.28880274295806885 -0.7363516092300415 0.36389967799186707
0.3563358187675476 -0.706366240978241 0.36398786306381226
0.4208124577999115 -0.6702274680137634 0.3640937805175781
4.0024517033998563e-07 -0.7780287861824036 0.3637739419937134
0.07259805500507355 -0.7746598124504089 0.36378493905067444
0.14457467198371887 -0.7645708918571472 0.3638153076171875
0.21531274914741516 -0.7478487491607666 0.3638651967048645
0.2842058837413788 -0.724633514881134 0.3639335632324219
0.35066255927085876 -0.6951197385787964 0.36402037739753723
0.41411104798316956 -0.659555196762085 0.364124596118927
2.2038817348857265e-07 -0.7657777070999146 0.36380934715270996
0.07145458459854126 -0.7624602317810059 0.363820344209671
0.1422971785068512 -0.7525254487991333 0.3638502359390259
0.211920827627182 -0.7360646724700928 0.36389923095703125
0.2797277271747589 -0.7132137417793274 0.3639666736125946
0.3451358377933502 -0.6841616630554199 0.3640519678592682
0.40758243203163147 -0.6491566300392151 0.3641548156738281
3.5554168675844267e-07 -0.7538344264030457 0.3638441264629364
0.0703401118516922 -0.7505684494972229 0.3638548254966736
0.14007768034934998 -0.7407876253128052 0.3638842701911926
0.2086149901151657 -0.7245835661888123 0.363932341337204
0.2753634452819824 -0.7020869851112366 0.3639988601207733
0.33974987268447876 -0.67348712682724 0.364082932472229
0.40121990442276 -0.639022171497345 0.36418411135673523
2.1383165460520104e-07 -0.7421888709068298 0.3638780117034912
0.06925344467163086 -0.7389745116233826 0.36388838291168213
0.13791373372077942 -0.729347825050354 0.36391738057136536
0.20539194345474243 -0.7133907675743103 0.3639649748802185
0.2711082100868225 -0.6912387609481812 0.36403030157089233
0.3344986140727997 -0.6630764603614807 0.3641130030155182
0.39501699805259705 -0.6291418671607971 0.36421263217926025
1.1980533543010097e-07 -0.7308314442634583 0.363910973072052
0.06819399446249008 -0.7276638150215149 0.36392104625701904
0.13580326735973358 -0.7181864976882935 0.363949716091156
0.20224826037883759 -0.7024715542793274 0.3639964163303375
0.2669580280780792 -0.6806545257568359 0.3640609681606293
0.32937681674957275 -0.6529247760772705 0.36414259672164917
0.38896703720092773 -0.6195108890533447 0.3642405569553375
3.9771197180016316e-07 -0.7197522521018982 0.3639430105686188
0.06715963035821915 -0.7166315317153931 0.36395323276519775
0.13374385237693787 -0.7072937488555908 0.3639814555644989
0.19918100535869598 -0.6918160915374756 0.36402755975723267
0.262908399105072 -0.670329213142395 0.36409085988998413
0.3243793845176697 -0.643017590045929 0.3641711473464966
0.38306376338005066 -0.6101047992706299 0.3642677366733551
4.6595928893111704e-07 -0.7089368104934692 0.3639744520187378
0.06615038961172104 -0.7058629393577576 0.36398452520370483
0.13173365592956543 -0.6966648101806641 0.36401230096817017
0.19618678092956543 -0.6814196109771729 0.3640574514865875
0.2589558959007263 -0.66025310754776 0.3641200065612793
0.3195013999938965 -0.6333498358726501 0.3641992211341858
0.37730178236961365 -0.6009284853935242 0.36429426074028015
3.431737241044175e-07 -0.6983752846717834 0.3640049695968628
0.06516508013010025 -0.6953433752059937 0.36401504278182983
0.129770889878273 -0.6862850189208984 0.36404234170913696
0.1932634860277176 -0.6712625026702881 0.3640870451927185
0.25509634613990784 -0.6504114866256714 0.3641485571861267
0.3147386610507965 -0.6239069104194641 0.3642265200614929
0.3716760277748108 -0.5919672846794128 0.36432021856307983
3.5405159337642544e-07 -0.6880578398704529 0.36403486132621765
0.06420247256755829 -0.6850728988647461 0.3640446364879608
0.12785375118255615 -0.676144540309906 0.364071786403656
0.19040778279304504 -0.6613448262214661 0.36411574482917786
0.25132662057876587 -0.6407996416091919 0.364176481962204
0.31008657813072205 -0.6146839261054993 0.36425307393074036
0.3661808371543884 -0.5832163095474243 0.3643455505371094
2.123415470123291e-07 -0.6779749393463135 0.36406415700912476
0.06326168030500412 -0.6750369071960449 0.3640739321708679
0.125980406999588 -0.66623854637146 0.36410048604011536
0.18761727213859558 -0.6516517996788025 0.36414381861686707
0.2476428896188736 -0.6314076781272888 0.36420363187789917
0.3055402636528015 -0.6056711673736572 0.3642793297767639
0.36081114411354065 -0.5746657252311707 0.3643702566623688
2.3260712112005422e-07 -0.668121337890625 0.3640928566455841
0.062342122197151184 -0.6652255058288574 0.364102303981781
0.12414903193712234 -0.656552255153656 0.36412855982780457
0.18489010632038116 -0.6421787142753601 0.3641712963581085
0.2440420538187027 -0.6222258806228638 0.3642301857471466
0.30109700560569763 -0.5968636274337769 0.3643048107624054
0.3555627763271332 -0.566305935382843 0.3643943667411804
1.2874602361989673e-07 -0.6584875583648682 0.3641209304332733
0.06144320219755173 -0.65562903881073 0.36413007974624634
0.12235845625400543 -0.6470809578895569 0.364156037569046
0.18222294747829437 -0.6329156756401062 0.36419814825057983
0.2405213713645935 -0.6132492423057556 0.3642561137676239
0.2967522442340851 -0.5882515907287598 0.36432966589927673
0.3504308760166168 -0.558131754398346 0.3644181787967682
2.25305555545674e-07 -0.6490636467933655 0.36414825916290283
0.060563694685697556 -0.646247386932373 0.36415740847587585
0.12060712277889252 -0.6378197073936462 0.36418288946151733
0.1796146035194397 -0.623857855796814 0.364224374294281
0.23707780241966248 -0.6044729948043823 0.3642817735671997
0.29250264167785645 -0.5798253417015076 0.36435407400131226
0.34541136026382446 -0.5501385927200317 0.36444106698036194
2.3595988807301183e-07 -0.6398400068283081 0.3641749620437622
0.05970333516597748 -0.6370660066604614 0.36418411135673523
0.11889355629682541 -0.6287587881088257 0.3642091155052185
0.17706234753131866 -0.6149905323982239 0.3642500340938568
0.23370866477489471 -0.5958823561668396 0.3643064796924591
0.2883451282978058 -0.5715847611427307 0.3643778860569
0.34050047397613525 -0.5423164367675781 0.36446380615234375
1.6078352871318202e-07 -0.6308165788650513 0.3642011880874634
0.0588608980178833 -0.6280800104141235 0.3642100393772125
0.1172165498137474 -0.6198883056640625 0.36423492431640625
0.17456433176994324 -0.6063137650489807 0.36427536606788635
0.2304108589887619 -0.5874726176261902 0.36433088779449463
0.2842757999897003 -0.5635201334953308 0.3644014000892639
0.33569425344467163 -0.5346605777740479 0.3644859194755554
