ply
format ascii 1.0
element vertex 2090
property float32 x
property float32 y
property float32 z
end_header
-0.3814 10.8625 1.2780
-1.9586 15.6609 1.8557
-3.3477 15.4237 1.8557
-4.7101 15.0637 1.8557
-6.0350 14.5835 1.8557
-6.7158 12.8470 1.7045
-7.8488 12.2183 1.7075
-8.9135 11.4774 1.7086
-9.9018 10.6366 1.7086
-8.5549 7.6843 1.3521
-11.6231 8.6996 1.7070
-12.3451 7.6234 1.7060
-12.9689 6.4884 1.7050
-13.4925 5.3043 1.7046
-13.9104 4.0792 1.7044
-14.2174 2.8219 1.7042
-14.4108 1.5423 1.7041
-14.4894 0.2507 1.7039
-14.4524 -1.0426 1.7037
-8.5291 -1.3881 1.0160
-12.0785 -3.0925 1.4660
-13.6576 -4.8307 1.7033
-14.3502 -6.5689 1.8556
-13.7077 -7.8230 1.8557
-12.9552 -9.0146 1.8557
-12.0995 -10.1342 1.8557
-11.1473 -11.1731 1.8557
-10.1062 -12.1229 1.8557
-8.9846 -12.9760 1.8557
-7.7981 -13.7376 1.8573
-6.5521 -14.4013 1.8603
-5.2501 -14.9533 1.8634
-3.9020 -15.3886 1.8666
-2.5215 -15.7223 1.8722
-1.1137 -15.9524 1.8802
0.3145 -16.0332 1.8855
1.7469 -15.9731 1.8893
3.1702 -15.7808 1.8925
4.5727 -15.4605 1.8956
5.9426 -15.0140 1.8986
7.2971 -14.5014 1.9087
8.6261 -13.8969 1.9231
9.9019 -13.1659 1.9370
11.1113 -12.3127 1.9500
12.2412 -11.3429 1.9622
13.2714 -10.2578 1.9722
14.1731 -9.0584 1.9777
9.2021 -4.7834 1.2194
9.2447 -3.8007 1.1752
9.5624 -2.9658 1.1772
15.1944 -3.2612 1.8272
15.4586 -1.8970 1.8312
15.5854 -0.5112 1.8335
15.5730 0.8813 1.8340
15.4214 2.2652 1.8327
15.1324 3.6257 1.8296
14.7100 4.9481 1.8248
5.5969 2.4579 0.7187
4.7505 2.6145 0.6376
4.6660 3.1406 0.6613
11.8207 9.5932 1.7900
10.8443 10.5379 1.7779
9.7884 11.3786 1.7648
8.6649 12.1092 1.7507
7.5015 12.7510 1.7394
4.9583 10.4652 1.3616
5.0259 13.6355 1.7087
3.7824 14.0027 1.7054
2.7403 15.5432 1.8557
0.9538 11.1698 1.3181
-0.0299 7.2372 0.8509
-1.0559 11.2671 1.3306
-2.8685 15.5200 1.8557
-4.2414 15.2023 1.8557
-5.5805 14.7634 1.8557
-6.3108 13.0406 1.7034
-7.4623 12.4480 1.7064
-8.5539 11.7479 1.7086
-9.5676 10.9380 1.7086
-8.4424 8.0693 1.3731
-11.3508 9.0575 1.7074
-12.1056 8.0037 1.7063
-12.7640 6.8880 1.7053
-13.3223 5.7198 1.7047
-13.7780 4.5082 1.7045
-14.1237 3.2610 1.7043
-14.3567 1.9879 1.7041
-14.4752 0.6993 1.7039
-14.4783 -0.5946 1.7038
-14.3660 -1.8835 1.7036
-14.1406 -3.1573 1.7035
-13.8006 -4.4054 1.7033
-13.3527 -5.6189 1.7033
-13.9433 -7.3948 1.8557
-13.2282 -8.6091 1.8557
-12.4075 -9.7547 1.8557
-11.4879 -10.8226 1.8557
-10.4768 -11.8041 1.8557
-9.3822 -12.6916 1.8557
-8.2154 -13.4824 1.8563
-6.9910 -14.1836 1.8592
-5.7073 -14.7749 1.8623
-4.3741 -15.2511 1.8655
-3.0028 -15.6143 1.8695
-1.6048 -15.8864 1.8774
-0.1819 -16.0212 1.8838
1.2506 -16.0096 1.8881
2.6784 -15.8621 1.8914
4.0895 -15.5860 1.8946
5.4720 -15.1829 1.8976
6.8327 -14.6950 1.9054
8.1706 -14.1210 1.9182
9.4664 -13.4335 1.9322
10.7003 -12.6221 1.9456
11.8592 -11.6920 1.9581
12.9305 -10.6498 1.9696
13.8739 -9.4848 1.9760
14.6960 -8.2271 1.9802
14.1026 -6.3152 1.8168
9.2704 -3.1931 1.1528
15.0714 -3.7265 1.8254
15.3824 -2.3732 1.8300
15.5572 -0.9932 1.8329
15.5931 0.3986 1.8340
15.4896 1.7873 1.8333
15.2480 3.1576 1.8308
14.8713 4.4947 1.8266
14.3647 5.7845 1.8208
4.8763 2.4902 0.6438
4.6580 2.9299 0.6470
12.1386 9.2427 1.7939
11.1925 10.2218 1.7822
10.1628 11.0993 1.7694
9.0613 11.8686 1.7557
7.9105 12.5407 1.7433
5.1881 10.1273 1.3379
5.4836 13.5668 1.7205
4.2171 13.8883 1.7066
2.9558 14.1819 1.7033
1.8292 15.6765 1.8557
0.1943 7.2354 0.8510
-0.6965 11.1334 1.3116
-2.3865 15.6014 1.8557
-3.7686 15.3263 1.8557
-5.1207 14.9291 1.8557
-6.1029 13.6755 1.7608
-7.0688 12.6653 1.7054
-8.1846 12.0051 1.7084
-9.2244 11.2291 1.7086
-10.1892 10.3615 1.7086
-11.0677 9.4069 1.7078
-11.8545 8.3765 1.7067
-12.5469 7.2814 1.7057
-13.1397 6.1301 1.7048
-13.6322 4.9329 1.7045
-14.0164 3.6969 1.7044
-14.2888 2.4316 1.7042
-14.4472 1.1472 1.7040
-14.4904 -0.1460 1.7038
-14.4180 -1.4377 1.7036
-14.2308 -2.7178 1.7035
-11.9094 -3.3992 1.4562
-13.5203 -5.2027 1.7033
-14.1656 -6.9595 1.8557
-13.4884 -8.1954 1.8557
-12.7036 -9.3658 1.8557
-11.8176 -10.4616 1.8557
-10.8373 -11.4741 1.8557
-9.7706 -12.3950 1.8557
-8.6261 -13.2171 1.8557
-7.4227 -13.9526 1.8582
-6.1585 -14.5826 1.8612
-4.8414 -15.0993 1.8644
-3.4810 -15.4969 1.8675
-2.0929 -15.8058 1.8746
-0.6774 -15.9938 1.8822
0.7539 -16.0306 1.8869
2.1846 -15.9278 1.8903
3.6028 -15.6962 1.8935
4.9965 -15.3369 1.8965
6.3630 -14.8729 1.9020
7.7093 -14.3298 1.9132
9.0234 -13.6861 1.9274
10.2803 -12.9172 1.9410
11.4666 -12.0275 1.9538
12.5697 -11.0234 1.9657
13.5603 -9.9002 1.9741
8.1277 -4.8866 1.1151
15.1635 -7.3623 1.9819
9.1795 -3.4833 1.1544
14.9377 -4.1883 1.8241
15.2898 -2.8463 1.8286
15.5122 -1.4739 1.8321
15.5964 -0.0844 1.8338
15.5413 1.3071 1.8337
15.3473 2.6854 1.8319
15.0169 4.0357 1.8283
14.5547 5.3435 1.8230
5.0353 2.3777 0.6547
4.7016 2.7578 0.6409
12.4449 8.8810 1.7976
11.5307 9.8934 1.7864
10.5286 10.8070 1.7740
9.4506 11.6144 1.7606
8.3135 12.3171 1.7472
5.6732 10.2771 1.3802
5.9143 13.4206 1.7244
4.6483 13.7604 1.7077
3.3957 14.0924 1.7044
2.3138 15.6124 1.8557
0.6278 10.8463 1.2774
-0.3423 10.8618 1.2777
-1.9023 15.6678 1.8557
-3.2922 15.4357 1.8557
-4.6559 15.0805 1.8557
-5.9826 14.6051 1.8557
-6.6691 12.8701 1.7043
-7.8043 12.2456 1.7073
-8.8722 11.5093 1.7086
-9.8635 10.6719 1.7086
-8.5012 7.6915 1.3479
-11.5921 8.7416 1.7071
-12.3179 7.6679 1.7060
-12.9458 6.5351 1.7051
-13.4734 5.3529 1.7046
-13.8958 4.1292 1.7044
-14.2072 2.8730 1.7043
-14.4053 1.5941 1.7041
-14.4885 0.3028 1.7039
-14.4562 -0.9906 1.7037
-8.5441 -1.3590 1.0172
-12.2434 -3.0879 1.4846
-13.6749 -4.7816 1.7033
-14.3735 -6.5171 1.8556
-13.7357 -7.7737 1.8557
-12.9876 -8.9679 1.8557
-12.1359 -10.0907 1.8557
-11.1874 -11.1330 1.8557
-10.1498 -12.0865 1.8557
-9.0312 -12.9437 1.8557
-7.8470 -13.7086 1.8572
-6.6034 -14.3768 1.8602
-5.3035 -14.9333 1.8632
-3.9572 -15.3733 1.8665
-2.5775 -15.7105 1.8719
-1.1709 -15.9455 1.8799
0.2568 -16.0326 1.8853
1.6893 -15.9781 1.8891
3.1132 -15.7911 1.8924
4.5167 -15.4758 1.8955
5.8882 -15.0344 1.8984
7.2434 -14.5246 1.9083
8.5736 -13.9237 1.9226
9.8517 -13.1978 1.9364
11.0641 -12.3493 1.9495
12.1974 -11.3841 1.9617
13.2327 -10.3040 1.9719
14.1392 -9.1084 1.9775
9.1486 -4.7975 1.2146
9.2573 -3.8448 1.1786
9.4959 -2.9826 1.1703
15.1810 -3.3154 1.8270
15.4506 -1.9525 1.8311
15.5830 -0.5673 1.8334
15.5762 0.8253 1.8340
15.4301 2.2099 1.8327
15.1467 3.5715 1.8297
14.7296 4.8957 1.8250
5.6915 2.4751 0.7297
4.7565 2.5955 0.6371
4.6659 3.1163 0.6597
11.8582 9.5531 1.7904
10.8853 10.5018 1.7784
4.9455 2.4009 0.6807
4.6632 2.8034 0.6737
11.6584 8.5110 1.7874
10.7878 9.4600 1.7767
9.8352 10.3156 1.7649
8.8163 11.0769 1.7530
7.7471 11.7493 1.7427
5.5270 10.2725 1.4444
5.4658 12.7745 1.7205
4.2700 13.1051 1.7067
3.0782 13.4087 1.7035
2.0370 14.8472 1.8557
0.5106 10.8488 1.3449
-0.4597 10.8643 1.3465
-1.9666 14.8567 1.8557
-3.2840 14.6221 1.8557
-4.5752 14.2708 1.8557
-5.8299 13.8059 1.8557
-6.4618 12.1475 1.7038
-7.5322 11.5419 1.7066
-8.5418 10.8369 1.7086
-9.4744 10.0318 1.7086
-8.6692 7.6751 1.4337
-11.1009 8.1848 1.7078
-11.7798 7.1578 1.7068
-12.3651 6.0755 1.7060
-12.8524 4.9463 1.7053
-13.2381 3.7789 1.7047
-13.5193 2.5824 1.7043
-13.6939 1.3661 1.7041
-13.7607 0.1391 1.7040
-13.7190 -1.0889 1.7041
-8.4990 -1.4460 1.0675
-11.9416 -3.1491 1.5292
-12.9350 -4.6800 1.7033
-12.4660 -5.8152 1.7033
-12.9621 -7.5216 1.8557
-12.2395 -8.6479 1.8557
-11.4193 -9.7051 1.8557
-10.5081 -10.6850 1.8557
-9.5131 -11.5798 1.8557
-8.4430 -12.3831 1.8559
-7.3153 -13.1057 1.8585
-6.1264 -13.7268 1.8613
-4.8853 -14.2411 1.8643
-3.6023 -14.6475 1.8678
-2.2903 -14.9683 1.8750
-0.9491 -15.1628 1.8812
0.4081 -15.2204 1.8854
1.7671 -15.1492 1.8886
3.1165 -14.9555 1.8917
4.4449 -14.6406 1.8946
5.7414 -14.2064 1.8974
7.0200 -13.7044 1.9067
8.2680 -13.1086 1.9191
9.4680 -12.4022 1.9321
10.6033 -11.5813 1.9443
11.6483 -10.6388 1.9534
12.5949 -9.5909 1.9603
8.0596 -5.0698 1.1790
14.1680 -7.2358 1.9699
9.2670 -3.7322 1.2371
9.8051 -2.9639 1.2684
14.3745 -2.9772 1.8177
14.6040 -1.6856 1.8204
14.7122 -0.3767 1.8224
14.6897 0.9373 1.8227
14.5367 2.2422 1.8213
14.2552 3.5241 1.8183
13.8487 4.7694 1.8137
5.1434 2.3030 0.6978
4.7094 2.6362 0.6683
4.6436 3.1743 0.6965
11.0995 9.1411 1.7805
10.1741 10.0299 1.7691
9.1740 10.8208 1.7567
8.1241 11.5278 1.7463
7.0206 12.1324 1.7357
5.8733 12.6305 1.7248
4.6767 12.9748 1.7078
3.4943 13.3156 1.7047
2.4957 14.7770 1.8557
0.8707 11.1404 1.3837
-0.0819 7.2382 0.8963
-1.1538 11.4258 1.4220
-2.8296 14.7167 1.8557
-4.1311 14.4057 1.8557
-5.3996 13.9798 1.8557
-6.1237 12.4252 1.7153
-7.1671 11.7629 1.7056
-8.2009 11.0946 1.7084
-9.1592 10.3204 1.7086
-8.4358 7.9478 1.4352
-10.8445 8.5265 1.7082
-11.5547 7.5206 1.7072
-12.1730 6.4565 1.7063
-12.6948 5.3426 1.7055
-13.1161 4.1875 1.7049
-13.4338 3.0000 1.7044
-13.6455 1.7895 1.7042
-13.7498 0.5652 1.7040
-13.7457 -0.6636 1.7041
-13.6334 -1.8872 1.7043
-13.4137 -3.0965 1.7046
-13.0737 -4.2772 1.7033
-12.6401 -5.4264 1.7033
-13.1888 -7.1166 1.8557
-12.5014 -8.2647 1.8557
-11.7144 -9.3469 1.8557
-10.8340 -10.3545 1.8557
-9.8672 -11.2796 1.8557
-8.8217 -12.1148 1.8557
-7.7137 -12.8664 1.8576
-6.5450 -13.5233 1.8604
-5.3210 -14.0751 1.8633
-4.0509 -14.5169 1.8663
-2.7489 -14.8699 1.8725
-1.4170 -15.1136 1.8797
-0.0634 -15.2162 1.8842
1.2964 -15.1877 1.8875
2.6504 -15.0365 1.8906
3.9873 -14.7635 1.8936
5.2962 -14.3703 1.8964
6.5815 -13.8925 1.9035
7.8391 -13.3260 1.9144
9.0586 -12.6604 1.9277
10.2177 -11.8786 1.9402
11.2972 -10.9788 1.9507
12.2782 -9.9653 1.9581
13.1562 -8.8560 1.9638
9.0759 -4.9954 1.2828
13.3851 -5.8787 1.8102
9.3682 -3.1516 1.2239
14.2717 -3.4201 1.8173
14.5362 -2.1358 1.8193
14.6894 -0.8318 1.8219
14.7123 0.4820 1.8228
14.6045 1.7916 1.8220
14.3672 3.0831 1.8195
14.0035 4.3426 1.8155
13.5181 5.5570 1.8098
4.8308 2.5109 0.6742
4.6397 2.9651 0.6818
11.4009 8.8113 1.7842
10.5040 9.7325 1.7732
9.5285 10.5580 1.7611
8.4946 11.2938 1.7499
7.4087 11.9346 1.7394
5.1744 10.2821 1.4253
5.0805 12.8345 1.7092
3.9074 13.2095 1.7058
2.8173 14.0215 1.7709
1.6298 14.8974 1.8557
0.1422 7.2364 0.8962
-0.7756 11.1154 1.3797
-2.3725 14.7973 1.8557
-3.6830 14.5267 1.8557
-4.9641 14.1403 1.8557
-6.0937 13.3951 1.8222
-6.7954 11.9723 1.7047
-7.8491 11.3370 1.7074
-8.8352 10.5991 1.7086
-9.7455 9.7687 1.7086
-10.5777 8.8603 1.7086
-11.3186 7.8764 1.7075
-11.9693 6.8316 1.7065
-12.5251 5.7340 1.7057
-12.9816 4.5921 1.7051
-13.3355 3.4149 1.7046
-13.5842 2.2113 1.7042
-13.7259 0.9907 1.7041
-13.7594 -0.2376 1.7040
-13.6846 -1.4641 1.7042
-13.5019 -2.6794 1.7045
-11.9002 -3.4893 1.5356
-12.8020 -5.0323 1.7033
-13.4028 -6.7048 1.8557
-12.7514 -7.8736 1.8557
-11.9982 -8.9796 1.8557
-11.1494 -10.0141 1.8557
-10.2117 -10.9687 1.8557
-9.1926 -11.8358 1.8557
-8.1044 -12.6150 1.8567
-6.9570 -13.3071 1.8594
-5.7511 -13.8960 1.8622
-4.4959 -14.3767 1.8652
-3.2037 -14.7578 1.8700
-1.8820 -15.0439 1.8774
-0.5341 -15.1944 1.8826
0.8250 -15.2116 1.8864
2.1822 -15.1028 1.8895
3.5264 -14.8719 1.8926
4.8462 -14.5201 1.8955
6.1375 -14.0653 1.9002
7.4044 -13.5290 1.9097
8.6419 -12.9046 1.9231
9.8234 -12.1626 1.9359
10.9351 -11.3060 1.9477
11.9492 -10.3281 1.9557
12.8641 -9.2508 1.9620
8.1832 -4.8401 1.1773
13.1837 -6.2842 1.8085
9.2317 -3.4274 1.2194
14.1542 -3.8591 1.8166
14.4530 -2.5831 1.8180
14.6510 -1.2858 1.8212
14.7192 0.0262 1.8226
14.6566 1.3389 1.8224
14.4640 2.6382 1.8206
14.1436 3.9103 1.8171
13.6998 5.1418 1.8120
4.9674 2.3895 0.6826
4.6702 2.7848 0.6733
11.6916 8.4709 1.7878
10.8245 9.4235 1.7771
9.8750 10.2830 1.7654
8.8581 11.0477 1.7534
7.7912 11.7242 1.7431
6.6731 12.2965 1.7324
5.5147 12.7618 1.7215
4.3174 13.0906 1.7069
3.1267 13.3985 1.7037
2.0903 14.8398 1.8557
0.5496 10.8482 1.3450
-0.4206 10.8637 1.3462
-1.9132 14.8637 1.8557
-3.2314 14.6338 1.8557
-4.5238 14.2872 1.8557
-5.7802 13.8267 1.8557
-6.4177 12.1698 1.7036
-7.4901 11.5682 1.7065
-8.5028 10.8676 1.7086
-9.4383 10.0656 1.7086
-8.6066 7.6750 1.4279
-11.0716 8.2249 1.7079
-11.7542 7.2003 1.7069
-12.3434 6.1200 1.7060
-12.8347 4.9925 1.7053
-13.2246 3.8265 1.7047
-13.5100 2.6310 1.7043
-13.6890 1.4153 1.7041
-13.7601 0.1886 1.7040
-13.7228 -1.0396 1.7041
-8.5139 -1.4171 1.0688
-11.9706 -3.1108 1.5315
-12.9517 -4.6335 1.7033
-12.4868 -5.7703 1.7033
-12.9891 -7.4750 1.8557
-12.2705 -8.6038 1.8557
-11.4542 -9.6640 1.8557
-10.5465 -10.6472 1.8557
-9.5547 -11.5455 1.8557
-8.4870 -12.3520 1.8558
-7.3619 -13.0785 1.8584
-6.1753 -13.7038 1.8612
-4.9362 -14.2225 1.8642
-3.6544 -14.6322 1.8675
-2.3437 -14.9576 1.8747
-1.0035 -15.1579 1.8811
0.3533 -15.2207 1.8852
1.7125 -15.1544 1.8885
3.0624 -14.9657 1.8916
4.3920 -14.6556 1.8945
5.6900 -14.2261 1.8972
6.9693 -13.7270 1.9063
8.2185 -13.1346 1.9186
9.4208 -12.4329 1.9316
10.5590 -11.6165 1.9439
11.6081 -10.6790 1.9531
12.5588 -9.6350 1.9600
8.0774 -5.1216 1.1843
14.1401 -7.2858 1.9697
9.2807 -3.7765 1.2407
9.7258 -2.9781 1.2595
14.3634 -3.0288 1.8177
14.5970 -1.7380 1.8203
14.7104 -0.4296 1.8223
14.6932 0.8845 1.8227
14.5454 2.1900 1.8214
14.2689 3.4731 1.8185
13.8674 4.7202 1.8139
5.1685 2.2920 0.7001
4.7236 2.6219 0.6690
4.6436 3.1499 0.6948
11.1350 9.1033 1.7810
10.2129 9.9960 1.7696
9.2155 10.7910 1.7572
8.1675 11.5012 1.7467
7.0659 12.1101 1.7361
5.9202 12.6125 1.7253
4.7237 12.9589 1.7079
3.5424 13.3039 1.7048
2.5489 14.7679 1.8557
0.9114 11.1452 1.3847
-0.0559 7.2380 0.8963
-1.1006 11.3055 1.4065
-2.7767 14.7268 1.8557
-4.0792 14.4204 1.8557
-5.3493 13.9991 1.8557
-6.1182 12.5274 1.7263
-7.1242 11.7878 1.7055
-8.1604 11.1233 1.7083
-9.1220 10.3533 1.7086
-8.4344 8.0040 1.4398
-10.8141 8.5657 1.7083
-11.5279 7.5623 1.7072
-12.1500 6.5004 1.7063
-12.6757 5.3883 1.7055
-13.1011 4.2346 1.7049
-13.4230 3.0484 1.7045
-13.6391 1.8386 1.7042
-13.7477 0.6146 1.7040
-13.7480 -0.6141 1.7041
-13.6400 -1.8382 1.7043
-13.4246 -3.0482 1.7046
-13.0890 -4.2302 1.7033
-12.6595 -5.3809 1.7033
-13.2143 -7.0692 1.8557
-12.5311 -8.2197 1.8557
-11.7479 -9.3047 1.8557
-10.8711 -10.3155 1.8557
-9.9077 -11.2441 1.8557
-8.8652 -12.0830 1.8557
-7.7595 -12.8378 1.8575
-6.5932 -13.4988 1.8602
-5.3712 -14.0551 1.8631
-4.1028 -14.5016 1.8662
-2.8019 -14.8576 1.8722
-1.4712 -15.1070 1.8795
-0.1181 -15.2145 1.8840
1.2417 -15.1913 1.8874
2.5961 -15.0449 1.8905
3.9340 -14.7768 1.8935
5.2442 -14.3884 1.8963
6.5302 -13.9134 1.9032
7.7889 -13.3503 1.9139
9.0105 -12.6895 1.9271
10.1724 -11.9122 1.9397
11.2557 -11.0174 1.9503
12.2406 -10.0080 1.9578
13.1230 -8.9023 1.9636
9.1294 -5.0677 1.2930
13.3624 -5.9262 1.8100
9.3380 -3.1788 1.2215
14.2588 -3.4712 1.8172
14.5274 -2.1879 1.8192
14.6858 -0.8846 1.8218
14.7140 0.4291 1.8228
14.6113 1.7392 1.8220
14.3792 3.0316 1.8197
14.0205 4.2926 1.8157
13.5399 5.5091 1.8101
4.8443 2.4958 0.6748
4.6383 2.9408 0.6801
11.4352 8.7723 1.7846
10.5417 9.6972 1.7736
9.5692 10.5267 1.7616
8.5372 11.2659 1.7503
7.4534 11.9109 1.7399
5.2051 10.2512 1.4236
5.1317 12.8289 1.7109
3.9552 13.1964 1.7059
2.8208 13.7821 1.7420
1.6834 14.8915 1.8557
0.1682 7.2362 0.8963
-0.7354 11.1147 1.3793
-2.3193 14.8057 1.8557
-3.6308 14.5398 1.8557
-4.9132 14.1580 1.8557
-6.0902 13.5163 1.8357
-6.7519 11.9958 1.7045
-7.8078 11.3644 1.7073
-8.7971 10.6308 1.7086
-9.7103 9.8037 1.7086
-10.5460 8.8984 1.7086
-11.2905 7.9173 1.7075
-11.9450 6.8747 1.7066
-12.5046 5.7791 1.7058
-12.9651 4.6389 1.7051
-13.3233 3.4628 1.7046
-13.5763 2.2601 1.7042
-13.7223 1.0401 1.7041
-13.7602 -0.1881 1.7040
-13.6897 -1.4149 1.7042
-8.7463 -1.7030 1.1034
-11.8998 -3.4427 1.5339
-12.8200 -4.9863 1.7033
-13.4269 -6.6566 1.8557
-12.7796 -7.8277 1.8557
-12.0304 -8.9364 1.8557
-11.1854 -9.9739 1.8557
-10.2511 -10.9319 1.8557
-9.2351 -11.8027 1.8557
-8.1492 -12.5851 1.8565
-7.0044 -13.2812 1.8593
-5.8007 -13.8744 1.8621
-4.5473 -14.3595 1.8651
-3.2563 -14.7439 1.8697
-1.9358 -15.0346 1.8770
-0.5887 -15.1908 1.8824
0.7703 -15.2134 1.8862
2.1278 -15.1095 1.8894
3.4726 -14.8835 1.8925
4.7936 -14.5365 1.8954
6.0854 -14.0839 1.8998
7.3536 -13.5516 1.9092
8.5931 -12.9320 1.9226
9.7771 -12.1946 1.9354
10.8923 -11.3432 1.9473
11.9102 -10.3695 1.9554
12.8294 -9.2959 1.9618
8.1431 -4.8560 1.1740
14.3475 -6.9024 1.9715
9.2223 -3.4617 1.2198
14.1396 -3.9097 1.8166
14.4434 -2.6350 1.8180
14.6455 -1.3384 1.8211
14.7190 -0.0267 1.8226
14.6617 1.2862 1.8225
14.4742 2.5863 1.8207
14.1589 3.8598 1.8172
13.7200 5.0931 1.8122
4.9895 2.3781 0.6844
4.6772 2.7662 0.6729
11.7246 8.4307 1.7882
10.8611 9.3869 1.7776
9.9147 10.2503 1.7659
8.8999 11.0183 1.7539
7.8352 11.6990 1.7435
6.7190 12.2755 1.7328
5.5636 12.7488 1.7224
4.3648 13.0760 1.7070
3.1751 13.3882 1.7038
2.1437 14.8322 1.8557
0.5887 10.8475 1.3452
-0.3814 10.8630 1.3460
-1.8598 14.8704 1.8557
-3.1788 14.6453 1.8557
-4.4724 14.3034 1.8557
-5.7304 13.8474 1.8557
-6.3734 12.1920 1.7035
-7.4480 11.5943 1.7064
-8.4636 10.8981 1.7086
-9.4020 10.0997 1.7086
-8.5445 7.6750 1.4222
-11.0423 8.2649 1.7079
-11.7285 7.2426 1.7069
-12.3215 6.1645 1.7060
-12.8169 5.0387 1.7053
-13.2109 3.8741 1.7048
-13.5006 2.6796 1.7043
-13.6838 1.4645 1.7041
-13.7593 0.2381 1.7040
-13.7264 -0.9902 1.7041
-8.5289 -1.3880 1.0700
-12.0427 -3.0833 1.5393
-12.9683 -4.5869 1.7033
-12.5075 -5.7254 1.7033
-13.0159 -7.4282 1.8557
-12.3014 -8.5596 1.8557
-11.4888 -9.6228 1.8557
-10.5847 -10.6092 1.8557
-9.5962 -11.5111 1.8557
-8.5311 -12.3217 1.8557
-7.4085 -13.0512 1.8583
-6.2242 -13.6807 1.8611
-4.9870 -14.2038 1.8641
-3.7064 -14.6168 1.8672
-2.3971 -14.9467 1.8744
-1.0579 -15.1527 1.8809
0.2986 -15.2208 1.8851
1.6579 -15.1594 1.8883
3.0085 -14.9757 1.8914
4.3390 -14.6704 1.8944
5.6385 -14.2457 1.8971
6.9187 -13.7494 1.9059
8.1690 -13.1604 1.9180
9.3736 -12.4634 1.9311
10.5146 -11.6515 1.9434
11.5678 -10.7189 1.9528
12.5225 -9.6789 1.9598
8.0526 -5.1467 1.1834
9.2021 -4.7834 1.2842
9.2945 -3.8212 1.2444
9.6476 -2.9922 1.2508
14.3520 -3.0804 1.8176
14.5897 -1.7904 1.8201
14.7083 -0.4824 1.8223
14.6964 0.8317 1.8227
14.5538 2.1378 1.8215
14.2825 3.4220 1.8186
13.8859 4.6708 1.8141
5.1937 2.2809 0.7024
4.7315 2.6040 0.6688
4.6436 3.1255 0.6931
11.1704 9.0655 1.7814
10.2515 9.9619 1.7700
9.2570 10.7609 1.7577
8.2107 11.4746 1.7472
7.1112 12.0876 1.7366
5.9671 12.5944 1.7257
4.7706 12.9428 1.7081
3.5905 13.2921 1.7049
2.6020 14.7587 1.8557
0.9525 11.1543 1.3862
-0.0299 7.2378 0.8962
-1.0540 11.2462 1.3987
-2.7237 14.7367 1.8557
-4.0274 14.4350 1.8557
-5.2989 14.0182 1.8557
-6.1151 12.6363 1.7383
-7.0814 11.8126 1.7054
-8.1199 11.1518 1.7082
-9.0848 10.3860 1.7086
-8.4331 8.0605 1.4445
-10.7835 8.6047 1.7083
-11.5009 7.6039 1.7072
-12.1268 6.5441 1.7063
-12.6564 5.4339 1.7055
-13.0859 4.2818 1.7049
-13.4121 3.0967 1.7045
-13.6325 1.8876 1.7042
-13.7454 0.6640 1.7040
-13.7501 -0.5647 1.7041
-13.6465 -1.7891 1.7043
-13.4353 -2.9999 1.7046
-13.1041 -4.1831 1.7033
-12.6788 -5.3353 1.7033
-13.2396 -7.0216 1.8557
-12.5605 -8.1746 1.8557
-11.7813 -9.2624 1.8557
-10.9081 -10.2763 1.8557
-9.9480 -11.2084 1.8557
-8.9086 -12.0510 1.8557
-7.8051 -12.8091 1.8574
-6.6413 -13.4742 1.8601
-5.4214 -14.0347 1.8630
-4.1546 -14.4858 1.8660
-2.8549 -14.8451 1.8719
-1.5254 -15.1001 1.8793
-0.1728 -15.2125 1.8838
1.1870 -15.1946 1.8872
2.5418 -15.0532 1.8904
3.8806 -14.7899 1.8934
5.1921 -14.4063 1.8962
6.4789 -13.9341 1.9028
7.7386 -13.3744 1.9134
8.9625 -12.7183 1.9266
10.1269 -11.9457 1.9392
11.2140 -11.0559 1.9500
12.2029 -10.0506 1.9576
13.0896 -8.9486 1.9634
13.8635 -7.7610 1.9674
13.3395 -5.9735 1.8098
9.3079 -3.2060 1.2190
14.2457 -3.5224 1.8171
14.5183 -2.2399 1.8190
14.6819 -0.9374 1.8217
14.7153 0.3762 1.8227
14.6180 1.6867 1.8221
14.3910 2.9801 1.8198
14.0373 4.2426 1.8159
13.5615 5.4611 1.8103
4.8579 2.4808 0.6754
4.6369 2.9166 0.6783
11.4694 8.7332 1.7851
10.5793 9.6617 1.7741
9.6097 10.4953 1.7621
8.5797 11.2378 1.7507
7.4980 11.8869 1.7403
5.2466 10.2414 1.4249
5.1842 12.8261 1.7130
4.0029 13.1831 1.7060
2.8265 13.5619 1.7154
1.7369 14.8853 1.8557
0.1943 7.2359 0.8963
-0.6955 11.1177 1.3794
-2.2661 14.8140 1.8557
-3.5784 14.5528 1.8557
-4.8623 14.1756 1.8557
-6.0867 13.6393 1.8495
-6.7082 12.0192 1.7044
-7.7664 11.3917 1.7072
-8.7588 10.6623 1.7086
-9.6749 9.8387 1.7086
-10.5140 8.9363 1.7086
-11.2622 7.9580 1.7076
-11.9204 6.9178 1.7066
-12.4839 5.8241 1.7058
-12.9486 4.6855 1.7051
-13.3109 3.5108 1.7046
-13.5681 2.3090 1.7043
-13.7185 1.0894 1.7041
-13.7607 -0.1386 1.7040
-13.6946 -1.3656 1.7042
-8.7524 -1.6715 1.1034
-11.8994 -3.3963 1.5323
-12.8379 -4.9401 1.7033
-13.4507 -6.6083 1.8557
-12.8076 -7.7817 1.8557
-12.0625 -8.8931 1.8557
-11.2212 -9.9336 1.8557
-10.2903 -10.8949 1.8557
-9.2775 -11.7694 1.8557
-8.1940 -12.5550 1.8564
-7.0517 -13.2551 1.8591
-5.8502 -13.8525 1.8620
-4.5986 -14.3421 1.8650
-3.3088 -14.7299 1.8694
-1.9895 -15.0251 1.8767
-0.6433 -15.1871 1.8823
0.7155 -15.2150 1.8861
2.0733 -15.1161 1.8893
3.4189 -14.8950 1.8924
4.7411 -14.5528 1.8952
6.0333 -14.1023 1.8993
7.3028 -13.5742 1.9086
8.5442 -12.9592 1.9221
9.7306 -12.2265 1.9349
10.8494 -11.3802 1.9469
11.8710 -10.4107 1.9551
12.7944 -9.3410 1.9616
8.0875 -4.8624 1.1685
14.3209 -6.9531 1.9713
9.2129 -3.4960 1.2202
14.1248 -3.9604 1.8165
14.4336 -2.6869 1.8180
14.6398 -1.3910 1.8210
14.7186 -0.0797 1.8226
14.6665 1.2335 1.8225
14.4842 2.5344 1.8208
14.1741 3.8092 1.8174
13.7400 5.0444 1.8124
5.0116 2.3666 0.6863
4.6842 2.7476 0.6724
5.0712 3.6189 0.7715
10.8975 9.3501 1.7780
9.9542 10.2174 1.7664
8.9415 10.9888 1.7543
7.8791 11.6735 1.7439
6.7647 12.2544 1.7333
5.6120 12.7346 1.7232
4.4121 13.0612 1.7071
3.2235 13.3777 1.7039
2.1970 14.8244 1.8557
0.6278 10.8469 1.3454
-0.3423 10.8624 1.3457
-1.8063 14.8770 1.8557
-3.1261 14.6566 1.8557
-4.4209 14.3194 1.8557
-5.6806 13.8679 1.8557
-6.3291 12.2140 1.7034
-7.4057 11.6202 1.7063
-8.4244 10.9284 1.7086
-9.3657 10.1334 1.7086
-8.4918 7.6830 1.4180
-11.0128 8.3047 1.7080
-11.7027 7.2849 1.7069
-12.2995 6.2089 1.7061
-12.7989 5.0849 1.7053
-13.1970 3.9216 1.7048
-13.4910 2.7282 1.7044
-13.6785 1.5137 1.7041
-13.7584 0.2875 1.7040
-13.7298 -0.9409 1.7041
-8.5438 -1.3590 1.0713
-12.2067 -3.0786 1.5588
-12.9847 -4.5402 1.7033
-12.5280 -5.6803 1.7033
-13.0425 -7.3814 1.8557
-12.3321 -8.5153 1.8557
-11.5234 -9.5814 1.8557
-10.6228 -10.5710 1.8557
-9.6375 -11.4765 1.8557
-8.5754 -12.2904 1.8557
-7.4549 -13.0237 1.8582
-6.2729 -13.6574 1.8610
-5.0377 -14.1848 1.8639
-3.7584 -14.6012 1.8669
-2.4504 -14.9356 1.8741
-1.1123 -15.1473 1.8807
0.2438 -15.2207 1.8850
1.6032 -15.1643 1.8882
2.9544 -14.9854 1.8913
4.2859 -14.6850 1.8943
5.5869 -14.2651 1.8970
6.8679 -13.7716 1.9056
8.1193 -13.1860 1.9175
9.3262 -12.4937 1.9305
10.4701 -11.6863 1.9429
11.5273 -10.7587 1.9525
12.4860 -9.7226 1.9596
13.3392 -8.5931 1.9648
9.1486 -4.7975 1.2792
9.3728 -3.8928 1.2567
9.5705 -3.0061 1.2422
14.3404 -3.1319 1.8176
14.5822 -1.8427 1.8200
14.7061 -0.5353 1.8222
14.6994 0.7788 1.8227
14.5621 2.0856 1.8216
14.2959 3.3709 1.8188
13.9042 4.6214 1.8143
5.6005 2.4355 0.7562
4.7375 2.5851 0.6683
4.6435 3.1013 0.6914
11.2057 9.0274 1.7818
10.2901 9.9276 1.7705
4.9226 2.3898 0.7118
4.6459 2.7930 0.7052
11.0476 8.0651 1.7794
10.2258 8.9672 1.7693
9.3309 9.7866 1.7590
8.3757 10.5234 1.7496
7.3621 11.1654 1.7398
5.4805 10.1861 1.5047
5.1793 12.1049 1.7128
4.0632 12.4706 1.7062
2.9297 12.7617 1.7033
1.9390 14.1328 1.8557
0.5106 10.8494 1.4129
-0.4598 10.8649 1.4146
-1.8720 14.1418 1.8557
-3.1260 13.9185 1.8557
-4.3550 13.5842 1.8557
-5.5494 13.1416 1.8557
-6.1493 11.5599 1.7033
-7.1656 10.9802 1.7056
-8.1286 10.3127 1.7082
-9.0185 9.5491 1.7086
-8.6586 7.6657 1.5044
-10.5718 7.7947 1.7086
-11.2187 6.8168 1.7077
-11.7764 5.7862 1.7069
-12.2407 4.7109 1.7062
-12.6082 3.5991 1.7057
-12.8762 2.4596 1.7053
-13.0426 1.3011 1.7051
-13.1062 0.1325 1.7050
-13.0665 -1.0371 1.7051
-8.4549 -1.4385 1.1157
-11.8675 -3.1296 1.5966
-12.3126 -4.4548 1.7033
-11.8661 -5.5354 1.7033
-12.3384 -7.1597 1.8557
-11.6506 -8.2317 1.8557
-10.8699 -9.2381 1.8557
-10.0025 -10.1709 1.8557
-9.0554 -11.0226 1.8557
-8.0411 -11.7937 1.8569
-6.9666 -12.4810 1.8594
-5.8340 -13.0715 1.8621
-4.6518 -13.5603 1.8649
-3.4333 -13.9602 1.8701
-2.1824 -14.2634 1.8771
-0.9035 -14.4341 1.8814
0.3883 -14.4827 1.8847
1.6813 -14.4137 1.8877
2.9649 -14.2284 1.8907
4.2285 -13.9277 1.8935
5.4615 -13.5136 1.8961
6.6733 -13.0276 1.9041
7.8496 -12.4453 1.9141
8.9797 -11.7626 1.9251
10.0429 -10.9691 1.9347
11.0271 -10.0714 1.9427
11.9252 -9.0809 1.9499
8.0357 -5.0548 1.2349
12.3279 -6.2960 1.8007
9.3188 -3.7530 1.3069
13.3128 -4.0242 1.8092
13.6311 -2.8233 1.8108
13.8329 -1.5966 1.8114
13.9272 -0.3566 1.8123
13.9058 0.8873 1.8126
13.7615 2.1226 1.8113
13.4961 3.3365 1.8085
13.1130 4.5161 1.8042
5.1161 2.2908 0.7292
4.6902 2.6254 0.6992
4.6212 3.1590 0.7282
10.5201 8.6639 1.7729
9.6466 9.5099 1.7622
8.7141 10.2784 1.7529
7.7196 10.9538 1.7432
6.6730 11.5318 1.7332
5.5855 12.0115 1.7232
4.4501 12.3463 1.7072
3.3253 12.6716 1.7042
2.3757 14.0660 1.8557
0.8704 11.1369 1.4532
-0.0819 7.2387 0.9417
-1.1571 11.4587 1.4982
-2.6935 14.0086 1.8557
-3.9323 13.7125 1.8557
-5.1398 13.3071 1.8557
-6.1062 12.3898 1.7968
-6.8184 11.1908 1.7047
-7.8014 10.5541 1.7073
-8.7185 9.8238 1.7086
-8.4266 7.9391 1.5061
-10.3253 8.1184 1.7086
-11.0042 7.1623 1.7080
-11.5933 6.1491 1.7071
-12.0905 5.0883 1.7064
-12.4919 3.9882 1.7058
-12.7947 2.8573 1.7054
-12.9965 1.7044 1.7051
-13.0958 0.5383 1.7050
-13.0920 -0.6320 1.7051
-12.9849 -1.7975 1.7053
-12.7754 -2.9491 1.7056
-12.4446 -4.0714 1.7033
-12.0319 -5.1653 1.7033
-12.5542 -6.7742 1.8557
-11.8999 -7.8670 1.8557
-11.1507 -8.8971 1.8557
-10.3127 -9.8563 1.8557
-9.3924 -10.7369 1.8557
-8.3986 -11.5338 1.8560
-7.3462 -12.2534 1.8585
-6.2328 -12.8781 1.8611
-5.0668 -13.4026 1.8639
-3.8592 -13.8302 1.8678
-2.6196 -14.1705 1.8746
-1.3490 -14.3878 1.8799
-0.0603 -14.4794 1.8836
1.2335 -14.4508 1.8867
2.5216 -14.3058 1.8897
3.7933 -14.0449 1.8925
5.0380 -13.6699 1.8952
6.2567 -13.2070 1.9011
7.4444 -12.6551 1.9100
8.5948 -12.0122 1.9214
9.6826 -11.2565 1.9315
10.6955 -10.3940 1.9401
11.6222 -9.4328 1.9472
12.4650 -8.3907 1.9547
9.0759 -4.9954 1.3477
12.6968 -5.5764 1.8040
9.4152 -3.1674 1.2922
13.5338 -3.2432 1.8104
13.7763 -2.0241 1.8113
13.9058 -0.7874 1.8119
13.9271 0.4563 1.8127
13.8253 1.6960 1.8120
13.6017 2.9188 1.8097
13.2589 4.1117 1.8058
12.8015 5.2624 1.8005
4.8127 2.5015 0.7056
4.6186 2.9516 0.7130
10.8046 8.3505 1.7764
9.9579 9.2264 1.7659
9.0449 10.0222 1.7562
8.0708 10.7304 1.7467
7.0412 11.3426 1.7367
5.4321 10.7942 1.5720
4.8332 12.2099 1.7082
3.7184 12.5703 1.7053
2.8020 13.9453 1.8504
1.5514 14.1806 1.8557
0.1422 7.2369 0.9416
-0.7753 11.1111 1.4489
-2.2584 14.0853 1.8557
-3.5058 13.8277 1.8557
-4.7252 13.4599 1.8557
-5.9070 12.9848 1.8557
-6.4651 11.3903 1.7038
-7.4669 10.7850 1.7064
-8.4101 10.0891 1.7086
-9.2765 9.2987 1.7086
-10.0690 8.4342 1.7086
-10.7792 7.5011 1.7083
-11.3993 6.5062 1.7074
-11.9288 5.4610 1.7067
-12.3638 4.3736 1.7060
-12.7011 3.2524 1.7055
-12.9381 2.1061 1.7052
-13.0731 0.9436 1.7050
-13.1050 -0.2263 1.7050
-13.0337 -1.3944 1.7052
-8.4350 -1.6739 1.1187
-11.8843 -3.4846 1.6111
-12.1860 -4.7902 1.7033
-11.7102 -5.8581 1.7033
-12.1378 -7.4948 1.8557
-11.4209 -8.5476 1.8557
-10.6129 -9.5322 1.8557
-9.7204 -10.4409 1.8557
-8.7503 -11.2663 1.8557
-7.7185 -12.0143 1.8576
-6.6252 -12.6725 1.8602
-5.4765 -13.2323 1.8629
-4.2804 -13.6875 1.8656
-3.0533 -14.0646 1.8722
-1.7924 -14.3279 1.8784
-0.5084 -14.4622 1.8825
0.7850 -14.4739 1.8856
2.0763 -14.3692 1.8886
3.3548 -14.1484 1.8915
4.6101 -13.8127 1.8943
5.8337 -13.3691 1.8975
7.0369 -12.8574 1.9067
8.2023 -12.2482 1.9176
9.3132 -11.5309 1.9282
10.3535 -10.7047 1.9373
11.3111 -9.7767 1.9449
12.1836 -8.7614 1.9522
8.1563 -4.8242 1.2327
12.5065 -5.9614 1.8023
9.2725 -3.4425 1.2867
13.4226 -3.6596 1.8098
13.7054 -2.4495 1.8111
13.8711 -1.2174 1.8114
13.9337 0.0248 1.8126
13.8745 1.2674 1.8124
13.6929 2.4975 1.8106
13.3910 3.7022 1.8073
12.9728 4.8689 1.8025
4.9443 2.3784 0.7137
4.6529 2.7745 0.7047
11.0790 8.0270 1.7797
10.2605 8.9325 1.7697
9.3679 9.7550 1.7594
8.4154 10.4955 1.7500
7.4039 11.1415 1.7402
5.5187 10.1693 1.5051
5.2280 12.0983 1.7145
4.1083 12.4568 1.7063
2.9815 12.7765 1.7067
1.9898 14.1258 1.8557
0.5496 10.8487 1.4131
-0.4206 10.8642 1.4143
-1.8211 14.1485 1.8557
-3.0759 13.9296 1.8557
-4.3061 13.5998 1.8557
-5.5021 13.1614 1.8557
-6.1344 11.6327 1.7108
-7.1256 11.0052 1.7055
-8.0910 10.3412 1.7081
-8.9841 9.5815 1.7086
-8.5961 7.6657 1.4983
-10.5437 7.8325 1.7086
-11.1943 6.8573 1.7077
-11.7557 5.8286 1.7069
-12.2239 4.7549 1.7062
-12.5953 3.6445 1.7057
-12.8674 2.5059 1.7053
-13.0379 1.3480 1.7051
-13.1056 0.1796 1.7050
-13.0701 -0.9901 1.7051
-8.4575 -1.4077 1.1153
-11.8675 -3.0840 1.5951
-12.3285 -4.4105 1.7033
-11.8860 -5.4926 1.7033
-12.3641 -7.1153 1.8557
-11.6801 -8.1898 1.8557
-10.9030 -9.1990 1.8557
-10.0390 -10.1349 1.8557
-9.0950 -10.9899 1.8557
-8.0830 -11.7641 1.8568
-7.0110 -12.4552 1.8593
-5.8806 -13.0497 1.8620
-4.7002 -13.5426 1.8648
-3.4829 -13.9458 1.8699
-2.2333 -14.2533 1.8768
-0.9553 -14.4294 1.8812
0.3362 -14.4830 1.8845
1.6294 -14.4187 1.8876
2.9136 -14.2381 1.8906
4.1781 -13.9420 1.8933
5.4125 -13.5325 1.8960
6.6252 -13.0492 1.9038
7.8029 -12.4703 1.9136
8.9354 -11.7923 1.9247
10.0015 -11.0031 1.9343
10.9891 -10.1095 1.9424
11.8906 -9.1223 1.9496
8.0204 -5.0855 1.2354
13.4144 -6.9119 1.9631
9.3327 -3.7977 1.3107
9.8161 -3.0058 1.3355
13.6205 -2.8722 1.8108
13.8270 -1.6463 1.8114
13.9254 -0.4067 1.8123
13.9090 0.8373 1.8126
13.7696 2.0732 1.8114
13.5091 3.2882 1.8087
13.1307 4.4694 1.8044
5.1409 2.2797 0.7316
4.7043 2.6111 0.6999
4.6213 3.1347 0.7264
10.5537 8.6281 1.7733
9.6827 9.4771 1.7625
8.7529 10.2492 1.7533
7.7607 10.9285 1.7436
6.7161 11.5105 1.7336
4.9469 10.5390 1.5145
4.4948 12.3310 1.7073
3.3711 12.6605 1.7043
2.4262 14.0574 1.8557
0.9111 11.1418 1.4542
-0.0559 7.2385 0.9417
-1.1006 11.3063 1.4777
-2.6431 14.0182 1.8557
-3.8829 13.7266 1.8557
-5.0919 13.3255 1.8557
-6.1031 12.4965 1.8091
-6.7777 11.2145 1.7046
-7.7629 10.5814 1.7072
-8.6831 9.8551 1.7086
-8.4252 7.9952 1.5109
-10.2961 8.1554 1.7086
-10.9786 7.2020 1.7080
-11.5714 6.1908 1.7072
-12.0723 5.1318 1.7064
-12.4777 4.0332 1.7059
-12.7845 2.9033 1.7054
-12.9903 1.7511 1.7051
-13.0938 0.5854 1.7050
-13.0941 -0.5849 1.7051
-12.9912 -1.7507 1.7053
-12.7858 -2.9032 1.7056
-12.4592 -4.0266 1.7033
-12.0504 -5.1219 1.7033
-12.5784 -6.7290 1.8557
-11.9281 -7.8242 1.8557
-11.1826 -8.8570 1.8557
-10.3480 -9.8191 1.8557
-9.4309 -10.7030 1.8557
-8.4396 -11.5029 1.8559
-7.3898 -12.2262 1.8584
-6.2787 -12.8548 1.8610
-5.1146 -13.3835 1.8638
-3.9083 -13.8142 1.8676
-2.6702 -14.1589 1.8743
-1.4006 -14.3816 1.8797
-0.1124 -14.4781 1.8835
1.1815 -14.4542 1.8866
2.4699 -14.3139 1.8895
3.7425 -14.0576 1.8924
4.9886 -13.6872 1.8951
6.2080 -13.2269 1.9007
7.3970 -12.6786 1.9095
8.5496 -12.0403 1.9210
9.6401 -11.2890 1.9311
10.6563 -10.4307 1.9398
11.5863 -9.4730 1.9469
12.4329 -8.4342 1.9544
9.1294 -5.0677 1.3583
12.6754 -5.6215 1.8038
9.3847 -3.1947 1.2896
13.5216 -3.2917 1.8103
13.7688 -2.0736 1.8113
13.9024 -0.8374 1.8118
13.9287 0.4062 1.8127
13.8318 1.6464 1.8120
13.6130 2.8700 1.8098
13.2750 4.0644 1.8060
12.8220 5.2170 1.8008
4.8261 2.4865 0.7062
4.6173 2.9275 0.7112
10.8370 8.3134 1.7768
9.9935 9.1928 1.7664
9.0828 9.9917 1.7566
8.1112 10.7037 1.7470
7.0836 11.3199 1.7371
5.4553 10.7439 1.5675
4.8774 12.1932 1.7084
3.7638 12.5578 1.7054
2.8057 13.7084 1.8202
1.6024 14.1749 1.8557
0.1683 7.2367 0.9416
-0.7351 11.1104 1.4485
-2.2077 14.0933 1.8557
-3.4561 13.8402 1.8557
-4.6768 13.4768 1.8557
-5.8603 13.0059 1.8557
-6.4236 11.4127 1.7036
-7.4277 10.8111 1.7063
-8.3738 10.1193 1.7086
-9.2430 9.3320 1.7086
-10.0386 8.4704 1.7086
-10.7524 7.5400 1.7084
-11.3760 6.5473 1.7075
-11.9093 5.5039 1.7067
-12.3481 4.4181 1.7060
-12.6894 3.2981 1.7056
-12.9305 2.1526 1.7052
-13.0696 0.9906 1.7051
-13.1057 -0.1792 1.7050
-13.0385 -1.3476 1.7052
-8.4376 -1.6429 1.1182
-11.8837 -3.4381 1.6093
-12.2032 -4.7463 1.7033
-11.7312 -5.8159 1.7033
-12.1646 -7.4511 1.8557
-11.4515 -8.5064 1.8557
-10.6471 -9.4940 1.8557
-9.7578 -10.4059 1.8557
-8.7908 -11.2348 1.8557
-7.7612 -11.9858 1.8575
-6.6704 -12.6479 1.8601
-5.5237 -13.2119 1.8628
-4.3290 -13.6701 1.8653
-3.1033 -14.0514 1.8719
-1.8438 -14.3200 1.8782
-0.5603 -14.4593 1.8824
0.7329 -14.4757 1.8855
2.0244 -14.3757 1.8885
3.3037 -14.1595 1.8914
4.5601 -13.8284 1.8942
5.7840 -13.3862 1.8970
6.9894 -12.8804 1.9063
8.1563 -12.2747 1.9171
9.2698 -11.5619 1.9278
10.3131 -10.7400 1.9370
11.2743 -9.8159 1.9446
12.1502 -8.8038 1.9519
8.1230 -4.8440 1.2303
12.4836 -6.0057 1.8021
9.2631 -3.4770 1.2871
13.4088 -3.7076 1.8097
13.6963 -2.4987 1.8111
13.8667 -1.2673 1.8114
13.9335 -0.0253 1.8126
13.8793 1.2175 1.8124
13.7026 2.4484 1.8107
13.4054 3.6544 1.8075
12.9918 4.8228 1.8027
4.9662 2.3670 0.7157
4.6599 2.7560 0.7043
5.0635 3.6410 0.8113
10.2950 8.8977 1.7701
9.4050 9.7233 1.7598
8.4549 10.4675 1.7504
7.4457 11.1174 1.7406
5.5656 10.1682 1.5079
5.2755 12.0888 1.7158
4.1534 12.4428 1.7064
3.0216 12.7410 1.7034
2.0405 14.1185 1.8557
0.5887 10.8481 1.4133
-0.3815 10.8636 1.4141
-1.7703 14.1549 1.8557
-3.0258 13.9406 1.8557
-4.2572 13.6151 1.8557
-5.4547 13.1811 1.8557
-6.1257 11.7180 1.7201
-7.0855 11.0301 1.7054
-8.0532 10.3697 1.7080
-8.9496 9.6137 1.7086
-8.5341 7.6657 1.4923
-10.5154 7.8705 1.7086
-11.1698 6.8976 1.7078
-11.7349 5.8709 1.7069
-12.2069 4.7989 1.7062
-12.5823 3.6897 1.7057
-12.8584 2.5522 1.7053
-13.0330 1.3949 1.7051
-13.1049 0.2268 1.7050
-13.0735 -0.9431 1.7051
-8.4601 -1.3769 1.1150
-11.8929 -3.0450 1.5970
-12.3443 -4.3662 1.7033
-11.9056 -5.4499 1.7033
-12.3896 -7.0708 1.8557
-11.7095 -8.1478 1.8557
-10.9360 -9.1597 1.8557
-10.0754 -10.0987 1.8557
-9.1344 -10.9572 1.8557
-8.1249 -11.7343 1.8567
-7.0554 -12.4292 1.8592
-5.9271 -13.0277 1.8619
-4.7486 -13.5248 1.8647
-3.5326 -13.9311 1.8696
-2.2842 -14.2430 1.8765
-1.0071 -14.4246 1.8810
0.2841 -14.4832 1.8844
1.5774 -14.4236 1.8875
2.8622 -14.2476 1.8904
4.1277 -13.9561 1.8932
5.3636 -13.5511 1.8959
6.5771 -13.0706 1.9034
7.7561 -12.4952 1.9131
8.8910 -11.8218 1.9242
9.9601 -11.0370 1.9339
10.9510 -10.1474 1.9421
11.8558 -9.1636 1.9493
8.0199 -5.1257 1.2382
9.2021 -4.7834 1.3491
9.4088 -3.8681 1.3234
9.7365 -3.0198 1.3261
13.6097 -2.9210 1.8108
13.8210 -1.6961 1.8114
13.9235 -0.4567 1.8122
13.9120 0.7873 1.8127
13.7776 2.0238 1.8115
13.5219 3.2398 1.8088
13.1481 4.4227 1.8046
5.1659 2.2686 0.7340
4.7125 2.5936 0.6997
4.6213 3.1105 0.7247
10.5871 8.5921 1.7737
9.7194 9.4448 1.7630
8.7916 10.2198 1.7537
7.8017 10.9030 1.7440
6.7590 11.4889 1.7340
4.9699 10.4897 1.5100
4.5394 12.3157 1.7075
3.4168 12.6492 1.7045
2.4768 14.0486 1.8557
0.9522 11.1510 1.4559
-0.0299 7.2383 0.9416
-1.0538 11.2445 1.4692
-2.5926 14.0276 1.8557
-3.8336 13.7404 1.8557
-5.0439 13.3437 1.8557
-6.0999 12.6049 1.8216
-6.7370 11.2381 1.7045
-7.7243 10.6086 1.7071
-8.6476 9.8863 1.7086
-8.4238 8.0516 1.5159
-10.2667 8.1925 1.7086
-10.9529 7.2416 1.7081
-11.5493 6.2325 1.7072
-12.0540 5.1753 1.7065
-12.4632 4.0780 1.7059
-12.7740 2.9493 1.7054
-12.9840 1.7978 1.7052
-13.0917 0.6325 1.7050
-13.0961 -0.5378 1.7051
-12.9973 -1.7040 1.7052
-12.7961 -2.8571 1.7056
-12.4736 -3.9818 1.7033
-12.0687 -5.0786 1.7033
-12.6026 -6.6838 1.8557
-11.9562 -7.7812 1.8557
-11.2144 -8.8167 1.8557
-10.3833 -9.7819 1.8557
-9.4694 -10.6691 1.8557
-8.4805 -11.4719 1.8558
-7.4333 -12.1989 1.8583
-6.3245 -12.8314 1.8609
-5.1624 -13.3642 1.8637
-3.9574 -13.7981 1.8673
-2.7207 -14.1471 1.8741
-1.4521 -14.3751 1.8795
-0.1644 -14.4767 1.8833
1.1294 -14.4574 1.8864
2.4183 -14.3218 1.8894
3.6917 -14.0702 1.8923
4.9391 -13.7043 1.8950
6.1592 -13.2466 1.9004
7.3494 -12.7018 1.9090
8.5043 -12.0682 1.9205
9.5976 -11.3214 1.9307
10.6170 -10.4673 1.9395
11.5508 -9.5135 1.9466
12.4007 -8.4776 1.9541
13.1520 -7.3627 1.9607
12.6538 -5.6664 1.8036
9.3543 -3.2220 1.2870
13.5092 -3.3402 1.8103
13.7611 -2.1231 1.8113
13.8987 -0.8874 1.8117
13.9300 0.3561 1.8127
13.8381 1.5967 1.8121
13.6241 2.8213 1.8099
13.2909 4.0170 1.8062
12.8424 5.1716 1.8010
4.8396 2.4714 0.7069
4.6160 2.9034 0.7094
10.8693 8.2762 1.7772
10.0289 9.1591 1.7668
9.1207 9.9611 1.7569
8.1515 10.6769 1.7474
7.1259 11.2970 1.7375
5.4952 10.7268 1.5679
4.9216 12.1764 1.7085
3.8092 12.5451 1.7055
2.8093 13.4792 1.7911
1.6533 14.1691 1.8557
0.1943 7.2365 0.9417
-0.6952 11.1134 1.4485
-2.1570 14.1012 1.8557
-3.4062 13.8526 1.8557
-4.6283 13.4935 1.8557
-5.8134 13.0269 1.8557
-6.3822 11.4350 1.7035
-7.3883 10.8371 1.7062
-8.3374 10.1493 1.7086
-9.2094 9.3652 1.7086
-10.0081 8.5062 1.7086
-10.7255 7.5787 1.7084
-11.3526 6.5883 1.7075
-11.8896 5.5468 1.7067
-12.3323 4.4625 1.7061
-12.6776 3.3437 1.7056
-12.9227 2.1992 1.7052
-13.0660 1.0376 1.7051
-13.1063 -0.1320 1.7050
-13.0432 -1.3006 1.7052
-8.4402 -1.6119 1.1178
-11.8831 -3.3916 1.6076
-12.2202 -4.7024 1.7033
-11.7520 -5.7737 1.7033
-12.1914 -7.4073 1.8557
-11.4821 -8.4652 1.8557
-10.6812 -9.4556 1.8557
-9.7952 -10.3707 1.8557
-8.8311 -11.2031 1.8557
-7.8038 -11.9572 1.8574
-6.7154 -12.6231 1.8600
-5.5708 -13.1911 1.8627
-4.3780 -13.6540 1.8653
-3.1534 -14.0381 1.8717
-1.8951 -14.3120 1.8780
-0.6123 -14.4562 1.8822
0.6808 -14.4773 1.8854
1.9726 -14.3820 1.8884
3.2526 -14.1705 1.8913
4.5101 -13.8440 1.8941
5.7348 -13.4046 1.8966
6.9418 -12.9032 1.9060
8.1102 -12.3010 1.9167
9.2262 -11.5928 1.9274
10.2726 -10.7751 1.9366
11.2374 -9.8550 1.9443
12.1166 -8.8461 1.9516
8.0524 -4.8413 1.2222
12.4605 -6.0499 1.8019
9.2537 -3.5115 1.2875
13.3948 -3.7557 1.8097
13.6870 -2.5479 1.8111
13.8621 -1.3171 1.8114
13.9331 -0.0754 1.8125
13.8839 1.1677 1.8125
13.7120 2.3992 1.8108
13.4197 3.6065 1.8077
13.0106 4.7766 1.8030
4.9882 2.3555 0.7176
4.6665 2.7373 0.7038
5.0035 3.5706 0.7996
10.3294 8.8627 1.7705
9.4418 9.6914 1.7601
8.4944 10.4393 1.7508
7.4873 11.0931 1.7410
6.4303 11.6486 1.7309
5.3231 12.0791 1.7171
4.1984 12.4286 1.7066
3.0676 12.7310 1.7035
2.0913 14.1111 1.8557
0.6278 10.8475 1.4135
-0.3423 10.8630 1.4138
-1.7194 14.1612 1.8557
-2.9757 13.9514 1.8557
-4.2082 13.6304 1.8557
-5.4073 13.2007 1.8557
-6.1228 11.8159 1.7312
-7.0454 11.0548 1.7053
-8.0155 10.3979 1.7079
-8.9150 9.6459 1.7086
-8.4879 7.6795 1.4890
-10.4871 7.9083 1.7086
-11.1452 6.9379 1.7078
-11.7139 5.9132 1.7070
-12.1897 4.8428 1.7063
-12.5691 3.7350 1.7057
-12.8492 2.5984 1.7053
-13.0279 1.4417 1.7051
-13.1040 0.2739 1.7050
-13.0768 -0.8961 1.7051
-8.4627 -1.3461 1.1147
-12.0615 -3.0420 1.6182
-12.3599 -4.3218 1.7033
-11.9252 -5.4070 1.7033
-12.4149 -7.0262 1.8557
-11.7387 -8.1056 1.8557
-10.9689 -9.1204 1.8557
-10.1117 -10.0624 1.8557
-9.1738 -10.9243 1.8557
-8.1666 -11.7044 1.8566
-7.0996 -12.4030 1.8591
-5.9735 -13.0056 1.8618
-4.7969 -13.5068 1.8646
-3.5821 -13.9163 1.8693
-2.3350 -14.2325 1.8762
-1.0588 -14.4196 1.8808
0.2320 -14.4831 1.8843
1.5254 -14.4282 1.8874
2.8108 -14.2569 1.8903
4.0773 -13.9701 1.8931
5.3145 -13.5696 1.8958
6.5288 -13.0917 1.9031
7.7092 -12.5199 1.9127
8.8465 -11.8511 1.9238
9.9184 -11.0706 1.9336
10.9128 -10.1851 1.9418
11.8209 -9.2047 1.9489
8.0260 -5.1704 1.2420
9.1486 -4.7975 1.3438
9.4950 -3.9436 1.3375
9.6581 -3.0336 1.3169
13.5988 -2.9699 1.8107
13.8148 -1.7457 1.8114
13.9214 -0.5068 1.8122
13.9149 0.7373 1.8127
13.7854 1.9743 1.8116
13.5345 3.1914 1.8089
13.1654 4.3758 1.8048
5.1911 2.2575 0.7364
4.7185 2.5748 0.6993
4.6213 3.0865 0.7229
10.6203 8.5559 1.7741
9.7558 9.4122 1.7634
4.8998 2.3787 0.7427
4.6288 2.7827 0.7364
5.0443 3.6825 0.8516
9.7260 8.5289 1.7639
8.8838 9.3177 1.7555
7.9765 10.0218 1.7465
7.0131 10.6361 1.7372
5.4688 10.1644 1.5738
4.9289 11.5197 1.7085
3.8753 11.8938 1.7057
2.8159 12.2657 1.7160
1.8498 13.4830 1.8557
0.5106 10.8499 1.4811
-0.4749 11.2236 1.5318
-1.7859 13.4916 1.8557
-2.9823 13.2785 1.8557
-4.1548 12.9596 1.8557
-5.2942 12.5373 1.8557
-6.1170 11.4992 1.7760
-6.8325 10.4698 1.7047
-7.7502 9.8326 1.7072
-8.6039 9.1101 1.7086
-8.6480 7.6563 1.5749
-10.0857 7.4364 1.7086
-10.7078 6.5064 1.7085
-11.2403 5.5228 1.7077
-11.6837 4.4965 1.7071
-12.0347 3.4354 1.7066
-12.2906 2.3477 1.7062
-12.4495 1.2419 1.7060
-12.5102 0.1265 1.7059
-12.4723 -0.9900 1.7060
-8.4500 -1.4377 1.1688
-11.8213 -3.1174 1.6670
-11.7465 -4.2500 1.7033
-11.3206 -5.2808 1.7033
-11.7711 -6.8305 1.8557
-11.1149 -7.8533 1.8557
-10.3701 -8.8134 1.8557
-9.5426 -9.7033 1.8557
-8.6391 -10.5158 1.8557
-7.6752 -11.2570 1.8578
-6.6492 -11.9123 1.8602
-1.0553 -2.3646 0.3531
-0.8391 -2.4461 0.3526
-3.2792 -13.3336 1.8723
-2.0824 -13.6099 1.8774
-0.8618 -13.7681 1.8810
0.3703 -13.8122 1.8840
1.6034 -13.7453 1.8870
2.8272 -13.5676 1.8898
0.7507 -2.4727 0.3524
0.9694 -2.3985 0.3528
6.3586 -12.4134 1.9018
7.4725 -11.8473 1.9099
8.5422 -11.1895 1.9195
9.5509 -10.4318 1.9286
10.4887 -9.5797 1.9369
11.3459 -8.6398 1.9446
8.0054 -5.0357 1.2896
11.7251 -5.9882 1.7952
9.3713 -3.7742 1.3776
12.6577 -3.8262 1.8031
12.9597 -2.6842 1.8046
13.1514 -1.5180 1.8052
13.2308 -0.3387 1.8047
13.2002 0.8423 1.8036
13.0637 2.0150 1.8024
12.8128 3.1675 1.7997
12.4506 4.2879 1.7956
5.0894 2.2789 0.7604
4.6711 2.6147 0.7299
4.5990 3.1438 0.7596
10.0012 8.2366 1.7667
9.1837 9.0535 1.7584
8.2979 9.7875 1.7497
7.3529 10.4335 1.7405
6.3578 10.9870 1.7309
5.3089 11.4166 1.7168
4.2442 11.7749 1.7067
3.1716 12.0862 1.7038
2.2664 13.4193 1.8557
0.8711 11.1454 1.5244
-0.0819 7.2392 0.9872
-1.3673 13.5405 1.8557
-2.5696 13.3645 1.8557
-3.7515 13.0821 1.8557
-4.9034 12.6953 1.8557
-6.0163 12.2073 1.8557
-6.5017 10.6709 1.7038
-7.4384 10.0631 1.7063
-8.3176 9.3721 1.7086
-8.4174 7.9304 1.5769
-9.8506 7.7451 1.7086
-10.5022 6.8357 1.7086
-11.0656 5.8691 1.7079
-11.5403 4.8567 1.7073
-11.9237 3.8068 1.7067
-12.2128 2.7274 1.7063
-12.4055 1.6269 1.7060
-12.5003 0.5138 1.7059
-12.4966 -0.6033 1.7060
-8.8504 -1.2251 1.2183
-12.1943 -2.8150 1.7065
-11.8725 -3.8842 1.7033
-11.4787 -4.9278 1.7033
-10.9934 -5.9320 1.7033
-11.3527 -7.5053 1.8557
-10.6380 -8.4881 1.8557
-9.8385 -9.4031 1.8557
-8.9605 -10.2432 1.8557
-8.0166 -11.0092 1.8570
-7.0116 -11.6953 1.8594
-5.9485 -12.2907 1.8619
-0.9148 -2.4199 0.3528
-3.6861 -13.2101 1.8701
-2.5010 -13.5288 1.8760
-1.2870 -13.7270 1.8800
-0.0575 -13.8094 1.8830
1.1763 -13.7811 1.8860
2.4045 -13.6418 1.8888
3.6169 -13.3921 1.8915
0.8942 -2.4264 0.3526
5.9618 -12.5846 1.8988
7.0910 -12.0544 1.9070
8.1776 -11.4292 1.9163
9.2087 -10.7055 1.9255
10.1722 -9.8855 1.9341
11.0583 -8.9752 1.9420
11.8580 -7.9821 1.9491
9.0759 -4.9954 1.4126
12.0750 -5.3033 1.7983
9.4627 -3.1834 1.3613
12.8674 -3.0835 1.8042
13.0976 -1.9244 1.8051
13.2160 -0.7484 1.8050
13.2216 0.4332 1.8038
13.1241 1.6100 1.8030
12.9126 2.7709 1.8008
12.5885 3.9038 1.7972
5.7764 2.3746 0.8516
4.7930 2.4912 0.7366
4.5977 2.9383 0.7440
10.2672 7.9351 1.7694
9.4753 8.7793 1.7614
8.6122 9.5427 1.7528
7.6868 10.2198 1.7437
6.7080 10.8058 1.7342
5.4403 10.8106 1.6502
4.6094 11.6445 1.7077
3.5465 11.9892 1.7048
2.6809 13.3427 1.8557
1.4800 13.5286 1.8557
0.1422 7.2374 0.9871
-0.7759 11.1188 1.5198
-2.1546 13.4377 1.8557
-3.3446 13.1919 1.8557
-4.5080 12.8410 1.8557
-5.6354 12.3877 1.8557
-6.1662 10.8637 1.7033
-7.1197 10.2835 1.7055
-8.0198 9.6208 1.7079
-8.8500 8.8711 1.7086
-9.6060 8.0464 1.7086
-10.2855 7.1575 1.7086
-10.8802 6.2099 1.7082
-11.3859 5.2124 1.7075
-11.8013 4.1746 1.7069
-12.1233 3.1045 1.7064
-12.3497 2.0103 1.7061
-12.4786 0.9007 1.7060
-12.5091 -0.2160 1.7059
-12.4410 -1.3310 1.7061
-8.4301 -1.6729 1.1719
-11.8258 -3.4674 1.6804
-11.6257 -4.5699 1.7033
-11.1718 -5.5887 1.7033
-11.5797 -7.1502 1.8557
-10.8958 -8.1546 1.8557
-10.1250 -9.0939 1.8557
-9.2735 -9.9608 1.8557
-8.3501 -10.7511 1.8562
-7.3671 -11.4674 1.8585
-6.3232 -12.0949 1.8610
-0.9898 -2.3916 0.3529
-4.0887 -13.0745 1.8679
-2.9161 -13.4326 1.8743
-1.7102 -13.6708 1.8786
-0.4849 -13.7934 1.8820
0.7486 -13.8035 1.8849
1.9799 -13.7026 1.8878
3.1990 -13.4911 1.8906
0.8184 -2.4520 0.3525
1.0351 -2.3720 0.3529
6.7048 -12.2506 1.9043
7.8062 -11.6566 1.9129
8.8583 -10.9677 1.9224
9.8463 -10.1804 1.9312
10.7604 -9.3006 1.9394
11.5911 -8.3354 1.9467
8.0972 -4.7893 1.2828
11.8945 -5.6697 1.7967
9.3138 -3.4579 1.3547
12.7618 -3.4794 1.8037
13.0303 -2.3288 1.8049
13.1877 -1.1574 1.8051
13.2325 0.0235 1.8043
13.1706 1.2031 1.8034
12.9988 2.3709 1.8017
12.7134 3.5149 1.7986
12.3180 4.6232 1.7940
4.9214 2.3674 0.7447
4.6355 2.7641 0.7359
5.0556 3.6630 0.8513
9.7584 8.4954 1.7642
8.9190 9.2875 1.7558
8.0142 9.9951 1.7469
7.0528 10.6131 1.7376
5.5071 10.1479 1.5744
4.9706 11.5027 1.7086
3.9183 11.8806 1.7058
2.8388 12.1648 1.7033
1.8983 13.4763 1.8557
0.5497 10.8493 1.4813
-0.4361 11.2650 1.5372
-1.7374 13.4980 1.8557
-2.9345 13.2892 1.8557
-4.1082 12.9745 1.8557
-5.2491 12.5563 1.8557
-6.1142 11.5943 1.7873
-6.7944 10.4937 1.7046
-7.7144 9.8599 1.7071
-8.5711 9.1410 1.7086
-8.5856 7.6563 1.5686
-10.0589 7.4725 1.7086
-10.6845 6.5450 1.7085
-11.2206 5.5633 1.7077
-11.6676 4.5386 1.7071
-12.0224 3.4787 1.7066
-12.2822 2.3919 1.7062
-12.4450 1.2867 1.7060
-12.5097 0.1715 1.7059
-12.4758 -0.9451 1.7060
-8.4526 -1.4069 1.1684
-11.8274 -3.0736 1.6663
-11.7617 -4.2077 1.7033
-11.3395 -5.2401 1.7033
-11.7956 -6.7881 1.8557
-11.1431 -7.8132 1.8557
-10.4017 -8.7761 1.8557
-9.5774 -9.6689 1.8557
-8.6768 -10.4847 1.8557
-7.7152 -11.2288 1.8577
-6.6916 -11.8877 1.8601
-1.0639 -2.3609 0.3531
-0.8479 -2.4432 0.3526
-3.3266 -13.3199 1.8720
-2.1311 -13.6011 1.8772
-0.9113 -13.7640 1.8809
0.3207 -13.8125 1.8839
1.5538 -13.7502 1.8868
2.7783 -13.5769 1.8896
3.9838 -13.2937 1.8923
0.9607 -2.4019 0.3527
6.3128 -12.4339 1.9014
7.4283 -11.8716 1.9095
8.5002 -11.2180 1.9192
9.5116 -10.4641 1.9282
10.4524 -9.6157 1.9366
11.3130 -8.6793 1.9443
8.0045 -5.0754 1.2924
11.7022 -6.0296 1.7950
9.4452 -3.8435 1.3905
12.6433 -3.8715 1.8030
12.9497 -2.7307 1.8046
13.1458 -1.5652 1.8052
13.2298 -0.3863 1.8047
13.2032 0.7948 1.8036
13.0714 1.9681 1.8024
12.8250 3.1216 1.7998
12.4673 4.2436 1.7958
5.1135 2.2676 0.7627
4.6852 2.6005 0.7307
4.5991 3.1197 0.7578
10.0326 8.2021 1.7670
9.2180 9.0222 1.7588
8.3348 9.7597 1.7500
7.3920 10.4092 1.7408
6.3987 10.9666 1.7313
4.9365 10.5168 1.5841
4.2868 11.7603 1.7068
3.2153 12.0755 1.7039
2.3147 13.4110 1.8557
0.9118 11.1507 1.5255
-0.0559 7.2390 0.9871
-1.1039 11.3395 1.5535
-2.5216 13.3737 1.8557
-3.7044 13.0955 1.8557
-4.8578 12.7128 1.8557
-5.9724 12.2288 1.8557
-6.4629 10.6935 1.7037
-7.4018 10.0892 1.7062
-8.2835 9.4016 1.7086
-8.4160 7.9865 1.5820
-9.8227 7.7805 1.7086
-10.4775 6.8734 1.7086
-11.0446 5.9090 1.7080
-11.5229 4.8983 1.7073
-11.9100 3.8497 1.7067
-12.2030 2.7713 1.7063
-12.3996 1.6715 1.7060
-12.4984 0.5588 1.7059
-12.4987 -0.5583 1.7060
-12.4004 -1.6711 1.7061
-12.2043 -2.7711 1.7065
-11.8863 -3.8415 1.7033
-11.4963 -4.8864 1.7033
-11.0146 -5.8924 1.7033
-11.3797 -7.4644 1.8557
-10.6685 -8.4497 1.8557
-9.8722 -9.3677 1.8557
-8.9973 -10.2109 1.8557
-8.0557 -10.9797 1.8569
-7.0533 -11.6694 1.8593
-5.9923 -12.2686 1.8618
-0.9236 -2.4168 0.3528
-3.7331 -13.1949 1.8698
-2.5494 -13.5185 1.8758
-1.3363 -13.7214 1.8798
-0.1072 -13.8082 1.8829
1.1267 -13.7844 1.8858
2.3553 -13.6495 1.8887
3.5686 -13.4043 1.8914
0.8855 -2.4295 0.3526
5.9153 -12.6032 1.8984
7.0465 -12.0778 1.9067
8.1348 -11.4562 1.9159
9.1684 -10.7366 1.9251
10.1348 -9.9202 1.9338
11.0243 -9.0135 1.9417
11.8276 -8.0236 1.9488
9.1294 -5.0677 1.4238
12.0546 -5.3462 1.7981
9.4319 -3.2108 1.3586
12.8558 -3.1297 1.8042
13.0905 -1.9715 1.8051
13.2134 -0.7959 1.8050
13.2235 0.3856 1.8039
13.1302 1.5629 1.8030
12.9233 2.7246 1.8009
12.6037 3.8589 1.7973
12.1755 4.9540 1.7924
4.8072 2.4767 0.7374
4.5964 2.9142 0.7421
10.2975 7.8995 1.7697
9.5086 8.7469 1.7617
8.6482 9.5136 1.7531
7.7251 10.1942 1.7441
6.7483 10.7840 1.7346
5.4598 10.7527 1.6444
4.6516 11.6286 1.7078
3.5898 11.9772 1.7049
2.7289 13.3329 1.8557
1.5287 13.5232 1.8557
0.1683 7.2372 0.9871
-0.7356 11.1178 1.5193
-2.1062 13.4453 1.8557
-3.2972 13.2039 1.8557
-4.4618 12.8571 1.8557
-5.5908 12.4079 1.8557
-6.1430 10.9140 1.7077
-7.0823 10.3084 1.7054
-7.9847 9.6491 1.7078
-8.8181 8.9029 1.7086
-9.5770 8.0809 1.7086
-10.2597 7.1944 1.7086
-10.8580 6.2492 1.7083
-11.3672 5.2534 1.7075
-11.7863 4.2171 1.7069
-12.1122 3.1481 1.7064
-12.3424 2.0547 1.7061
-12.4753 0.9456 1.7060
-12.5098 -0.1710 1.7059
-12.4456 -1.2863 1.7061
-8.4327 -1.6419 1.1714
-11.8252 -3.4212 1.6786
-11.6421 -4.5281 1.7033
-11.1918 -5.5485 1.7033
-11.6053 -7.1085 1.8557
-10.9250 -8.1153 1.8557
-10.1576 -9.0575 1.8557
-9.3092 -9.9274 1.8557
-8.3883 -10.7205 1.8561
-7.4079 -11.4402 1.8584
-6.3663 -12.0714 1.8609
-0.9984 -2.3881 0.3529
-4.1352 -13.0580 1.8677
-2.9639 -13.4201 1.8740
-1.7592 -13.6634 1.8785
-0.5344 -13.7906 1.8818
0.6990 -13.8052 1.8848
