ply
format ascii 1.0
element vertex 1935
property float32 x
property float32 y
property float32 z
end_header
-24.9713 -8.3284 -13.9272
35.2450 -8.2166 -19.1474
35.3048 -4.9647 -18.8628
35.6310 -1.7962 -18.8755
33.8709 14.1726 -19.4259
32.6387 17.2261 -19.5259
30.7862 19.9490 -19.4089
26.3893 20.6629 -17.7328
25.5167 23.9445 -18.5135
25.7393 28.8870 -20.4704
-13.3757 13.2317 -9.9544
-13.5918 11.2328 -9.3291
-13.7839 9.4568 -8.8441
-13.9582 7.8441 -8.4712
-14.0427 6.3159 -8.1466
-5.4260 1.8787 -3.0380
-14.3396 3.5699 -7.8183
-14.4814 2.2577 -7.7544
-14.6221 0.9566 -7.7528
-14.9974 -0.3601 -7.9371
-16.7132 -1.9024 -8.8997
-19.5384 -4.0150 -10.5534
-23.4034 -7.0349 -12.9296
36.5837 -9.6909 -20.0231
35.6707 -6.1090 -19.1474
35.5372 -2.8594 -18.8627
34.7396 13.3297 -19.6866
32.4983 15.9281 -19.1483
32.5824 19.7547 -20.1596
27.5887 20.3007 -18.1224
26.2215 23.1706 -18.5135
25.4638 26.9119 -19.6020
-13.2964 13.9646 -10.2018
-13.5225 11.8738 -9.5211
-13.6470 9.9761 -8.9438
-13.8257 8.3233 -8.5381
-13.9901 6.8024 -8.2304
-14.1443 5.3763 -8.0058
-14.2914 4.0155 -7.8541
-14.4342 2.6949 -7.7688
-14.5750 1.3924 -7.7464
-14.7161 0.0870 -7.7861
-16.0132 -1.3390 -8.5018
-18.5777 -3.2417 -9.9776
-21.9462 -5.8872 -12.0218
35.4721 -7.1733 -19.1474
35.4358 -3.9211 -18.8628
35.7446 -0.7460 -18.9158
32.3632 14.6780 -18.8014
34.5173 19.5406 -20.9857
29.1473 20.1322 -18.7421
26.5197 22.0572 -18.2498
25.2743 25.1596 -18.8681
-13.2131 14.7355 -10.4715
-13.4502 12.5424 -9.7302
-13.6575 10.6250 -9.1550
-13.8431 8.9086 -8.7097
-14.0128 7.3396 -8.3693
-14.0936 5.8453 -8.0725
-5.5241 1.7320 -3.0629
-14.3867 3.1340 -7.7902
-14.5279 1.8279 -7.7470
-14.6687 0.5258 -7.7659
-15.5872 -0.8348 -8.2587
-17.4716 -2.5127 -9.3389
-20.3653 -4.8151 -11.0719
-24.9785 -8.3194 -13.9293
35.2416 -8.2311 -19.1474
35.3028 -4.9788 -18.8628
35.6294 -1.8109 -18.8751
33.9022 14.1692 -19.4405
32.6367 17.2078 -19.5205
30.8100 19.9464 -19.4188
26.3968 20.6511 -17.7321
25.5266 23.9340 -18.5135
25.7363 28.8594 -20.4584
-13.3746 13.2416 -9.9576
-13.5909 11.2415 -9.3316
-13.7830 9.4646 -8.8461
-13.9575 7.8513 -8.4728
-14.0420 6.3226 -8.1477
-5.4268 1.8815 -3.0389
-14.3389 3.5760 -7.8188
-14.4808 2.2638 -7.7545
-14.6215 0.9626 -7.7526
-14.9894 -0.3536 -7.9328
-16.7031 -1.8942 -8.8939
-19.5244 -4.0037 -10.5449
-23.3825 -7.0181 -12.9164
36.6242 -9.7178 -20.0474
35.6682 -6.1239 -19.1474
35.5360 -2.8740 -18.8627
34.7451 13.3153 -19.6866
32.4964 15.9103 -19.1432
32.6082 19.7519 -20.1705
27.6095 20.2985 -18.1306
25.8252 24.2742 -18.4734
25.7452 28.9417 -20.1897
-13.0791 15.4556 -10.5531
-13.3759 13.2100 -9.7987
-13.5937 11.2154 -9.1855
-13.7855 9.4412 -8.7089
-13.9598 7.8298 -8.3425
-14.0441 6.3026 -8.0234
-5.4242 1.8731 -2.9910
-14.3409 3.5576 -7.7013
-14.4828 2.2457 -7.6389
-14.6234 0.9445 -7.6379
-15.0133 -0.3729 -7.8276
-16.7335 -1.9187 -8.7790
-19.5666 -4.0376 -10.4134
-23.1250 -6.9721 -12.5891
36.5031 -9.6373 -19.6780
36.2137 -6.1712 -19.1474
35.5817 -2.8332 -18.6046
35.2522 13.5598 -19.6866
32.5021 15.9632 -18.8737
32.5307 19.7603 -19.8386
27.5469 20.3052 -17.8371
26.4435 23.4057 -18.4064
25.4692 26.9623 -19.3319
-13.2987 13.9438 -10.0433
-13.5245 11.8557 -9.3743
-13.7235 10.0147 -8.8550
-13.8272 8.3087 -8.4081
-13.9916 6.7888 -8.1058
-14.1457 5.3635 -7.8852
-14.2927 4.0031 -7.7363
-14.4355 2.6827 -7.6529
-14.5763 1.3803 -7.6314
-14.7175 0.0748 -7.6711
-16.0317 -1.3539 -8.3858
-18.6028 -3.2619 -9.8441
-21.9333 -5.9032 -11.8389
13.6341 -10.2654 -8.8954
36.0129 -7.2516 -19.1474
35.4675 -3.8947 -18.5975
35.8222 -0.7179 -18.6750
32.3668 14.7120 -18.5312
32.7869 18.5968 -19.6467
29.1028 20.1370 -18.4461
26.5103 22.0866 -17.9848
25.2793 25.2063 -18.6069
-13.2154 14.7137 -10.3083
-13.4523 12.5235 -9.5797
-13.5849 10.5504 -8.9653
-13.8448 8.8935 -8.5767
-13.9379 7.2856 -8.1973
-14.0950 5.8322 -7.9507
-5.5321 1.7294 -3.0210
-14.3880 3.1218 -7.6738
-14.5292 1.8158 -7.6318
-14.6700 0.5136 -7.6510
-15.6044 -0.8487 -8.1454
-17.4939 -2.5307 -9.2131
-20.3533 -4.8300 -10.9032
-24.9640 -8.3374 -13.7182
35.7799 -8.3256 -19.1474
35.3532 -4.9564 -18.6070
35.6945 -1.7846 -18.6279
34.0564 14.2668 -19.2455
32.6406 17.2445 -19.2413
30.7622 19.9515 -19.1109
26.3818 20.6746 -17.4701
25.8444 24.2721 -18.4799
25.7422 28.9142 -20.1780
-13.0727 15.4610 -10.5531
-13.3705 13.2156 -9.7987
-13.5928 11.2241 -9.1880
-13.7847 9.4490 -8.7108
-13.9590 7.8370 -8.3439
-14.0434 6.3092 -8.0245
-5.4250 1.8759 -2.9919
-14.3402 3.5638 -7.7018
-14.4821 2.2517 -7.6390
-14.6228 0.9505 -7.6378
-15.0053 -0.3665 -7.8234
-16.7234 -1.9105 -8.7733
-19.5526 -4.0263 -10.4050
-23.1043 -6.9555 -12.5763
36.5434 -9.6641 -19.7018
36.2111 -6.1862 -19.1474
35.5801 -2.8479 -18.6044
35.2578 13.5452 -19.6866
32.5002 15.9456 -18.8688
32.5564 19.7575 -19.8494
27.5678 20.3030 -17.8451
26.4412 23.3841 -18.3980
25.4665 26.9371 -19.3213
-13.2976 13.9542 -10.0468
-13.5235 11.8647 -9.3770
-13.7227 10.0227 -8.8572
-13.8265 8.3160 -8.4097
-13.9908 6.7956 -8.1070
-14.1450 5.3699 -7.8860
-14.2921 4.0093 -7.7369
-14.4348 2.6888 -7.6531
-14.5757 1.3864 -7.6314
-14.7168 0.0809 -7.6708
-16.0224 -1.3464 -8.3807
-18.5903 -3.2518 -9.8367
-21.9398 -5.8952 -11.8411
13.6275 -10.2692 -8.8939
36.0099 -7.2666 -19.1474
35.4659 -3.9094 -18.5975
35.8139 -0.7327 -18.6708
32.3650 14.6950 -18.5267
32.7848 18.5778 -19.6409
29.1251 20.1346 -18.4550
26.5301 22.0845 -17.9920
25.2768 25.1830 -18.5974
-13.2143 14.7246 -10.3121
-13.4512 12.5329 -9.5826
-13.5840 10.5587 -8.9676
-13.8440 8.9010 -8.5785
-13.9371 7.2926 -8.1986
-14.0943 5.8388 -7.9516
-5.5279 1.7307 -3.0192
-14.3874 3.1280 -7.6742
-14.5286 1.8219 -7.6319
-14.6694 0.5197 -7.6507
-15.5958 -0.8417 -8.1407
-17.4827 -2.5217 -9.2067
-20.3593 -4.8225 -10.9053
-24.9713 -8.3284 -13.7203
35.7764 -8.3404 -19.1474
35.3516 -4.9711 -18.6072
35.6930 -1.7994 -18.6275
34.0623 14.2526 -19.2455
32.6387 17.2261 -19.2359
30.7862 19.9490 -19.1207
26.3893 20.6629 -17.4694
25.8636 24.2701 -18.4865
25.7393 28.8870 -20.1663
-13.0663 15.4665 -10.5531
-13.3650 13.2211 -9.7987
-13.5918 11.2328 -9.1905
-13.7839 9.4568 -8.7127
-13.9582 7.8441 -8.3454
-14.0427 6.3159 -8.0256
-5.4258 1.8787 -2.9928
-14.3396 3.5699 -7.7022
-14.4814 2.2577 -7.6392
-14.6221 0.9566 -7.6376
-14.9974 -0.3601 -7.8192
-16.7132 -1.9024 -8.7675
-19.5384 -4.0150 -10.3966
-23.0836 -6.9388 -12.5634
36.5837 -9.6909 -19.7257
36.2086 -6.2011 -19.1474
35.5785 -2.8626 -18.6042
35.2634 13.5307 -19.6866
32.4983 15.9281 -18.8638
32.5823 19.7547 -19.8602
27.5887 20.3007 -17.8532
26.4389 23.3626 -18.3897
25.4638 26.9119 -19.3108
-13.2964 13.9646 -10.0503
-13.5225 11.8738 -9.3797
-13.7218 10.0308 -8.8593
-13.8257 8.3233 -8.4113
-13.9901 6.8024 -8.1082
-14.1443 5.3763 -7.8869
-14.2914 4.0155 -7.7374
-14.4342 2.6949 -7.6534
-14.5750 1.3924 -7.6314
-14.7161 0.0870 -7.6705
-16.0132 -1.3390 -8.3755
-18.5777 -3.2417 -9.8294
-21.9463 -5.8872 -11.8432
13.6221 -10.2740 -8.8931
36.0069 -7.2814 -19.1474
35.4643 -3.9241 -18.5975
35.8062 -0.7472 -18.6669
32.3632 14.6780 -18.5221
32.7827 18.5587 -19.6350
29.1473 20.1322 -18.4637
26.5499 22.0823 -17.9993
25.2743 25.1596 -18.5878
-13.2131 14.7355 -10.3159
-13.4502 12.5424 -9.5856
-13.5831 10.5670 -8.9699
-13.8431 8.9086 -8.5803
-13.9363 7.2995 -8.2000
-14.0936 5.8453 -7.9526
-5.5238 1.7319 -3.0173
-14.3867 3.1340 -7.6745
-14.5279 1.8279 -7.6319
-14.6687 0.5258 -7.6505
-15.5872 -0.8348 -8.1360
-17.4716 -2.5127 -9.2002
-20.3653 -4.8151 -10.9075
-24.9785 -8.3194 -13.7224
35.7730 -8.3552 -19.1474
35.3501 -4.9858 -18.6075
35.6914 -1.8141 -18.6270
34.0682 14.2386 -19.2455
32.6367 17.2078 -19.2305
30.8100 19.9464 -19.1304
26.3968 20.6511 -17.4687
25.8828 24.2680 -18.4930
25.7363 28.8594 -20.1546
-13.0599 15.4719 -10.5531
-13.3595 13.2266 -9.7987
-13.5909 11.2415 -9.1930
-13.7830 9.4646 -8.7147
-13.9575 7.8513 -8.3469
-14.0420 6.3226 -8.0266
-5.4266 1.8815 -2.9936
-14.3389 3.5760 -7.7026
-14.4808 2.2638 -7.6393
-14.6215 0.9626 -7.6375
-14.9894 -0.3537 -7.8149
-16.7031 -1.8942 -8.7618
-19.5244 -4.0037 -10.3883
-23.0630 -6.9222 -12.5506
36.6242 -9.7178 -19.7497
36.2060 -6.2162 -19.1474
35.5770 -2.8773 -18.6039
35.2690 13.5161 -19.6866
32.4964 15.9103 -18.8589
32.6082 19.7519 -19.8709
27.6095 20.2985 -17.8613
25.8252 24.2742 -18.1966
25.7452 28.9417 -19.8872
-13.1289 15.5144 -10.4346
-13.3778 13.2119 -9.6532
-13.5937 11.2154 -9.0479
-13.7855 9.4412 -8.5784
-13.8836 7.7871 -8.1727
-14.0441 6.3026 -7.9032
-5.4240 1.8730 -2.9461
-14.3409 3.5576 -7.5860
-14.4828 2.2457 -7.5245
-14.6234 0.9445 -7.5235
-15.0133 -0.3729 -7.7104
-16.8613 -1.9334 -8.7135
-19.5666 -4.0377 -10.2574
-23.1250 -6.9721 -12.4005
36.5032 -9.6373 -19.3831
36.5114 -6.2220 -19.0156
35.5817 -2.8332 -18.3259
35.7884 13.7661 -19.6866
32.5021 15.9632 -18.5909
32.5307 19.7603 -19.5415
27.5469 20.3052 -17.5699
24.9865 22.1161 -17.1317
25.4692 26.9623 -19.0422
-13.2262 13.8678 -9.8389
-13.5245 11.8557 -9.2338
-13.7235 10.0147 -8.7224
-13.8272 8.3087 -8.2821
-13.9916 6.7888 -7.9844
-14.1457 5.3635 -7.7671
-14.2927 4.0031 -7.6204
-14.4355 2.6827 -7.5382
-14.5763 1.3803 -7.5171
-14.7175 0.0748 -7.5562
-16.0317 -1.3539 -8.2601
-18.6028 -3.2619 -9.6966
-21.9333 -5.9032 -11.6615
-0.9936 -17.3436 -8.9190
36.3918 -7.3279 -19.0590
35.4675 -3.8947 -18.3189
35.8222 -0.7179 -18.3952
32.3668 14.7120 -18.2536
32.7869 18.5968 -19.3524
13.8287 9.5684 -8.6337
25.5560 21.2916 -17.0777
25.2793 25.2063 -18.3282
-13.2154 14.7136 -10.1539
-13.4523 12.5235 -9.4362
-13.6594 10.6082 -8.8794
-13.8448 8.8935 -8.4482
-13.9379 7.2856 -8.0745
-14.0950 5.8322 -7.8316
-5.5318 1.7293 -2.9756
-14.3880 3.1218 -7.5588
-14.5292 1.8158 -7.5175
-14.6700 0.5136 -7.5364
-15.6044 -0.8487 -8.0233
-17.4939 -2.5307 -9.0751
-20.3533 -4.8300 -10.7398
-24.9640 -8.3374 -13.5127
36.2715 -8.4400 -19.1197
35.3532 -4.9563 -18.3282
35.6945 -1.7846 -18.3489
32.5437 13.6331 -18.1151
32.6406 17.2445 -18.9530
30.7623 19.9515 -18.8246
26.3818 20.6746 -17.2084
25.8444 24.2721 -18.2031
25.7422 28.9142 -19.8757
-13.1276 15.5259 -10.4387
-13.3768 13.2218 -9.6564
-13.5928 11.2241 -9.0504
-13.7847 9.4490 -8.5803
-13.8829 7.7943 -8.1741
-14.0434 6.3092 -7.9043
-5.4248 1.8758 -2.9469
-14.3402 3.5638 -7.5864
-14.4821 2.2517 -7.5246
-14.6228 0.9505 -7.5233
-15.0053 -0.3665 -7.7062
-16.8622 -1.9264 -8.7135
-19.5526 -4.0263 -10.2491
-23.1043 -6.9555 -12.3879
36.5434 -9.6641 -19.4067
36.5097 -6.2372 -19.0161
35.5801 -2.8479 -18.3256
35.7941 13.7512 -19.6866
32.5002 15.9456 -18.5861
32.5564 19.7575 -19.5520
27.5677 20.3030 -17.5778
24.9896 22.1003 -17.1275
25.4665 26.9371 -19.0319
-13.2251 13.8781 -9.8423
-13.5235 11.8647 -9.2365
-13.7227 10.0227 -8.7245
-13.8265 8.3160 -8.2837
-13.9908 6.7956 -7.9855
-14.1450 5.3699 -7.7679
-14.2921 4.0093 -7.6210
-14.4348 2.6888 -7.5385
-14.5757 1.3864 -7.5171
-14.7168 0.0809 -7.5559
-16.0224 -1.3464 -8.2551
-18.5903 -3.2518 -9.6894
-21.9398 -5.8952 -11.6637
-1.0008 -17.3435 -8.9191
36.3901 -7.3433 -19.0597
35.4659 -3.9094 -18.3189
35.8139 -0.7327 -18.3911
32.3650 14.6950 -18.2491
32.7848 18.5777 -19.3466
13.8344 9.5639 -8.6348
25.5751 21.2895 -17.0845
25.2768 25.1830 -18.3188
-13.2143 14.7246 -10.1576
-13.4512 12.5329 -9.4391
-13.6585 10.6166 -8.8816
-13.8440 8.9010 -8.4500
-13.9371 7.2926 -8.0758
-14.0943 5.8388 -7.8325
-5.5276 1.7306 -2.9738
-14.3874 3.1280 -7.5592
-14.5286 1.8219 -7.5175
-14.6694 0.5197 -7.5361
-15.5958 -0.8417 -8.0187
-17.4827 -2.5217 -9.0687
-20.3593 -4.8226 -10.7419
-24.9713 -8.3284 -13.5148
36.2699 -8.4555 -19.1207
35.3516 -4.9711 -18.3285
35.6930 -1.7994 -18.3484
32.5739 13.6298 -18.1288
32.6387 17.2261 -18.9477
30.7862 19.9490 -18.8342
26.3893 20.6629 -17.2077
25.8636 24.2701 -18.2095
25.7393 28.8870 -19.8642
-13.1264 15.5375 -10.4428
-13.3757 13.2317 -9.6596
-13.5918 11.2328 -9.0528
-13.7839 9.4568 -8.5822
-13.8821 7.8013 -8.1755
-14.0427 6.3159 -7.9053
-5.4256 1.8786 -2.9478
-14.3396 3.5699 -7.5868
-14.4814 2.2577 -7.5247
-14.6221 0.9566 -7.5232
-14.9974 -0.3601 -7.7020
-16.8630 -1.9194 -8.7135
-19.5384 -4.0149 -10.2409
-23.0836 -6.9388 -12.3752
36.5837 -9.6909 -19.4303
36.5081 -6.2524 -19.0165
35.5785 -2.8626 -18.3254
35.7997 13.7365 -19.6866
32.4983 15.9281 -18.5812
32.5824 19.7547 -19.5626
27.5887 20.3007 -17.5858
24.9926 22.0846 -17.1233
25.4638 26.9119 -19.0215
-13.2240 13.8885 -9.8458
-13.5225 11.8738 -9.2392
-13.7218 10.0308 -8.7265
-13.8257 8.3233 -8.2853
-13.9901 6.8024 -7.9867
-14.1443 5.3763 -7.7687
-14.2914 4.0155 -7.6215
-14.4342 2.6949 -7.5387
-14.5750 1.3924 -7.5170
-14.7161 0.0870 -7.5556
-16.0132 -1.3390 -8.2501
-18.5777 -3.2417 -9.6821
-21.9463 -5.8872 -11.6658
-1.0080 -17.3433 -8.9193
36.3885 -7.3586 -19.0604
35.4643 -3.9241 -18.3189
35.8062 -0.7472 -18.3873
32.3632 14.6780 -18.2446
32.7827 18.5587 -19.3409
13.8423 9.5609 -8.6372
25.5942 21.2875 -17.0914
25.2743 25.1595 -18.3094
-13.2131 14.7355 -10.1614
-13.4502 12.5424 -9.4420
-13.6575 10.6250 -8.8839
-13.8431 8.9086 -8.4517
-13.9364 7.2995 -8.0771
-14.0936 5.8453 -7.8335
-5.5235 1.7318 -2.9719
-14.3867 3.1340 -7.5595
-14.5279 1.8279 -7.5176
-14.6687 0.5258 -7.5359
-15.5872 -0.8348 -8.0141
-17.4716 -2.5127 -9.0624
-20.3653 -4.8151 -10.7441
-24.9785 -8.3194 -13.5168
36.2682 -8.4709 -19.1216
35.3501 -4.9858 -18.3287
35.6914 -1.8141 -18.3480
32.6039 13.6266 -18.1424
32.6367 17.2078 -18.9424
30.8101 19.9464 -18.8438
26.3968 20.6512 -17.2070
25.8828 24.2680 -18.2160
25.7363 28.8594 -19.8526
-13.1251 15.5491 -10.4469
-13.3746 13.2416 -9.6628
-13.5909 11.2415 -9.0553
-13.7830 9.4646 -8.5841
-13.8813 7.8085 -8.1770
-14.0420 6.3226 -7.9064
-5.4264 1.8814 -2.9487
-14.3389 3.5760 -7.5872
-14.4808 2.2638 -7.5249
-14.6215 0.9626 -7.5231
-14.9894 -0.3537 -7.6978
-16.8637 -1.9124 -8.7135
-19.5244 -4.0037 -10.2326
-23.0630 -6.9222 -12.3626
36.6242 -9.7178 -19.4538
36.5064 -6.2678 -19.0170
35.5770 -2.8773 -18.3252
35.8054 13.7217 -19.6866
32.4964 15.9103 -18.5763
32.6081 19.7519 -19.5732
27.6095 20.2985 -17.5937
25.8252 24.2742 -17.9216
25.6747 28.8624 -19.5330
-13.1289 15.5144 -10.2769
-13.3778 13.2119 -9.5073
-13.5937 11.2154 -8.9112
-13.7855 9.4412 -8.4487
-13.8836 7.7871 -8.0491
-14.0441 6.3026 -7.7837
-5.4238 1.8729 -2.9014
-14.3409 3.5576 -7.4713
-14.5623 2.2580 -7.4514
-14.7037 0.9497 -7.4505
-15.0133 -0.3729 -7.5938
-16.9672 -1.9455 -8.6357
-19.5666 -4.0377 -10.1024
-23.2148 -6.9992 -12.2605
-2.0350 -17.3670 -8.8418
-0.4722 -17.2847 -8.7433
36.5031 -9.6373 -19.0902
36.6353 -6.2431 -18.7918
35.5817 -2.8332 -18.0489
34.6931 13.3448 -18.7957
32.5021 15.9632 -18.3100
32.5307 19.7603 -19.2461
27.5469 20.3052 -17.3043
24.9865 22.1161 -16.8728
25.4692 26.9623 -18.7545
-12.9992 16.3276 -10.5531
-13.2987 13.9438 -9.7433
-13.5245 11.8557 -9.0943
-13.7235 10.0147 -8.5906
-13.8272 8.3087 -8.1570
-13.9916 6.7888 -7.8637
-14.1457 5.3635 -7.6497
-14.2927 4.0031 -7.5053
-14.4915 2.6932 -7.4531
-14.6563 1.3879 -7.4442
-14.7175 0.0748 -7.4420
-16.0317 -1.3539 -8.1354
-18.6028 -3.2619 -9.5501
-21.9333 -5.9032 -11.4853
-0.9898 -17.2771 -8.7505
36.5154 -7.3528 -18.8347
35.4675 -3.8947 -18.0420
35.8222 -0.7180 -18.1172
36.6398 12.8492 -19.6332
32.3668 14.7120 -17.9777
32.7869 18.5968 -19.0599
14.0015 9.6880 -8.6094
25.5560 21.2916 -16.8196
25.3509 25.2777 -18.1023
-13.2154 14.7136 -10.0004
-13.4523 12.5235 -9.2936
-13.6594 10.6082 -8.7452
-13.8448 8.8935 -8.3206
-13.9379 7.2856 -7.9525
-14.0950 5.8322 -7.7132
-5.5315 1.7293 -2.9305
-14.4045 3.1254 -7.4531
-14.6090 1.8258 -7.4445
-14.7306 0.5158 -7.4531
-15.6044 -0.8487 -7.9021
-17.5366 -2.5369 -8.9597
-20.3533 -4.8300 -10.5775
-24.9640 -8.3374 -13.3085
-1.5217 -17.4176 -8.8408
36.3734 -8.4637 -18.8836
35.3532 -4.9564 -18.0512
35.6945 -1.7846 -18.0715
32.5437 13.6331 -17.8414
32.6406 17.2444 -18.6666
30.7623 19.9515 -18.5401
26.3818 20.6746 -16.9483
25.8444 24.2721 -17.9279
25.6717 28.8350 -19.5216
-13.1276 15.5259 -10.2809
-13.3767 13.2218 -9.5105
-13.5928 11.2241 -8.9136
-13.7847 9.4490 -8.4506
-13.8829 7.7943 -8.0506
-14.0434 6.3092 -7.7848
-5.4246 1.8757 -2.9023
-14.3402 3.5638 -7.4717
-14.5616 2.2641 -7.4516
-14.7031 0.9558 -7.4503
-15.0053 -0.3665 -7.5897
-16.9569 -1.9372 -8.6301
-19.5526 -4.0263 -10.0942
-23.2177 -6.9896 -12.2605
-2.0422 -17.3664 -8.8418
-0.4794 -17.2838 -8.7429
36.5434 -9.6641 -19.1133
36.6337 -6.2584 -18.7923
35.5801 -2.8479 -18.0487
34.6913 13.3276 -18.7917
32.5002 15.9456 -18.3052
32.5564 19.7575 -19.2565
27.5677 20.3030 -17.3121
24.9896 22.1003 -16.8686
25.4665 26.9371 -18.7442
-12.9925 16.3330 -10.5531
-13.2976 13.9542 -9.7467
-13.5235 11.8647 -9.0969
-13.7227 10.0227 -8.5926
-13.8265 8.3160 -8.1585
-13.9908 6.7956 -7.8649
-14.1450 5.3699 -7.6505
-14.2921 4.0093 -7.5058
-14.4904 2.6991 -7.4531
-14.6557 1.3940 -7.4441
-14.7168 0.0809 -7.4417
-16.0224 -1.3464 -8.1303
-18.5903 -3.2518 -9.5429
-21.9398 -5.8952 -11.4874
-0.9970 -17.2771 -8.7507
36.5137 -7.3682 -18.8354
35.4659 -3.9094 -18.0420
35.8139 -0.7327 -18.1132
36.6646 12.8409 -19.6436
32.3650 14.6950 -17.9733
32.7848 18.5777 -19.0542
14.0051 9.6819 -8.6092
25.5751 21.2895 -16.8263
25.3484 25.2544 -18.0930
-13.2143 14.7246 -10.0041
-13.4512 12.5329 -9.2964
-13.6585 10.6166 -8.7474
-13.8440 8.9010 -8.3223
-13.9371 7.2926 -7.9538
-14.0943 5.8388 -7.7141
-5.5273 1.7305 -2.9287
-14.4032 3.1314 -7.4531
-14.6083 1.8319 -7.4446
-14.7304 0.5219 -7.4531
-15.5958 -0.8417 -7.8975
-17.5376 -2.5296 -8.9597
-20.3593 -4.8226 -10.5796
-24.9713 -8.3284 -13.3105
-1.5289 -17.4168 -8.8407
36.3699 -8.4788 -18.8836
35.3516 -4.9711 -18.0515
35.6930 -1.7994 -18.0711
32.5739 13.6298 -17.8548
32.6387 17.2261 -18.6613
30.7861 19.9490 -18.5495
26.3893 20.6629 -16.9476
25.8635 24.2701 -17.9343
25.6688 28.8078 -19.5104
-13.1264 15.5375 -10.2850
-13.3757 13.2317 -9.5136
-13.5918 11.2328 -8.9160
-13.7839 9.4568 -8.4525
-13.8821 7.8013 -8.0520
-14.0427 6.3159 -7.7859
-5.4254 1.8785 -2.9032
-14.3396 3.5699 -7.4721
-14.5609 2.2701 -7.4517
-14.7024 0.9618 -7.4502
-14.9974 -0.3601 -7.5856
-16.9466 -1.9289 -8.6244
-19.5384 -4.0149 -10.0861
-23.2206 -6.9800 -12.2605
-2.0494 -17.3657 -8.8419
-0.4865 -17.2828 -8.7426
36.5837 -9.6909 -19.1365
36.6320 -6.2737 -18.7927
35.5785 -2.8626 -18.0485
34.6894 13.3104 -18.7877
32.4983 15.9281 -18.3004
32.5823 19.7547 -19.2670
27.5887 20.3007 -17.3200
24.9926 22.0846 -16.8645
25.4638 26.9119 -18.7341
-12.9857 16.3384 -10.5531
-13.2964 13.9646 -9.7501
-13.5225 11.8738 -9.0996
-13.7218 10.0308 -8.5947
-13.8257 8.3233 -8.1601
-13.9901 6.8024 -7.8660
-14.1443 5.3763 -7.6513
-14.2914 4.0155 -7.5063
-14.4893 2.7052 -7.4531
-14.6550 1.4000 -7.4441
-14.7161 0.0870 -7.4414
-16.0132 -1.3390 -8.1254
-18.5777 -3.2417 -9.5358
-21.9463 -5.8872 -11.4895
-1.0042 -17.2770 -8.7509
36.5120 -7.3836 -18.8361
35.4643 -3.9241 -18.0420
35.8062 -0.7472 -18.1094
36.7018 12.8368 -19.6607
32.3632 14.6780 -17.9689
32.7827 18.5587 -19.0486
14.0087 9.6759 -8.6090
25.5942 21.2875 -16.8331
25.3459 25.2308 -18.0837
-13.2131 14.7355 -10.0078
-13.4502 12.5424 -9.2993
-13.6575 10.6250 -8.7497
-13.8431 8.9086 -8.3240
-13.9363 7.2995 -7.9551
-14.0936 5.8453 -7.7151
-5.5232 1.7317 -2.9269
-14.4019 3.1373 -7.4531
-14.6077 1.8379 -7.4446
-14.7302 0.5280 -7.4531
-15.5872 -0.8348 -7.8930
-17.5387 -2.5224 -8.9597
-20.3653 -4.8151 -10.5817
-24.9785 -8.3194 -13.3126
-1.5361 -17.4161 -8.8407
36.3663 -8.4938 -18.8836
35.3501 -4.9858 -18.0517
35.6914 -1.8141 -18.0707
32.6039 13.6266 -17.8682
32.6367 17.2078 -18.6561
30.8101 19.9464 -18.5590
26.3968 20.6512 -16.9469
25.8828 24.2680 -17.9407
25.6658 28.7803 -19.4990
-13.1251 15.5491 -10.2890
-13.3746 13.2416 -9.5167
-13.5909 11.2415 -8.9184
-13.7830 9.4646 -8.4544
-13.8813 7.8085 -8.0534
-14.0420 6.3226 -7.7869
-5.4262 1.8813 -2.9040
-14.3389 3.5760 -7.4726
-14.5603 2.2762 -7.4519
-14.7018 0.9679 -7.4501
-14.9894 -0.3537 -7.5815
-16.9363 -1.9207 -8.6188
-19.5244 -4.0037 -10.0780
-23.2234 -6.9704 -12.2605
-2.0566 -17.3650 -8.8420
-0.4936 -17.2819 -8.7422
36.6242 -9.7178 -19.1599
36.6304 -6.2891 -18.7932
35.5770 -2.8773 -18.0483
34.6876 13.2933 -18.7837
32.4964 15.9103 -18.2956
32.6081 19.7519 -19.2774
27.6095 20.2985 -17.3278
25.8252 24.2742 -17.6483
25.6747 28.8624 -19.2351
-13.1289 15.5144 -10.1201
-13.3778 13.2119 -9.3624
-13.5937 11.2154 -8.7753
-13.7855 9.4412 -8.3199
-13.8836 7.7871 -7.9264
-14.0441 6.3026 -7.6651
-5.4236 1.8729 -2.8571
-14.4196 3.5771 -7.3978
-14.5623 2.2580 -7.3378
-14.7037 0.9497 -7.3368
-15.0133 -0.3729 -7.4780
-16.9672 -1.9455 -8.5040
-19.5666 -4.0377 -9.9483
-23.4454 -7.0687 -12.1935
-0.4801 -17.5731 -8.7537
36.5032 -9.6373 -18.7991
35.1771 -5.9946 -17.7686
35.5195 -2.8282 -17.7425
34.0970 13.1155 -18.1910
32.5021 15.9632 -18.0308
32.5307 19.7603 -18.9526
27.5469 20.3052 -17.0405
24.9865 22.1161 -16.6155
25.4692 26.9623 -18.4685
-13.0122 16.3439 -10.4025
-13.2987 13.9438 -9.5947
-13.4955 11.8303 -8.9364
-13.7235 10.0147 -8.4596
-13.8272 8.3087 -8.0326
-13.9916 6.7888 -7.7438
-14.1457 5.3635 -7.5330
-14.3712 4.0251 -7.4314
-14.5147 2.6975 -7.3512
-14.6563 1.3879 -7.3306
-14.7175 0.0748 -7.3285
-16.0317 -1.3539 -8.0112
-18.6028 -3.2619 -9.4044
-21.9333 -5.9032 -11.3102
-1.0012 -17.4768 -8.7167
36.5153 -7.3528 -18.5474
35.4049 -3.8879 -17.7355
35.7526 -0.7166 -17.8063
32.3668 14.7120 -17.7036
32.7869 18.5968 -18.7692
14.2022 9.8269 -8.5997
25.5560 21.2916 -16.5631
25.3509 25.2777 -17.8262
-13.1494 14.6401 -9.7987
-13.4523 12.5235 -9.1518
-13.6594 10.6082 -8.6118
-13.7693 8.8450 -8.1490
-13.9379 7.2856 -7.8312
-14.0950 5.8322 -7.5956
-5.5312 1.7292 -2.8856
-14.4670 3.1390 -7.3713
-14.6090 1.8258 -7.3310
-14.7506 0.5165 -7.3494
-15.6044 -0.8487 -7.7816
-17.4939 -2.5307 -8.8016
-20.3533 -4.8300 -10.4162
-24.9640 -8.3374 -13.1055
-3.0744 -17.2400 -8.7200
36.5438 -8.5034 -18.6828
35.2903 -4.9475 -17.7443
35.6326 -1.7816 -17.7651
32.5437 13.6331 -17.5693
32.6406 17.2445 -18.3819
14.6930 9.5295 -8.7203
26.3818 20.6746 -16.6898
25.1031 23.5759 -17.1482
25.6717 28.8350 -19.2239
-13.1276 15.5259 -10.1241
-13.3768 13.2218 -9.3654
-13.5928 11.2241 -8.7777
-13.7847 9.4490 -8.3217
-13.8829 7.7942 -7.9278
-14.0434 6.3092 -7.6661
-5.4244 1.8756 -2.8579
-14.4190 3.5833 -7.3982
-14.5616 2.2641 -7.3379
-14.7031 0.9558 -7.3367
-15.0053 -0.3665 -7.4740
-16.9569 -1.9372 -8.4985
-19.5526 -4.0263 -9.9403
-23.4245 -7.0519 -12.1811
-0.4874 -17.5722 -8.7533
36.5434 -9.6641 -18.8219
35.1755 -6.0093 -17.7691
35.5179 -2.8429 -17.7424
34.1299 13.1119 -18.2057
32.5002 15.9456 -18.0260
32.5564 19.7575 -18.9629
27.5677 20.3030 -17.0481
24.9896 22.1003 -16.6114
25.4665 26.9371 -18.4584
-13.0001 16.3426 -10.3983
-13.2976 13.9542 -9.5980
-13.4906 11.8358 -8.9364
-13.7227 10.0227 -8.4616
-13.8265 8.3160 -8.0341
-13.9908 6.7956 -7.7449
-14.1450 5.3699 -7.5338
-14.3705 4.0313 -7.4319
-14.5141 2.7036 -7.3515
-14.6557 1.3940 -7.3306
-14.7168 0.0809 -7.3282
-16.0224 -1.3464 -8.0063
-18.5903 -3.2518 -9.3974
-21.9398 -5.8952 -11.3122
-1.0084 -17.4756 -8.7163
36.5137 -7.3682 -18.5481
35.4033 -3.9025 -17.7355
35.7462 -0.7313 -17.8032
32.3650 14.6950 -17.6992
32.7848 18.5777 -18.7637
14.2059 9.8207 -8.5995
25.5751 21.2895 -16.5697
25.3484 25.2543 -17.8171
-13.1433 14.6455 -9.7987
-13.4512 12.5329 -9.1547
-13.6585 10.6166 -8.6140
-13.7685 8.8525 -8.1507
-13.9371 7.2926 -7.8325
-14.0943 5.8388 -7.5965
-5.5270 1.7304 -2.8839
-14.4663 3.1452 -7.3717
-14.6083 1.8319 -7.3311
-14.7499 0.5226 -7.3492
-15.5958 -0.8417 -7.7771
-17.4827 -2.5217 -8.7955
-20.3593 -4.8225 -10.4183
-24.9713 -8.3284 -13.1075
-3.0816 -17.2389 -8.7200
36.5421 -8.5190 -18.6837
35.2887 -4.9623 -17.7446
35.6310 -1.7962 -17.7647
32.5739 13.6298 -17.5825
32.6387 17.2261 -18.3768
14.7113 9.5327 -8.7288
26.3893 20.6629 -16.6892
25.1007 23.5542 -17.1399
25.6688 28.8078 -19.2129
-13.1264 15.5375 -10.1281
-13.3757 13.2317 -9.3685
-13.5918 11.2328 -8.7801
-13.7839 9.4568 -8.3236
-13.8821 7.8013 -7.9292
-14.0427 6.3159 -7.6671
-5.4252 1.8785 -2.8588
-14.4183 3.5895 -7.3986
-14.5609 2.2701 -7.3381
-14.7024 0.9618 -7.3366
-14.9974 -0.3601 -7.4700
-16.9466 -1.9289 -8.4929
-19.5384 -4.0149 -9.9323
-23.4034 -7.0349 -12.1686
-0.4946 -17.5712 -8.7529
36.5837 -9.6909 -18.8446
35.1739 -6.0239 -17.7695
35.5163 -2.8576 -17.7421
34.1628 13.1084 -18.2203
32.4983 15.9280 -18.0213
32.5823 19.7547 -18.9732
27.5887 20.3007 -17.0558
24.9926 22.0846 -16.6073
25.4638 26.9119 -18.4484
-12.9880 16.3413 -10.3940
-13.2964 13.9646 -9.6014
-13.4857 11.8414 -8.9364
-13.7218 10.0308 -8.4636
-13.8257 8.3233 -8.0356
-13.9901 6.8024 -7.7461
-14.1443 5.3763 -7.5346
-14.3698 4.0375 -7.4324
-14.5134 2.7097 -7.3517
-14.6550 1.4000 -7.3306
-14.7161 0.0870 -7.3279
-16.0132 -1.3390 -8.0015
-18.5777 -3.2417 -9.3904
-21.9463 -5.8872 -11.3143
-1.0157 -17.4744 -8.7159
36.5120 -7.3836 -18.5488
35.4017 -3.9171 -17.7355
35.7446 -0.7460 -17.8026
32.3632 14.6780 -17.6949
32.7827 18.5587 -18.7581
14.2096 9.8146 -8.5992
25.5942 21.2875 -16.5764
25.3459 25.2308 -17.8080
-13.1411 14.6552 -9.8015
-13.4502 12.5424 -9.1575
-13.6575 10.6250 -8.6162
-13.7676 8.8600 -8.1524
-13.9363 7.2995 -7.8337
-14.0936 5.8453 -7.5974
-5.5229 1.7316 -2.8821
-14.4657 3.1512 -7.3720
-14.6077 1.8379 -7.3311
-14.7493 0.5287 -7.3490
-15.5872 -0.8348 -7.7726
-17.4716 -2.5127 -8.7893
-20.3653 -4.8151 -10.4203
-24.9785 -8.3193 -13.1096
-3.0887 -17.2378 -8.7201
36.5405 -8.5345 -18.6847
35.2871 -4.9769 -17.7448
35.6294 -1.8109 -17.7643
32.6039 13.6266 -17.5957
32.6367 17.2078 -18.3717
14.7484 9.5481 -8.7485
26.3968 20.6511 -16.6885
25.0984 23.5325 -17.1317
25.6658 28.7803 -19.2017
-13.1251 15.5491 -10.1321
-13.3746 13.2416 -9.3716
-13.5909 11.2415 -8.7824
-13.7830 9.4646 -8.3254
-13.8813 7.8085 -7.9306
-14.0420 6.3226 -7.6682
-5.4260 1.8813 -2.8596
-14.4176 3.5956 -7.3990
-14.5603 2.2762 -7.3382
-14.7018 0.9679 -7.3364
-14.9894 -0.3536 -7.4659
-16.9363 -1.9207 -8.4873
-19.5244 -4.0037 -9.9243
-23.3825 -7.0181 -12.1563
-0.5018 -17.5702 -8.7525
14.5716 -10.3302 -8.8941
36.6242 -9.7178 -18.8676
35.1723 -6.0388 -17.7700
35.5147 -2.8723 -17.7419
34.1958 13.1048 -18.2350
32.4964 15.9103 -18.0166
32.6082 19.7519 -18.9834
27.6095 20.2985 -17.0635
25.1054 23.5977 -16.8924
25.6747 28.8624 -18.9391
-13.1289 15.5144 -9.9644
-13.3778 13.2119 -9.2183
-13.5937 11.2154 -8.6402
-13.7104 9.3897 -8.1472
-13.8836 7.7871 -7.8044
-14.0441 6.3026 -7.5471
-5.4234 1.8728 -2.8130
-14.4196 3.5771 -7.2839
-14.5623 2.2580 -7.2249
-14.7037 0.9497 -7.2239
-15.0133 -0.3729 -7.3629
-16.9672 -1.9455 -8.3732
-19.5666 -4.0377 -9.7952
-23.4454 -7.0687 -12.0058
-3.6002 -17.2309 -8.6303
-0.4872 -17.8315 -8.7456
14.6696 -10.3723 -8.8084
36.5031 -9.6373 -18.5098
35.1771 -5.9946 -17.4951
35.5195 -2.8282 -17.4695
34.0970 13.1155 -17.9110
32.5021 15.9632 -17.7532
32.5307 19.7603 -18.6609
27.5469 20.3052 -16.7782
24.9865 22.1161 -16.3598
25.5317 27.0285 -18.2288
-13.0122 16.3439 -10.2424
-13.2987 13.9438 -9.4470
-13.5245 11.8557 -8.8177
-13.7235 10.0147 -8.3294
-13.8272 8.3087 -7.9089
-13.9916 6.7888 -7.6246
-14.2144 5.3895 -7.4531
-14.3712 4.0250 -7.3170
-14.5147 2.6975 -7.2381
-14.6563 1.3879 -7.2178
-14.7175 0.0748 -7.2157
-16.0317 -1.3539 -7.8880
-18.3466 -3.2170 -9.1322
-21.9333 -5.9032 -11.1361
-4.1134 -17.1130 -8.6291
35.0619 -7.0601 -17.5351
35.4049 -3.8879 -17.4625
35.7526 -0.7166 -17.5322
37.8915 13.2882 -19.6866
32.3668 14.7120 -17.4311
32.7869 18.5968 -18.4804
14.4028 9.9657 -8.5869
25.5560 21.2916 -16.3082
25.3509 25.2777 -17.5519
-12.8972 17.2331 -10.5531
-13.2154 14.7136 -9.6963
-13.3789 12.4552 -8.9619
-13.6594 10.6082 -8.4793
-13.7693 8.8450 -8.0236
-13.9379 7.2856 -7.7107
-14.0950 5.8322 -7.4787
-5.5309 1.7291 -2.8411
-14.4670 3.1390 -7.2579
-14.6090 1.8258 -7.2182
-14.7506 0.5165 -7.2363
-15.6044 -0.8487 -7.6618
-17.4939 -2.5307 -8.6661
-20.3533 -4.8300 -10.2559
-24.9640 -8.3374 -12.9038
35.0083 -8.1460 -17.6223
35.2903 -4.9475 -17.4712
35.6326 -1.7815 -17.4917
32.5437 13.6331 -17.2989
32.6406 17.2445 -18.0990
14.6568 9.5060 -8.5649
26.3818 20.6746 -16.4330
25.1031 23.5759 -16.8842
25.6717 28.8350 -18.9281
-13.1276 15.5259 -9.9683
-13.3768 13.2218 -9.2213
-13.5928 11.2241 -8.6426
-13.7095 9.3975 -8.1490
-13.8829 7.7943 -7.8058
-14.0434 6.3092 -7.5481
-5.4242 1.8756 -2.8139
-14.4190 3.5833 -7.2843
-14.5616 2.2641 -7.2250
-14.7031 0.9558 -7.2238
-15.0053 -0.3665 -7.3589
-16.9569 -1.9372 -8.3677
-19.5526 -4.0263 -9.7873
-23.4245 -7.0518 -11.9936
-3.6073 -17.2290 -8.6301
-0.4945 -17.8305 -8.7452
14.6628 -10.3767 -8.8069
36.5434 -9.6641 -18.5322
35.1755 -6.0093 -17.4956
35.5179 -2.8429 -17.4693
34.1299 13.1119 -17.9255
32.5002 15.9456 -17.7486
32.5564 19.7575 -18.6710
27.5678 20.3030 -16.7857
24.9896 22.1003 -16.3557
25.5376 27.0122 -18.2250
-13.0001 16.3426 -10.2382
-13.2976 13.9542 -9.4503
-13.5235 11.8647 -8.8203
-13.7227 10.0227 -8.3313
-13.8265 8.3160 -7.9104
-13.9908 6.7956 -7.6257
-14.2122 5.3954 -7.4531
-14.3705 4.0313 -7.3175
-14.5141 2.7036 -7.2383
-14.6557 1.3940 -7.2178
-14.7168 0.0809 -7.2154
-16.0224 -1.3464 -7.8831
-18.3342 -3.2070 -9.1253
-21.9398 -5.8952 -11.1381
-4.1209 -17.1129 -8.6299
35.0603 -7.0749 -17.5357
35.4033 -3.9025 -17.4625
35.7462 -0.7313 -17.5292
37.8970 13.2725 -19.6866
32.3650 14.6950 -17.4268
32.7848 18.5777 -18.4749
14.4113 9.9627 -8.5895
25.5751 21.2895 -16.3147
25.3484 25.2543 -17.5429
-12.8901 17.2385 -10.5531
-13.2143 14.7246 -9.6999
-13.3779 12.4646 -8.9646
-13.6585 10.6166 -8.4814
-13.7685 8.8525 -8.0252
-13.9371 7.2926 -7.7119
-14.0943 5.8388 -7.4796
-5.5267 1.7303 -2.8393
-14.4663 3.1452 -7.2582
-14.6083 1.8319 -7.2182
-14.7499 0.5226 -7.2361
-15.5958 -0.8417 -7.6574
-17.4827 -2.5217 -8.6601
-20.3593 -4.8226 -10.2579
-24.9713 -8.3284 -12.9058
35.0114 -8.1621 -17.6256
35.2887 -4.9623 -17.4715
35.6310 -1.7962 -17.4913
32.5739 13.6298 -17.3119
32.6387 17.2261 -18.0939
14.6659 9.5033 -8.5679
26.3893 20.6629 -16.4323
25.1007 23.5542 -16.8761
25.6688 28.8078 -18.9172
-13.1264 15.5375 -9.9722
-13.3757 13.2317 -9.2243
-13.5918 11.2328 -8.6449
-13.7087 9.4052 -8.1508
-13.8821 7.8013 -7.8072
-14.0427 6.3159 -7.5491
-5.4250 1.8784 -2.8147
-14.4183 3.5895 -7.2847
-14.5609 2.2701 -7.2251
-14.7024 0.9618 -7.2237
-14.9974 -0.3601 -7.3550
-16.9466 -1.9289 -8.3622
-19.5384 -4.0150 -9.7794
-23.4034 -7.0349 -11.9813
-3.6143 -17.2270 -8.6299
-0.5019 -17.8295 -8.7449
14.6560 -10.3810 -8.8054
36.5837 -9.6909 -18.5547
35.1739 -6.0239 -17.4960
35.5163 -2.8576 -17.4691
34.1628 13.1084 -17.9399
32.4983 15.9281 -17.7440
32.5823 19.7547 -18.6812
27.5887 20.3007 -16.7933
24.9926 22.0846 -16.3517
25.5349 26.9871 -18.2152
-12.9880 16.3413 -10.2340
-13.2964 13.9646 -9.4536
-13.5225 11.8738 -8.8229
-13.7218 10.0308 -8.3333
-13.8257 8.3233 -7.9120
-13.9901 6.8024 -7.6268
-14.2100 5.4013 -7.4531
-14.3698 4.0375 -7.3180
-14.5134 2.7097 -7.2385
-14.6550 1.4000 -7.2177
-14.7161 0.0870 -7.2151
-16.0132 -1.3390 -7.8783
-18.3219 -3.1971 -9.1185
-21.9463 -5.8872 -11.1402
-4.1283 -17.1128 -8.6307
35.0587 -7.0897 -17.5364
35.4017 -3.9171 -17.4626
35.7446 -0.7460 -17.5286
37.9025 13.2568 -19.6866
32.3632 14.6780 -17.4226
32.7827 18.5587 -18.4694
14.4150 9.9565 -8.5893
25.5942 21.2875 -16.3213
25.3459 25.2308 -17.5339
-12.8829 17.2438 -10.5531
-13.2131 14.7355 -9.7035
-13.3769 12.4741 -8.9674
-13.6575 10.6250 -8.4836
-13.7676 8.8600 -8.0269
-13.9363 7.2995 -7.7132
-14.0936 5.8453 -7.4805
-5.5226 1.7315 -2.8376
-14.4657 3.1512 -7.2585
-14.6077 1.8379 -7.2183
-14.7493 0.5287 -7.2359
-15.5872 -0.8348 -7.6530
-17.4716 -2.5127 -8.6541
-20.3653 -4.8151 -10.2599
-24.9785 -8.3194 -12.9078
35.0144 -8.1781 -17.6288
35.2871 -4.9769 -17.4717
35.6294 -1.8109 -17.4908
32.6040 13.6266 -17.3249
32.6367 17.2078 -18.0889
14.6790 9.5032 -8.5733
26.3968 20.6511 -16.4317
25.0984 23.5325 -16.8680
25.6658 28.7803 -18.9061
-13.1251 15.5491 -9.9762
-13.3746 13.2416 -9.2274
-13.5909 11.2415 -8.6473
-13.7079 9.4130 -8.1526
-13.8813 7.8085 -7.8086
-14.0420 6.3226 -7.5501
-5.4258 1.8812 -2.8155
-14.4176 3.5956 -7.2851
-14.5603 2.2762 -7.2253
-14.7018 0.9679 -7.2235
-14.9894 -0.3536 -7.3510
-16.9363 -1.9207 -8.3567
-19.5244 -4.0037 -9.7715
-23.3825 -7.0181 -11.9692
-3.6214 -17.2251 -8.6297
-0.5092 -17.8285 -8.7445
14.6524 -10.3876 -8.8058
36.6242 -9.7178 -18.5772
35.1723 -6.0388 -17.4965
35.5147 -2.8723 -17.4689
34.1958 13.1048 -17.9544
32.4964 15.9103 -17.7393
32.6081 19.7519 -18.6912
27.6095 20.2985 -16.8009
25.1054 23.5977 -16.6299
25.6747 28.8624 -18.6448
-13.1143 15.4972 -9.7987
-13.3778 13.2119 -9.0750
-13.5937 11.2154 -8.5060
-13.7104 9.3897 -8.0206
-13.8836 7.7871 -7.6831
-14.0882 6.3223 -7.4531
-5.4232 1.8727 -2.7692
-14.4196 3.5771 -7.1707
-14.5623 2.2580 -7.1126
-14.7037 0.9497 -7.1117
-15.0133 -0.3729 -7.2485
-16.9672 -1.9455 -8.2431
-19.5666 -4.0376 -9.6430
-23.4454 -7.0687 -11.8193
36.5031 -9.6373 -18.2221
35.1771 -5.9946 -17.2233
35.5195 -2.8282 -17.1980
34.0970 13.1155 -17.6327
32.5021 15.9632 -17.4774
32.5307 19.7603 -18.3710
27.5469 20.3052 -16.5175
24.9865 22.1161 -16.1056
25.5403 27.0375 -17.9516
-13.0122 16.3439 -10.0833
-13.2987 13.9438 -9.3002
-13.5245 11.8557 -8.6807
-13.6487 9.9600 -8.1552
-13.8272 8.3087 -7.7860
-13.9916 6.7888 -7.5061
-14.2233 5.3929 -7.3419
-14.3712 4.0251 -7.2033
-14.5147 2.6975 -7.1256
-14.6563 1.3879 -7.1057
-14.7175 0.0748 -7.1036
-16.0317 -1.3539 -7.7654
-18.3466 -3.2170 -8.9903
-21.9333 -5.9032 -10.9631
35.0619 -7.0601 -17.2626
35.4049 -3.8879 -17.1912
35.7526 -0.7166 -17.2598
38.1327 13.3727 -19.5040
32.3668 14.7120 -17.1602
32.7869 18.5968 -18.1932
29.1028 20.1370 -17.0814
25.5560 21.2916 -16.0548
25.3509 25.2777 -17.2791
-12.9373 17.2867 -10.4214
-13.2154 14.7136 -9.5457
-13.4523 12.5235 -8.8710
-13.6594 10.6082 -8.3475
-13.7693 8.8450 -7.8989
-13.9379 7.2856 -7.5909
-14.1723 5.8642 -7.4029
-5.5306 1.7290 -2.7968
-14.4670 3.1390 -7.1451
-14.6090 1.8258 -7.1060
-14.7506 0.5165 -7.1239
-15.6044 -0.8487 -7.5428
-17.4939 -2.5307 -8.5315
-20.3533 -4.8300 -10.0965
-24.7202 -8.2560 -12.5793
-4.6437 -17.0566 -8.5322
35.0083 -8.1461 -17.3485
35.2903 -4.9475 -17.1998
35.6326 -1.7816 -17.2199
32.5993 13.6564 -17.0592
32.6406 17.2444 -17.8178
14.8701 9.6443 -8.5545
26.3818 20.6746 -16.1776
25.1031 23.5759 -16.6219
25.6717 28.8350 -18.6340
-13.1079 15.5026 -9.7987
-13.3767 13.2218 -9.0780
-13.5928 11.2241 -8.5083
-13.7095 9.3975 -8.0224
-13.8829 7.7943 -7.6845
-14.0856 6.3282 -7.4531
-5.4240 1.8755 -2.7700
-14.4190 3.5833 -7.1711
-14.5616 2.2641 -7.1127
-14.7031 0.9558 -7.1115
-15.0053 -0.3665 -7.2446
-16.9569 -1.9372 -8.2377
-19.5526 -4.0263 -9.6352
-23.4245 -7.0519 -11.8073
36.5434 -9.6641 -18.2443
35.1755 -6.0093 -17.2237
35.5179 -2.8429 -17.1978
34.1299 13.1119 -17.6469
32.5002 15.9456 -17.4728
32.5564 19.7575 -18.3809
27.5677 20.3030 -16.5249
24.9896 22.1003 -16.1016
25.5376 27.0123 -17.9419
-13.0001 16.3426 -10.0792
-13.2976 13.9542 -9.3035
-13.5235 11.8647 -8.6833
-13.6478 9.9681 -8.1572
-13.8265 8.3160 -7.7875
-13.9908 6.7956 -7.5072
-14.2226 5.3994 -7.3427
-14.3705 4.0313 -7.2038
-14.5141 2.7036 -7.1258
-14.6557 1.3940 -7.1056
-14.7168 0.0809 -7.1033
-16.0224 -1.3464 -7.7606
-18.3342 -3.2070 -8.9835
-21.9398 -5.8952 -10.9651
35.0603 -7.0749 -17.2633
35.4033 -3.9025 -17.1912
35.7462 -0.7313 -17.2568
38.1714 13.3686 -19.5210
32.3650 14.6950 -17.1560
32.7848 18.5777 -18.1878
29.1251 20.1346 -17.0896
25.5751 21.2895 -16.0612
25.3484 25.2543 -17.2703
-12.9359 17.2997 -10.4260
-13.2143 14.7246 -9.5492
-13.4512 12.5329 -8.8737
-13.6585 10.6166 -8.3497
-13.7685 8.8525 -7.9005
-13.9371 7.2926 -7.5921
-14.1716 5.8708 -7.4038
-5.5264 1.7302 -2.7951
-14.4663 3.1452 -7.1454
-14.6083 1.8319 -7.1061
-14.7499 0.5226 -7.1236
-15.5958 -0.8417 -7.5384
-17.4827 -2.5217 -8.5255
-20.3593 -4.8225 -10.0985
-24.6961 -8.2366 -12.5653
-4.6509 -17.0552 -8.5325
35.0114 -8.1621 -17.3517
35.2887 -4.9623 -17.2000
35.6310 -1.7962 -17.2195
32.6049 13.6428 -17.0592
32.6387 17.2261 -17.8128
14.8737 9.6379 -8.5543
26.3893 20.6629 -16.1770
25.1007 23.5542 -16.6139
25.6688 28.8078 -18.6232
-13.1014 15.5080 -9.7987
-13.3757 13.2317 -9.0810
-13.5918 11.2328 -8.5106
-13.7087 9.4052 -8.0241
-13.8821 7.8013 -7.6859
-14.0829 6.3340 -7.4531
-5.4248 1.8783 -2.7709
-14.4183 3.5895 -7.1715
-14.5609 2.2701 -7.1129
-14.7024 0.9618 -7.1114
-14.9974 -0.3601 -7.2407
-16.9466 -1.9289 -8.2323
-19.5384 -4.0149 -9.6275
-23.4034 -7.0349 -11.7952
36.5837 -9.6909 -18.2663
35.1739 -6.0239 -17.2242
35.5163 -2.8576 -17.1976
34.1628 13.1084 -17.6611
32.4983 15.9281 -17.4683
32.5824 19.7547 -18.3909
27.5887 20.3007 -16.5324
24.9926 22.0846 -16.0977
25.5349 26.9871 -17.9321
-12.9880 16.3413 -10.0750
-13.2964 13.9646 -9.3068
-13.5225 11.8738 -8.6858
-13.6470 9.9761 -8.1591
-13.8257 8.3233 -7.7890
-13.9901 6.8024 -7.5083
-14.2219 5.4058 -7.3435
-14.3698 4.0375 -7.2043
-14.5134 2.7097 -7.1261
-14.6550 1.4000 -7.1056
-14.7161 0.0870 -7.1030
-16.0132 -1.3390 -7.7559
-18.3219 -3.1971 -8.9768
-21.9463 -5.8872 -10.9671
35.0587 -7.0897 -17.2639
35.4017 -3.9171 -17.1912
35.7446 -0.7460 -17.2562
38.5007 13.4660 -19.6866
32.3631 14.6780 -17.1518
32.7827 18.5587 -18.1824
29.1473 20.1322 -17.0978
25.5942 21.2875 -16.0677
25.3459 25.2308 -17.2614
-12.9344 17.3127 -10.4307
-13.2131 14.7355 -9.5527
-13.4502 12.5424 -8.8765
-13.6575 10.6250 -8.3518
-13.7676 8.8600 -7.9022
-13.9364 7.2995 -7.5933
-14.1709 5.8774 -7.4047
-5.5223 1.7314 -2.7933
-14.4657 3.1512 -7.1457
-14.6077 1.8379 -7.1061
-14.7493 0.5287 -7.1234
-15.5872 -0.8348 -7.5341
-17.4716 -2.5127 -8.5196
-20.3653 -4.8151 -10.1005
-24.6721 -8.2173 -12.5513
-4.6581 -17.0539 -8.5327
35.0144 -8.1781 -17.3549
35.2871 -4.9769 -17.2002
35.6294 -1.8109 -17.2191
32.6106 13.6294 -17.0592
32.6367 17.2078 -17.8078
14.8773 9.6315 -8.5541
26.3968 20.6511 -16.1763
25.0984 23.5325 -16.6059
25.6658 28.7803 -18.6124
-13.0950 15.5135 -9.7987
-13.3746 13.2416 -9.0840
-13.5909 11.2415 -8.5129
-13.7079 9.4130 -8.0259
-13.8813 7.8085 -7.6872
-14.0803 6.3398 -7.4531
-5.4257 1.8811 -2.7717
-14.4176 3.5956 -7.1719
-14.5603 2.2762 -7.1130
-14.7018 0.9679 -7.1113
-14.9894 -0.3537 -7.2368
-16.9363 -1.9207 -8.2269
-19.5244 -4.0037 -9.6197
-23.3825 -7.0181 -11.7832
36.6242 -9.7178 -18.2886
35.1723 -6.0388 -17.2246
35.5147 -2.8723 -17.1975
34.1958 13.1048 -17.6754
32.4964 15.9103 -17.4637
32.6082 19.7519 -18.4009
27.6095 20.2985 -16.5399
25.1054 23.5977 -16.3690
25.6747 28.8624 -18.3523
-12.7634 18.1466 -10.5401
-13.1289 15.5144 -9.6556
-13.3778 13.2119 -8.9326
-13.5937 11.2154 -8.3725
-13.7104 9.3897 -7.8947
-13.8836 7.7871 -7.5626
-14.1212 6.3371 -7.3534
-5.4230 1.8727 -2.7257
-14.4196 3.5771 -7.0582
-14.5623 2.2580 -7.0010
-14.7037 0.9497 -7.0001
-15.0133 -0.3729 -7.1348
-16.9672 -1.9455 -8.1137
-19.5666 -4.0377 -9.4917
-23.4454 -7.0687 -11.6339
-5.1711 -16.9988 -8.4413
36.5031 -9.6373 -17.9363
35.1771 -5.9946 -16.9531
35.5195 -2.8282 -16.9282
34.0970 13.1155 -17.3561
32.5021 15.9632 -17.2032
32.5307 19.7603 -18.0827
27.5469 20.3052 -16.2583
25.2397 22.3403 -16.0135
25.5403 27.0375 -17.6700
-13.0122 16.3439 -9.9251
-13.2987 13.9438 -9.1543
-13.5245 11.8557 -8.5445
-13.6487 9.9600 -8.0273
-13.8272 8.3087 -7.6639
-14.0683 6.8261 -7.4289
-14.2233 5.3929 -7.2267
-14.3712 4.0251 -7.0903
-14.5147 2.6975 -7.0138
-14.6563 1.3879 -6.9942
-14.7175 0.0748 -6.9921
-16.0317 -1.3539 -7.6436
-18.3466 -3.2170 -8.8492
-21.9333 -5.9032 -10.7911
35.0619 -7.0601 -16.9918
35.4049 -3.8879 -16.9215
35.7526 -0.7166 -16.9890
38.1327 13.3727 -19.1980
32.3668 14.7120 -16.8910
32.7869 18.5968 -17.9078
29.1028 20.1370 -16.8135
25.8966 21.5753 -16.0135
25.2793 25.2063 -16.9600
-12.9373 17.2866 -10.2579
-13.2154 14.7137 -9.3959
-13.4523 12.5235 -8.7318
-13.5849 10.5504 -8.1718
-13.7693 8.8450 -7.7750
-13.9379 7.2856 -7.4718
-14.1723 5.8642 -7.2867
-5.5303 1.7289 -2.7528
-14.4670 3.1390 -7.0330
-14.6090 1.8258 -6.9945
-14.7506 0.5165 -7.0121
-15.6044 -0.8487 -7.4244
-17.4939 -2.5307 -8.3976
-20.3533 -4.8300 -9.9381
-24.7202 -8.2560 -12.3819
35.0083 -8.1461 -17.0763
35.2903 -4.9475 -16.9299
35.6326 -1.7816 -16.9497
39.4898 12.5354 -19.6836
33.2225 13.9174 -17.1125
32.6406 17.2444 -17.5382
30.7623 19.9515 -17.4194
26.3818 20.6746 -15.9238
25.1031 23.5759 -16.3611
25.6717 28.8350 -18.3416
-12.7619 18.1604 -10.5451
-13.1276 15.5259 -9.6594
-13.3767 13.2218 -8.9356
-13.5928 11.2241 -8.3748
-13.7095 9.3975 -7.8965
-13.8829 7.7943 -7.5639
-14.1205 6.3438 -7.3544
-5.4238 1.8754 -2.7265
-14.4190 3.5833 -7.0586
-14.5616 2.2641 -7.0011
-14.7031 0.9558 -7.0000
-15.0053 -0.3665 -7.1309
-16.9569 -1.9372 -8.1084
-19.5526 -4.0263 -9.4841
-23.4245 -7.0518 -11.6220
-5.1783 -16.9973 -8.4416
36.5434 -9.6641 -17.9581
35.1755 -6.0093 -16.9535
35.5179 -2.8429 -16.9280
34.1299 13.1119 -17.3701
32.5002 15.9456 -17.1987
32.5564 19.7575 -18.0925
27.5677 20.3030 -16.2657
25.2490 22.3298 -16.0135
25.5376 27.0123 -17.6604
-13.0001 16.3426 -9.9210
-13.2976 13.9542 -9.1575
-13.5235 11.8647 -8.5470
-13.6478 9.9681 -8.0292
-13.8265 8.3160 -7.6654
-14.0676 6.8329 -7.4300
-14.2226 5.3994 -7.2275
-14.3705 4.0313 -7.0908
-14.5141 2.7036 -7.0140
-14.6557 1.3940 -6.9941
-14.7168 0.0809 -6.9918
-16.0224 -1.3464 -7.6389
-18.3342 -3.2070 -8.8426
-21.9398 -5.8952 -10.7930
35.0603 -7.0749 -16.9924
35.4033 -3.9025 -16.9215
35.7462 -0.7313 -16.9861
38.1714 13.3686 -19.2147
32.3650 14.6950 -16.8869
32.7848 18.5777 -17.9025
29.1251 20.1346 -16.8215
25.9056 21.5646 -16.0135
25.2768 25.1830 -16.9513
-12.9359 17.2997 -10.2625
-13.2143 14.7246 -9.3994
-13.4512 12.5329 -8.7345
-13.5840 10.5587 -8.1738
-13.7685 8.8525 -7.7766
-13.9371 7.2926 -7.4730
-14.1716 5.8708 -7.2876
-5.5262 1.7301 -2.7511
-14.4663 3.1452 -7.0333
-14.6083 1.8319 -6.9946
-14.7499 0.5226 -7.0119
-15.5958 -0.8417 -7.4201
-17.4827 -2.5217 -8.3917
-20.3593 -4.8226 -9.9401
-24.6961 -8.2366 -12.3682
35.0114 -8.1621 -17.0795
35.2887 -4.9623 -16.9301
35.6310 -1.7962 -16.9493
39.5323 12.5308 -19.7022
33.2282 13.9036 -17.1125
32.6387 17.2261 -17.5333
30.7862 19.9489 -17.4283
26.3893 20.6629 -15.9232
25.1007 23.5542 -16.3532
25.6688 28.8078 -18.3310
-12.7604 18.1743 -10.5501
-13.1264 15.5375 -9.6633
-13.3725 13.2285 -8.9364
-13.5918 11.2328 -8.3771
-13.7087 9.4052 -7.8983
-13.8821 7.8013 -7.5653
-14.1197 6.3506 -7.3554
-5.4246 1.8783 -2.7273
-14.4183 3.5895 -7.0590
-14.5609 2.2701 -7.0013
-14.7024 0.9618 -6.9998
-14.9974 -0.3601 -7.1271
-16.9466 -1.9289 -8.1031
-19.5384 -4.0150 -9.4764
-23.4034 -7.0349 -11.6101
-5.1856 -16.9957 -8.4419
36.5837 -9.6909 -17.9798
35.1739 -6.0239 -16.9539
35.5163 -2.8576 -16.9278
34.1628 13.1084 -17.3840
32.4983 15.9281 -17.1942
32.5823 19.7547 -18.1023
27.5887 20.3007 -16.2730
25.2582 22.3193 -16.0135
25.5349 26.9871 -17.6508
-12.9880 16.3413 -9.9170
-13.2964 13.9646 -9.1607
-13.5225 11.8738 -8.5495
-13.6470 9.9761 -8.0311
-13.8257 8.3233 -7.6668
-14.0668 6.8397 -7.4311
-14.2219 5.4058 -7.2283
-14.3698 4.0375 -7.0913
-14.5134 2.7097 -7.0143
-14.6550 1.4000 -6.9941
-14.7161 0.0870 -6.9916
-16.0132 -1.3390 -7.6342
-18.3219 -3.1971 -8.8360
-21.9463 -5.8872 -10.7950
35.0587 -7.0897 -16.9931
35.4017 -3.9171 -16.9215
35.7446 -0.7460 -16.9855
38.9506 13.6234 -19.6041
32.3632 14.6780 -16.8827
32.7827 18.5587 -17.8972
29.1473 20.1322 -16.8295
25.9145 21.5538 -16.0135
25.2743 25.1596 -16.9426
-12.9344 17.3127 -10.2670
-13.2131 14.7355 -9.4029
-13.4502 12.5424 -8.7372
-13.5831 10.5670 -8.1759
-13.7676 8.8600 -7.7782
-13.9363 7.2995 -7.4742
-14.1709 5.8774 -7.2885
-5.5220 1.7313 -2.7494
-14.4657 3.1512 -7.0336
-14.6077 1.8379 -6.9946
-14.7493 0.5287 -7.0117
-15.5872 -0.8348 -7.4159
-17.4716 -2.5127 -8.3859
-20.3653 -4.8151 -9.9420
-24.6721 -8.2173 -12.3544
35.0144 -8.1781 -17.0826
35.2871 -4.9769 -16.9303
35.6294 -1.8109 -16.9489
39.5746 12.5262 -19.7207
33.2340 13.8899 -17.1125
32.6367 17.2078 -17.5284
30.8100 19.9464 -17.4371
26.3968 20.6512 -15.9226
25.0984 23.5325 -16.3454
25.6658 28.7803 -18.3203
-12.7589 18.1881 -10.5550
-13.1251 15.5491 -9.6671
-13.3670 13.2340 -8.9364
-13.5909 11.2415 -8.3794
-13.7079 9.4130 -7.9000
-13.8813 7.8085 -7.5666
-14.1190 6.3573 -7.3563
-5.4255 1.8811 -2.7281
-14.4176 3.5956 -7.0594
-14.5603 2.2762 -7.0014
-14.7018 0.9679 -6.9997
-14.9894 -0.3536 -7.1232
-16.9363 -1.9207 -8.0978
-19.5244 -4.0037 -9.4688
-23.3825 -7.0181 -11.5983
-5.1928 -16.9942 -8.4422
36.6242 -9.7178 -18.0016
35.1723 -6.0388 -16.9544
35.5147 -2.8723 -16.9276
34.1958 13.1048 -17.3981
32.4964 15.9103 -17.1897
32.6081 19.7519 -18.1121
27.6095 20.2985 -16.2804
25.1054 23.5977 -16.1096
25.7452 28.9417 -18.1111
-12.7634 18.1466 -10.3731
-13.1289 15.5144 -9.5026
-13.3778 13.2119 -8.7911
-13.5196 11.1543 -8.1949
-13.7104 9.3897 -7.7696
-13.9030 7.7980 -7.4531
-14.1212 6.3371 -7.2368
-5.4228 1.8726 -2.6824
-14.4196 3.5771 -6.9464
-14.5623 2.2580 -6.8901
-14.7037 0.9497 -6.8892
-15.0133 -0.3729 -7.0217
-16.9672 -1.9455 -7.9852
-19.5666 -4.0376 -9.3413
-23.4454 -7.0687 -11.4495
36.5031 -9.6373 -17.6520
35.1771 -5.9946 -16.6844
35.5195 -2.8282 -16.6600
34.1031 13.1178 -17.0841
32.5021 15.9632 -16.9306
15.7677 9.5779 -8.6258
27.5469 20.3052 -16.0007
25.6461 22.7000 -16.0135
25.5403 27.0375 -17.3900
-13.0122 16.3439 -9.7678
-13.2262 13.8678 -8.9602
-13.5245 11.8557 -8.4091
-13.6487 9.9600 -7.9001
-13.8272 8.3087 -7.5424
-14.0683 6.8261 -7.3112
-14.2233 5.3929 -7.1122
-14.3712 4.0251 -6.9779
-14.5147 2.6975 -6.9027
-14.6563 1.3879 -6.8833
-14.7175 0.0748 -6.8813
-16.0317 -1.3539 -7.5225
-18.3562 -3.2187 -8.7135
-21.9333 -5.9032 -10.6201
-5.7086 -16.9296 -8.3535
35.0619 -7.0601 -16.7225
35.4049 -3.8879 -16.6533
35.7526 -0.7166 -16.7198
36.6209 12.8426 -18.1448
32.3668 14.7120 -16.6233
32.7869 18.5968 -17.6240
29.1028 20.1370 -16.5470
26.2802 21.8949 -15.9932
25.2793 25.2063 -16.6913
-12.9373 17.2867 -10.0954
-13.2154 14.7136 -9.2470
-13.4523 12.5235 -8.5934
-13.5849 10.5504 -8.0423
-13.7693 8.8450 -7.6518
-14.0143 7.3256 -7.3937
-14.1723 5.8642 -7.1712
-5.5300 1.7288 -2.7090
-14.4670 3.1390 -6.9216
-14.6090 1.8258 -6.8837
-14.7506 0.5165 -6.9010
-15.6044 -0.8487 -7.3068
-17.4939 -2.5307 -8.2646
-20.3533 -4.8300 -9.7806
-24.8720 -8.3067 -12.2605
35.0083 -8.1461 -16.8057
35.2903 -4.9475 -16.6616
35.6326 -1.7815 -16.6811
40.1317 12.7392 -19.6866
33.7574 14.1415 -17.1125
32.6406 17.2444 -17.2603
30.7623 19.9515 -17.1434
26.3818 20.6746 -15.6715
25.1031 23.5759 -16.1018
25.7422 28.9142 -18.1006
-12.7619 18.1604 -10.3780
-13.1276 15.5259 -9.5064
-13.3768 13.2218 -8.7940
-13.5187 11.1629 -8.1971
-13.7095 9.3975 -7.7714
-13.8997 7.8037 -7.4531
-14.1205 6.3438 -7.2378
-5.4236 1.8754 -2.6832
-14.4190 3.5833 -6.9468
-14.5616 2.2641 -6.8902
-14.7031 0.9558 -6.8890
-15.0053 -0.3665 -7.0179
-16.9569 -1.9372 -7.9799
-19.5526 -4.0263 -9.3338
-23.4245 -7.0519 -11.4378
36.5434 -9.6641 -17.6735
35.1755 -6.0093 -16.6849
35.5179 -2.8429 -16.6598
34.1360 13.1143 -17.0979
32.5002 15.9456 -16.9261
15.7778 9.5751 -8.6292
27.5677 20.3030 -16.0079
25.6555 22.6893 -16.0135
25.5376 27.0123 -17.3805
-13.0001 16.3426 -9.7638
-13.2251 13.8781 -8.9633
-13.5235 11.8647 -8.4116
-13.6478 9.9681 -7.9020
-13.8265 8.3160 -7.5439
-14.0676 6.8329 -7.3122
-14.2226 5.3994 -7.1130
-14.3705 4.0313 -6.9784
-14.5141 2.7036 -6.9029
-14.6557 1.3940 -6.8833
-14.7168 0.0809 -6.8811
-16.0224 -1.3464 -7.5179
-18.3575 -3.2111 -8.7135
-21.9398 -5.8952 -10.6220
-5.7159 -16.9280 -8.3539
35.0603 -7.0749 -16.7231
35.4033 -3.9025 -16.6534
35.7462 -0.7313 -16.7169
36.6581 12.8386 -18.1606
32.3650 14.6950 -16.6193
32.7848 18.5777 -17.6188
29.1251 20.1346 -16.5550
26.2780 21.8746 -15.9863
25.2768 25.1830 -16.6827
-12.9359 17.2997 -10.0998
-13.2143 14.7246 -9.2504
-13.4512 12.5329 -8.5961
-13.5840 10.5587 -8.0443
-13.7685 8.8525 -7.6533
-14.0135 7.3326 -7.3949
-14.1716 5.8708 -7.1721
-5.5259 1.7300 -2.7073
-14.4663 3.1451 -6.9219
-14.6083 1.8319 -6.8837
-14.7499 0.5226 -6.9008
-15.5958 -0.8417 -7.3025
-17.4827 -2.5217 -8.2588
-20.3593 -4.8226 -9.7826
-24.8754 -8.2964 -12.2605
35.0114 -8.1621 -16.8088
35.2887 -4.9623 -16.6618
35.6310 -1.7962 -16.6807
40.1370 12.7225 -19.6866
33.7632 14.1275 -17.1125
32.6386 17.2258 -17.2555
30.7861 19.9490 -17.1521
26.3893 20.6629 -15.6709
25.1007 23.5542 -16.0941
25.7393 28.8870 -18.0901
-12.7604 18.1743 -10.3829
-13.1264 15.5375 -9.5101
-13.3757 13.2317 -8.7969
-13.5177 11.1715 -8.1994
-13.7087 9.4052 -7.7731
-13.8965 7.8094 -7.4531
-14.1197 6.3506 -7.2388
-5.4244 1.8782 -2.6840
-14.4183 3.5895 -6.9472
-14.5609 2.2701 -6.8903
-14.7024 0.9618 -6.8889
-14.9974 -0.3601 -7.0142
-16.9466 -1.9289 -7.9747
-19.5384 -4.0150 -9.3262
-23.4034 -7.0349 -11.4261
36.5837 -9.6909 -17.6949
35.1739 -6.0239 -16.6853
35.5163 -2.8576 -16.6596
34.1689 13.1107 -17.1116
32.4983 15.9280 -16.9217
15.7880 9.5723 -8.6326
27.5887 20.3007 -16.0152
25.6649 22.6787 -16.0135
25.5349 26.9871 -17.3711
-12.9880 16.3413 -9.7598
-13.2240 13.8885 -8.9664
-13.5225 11.8738 -8.4140
