ply
format ascii 1.0
element vertex 2076
property float32 x
property float32 y
property float32 z
end_header
-13.2171 12.8795 1.7101
-14.3108 11.6473 1.7098
-15.2903 10.3227 1.7095
-16.1482 8.9167 1.7093
-16.8771 7.4398 1.7091
-16.9813 5.7386 1.6610
-16.9874 4.0954 1.6192
-16.3253 2.4215 1.5293
-17.9290 1.0399 1.6642
-18.4038 -0.5777 1.7062
-18.2825 -2.2174 1.7065
-18.0181 -3.8406 1.7071
-17.6068 -5.4335 1.7074
-17.0500 -6.9814 1.7072
-16.3590 -8.4742 1.7072
-16.8185 -10.7155 1.8479
-15.8412 -12.2080 1.8532
-14.7199 -13.6008 1.8571
-13.4638 -14.8769 1.8593
-12.0852 -16.0213 1.8596
-10.6080 -17.0354 1.8596
-9.0463 -17.9137 1.8596
-7.4206 -18.6699 1.8617
-5.7380 -19.2988 1.8657
-4.0026 -19.7774 1.8698
-2.2288 -20.1121 1.8751
-0.4283 -20.3420 1.8854
1.3931 -20.3756 1.8925
3.2127 -20.2187 1.8970
5.0141 -19.8944 1.9011
6.7933 -19.4386 1.9081
8.5761 -18.9230 1.9251
10.3315 -18.2622 1.9443
12.0328 -17.4324 1.9628
13.6620 -16.4368 1.9805
8.1905 -8.2334 1.0761
16.6318 -13.9717 2.0128
9.2942 -6.4873 1.0503
19.0667 -10.9185 2.0360
18.3413 -8.4283 1.8704
19.1253 -6.7962 1.8808
18.0551 -5.5530 1.8678
18.5504 -3.9357 1.8751
4.7750 -0.5745 0.4756
4.8615 -0.1480 0.4809
18.8853 1.1134 1.8706
18.6399 2.7829 1.8636
18.2374 4.4150 1.8554
17.6835 5.9945 1.8463
16.9858 7.5070 1.8363
15.9292 8.8155 1.8002
14.7649 9.9885 1.7627
13.8003 11.2535 1.7608
12.9510 12.6441 1.7897
5.6275 6.5728 0.8556
4.7587 6.6833 0.8113
8.9444 15.2852 1.7512
7.4896 15.9038 1.7382
5.9967 16.3869 1.7254
4.4747 16.7203 1.7115
2.9585 17.0125 1.7075
1.5566 18.7419 1.8596
-0.0479 7.4237 0.7341
-0.7136 7.4282 0.7379
-3.4609 18.4853 1.8596
-5.0960 18.1029 1.8596
-6.2385 16.3890 1.7340
-7.5706 15.5518 1.7103
-8.9392 14.8338 1.7125
-10.2267 13.9774 1.7125
-11.4238 12.9994 1.7112
-12.5286 11.9198 1.7099
-13.5405 10.7537 1.7098
-14.4436 9.5016 1.7095
-8.6130 4.6224 0.9666
-15.8976 6.7822 1.7090
-16.4374 5.3366 1.7088
-16.8459 3.8487 1.7087
-16.3260 2.2224 1.6292
-17.2577 0.7941 1.7083
-17.2577 -0.7483 1.7080
-17.1201 -2.2844 1.7078
-16.8462 -3.8019 1.7076
-16.4383 -5.2889 1.7075
-15.8991 -6.7332 1.7073
-15.2344 -8.1242 1.7072
-15.6964 -10.2665 1.8546
-14.7444 -11.6464 1.8579
-13.6594 -12.9270 1.8596
-12.4519 -14.0939 1.8596
-11.1451 -15.1484 1.8596
-9.7495 -16.0821 1.8596
-8.2769 -16.8892 1.8598
-6.7506 -17.5942 1.8634
-5.1647 -18.1629 1.8671
-3.5312 -18.5886 1.8709
-1.8677 -18.9170 1.8796
-0.1736 -19.0853 1.8872
1.5333 -19.0727 1.8920
3.2352 -18.8995 1.8960
4.9179 -18.5727 1.8998
6.5780 -18.1237 1.9065
8.2319 -17.6006 1.9213
9.8592 -16.9512 1.9390
11.4319 -16.1455 1.9561
12.9336 -15.1873 1.9725
14.3477 -14.0820 1.9879
15.6549 -12.8349 2.0017
9.4167 -6.4067 1.1262
16.2957 -9.0747 1.8443
17.1387 -7.6288 1.8550
17.8449 -6.1019 1.8648
18.3964 -4.5051 1.8728
4.8293 -0.7341 0.4830
4.7637 -0.2935 0.4719
18.9330 0.5262 1.8728
18.7435 2.2050 1.8661
18.3951 3.8519 1.8584
17.8931 5.4514 1.8496
17.2445 6.9888 1.8399
16.3477 8.3940 1.8171
15.1649 9.5855 1.7740
14.0282 10.7307 1.7464
13.3704 12.2651 1.7941
12.1372 13.3146 1.7815
4.9617 6.5288 0.8108
4.5426 7.2369 0.8449
8.0012 15.7037 1.7427
5.1304 12.7740 1.3612
5.0024 16.6062 1.7149
3.4889 16.9263 1.7089
2.1386 18.6845 1.8596
0.1830 7.4222 0.7341
-0.4809 7.4266 0.7359
-2.8845 18.5840 1.8596
-4.5306 18.2526 1.8596
-6.1406 17.7757 1.8596
-7.0779 15.7676 1.7090
-8.4737 15.1046 1.7125
-9.7871 14.2888 1.7125
-11.0180 13.3531 1.7118
-12.1530 12.3048 1.7101
-13.2001 11.1700 1.7098
-14.1420 9.9469 1.7096
-14.9705 8.6443 1.7093
-15.6797 7.2736 1.7091
-16.2641 5.8453 1.7089
-16.7188 4.3709 1.7087
-16.9920 2.8538 1.7037
-17.2254 1.3304 1.7083
-17.2733 -0.2114 1.7081
-17.1836 -1.7510 1.7079
-16.9569 -3.2764 1.7077
-16.5952 -4.7753 1.7075
-16.1014 -6.2359 1.7073
-15.4797 -7.6465 1.7072
-14.7359 -8.9968 1.7072
-15.0895 -11.1750 1.8567
-14.0504 -12.4922 1.8590
-12.8841 -13.6999 1.8596
-11.6108 -14.7945 1.8596
-10.2449 -15.7712 1.8596
-8.7973 -16.6221 1.8596
-7.2894 -17.3639 1.8621
-5.7230 -17.9807 1.8658
-4.1048 -18.4576 1.8697
-2.4507 -18.8168 1.8763
-0.7662 -19.0507 1.8853
0.9388 -19.0968 1.8906
2.6440 -18.9773 1.8946
4.3350 -18.7039 1.8985
5.9976 -18.2779 1.9021
7.6555 -17.7897 1.9150
9.2979 -17.1952 1.9329
10.8915 -16.4436 1.9503
12.4198 -15.5380 1.9669
13.8662 -14.4831 1.9826
9.3088 -8.1289 1.2220
9.2353 -6.7127 1.1289
15.9699 -9.5556 1.8402
16.8613 -8.1427 1.8515
17.6158 -6.6423 1.8616
18.2226 -5.0680 1.8702
5.1264 -0.9432 0.5154
4.7500 -0.4413 0.4717
4.9616 -0.0164 0.4906
18.8277 1.6232 1.8686
18.5341 3.2830 1.8612
18.0849 4.9008 1.8527
17.4865 6.4614 1.8433
16.7468 7.9509 1.8331
15.5704 9.1770 1.7871
14.4201 10.3359 1.7543
13.7783 11.8719 1.7984
12.5765 12.9628 1.7859
5.2819 6.5188 0.8296
4.6191 6.8743 0.8189
8.5075 15.4872 1.7472
7.0398 16.0648 1.7343
5.5341 16.4954 1.7204
4.0169 16.8235 1.7103
2.6719 18.2895 1.8277
0.4141 7.4206 0.7349
-0.2493 7.4251 0.7346
-2.3052 18.6647 1.8596
-3.9608 18.3846 1.8596
-5.5849 17.9581 1.8596
-6.5790 15.9676 1.7077
-7.9947 15.3510 1.7114
-9.3381 14.5860 1.7125
-10.6014 13.6942 1.7124
-11.7685 12.6810 1.7107
-12.8468 11.5755 1.7099
-13.8267 10.3824 1.7097
-14.6952 9.1061 1.7094
-8.6222 4.3304 0.9541
-16.0751 6.3485 1.7090
-16.5754 4.8888 1.7088
-16.9435 3.3905 1.7086
-17.1764 1.8654 1.7084
-16.3331 0.3082 1.6153
-17.2304 -1.2159 1.7080
-17.0513 -2.7477 1.7078
-16.7363 -4.2571 1.7076
-16.2882 -5.7324 1.7074
-15.7101 -7.1615 1.7072
-8.5331 -4.8521 0.9706
-15.4067 -10.6844 1.8539
-14.4272 -12.0452 1.8584
-13.3039 -13.2926 1.8596
-12.0652 -14.4263 1.8596
-10.7304 -15.4450 1.8596
-9.3099 -16.3405 1.8596
-7.8205 -17.1173 1.8608
-6.2749 -17.7815 1.8645
-4.6733 -18.3077 1.8683
-3.0295 -18.6992 1.8731
-1.3563 -18.9901 1.8825
0.3442 -19.1005 1.8890
2.0511 -19.0364 1.8932
3.7487 -18.8165 1.8971
5.4228 -18.4434 1.9009
7.0804 -17.9728 1.9101
8.7307 -17.4201 1.9267
10.3432 -16.7230 1.9443
11.8961 -15.8706 1.9612
13.3729 -14.8670 1.9773
14.7571 -13.7185 1.9923
9.3728 -7.2687 1.1728
9.7450 -6.2505 1.1448
16.5665 -8.6456 1.8477
17.3683 -7.1734 1.8581
18.0292 -5.6238 1.8674
18.5317 -4.0090 1.8748
4.7819 -0.5947 0.4765
4.8543 -0.1671 0.4803
18.8925 1.0382 1.8709
18.6543 2.7090 1.8639
18.2586 4.3432 1.8558
17.7113 5.9254 1.8467
17.0199 7.4411 1.8367
15.9824 8.7619 1.8023
14.8159 9.9371 1.7640
13.6891 11.0723 1.7409
13.0054 12.5964 1.7903
5.6536 6.5503 0.8556
4.7829 6.6609 0.8108
9.0082 15.2545 1.7517
7.5554 15.8791 1.7388
6.0640 16.3682 1.7260
4.5418 16.7041 1.7117
3.0266 17.0024 1.7076
1.6313 18.7356 1.8596
-0.0183 7.4235 0.7340
-0.6837 7.4280 0.7376
-3.3873 18.4989 1.8596
-5.0238 18.1230 1.8596
-6.2355 16.5796 1.7515
-7.5078 15.5803 1.7101
-8.8800 14.8693 1.7125
-10.1709 14.0181 1.7125
-11.3724 13.0454 1.7113
-12.4810 11.9697 1.7099
-13.4976 10.8077 1.7098
-14.4057 9.5593 1.7095
-15.1987 8.2350 1.7093
-15.8705 6.8456 1.7090
-16.4161 5.4021 1.7089
-16.8305 3.9159 1.7087
-16.3258 2.2887 1.6301
-17.2545 0.8628 1.7083
-17.2606 -0.6796 1.7081
-17.1292 -2.2162 1.7079
-16.8613 -3.7348 1.7077
-16.4593 -5.2234 1.7075
-15.9259 -6.6698 1.7073
-15.2667 -8.0634 1.7072
-14.4866 -9.3930 1.7072
-14.7901 -11.5871 1.8578
-13.7107 -12.8725 1.8596
-12.5080 -14.0441 1.8596
-11.2054 -15.1038 1.8596
-9.8135 -16.0431 1.8596
-8.3435 -16.8546 1.8596
-6.8200 -17.5656 1.8632
-5.2366 -18.1405 1.8670
-3.6051 -18.5739 1.8709
-1.9426 -18.9051 1.8792
-0.2497 -19.0819 1.8870
1.4571 -19.0768 1.8918
3.1595 -18.9105 1.8958
4.8434 -18.5906 1.8996
6.5038 -18.1445 1.9059
8.1583 -17.6259 1.9205
9.7876 -16.9835 1.9382
11.3632 -16.1848 1.9554
12.8683 -15.2332 1.9718
8.2849 -8.1966 1.1524
15.6004 -12.8946 2.0013
9.3836 -6.4391 1.1253
16.2549 -9.1370 1.8438
17.1041 -7.6953 1.8545
17.8166 -6.1716 1.8644
18.3752 -4.5776 1.8725
4.8364 -0.7549 0.4840
4.7620 -0.3124 0.4719
5.1262 0.1220 0.5070
18.7553 2.1306 1.8665
18.4139 3.7793 1.8587
17.9187 5.3813 1.8500
17.2765 6.9217 1.8403
16.4019 8.3394 1.8194
15.2166 9.5335 1.7755
14.0782 10.6803 1.7473
13.4233 12.2155 1.7946
12.1941 13.2703 1.7820
4.9921 6.5147 0.8116
4.5437 7.1750 0.8398
8.0663 15.6769 1.7433
5.1841 12.7605 1.3619
5.0705 16.5922 1.7155
3.5568 16.9141 1.7090
2.2130 18.6758 1.8596
0.2126 7.4220 0.7342
-0.4512 7.4264 0.7357
-2.8104 18.5953 1.8596
-4.4578 18.2705 1.8596
-6.0697 17.8001 1.8596
-7.0143 15.7941 1.7088
-8.4134 15.1383 1.7125
-9.7301 14.3276 1.7125
-10.9652 13.3975 1.7119
-12.1044 12.3537 1.7102
-13.1555 11.2226 1.7098
-14.1023 10.0032 1.7096
-14.9360 8.7042 1.7094
-15.6507 7.3361 1.7091
-16.2408 5.9102 1.7089
-16.7013 4.4375 1.7087
-16.9917 2.9234 1.7048
-17.2200 1.3990 1.7083
-17.2741 -0.1425 1.7081
-17.1905 -1.6826 1.7079
-16.9699 -3.2088 1.7077
-16.6142 -4.7091 1.7075
-16.1262 -6.1717 1.7074
-15.5100 -7.5848 1.7072
-14.7717 -8.9380 1.7072
-15.1273 -11.1099 1.8559
-14.0994 -12.4355 1.8589
-12.9386 -13.6484 1.8596
-11.6696 -14.7481 1.8596
-10.3077 -15.7302 1.8596
-8.8635 -16.5869 1.8596
-7.3579 -17.3332 1.8619
-5.7941 -17.9561 1.8656
-4.1779 -18.4393 1.8695
-2.5252 -18.8027 1.8759
-0.8420 -19.0449 1.8850
0.8626 -19.0986 1.8904
2.5681 -18.9859 1.8944
4.2601 -18.7194 1.8983
5.9242 -18.3001 1.9020
7.5813 -17.8126 1.9142
9.2255 -17.2251 1.9321
10.8217 -16.4805 1.9495
12.3533 -15.5816 1.9662
13.8037 -14.5333 1.9819
9.2352 -8.1297 1.2166
9.2231 -6.7602 1.1307
15.9269 -9.6163 1.8396
16.8245 -8.2078 1.8510
17.5851 -6.7109 1.8611
18.1989 -5.1397 1.8699
5.2102 -0.9801 0.5242
4.7482 -0.4602 0.4717
4.9393 -0.0361 0.4884
18.8371 1.5484 1.8689
18.5506 3.2097 1.8615
18.1082 4.8297 1.8531
17.5163 6.3932 1.8438
16.7827 7.8861 1.8336
15.6229 9.1242 1.7890
14.4706 10.2851 1.7555
13.8298 11.8205 1.7989
12.6320 12.9167 1.7865
5.3360 6.5323 0.8340
4.6328 6.8357 0.8165
8.5720 15.4583 1.7478
7.1062 16.0419 1.7349
5.6026 16.4815 1.7213
4.0843 16.8091 1.7105
2.6805 17.8504 1.7848
0.4438 7.4204 0.7350
-0.2197 7.4249 0.7345
-2.2308 18.6737 1.8596
-3.8875 18.4003 1.8596
-5.5133 17.9802 1.8596
-6.5147 15.9921 1.7075
-7.9327 15.3812 1.7113
-9.2799 14.6231 1.7125
-10.5472 13.7370 1.7125
-11.7184 12.7284 1.7108
-12.8006 11.6266 1.7099
-13.7853 10.4375 1.7097
-14.6589 9.1647 1.7094
-8.6007 4.3627 0.9536
-16.0498 6.4126 1.7090
-16.5559 4.9549 1.7088
-16.9299 3.4580 1.7086
-17.1689 1.9339 1.7084
-17.2709 0.3947 1.7082
-17.2352 -1.1472 1.7080
-17.0622 -2.6797 1.7078
-16.7532 -4.1904 1.7076
-16.3110 -5.6675 1.7074
-15.7386 -7.0989 1.7072
-8.5826 -4.8350 0.9740
-15.4474 -10.6217 1.8537
-14.4745 -11.9871 1.8583
-13.3568 -13.2395 1.8596
-12.1226 -14.3781 1.8596
-10.7918 -15.4021 1.8596
-9.3750 -16.3033 1.8596
-7.8880 -17.0845 1.8607
-6.3451 -17.7548 1.8643
-4.7459 -18.2872 1.8681
-3.1033 -18.6829 1.8727
-1.4316 -18.9801 1.8821
0.2680 -19.0991 1.8887
1.9751 -19.0426 1.8930
3.6734 -18.8296 1.8970
5.3488 -18.4633 1.9007
7.0067 -17.9959 1.9096
8.6576 -17.4476 1.9259
10.2723 -16.7574 1.9435
11.8283 -15.9119 1.9605
13.3089 -14.9149 1.9766
14.6975 -13.7727 1.9917
15.9656 -12.4835 2.0040
9.6828 -6.2652 1.1404
16.5275 -8.7092 1.8473
17.3352 -7.2408 1.8576
18.0030 -5.6945 1.8671
18.5128 -4.0822 1.8745
4.7888 -0.6150 0.4774
4.8445 -0.1861 0.4794
18.8994 0.9631 1.8712
18.6683 2.6352 1.8642
18.2796 4.2712 1.8562
17.7389 5.8560 1.8471
17.0537 7.3751 1.8372
16.0358 8.7082 1.8043
14.8670 9.8857 1.7654
13.7388 11.0222 1.7417
13.0595 12.5484 1.7908
5.6797 6.5277 0.8556
4.8070 6.6385 0.8104
9.0720 15.2235 1.7523
7.6212 15.8541 1.7394
4.9113 13.0965 1.3831
4.6088 16.6876 1.7119
3.0946 16.9920 1.7078
1.7059 18.7289 1.8596
0.0113 7.4233 0.7340
-0.6538 7.4278 0.7373
-3.3135 18.5123 1.8596
-4.9515 18.1429 1.8596
-6.2325 16.7742 1.7694
-7.4449 15.6086 1.7100
-8.8207 14.9045 1.7125
-10.1150 14.0584 1.7125
-11.3209 13.0912 1.7114
-12.4333 12.0194 1.7100
-13.4545 10.8615 1.7098
-14.3676 9.6168 1.7095
-15.1658 8.2956 1.7093
-15.8432 6.9088 1.7091
-16.3945 5.4675 1.7089
-16.8149 3.9829 1.7087
-16.3255 2.3550 1.6310
-17.2510 0.9316 1.7083
-17.2633 -0.6107 1.7081
-17.1380 -2.1479 1.7079
-16.8761 -3.6676 1.7077
-16.4800 -5.1577 1.7075
-15.9524 -6.6064 1.7073
-15.2987 -8.0025 1.7072
-14.5239 -9.3352 1.7072
-14.8355 -11.5276 1.8577
-13.7613 -12.8171 1.8595
-12.5638 -13.9942 1.8596
-11.2655 -15.0591 1.8596
-9.8774 -16.0039 1.8596
-8.4105 -16.8212 1.8596
-6.8894 -17.5368 1.8630
-5.3084 -18.1178 1.8668
-3.6789 -18.5576 1.8707
-2.0176 -18.8930 1.8788
-0.3257 -19.0782 1.8867
1.3809 -19.0807 1.8916
3.0839 -18.9212 1.8956
4.7689 -18.6081 1.8994
6.4296 -18.1649 1.9053
8.0846 -17.6509 1.9197
9.7160 -17.0155 1.9375
11.2942 -16.2237 1.9546
12.8029 -15.2789 1.9711
8.2309 -8.2083 1.1494
15.5455 -12.9538 2.0009
9.3506 -6.4714 1.1244
16.2137 -9.1991 1.8433
17.0693 -7.7615 1.8541
17.7880 -6.2413 1.8640
18.3537 -4.6500 1.8722
4.8914 -0.7834 0.4898
4.7557 -0.3311 0.4714
5.1074 0.1012 0.5051
18.7669 2.0562 1.8668
18.4325 3.7066 1.8591
17.9439 5.3110 1.8504
17.3081 6.8545 1.8408
16.4563 8.2846 1.8218
15.2683 9.4814 1.7771
14.1283 10.6298 1.7483
13.4760 12.1656 1.7952
12.2507 13.2258 1.7826
5.0225 6.5005 0.8123
4.5448 7.1138 0.8347
8.1315 15.6498 1.7439
5.2380 12.7470 1.3627
5.1384 16.5779 1.7162
3.6245 16.9015 1.7092
2.2875 18.6668 1.8596
0.2422 7.4218 0.7343
-0.4215 7.4262 0.7355
-2.7363 18.6063 1.8596
-4.3850 18.2881 1.8596
-5.9987 17.8241 1.8596
-6.9506 15.8203 1.7086
-8.3523 15.1704 1.7124
-9.6729 14.3661 1.7125
-10.9122 13.4417 1.7120
-12.0556 12.4023 1.7102
-13.1107 11.2749 1.7098
-14.0625 10.0594 1.7096
-14.9012 8.7637 1.7094
-15.6214 7.3985 1.7091
-16.2172 5.9749 1.7089
-16.6836 4.5040 1.7087
-16.9915 2.9931 1.7060
-17.2144 1.4676 1.7083
-17.2747 -0.0737 1.7081
-17.1972 -1.6141 1.7079
-16.9827 -3.1411 1.7077
-16.6329 -4.6429 1.7075
-16.1508 -6.1074 1.7074
-15.5401 -7.5229 1.7072
-11.8966 -7.1337 1.3716
-15.1664 -11.0458 1.8552
-14.1482 -12.3787 1.8589
-12.9929 -13.5967 1.8596
-11.7284 -14.7015 1.8596
-10.3703 -15.6890 1.8596
-8.9295 -16.5515 1.8596
-7.4263 -17.3022 1.8618
-5.8650 -17.9313 1.8655
-4.2509 -18.4209 1.8693
-2.5995 -18.7883 1.8755
-0.9178 -19.0389 1.8848
0.7863 -19.1000 1.8902
2.4922 -18.9942 1.8942
4.1850 -18.7345 1.8981
5.8507 -18.3220 1.9018
7.5071 -17.8351 1.9134
9.1531 -17.2546 1.9313
10.7517 -16.5170 1.9487
12.2865 -15.6250 1.9654
13.7409 -14.5832 1.9813
9.1838 -8.1497 1.2141
9.2109 -6.8079 1.1325
17.3851 -10.5915 2.0129
16.7874 -8.2726 1.8505
17.5541 -6.7793 1.8607
18.1749 -5.2112 1.8695
18.6351 -3.5823 1.8764
4.7464 -0.4791 0.4717
4.9155 -0.0555 0.4861
18.8462 1.4735 1.8692
18.5667 3.1364 1.8619
18.1311 4.7585 1.8535
17.5458 6.3248 1.8442
16.8183 7.8212 1.8340
15.6754 9.0712 1.7908
14.5212 10.2341 1.7566
13.8810 11.7688 1.7995
12.6874 12.8703 1.7870
5.3908 6.5459 0.8385
4.6464 6.7973 0.8141
8.6364 15.4292 1.7484
7.1724 16.0188 1.7355
5.6711 16.4673 1.7222
4.1518 16.7945 1.7106
2.6886 17.4313 1.7440
0.4735 7.4202 0.7352
-0.1901 7.4247 0.7344
-2.1563 18.6824 1.8596
-3.8142 18.4156 1.8596
-5.4416 18.0020 1.8596
-6.4502 16.0163 1.7073
-7.8706 15.4113 1.7111
-9.2215 14.6600 1.7125
-10.4924 13.7792 1.7125
-11.6681 12.7756 1.7108
-12.7542 11.6776 1.7099
-13.7436 10.4923 1.7097
-14.6223 9.2232 1.7095
-8.5913 4.4010 0.9545
-16.0242 6.4765 1.7090
-16.5361 5.0209 1.7088
-16.9161 3.5255 1.7086
-17.1611 2.0023 1.7084
-17.2693 0.4635 1.7082
-17.2398 -1.0786 1.7080
-17.0728 -2.6117 1.7078
-16.7699 -4.1236 1.7076
-16.3336 -5.6024 1.7074
-15.7669 -7.0361 1.7072
-8.6343 -4.8190 0.9777
-15.4879 -10.5588 1.8535
-14.5215 -11.9288 1.8582
-13.4094 -13.1861 1.8596
-12.1798 -14.3297 1.8596
-10.8531 -15.3590 1.8596
-9.4399 -16.2658 1.8596
-7.9554 -17.0515 1.8605
-6.4153 -17.7278 1.8642
-4.8182 -18.2665 1.8680
-3.1770 -18.6663 1.8723
-1.5069 -18.9700 1.8817
0.1920 -19.0975 1.8885
1.8989 -19.0486 1.8929
3.5979 -18.8424 1.8968
5.2747 -18.4829 1.9006
6.9331 -18.0188 1.9090
8.5845 -17.4747 1.9251
10.2014 -16.7916 1.9427
11.7604 -15.9528 1.9597
13.2447 -14.9625 1.9759
14.6378 -13.8266 1.9910
15.9126 -12.5447 2.0036
9.6210 -6.2798 1.1360
16.4882 -8.7727 1.8468
17.3019 -7.3080 1.8572
17.9765 -5.7650 1.8667
18.4935 -4.1553 1.8742
4.7957 -0.6353 0.4783
4.8329 -0.2050 0.4783
18.9059 0.8878 1.8715
18.6820 2.5612 1.8646
18.3002 4.1992 1.8566
17.7661 5.7866 1.8476
17.0872 7.3089 1.8377
16.0892 8.6544 1.8065
14.9181 9.8342 1.7668
13.7885 10.9721 1.7424
13.1136 12.5001 1.7914
5.7387 6.5426 0.8605
4.8311 6.6161 0.8101
9.1356 15.1923 1.7529
7.6868 15.8288 1.7400
4.9268 12.9801 1.3728
4.6758 16.6709 1.7120
3.1627 16.9813 1.7080
1.7806 18.7220 1.8596
0.0409 7.4231 0.7340
-0.6240 7.4276 0.7370
-3.2397 18.5253 1.8596
-4.8792 18.1625 1.8596
-6.2293 16.9726 1.7877
-7.3819 15.6366 1.7098
-8.7613 14.9396 1.7125
-10.0589 14.0987 1.7125
-11.2691 13.1368 1.7114
-12.3853 12.0689 1.7100
-13.4112 10.9150 1.7098
-14.3293 9.6739 1.7096
-15.1327 8.3561 1.7093
-15.8156 6.9719 1.7091
-16.3726 5.5329 1.7089
-16.7990 4.0500 1.7087
-16.3253 2.4215 1.6319
-17.2472 1.0004 1.7083
-17.2657 -0.5420 1.7081
-17.1465 -2.0796 1.7079
-16.8907 -3.6003 1.7077
-16.5005 -5.0921 1.7075
-15.9787 -6.5428 1.7073
-15.3305 -7.9414 1.7072
-14.5610 -9.2772 1.7072
-14.8808 -11.4679 1.8577
-13.8116 -12.7616 1.8594
-12.6195 -13.9440 1.8596
-11.3254 -15.0141 1.8596
-9.9411 -15.9644 1.8596
-8.4775 -16.7874 1.8596
-6.9586 -17.5076 1.8629
-5.3801 -18.0949 1.8666
-3.7524 -18.5411 1.8705
-2.0923 -18.8805 1.8783
-0.4016 -19.0742 1.8865
1.3048 -19.0842 1.8914
3.0082 -18.9316 1.8954
4.6943 -18.6253 1.8993
6.3551 -18.1849 1.9048
8.0108 -17.6756 1.9189
9.6441 -17.0472 1.9367
11.2251 -16.2624 1.9539
12.7373 -15.3242 1.9703
8.1903 -8.2332 1.1483
15.4890 -13.0116 2.0002
9.3176 -6.5037 1.1236
16.1723 -9.2611 1.8428
17.0341 -7.8277 1.8537
17.7590 -6.3107 1.8636
16.8473 -5.1815 1.8526
17.3050 -3.6714 1.8593
4.7555 -0.5722 0.5034
4.8512 -0.1477 0.5101
17.6827 1.0425 1.8618
17.4572 2.6063 1.8552
17.0849 4.1360 1.8476
16.5711 5.6174 1.8390
15.9227 7.0372 1.8297
15.1478 8.3830 1.8196
14.2554 9.6438 1.8090
13.2558 10.8095 1.7978
12.1598 11.8717 1.7861
5.5480 6.4800 0.8966
4.7326 6.6466 0.8576
8.4090 14.3703 1.7500
7.0444 14.9585 1.7378
5.6295 15.3835 1.7217
4.2080 15.7236 1.7108
2.7829 16.0026 1.7072
0.8561 10.3079 1.0871
-0.0479 7.4241 0.7803
-0.7136 7.4286 0.7844
-3.2560 17.3906 1.8596
-4.7942 17.0309 1.8596
-6.2192 16.3384 1.8374
-7.1172 14.6206 1.7091
-8.4099 13.9554 1.7125
-9.6211 13.1496 1.7125
-10.7538 12.2369 1.7122
-11.7917 11.2187 1.7107
-12.7381 10.1164 1.7097
-13.5883 8.9390 1.7095
-8.5589 4.5934 1.0209
-14.9565 6.3809 1.7091
-15.4640 5.0206 1.7088
-15.8482 3.6208 1.7086
-16.1062 2.1925 1.7084
-16.2357 0.7470 1.7082
-16.2359 -0.7040 1.7081
-16.1068 -2.1493 1.7079
-15.8493 -3.5770 1.7077
-15.4652 -4.9758 1.7075
-14.9581 -6.3347 1.7073
-14.3323 -7.6431 1.7072
-13.5934 -8.8910 1.7072
-13.8841 -10.9668 1.8596
-12.8505 -12.1615 1.8596
-11.7145 -13.2593 1.8596
-10.4851 -14.2513 1.8596
-9.1722 -15.1297 1.8596
-7.7920 -15.8998 1.8610
-6.3544 -16.5616 1.8644
-4.8611 -17.0949 1.8680
-3.3270 -17.5136 1.8737
-1.7593 -17.8187 1.8819
-0.1633 -17.9522 1.8869
1.4416 -17.9319 1.8908
3.0413 -17.7669 1.8945
4.6226 -17.4576 1.8981
6.1785 -17.0229 1.9034
7.7217 -16.5096 1.9156
9.2428 -15.8914 1.9322
10.7113 -15.1278 1.9482
12.1103 -14.2205 1.9632
8.3321 -8.1778 1.2271
14.5978 -11.9682 1.9840
9.4442 -6.4255 1.2006
15.2155 -8.4732 1.8305
15.9988 -7.1215 1.8406
16.6530 -5.6943 1.8498
17.1628 -4.2030 1.8572
4.8093 -0.7310 0.5113
4.7462 -0.2924 0.4998
5.2453 0.1458 0.5515
17.5526 2.0649 1.8576
17.2309 3.6081 1.8503
16.7657 5.1079 1.8421
16.1633 6.5506 1.8330
15.4314 7.9235 1.8232
14.5789 9.2151 1.8127
13.6154 10.4149 1.8017
12.5517 11.5141 1.7902
11.3989 12.5047 1.7784
4.9255 6.4811 0.8556
4.5142 7.1916 0.8924
7.5244 14.7680 1.7420
5.1853 12.9106 1.4623
4.6985 15.5971 1.7121
3.2813 15.9188 1.7083
2.0120 17.5780 1.8596
0.1830 7.4226 0.7804
-0.4810 7.4270 0.7823
-2.7137 17.4835 1.8596
-4.2623 17.1717 1.8596
-5.7770 16.7231 1.8596
-6.6544 14.8241 1.7079
-7.9664 14.2005 1.7114
-9.2076 13.4426 1.7125
-10.3699 12.5676 1.7125
-11.4406 11.5835 1.7112
-12.4179 10.5082 1.7098
-13.3042 9.3576 1.7096
-14.0844 8.1327 1.7094
-14.7516 6.8427 1.7092
-15.3011 5.4990 1.7089
-15.7286 4.1120 1.7087
-16.0308 2.6924 1.7085
-16.2053 1.2516 1.7083
-16.2505 -0.1989 1.7081
-16.1664 -1.6474 1.7080
-15.9535 -3.0825 1.7078
-15.6131 -4.4927 1.7076
-15.1484 -5.8668 1.7074
-14.5631 -7.1938 1.7072
-13.8633 -8.4640 1.7072
-14.2175 -10.5292 1.8595
-13.2224 -11.7561 1.8596
-12.1212 -12.8886 1.8596
-10.9232 -13.9184 1.8596
-9.6382 -14.8372 1.8596
-8.2776 -15.6401 1.8599
-6.8619 -16.3455 1.8632
-5.3867 -16.9241 1.8667
-3.8639 -17.3744 1.8707
-2.3093 -17.7309 1.8793
-0.7209 -17.9238 1.8854
0.8826 -17.9554 1.8895
2.4857 -17.8408 1.8932
4.0749 -17.5815 1.8969
5.6371 -17.1791 1.9003
7.1862 -16.6992 1.9108
8.7183 -16.1233 1.9265
10.2069 -15.4100 1.9427
11.6329 -14.5535 1.9582
8.1143 -8.4753 1.2332
9.3088 -8.1289 1.2989
9.2645 -6.7339 1.2038
14.9204 -8.9277 1.8275
15.7395 -7.6010 1.8371
16.4412 -6.1994 1.8468
17.0022 -4.7286 1.8548
5.0362 -0.9266 0.5382
4.7326 -0.4396 0.4996
4.9435 -0.0164 0.5196
17.6300 1.5199 1.8599
17.3594 3.0750 1.8530
16.9436 4.5915 1.8451
16.3882 6.0556 1.8363
15.7005 7.4541 1.8267
14.8888 8.7753 1.8165
13.9628 10.0081 1.8056
12.9327 11.1433 1.7943
11.8097 12.1725 1.7826
5.1921 6.4080 0.8668
4.5857 6.8246 0.8642
7.9994 14.5622 1.7463
6.6198 15.1063 1.7335
5.1983 15.4943 1.7177
3.7776 15.8213 1.7096
2.5576 17.5070 1.8596
0.4141 7.4210 0.7812
-0.2493 7.4255 0.7809
-2.1687 17.5594 1.8596
-3.7263 17.2959 1.8596
-5.2542 16.8946 1.8596
-6.2397 15.1440 1.7215
-7.5157 14.4312 1.7102
-8.7851 13.7223 1.7125
-9.9741 12.8840 1.7125
-11.0785 11.9375 1.7117
-12.0883 10.8921 1.7102
-13.0073 9.7671 1.7096
-13.8252 8.5671 1.7095
-8.5610 4.2997 1.0069
-15.1234 5.9726 1.7090
-15.5938 4.5993 1.7088
-15.9400 3.1897 1.7086
-16.1591 1.7550 1.7084
-16.2495 0.3066 1.7082
-16.2103 -1.1440 1.7080
-16.0423 -2.5851 1.7079
-15.7459 -4.0052 1.7077
-15.3241 -5.3931 1.7075
-14.7804 -6.7377 1.7073
-8.5329 -4.8520 1.0317
-13.3474 -9.2563 1.7072
-13.5816 -11.3392 1.8596
-12.5161 -12.5055 1.8596
-11.3507 -13.5720 1.8596
-10.0949 -14.5303 1.8596
-8.7586 -15.3728 1.8596
-7.3621 -16.1140 1.8620
-5.9064 -16.7374 1.8655
-4.3984 -17.2306 1.8691
-2.8549 -17.6219 1.8763
-1.2765 -17.8752 1.8835
0.3237 -17.9613 1.8881
1.9283 -17.8971 1.8919
3.5239 -17.6882 1.8956
5.0970 -17.3354 1.8991
6.6502 -16.8807 1.9069
8.1881 -16.3375 1.9207
9.6948 -15.6748 1.9371
11.1444 -14.8677 1.9529
12.5148 -13.9129 1.9668
13.7814 -12.8114 1.9777
14.9352 -11.5823 1.9865
9.7904 -6.2796 1.2225
15.4664 -8.0715 1.8336
16.2122 -6.6959 1.8436
16.8234 -5.2477 1.8522
17.2878 -3.7399 1.8591
4.7623 -0.5923 0.5044
4.8440 -0.1668 0.5094
17.6892 0.9721 1.8620
17.4704 2.5371 1.8555
17.1045 4.0687 1.8479
16.5970 5.5526 1.8394
15.9544 6.9753 1.8301
15.1849 8.3247 1.8201
14.2976 9.5895 1.8094
13.3026 10.7596 1.7983
12.2106 11.8266 1.7867
5.6214 6.5130 0.9043
4.7558 6.6232 0.8570
8.4688 14.3412 1.7505
7.1062 14.9349 1.7384
5.6927 15.3662 1.7223
4.2710 15.7083 1.7109
2.8466 15.9914 1.7072
0.9033 10.3745 1.0945
-0.0183 7.4239 0.7803
-0.6837 7.4284 0.7841
-3.1867 17.4035 1.8596
-4.7263 17.0499 1.8596
-6.2161 16.5280 1.8560
-7.0583 14.6475 1.7089
-8.3535 13.9877 1.7124
-9.5686 13.1879 1.7125
-10.7054 12.2802 1.7123
-11.7473 11.2661 1.7107
-12.6977 10.1671 1.7097
-13.5526 8.9932 1.7095
-14.2992 7.7476 1.7093
-14.9311 6.4400 1.7091
-15.4439 5.0824 1.7089
-15.8338 3.6839 1.7086
-16.0974 2.2567 1.7084
-16.2327 0.8117 1.7083
-16.2386 -0.6393 1.7081
-16.1153 -2.0851 1.7079
-15.8635 -3.5138 1.7077
-15.4850 -4.9142 1.7075
-14.9833 -6.2751 1.7073
-14.3626 -7.5859 1.7072
-13.6288 -8.8368 1.7072
-13.9276 -10.9114 1.8596
-12.8989 -12.1102 1.8596
-11.7673 -13.2125 1.8596
-10.5418 -14.2094 1.8596
-9.2324 -15.0931 1.8596
-7.8547 -15.8673 1.8609
-6.4198 -16.5348 1.8643
-4.9287 -17.0739 1.8678
-3.3961 -17.4967 1.8733
-1.8300 -17.8093 1.8817
-0.2348 -17.9497 1.8867
1.3700 -17.9359 1.8906
2.9702 -17.7773 1.8944
4.5526 -17.4744 1.8979
6.1086 -17.0419 1.9028
7.6528 -16.5338 1.9149
9.1759 -15.9221 1.9315
10.6471 -15.1649 1.9475
12.0501 -14.2646 1.9626
8.2593 -8.1713 1.2211
14.5472 -12.0240 1.9837
9.4108 -6.4577 1.1996
15.1776 -8.5315 1.8300
15.9664 -7.1834 1.8402
16.6269 -5.7595 1.8494
17.1432 -4.2707 1.8569
4.8163 -0.7517 0.5123
4.7445 -0.3113 0.4997
5.1042 0.1215 0.5366
17.5635 1.9952 1.8579
17.2483 3.5401 1.8507
16.7894 5.0421 1.8425
16.1930 6.4876 1.8335
15.4667 7.8639 1.8237
14.6194 9.1593 1.8132
13.6606 10.3635 1.8022
12.6011 11.4673 1.7907
11.4521 12.4628 1.7789
4.9589 6.4714 0.8569
4.5158 7.1309 0.8871
7.5856 14.7425 1.7426
5.2396 12.8970 1.4631
4.7611 15.5797 1.7123
3.3450 15.9072 1.7085
2.0820 17.5699 1.8596
0.2126 7.4224 0.7804
-0.4512 7.4268 0.7820
-2.6439 17.4941 1.8596
-4.1938 17.1886 1.8596
-5.7103 16.7460 1.8596
-6.5946 14.8491 1.7077
-7.9090 14.2309 1.7112
-9.1539 13.4792 1.7125
-10.3197 12.6089 1.7125
-11.3948 11.6295 1.7113
-12.3761 10.5577 1.7098
-13.2669 9.4106 1.7096
-14.0519 8.1888 1.7094
-14.7243 6.9020 1.7092
-15.2791 5.5602 1.7089
-15.7122 4.1747 1.7087
-16.0201 2.7563 1.7085
-16.2002 1.3162 1.7083
-16.2513 -0.1341 1.7081
-16.1729 -1.5829 1.7080
-15.9657 -3.0189 1.7078
-15.6310 -4.4305 1.7076
-15.1718 -5.8064 1.7074
-14.5918 -7.1357 1.7072
-13.8970 -8.4087 1.7072
-14.2589 -10.4721 1.8594
-13.2692 -11.7033 1.8596
-12.1724 -12.8402 1.8596
-10.9786 -13.8748 1.8596
-9.6973 -14.7987 1.8596
-8.3392 -15.6058 1.8597
-6.9264 -16.3167 1.8631
-5.4536 -16.9011 1.8666
-3.9323 -17.3554 1.8704
-2.3795 -17.7178 1.8789
-0.7922 -17.9185 1.8851
0.8110 -17.9571 1.8893
2.4143 -17.8490 1.8931
4.0044 -17.5962 1.8967
5.5681 -17.2001 1.9002
7.1178 -16.7235 1.9103
8.6506 -16.1518 1.9258
10.1417 -15.4449 1.9420
11.5708 -14.5947 1.9576
8.1201 -8.5493 1.2393
9.2352 -8.1297 1.2932
9.2528 -6.7820 1.2058
14.8819 -8.9854 1.8271
15.7054 -7.6618 1.8367
16.4128 -6.2635 1.8464
16.9803 -4.7955 1.8545
5.1170 -0.9625 0.5472
4.7308 -0.4585 0.4996
4.9196 -0.0359 0.5171
17.6386 1.4499 1.8601
17.3747 3.0063 1.8533
16.9652 4.5248 1.8454
16.4158 5.9915 1.8367
15.7338 7.3933 1.8272
14.9276 8.7181 1.8169
14.0064 9.9552 1.8061
12.9808 11.0948 1.7948
11.8616 12.1289 1.7831
5.2268 6.3986 0.8684
4.5971 6.7830 0.8612
8.0599 14.5347 1.7468
6.6830 15.0868 1.7343
5.2618 15.4788 1.7183
3.8410 15.8077 1.7098
2.6273 17.4966 1.8596
0.4438 7.4208 0.7814
-0.2197 7.4253 0.7808
-2.0987 17.5679 1.8596
-3.6573 17.3107 1.8596
-5.1868 16.9155 1.8596
-6.2363 15.3086 1.7374
-7.4575 14.4597 1.7100
-8.7304 13.7572 1.7125
-9.9227 12.9237 1.7125
-11.0312 11.9820 1.7118
-12.0453 10.9406 1.7103
-12.9683 9.8189 1.7096
-13.7910 8.6222 1.7095
-8.5606 4.3423 1.0089
-15.0995 6.0329 1.7090
-15.5755 4.6615 1.7088
-15.9273 3.2532 1.7086
-16.1521 1.8194 1.7084
-16.2482 0.3714 1.7082
-16.2148 -1.0793 1.7080
-16.0525 -2.5212 1.7079
-15.7618 -3.9424 1.7077
-15.3456 -5.3320 1.7075
-14.8072 -6.6788 1.7073
-8.5823 -4.8349 1.0353
-13.3841 -9.2030 1.7072
-13.6267 -11.2850 1.8596
-12.5658 -12.4555 1.8596
-11.4047 -13.5267 1.8596
-10.1527 -14.4900 1.8596
-8.8198 -15.3378 1.8596
-7.4257 -16.0832 1.8619
-5.9725 -16.7123 1.8653
-4.4667 -17.2114 1.8689
-2.9245 -17.6067 1.8759
-1.3476 -17.8677 1.8833
0.2520 -17.9608 1.8879
1.8569 -17.9030 1.8918
3.4531 -17.7005 1.8955
5.0275 -17.3541 1.8990
6.5811 -16.9027 1.9064
8.1197 -16.3636 1.9200
9.6287 -15.7075 1.9364
11.0811 -14.9067 1.9522
12.4558 -13.9589 1.9663
13.7272 -12.8634 1.9772
14.8864 -11.6397 1.9861
9.7262 -6.2933 1.2176
15.4303 -8.1310 1.8332
16.1816 -6.7589 1.8432
16.7992 -5.3137 1.8519
17.2703 -3.8082 1.8588
4.7691 -0.6124 0.5054
4.7562 -0.1827 0.5003
17.6955 0.9018 1.8623
17.4833 2.4679 1.8558
17.1239 4.0012 1.8483
16.6226 5.4875 1.8398
15.9859 6.9133 1.8306
15.2219 8.2662 1.8206
14.3396 9.5350 1.8099
13.3491 10.7096 1.7988
12.2612 11.7813 1.7872
11.0873 12.7427 1.7753
4.7790 6.5998 0.8564
8.5286 14.3117 1.7511
7.1679 14.9111 1.7389
4.9224 13.1261 1.4734
4.3340 15.6927 1.7111
2.9105 15.9812 1.7073
1.6049 17.6199 1.8596
0.0113 7.4237 0.7803
-0.6538 7.4282 0.7838
-3.1172 17.4160 1.8596
-4.6583 17.0686 1.8596
-6.1622 16.5850 1.8596
-6.9992 14.6741 1.7088
-8.2970 14.0197 1.7122
-9.5160 13.2259 1.7125
-10.6568 12.3233 1.7124
-11.7028 11.3132 1.7108
-12.6571 10.2177 1.7097
-13.5167 9.0472 1.7095
-14.2683 7.8046 1.7094
-14.9054 6.4999 1.7091
-15.4237 5.1438 1.7089
-15.8190 3.7471 1.7087
-16.0884 2.3208 1.7085
-16.2294 0.8765 1.7083
-16.2411 -0.5746 1.7081
-16.1236 -2.0207 1.7079
-15.8774 -3.4505 1.7077
-15.5046 -4.8524 1.7075
-15.0083 -6.2154 1.7073
-14.3928 -7.5286 1.7072
-13.6639 -8.7824 1.7072
-13.9710 -10.8558 1.8596
-12.9470 -12.0587 1.8596
-11.8198 -13.1655 1.8596
-10.5984 -14.1673 1.8596
-9.2925 -15.0562 1.8596
-7.9173 -15.8346 1.8607
-6.4851 -16.5077 1.8641
-4.9963 -17.0527 1.8676
-3.4651 -17.4794 1.8729
-1.9008 -17.7996 1.8814
-0.3064 -17.9470 1.8866
1.2983 -17.9396 1.8905
2.8991 -17.7875 1.8942
4.4826 -17.4910 1.8978
6.0385 -17.0599 1.9021
7.5839 -16.5577 1.9141
9.1090 -15.9525 1.9308
10.5827 -15.2018 1.9468
11.9897 -14.3085 1.9621
8.2055 -8.1830 1.2180
14.4964 -12.0796 1.9833
9.3774 -6.4900 1.1986
15.1391 -8.5894 1.8294
15.9337 -7.2452 1.8397
16.6003 -5.8246 1.8491
17.1234 -4.3383 1.8566
4.8233 -0.7725 0.5134
4.7428 -0.3302 0.4997
5.0858 0.1008 0.5346
17.5741 1.9255 1.8582
17.2655 3.4720 1.8510
16.8129 4.9762 1.8429
16.2224 6.4245 1.8339
15.5018 7.8041 1.8241
14.6596 9.1034 1.8137
13.7056 10.3118 1.8027
12.6504 11.4203 1.7913
11.5051 12.4208 1.7795
4.9929 6.4622 0.8583
4.5220 7.0781 0.8828
7.6467 14.7167 1.7431
5.2940 12.8835 1.4640
4.8236 15.5622 1.7124
3.4087 15.8953 1.7086
2.1520 17.5614 1.8596
0.2422 7.4222 0.7805
-0.4215 7.4266 0.7818
-2.5742 17.5045 1.8596
-4.1253 17.2051 1.8596
-5.6435 16.7686 1.8596
-6.5348 14.8739 1.7075
-7.8515 14.2610 1.7111
-9.1001 13.5156 1.7125
-10.2694 12.6500 1.7125
-11.3489 11.6753 1.7113
-12.3344 10.6073 1.7099
-13.2293 9.4634 1.7096
-14.0192 8.2448 1.7094
-8.9121 4.2209 1.0364
-15.2569 5.6212 1.7089
-15.6955 4.2374 1.7087
-16.0090 2.8201 1.7085
-16.1949 1.3807 1.7083
-16.2518 -0.0693 1.7081
-16.1791 -1.5185 1.7080
-15.9777 -2.9553 1.7078
-15.6486 -4.3681 1.7076
-15.1949 -5.7459 1.7074
-14.6202 -7.0775 1.7072
-11.8799 -7.1237 1.4559
-14.3000 -10.4148 1.8594
-13.3157 -11.6503 1.8596
-12.2235 -12.7915 1.8596
-11.0338 -13.8309 1.8596
-9.7562 -14.7599 1.8596
-8.4007 -15.5712 1.8596
-6.9908 -16.2876 1.8629
-5.5204 -16.8778 1.8664
-4.0007 -17.3362 1.8700
-2.4495 -17.7045 1.8785
-0.8635 -17.9129 1.8849
0.7393 -17.9586 1.8891
2.3429 -17.8569 1.8929
3.9339 -17.6105 1.8966
5.4991 -17.2208 1.9000
7.0493 -16.7475 1.9098
8.5829 -16.1799 1.9250
10.0764 -15.4795 1.9413
11.5085 -14.6356 1.9569
12.8527 -13.6405 1.9698
9.1838 -8.1497 1.2905
9.2410 -6.8301 1.2078
14.8431 -9.0429 1.8268
15.6710 -7.7225 1.8362
16.3841 -6.3274 1.8460
16.9581 -4.8623 1.8542
5.2005 -0.9997 0.5566
4.7290 -0.4774 0.4996
4.8960 -0.0553 0.5146
17.6469 1.3798 1.8604
17.3896 2.9375 1.8536
16.9864 4.4581 1.8458
16.4432 5.9274 1.8371
15.7670 7.3323 1.8276
14.9661 8.6608 1.8174
14.0499 9.9019 1.8066
13.0286 11.0461 1.7953
11.9134 12.0851 1.7836
5.2617 6.3891 0.8699
4.6205 6.7595 0.8606
8.1202 14.5070 1.7474
6.7462 15.0669 1.7351
5.3252 15.4630 1.7189
3.9044 15.7938 1.7100
2.6708 17.3154 1.8414
0.4735 7.4206 0.7815
-0.1901 7.4251 0.7807
-2.0287 17.5761 1.8596
-3.5883 17.3251 1.8596
-5.1194 16.9360 1.8596
-6.2335 15.4781 1.7538
-7.3991 14.4880 1.7098
-8.6755 13.7919 1.7125
-9.8711 12.9632 1.7125
-10.9839 12.0264 1.7119
-12.0021 10.9889 1.7103
-12.9291 9.8705 1.7096
-13.7566 8.6771 1.7095
-8.5602 4.3851 1.0109
-15.0755 6.0930 1.7090
-15.5569 4.7235 1.7088
-15.9142 3.3167 1.7086
-16.1448 1.8837 1.7084
-16.2467 0.4361 1.7082
-16.2191 -1.0147 1.7080
-16.0624 -2.4571 1.7079
-15.7775 -3.8796 1.7077
-15.3668 -5.2708 1.7075
-14.8337 -6.6197 1.7073
-8.6340 -4.8188 1.0392
-13.4207 -9.1496 1.7072
-13.6716 -11.2306 1.8596
-12.6153 -12.4053 1.8596
-11.4585 -13.4811 1.8596
-10.2104 -14.4495 1.8596
-8.8809 -15.3025 1.8596
-7.4892 -16.0522 1.8617
-6.0386 -16.6869 1.8652
-4.5348 -17.1920 1.8687
-2.9940 -17.5913 1.8755
-1.4187 -17.8599 1.8831
0.1805 -17.9600 1.8878
1.7853 -17.9087 1.8916
3.3822 -17.7127 1.8953
4.9578 -17.3726 1.8988
6.5119 -16.9242 1.9059
8.0514 -16.3895 1.9192
9.5625 -15.7399 1.9357
11.0178 -14.9455 1.9515
12.3968 -14.0046 1.9658
13.6727 -12.9151 1.9768
14.8372 -11.6969 1.9858
9.6625 -6.3069 1.2128
15.3939 -8.1904 1.8327
16.1508 -6.8217 1.8427
16.7747 -5.3796 1.8515
17.2525 -3.8764 1.8585
4.7760 -0.6327 0.5064
4.7545 -0.2017 0.5002
17.7015 0.8313 1.8626
17.4960 2.3986 1.8561
17.1430 3.9337 1.8486
16.6479 5.4224 1.8402
16.0171 6.8512 1.8310
15.2585 8.2076 1.8210
14.3813 9.4803 1.8104
13.3955 10.6593 1.7993
12.3117 11.7357 1.7877
11.1414 12.7022 1.7759
4.8022 6.5765 0.8559
8.5882 14.2820 1.7516
7.2295 14.8871 1.7394
4.9732 13.1025 1.4730
4.3969 15.6768 1.7113
2.9746 15.9710 1.7075
1.6751 17.6133 1.8596
0.0409 7.4235 0.7803
-0.6240 7.4280 0.7835
-3.0478 17.4283 1.8596
-4.5902 17.0870 1.8596
-6.0960 16.6094 1.8596
-6.9400 14.7005 1.7086
-8.2403 14.0514 1.7121
-9.4632 13.2638 1.7125
-10.6081 12.3662 1.7124
-11.6581 11.3603 1.7109
-12.6163 10.2681 1.7097
-13.4806 9.1010 1.7095
-14.2372 7.8614 1.7094
-14.8795 6.5591 1.7091
-15.4031 5.2050 1.7089
-15.8041 3.8101 1.7087
-16.0790 2.3849 1.7085
-16.2259 0.9411 1.7083
-16.2434 -0.5099 1.7081
-16.1315 -1.9565 1.7079
-15.8912 -3.3873 1.7077
-15.5239 -4.7906 1.7075
-15.0330 -6.1555 1.7074
-14.4227 -7.4711 1.7072
-13.6988 -8.7278 1.7072
-14.0142 -10.8000 1.8596
-12.9950 -12.0070 1.8596
-11.8722 -13.1183 1.8596
-10.6548 -14.1249 1.8596
-9.3524 -15.0190 1.8596
-7.9797 -15.8017 1.8606
-6.5503 -16.4804 1.8640
-5.0638 -17.0312 1.8675
-3.5340 -17.4620 1.8725
-1.9715 -17.7897 1.8812
-0.3778 -17.9439 1.8864
1.2267 -17.9430 1.8903
2.8279 -17.7973 1.8940
4.4125 -17.5073 1.8976
5.9680 -17.0769 1.9013
7.5148 -16.5813 1.9134
9.0418 -15.9827 1.9300
10.5183 -15.2383 1.9461
11.9289 -14.3517 1.9614
8.1656 -8.2083 1.2169
14.4454 -12.1349 1.9829
9.3441 -6.5222 1.1977
15.1020 -8.6481 1.8291
15.9007 -7.3068 1.8392
16.5736 -5.8895 1.8487
15.7898 -4.8563 1.8392
16.2150 -3.4402 1.8455
4.7361 -0.5698 0.5311
4.8409 -0.1474 0.5392
16.6162 0.9796 1.8532
16.4142 2.4506 1.8478
16.0681 3.8899 1.8406
15.5892 5.2846 1.8327
14.9838 6.6222 1.8239
14.2591 7.8912 1.8145
13.4238 9.0812 1.8044
12.4870 10.1826 1.7939
11.4588 11.1873 1.7830
5.6295 6.5752 0.9637
4.7670 6.6950 0.9150
7.9335 13.5577 1.7489
6.6319 14.0825 1.7331
5.3080 14.5049 1.7197
3.9710 14.8380 1.7101
2.6906 15.4723 1.7485
0.8476 10.2058 1.1402
-0.0479 7.4245 0.8266
-0.7137 7.4290 0.8309
-3.0737 16.4172 1.8596
-4.5259 16.0776 1.8596
-5.9419 15.6098 1.8596
-6.7147 13.7935 1.7080
-7.9333 13.1646 1.7113
-9.0826 12.4138 1.7125
-10.1536 11.5539 1.7125
-11.1382 10.5970 1.7117
-12.0296 9.5537 1.7103
-12.8271 8.4383 1.7094
-8.5503 4.5888 1.0804
-14.1195 6.0236 1.7091
-14.5989 4.7397 1.7089
-14.9619 3.4183 1.7087
-15.2054 2.0699 1.7085
-15.3277 0.7053 1.7083
-15.3277 -0.6647 1.7081
-15.2056 -2.0290 1.7079
-14.9623 -3.3768 1.7078
-14.5999 -4.6974 1.7076
-14.1213 -5.9804 1.7074
-12.4008 -6.6130 1.5647
-12.8325 -8.3933 1.7072
-13.1069 -10.3529 1.8596
-12.1312 -11.4808 1.8596
-11.0588 -12.5171 1.8596
-9.8982 -13.4536 1.8596
-8.6587 -14.2828 1.8596
-7.3603 -15.0188 1.8621
-6.0017 -15.6424 1.8654
-4.5911 -16.1454 1.8688
-3.1457 -16.5596 1.8767
-1.6611 -16.8240 1.8822
-0.1541 -16.9397 1.8861
1.3601 -16.9186 1.8897
2.8691 -16.7610 1.8933
4.3604 -16.4675 1.8966
5.8228 -16.0429 1.9002
7.2730 -15.5505 1.9113
8.6873 -14.9363 1.9238
10.0526 -14.1974 1.9368
11.3509 -13.3288 1.9492
8.2947 -8.1411 1.2940
13.6744 -11.2112 1.9687
9.4860 -6.4539 1.2774
14.2956 -7.9609 1.8218
15.0006 -6.6771 1.8281
15.6091 -5.3374 1.8367
16.0829 -3.9385 1.8435
4.7893 -0.7280 0.5394
4.7289 -0.2913 0.5275
5.1007 0.1418 0.5681
16.5026 1.9414 1.8500
16.2040 3.3931 1.8432
15.7707 4.8048 1.8355
15.2085 6.1636 1.8270
14.5245 7.4578 1.8178
13.7266 8.6764 1.8080
12.8241 9.8096 1.7976
11.8265 10.8489 1.7868
10.7445 11.7867 1.7757
4.9608 6.5276 0.9128
4.6670 7.4351 0.9774
7.0901 13.9156 1.7388
5.3741 13.3808 1.6054
4.4336 14.7179 1.7114
3.0967 15.0234 1.7078
1.8993 16.5941 1.8596
0.1830 7.4229 0.8267
-0.4810 7.4274 0.8287
-2.5618 16.5048 1.8596
-4.0237 16.2105 1.8596
-5.4536 15.7870 1.8596
-6.2795 13.9889 1.7072
-7.5152 13.3962 1.7102
-8.6922 12.6900 1.7125
-9.7895 11.8640 1.7125
-10.8064 10.9414 1.7122
-11.7298 9.9258 1.7108
-12.5592 8.8336 1.7095
-13.2955 7.6772 1.7093
-13.9259 6.4600 1.7092
-14.4450 5.1916 1.7090
-14.8489 3.8820 1.7088
-15.1343 2.5418 1.7086
-15.2989 1.1816 1.7084
-15.3416 -0.1877 1.7082
-15.2620 -1.5552 1.7080
-15.0607 -2.9100 1.7078
-14.7395 -4.2413 1.7076
-14.3009 -5.5385 1.7074
-13.7541 -6.7941 1.7080
-8.4882 -5.1823 1.1073
-12.3224 -9.1257 1.7072
-12.4823 -11.0980 1.8596
-11.4426 -12.1671 1.8596
-10.3118 -13.1393 1.8596
-9.0987 -14.0067 1.8596
-7.8192 -14.7740 1.8611
-6.4812 -15.4388 1.8642
-5.0873 -15.9837 1.8675
-3.6537 -16.4294 1.8739
-2.1814 -16.7487 1.8805
-0.6803 -16.9151 1.8848
0.8328 -16.9414 1.8885
2.3450 -16.8314 1.8920
3.8439 -16.5850 1.8955
5.3170 -16.2037 1.8987
6.7734 -15.7399 1.9078
8.1998 -15.1644 1.9194
9.5830 -14.4681 1.9321
10.9078 -13.6464 1.9451
8.0560 -8.4144 1.2970
9.3088 -8.1289 1.3760
9.3077 -6.7653 1.2811
14.0222 -8.3903 1.8193
14.7662 -7.1309 1.8257
15.4121 -5.8113 1.8339
15.9337 -4.4314 1.8413
4.9694 -0.9143 0.5626
4.7153 -0.4380 0.5272
4.9238 -0.0163 0.5482
16.5742 1.4289 1.8522
16.3235 2.8915 1.8457
15.9365 4.3186 1.8383
15.4185 5.6972 1.8301
14.7760 7.0152 1.8211
14.0168 8.2613 1.8115
13.1496 9.4253 1.8013
12.1840 10.4982 1.7906
11.1302 11.4721 1.7796
5.2478 6.4768 0.9281
4.6447 6.9124 0.9272
7.5441 13.7333 1.7445
6.2304 14.2178 1.7283
4.8928 14.5840 1.7127
3.5650 14.9307 1.7091
2.4144 16.5270 1.8596
0.4142 7.4214 0.8276
-0.2494 7.4259 0.8272
-2.0473 16.5765 1.8596
-3.5177 16.3278 1.8596
-4.9601 15.9490 1.8596
-6.2210 15.0986 1.8181
-7.0903 13.6144 1.7090
-8.2920 12.9520 1.7122
-9.4158 12.1628 1.7125
-10.4632 11.2747 1.7125
-11.4186 10.2886 1.7112
-12.2815 9.2221 1.7100
-13.0508 8.0872 1.7094
-8.5533 4.2959 1.0657
-14.2772 5.6385 1.7090
-14.7216 4.3420 1.7089
-15.0485 3.0113 1.7087
-15.2554 1.6568 1.7085
-15.3406 0.2894 1.7083
-15.3036 -1.0799 1.7081
-15.1445 -2.4404 1.7079
-14.8648 -3.7811 1.7077
-14.4667 -5.0913 1.7075
-13.9561 -6.3620 1.7077
-8.5327 -4.8519 1.0928
-12.6002 -8.7382 1.7072
-12.8214 -10.7045 1.8596
-11.8154 -11.8054 1.8596
-10.7153 -12.8123 1.8596
-9.5298 -13.7170 1.8596
-8.2701 -14.5154 1.8600
-6.9540 -15.2207 1.8631
-5.5784 -15.8079 1.8664
-4.1568 -16.2841 1.8712
-2.6987 -16.6575 1.8788
-1.2051 -16.8740 1.8835
0.3054 -16.9477 1.8872
1.8193 -16.8852 1.8908
3.3243 -16.6862 1.8943
4.8078 -16.3517 1.8976
6.2686 -15.9120 1.9041
7.7064 -15.3763 1.9149
9.1069 -14.7242 1.9276
10.4549 -13.9479 1.9407
11.7286 -13.0390 1.9526
12.9112 -12.0025 1.9627
13.9937 -10.8521 1.9716
9.8496 -6.3176 1.3028
14.5224 -7.5788 1.8238
15.1991 -6.2775 1.8309
15.7675 -4.9183 1.8389
16.1990 -3.5043 1.8453
4.7428 -0.5898 0.5321
4.8338 -0.1664 0.5385
16.6200 0.9133 1.8532
16.4265 2.3855 1.8481
16.0864 3.8265 1.8410
15.6133 5.2235 1.8330
15.0134 6.5639 1.8243
14.2939 7.8362 1.8149
13.4633 9.0299 1.8049
12.5308 10.1354 1.7944
11.5065 11.1446 1.7835
10.4009 12.0504 1.7723
4.7897 6.6703 0.9143
7.9898 13.5300 1.7494
6.6909 14.0620 1.7338
4.8662 13.1352 1.5596
4.0304 14.8234 1.7103
2.7019 15.1781 1.7164
0.8914 10.2377 1.1441
-0.0183 7.4243 0.8266
-0.6838 7.4288 0.8306
-3.0083 16.4293 1.8596
-4.4617 16.0955 1.8596
-5.8796 15.6334 1.8596
-6.6591 13.8190 1.7079
-7.8801 13.1951 1.7111
-9.0330 12.4498 1.7125
-10.1075 11.5943 1.7125
-11.0963 10.6417 1.7117
-11.9918 9.6019 1.7104
-12.7934 8.4894 1.7095
-8.5736 4.6454 1.0857
-14.0955 6.0799 1.7091
-14.5800 4.7979 1.7089
-14.9482 3.4779 1.7087
-15.1971 2.1305 1.7085
-15.3248 0.7663 1.7083
-15.3303 -0.6036 1.7081
-15.2137 -1.9683 1.7080
-14.9758 -3.3172 1.7078
-14.6186 -4.6392 1.7076
-14.1450 -5.9240 1.7074
-13.5671 -7.1657 1.7083
-12.8659 -8.3421 1.7072
-12.0705 -9.4564 1.7072
-12.1768 -11.4323 1.8596
-11.1086 -12.4729 1.8596
-9.9517 -13.4140 1.8596
-8.7156 -14.2482 1.8596
-7.4195 -14.9882 1.8620
-6.0635 -15.6171 1.8652
-4.6545 -16.1241 1.8685
-3.2111 -16.5437 1.8763
-1.7279 -16.8152 1.8820
-0.2216 -16.9375 1.8859
1.2926 -16.9225 1.8896
2.8021 -16.7710 1.8931
4.2944 -16.4835 1.8965
5.7572 -16.0616 1.8996
7.2093 -15.5757 1.9109
8.6252 -14.9664 1.9232
9.9929 -14.2331 1.9362
11.2947 -13.3704 1.9487
8.2293 -8.1416 1.2888
13.6266 -11.2631 1.9683
9.4523 -6.4863 1.2763
14.2613 -8.0165 1.8215
14.9704 -6.7353 1.8277
15.5848 -5.3985 1.8363
16.0647 -4.0020 1.8433
4.7963 -0.7486 0.5405
4.7272 -0.3101 0.5274
5.0823 0.1210 0.5660
16.5128 1.8758 1.8503
16.2202 3.3290 1.8435
15.7928 4.7428 1.8359
15.2363 6.1043 1.8274
14.5575 7.4016 1.8182
13.7646 8.6238 1.8084
12.8664 9.7610 1.7981
11.8729 10.8046 1.7873
10.7944 11.7471 1.7762
4.9970 6.5211 0.9147
4.6256 7.3043 0.9626
7.1485 13.8931 1.7396
5.4235 13.3497 1.6043
4.4927 14.7015 1.7115
3.1569 15.0123 1.7080
1.9655 16.5864 1.8596
0.2126 7.4227 0.8268
-0.4513 7.4272 0.8284
-2.4959 16.5149 1.8596
-3.9591 16.2264 1.8596
-5.3907 15.8086 1.8596
-6.2463 14.0647 1.7134
-7.4611 13.4249 1.7100
-8.6416 12.7246 1.7125
-9.7421 11.9030 1.7125
-10.7631 10.9848 1.7122
-11.6905 9.9728 1.7108
-12.5243 8.8838 1.7096
-13.2649 7.7302 1.7093
-13.9001 6.5155 1.7092
-14.4243 5.2491 1.7090
-14.8334 3.9412 1.7088
-15.1241 2.6021 1.7086
-15.2942 1.2426 1.7084
-15.3423 -0.1266 1.7082
-15.2681 -1.4944 1.7080
-15.0723 -2.8500 1.7078
-14.7563 -4.1825 1.7076
-14.3229 -5.4815 1.7075
-13.7807 -6.7391 1.7079
-8.5088 -5.1484 1.1073
-12.3587 -9.0765 1.7072
-12.5264 -11.0482 1.8596
-11.4910 -12.1214 1.8596
-10.3640 -13.0981 1.8596
-9.1544 -13.9703 1.8596
-7.8774 -14.7417 1.8609
-6.5422 -15.4117 1.8641
-5.1506 -15.9620 1.8674
-3.7185 -16.4116 1.8735
-2.2479 -16.7379 1.8803
-0.7477 -16.9107 1.8846
0.7652 -16.9432 1.8883
2.2777 -16.8392 1.8919
3.7775 -16.5989 1.8953
5.2520 -16.2236 1.8986
6.7090 -15.7629 1.9073
8.1369 -15.1925 1.9188
9.5222 -14.5015 1.9315
10.8503 -13.6859 1.9445
8.0550 -8.4808 1.3022
9.2352 -8.1297 1.3698
9.2960 -6.8136 1.2832
13.9862 -8.4446 1.8190
14.7359 -7.1889 1.8255
15.3857 -5.8715 1.8335
15.9133 -4.4942 1.8410
5.0286 -0.9459 0.5697
4.7135 -0.4568 0.5272
4.9001 -0.0358 0.5456
16.5822 1.3630 1.8524
16.3376 2.8268 1.8460
15.9566 4.2558 1.8387
15.4443 5.6369 1.8305
14.8072 6.9579 1.8215
14.0531 8.2074 1.8119
13.1905 9.3752 1.8017
12.2291 10.4523 1.7911
11.1789 11.4308 1.7801
5.2855 6.4704 0.9302
4.6504 6.8617 0.9229
7.6019 13.7088 1.7453
6.2891 14.1974 1.7288
4.9568 14.5818 1.7147
3.6248 14.9178 1.7092
2.4803 16.5173 1.8596
0.4438 7.4212 0.8277
-0.2197 7.4257 0.8271
-1.9812 16.5845 1.8596
-3.4526 16.3417 1.8596
-4.8965 15.9686 1.8596
-6.2181 15.2640 1.8350
-7.0354 13.6414 1.7089
-8.2396 12.9838 1.7121
-9.3672 12.2003 1.7125
-10.4181 11.3160 1.7125
-11.3779 10.3344 1.7113
-12.2450 9.2712 1.7100
-13.0185 8.1392 1.7094
-8.5529 4.3384 1.0678
-14.2546 5.6953 1.7090
-14.7042 4.4007 1.7089
-15.0365 3.0712 1.7087
-15.2488 1.7176 1.7085
-15.3394 0.3506 1.7083
-15.3078 -1.0189 1.7081
-15.1542 -2.3800 1.7079
-14.8798 -3.7218 1.7077
-14.4869 -5.0337 1.7075
-13.9810 -6.3062 1.7076
-8.5820 -4.8347 1.0967
-12.6349 -8.6879 1.7072
-12.8639 -10.6533 1.8596
-11.8624 -11.7582 1.8596
-10.7663 -12.7695 1.8596
-9.5844 -13.6789 1.8596
-8.3273 -14.4813 1.8599
-7.0140 -15.1917 1.8630
-5.6409 -15.7843 1.8662
-4.2209 -16.2644 1.8708
-2.7647 -16.6447 1.8785
-1.2723 -16.8676 1.8833
0.2378 -16.9473 1.8870
1.7519 -16.8909 1.8907
3.2575 -16.6980 1.8941
4.7422 -16.3695 1.8975
6.2034 -15.9328 1.9036
7.6427 -15.4022 1.9143
9.0456 -14.7562 1.9270
10.3962 -13.9854 1.9402
11.6736 -13.0823 1.9521
12.8606 -12.0513 1.9623
13.9474 -10.9055 1.9712
9.7848 -6.3312 1.2976
14.4897 -7.6354 1.8235
15.1706 -6.3367 1.8305
15.7450 -4.9802 1.8386
16.1828 -3.5684 1.8450
4.7496 -0.6099 0.5331
4.7380 -0.1820 0.5279
16.6236 0.8471 1.8532
16.4385 2.3204 1.8483
16.1045 3.7630 1.8413
15.6372 5.1622 1.8334
15.0428 6.5054 1.8247
14.3284 7.7810 1.8153
13.5026 8.9784 1.8053
12.5745 10.0881 1.7949
11.5540 11.1018 1.7840
10.4518 12.0123 1.7728
4.8122 6.6457 0.9135
8.0461 13.5020 1.7499
6.7498 14.0412 1.7345
4.9042 13.0774 1.5550
4.0899 14.8086 1.7105
2.7474 15.0855 1.7072
0.9370 10.2869 1.1500
0.0113 7.4241 0.8266
-0.6539 7.4286 0.8303
-2.9428 16.4412 1.8596
-4.3975 16.1131 1.8596
-5.8172 15.6567 1.8596
-6.6033 13.8442 1.7077
-7.8268 13.2253 1.7110
-8.9834 12.4856 1.7125
-10.0612 11.6346 1.7125
-11.0542 10.6862 1.7118
-11.9538 9.6500 1.7104
-12.7596 8.5404 1.7095
-13.4692 7.3675 1.7093
-14.0712 6.1361 1.7091
-14.5608 4.8560 1.7089
-14.9343 3.5374 1.7087
-15.1886 2.1910 1.7085
-15.3217 0.8275 1.7084
-15.3327 -0.5424 1.7082
-15.2215 -1.9077 1.7080
-14.9889 -3.2574 1.7078
-14.6370 -4.5809 1.7076
-14.1685 -5.8676 1.7074
-13.5952 -7.1114 1.7082
-12.8990 -8.2908 1.7072
-12.1081 -9.4083 1.7072
-12.2223 -11.3837 1.8596
-11.1582 -12.4285 1.8596
-10.0051 -13.3742 1.8596
-8.7723 -14.2133 1.8596
-7.4786 -14.9574 1.8619
-6.1252 -15.5916 1.8651
-4.7179 -16.1025 1.8682
-3.2764 -16.5276 1.8759
-1.7947 -16.8062 1.8818
-0.2891 -16.9349 1.8857
1.2250 -16.9260 1.8894
2.7350 -16.7806 1.8929
4.2284 -16.4992 1.8963
5.6928 -16.0833 1.8995
7.1455 -15.6006 1.9104
8.5630 -14.9963 1.9226
9.9330 -14.2684 1.9356
11.2383 -13.4117 1.9481
8.1644 -8.1420 1.2837
13.5786 -11.3149 1.9679
9.4188 -6.5186 1.2753
14.2269 -8.0718 1.8212
14.9400 -6.7933 1.8272
15.5601 -5.4596 1.8360
16.0463 -4.0654 1.8430
4.8027 -0.7692 0.5415
4.7254 -0.3290 0.5274
5.0181 0.0994 0.5588
16.5226 1.8103 1.8506
16.2362 3.2650 1.8439
15.8147 4.6808 1.8363
15.2637 6.0449 1.8278
14.5903 7.3452 1.8187
13.8023 8.5710 1.8089
12.9086 9.7122 1.7986
11.9192 10.7601 1.7878
10.8442 11.7073 1.7767
5.0334 6.5146 0.9166
4.5873 7.1803 0.9486
7.2069 13.8704 1.7403
5.4769 13.3286 1.6044
4.5517 14.6848 1.7117
3.2170 15.0010 1.7081
2.0316 16.5784 1.8596
0.2422 7.4225 0.8268
-0.4215 7.4270 0.8282
-2.4301 16.5247 1.8596
-3.8944 16.2421 1.8596
-5.3276 15.8300 1.8596
-6.2367 14.1955 1.7263
-7.4069 13.4534 1.7099
-8.5908 12.7589 1.7125
-9.6946 11.9418 1.7125
-10.7197 11.0280 1.7123
-11.6511 10.0197 1.7109
-12.4892 8.9340 1.7096
-13.2340 7.7830 1.7093
-8.8955 4.2130 1.0959
-14.4033 5.3066 1.7090
-14.8176 4.0003 1.7088
-15.1137 2.6623 1.7086
-15.2892 1.3035 1.7084
-15.3428 -0.0654 1.7082
-15.2740 -1.4336 1.7080
-15.0836 -2.7899 1.7078
-14.7730 -4.1237 1.7076
-14.3447 -5.4244 1.7075
-13.8071 -6.6839 1.7079
-8.5292 -5.1145 1.1073
-12.3948 -9.0272 1.7072
-12.5703 -10.9982 1.8596
-11.5393 -12.0755 1.8596
-10.4162 -13.0567 1.8596
-9.2101 -13.9337 1.8596
-7.9356 -14.7091 1.8608
-6.6031 -15.3842 1.8639
-5.2137 -15.9401 1.8672
-3.7831 -16.3936 1.8732
-2.3143 -16.7269 1.8800
-0.8150 -16.9061 1.8844
0.6976 -16.9446 1.8881
2.2104 -16.8467 1.8917
3.7110 -16.6125 1.8952
5.1869 -16.2432 1.8984
6.6445 -15.7857 1.9069
8.0739 -15.2203 1.9182
9.4614 -14.5347 1.9309
10.7926 -13.7252 1.9440
12.0442 -12.7825 1.9554
9.1838 -8.1497 1.3670
9.2842 -6.8621 1.2854
13.9499 -8.4987 1.8187
14.7053 -7.2466 1.8252
15.3590 -5.9315 1.8331
15.8927 -4.5568 1.8407
5.1074 -0.9818 0.5790
4.7118 -0.4756 0.5273
4.8767 -0.0550 0.5430
16.5898 1.2971 1.8527
16.3515 2.7622 1.8463
15.9764 4.1930 1.8390
15.4699 5.5765 1.8308
14.8382 6.9004 1.8219
14.0891 8.1533 1.8124
13.2312 9.3250 1.8022
12.2740 10.4063 1.7916
11.2275 11.3894 1.7806
5.3436 6.4887 0.9359
4.6581 6.8144 0.9190
7.6596 13.6841 1.7460
6.3480 14.1776 1.7295
5.0201 14.5769 1.7165
3.6846 14.9046 1.7094
2.5461 16.5072 1.8596
0.4735 7.4210 0.8279
-0.1901 7.4255 0.8270
-1.1872 10.2860 1.1528
-3.3875 16.3553 1.8596
-4.8328 15.9880 1.8596
-6.2152 15.4326 1.8523
-6.9803 13.6681 1.7087
-8.1871 13.0155 1.7120
-9.3185 12.2376 1.7125
-10.3730 11.3575 1.7125
-11.3370 10.3800 1.7114
-12.2083 9.3203 1.7101
-12.9861 8.1910 1.7094
-8.5525 4.3811 1.0699
-14.2319 5.7522 1.7091
-14.6866 4.4593 1.7089
-15.0242 3.1312 1.7087
-15.2419 1.7784 1.7085
-15.3380 0.4117 1.7083
-15.3118 -0.9579 1.7081
-15.1636 -2.3196 1.7079
-14.8946 -3.6625 1.7077
-14.5070 -4.9759 1.7075
-14.0058 -6.2502 1.7076
-8.6338 -4.8187 1.1008
-12.6695 -8.6374 1.7072
-12.9063 -10.6019 1.8596
-11.9092 -11.7109 1.8596
-10.8171 -12.7265 1.8596
-9.6388 -13.6406 1.8596
-8.3843 -14.4469 1.8597
-7.0740 -15.1624 1.8628
-5.7033 -15.7604 1.8661
-4.2849 -16.2445 1.8705
-2.8307 -16.6315 1.8783
-1.3393 -16.8609 1.8831
0.1703 -16.9467 1.8869
1.6844 -16.8963 1.8905
3.1906 -16.7095 1.8940
4.6766 -16.3870 1.8973
6.1383 -15.9532 1.9031
7.5790 -15.4280 1.9138
8.9841 -14.7878 1.9265
10.3374 -14.0226 1.9396
