0.0 -25.05417251586914 -6.96198844909668
7.13404655456543 -25.39865493774414 -7.330835819244385
9.079028129577637 -23.75210952758789 -7.06591272354126
10.810810089111328 -22.02031707763672 -6.816600322723389
11.422513961791992 -18.72903060913086 -6.0959153175354
-2.441406195430318e-06 -25.04729652404785 -6.794156551361084
7.199502944946289 -25.63164520263672 -7.221725940704346
9.079026222229004 -23.752111434936523 -6.897465705871582
9.954663276672363 -20.276445388793945 -6.12713623046875
11.423876762390137 -18.731266021728516 -5.951301097869873
0.0 -25.04439353942871 -6.628018856048584
7.199501991271973 -25.63164710998535 -7.045949459075928
9.079028129577637 -23.75210952758789 -6.729583740234375
10.052935600280762 -20.476619720458984 -6.037017822265625
11.557680130004883 -18.95065689086914 -5.874457836151123
0.0 -25.041500091552734 -6.46246337890625
7.199502944946289 -25.63164520263672 -6.870748043060303
8.442550659179688 -22.08700942993164 -6.102214336395264
10.052935600280762 -20.476619720458984 -5.886904239654541
11.565714836120605 -18.963830947875977 -5.732367038726807
-2.441406195430318e-06 -25.002391815185547 -6.288354396820068
6.6293463706970215 -23.601783752441406 -6.165806770324707
8.44255256652832 -22.087005615234375 -5.947096824645996
10.052937507629395 -20.47661781311035 -5.737260818481445
11.565714836120605 -18.963830947875977 -5.586652755737305
2.441406195430318e-06 -25.00239372253418 -6.124849796295166
6.694794178009033 -23.834787368774414 -6.064777851104736
8.442556381225586 -22.087011337280273 -5.79246711730957
10.052937507629395 -20.47661781311035 -5.588085651397705
11.45264720916748 -18.778438568115234 -5.388200759887695
-3.662109293145477e-06 -25.002391815185547 -5.96183443069458
4.711143493652344 -25.51999855041504 -6.188082218170166
6.694788455963135 -23.83479118347168 -5.903364181518555
8.44255256652832 -22.087005615234375 -5.638299465179443
9.95466423034668 -20.27643585205078 -5.386185169219971
11.565714836120605 -18.963830947875977 -5.296570777893066
-3.662109293145477e-06 -25.041128158569336 -5.808286190032959
4.757664680480957 -25.77192497253418 -6.078801155090332
6.694794178009033 -23.834787368774414 -5.742420673370361
8.442554473876953 -22.087013244628906 -5.484583854675293
10.052935600280762 -20.476619720458984 -5.291066646575928
11.565714836120605 -18.963830947875977 -5.152171611785889
-2.441406195430318e-06 -25.04046058654785 -5.645815372467041
4.757664680480957 -25.77192497253418 -5.908920764923096
6.69478702545166 -23.834787368774414 -5.581940650939941
8.442558288574219 -22.08700942993164 -5.331309795379639
10.052932739257812 -20.47661590576172 -5.14320182800293
11.565716743469238 -18.96382713317871 -5.008188247680664
-1.220703097715159e-06 -25.039796829223633 -5.483801364898682
4.757668495178223 -25.771923065185547 -5.739508152008057
6.629341125488281 -23.601789474487305 -5.368901252746582
8.442558288574219 -22.08700942993164 -5.178459167480469
10.052935600280762 -20.476619720458984 -4.9957427978515625
11.565714836120605 -18.963830947875977 -4.8646016120910645
-1.220703097715159e-06 -25.039134979248047 -5.322232723236084
4.757660865783691 -25.771928787231445 -5.570552825927734
6.69478702545166 -23.834787368774414 -5.262298583984375
8.442554473876953 -22.087005615234375 -5.02601957321167
10.052937507629395 -20.47661781311035 -4.848682403564453
11.565714836120605 -18.963830947875977 -4.721400260925293
-3.662109293145477e-06 -25.038471221923828 -5.161096096038818
4.720696926116943 -25.571674346923828 -5.360068321228027
6.694791793823242 -23.834779739379883 -5.10311222076416
8.442556381225586 -22.087003707885742 -4.873981475830078
10.052937507629395 -20.47661781311035 -4.702008247375488
11.45264720916748 -18.778438568115234 -4.533817291259766
-1.220703097715159e-06 -25.037817001342773 -5.0003767013549805
4.757666110992432 -25.771923065185547 -5.233957290649414
6.6947922706604 -23.834789276123047 -4.944328308105469
8.442554473876953 -22.087005615234375 -4.722326755523682
9.95466136932373 -20.276445388793945 -4.51116943359375
11.565714836120605 -18.963830947875977 -4.436113357543945
0.0 -25.03715705871582 -4.840059280395508
4.757664680480957 -25.77192497253418 -5.0662841796875
6.6947922706604 -23.834789276123047 -4.785933494567871
8.36002254486084 -21.8710880279541 -4.5263590812683105
10.052935600280762 -20.476619720458984 -4.40976095199585
11.565714836120605 -18.963830947875977 -4.29400110244751
-1.220703097715159e-06 -25.036502838134766 -4.680135250091553
4.757664680480957 -25.77192497253418 -4.899012565612793
6.6947922706604 -23.834789276123047 -4.627918243408203
8.442554473876953 -22.087005615234375 -4.42012357711792
10.052935600280762 -20.476619720458984 -4.26416540145874
11.565716743469238 -18.96382713317871 -4.152227401733398
-1.220703097715159e-06 -25.03584861755371 -4.520583629608154
4.757660865783691 -25.771928787231445 -4.732124328613281
6.6947922706604 -23.834789276123047 -4.470263957977295
8.44255256652832 -22.087005615234375 -4.269549369812012
10.052937507629395 -20.47661781311035 -4.118902683258057
11.565714836120605 -18.963830947875977 -4.010777950286865
-3.662109293145477e-06 -25.035194396972656 -4.361396789550781
4.711158275604248 -25.51998519897461 -4.520974159240723
6.694790363311768 -23.834789276123047 -4.312961578369141
8.44255256652832 -22.087005615234375 -4.1193084716796875
9.67240047454834 -19.701513290405273 -3.823535919189453
11.170944213867188 -18.31654167175293 -3.7375612258911133
-2.441406195430318e-06 -25.034542083740234 -4.202559947967529
4.757666110992432 -25.771923065185547 -4.399447917938232
6.694790363311768 -23.834789276123047 -4.1559977531433105
8.122981071472168 -21.25094223022461 -3.8191378116607666
9.70980167388916 -19.77769660949707 -3.6986305713653564
11.170944213867188 -18.31654167175293 -3.6015384197235107
-2.441406195430318e-06 -25.033893585205078 -4.044058322906494
4.757664680480957 -25.77192497253418 -4.23362922668457
6.694788455963135 -23.83479118347168 -3.9993550777435303
8.154387474060059 -21.33311653137207 -3.6894032955169678
9.709798812866211 -19.777700424194336 -3.5592262744903564
11.170942306518555 -18.316543579101562 -3.4657936096191406
-2.441406195430318e-06 -25.03324317932129 -3.8858802318573
4.757664680480957 -25.77192497253418 -4.068140506744385
6.466276168823242 -23.021240234375 -3.7118520736694336
8.154388427734375 -21.333114624023438 -3.5451881885528564
9.709803581237793 -19.777694702148438 -3.4200997352600098
11.170944213867188 -18.31654167175293 -3.330320119857788
0.0 -25.03260040283203 -3.7280142307281494
4.580882549285889 -24.814294815063477 -3.757946491241455
6.466278076171875 -23.021240234375 -3.5611484050750732
8.154388427734375 -21.333114624023438 -3.4012508392333984
9.70980167388916 -19.777690887451172 -3.281242847442627
11.170944213867188 -18.31654167175293 -3.1951069831848145
-1.220703097715159e-06 -25.031951904296875 -3.5704426765441895
4.595276355743408 -24.892257690429688 -3.6105098724365234
6.466280460357666 -23.021242141723633 -3.4107179641723633
8.154390335083008 -21.333112716674805 -3.2575759887695312
9.70980167388916 -19.77769660949707 -3.1426358222961426
11.12790584564209 -18.245996475219727 -3.0483510494232178
0.0 -25.031307220458984 -3.4131593704223633
2.472684383392334 -27.014862060546875 -3.6990272998809814
4.59527587890625 -24.892250061035156 -3.451551675796509
6.466283798217773 -23.021240234375 -3.260554313659668
8.154388427734375 -21.333114624023438 -3.114154815673828
9.70723819732666 -19.772457122802734 -3.003481149673462
11.170944213867188 -18.31654167175293 -2.9254109859466553
-3.662109293145477e-06 -25.030664443969727 -3.2561416625976562
2.472684383392334 -27.014862060546875 -3.528949737548828
4.595272541046143 -24.892255783081055 -3.2928566932678223
6.466279983520508 -23.021236419677734 -3.1106374263763428
8.154385566711426 -21.333120346069336 -2.9709689617156982
9.70980167388916 -19.77769660949707 -2.8661422729492188
11.170944213867188 -18.31654167175293 -2.7909035682678223
2.441406195430318e-06 -25.03002166748047 -3.099391222000122
2.4726805686950684 -27.01486587524414 -3.359151840209961
4.595274448394775 -24.89225196838379 -3.1344141960144043
6.466278076171875 -23.021240234375 -2.9609694480895996
8.154388427734375 -21.333114624023438 -2.8280184268951416
9.709803581237793 -19.777694702148438 -2.7282350063323975
11.170944213867188 -18.31654167175293 -2.656616449356079
-3.662109293145477e-06 -25.029376983642578 -2.942883014678955
2.4726829528808594 -27.014862060546875 -3.189608335494995
4.595274448394775 -24.89225196838379 -2.9762141704559326
6.466282367706299 -23.021240234375 -2.811521291732788
8.154388427734375 -21.333114624023438 -2.6852834224700928
9.709803581237793 -19.777694702148438 -2.590536117553711
11.17094612121582 -18.316539764404297 -2.5225319862365723
-3.662109293145477e-06 -25.02873420715332 -2.7866127490997314
2.463153123855591 -26.910804748535156 -3.008680582046509
4.59527587890625 -24.892250061035156 -2.8182473182678223
6.466276168823242 -23.021240234375 -2.66229510307312
8.154387474060059 -21.33311653137207 -2.542757272720337
9.70980167388916 -19.77769660949707 -2.4530386924743652
11.170944213867188 -18.31654167175293 -2.388641834259033
-1.220703097715159e-06 -25.028100967407227 -2.6305623054504395
2.4726805686950684 -27.01486587524414 -2.8512489795684814
4.595276355743408 -24.892257690429688 -2.660492181777954
6.466280460357666 -23.021242141723633 -2.5132696628570557
8.154388427734375 -21.333114624023438 -2.400423288345337
9.709805488586426 -19.777692794799805 -2.3157272338867188
11.170944213867188 -18.31654167175293 -2.2549376487731934
2.441406195430318e-06 -25.0274600982666 -2.4747214317321777
2.4726829528808594 -27.014862060546875 -2.6824026107788086
4.595276355743408 -24.892257690429688 -2.5029420852661133
6.466282367706299 -23.021240234375 -2.3644375801086426
8.154390335083008 -21.333112716674805 -2.2582738399505615
9.67240047454834 -19.701513290405273 -2.170201301574707
11.17094612121582 -18.316539764404297 -2.121403694152832
-1.220703097715159e-06 -25.02682113647461 -2.319080114364624
2.4726829528808594 -27.014862060546875 -2.5137648582458496
4.595272541046143 -24.892255783081055 -2.3455865383148193
6.466276168823242 -23.021240234375 -2.215790271759033
8.154387474060059 -21.33311653137207 -2.1163008213043213
9.709803581237793 -19.777694702148438 -2.0416293144226074
11.17094612121582 -18.316539764404297 -1.9880346059799194
4.882812390860636e-06 -25.026185989379883 -2.1636204719543457
2.4726805686950684 -27.01486587524414 -2.345313787460327
4.577576160430908 -24.796371459960938 -2.179975748062134
6.466278076171875 -23.021240234375 -2.0673062801361084
8.154388427734375 -21.333114624023438 -1.9744845628738403
9.709803581237793 -19.777694702148438 -1.9048162698745728
11.17094612121582 -18.316539764404297 -1.854813814163208
-2.441406195430318e-06 -25.02554702758789 -2.008338689804077
2.463153123855591 -26.910804748535156 -2.1686618328094482
4.595274448394775 -24.89225196838379 -2.0313966274261475
6.466278076171875 -23.021240234375 -1.9189858436584473
8.154388427734375 -21.333114624023438 -1.8328231573104858
9.70980167388916 -19.77769660949707 -1.7681539058685303
11.170944213867188 -18.31654167175293 -1.7217391729354858
-3.662109293145477e-06 -25.02490997314453 -1.8532180786132812
2.4726805686950684 -27.01486587524414 -2.0089473724365234
4.595274448394775 -24.89225196838379 -1.8745430707931519
6.466279983520508 -23.021236419677734 -1.7708120346069336
8.154388427734375 -21.333114624023438 -1.6912996768951416
9.709803581237793 -19.777694702148438 -1.631626844406128
11.170944213867188 -18.31654167175293 -1.5887948274612427
-2.441406195430318e-06 -25.024274826049805 -1.6982439756393433
2.4726829528808594 -27.014862060546875 -1.840997576713562
4.59527587890625 -24.892250061035156 -1.7178289890289307
6.466278553009033 -23.021244049072266 -1.6227703094482422
8.154390335083008 -21.333120346069336 -1.54990816116333
9.709803581237793 -19.777694702148438 -1.49522066116333
11.12791633605957 -18.24598503112793 -1.450362205505371
1.220703097715159e-06 -25.02364158630371 -1.5434054136276245
2.4726829528808594 -27.014862060546875 -1.6731847524642944
4.595272541046143 -24.892255783081055 -1.5612472295761108
6.466281414031982 -23.0212345123291 -1.4748501777648926
8.122980117797852 -21.250944137573242 -1.4032033681869507
9.67240047454834 -19.701513290405273 -1.353692650794983
11.127918243408203 -18.245990753173828 -1.3181569576263428
-3.662109293145477e-06 -25.023006439208984 -1.388694167137146
2.4726805686950684 -27.01486587524414 -1.5055031776428223
4.577576160430908 -24.796371459960938 -1.399369478225708
6.441370010375977 -22.932567596435547 -1.3219332695007324
8.122980117797852 -21.250944137573242 -1.2625781297683716
9.67240047454834 -19.701513290405273 -1.2180291414260864
11.127914428710938 -18.245986938476562 -1.186055302619934
-3.662109293145477e-06 -25.02237319946289 -1.2340999841690063
2.463155508041382 -26.910804748535156 -1.3327853679656982
4.577572345733643 -24.796377182006836 -1.2436184883117676
6.441370010375977 -22.932567596435547 -1.1748006343841553
8.122980117797852 -21.250944137573242 -1.1220519542694092
9.67240047454834 -19.701513290405273 -1.0824614763259888
11.127914428710938 -18.245986938476562 -1.0540462732315063
-2.441406195430318e-06 -25.021739959716797 -1.0796068906784058
2.463153123855591 -26.910804748535156 -1.1659682989120483
4.577570915222168 -24.796377182006836 -1.0879614353179932
6.441370010375977 -22.932567596435547 -1.0277575254440308
8.122980117797852 -21.250944137573242 -0.9816110134124756
9.67240047454834 -19.701513290405273 -0.9469757080078125
11.127914428710938 -18.245986938476562 -0.9221166968345642
2.441406195430318e-06 -25.021108627319336 -0.9251989722251892
2.463153123855591 -26.910804748535156 -0.9992333650588989
4.577574253082275 -24.79637336730957 -0.9323806762695312
6.441370010375977 -22.932567596435547 -0.8807870149612427
8.122978210449219 -21.250946044921875 -0.8412396311759949
9.67240047454834 -19.701513290405273 -0.8115569949150085
11.127914428710938 -18.245986938476562 -0.7902535796165466
-3.662109293145477e-06 -25.02047348022461 -0.7708737254142761
2.4631543159484863 -26.910804748535156 -0.8325808644294739
4.577572345733643 -24.796377182006836 -0.7768771052360535
6.441370010375977 -22.932567596435547 -0.7338882088661194
8.122980117797852 -21.250944137573242 -0.700937807559967
9.672398567199707 -19.701515197753906 -0.6762050986289978
11.127918243408203 -18.245990753173828 -0.6584545969963074
-2.441406195430318e-06 -25.019840240478516 -0.6166128516197205
2.463155508041382 -26.910804748535156 -0.6659878492355347
4.577577590942383 -24.796371459960938 -0.6214315891265869
6.441371917724609 -22.932565689086914 -0.5870434641838074
8.122978210449219 -21.250946044921875 -0.5606850981712341
9.67240047454834 -19.701513290405273 -0.5409020781517029
11.12791919708252 -18.245988845825195 -0.526702880859375
-3.662109293145477e-06 -25.019208908081055 -0.46240630745887756
2.4631481170654297 -26.910810470581055 -0.4994460940361023
4.577574253082275 -24.79637336730957 -0.4660314917564392
6.441373825073242 -22.93256378173828 -0.4402429163455963
8.122978210449219 -21.250946044921875 -0.4204760789871216
9.67240047454834 -19.701513290405273 -0.40564024448394775
11.127918243408203 -18.245990753173828 -0.3949914574623108
-1.220703097715159e-06 -25.018579483032227 -0.30824553966522217
2.463155508041382 -26.910804748535156 -0.3329452574253082
4.577576160430908 -24.796371459960938 -0.3106704652309418
6.441370010375977 -22.932567596435547 -0.29347869753837585
8.122980117797852 -21.250944137573242 -0.2803015112876892
9.67240047454834 -19.701513290405273 -0.2704113721847534
11.127918243408203 -18.245990753173828 -0.2633126676082611
-3.662109293145477e-06 -25.0179443359375 -0.15411284565925598
2.463153123855591 -26.910804748535156 -0.16646605730056763
4.577574253082275 -24.79637336730957 -0.1553291231393814
6.441371917724609 -22.932565689086914 -0.14673355221748352
8.122978210449219 -21.250946044921875 -0.140145406126976
9.67240047454834 -19.701513290405273 -0.1352003514766693
11.127918243408203 -18.245990753173828 -0.1316511482000351
-1.220703097715159e-06 -25.01731300354004 -2.899169885495212e-06
2.463151693344116 -26.91080665588379 -3.5095213206659537e-06
4.577574253082275 -24.79637336730957 -3.204345603080583e-06
6.441371917724609 -22.932565689086914 -2.899169885495212e-06
8.122978210449219 -21.250946044921875 -2.7465819130156888e-06
9.67240047454834 -19.701513290405273 -2.593994167909841e-06
11.127918243408203 -18.245990753173828 -2.7465819130156888e-06
-2.441406195430318e-06 -25.016679763793945 0.1541021764278412
2.463153123855591 -26.910804748535156 0.16646285355091095
4.724859714508057 -25.594202041625977 0.1603236347436905
6.648621082305908 -23.670421600341797 0.15145201981067657
8.3843355178833 -21.934694290161133 0.14465178549289703
9.983609199523926 -20.33540916442871 0.13954788446426392
11.127918243408203 -18.245990753173828 0.13165146112442017
-1.220703097715159e-06 -25.016048431396484 0.3082086145877838
2.463151693344116 -26.91080665588379 0.33293837308883667
4.724856853485107 -25.59419822692871 0.3206596374511719
6.648619174957275 -23.67042350769043 0.30291548371315
8.384333610534668 -21.934696197509766 0.2893144190311432
9.983609199523926 -20.33540916442871 0.2791064381599426
11.127918243408203 -18.245990753173828 0.2633081078529358
-2.441406195430318e-06 -25.01541519165039 0.46233320236206055
2.4631481170654297 -26.910810470581055 0.49944257736206055
4.724858283996582 -25.594196319580078 0.4810231029987335
6.648621082305908 -23.670421600341797 0.45440474152565
8.384333610534668 -21.934696197509766 0.4340020716190338
9.983609199523926 -20.33540916442871 0.41868865489959717
11.127918243408203 -18.245990753173828 0.39499160647392273
-1.220703097715159e-06 -25.01478385925293 0.6164851188659668
2.463155508041382 -26.910804748535156 0.6659846305847168
4.724858283996582 -25.594196319580078 0.6414228677749634
6.648621082305908 -23.670421600341797 0.6059286594390869
8.384337425231934 -21.9346923828125 0.578722357749939
9.983609199523926 -20.33540916442871 0.5583027601242065
11.127918243408203 -18.245990753173828 0.5266998410224915
-2.441406195430318e-06 -25.01415252685547 0.7706762552261353
2.463153123855591 -26.910804748535156 0.8325770497322083
4.724856853485107 -25.59419822692871 0.8018714785575867
6.648621082305908 -23.670421600341797 0.7574986219406128
8.384337425231934 -21.9346923828125 0.7234867811203003
9.983609199523926 -20.33540916442871 0.6979594230651855
11.127918243408203 -18.245990753173828 0.6584511995315552
3.662109293145477e-06 -25.013525009155273 0.9249151349067688
2.4631543159484863 -26.910804748535156 0.9992298483848572
4.724858283996582 -25.594196319580078 0.9623777270317078
6.648621082305908 -23.670421600341797 0.9091230630874634
8.384333610534668 -21.934696197509766 0.8683035373687744
9.983610153198242 -20.33540916442871 0.8376659750938416
11.127918243408203 -18.245990753173828 0.7902502417564392
-2.441406195430318e-06 -25.01288604736328 1.0792162418365479
2.4631543159484863 -26.910804748535156 1.165958285331726
4.724854469299316 -25.59419822692871 1.1229572296142578
6.648621082305908 -23.670421600341797 1.0608166456222534
8.3843355178833 -21.934694290161133 1.0131858587265015
9.983610153198242 -20.33540916442871 0.9774366617202759
11.127918243408203 -18.245990753173828 0.9221091866493225
-3.662109293145477e-06 -25.01225471496582 1.2335976362228394
2.463155508041382 -26.910804748535156 1.3327789306640625
4.724856853485107 -25.59420394897461 1.2836287021636963
6.648621082305908 -23.670421600341797 1.2125967741012573
8.3843355178833 -21.934694290161133 1.1581507921218872
9.983609199523926 -20.33540916442871 1.1172866821289062
11.127918243408203 -18.245990753173828 1.0540430545806885
-3.662109293145477e-06 -25.011621475219727 1.388059377670288
2.4631543159484863 -26.910804748535156 1.499697208404541
4.724858283996582 -25.594196319580078 1.4443906545639038
6.648619174957275 -23.67042350769043 1.364463448524475
8.3843355178833 -21.934694290161133 1.3031985759735107
9.983610153198242 -20.33540916442871 1.2572168111801147
11.127918243408203 -18.245990753173828 1.1860524415969849
1.220703097715159e-06 -24.915966033935547 1.5367608070373535
2.463155508041382 -26.910804748535156 1.66673743724823
4.724854469299316 -25.59419822692871 1.6052666902542114
6.648624897003174 -23.670419692993164 1.5164366960525513
8.384337425231934 -21.9346923828125 1.4483481645584106
9.983610153198242 -20.33540916442871 1.3972448110580444
11.127918243408203 -18.245990753173828 1.3181536197662354
-1.220703097715159e-06 -24.887699127197266 1.6889680624008179
2.463155508041382 -26.910804748535156 1.8338946104049683
4.724860668182373 -25.59419822692871 1.7662606239318848
6.648622989654541 -23.670419692993164 1.6685220003128052
8.3843355178833 -21.934694290161133 1.5936050415039062
9.983610153198242 -20.33540916442871 1.5373766422271729
11.127918243408203 -18.245990753173828 1.4503542184829712
3.662109293145477e-06 -24.859481811523438 1.8409628868103027
2.463155508041382 -26.910804748535156 2.0012054443359375
4.724854469299316 -25.59419822692871 1.9273971319198608
6.648624897003174 -23.670419692993164 1.8207415342330933
8.384337425231934 -21.9346923828125 1.7389899492263794
9.983610153198242 -20.33540916442871 1.6776314973831177
11.127918243408203 -18.245990753173828 1.582669973373413
-4.882812390860636e-06 -24.83128547668457 1.9927401542663574
2.463151693344116 -26.91080665588379 2.168651580810547
4.724856853485107 -25.59419822692871 2.088670492172241
6.648622989654541 -23.670419692993164 1.9730905294418335
8.384337425231934 -21.9346923828125 1.884498119354248
9.983609199523926 -20.33540916442871 1.8180058002471924
11.127918243408203 -18.245990753173828 1.7150976657867432
2.441406195430318e-06 -24.79522705078125 2.1436495780944824
2.348846435546875 -25.661903381347656 2.227851629257202
4.652302265167236 -25.20113182067871 2.2155566215515137
6.648622989654541 -23.670419692993164 2.1255993843078613
8.384337425231934 -21.9346923828125 2.0301594734191895
9.983609199523926 -20.33540916442871 1.9585273265838623
11.127914428710938 -18.245986938476562 1.8476662635803223
1.220703097715159e-06 -24.079280853271484 2.2312729358673096
2.185864210128784 -23.881250381469727 2.222172737121582
4.3247880935668945 -23.427021026611328 2.207512378692627
6.395151138305664 -22.768014907836914 2.1914114952087402
8.355177879333496 -21.858400344848633 2.1684045791625977
9.983610153198242 -20.33540916442871 2.099196672439575
11.127918243408203 -18.245990753173828 1.9803717136383057
7.324218586290954e-06 -22.509790420532227 2.2257678508758545
2.0410563945770264 -22.299135208129883 2.214158296585083
4.040054798126221 -21.8846435546875 2.200518846511841
5.968149185180664 -21.247772216796875 2.1822850704193115
7.802764892578125 -20.413198471069336 2.160888671875
9.513433456420898 -19.37770652770996 2.1345314979553223
11.084091186523438 -18.174116134643555 2.1049060821533203
8.544921911379788e-06 -21.461551666259766 2.2556941509246826
1.9140619039535522 -20.911706924438477 2.2070915699005127
3.7889158725738525 -20.524269104003906 2.193633794784546
5.594156742095947 -19.916305541992188 2.1742916107177734
7.3186211585998535 -19.146610260009766 2.154387950897217
8.918391227722168 -18.16567039489746 2.126971960067749
10.399832725524902 -17.052167892456055 2.099273920059204
-1.220703097715159e-06 -21.309486389160156 2.37251877784729
1.8026129007339478 -19.69402313232422 2.201824903488159
3.5637896060943604 -19.304752349853516 2.1856374740600586
5.264112949371338 -18.741302490234375 2.1673362255096436
6.882026195526123 -18.00440216064453 2.14599347114563
8.392729759216309 -17.094970703125 2.1202940940856934
9.799261093139648 -16.06743812561035 2.0953361988067627
1.8310546465727384e-06 -20.112815856933594 2.3648059368133545
1.7986223697662354 -19.65058708190918 2.320115566253662
3.363650321960449 -18.22064208984375 2.1785292625427246
4.970836162567139 -17.697162628173828 2.161303758621216
6.495985507965088 -16.994482040405273 2.13916015625
7.92608118057251 -16.14445686340332 2.114642858505249
9.251943588256836 -15.170022964477539 2.0891950130462646
6.103515261202119e-06 -19.036449432373047 2.3572185039520264
1.7290496826171875 -18.89040756225586 2.348912239074707
3.34456467628479 -18.11723518371582 2.2813024520874023
4.7165632247924805 -16.792030334472656 2.1597633361816406
6.150961875915527 -16.091840744018555 2.1332051753997803
7.509661674499512 -15.296274185180664 2.1100404262542725
8.76740550994873 -14.375553131103516 2.085014820098877
0.0 -18.067975997924805 2.3503916263580322
1.6413836479187012 -17.93257713317871 2.342529296875
3.247110605239868 -17.58934211730957 2.3267898559570312
4.707650184631348 -16.76017951965332 2.264638900756836
5.94376802444458 -15.549806594848633 2.16555118560791
7.13426399230957 -14.531627655029297 2.105891466140747
8.330465316772461 -13.659110069274902 2.0812454223632812
6.103515488575795e-07 -17.191965103149414 2.3442165851593018
1.5616735219955444 -17.06174087524414 2.336186408996582
3.090400218963623 -16.740463256835938 2.3212239742279053
4.570375442504883 -16.27143669128418 2.3045594692230225
5.936417579650879 -15.53056526184082 2.267108678817749
7.075416088104248 -14.411778450012207 2.1891767978668213
8.145364761352539 -13.355622291564941 2.133077621459961
3.662109293145477e-06 -16.395706176757812 2.3386037349700928
1.4892218112945557 -16.270170211791992 2.330399513244629
2.9479010105133057 -15.968544960021973 2.316162586212158
4.358147621154785 -15.515847206115723 2.2987494468688965
5.7019572257995605 -14.9171724319458 2.277855396270752
6.971915245056152 -14.200934410095215 2.2564969062805176
8.135881423950195 -13.34006118774414 2.2287161350250244
3.0517576306010596e-06 -15.668693542480469 2.3334789276123047
1.4230761528015137 -15.547568321228027 2.3251171112060547
2.8177452087402344 -15.263484954833984 2.311539649963379
4.164416313171387 -14.826151847839355 2.2934460639953613
5.450695037841797 -14.259852409362793 2.2735188007354736
6.667461395263672 -13.580791473388672 2.2531323432922363
7.7911834716796875 -12.77487564086914 2.228421926498413
1.220703097715159e-06 -15.002260208129883 2.3287811279296875
1.362451195716858 -14.885238647460938 2.32027530670166
2.6980059146881104 -14.61488151550293 2.3069818019866943
3.9868671894073486 -14.194028854370117 2.2885854244232178
5.220252513885498 -13.656938552856445 2.269541025161743
6.383326053619385 -13.002058029174805 2.2484073638916016
7.459340572357178 -12.230761528015137 2.223799467086792
3.0517576306010596e-06 -14.389079093933105 2.3244588375091553
1.3066821098327637 -14.275933265686035 2.3158209323883057
2.5866246223449707 -14.011540412902832 2.3017168045043945
3.8235442638397217 -13.612542152404785 2.284114122390747
5.008096694946289 -13.101924896240234 2.2658793926239014
6.119304180145264 -12.464279174804688 2.2430918216705322
7.154047012329102 -11.730195999145508 2.2195465564727783
0.0 -13.822147369384766 2.320327043533325
1.255206823348999 -13.713483810424805 2.31170916557312
2.4838805198669434 -13.454996109008789 2.2968597412109375
3.6727817058563232 -13.075822830200195 2.279987096786499
4.807203769683838 -12.576265335083008 2.260160207748413
5.875795841217041 -11.968287467956543 2.238189220428467
6.872237205505371 -11.26811408996582 2.215620994567871
3.0517576306010596e-06 -13.296696662902832 2.316425323486328
1.2074706554412842 -13.19201374053955 2.3077943325042725
2.388801097869873 -12.93994140625 2.2923648357391357
3.5313639640808105 -12.572344779968262 2.2749950885772705
4.621090412139893 -12.08947467803955 2.2547311782836914
5.650478839874268 -11.509334564208984 2.2336525917053223
6.614595890045166 -10.845669746398926 2.2131001949310303
1.220703097715159e-06 -12.80811882019043 2.312690019607544
1.1625683307647705 -12.7014741897583 2.3030214309692383
2.29994535446167 -12.458630561828613 2.2875967025756836
3.3983523845672607 -12.098785400390625 2.2691526412963867
4.448525428771973 -11.63801097869873 2.2496955394744873
5.443614482879639 -11.087979316711426 2.230362892150879
6.376537799835205 -10.455341339111328 2.2112643718719482
1.220703097715159e-06 -12.354334831237793 2.30942440032959
1.1205096244812012 -12.241957664489746 2.2979836463928223
2.2156283855438232 -12.001879692077637 2.2814483642578125
3.2748711109161377 -11.659192085266113 2.2638237476348877
4.290151596069336 -11.22367000579834 2.246115207672119
5.252529621124268 -10.698752403259277 2.227966547012329
6.15455436706543 -10.091360092163086 2.209552526473999
0.0 -11.935009956359863 2.3072164058685303
1.080914855003357 -11.809379577636719 2.292473316192627
2.1380951404571533 -11.581875801086426 2.2767820358276367
3.1501729488372803 -11.215241432189941 2.2519757747650146
4.143185138702393 -10.839187622070312 2.243237018585205
5.074000835418701 -10.335122108459473 2.2257275581359863
5.94703483581543 -9.751105308532715 2.2079522609710693
0.0 -11.527876853942871 2.3022658824920654
1.0442718267440796 -11.409018516540527 2.288053274154663
2.0660862922668457 -11.191821098327637 2.2729196548461914
3.0560967922210693 -10.880302429199219 2.2570276260375977
3.991590738296509 -10.442602157592773 2.2326862812042236
4.906826019287109 -9.994603157043457 2.223630905151367
5.752608299255371 -9.432313919067383 2.2064530849456787
0.0 -11.146695137023926 2.297630786895752
1.0099514722824097 -11.034025192260742 2.2839131355285645
1.998615026473999 -10.826314926147461 2.2693002223968506
2.9569690227508545 -10.527379989624023 2.253948211669922
3.876627206802368 -10.141829490661621 2.238016366958618
4.73410701751709 -9.642800331115723 2.2142579555511475
5.570057392120361 -9.132988929748535 2.205045461654663
6.103515261202119e-06 -10.78904914855957 2.2932820320129395
0.9777380228042603 -10.682039260864258 2.280027151107788
1.9352532625198364 -10.483097076416016 2.2659013271331787
2.8638384342193604 -10.195817947387695 2.2510552406311035
3.7553699016571045 -9.824604988098145 2.2356414794921875
4.602415561676025 -9.37456226348877 2.219813108444214
5.398326873779297 -8.851405143737793 2.203721284866333
-6.103515488575795e-07 -10.452773094177246 2.2891931533813477
0.9474325180053711 -10.350967407226562 2.276371955871582
1.875632643699646 -10.160140991210938 2.2627034187316895
2.7761735916137695 -9.883711814880371 2.2483320236206055
3.641169548034668 -9.52585220336914 2.233405113220215
4.463429927825928 -9.091458320617676 2.2180702686309814
5.236442565917969 -8.585972785949707 2.202472686767578
2.7465819130156888e-06 -10.136013984680176 2.285341501235962
0.9188753962516785 -10.03898811340332 2.2729275226593018
1.8194286823272705 -9.855700492858887 2.25968861579895
2.693492889404297 -9.58936882019043 2.2457637786865234
3.5334343910217285 -9.244002342224121 2.231295108795166
4.332239151000977 -8.824246406555176 2.2164249420166016
5.083585262298584 -8.335345268249512 2.201294183731079
-3.967285010730848e-06 -9.837075233459473 2.2817065715789795
0.8919174075126648 -9.744482040405273 2.2696759700775146
1.7663521766662598 -9.568198204040527 2.2568416595458984
2.615391731262207 -9.311320304870605 2.243337631225586
3.4316115379333496 -8.977639198303223 2.2293012142181396
4.208219528198242 -8.571627616882324 2.214869737625122
4.939020156860352 -8.098299980163574 2.2001793384552
6.408691206161166e-06 -9.554484367370605 2.2782704830169678
0.8664297461509705 -9.46597671508789 2.266601324081421
1.7099310159683228 -9.2625732421875 2.245983839035034
2.5414910316467285 -9.048199653625488 2.241041898727417
3.3352410793304443 -8.72549057006836 2.2274134159088135
4.0907769203186035 -8.332403182983398 2.2133965492248535
4.802064895629883 -7.873740196228027 2.1991231441497803
2.593994167909841e-06 -1.4819375276565552 0.3630297780036926
0.8422784209251404 -9.20219612121582 2.263688802719116
1.662577509880066 -9.006050109863281 2.2434942722320557
2.471451759338379 -8.798824310302734 2.238865852355957
3.243866443634033 -8.486431121826172 2.225623846054077
3.979376792907715 -8.105510711669922 2.2119996547698975
4.672123908996582 -7.660679340362549 2.1981210708618164
9.155273232863692e-07 -1.4437114000320435 0.363107293844223
0.8193823099136353 -8.951992988586426 2.2609267234802246
1.617641568183899 -8.76264762878418 2.2411320209503174
2.4049675464630127 -8.56214427947998 2.2368009090423584
3.157109260559082 -8.259465217590332 2.2239248752593994
3.87359356880188 -7.890028953552246 2.2106728553771973
4.548671722412109 -7.458268165588379 2.197169065475464
-2.593994167909841e-06 -1.407296061515808 0.36318114399909973
0.7976235747337341 -8.714311599731445 2.2583024501800537
1.580587387084961 -8.561798095703125 2.246875524520874
2.3337063789367676 -8.30846118927002 2.227139472961426
3.0746185779571533 -8.043672561645508 2.2223093509674072
3.77296781539917 -7.6850738525390625 2.2094109058380127
4.431221008300781 -7.265690326690674 2.196263313293457
9.155273232863692e-07 -1.372572660446167 0.3632514774799347
0.12519988417625427 -1.367871880531311 0.3635212481021881
1.5397597551345825 -8.340761184692383 2.244687080383301
2.273813009262085 -8.095227241516113 2.225316047668457
2.996098041534424 -7.838232040405273 2.220771312713623
3.677147626876831 -7.489895343780518 2.208209276199341
4.319337844848633 -7.082239627838135 2.1954007148742676
2.670288040462765e-06 -1.3394114971160889 0.36331862211227417
0.12217193096876144 -1.3347986936569214 0.36358213424682617
1.5008844137191772 -8.130181312561035 2.2426018714904785
2.2167351245880127 -7.892022609710693 2.2235782146453857
2.9115920066833496 -7.617162227630615 2.2119767665863037
3.5857884883880615 -7.303805351257324 2.2070631980895996
4.2126240730285645 -6.90726375579834 2.194577693939209
-2.5177000679832418e-06 -1.3077071905136108 0.36338287591934204
0.1192820742726326 -1.3031895160675049 0.3636399805545807
1.458687663078308 -7.901598930358887 2.2327754497528076
2.169642925262451 -7.724365711212158 2.2294909954071045
2.849804639816284 -7.455513954162598 2.2179062366485596
3.49857234954834 -7.126160621643066 2.2059695720672607
4.1107330322265625 -6.74019193649292 2.1937918663024902
-7.629394076502649e-07 -1.2773772478103638 0.3634442090988159
0.11651134490966797 -1.2729389667510986 0.36369553208351135
0.23222754895687103 -1.257957935333252 0.3639663755893707
2.117410898208618 -7.538411617279053 2.2278685569763184
2.7815492153167725 -7.276938438415527 2.216569423675537
3.41521954536438 -6.956377029418945 2.2049241065979004
4.013320446014404 -6.580469608306885 2.193040609359741
9.91821252682712e-07 -1.2483179569244385 0.3635033965110779
0.11386142671108246 -1.2439624071121216 0.3637487590312958
0.22693805396556854 -1.229300618171692 0.36401352286338806
2.067471504211426 -7.360606670379639 2.2263171672821045
2.7162628173828125 -7.106144905090332 2.2152907848358154
3.335466146469116 -6.793939113616943 2.2039239406585693
3.920095205307007 -6.427616596221924 2.19232177734375
-2.441406195430318e-06 -1.2204513549804688 0.36355987191200256
0.11131858825683594 -1.216176986694336 0.36379972100257874
0.22186438739299774 -1.2018226385116577 0.3640586733818054
0.3307356834411621 -1.177486538887024 0.3643344044685364
2.653752326965332 -6.9426093101501465 2.214066505432129
3.259097099304199 -6.638378620147705 2.2029662132263184
3.830800771713257 -6.281197547912598 2.1916332244873047
-6.866454782539222e-07 -1.1937122344970703 0.36361387372016907
0.10887405276298523 -1.1895086765289307 0.36384886503219604
0.21699611842632294 -1.1754511594772339 0.36410200595855713
0.3234730064868927 -1.151631236076355 0.3643716275691986
2.593841791152954 -6.785871505737305 2.21289324760437
3.1858763694763184 -6.489241123199463 2.202047824859619
3.745170831680298 -6.140801906585693 2.1909728050231934
1.0299681889591739e-06 -1.168022632598877 0.3636660575866699
0.10653316229581833 -1.1638967990875244 0.36389586329460144
0.2123178094625473 -1.1501189470291138 0.3641436696052551
0.3165004253387451 -1.1267979145050049 0.364407479763031
0.41820570826530457 -1.0940908193588257 0.36468505859375
3.1156249046325684 -6.346138000488281 2.2011666297912598
3.6629819869995117 -6.006038665771484 2.1903390884399414
-2.403259259153856e-06 -1.143318772315979 0.36371612548828125
0.10427512973546982 -1.1392654180526733 0.3639410436153412
0.2078276425600052 -1.1257723569869995 0.364183634519577
0.30979013442993164 -1.1029175519943237 0.36444181203842163
0.40933749079704285 -1.0708906650543213 0.36471372842788696
3.04814076423645 -6.208685874938965 2.2003204822540283
3.5840368270874023 -5.876594066619873 2.189730405807495
-2.365112322877394e-06 -1.1195505857467651 0.36376434564590454
0.10210685431957245 -1.1155662536621094 0.3639846742153168
0.2035013884305954 -1.1023391485214233 0.36422210931777954
0.30334052443504333 -1.0799503326416016 0.3644751012325287
0.4008060097694397 -1.0485692024230957 0.3647412061691284
0.4950897991657257 -1.0084370374679565 0.3650186061859131
3.5081231594085693 -5.752121925354004 2.1891448497772217
-6.484985419774603e-07 -1.096664547920227 0.3638107180595398
0.10002318769693375 -1.0927493572235107 0.3640264868736267
0.1993323415517807 -1.079770803451538 0.3642593324184418
0.29712581634521484 -1.0578255653381348 0.3645069897174835
0.3925921618938446 -1.027076244354248 0.36476776003837585
0.4849355220794678 -0.9877520799636841 0.3650393486022949
0.5733842849731445 -0.9401553869247437 0.3653196692466736
2.822876012942288e-06 -1.0746054649353027 0.3638552725315094
0.09800513833761215 -1.0707505941390991 0.3640669286251068
0.19532035291194916 -1.05802583694458 0.36429503560066223
0.29113882780075073 -1.0365087985992432 0.36453765630722046
0.3846682608127594 -1.0063567161560059 0.36479324102401733
0.47514206171035767 -0.9678112864494324 0.365059494972229
0.561805784702301 -0.9211708903312683 0.365334153175354
1.1062621751989354e-06 -1.0533249378204346 0.36389845609664917
0.09606818854808807 -1.0495408773422241 0.36410582065582275
0.1914481669664383 -1.0370526313781738 0.36432936787605286
0.2853642702102661 -1.0159465074539185 0.3645673990249634
0.37703612446784973 -0.9863813519477844 0.3648177981376648
0.46570757031440735 -0.948588490486145 0.36507871747016907
0.5506364107131958 -0.9028544425964355 0.36534789204597473
1.1444091114753974e-06 -1.0327885150909424 0.36394011974334717
0.09418822824954987 -1.0290613174438477 0.36414337158203125
0.18770724534988403 -1.0168044567108154 0.3643626272678375
0.27978649735450745 -0.9960988163948059 0.3645959496498108
0.3696698546409607 -0.9671067595481873 0.36484161019325256
0.45659777522087097 -0.9300355315208435 0.3650973439216614
0.5398571491241455 -0.8851836919784546 0.3653613328933716
2.86102294921875e-06 -1.012954592704773 0.36398041248321533
0.09237731993198395 -1.0092861652374268 0.36417967081069946
0.1840975135564804 -0.9972537159919739 0.36439481377601624
0.27440550923347473 -0.9769382476806641 0.36462369561195374
0.36254873871803284 -0.9484847784042358 0.3648644983768463
0.447803795337677 -0.9121196269989014 0.36511534452438354
0.5294508337974548 -0.868120551109314 0.36537444591522217
2.86102294921875e-06 -0.9937853813171387 0.36401915550231934
0.09063201397657394 -0.99017733335495 0.36421477794647217
0.18061374127864838 -0.978364109992981 0.36442580819129944
0.2692023813724518 -0.9584146738052368 0.3646503984928131
0.3556709885597229 -0.9304894804954529 0.3648867607116699
0.439298152923584 -0.8947993516921997 0.36513274908065796
0.5193967223167419 -0.8516306281089783 0.365386962890625
-5.722045557376987e-07 -0.9752410650253296 0.36405670642852783
0.08893848210573196 -0.9716935753822327 0.364248663187027
0.17723704874515533 -0.9600857496261597 0.36445584893226624
0.2641718089580536 -0.9405056834220886 0.36467620730400085
0.34902292490005493 -0.9130932688713074 0.3649081289768219
0.43108251690864563 -0.8780589699745178 0.36514967679977417
0.5096704959869385 -0.83568274974823 0.36539900302886963
1.182556161438697e-06 -0.9572992324829102 0.36409300565719604
0.08729846775531769 -0.9538052082061768 0.3642815947532654
0.17397773265838623 -0.9424079656600952 0.36448484659194946
0.2593001127243042 -0.9231697916984558 0.36470121145248413
0.34258201718330383 -0.8962493538856506 0.36492887139320374
0.4231276214122772 -0.8618590831756592 0.3651660084724426
0.5002568960189819 -0.8202510476112366 0.36541059613227844
1.1444091114753974e-06 -0.9399254322052002 0.3641284108161926
0.08572059124708176 -0.9364901781082153 0.3643133342266083
0.1708134114742279 -0.9252845644950867 0.36451292037963867
0.2545906901359558 -0.9063898324966431 0.3647255003452301
0.3363551199436188 -0.879951000213623 0.3649490177631378
0.4154229760169983 -0.8461685180664062 0.3651818633079529
0.49114179611206055 -0.805307924747467 0.3654220402240753
-5.340576194612368e-07 -0.9230919480323792 0.3641624450683594
0.08417899906635284 -0.9197049736976624 0.36434417963027954
0.16775089502334595 -0.9086944460868835 0.3645402491092682
0.2500227987766266 -0.8901312351226807 0.36474883556365967
0.3303146958351135 -0.8641567826271057 0.36496856808662415
0.40796005725860596 -0.8309680819511414 0.3651971220970154
0.4823150634765625 -0.7908360362052917 0.3654330372810364
-2.2888182229507947e-06 -0.9067694544792175 0.3641955554485321
0.08269435912370682 -0.9034428000450134 0.3643740713596344
0.1647833287715912 -0.8926169872283936 0.3645666539669037
0.245594784617424 -0.8743680119514465 0.3647717237472534
0.32446587085723877 -0.8488476276397705 0.364987313747406
0.400730162858963 -0.8162389993667603 0.36521193385124207
0.4737628102302551 -0.7768077850341797 0.36544370651245117
-2.250671286674333e-06 -0.8909424543380737 0.3642275929450989
0.0812494233250618 -0.887665867805481 0.3644030690193176
0.16190379858016968 -0.8770178556442261 0.3645922839641571
0.24129967391490936 -0.8590795993804932 0.36479368805885315
0.3187914192676544 -0.8339994549751282 0.3650054931640625
0.39371782541275024 -0.8019552230834961 0.36522626876831055
0.465464323759079 -0.7632024884223938 0.36545392870903015
-4.95910626341356e-07 -0.8755831718444824 0.36425870656967163
0.07984939217567444 -0.872355043888092 0.36443114280700684
0.15911060571670532 -0.8618848919868469 0.3646172881126404
0.23713746666908264 -0.8442521691322327 0.3648150563240051
0.3132775127887726 -0.8195845484733582 0.36502349376678467
0.386909157037735 -0.7880893349647522 0.3652401566505432
0.4574127197265625 -0.7499995231628418 0.36546415090560913
-4.95910626341356e-07 -0.8606677055358887 0.36428892612457275
0.0784890353679657 -0.8574877977371216 0.3644586205482483
0.1563950628042221 -0.8471851348876953 0.364641398191452
0.23309098184108734 -0.8298475742340088 0.36483579874038696
0.3079310357570648 -0.8055960536003113 0.3650405704975128
0.3803024888038635 -0.7746291160583496 0.36525389552116394
0.4495958685874939 -0.7371832132339478 0.3654736280441284
1.220703097715159e-06 -0.8461785912513733 0.36431822180747986
0.0771631971001625 -0.8430418372154236 0.3644849956035614
0.15376418828964233 -0.8329117894172668 0.3646649122238159
0.2291584014892578 -0.8158538341522217 0.364856094121933
0.3027382493019104 -0.7920063734054565 0.3650573790073395
0.373880535364151 -0.7615504264831543 0.3652670085430145
0.4420051574707031 -0.7247346043586731 0.36548322439193726
-4.95910626341356e-07 -0.832093358039856 0.3643469214439392
0.07588230073451996 -0.8290067911148071 0.36451080441474915
0.15119712054729462 -0.8190302848815918 0.36468765139579773
0.22533975541591644 -0.8022572994232178 0.36487579345703125
0.297688752412796 -0.7787982225418091 0.3650735318660736
0.3676466941833496 -0.7488497495651245 0.3652796745300293
0.434621661901474 -0.7126312851905823 0.3654922544956207
2.9754637580481358e-06 -0.8184036016464233 0.36437469720840454
0.07463070005178452 -0.8153565526008606 0.36453595757484436
0.14870773255825043 -0.8055407404899597 0.3647097647190094
0.2216281294822693 -0.7890369892120361 0.36489471793174744
0.2927824854850769 -0.7659576535224915 0.36508941650390625
0.36158043146133423 -0.7364926934242249 0.36529219150543213
0.42744871973991394 -0.7008697390556335 0.36550140380859375
1.2588500339916209e-06 -0.8050779700279236 0.36440154910087585
0.07341194152832031 -0.8020741939544678 0.36456024646759033
0.14628398418426514 -0.792413592338562 0.36473143100738525
0.2180149257183075 -0.7761740684509277 0.36491331458091736
0.28800228238105774 -0.7534607648849487 0.3651048243045807
0.3556763231754303 -0.7244704365730286 0.36530426144599915
0.42046916484832764 -0.6894258856773376 0.36550992727279663
1.2588500339916209e-06 -0.7921097278594971 0.364427775144577
0.07223282009363174 -0.7891525626182556 0.3645840287208557
0.14393098652362823 -0.7796440124511719 0.3647522032260895
0.21450011432170868 -0.7636547088623047 0.3649313151836395
0.2833532392978668 -0.7413021922111511 0.36511993408203125
0.34993281960487366 -0.7127710580825806 0.36531615257263184
0.4136725962162018 -0.6782823801040649 0.3655184805393219
1.2588500339916209e-06 -0.7794868350028992 0.36445343494415283
0.07107792049646378 -0.7765658497810364 0.3646070659160614
0.14163322746753693 -0.7672057151794434 0.36477264761924744
0.21107333898544312 -0.7514616250991821 0.3649490177631378
0.2788354754447937 -0.7294681668281555 0.36513441801071167
0.34434470534324646 -0.7013858556747437 0.3653274476528168
0.4070590138435364 -0.6674392819404602 0.3655267357826233
-4.577636616431846e-07 -0.7671831846237183 0.3644784390926361
0.06995578855276108 -0.7643054127693176 0.3646296560764313
0.1393907368183136 -0.7550851106643677 0.36479276418685913
0.20773980021476746 -0.7395895719528198 0.36496612429618835
0.27442118525505066 -0.7179310321807861 0.3651486039161682
0.33889463543891907 -0.6902907490730286 0.3653387427330017
0.4006180465221405 -0.6568792462348938 0.3655346632003784
-2.174377414121409e-06 -0.755197286605835 0.36450254917144775
0.06886302679777145 -0.752360999584198 0.36465147137641907
0.13721728324890137 -0.7432821393013 0.3648120164871216
0.2044891119003296 -0.7280214428901672 0.3649829030036926
0.27012956142425537 -0.7066994905471802 0.36516234278678894
0.3335879147052765 -0.6794804334640503 0.36534956097602844
0.39433935284614563 -0.6465851664543152 0.36554259061813354
-4.577636616431846e-07 -0.7435117363929749 0.3645263612270355
0.06780140101909637 -0.740716814994812 0.36467283964157104
0.1350870132446289 -0.7317675352096558 0.3648309111595154
0.2013230323791504 -0.7167415618896484 0.36499908566474915
0.26593801379203796 -0.6957406997680664 0.36517593264579773
0.3284192681312561 -0.668946385383606 0.3653601109981537
0.388224720954895 -0.6365551352500916 0.36555007100105286
1.2969970839549205e-06 -0.7321162223815918 0.3645493984222412
0.0667586475610733 -0.7293576002120972 0.36469390988349915
0.13301539421081543 -0.720539391040802 0.36484938859939575
0.1982276886701584 -0.7057361602783203 0.3650149405002594
0.26185697317123413 -0.6850581169128418 0.36518919467926025
0.32336974143981934 -0.6586660146713257 0.3653704822063446
0.3822533190250397 -0.6267685294151306 0.36555755138397217
3.0517576306010596e-06 -0.7209968566894531 0.3645719885826111
0.06574355810880661 -0.7182745337486267 0.3647140562534332
0.13099560141563416 -0.7095910310745239 0.36486753821372986
0.19521525502204895 -0.6950070261955261 0.3650304973125458
0.2578743100166321 -0.6746363043785095 0.36520200967788696
0.3184496760368347 -0.648642897605896 0.36538055539131165
0.37643730640411377 -0.6172270774841309 0.36556488275527954
1.3351440202313825e-06 -0.7101433873176575 0.3645939528942108
0.06475269049406052 -0.7074572443962097 0.364734023809433
0.12902241945266724 -0.6988998055458069 0.3648849427700043
0.1922701597213745 -0.684528112411499 0.36504560708999634
0.2539866268634796 -0.6644647121429443 0.3652145266532898
0.31364187598228455 -0.6388528347015381 0.36539044976234436
0.3707559108734131 -0.6079100370407104 0.36557188630104065
-2.136230477844947e-06 -0.6995402574539185 0.36461547017097473
0.06378421932458878 -0.6968938112258911 0.364753395318985
0.12709753215312958 -0.6884641051292419 0.3649020195007324
0.18940095603466034 -0.6743047833442688 0.365060418844223
0.250190407037735 -0.6545330882072449 0.36522674560546875
0.3089548647403717 -0.6293010711669922 0.3654000759124756
