ply
format ascii 1.0
element vertex 2176
property float32 x
property float32 y
property float32 z
end_header
-0.8311 0.5407 0.3771
-0.8722 0.4623 0.3754
-0.9059 0.3808 0.3737
-0.9318 0.2970 0.3720
-0.9500 0.2116 0.3702
-0.9604 0.1253 0.3684
-0.9630 0.0388 0.3666
-0.9579 -0.0471 0.3647
-0.9452 -0.1318 0.3630
-0.9252 -0.2147 0.3612
-0.8981 -0.2950 0.3595
-0.8643 -0.3724 0.3579
-0.8240 -0.4461 0.3564
-0.7776 -0.5158 0.3549
-0.7256 -0.5809 0.3535
-0.6685 -0.6411 0.3523
-0.6066 -0.6959 0.3511
-0.5404 -0.7451 0.3501
-0.4705 -0.7883 0.3492
-0.3973 -0.8254 0.3484
-0.3214 -0.8559 0.3477
-0.2433 -0.8799 0.3472
-0.1636 -0.8972 0.3469
-0.0828 -0.9077 0.3466
-0.0014 -0.9112 0.3466
0.0800 -0.9079 0.3466
0.1608 -0.8977 0.3468
0.2406 -0.8806 0.3472
0.3187 -0.8568 0.3477
0.3947 -0.8265 0.3483
0.4680 -0.7897 0.3491
0.5380 -0.7466 0.3500
0.6043 -0.6976 0.3510
0.6663 -0.6430 0.3522
0.7237 -0.5830 0.3534
0.7758 -0.5180 0.3548
0.8224 -0.4485 0.3563
0.8628 -0.3749 0.3578
0.8969 -0.2977 0.3594
0.9242 -0.2174 0.3611
0.9445 -0.1347 0.3629
0.9574 -0.0500 0.3646
0.9628 0.0358 0.3664
0.9605 0.1223 0.3682
0.9504 0.2086 0.3701
0.9325 0.2940 0.3719
0.9068 0.3779 0.3736
0.8734 0.4595 0.3753
0.8325 0.5380 0.3770
0.7844 0.6127 0.3786
0.7294 0.6830 0.3800
0.6679 0.7480 0.3814
0.6004 0.8073 0.3826
0.5274 0.8602 0.3838
0.4496 0.9061 0.3847
0.3677 0.9447 0.3855
0.2823 0.9754 0.3862
0.1943 0.9979 0.3867
0.1045 1.0120 0.3870
0.0137 1.0177 0.3871
-0.0772 1.0147 0.3870
-0.1674 1.0031 0.3868
-0.2560 0.9831 0.3864
-0.3423 0.9548 0.3858
-0.4253 0.9186 0.3850
-0.5044 0.8749 0.3841
-0.5789 0.8241 0.3830
-0.6482 0.7667 0.3818
-0.7116 0.7032 0.3805
-0.7686 0.6345 0.3791
-0.8188 0.5610 0.3775
-0.8619 0.4836 0.3759
-0.8976 0.4028 0.3742
-0.9257 0.3196 0.3724
-0.9459 0.2345 0.3707
-0.9584 0.1484 0.3689
-0.9631 0.0619 0.3670
-0.9600 -0.0242 0.3652
-0.9493 -0.1093 0.3634
-0.9312 -0.1927 0.3617
-0.9060 -0.2738 0.3600
-0.8739 -0.3520 0.3583
-0.8353 -0.4268 0.3568
-0.7906 -0.4976 0.3553
-0.7401 -0.5640 0.3539
-0.6842 -0.6255 0.3526
-0.6235 -0.6818 0.3514
-0.5585 -0.7325 0.3503
-0.4895 -0.7774 0.3494
-0.4171 -0.8161 0.3486
-0.3419 -0.8484 0.3479
-0.2644 -0.8742 0.3474
-0.1850 -0.8933 0.3470
-0.1045 -0.9055 0.3467
-0.0232 -0.9109 0.3466
0.0583 -0.9095 0.3466
0.1393 -0.9011 0.3468
0.2194 -0.8858 0.3471
0.2981 -0.8638 0.3476
0.3746 -0.8352 0.3482
0.4487 -0.8001 0.3489
0.5196 -0.7587 0.3498
0.5870 -0.7113 0.3508
0.6502 -0.6581 0.3519
0.7088 -0.5995 0.3531
0.7624 -0.5359 0.3544
0.8105 -0.4675 0.3559
0.8526 -0.3950 0.3574
0.8885 -0.3187 0.3590
0.9176 -0.2392 0.3607
0.9398 -0.1570 0.3624
0.9547 -0.0728 0.3642
0.9621 0.0128 0.3659
0.9619 0.0991 0.3678
0.9538 0.1856 0.3696
0.9380 0.2713 0.3714
0.9144 0.3557 0.3732
0.8830 0.4379 0.3749
0.8441 0.5173 0.3765
0.7979 0.5931 0.3781
0.7447 0.6647 0.3796
0.6849 0.7312 0.3810
0.6190 0.7921 0.3823
0.5474 0.8467 0.3835
0.4708 0.8946 0.3845
0.3899 0.9351 0.3853
0.3054 0.9679 0.3860
0.2180 0.9927 0.3866
0.1286 1.0091 0.3869
0.0380 1.0170 0.3871
-0.0529 1.0163 0.3871
-0.1434 1.0070 0.3869
-0.2325 0.9892 0.3865
-0.3195 0.9632 0.3859
-0.4035 0.9291 0.3852
-0.4837 0.8873 0.3844
-0.5595 0.8383 0.3833
-0.6302 0.7826 0.3822
-0.6952 0.7207 0.3809
-0.7540 0.6533 0.3795
-0.8061 0.5811 0.3779
-0.8511 0.5046 0.3763
-0.8888 0.4247 0.3747
-0.9189 0.3420 0.3729
-0.9413 0.2574 0.3711
-0.9558 0.1715 0.3693
-0.9626 0.0850 0.3675
-0.9616 -0.0013 0.3657
-0.9529 -0.0867 0.3639
-0.9368 -0.1706 0.3622
-0.9134 -0.2524 0.3604
-0.8832 -0.3314 0.3588
-0.8463 -0.4072 0.3572
-0.8031 -0.4791 0.3557
-0.7541 -0.5467 0.3542
-0.6996 -0.6096 0.3529
-0.6402 -0.6673 0.3517
-0.5763 -0.7196 0.3506
-0.5083 -0.7660 0.3496
-0.4368 -0.8064 0.3488
-0.3623 -0.8404 0.3481
-0.2853 -0.8679 0.3475
-0.2064 -0.8888 0.3470
-0.1261 -0.9029 0.3467
-0.0449 -0.9102 0.3466
0.0365 -0.9105 0.3466
0.1177 -0.9040 0.3467
0.1981 -0.8906 0.3470
0.2772 -0.8704 0.3474
0.3544 -0.8435 0.3480
0.4292 -0.8101 0.3487
0.5010 -0.7704 0.3495
0.5694 -0.7246 0.3505
0.6337 -0.6729 0.3516
0.6936 -0.6157 0.3528
0.7486 -0.5534 0.3541
0.7982 -0.4862 0.3555
0.8420 -0.4147 0.3570
0.8795 -0.3394 0.3586
0.9105 -0.2607 0.3602
0.9346 -0.1792 0.3619
0.9514 -0.0955 0.3637
0.9609 -0.0102 0.3655
0.9627 0.0760 0.3673
0.9567 0.1625 0.3691
0.9430 0.2485 0.3709
0.9215 0.3333 0.3727
0.8922 0.4162 0.3744
0.8553 0.4964 0.3761
0.8110 0.5733 0.3777
0.7596 0.6460 0.3793
0.7015 0.7139 0.3807
0.6372 0.7764 0.3820
0.5670 0.8328 0.3832
0.4917 0.8825 0.3842
0.4119 0.9250 0.3851
0.3283 0.9599 0.3859
0.2416 0.9869 0.3864
0.1527 1.0055 0.3868
0.0623 1.0157 0.3870
-0.0286 1.0173 0.3871
-0.1193 1.0103 0.3869
-0.2089 0.9948 0.3866
-0.2965 0.9709 0.3861
-0.3814 0.9389 0.3854
-0.4627 0.8992 0.3846
-0.5397 0.8521 0.3836
-0.6119 0.7981 0.3825
-0.6784 0.7378 0.3812
-0.7389 0.6719 0.3798
-0.7928 0.6008 0.3784
-0.8398 0.5254 0.3768
-0.8795 0.4464 0.3751
-0.9116 0.3644 0.3734
-0.9361 0.2802 0.3716
-0.9527 0.1945 0.3698
-0.9615 0.1081 0.3680
-0.9626 0.0217 0.3662
-0.9559 -0.0640 0.3644
-0.9418 -0.1484 0.3626
-0.9204 -0.2308 0.3609
-0.8919 -0.3106 0.3592
-0.8568 -0.3873 0.3576
-0.8152 -0.4603 0.3561
-0.7678 -0.5291 0.3546
-0.7147 -0.5932 0.3533
-0.6566 -0.6524 0.3520
-0.5938 -0.7061 0.3509
-0.5268 -0.7542 0.3499
-0.4562 -0.7962 0.3490
-0.3825 -0.8319 0.3482
-0.3061 -0.8612 0.3476
-0.2276 -0.8839 0.3472
-0.1477 -0.8998 0.3468
-0.0667 -0.9089 0.3466
0.0148 -0.9111 0.3466
0.0961 -0.9064 0.3467
0.1768 -0.8948 0.3469
0.2562 -0.8764 0.3473
0.3340 -0.8513 0.3478
0.4095 -0.8197 0.3485
0.4821 -0.7816 0.3493
0.5514 -0.7374 0.3502
0.6169 -0.6873 0.3513
0.6781 -0.6315 0.3524
0.7344 -0.5705 0.3537
0.7855 -0.5046 0.3551
0.8309 -0.4342 0.3566
0.8701 -0.3599 0.3581
0.9029 -0.2820 0.3598
0.9288 -0.2012 0.3615
0.9476 -0.1180 0.3632
0.9591 -0.0331 0.3650
0.9629 0.0529 0.3668
0.9591 0.1394 0.3686
0.9474 0.2256 0.3704
0.9280 0.3108 0.3722
0.9007 0.3943 0.3740
0.8659 0.4753 0.3757
0.8235 0.5531 0.3773
0.7740 0.6270 0.3789
0.7177 0.6963 0.3803
0.6550 0.7603 0.3817
0.5863 0.8183 0.3829
0.5123 0.8699 0.3840
0.4337 0.9144 0.3849
0.3510 0.9514 0.3857
0.2651 0.9805 0.3863
0.1766 1.0014 0.3867
0.0866 1.0138 0.3870
-0.0043 1.0177 0.3871
-0.0952 1.0130 0.3870
-0.1851 0.9998 0.3867
-0.2733 0.9781 0.3863
-0.3590 0.9483 0.3856
-0.4413 0.9105 0.3848
-0.5196 0.8654 0.3839
-0.5931 0.8132 0.3828
-0.6612 0.7545 0.3816
-0.7234 0.6900 0.3802
-0.7791 0.6203 0.3788
-0.8280 0.5460 0.3772
-0.8696 0.4678 0.3756
-0.9038 0.3865 0.3739
-0.9303 0.3028 0.3721
-0.9490 0.2175 0.3703
-0.9599 0.1312 0.3685
-0.9631 0.0448 0.3667
-0.9585 -0.0412 0.3649
-0.9463 -0.1260 0.3631
-0.9268 -0.2090 0.3613
-0.9002 -0.2896 0.3597
-0.8668 -0.3671 0.3580
-0.8269 -0.4411 0.3565
-0.7810 -0.5111 0.3550
-0.7294 -0.5766 0.3536
-0.6726 -0.6371 0.3523
-0.6110 -0.6923 0.3512
-0.5451 -0.7419 0.3501
-0.4754 -0.7856 0.3492
-0.4024 -0.8230 0.3484
-0.3267 -0.8540 0.3478
-0.2488 -0.8785 0.3473
-0.1692 -0.8962 0.3469
-0.0884 -0.9072 0.3467
-0.0070 -0.9112 0.3466
0.0744 -0.9083 0.3466
0.1553 -0.8986 0.3468
0.2351 -0.8820 0.3472
0.3134 -0.8587 0.3477
0.3895 -0.8288 0.3483
0.4630 -0.7924 0.3491
0.5333 -0.7498 0.3499
0.5998 -0.7012 0.3510
0.6622 -0.6469 0.3521
0.7199 -0.5873 0.3534
0.7724 -0.5227 0.3547
0.8193 -0.4535 0.3562
0.8603 -0.3801 0.3577
0.8948 -0.3031 0.3593
0.9226 -0.2231 0.3610
0.9433 -0.1405 0.3627
0.9568 -0.0559 0.3645
0.9627 0.0299 0.3663
0.9609 0.1163 0.3681
0.9513 0.2026 0.3699
0.9339 0.2882 0.3717
0.9088 0.3722 0.3735
0.8759 0.4539 0.3752
0.8356 0.5327 0.3769
0.7879 0.6077 0.3784
0.7334 0.6783 0.3799
0.6723 0.7437 0.3813
0.6052 0.8034 0.3826
0.5326 0.8568 0.3837
0.4551 0.9032 0.3847
0.3734 0.9423 0.3855
0.2883 0.9735 0.3861
0.2005 0.9966 0.3866
0.1108 1.0113 0.3869
0.0200 1.0175 0.3871
-0.0709 1.0151 0.3870
-0.1612 1.0042 0.3868
-0.2500 0.9847 0.3864
-0.3364 0.9570 0.3858
-0.4197 0.9214 0.3851
-0.4991 0.8781 0.3842
-0.5740 0.8278 0.3831
-0.6436 0.7708 0.3819
-0.7074 0.7078 0.3806
-0.7649 0.6394 0.3792
-0.8156 0.5662 0.3776
-0.8592 0.4890 0.3760
-0.8954 0.4085 0.3743
-0.9240 0.3254 0.3726
-0.9448 0.2404 0.3708
-0.9578 0.1543 0.3690
-0.9630 0.0679 0.3672
-0.9604 -0.0183 0.3654
-0.9503 -0.1035 0.3636
-0.9327 -0.1870 0.3618
-0.9080 -0.2683 0.3601
-0.8764 -0.3467 0.3585
-0.8382 -0.4217 0.3569
-0.7939 -0.4928 0.3554
-0.7437 -0.5595 0.3540
-0.6883 -0.6214 0.3527
-0.6279 -0.6781 0.3515
-0.5631 -0.7292 0.3504
-0.4944 -0.7745 0.3495
-0.4222 -0.8136 0.3486
-0.3472 -0.8464 0.3479
-0.2698 -0.8726 0.3474
-0.1906 -0.8922 0.3470
-0.1101 -0.9049 0.3467
-0.0288 -0.9108 0.3466
0.0526 -0.9098 0.3466
0.1337 -0.9019 0.3468
0.2139 -0.8871 0.3471
0.2927 -0.8656 0.3475
0.3694 -0.8374 0.3481
0.4437 -0.8027 0.3488
0.5148 -0.7618 0.3497
0.5824 -0.7148 0.3507
0.7287 -0.5518 0.3541
0.7781 -0.4864 0.3555
0.8218 -0.4166 0.3569
0.8594 -0.3431 0.3585
0.8906 -0.2662 0.3601
0.9150 -0.1864 0.3618
0.9324 -0.1045 0.3635
0.9426 -0.0209 0.3652
0.9452 0.0637 0.3670
0.9403 0.1486 0.3688
0.9277 0.2331 0.3706
0.9075 0.3165 0.3723
0.8796 0.3981 0.3740
0.8443 0.4771 0.3757
0.8017 0.5530 0.3773
0.7521 0.6248 0.3788
0.6959 0.6921 0.3802
0.6335 0.7540 0.3815
0.5654 0.8101 0.3827
0.4921 0.8597 0.3838
0.4144 0.9023 0.3846
0.3328 0.9375 0.3854
0.2481 0.9649 0.3860
0.1611 0.9843 0.3864
0.0726 0.9953 0.3866
-0.0166 0.9980 0.3867
-0.1056 0.9922 0.3866
-0.1936 0.9781 0.3863
-0.2798 0.9557 0.3858
-0.3635 0.9254 0.3852
-0.4437 0.8874 0.3844
-0.5199 0.8421 0.3834
-0.5914 0.7901 0.3823
-0.6574 0.7318 0.3811
-0.7176 0.6678 0.3798
-0.7714 0.5987 0.3783
-0.8185 0.5253 0.3768
-0.8584 0.4482 0.3751
-0.8910 0.3681 0.3735
-0.9160 0.2857 0.3717
-0.9335 0.2018 0.3700
-0.9432 0.1171 0.3682
-0.9453 0.0322 0.3664
-0.9398 -0.0520 0.3646
-0.9270 -0.1351 0.3629
-0.9069 -0.2163 0.3612
-0.8799 -0.2951 0.3595
-0.8463 -0.3708 0.3579
-0.8064 -0.4430 0.3564
-0.7605 -0.5112 0.3550
-0.7091 -0.5749 0.3537
-0.6527 -0.6337 0.3524
-0.5916 -0.6873 0.3513
-0.5263 -0.7352 0.3503
-0.4574 -0.7773 0.3494
-0.3853 -0.8133 0.3486
-0.3106 -0.8429 0.3480
-0.2338 -0.8661 0.3475
-0.1553 -0.8826 0.3472
-0.0758 -0.8924 0.3470
0.0041 -0.8954 0.3469
0.0841 -0.8917 0.3470
0.1635 -0.8812 0.3472
0.2418 -0.8639 0.3476
0.3184 -0.8401 0.3481
0.3929 -0.8098 0.3487
0.4647 -0.7732 0.3495
0.5332 -0.7304 0.3504
0.5980 -0.6819 0.3514
0.6587 -0.6278 0.3525
0.7146 -0.5685 0.3537
0.7654 -0.5043 0.3551
0.8107 -0.4357 0.3565
0.8499 -0.3631 0.3581
0.8829 -0.2870 0.3597
0.9092 -0.2080 0.3613
0.9285 -0.1266 0.3630
0.9406 -0.0433 0.3648
0.9453 0.0410 0.3665
0.9424 0.1259 0.3683
0.9319 0.2105 0.3701
0.9137 0.2943 0.3719
0.8878 0.3765 0.3736
0.8545 0.4563 0.3753
0.8138 0.5330 0.3769
0.7661 0.6060 0.3784
0.7116 0.6746 0.3799
0.6508 0.7380 0.3812
0.5841 0.7957 0.3824
0.5122 0.8471 0.3835
0.4356 0.8916 0.3844
0.3549 0.9288 0.3852
0.2710 0.9584 0.3858
0.1845 0.9799 0.3863
0.0964 0.9932 0.3866
0.0073 0.9981 0.3867
-0.0818 0.9946 0.3866
-0.1702 0.9827 0.3864
-0.2570 0.9625 0.3859
-0.3414 0.9343 0.3853
-0.4227 0.8983 0.3846
-0.5000 0.8549 0.3837
-0.5728 0.8046 0.3826
-0.6403 0.7479 0.3814
-0.7021 0.6854 0.3801
-0.7577 0.6177 0.3787
-0.8066 0.5453 0.3772
-0.8484 0.4691 0.3756
-0.8830 0.3898 0.3739
-0.9101 0.3079 0.3722
-0.9296 0.2244 0.3704
-0.9413 0.1398 0.3687
-0.9455 0.0549 0.3669
-0.9420 -0.0296 0.3651
-0.9311 -0.1131 0.3634
-0.9130 -0.1948 0.3616
-0.8878 -0.2743 0.3600
-0.8559 -0.3509 0.3584
-0.8176 -0.4241 0.3568
-0.7733 -0.4934 0.3554
-0.7234 -0.5583 0.3540
-0.6682 -0.6185 0.3527
-0.6083 -0.6735 0.3516
-0.5441 -0.7230 0.3505
-0.4761 -0.7666 0.3496
-0.4049 -0.8043 0.3488
-0.3308 -0.8356 0.3482
-0.2545 -0.8605 0.3476
-0.1764 -0.8788 0.3473
-0.0972 -0.8905 0.3470
-0.0172 -0.8953 0.3469
0.0628 -0.8934 0.3469
0.1424 -0.8846 0.3471
0.2210 -0.8692 0.3474
0.2982 -0.8471 0.3479
0.3732 -0.8185 0.3485
0.4458 -0.7836 0.3492
0.5152 -0.7424 0.3501
0.5811 -0.6954 0.3511
0.6429 -0.6428 0.3522
0.7001 -0.5848 0.3534
0.7524 -0.5219 0.3547
0.7991 -0.4544 0.3561
0.8401 -0.3828 0.3576
0.8747 -0.3077 0.3592
0.9028 -0.2294 0.3609
0.9240 -0.1485 0.3626
0.9381 -0.0657 0.3643
0.9448 0.0184 0.3661
0.9439 0.1032 0.3678
0.9354 0.1880 0.3696
0.9193 0.2721 0.3714
0.8955 0.3547 0.3731
0.8641 0.4352 0.3748
0.8254 0.5129 0.3765
0.7795 0.5869 0.3780
0.7268 0.6567 0.3795
0.6676 0.7216 0.3808
0.6025 0.7809 0.3821
0.5319 0.8340 0.3832
0.4565 0.8804 0.3842
0.3768 0.9196 0.3850
0.2937 0.9512 0.3857
0.2078 0.9749 0.3862
0.1201 0.9904 0.3865
0.0311 0.9976 0.3867
-0.0581 0.9963 0.3866
-0.1467 0.9867 0.3864
-0.2340 0.9687 0.3861
-0.3191 0.9426 0.3855
-0.4013 0.9086 0.3848
-0.4797 0.8672 0.3839
-0.5538 0.8187 0.3829
-0.6228 0.7637 0.3818
-0.6862 0.7027 0.3805
-0.7435 0.6362 0.3791
-0.7942 0.5651 0.3776
-0.8380 0.4898 0.3760
-0.8745 0.4112 0.3744
-0.9036 0.3300 0.3727
-0.9251 0.2468 0.3709
-0.9389 0.1624 0.3691
-0.9451 0.0776 0.3674
-0.9437 -0.0071 0.3656
-0.9347 -0.0909 0.3638
-0.9185 -0.1732 0.3621
-0.8952 -0.2533 0.3604
-0.8651 -0.3308 0.3588
-0.8285 -0.4049 0.3572
-0.7857 -0.4753 0.3557
-0.7372 -0.5414 0.3544
-0.6834 -0.6029 0.3531
-0.6248 -0.6593 0.3519
-0.5617 -0.7103 0.3508
-0.4947 -0.7556 0.3499
-0.4242 -0.7948 0.3490
-0.3508 -0.8279 0.3483
-0.2751 -0.8545 0.3478
-0.1974 -0.8746 0.3473
-0.1184 -0.8880 0.3471
-0.0386 -0.8947 0.3469
0.0414 -0.8945 0.3469
0.1212 -0.8876 0.3471
0.2001 -0.8740 0.3473
0.2777 -0.8537 0.3478
0.3534 -0.8268 0.3483
0.4267 -0.7935 0.3490
0.4970 -0.7540 0.3499
0.5639 -0.7086 0.3508
0.6268 -0.6574 0.3519
0.6853 -0.6008 0.3531
0.7389 -0.5392 0.3544
0.7872 -0.4729 0.3558
0.8297 -0.4024 0.3572
0.8661 -0.3281 0.3588
0.8960 -0.2506 0.3604
0.9190 -0.1703 0.3621
0.9350 -0.0880 0.3638
0.9437 -0.0042 0.3656
0.9449 0.0805 0.3674
0.9384 0.1654 0.3692
0.9243 0.2497 0.3709
0.9026 0.3328 0.3727
0.8732 0.4140 0.3744
0.8364 0.4924 0.3760
0.7924 0.5675 0.3776
0.7415 0.6385 0.3791
0.6840 0.7048 0.3805
0.6204 0.7656 0.3818
0.5513 0.8204 0.3829
0.4771 0.8687 0.3839
0.3985 0.9099 0.3848
0.3162 0.9436 0.3855
0.2310 0.9694 0.3861
0.1437 0.9871 0.3864
0.0550 0.9965 0.3866
-0.0342 0.9975 0.3867
-0.1231 0.9901 0.3865
-0.2109 0.9743 0.3862
-0.2966 0.9503 0.3857
-0.3797 0.9185 0.3850
-0.4592 0.8790 0.3842
-0.5345 0.8323 0.3832
-0.6049 0.7790 0.3821
-0.6699 0.7195 0.3808
-0.7288 0.6545 0.3795
-0.7813 0.5845 0.3780
-0.8270 0.5103 0.3765
-0.8655 0.4325 0.3748
-0.8966 0.3519 0.3731
-0.9201 0.2692 0.3714
-0.9360 0.1851 0.3696
-0.9442 0.1003 0.3678
-0.9448 0.0155 0.3661
-0.9379 -0.0686 0.3643
-0.9236 -0.1514 0.3626
-0.9021 -0.2322 0.3609
-0.8738 -0.3104 0.3592
-0.8389 -0.3854 0.3576
-0.7977 -0.4569 0.3561
-0.7507 -0.5242 0.3547
-0.6983 -0.5870 0.3534
-0.6409 -0.6448 0.3522
-0.5789 -0.6972 0.3511
-0.5129 -0.7440 0.3501
-0.4433 -0.7849 0.3492
-0.3707 -0.8197 0.3485
-0.2955 -0.8480 0.3479
-0.2183 -0.8699 0.3474
-0.1396 -0.8851 0.3471
-0.0600 -0.8936 0.3469
0.0200 -0.8952 0.3469
0.0999 -0.8901 0.3470
0.1791 -0.8783 0.3473
0.2571 -0.8597 0.3476
0.3334 -0.8346 0.3482
0.4074 -0.8030 0.3488
0.4785 -0.7652 0.3496
0.5464 -0.7213 0.3505
0.6104 -0.6716 0.3516
0.6701 -0.6164 0.3527
0.7251 -0.5561 0.3540
0.7748 -0.4910 0.3554
0.8189 -0.4216 0.3568
0.8570 -0.3483 0.3584
0.8886 -0.2716 0.3600
0.9136 -0.1920 0.3616
0.9315 -0.1102 0.3634
0.9421 -0.0267 0.3651
0.9453 0.0578 0.3669
0.9409 0.1427 0.3687
0.9289 0.2272 0.3705
0.9091 0.3107 0.3722
0.8818 0.3925 0.3739
0.8470 0.4718 0.3756
0.8049 0.5478 0.3772
0.7558 0.6200 0.3787
0.7000 0.6876 0.3801
0.6380 0.7499 0.3814
0.5703 0.8064 0.3826
0.4973 0.8565 0.3837
0.4199 0.8996 0.3846
0.3385 0.9353 0.3853
0.2540 0.9633 0.3859
0.1672 0.9832 0.3864
0.0788 0.9948 0.3866
-0.0104 0.9981 0.3867
-0.0995 0.9929 0.3866
-0.1876 0.9793 0.3863
-0.2740 0.9575 0.3858
-0.3578 0.9277 0.3852
-0.4383 0.8903 0.3844
-0.5148 0.8455 0.3835
-0.5866 0.7939 0.3824
-0.6531 0.7360 0.3812
-0.7137 0.6724 0.3799
-0.7679 0.6037 0.3784
-0.8155 0.5305 0.3769
-0.8559 0.4536 0.3753
-0.8890 0.3737 0.3736
-0.9146 0.2915 0.3719
-0.9325 0.2077 0.3701
-0.9428 0.1230 0.3683
-0.9454 0.0381 0.3665
-0.9404 -0.0463 0.3648
-0.9281 -0.1294 0.3630
-0.9085 -0.2108 0.3613
-0.8820 -0.2897 0.3597
-0.8488 -0.3657 0.3581
-0.8093 -0.4382 0.3565
-0.7638 -0.5066 0.3551
-0.7128 -0.5707 0.3537
-0.6567 -0.6298 0.3525
-0.5959 -0.6837 0.3514
-0.5309 -0.7321 0.3503
-0.4623 -0.7746 0.3495
-0.3904 -0.8110 0.3487
-0.3158 -0.8411 0.3481
-0.2391 -0.8647 0.3476
-0.1608 -0.8817 0.3472
-0.0813 -0.8920 0.3470
-0.0014 -0.8955 0.3469
0.0786 -0.8922 0.3470
0.1581 -0.8821 0.3472
0.2364 -0.8654 0.3475
0.3132 -0.8420 0.3480
0.3878 -0.8121 0.3486
0.4598 -0.7759 0.3494
0.5286 -0.7336 0.3503
0.5937 -0.6854 0.3513
0.6546 -0.6317 0.3524
0.7109 -0.5727 0.3537
0.7621 -0.5089 0.3550
0.8077 -0.4405 0.3564
0.8474 -0.3682 0.3579
0.8808 -0.2924 0.3595
0.9076 -0.2135 0.3612
0.9274 -0.1322 0.3629
0.9400 -0.0491 0.3646
0.9452 0.0352 0.3664
0.9428 0.1200 0.3682
0.9328 0.2047 0.3700
0.9152 0.2886 0.3717
0.8899 0.3709 0.3735
0.8570 0.4509 0.3752
0.8168 0.5279 0.3768
0.7696 0.6011 0.3783
0.7156 0.6700 0.3798
0.6552 0.7338 0.3811
0.5889 0.7919 0.3823
0.5173 0.8438 0.3834
0.4410 0.8888 0.3844
0.3606 0.9265 0.3852
0.2769 0.9566 0.3858
0.1906 0.9787 0.3863
0.1025 0.9925 0.3866
0.0135 0.9980 0.3867
-0.0757 0.9951 0.3866
-0.1642 0.9838 0.3864
-0.2511 0.9641 0.3860
-0.3357 0.9365 0.3854
-0.4172 0.9010 0.3846
-0.4948 0.8581 0.3837
-0.5679 0.8083 0.3827
-0.6358 0.7521 0.3815
-0.6981 0.6899 0.3802
-0.7541 0.6225 0.3788
-0.8034 0.5505 0.3773
-0.8458 0.4745 0.3757
-0.8809 0.3953 0.3740
-0.9085 0.3136 0.3723
-0.9285 0.2302 0.3706
-0.9408 0.1456 0.3688
-0.9454 0.0608 0.3670
-0.9425 -0.0238 0.3652
-0.9321 -0.1073 0.3635
-0.9144 -0.1893 0.3618
-0.8897 -0.2689 0.3601
-0.8583 -0.3457 0.3585
-0.8205 -0.4192 0.3569
-0.7766 -0.4888 0.3555
-0.7270 -0.5540 0.3541
-0.6722 -0.6145 0.3528
-0.6126 -0.6699 0.3517
-0.5487 -0.7197 0.3506
-0.4809 -0.7638 0.3497
-0.4099 -0.8019 0.3489
-0.3360 -0.8337 0.3482
-0.2598 -0.8590 0.3477
-0.1818 -0.8778 0.3473
-0.1027 -0.8899 0.3470
-0.0228 -0.8952 0.3469
0.0573 -0.8937 0.3469
0.1369 -0.8855 0.3471
0.2156 -0.8705 0.3474
0.2929 -0.8489 0.3479
0.3681 -0.8207 0.3485
0.4409 -0.7862 0.3492
0.5106 -0.7455 0.3500
0.5767 -0.6989 0.3510
0.6388 -0.6466 0.3521
0.6963 -0.5890 0.3533
0.7489 -0.5264 0.3546
0.7961 -0.4592 0.3560
0.8374 -0.3879 0.3575
0.8725 -0.3130 0.3591
0.9011 -0.2349 0.3607
0.9228 -0.1542 0.3624
0.9373 -0.0715 0.3642
0.9445 0.0126 0.3659
0.9442 0.0973 0.3677
0.9363 0.1821 0.3695
0.9206 0.2663 0.3713
0.8974 0.3491 0.3730
0.8665 0.4297 0.3747
0.8283 0.5076 0.3763
0.7829 0.5820 0.3779
0.7306 0.6521 0.3794
0.6719 0.7173 0.3808
0.6072 0.7770 0.3820
0.5369 0.8305 0.3831
0.4618 0.8774 0.3841
0.3824 0.9172 0.3850
0.2995 0.9493 0.3856
0.2138 0.9736 0.3862
0.1262 0.9896 0.3865
0.0373 0.9974 0.3867
-0.0519 0.9967 0.3866
-0.1406 0.9876 0.3865
-0.2281 0.9702 0.3861
-0.3133 0.9446 0.3856
-0.3957 0.9112 0.3849
-0.4745 0.8703 0.3840
-0.5488 0.8223 0.3830
-0.6182 0.7677 0.3819
-0.6820 0.7071 0.3806
-0.7397 0.6410 0.3792
-0.7909 0.5701 0.3777
-0.8352 0.4951 0.3761
-0.8722 0.4168 0.3745
-0.9018 0.3357 0.3728
-0.9239 0.2526 0.3710
-0.9382 0.1683 0.3693
-0.9449 0.0834 0.3675
-0.9440 -0.0013 0.3657
-0.9356 -0.0852 0.3639
-0.9199 -0.1676 0.3622
-0.8970 -0.2479 0.3605
-0.8674 -0.3255 0.3589
-0.8312 -0.3999 0.3573
-0.7889 -0.4706 0.3558
-0.7408 -0.5370 0.3545
-0.6873 -0.5988 0.3532
-0.6290 -0.6556 0.3520
-0.5662 -0.7070 0.3509
-0.4994 -0.7526 0.3499
-0.4292 -0.7923 0.3491
-0.3560 -0.8258 0.3484
-0.2804 -0.8529 0.3478
-0.2028 -0.8734 0.3474
-0.1239 -0.8873 0.3471
-0.0442 -0.8944 0.3469
0.0359 -0.8948 0.3469
0.1157 -0.8883 0.3470
0.1947 -0.8751 0.3473
0.2724 -0.8553 0.3477
0.3482 -0.8289 0.3483
0.4217 -0.7960 0.3490
0.4923 -0.7569 0.3498
0.5594 -0.7119 0.3507
0.6226 -0.6611 0.3518
0.6814 -0.6049 0.3530
0.7354 -0.5436 0.3543
0.7840 -0.4776 0.3557
0.8270 -0.4073 0.3571
0.8638 -0.3333 0.3587
0.8941 -0.2560 0.3603
0.9177 -0.1759 0.3620
0.9342 -0.0937 0.3637
0.9433 -0.0100 0.3655
0.9450 0.0746 0.3672
0.9391 0.1595 0.3690
0.9256 0.2439 0.3708
0.9043 0.3271 0.3726
0.8755 0.4084 0.3743
0.8392 0.4871 0.3759
0.7957 0.5625 0.3775
0.7453 0.6338 0.3790
0.6882 0.7004 0.3804
0.6250 0.7616 0.3817
0.5562 0.8169 0.3828
0.4823 0.8656 0.3839
0.4040 0.9073 0.3848
0.3220 0.9415 0.3855
0.2370 0.9679 0.3860
0.1498 0.9862 0.3864
0.0611 0.9961 0.3866
-0.0281 0.9977 0.3867
-0.1170 0.9908 0.3865
-0.2049 0.9756 0.3862
-0.2908 0.9522 0.3857
-0.3740 0.9209 0.3851
-0.4538 0.8819 0.3842
-0.5294 0.8358 0.3833
-0.6002 0.7829 0.3822
-0.6656 0.7238 0.3809
-0.7249 0.6591 0.3796
-0.7779 0.5895 0.3781
-0.8240 0.5155 0.3766
-0.8630 0.4380 0.3749
-0.8947 0.3576 0.3732
-0.9187 0.2750 0.3715
-0.9351 0.1909 0.3697
-0.9439 0.1061 0.3680
-0.9450 0.0213 0.3662
-0.9386 -0.0629 0.3644
-0.9248 -0.1457 0.3627
-0.9038 -0.2267 0.3610
-0.8759 -0.3051 0.3593
-0.8415 -0.3804 0.3577
-0.8007 -0.4521 0.3562
-0.7542 -0.5197 0.3548
-0.7021 -0.5828 0.3535
-0.6450 -0.6409 0.3523
-0.5834 -0.6938 0.3512
-0.5176 -0.7410 0.3502
-0.4483 -0.7823 0.3493
-0.3758 -0.8175 0.3486
-0.3008 -0.8463 0.3479
-0.2237 -0.8686 0.3475
-0.1451 -0.8842 0.3471
-0.0655 -0.8932 0.3470
0.0145 -0.8953 0.3469
0.0944 -0.8907 0.3470
0.1737 -0.8793 0.3472
0.2518 -0.8612 0.3476
0.3282 -0.8366 0.3481
0.4023 -0.8054 0.3488
0.4737 -0.7680 0.3496
0.5418 -0.7245 0.3505
0.6061 -0.6752 0.3515
0.6662 -0.6204 0.3527
0.7215 -0.5604 0.3539
0.7716 -0.4957 0.3553
0.8161 -0.4265 0.3567
0.8546 -0.3534 0.3583
0.8867 -0.2770 0.3599
0.9121 -0.1976 0.3615
0.9305 -0.1159 0.3632
0.9416 -0.0325 0.3650
0.9453 0.0520 0.3668
0.9415 0.1368 0.3686
0.9299 0.2214 0.3703
0.9107 0.3050 0.3721
0.8839 0.3869 0.3738
0.8496 0.4664 0.3755
0.8080 0.5427 0.3771
0.7594 0.6152 0.3786
0.7041 0.6831 0.3800
0.6425 0.7458 0.3814
0.5751 0.8027 0.3826
0.5025 0.8532 0.3836
0.4253 0.8968 0.3845
0.3442 0.9331 0.3853
0.2599 0.9616 0.3859
0.1732 0.9821 0.3863
0.0849 0.9943 0.3866
-0.0042 0.9981 0.3867
-0.0933 0.9935 0.3866
-0.1815 0.9805 0.3863
-0.2681 0.9593 0.3859
-0.3521 0.9300 0.3853
-0.4329 0.8931 0.3845
-0.5097 0.8488 0.3836
-0.5818 0.7977 0.3825
-0.6486 0.7402 0.3813
-0.7097 0.6769 0.3799
-0.7644 0.6086 0.3785
-0.8124 0.5357 0.3770
-0.8533 0.4590 0.3754
-0.8869 0.3793 0.3737
-0.9130 0.2972 0.3720
-0.9315 0.2135 0.3702
-0.9423 0.1288 0.3684
-0.9454 0.0439 0.3667
-0.9410 -0.0405 0.3649
-0.9292 -0.1237 0.3631
-0.9101 -0.2052 0.3614
-0.8840 -0.2844 0.3598
-0.8513 -0.3606 0.3582
-0.8122 -0.4333 0.3566
-0.7672 -0.5021 0.3552
-0.7165 -0.5664 0.3538
-0.6607 -0.6259 0.3526
-0.6003 -0.6802 0.3514
-0.5356 -0.7289 0.3504
-0.4671 -0.7719 0.3495
-0.3954 -0.8087 0.3487
-0.3211 -0.8392 0.3481
-0.2445 -0.8633 0.3476
-0.1662 -0.8807 0.3472
-0.0869 -0.8915 0.3470
-0.0069 -0.8954 0.3469
0.0731 -0.8926 0.3470
0.1526 -0.8830 0.3472
0.2311 -0.8667 0.3475
0.3080 -0.8438 0.3480
0.3828 -0.8144 0.3486
0.4549 -0.7786 0.3493
0.5240 -0.7367 0.3502
0.5893 -0.6889 0.3512
0.6506 -0.6356 0.3523
0.7072 -0.5769 0.3536
0.7587 -0.5134 0.3549
0.8048 -0.4454 0.3563
0.8449 -0.3733 0.3578
0.8787 -0.2977 0.3594
0.9060 -0.2190 0.3611
0.9262 -0.1379 0.3628
0.9393 -0.0549 0.3645
0.9451 0.0293 0.3663
0.9432 0.1142 0.3681
0.9338 0.1989 0.3699
0.9166 0.2828 0.3716
0.8918 0.3652 0.3734
0.8595 0.4454 0.3750
0.8199 0.5227 0.3767
0.7731 0.5962 0.3782
0.7195 0.6654 0.3797
0.6595 0.7296 0.3810
0.5937 0.7881 0.3822
0.5224 0.8404 0.3833
0.4464 0.8859 0.3843
0.3663 0.9241 0.3851
0.2827 0.9548 0.3858
0.1966 0.9774 0.3862
0.1086 0.9918 0.3865
0.0196 0.9979 0.3867
-0.0696 0.9956 0.3866
-0.1581 0.9848 0.3864
-0.2452 0.9658 0.3860
-0.3299 0.9386 0.3854
-0.4117 0.9037 0.3847
-0.4896 0.8613 0.3838
-0.5630 0.8120 0.3828
-0.6313 0.7561 0.3816
-0.6940 0.6944 0.3803
-0.7504 0.6273 0.3789
-0.8002 0.5556 0.3774
-0.8431 0.4799 0.3758
-0.8787 0.4009 0.3742
-0.9068 0.3193 0.3724
-0.9273 0.2360 0.3707
-0.9402 0.1515 0.3689
-0.9454 0.0666 0.3671
-0.9429 -0.0180 0.3654
-0.9330 -0.1016 0.3636
-0.9159 -0.1837 0.3619
-0.8917 -0.2635 0.3602
-0.8607 -0.3405 0.3586
-0.8233 -0.4142 0.3570
-0.7798 -0.4841 0.3556
-0.7306 -0.5497 0.3542
-0.6761 -0.6105 0.3529
-0.6169 -0.6662 0.3517
-0.5532 -0.7165 0.3507
-0.4857 -0.7610 0.3497
-0.4149 -0.7995 0.3489
-0.3412 -0.8317 0.3483
-0.2651 -0.8575 0.3477
-0.1873 -0.8767 0.3473
-0.1082 -0.8893 0.3470
-0.0283 -0.8950 0.3469
0.0517 -0.8940 0.3469
0.1314 -0.8863 0.3471
0.2102 -0.8717 0.3474
0.2876 -0.8506 0.3478
0.3630 -0.8228 0.3484
0.4359 -0.7888 0.3491
0.5058 -0.7485 0.3500
0.5722 -0.7023 0.3509
0.7160 -0.5421 0.3543
0.7645 -0.4778 0.3556
0.8073 -0.4093 0.3571
0.8442 -0.3370 0.3586
0.8748 -0.2614 0.3602
0.8987 -0.1831 0.3618
0.9158 -0.1026 0.3635
0.9256 -0.0205 0.3653
0.9282 0.0625 0.3670
0.9233 0.1459 0.3687
0.9108 0.2288 0.3705
0.8909 0.3107 0.3722
0.8635 0.3907 0.3739
0.8287 0.4683 0.3755
0.7868 0.5427 0.3771
0.7381 0.6132 0.3786
0.6829 0.6791 0.3800
0.6216 0.7399 0.3812
0.5548 0.7948 0.3824
0.4828 0.8435 0.3834
0.4065 0.8852 0.3843
0.3265 0.9197 0.3850
0.2434 0.9466 0.3856
0.1581 0.9656 0.3860
0.0712 0.9764 0.3862
-0.0162 0.9790 0.3863
-0.1036 0.9733 0.3862
-0.1899 0.9595 0.3859
-0.2745 0.9376 0.3854
-0.3566 0.9079 0.3848
-0.4353 0.8706 0.3840
-0.5101 0.8263 0.3831
-0.5802 0.7752 0.3820
-0.6451 0.7181 0.3808
-0.7042 0.6553 0.3795
-0.7571 0.5876 0.3781
-0.8033 0.5156 0.3766
-0.8426 0.4399 0.3750
-0.8746 0.3613 0.3733
-0.8993 0.2805 0.3716
-0.9165 0.1981 0.3699
-0.9261 0.1150 0.3682
-0.9282 0.0317 0.3664
-0.9230 -0.0511 0.3647
-0.9104 -0.1327 0.3629
-0.8908 -0.2125 0.3613
-0.8643 -0.2899 0.3596
-0.8314 -0.3643 0.3581
-0.7922 -0.4353 0.3566
-0.7472 -0.5023 0.3552
-0.6968 -0.5649 0.3539
-0.6413 -0.6227 0.3526
-0.5813 -0.6754 0.3515
-0.5172 -0.7225 0.3505
-0.4495 -0.7639 0.3497
-0.3787 -0.7993 0.3489
-0.3053 -0.8285 0.3483
-0.2298 -0.8512 0.3478
-0.1527 -0.8675 0.3475
-0.0745 -0.8772 0.3473
0.0041 -0.8801 0.3472
0.0827 -0.8765 0.3473
0.1607 -0.8661 0.3475
0.2377 -0.8492 0.3479
0.3130 -0.8257 0.3484
0.3861 -0.7959 0.3490
0.4567 -0.7599 0.3497
0.5240 -0.7178 0.3506
0.5877 -0.6701 0.3516
0.6472 -0.6169 0.3527
0.7022 -0.5585 0.3540
0.7520 -0.4955 0.3553
0.7964 -0.4280 0.3567
0.8350 -0.3567 0.3582
0.8673 -0.2819 0.3598
0.8930 -0.2043 0.3614
0.9119 -0.1243 0.3631
0.9237 -0.0426 0.3648
0.9282 0.0403 0.3665
0.9253 0.1236 0.3683
0.9149 0.2067 0.3700
0.8969 0.2889 0.3718
0.8715 0.3695 0.3734
0.8387 0.4479 0.3751
0.7987 0.5232 0.3767
0.7518 0.5948 0.3782
0.6983 0.6620 0.3796
0.6386 0.7242 0.3809
0.5731 0.7808 0.3821
0.5025 0.8311 0.3832
0.4273 0.8748 0.3841
0.3482 0.9112 0.3848
0.2658 0.9402 0.3854
0.1810 0.9613 0.3859
0.0945 0.9743 0.3862
0.0072 0.9791 0.3863
-0.0803 0.9757 0.3862
-0.1670 0.9640 0.3860
-0.2521 0.9442 0.3855
-0.3349 0.9166 0.3850
-0.4147 0.8813 0.3842
-0.4906 0.8388 0.3833
-0.5620 0.7895 0.3823
-0.6283 0.7339 0.3811
-0.6890 0.6726 0.3799
-0.7436 0.6062 0.3785
-0.7916 0.5352 0.3770
-0.8328 0.4605 0.3754
-0.8668 0.3826 0.3738
-0.8934 0.3023 0.3721
-0.9126 0.2203 0.3704
-0.9243 0.1372 0.3686
-0.9284 0.0539 0.3669
-0.9251 -0.0291 0.3651
-0.9145 -0.1110 0.3634
-0.8967 -0.1914 0.3617
-0.8721 -0.2695 0.3601
-0.8408 -0.3447 0.3585
-0.8033 -0.4167 0.3570
-0.7598 -0.4848 0.3555
-0.7108 -0.5486 0.3542
-0.6566 -0.6077 0.3530
-0.5978 -0.6618 0.3518
-0.5347 -0.7105 0.3508
-0.4679 -0.7534 0.3499
-0.3979 -0.7905 0.3491
-0.3251 -0.8213 0.3485
-0.2501 -0.8458 0.3480
-0.1734 -0.8638 0.3476
-0.0955 -0.8752 0.3473
-0.0170 -0.8800 0.3472
0.0617 -0.8781 0.3473
0.1399 -0.8695 0.3474
0.2172 -0.8543 0.3478
0.2930 -0.8326 0.3482
0.3668 -0.8045 0.3488
0.4381 -0.7701 0.3495
0.5063 -0.7296 0.3504
0.5711 -0.6834 0.3513
0.6317 -0.6316 0.3524
0.6880 -0.5746 0.3536
0.7392 -0.5128 0.3549
0.7851 -0.4464 0.3563
0.8253 -0.3761 0.3578
0.8593 -0.3022 0.3593
0.8868 -0.2253 0.3610
0.9075 -0.1459 0.3626
0.9212 -0.0645 0.3643
0.9277 0.0181 0.3661
0.9268 0.1013 0.3678
0.9184 0.1846 0.3696
0.9025 0.2671 0.3713
0.8790 0.3482 0.3730
0.8482 0.4272 0.3747
0.8101 0.5034 0.3763
0.7650 0.5760 0.3778
0.7132 0.6445 0.3792
0.6551 0.7081 0.3806
0.5912 0.7662 0.3818
0.5219 0.8183 0.3829
0.4478 0.8638 0.3838
0.3697 0.9022 0.3846
0.2881 0.9332 0.3853
0.2039 0.9564 0.3858
0.1178 0.9716 0.3861
0.0306 0.9786 0.3863
-0.0570 0.9774 0.3862
-0.1439 0.9679 0.3860
-0.2296 0.9503 0.3857
-0.3131 0.9247 0.3851
-0.3937 0.8914 0.3844
-0.4707 0.8508 0.3836
-0.5434 0.8033 0.3826
-0.6111 0.7494 0.3815
-0.6734 0.6895 0.3802
-0.7296 0.6244 0.3788
-0.7794 0.5546 0.3774
-0.8225 0.4808 0.3758
-0.8584 0.4037 0.3742
-0.8870 0.3239 0.3725
-0.9082 0.2423 0.3708
-0.9219 0.1595 0.3691
-0.9280 0.0762 0.3673
-0.9267 -0.0070 0.3656
-0.9180 -0.0893 0.3639
-0.9021 -0.1701 0.3622
-0.8793 -0.2488 0.3605
-0.8498 -0.3249 0.3589
-0.8139 -0.3978 0.3574
-0.7720 -0.4670 0.3559
-0.7244 -0.5320 0.3546
-0.6716 -0.5924 0.3533
-0.6139 -0.6479 0.3521
-0.5520 -0.6980 0.3511
-0.4861 -0.7425 0.3501
-0.4169 -0.7812 0.3493
-0.3448 -0.8137 0.3486
-0.2703 -0.8399 0.3481
-0.1940 -0.8596 0.3477
-0.1164 -0.8728 0.3474
-0.0380 -0.8794 0.3472
0.0407 -0.8793 0.3472
0.1191 -0.8725 0.3474
0.1967 -0.8590 0.3477
0.2729 -0.8390 0.3481
0.3473 -0.8126 0.3486
0.4193 -0.7799 0.3493
0.4884 -0.7410 0.3501
0.5541 -0.6963 0.3511
0.6160 -0.6460 0.3521
0.6734 -0.5903 0.3533
0.7260 -0.5298 0.3546
0.7734 -0.4646 0.3559
0.8151 -0.3953 0.3574
0.8508 -0.3223 0.3589
0.8801 -0.2461 0.3605
0.9027 -0.1673 0.3622
0.9183 -0.0864 0.3639
0.9267 -0.0041 0.3656
0.9278 0.0790 0.3673
0.9214 0.1624 0.3691
0.9075 0.2451 0.3708
0.8860 0.3267 0.3725
0.8572 0.4063 0.3742
0.8210 0.4833 0.3758
0.7777 0.5570 0.3774
0.7277 0.6266 0.3788
0.6712 0.6916 0.3802
0.6088 0.7513 0.3815
0.5409 0.8050 0.3826
0.4681 0.8523 0.3836
0.3909 0.8927 0.3844
0.3102 0.9257 0.3851
0.2266 0.9510 0.3857
0.1409 0.9684 0.3860
0.0539 0.9776 0.3862
-0.0336 0.9785 0.3863
-0.1208 0.9713 0.3861
-0.2069 0.9558 0.3858
-0.2910 0.9323 0.3853
-0.3725 0.9011 0.3846
-0.4505 0.8624 0.3838
-0.5244 0.8167 0.3829
-0.5935 0.7644 0.3818
-0.6573 0.7061 0.3806
-0.7152 0.6423 0.3792
-0.7668 0.5736 0.3778
-0.8116 0.5008 0.3763
-0.8495 0.4246 0.3747
-0.8801 0.3455 0.3730
-0.9033 0.2643 0.3713
-0.9190 0.1817 0.3696
-0.9271 0.0984 0.3678
-0.9278 0.0152 0.3661
-0.9210 -0.0674 0.3643
-0.9071 -0.1487 0.3626
-0.8861 -0.2280 0.3609
-0.8583 -0.3049 0.3593
-0.8241 -0.3787 0.3578
-0.7837 -0.4489 0.3563
-0.7376 -0.5151 0.3549
-0.6862 -0.5767 0.3536
-0.6298 -0.6336 0.3524
-0.5689 -0.6852 0.3513
-0.5041 -0.7312 0.3504
-0.4357 -0.7714 0.3495
-0.3643 -0.8056 0.3488
-0.2905 -0.8335 0.3482
-0.2146 -0.8550 0.3478
-0.1372 -0.8699 0.3474
-0.0590 -0.8783 0.3473
0.0197 -0.8799 0.3472
0.0982 -0.8749 0.3473
0.1761 -0.8633 0.3476
0.2527 -0.8450 0.3480
0.3277 -0.8203 0.3485
0.4004 -0.7892 0.3491
0.4703 -0.7520 0.3499
0.5369 -0.7088 0.3508
0.5998 -0.6600 0.3518
0.6585 -0.6057 0.3530
0.7125 -0.5464 0.3542
0.7613 -0.4824 0.3556
0.8045 -0.4142 0.3570
0.8419 -0.3421 0.3585
0.8729 -0.2668 0.3601
0.8973 -0.1886 0.3617
0.9148 -0.1082 0.3634
0.9252 -0.0262 0.3651
0.9282 0.0568 0.3669
0.9238 0.1401 0.3686
0.9119 0.2231 0.3704
0.8925 0.3051 0.3721
0.8656 0.3853 0.3738
0.8313 0.4630 0.3754
0.7900 0.5377 0.3770
0.7417 0.6085 0.3785
0.6869 0.6747 0.3799
0.6260 0.7359 0.3811
0.5595 0.7912 0.3823
0.4880 0.8403 0.3833
0.4119 0.8826 0.3842
0.3321 0.9176 0.3850
0.2492 0.9450 0.3856
0.1640 0.9645 0.3860
0.0773 0.9759 0.3862
-0.0102 0.9791 0.3863
-0.0976 0.9740 0.3862
-0.1840 0.9607 0.3859
-0.2688 0.9394 0.3854
-0.3510 0.9102 0.3848
-0.4300 0.8734 0.3841
-0.5051 0.8295 0.3831
-0.5756 0.7790 0.3821
-0.6408 0.7222 0.3809
-0.7003 0.6598 0.3796
-0.7536 0.5924 0.3782
-0.8003 0.5207 0.3767
-0.8401 0.4452 0.3751
-0.8726 0.3668 0.3734
-0.8978 0.2861 0.3717
-0.9155 0.2039 0.3700
-0.9257 0.1207 0.3683
-0.9283 0.0374 0.3665
-0.9236 -0.0454 0.3648
-0.9115 -0.1271 0.3631
-0.8924 -0.2070 0.3614
-0.8664 -0.2846 0.3598
-0.8338 -0.3593 0.3582
-0.7951 -0.4305 0.3567
-0.7505 -0.4978 0.3553
-0.7004 -0.5607 0.3540
-0.6453 -0.6189 0.3527
-0.5856 -0.6719 0.3516
-0.5218 -0.7195 0.3506
-0.4543 -0.7613 0.3497
-0.3837 -0.7971 0.3490
-0.3104 -0.8267 0.3484
-0.2350 -0.8499 0.3479
-0.1580 -0.8666 0.3475
-0.0800 -0.8767 0.3473
-0.0014 -0.8802 0.3472
0.0773 -0.8769 0.3473
0.1554 -0.8670 0.3475
0.2324 -0.8505 0.3478
0.3078 -0.8275 0.3483
0.3812 -0.7981 0.3489
0.4519 -0.7625 0.3497
0.5195 -0.7209 0.3506
0.5834 -0.6736 0.3515
0.6433 -0.6207 0.3527
0.6985 -0.5627 0.3539
0.7488 -0.5000 0.3552
0.7936 -0.4328 0.3566
0.8325 -0.3617 0.3581
0.8652 -0.2872 0.3597
0.8914 -0.2097 0.3613
0.9108 -0.1299 0.3630
0.9231 -0.0483 0.3647
0.9281 0.0345 0.3664
0.9257 0.1178 0.3682
0.9158 0.2010 0.3699
0.8984 0.2833 0.3716
0.8735 0.3640 0.3733
0.8412 0.4425 0.3750
0.8017 0.5181 0.3766
0.7553 0.5900 0.3781
0.7022 0.6575 0.3795
0.6429 0.7201 0.3808
0.5778 0.7770 0.3820
0.5076 0.8278 0.3831
0.4326 0.8720 0.3840
0.3538 0.9090 0.3848
0.2716 0.9384 0.3854
0.1870 0.9601 0.3859
0.1006 0.9737 0.3862
0.0132 0.9790 0.3863
-0.0743 0.9762 0.3862
-0.1610 0.9651 0.3860
-0.2463 0.9458 0.3856
-0.3293 0.9187 0.3850
-0.4093 0.8840 0.3843
-0.4855 0.8419 0.3834
-0.5572 0.7931 0.3824
-0.6239 0.7379 0.3812
-0.6850 0.6770 0.3799
-0.7400 0.6109 0.3786
-0.7885 0.5402 0.3771
-0.8302 0.4657 0.3755
-0.8647 0.3880 0.3739
-0.8918 0.3079 0.3722
-0.9115 0.2260 0.3705
-0.9237 0.1430 0.3687
-0.9283 0.0597 0.3670
-0.9255 -0.0234 0.3652
-0.9154 -0.1054 0.3635
-0.8981 -0.1859 0.3618
-0.8740 -0.2641 0.3602
-0.8432 -0.3396 0.3586
-0.8060 -0.4118 0.3571
-0.7630 -0.4802 0.3556
-0.7143 -0.5444 0.3543
-0.6605 -0.6038 0.3530
-0.6020 -0.6583 0.3519
-0.5392 -0.7073 0.3509
-0.4727 -0.7507 0.3500
-0.4028 -0.7881 0.3492
-0.3302 -0.8194 0.3485
-0.2554 -0.8443 0.3480
-0.1787 -0.8628 0.3476
-0.1009 -0.8747 0.3473
-0.0224 -0.8799 0.3472
0.0563 -0.8784 0.3473
0.1346 -0.8703 0.3474
0.2119 -0.8556 0.3477
0.2879 -0.8343 0.3482
0.3618 -0.8066 0.3488
0.4333 -0.7727 0.3495
0.5017 -0.7326 0.3503
0.5667 -0.6868 0.3513
0.6277 -0.6354 0.3523
0.6842 -0.5787 0.3535
0.7358 -0.5172 0.3548
0.7821 -0.4512 0.3562
0.8227 -0.3811 0.3577
0.8571 -0.3074 0.3592
0.8851 -0.2307 0.3608
0.9063 -0.1514 0.3625
0.9205 -0.0702 0.3642
0.9275 0.0123 0.3659
0.9271 0.0956 0.3677
0.9192 0.1788 0.3694
0.9038 0.2614 0.3712
0.8809 0.3427 0.3729
0.8506 0.4218 0.3745
0.8130 0.4982 0.3761
0.7683 0.5711 0.3777
0.7170 0.6399 0.3791
0.6593 0.7039 0.3805
0.5958 0.7624 0.3817
0.5268 0.8149 0.3828
0.4531 0.8609 0.3838
0.3752 0.8998 0.3846
0.2939 0.9313 0.3853
0.2098 0.9551 0.3858
0.1238 0.9708 0.3861
0.0366 0.9784 0.3863
-0.0509 0.9777 0.3862
-0.1380 0.9688 0.3861
-0.2237 0.9518 0.3857
-0.3074 0.9267 0.3852
-0.3882 0.8940 0.3845
-0.4655 0.8539 0.3837
-0.5385 0.8068 0.3827
-0.6066 0.7533 0.3815
-0.6693 0.6938 0.3803
-0.7259 0.6290 0.3789
-0.7762 0.5595 0.3775
-0.8197 0.4860 0.3759
-0.8561 0.4091 0.3743
-0.8853 0.3295 0.3727
-0.9070 0.2480 0.3709
-0.9212 0.1652 0.3692
-0.9278 0.0819 0.3675
-0.9270 -0.0013 0.3657
-0.9188 -0.0836 0.3640
-0.9035 -0.1646 0.3623
-0.8811 -0.2435 0.3606
-0.8520 -0.3198 0.3590
-0.8166 -0.3929 0.3575
-0.7750 -0.4623 0.3560
-0.7278 -0.5276 0.3546
-0.6754 -0.5884 0.3534
-0.6181 -0.6442 0.3522
-0.5564 -0.6947 0.3511
-0.4908 -0.7396 0.3502
-0.4218 -0.7787 0.3494
-0.3499 -0.8116 0.3487
-0.2756 -0.8383 0.3481
-0.1994 -0.8585 0.3477
-0.1218 -0.8721 0.3474
-0.0434 -0.8791 0.3472
0.0353 -0.8795 0.3472
0.1137 -0.8731 0.3474
0.1914 -0.8602 0.3476
0.2677 -0.8406 0.3480
0.3423 -0.8146 0.3486
0.4144 -0.7823 0.3493
0.4838 -0.7439 0.3501
0.5497 -0.6996 0.3510
0.6118 -0.6496 0.3520
0.6696 -0.5944 0.3532
0.7226 -0.5341 0.3545
0.7703 -0.4692 0.3558
0.8124 -0.4002 0.3573
0.8485 -0.3274 0.3588
0.8783 -0.2515 0.3604
0.9013 -0.1728 0.3621
0.9174 -0.0921 0.3637
0.9264 -0.0098 0.3655
0.9280 0.0733 0.3672
0.9221 0.1566 0.3690
0.9087 0.2394 0.3707
0.8877 0.3211 0.3724
0.8594 0.4009 0.3741
0.8237 0.4781 0.3757
0.7809 0.5520 0.3773
0.7314 0.6220 0.3788
0.6753 0.6873 0.3801
0.6133 0.7473 0.3814
0.5457 0.8015 0.3825
0.4732 0.8492 0.3835
0.3964 0.8901 0.3844
0.3159 0.9236 0.3851
0.2325 0.9495 0.3856
0.1469 0.9674 0.3860
0.0600 0.9772 0.3862
-0.0275 0.9787 0.3863
-0.1148 0.9720 0.3861
-0.2010 0.9571 0.3858
-0.2853 0.9342 0.3853
-0.3670 0.9035 0.3847
-0.4452 0.8653 0.3839
-0.5194 0.8200 0.3829
-0.5889 0.7682 0.3819
-0.6531 0.7103 0.3806
-0.7114 0.6468 0.3793
-0.7634 0.5785 0.3779
-0.8088 0.5060 0.3764
-0.8471 0.4299 0.3748
-0.8782 0.3510 0.3731
-0.9019 0.2699 0.3714
-0.9181 0.1874 0.3697
-0.9268 0.1042 0.3679
-0.9280 0.0209 0.3662
-0.9217 -0.0617 0.3644
-0.9083 -0.1431 0.3627
-0.8877 -0.2226 0.3611
-0.8604 -0.2997 0.3594
-0.8266 -0.3737 0.3579
-0.7867 -0.4442 0.3564
-0.7410 -0.5106 0.3550
-0.6899 -0.5726 0.3537
-0.6338 -0.6298 0.3525
-0.5733 -0.6818 0.3514
-0.5087 -0.7282 0.3504
-0.4405 -0.7688 0.3496
-0.3694 -0.8034 0.3488
-0.2956 -0.8318 0.3482
-0.2199 -0.8537 0.3478
-0.1426 -0.8691 0.3475
-0.0644 -0.8779 0.3473
0.0143 -0.8800 0.3472
0.0928 -0.8755 0.3473
0.1707 -0.8643 0.3476
0.2475 -0.8465 0.3479
0.3226 -0.8222 0.3484
0.3954 -0.7916 0.3491
0.4656 -0.7548 0.3498
0.5324 -0.7120 0.3507
0.5956 -0.6635 0.3518
0.6546 -0.6096 0.3529
0.7089 -0.5507 0.3541
0.7581 -0.4870 0.3555
0.8017 -0.4190 0.3569
0.8395 -0.3472 0.3584
0.8710 -0.2721 0.3600
0.8958 -0.1941 0.3616
0.9138 -0.1138 0.3633
0.9247 -0.0319 0.3650
0.9283 0.0510 0.3668
0.9244 0.1344 0.3685
0.9130 0.2174 0.3702
0.8941 0.2994 0.3720
0.8677 0.3798 0.3737
0.8339 0.4578 0.3753
0.7930 0.5326 0.3769
0.7453 0.6037 0.3784
0.6909 0.6703 0.3798
0.6304 0.7318 0.3811
0.5643 0.7876 0.3822
0.4931 0.8371 0.3833
0.4173 0.8799 0.3842
0.3377 0.9154 0.3849
0.2550 0.9434 0.3855
0.1699 0.9634 0.3859
0.0833 0.9754 0.3862
-0.0041 0.9791 0.3863
-0.0915 0.9746 0.3862
-0.1781 0.9619 0.3859
-0.2630 0.9411 0.3855
-0.3454 0.9124 0.3849
-0.4247 0.8762 0.3841
-0.5001 0.8328 0.3832
-0.5709 0.7827 0.3822
-0.6365 0.7263 0.3810
-0.6964 0.6643 0.3797
-0.7502 0.5972 0.3783
-0.7973 0.5258 0.3768
-0.8376 0.4506 0.3752
-0.8706 0.3723 0.3736
-0.8963 0.2918 0.3719
-0.9145 0.2096 0.3701
-0.9252 0.1265 0.3684
-0.9284 0.0432 0.3666
-0.9241 -0.0397 0.3649
-0.9126 -0.1215 0.3632
-0.8939 -0.2016 0.3615
-0.8684 -0.2793 0.3599
-0.8363 -0.3542 0.3583
-0.7980 -0.4257 0.3568
-0.7538 -0.4933 0.3554
-0.7040 -0.5565 0.3540
-0.6493 -0.6150 0.3528
-0.5899 -0.6684 0.3517
-0.5263 -0.7164 0.3507
-0.4591 -0.7586 0.3498
-0.3887 -0.7948 0.3490
-0.3155 -0.8248 0.3484
-0.2403 -0.8485 0.3479
-0.1634 -0.8657 0.3475
-0.0854 -0.8762 0.3473
-0.0068 -0.8801 0.3472
0.0718 -0.8774 0.3473
0.1500 -0.8679 0.3475
0.2271 -0.8519 0.3478
0.3027 -0.8293 0.3483
0.3762 -0.8004 0.3489
0.4471 -0.7652 0.3496
0.5149 -0.7240 0.3505
0.5791 -0.6770 0.3515
0.6393 -0.6245 0.3526
0.6949 -0.5669 0.3538
0.7455 -0.5044 0.3551
0.7906 -0.4376 0.3565
0.8300 -0.3667 0.3580
0.8632 -0.2924 0.3595
0.8899 -0.2152 0.3612
0.9097 -0.1355 0.3628
0.9225 -0.0539 0.3645
0.9280 0.0288 0.3663
0.9262 0.1121 0.3680
0.9168 0.1953 0.3698
0.8999 0.2777 0.3715
0.8755 0.3585 0.3732
0.8437 0.4372 0.3749
0.8047 0.5130 0.3765
0.7587 0.5851 0.3780
0.7061 0.6530 0.3794
0.6472 0.7159 0.3807
0.5825 0.7733 0.3819
0.5126 0.8245 0.3830
0.4380 0.8691 0.3840
0.3593 0.9066 0.3847
0.2774 0.9366 0.3854
0.1929 0.9588 0.3858
0.1066 0.9730 0.3861
0.0193 0.9789 0.3863
-0.0682 0.9766 0.3862
-0.1551 0.9661 0.3860
-0.2405 0.9474 0.3856
-0.3237 0.9208 0.3851
-0.4039 0.8866 0.3843
-0.4803 0.8451 0.3835
-0.5524 0.7967 0.3825
-0.6195 0.7419 0.3813
-0.6810 0.6814 0.3800
-0.7364 0.6156 0.3787
-0.7854 0.5453 0.3772
-0.8275 0.4710 0.3756
-0.8625 0.3935 0.3740
-0.8902 0.3135 0.3723
-0.9104 0.2317 0.3706
-0.9231 0.1487 0.3689
-0.9283 0.0654 0.3671
-0.9260 -0.0177 0.3654
-0.9163 -0.0998 0.3636
-0.8996 -0.1804 0.3619
-0.8759 -0.2588 0.3603
-0.8455 -0.3345 0.3587
-0.8088 -0.4070 0.3572
-0.7661 -0.4756 0.3557
-0.7178 -0.5401 0.3544
-0.6644 -0.5999 0.3531
-0.6062 -0.6547 0.3520
-0.5437 -0.7041 0.3509
-0.4774 -0.7479 0.3500
-0.4078 -0.7857 0.3492
-0.3353 -0.8174 0.3486
-0.2606 -0.8428 0.3480
-0.1841 -0.8617 0.3476
-0.1063 -0.8740 0.3474
-0.0278 -0.8797 0.3472
0.0509 -0.8788 0.3473
0.1292 -0.8711 0.3474
0.2066 -0.8568 0.3477
0.2827 -0.8360 0.3481
0.3568 -0.8087 0.3487
0.4284 -0.7752 0.3494
0.4971 -0.7356 0.3502
0.5624 -0.6901 0.3512
0.7037 -0.5328 0.3545
0.7512 -0.4696 0.3558
0.7933 -0.4022 0.3572
0.8295 -0.3311 0.3587
0.8595 -0.2569 0.3603
0.8829 -0.1799 0.3619
0.8996 -0.1008 0.3636
0.9092 -0.0201 0.3653
0.9116 0.0614 0.3670
0.9067 0.1432 0.3687
0.8944 0.2247 0.3704
0.8748 0.3050 0.3721
0.8478 0.3836 0.3737
0.8136 0.4598 0.3753
0.7724 0.5328 0.3769
0.7246 0.6019 0.3783
0.6703 0.6666 0.3797
0.6101 0.7262 0.3809
0.5445 0.7801 0.3821
0.4739 0.8278 0.3831
0.3989 0.8687 0.3839
0.3204 0.9025 0.3847
0.2388 0.9289 0.3852
0.1551 0.9475 0.3856
0.0699 0.9581 0.3858
-0.0159 0.9606 0.3859
-0.1016 0.9551 0.3858
-0.1864 0.9415 0.3855
-0.2694 0.9200 0.3850
-0.3499 0.8909 0.3844
-0.4272 0.8544 0.3837
-0.5006 0.8109 0.3828
-0.5695 0.7609 0.3817
-0.6332 0.7048 0.3805
-0.6912 0.6432 0.3792
-0.7432 0.5768 0.3778
-0.7886 0.5062 0.3764
-0.8272 0.4319 0.3748
-0.8588 0.3548 0.3732
-0.8830 0.2754 0.3715
-0.9000 0.1946 0.3698
-0.9095 0.1129 0.3681
-0.9117 0.0311 0.3664
-0.9066 -0.0502 0.3647
-0.8943 -0.1304 0.3630
-0.8751 -0.2087 0.3614
-0.8492 -0.2848 0.3598
-0.8169 -0.3580 0.3582
-0.7785 -0.4277 0.3567
-0.7343 -0.4936 0.3554
-0.6848 -0.5552 0.3541
-0.6303 -0.6120 0.3529
-0.5714 -0.6638 0.3518
-0.5084 -0.7102 0.3508
-0.4419 -0.7509 0.3499
-0.3723 -0.7858 0.3492
-0.3001 -0.8144 0.3486
-0.2259 -0.8369 0.3481
-0.1501 -0.8528 0.3478
-0.0733 -0.8623 0.3476
0.0040 -0.8653 0.3475
0.0813 -0.8617 0.3476
0.1580 -0.8515 0.3478
0.2336 -0.8348 0.3482
0.3077 -0.8117 0.3487
0.3796 -0.7824 0.3493
0.4489 -0.7469 0.3500
0.5151 -0.7056 0.3509
0.5776 -0.6586 0.3519
0.6361 -0.6063 0.3530
0.6901 -0.5489 0.3542
0.7391 -0.4869 0.3555
0.7826 -0.4206 0.3569
0.8204 -0.3505 0.3583
0.8521 -0.2770 0.3599
0.8773 -0.2007 0.3615
0.8958 -0.1221 0.3631
0.9073 -0.0418 0.3648
0.9117 0.0396 0.3665
0.9087 0.1214 0.3682
0.8984 0.2030 0.3699
0.8807 0.2837 0.3716
0.8557 0.3628 0.3733
0.8234 0.4397 0.3749
0.7841 0.5136 0.3765
0.7380 0.5838 0.3779
0.6854 0.6498 0.3793
0.6268 0.7108 0.3806
0.5625 0.7663 0.3818
0.4932 0.8157 0.3828
0.4194 0.8585 0.3837
0.3417 0.8942 0.3845
0.2609 0.9226 0.3851
0.1776 0.9433 0.3855
0.0928 0.9560 0.3858
0.0070 0.9608 0.3859
-0.0788 0.9574 0.3858
-0.1639 0.9459 0.3856
-0.2474 0.9265 0.3852
-0.3287 0.8994 0.3846
-0.4069 0.8648 0.3839
-0.4814 0.8232 0.3830
-0.5515 0.7748 0.3820
-0.6167 0.7203 0.3809
-0.6763 0.6602 0.3796
-0.7299 0.5950 0.3782
-0.7771 0.5254 0.3768
-0.8176 0.4521 0.3752
-0.8510 0.3756 0.3736
-0.8773 0.2968 0.3720
-0.8962 0.2163 0.3703
-0.9077 0.1348 0.3686
-0.9118 0.0529 0.3668
-0.9087 -0.0286 0.3651
-0.8983 -0.1091 0.3634
-0.8809 -0.1880 0.3618
-0.8568 -0.2647 0.3602
-0.8261 -0.3387 0.3586
-0.7893 -0.4094 0.3571
-0.7467 -0.4764 0.3557
-0.6985 -0.5392 0.3544
-0.6453 -0.5973 0.3532
-0.5876 -0.6505 0.3521
-0.5256 -0.6984 0.3511
-0.4600 -0.7406 0.3502
-0.3912 -0.7770 0.3494
-0.3196 -0.8074 0.3488
-0.2459 -0.8315 0.3483
-0.1705 -0.8492 0.3479
-0.0939 -0.8604 0.3476
-0.0167 -0.8651 0.3475
0.0607 -0.8633 0.3476
0.1376 -0.8548 0.3478
0.2136 -0.8399 0.3481
0.2881 -0.8185 0.3485
0.3606 -0.7908 0.3491
0.4307 -0.7570 0.3498
0.4977 -0.7172 0.3506
0.5613 -0.6717 0.3516
0.6209 -0.6208 0.3527
0.6761 -0.5647 0.3538
0.7265 -0.5039 0.3551
0.7715 -0.4387 0.3565
0.8109 -0.3696 0.3579
0.8442 -0.2969 0.3594
0.8712 -0.2213 0.3610
0.8915 -0.1433 0.3627
0.9049 -0.0634 0.3644
0.9112 0.0177 0.3661
0.9103 0.0995 0.3678
0.9019 0.1812 0.3695
0.8862 0.2623 0.3712
0.8631 0.3419 0.3729
0.8328 0.4194 0.3745
0.7953 0.4942 0.3761
0.7510 0.5655 0.3776
0.7001 0.6326 0.3790
0.6430 0.6950 0.3803
0.5802 0.7520 0.3815
0.5122 0.8031 0.3826
0.4395 0.8477 0.3835
0.3628 0.8854 0.3843
0.2827 0.9158 0.3849
0.2001 0.9385 0.3854
0.1156 0.9534 0.3857
0.0300 0.9603 0.3859
-0.0559 0.9591 0.3859
-0.1412 0.9498 0.3857
-0.2253 0.9325 0.3853
-0.3072 0.9074 0.3848
-0.3863 0.8748 0.3841
-0.4619 0.8350 0.3833
-0.5333 0.7884 0.3823
-0.5998 0.7355 0.3812
-0.6609 0.6768 0.3799
-0.7162 0.6129 0.3786
-0.7652 0.5444 0.3772
-0.8075 0.4720 0.3756
-0.8428 0.3963 0.3741
-0.8710 0.3181 0.3724
-0.8919 0.2380 0.3707
-0.9054 0.1566 0.3690
-0.9115 0.0748 0.3673
-0.9102 -0.0068 0.3656
-0.9018 -0.0877 0.3639
-0.8863 -0.1671 0.3622
-0.8639 -0.2445 0.3606
-0.8350 -0.3192 0.3590
-0.7997 -0.3909 0.3575
-0.7586 -0.4589 0.3561
-0.7119 -0.5228 0.3547
-0.6600 -0.5822 0.3535
-0.6034 -0.6368 0.3524
-0.5426 -0.6861 0.3513
-0.4779 -0.7299 0.3504
-0.4098 -0.7679 0.3496
-0.3390 -0.7999 0.3489
-0.2658 -0.8257 0.3484
-0.1908 -0.8451 0.3480
-0.1144 -0.8581 0.3477
-0.0373 -0.8645 0.3476
0.0400 -0.8644 0.3476
0.1171 -0.8577 0.3477
0.1934 -0.8445 0.3480
0.2683 -0.8248 0.3484
0.3414 -0.7988 0.3489
0.4122 -0.7666 0.3496
0.4801 -0.7284 0.3504
0.5447 -0.6844 0.3513
0.6054 -0.6349 0.3524
0.6618 -0.5802 0.3535
0.7135 -0.5206 0.3548
0.7600 -0.4565 0.3561
0.8010 -0.3884 0.3575
0.8360 -0.3167 0.3590
0.8647 -0.2418 0.3606
0.8868 -0.1644 0.3622
0.9020 -0.0849 0.3639
0.9103 -0.0040 0.3656
0.9112 0.0776 0.3673
0.9049 0.1594 0.3690
0.8911 0.2407 0.3707
0.8700 0.3208 0.3724
0.8416 0.3989 0.3741
0.8060 0.4745 0.3757
0.7635 0.5468 0.3772
0.7143 0.6151 0.3786
0.6589 0.6788 0.3799
0.5975 0.7373 0.3812
0.5308 0.7900 0.3823
0.4593 0.8364 0.3833
0.3836 0.8760 0.3841
0.3044 0.9084 0.3848
0.2224 0.9332 0.3853
0.1383 0.9502 0.3857
0.0529 0.9592 0.3859
-0.0330 0.9602 0.3859
-0.1185 0.9530 0.3857
-0.2030 0.9379 0.3854
-0.2856 0.9149 0.3849
-0.3655 0.8842 0.3843
-0.4421 0.8463 0.3835
-0.5147 0.8015 0.3826
-0.5825 0.7502 0.3815
-0.6452 0.6930 0.3803
-0.7020 0.6304 0.3790
-0.7527 0.5631 0.3776
-0.7968 0.4917 0.3761
-0.8340 0.4168 0.3745
-0.8642 0.3392 0.3729
-0.8870 0.2595 0.3712
-0.9025 0.1784 0.3695
-0.9105 0.0967 0.3678
-0.9113 0.0149 0.3661
-0.9047 -0.0662 0.3643
-0.8911 -0.1461 0.3627
-0.8705 -0.2240 0.3610
-0.8433 -0.2995 0.3594
-0.8098 -0.3721 0.3579
-0.7702 -0.4411 0.3565
-0.7249 -0.5062 0.3551
-0.6744 -0.5668 0.3538
-0.6190 -0.6227 0.3526
-0.5592 -0.6735 0.3516
-0.4955 -0.7187 0.3506
-0.4283 -0.7583 0.3498
-0.3582 -0.7919 0.3491
-0.2855 -0.8194 0.3485
-0.2109 -0.8405 0.3481
-0.1349 -0.8552 0.3477
-0.0580 -0.8634 0.3476
0.0193 -0.8651 0.3475
0.0965 -0.8602 0.3476
0.1731 -0.8487 0.3479
0.2485 -0.8307 0.3483
0.3221 -0.8064 0.3488
0.3936 -0.7758 0.3494
0.4623 -0.7392 0.3502
0.5278 -0.6967 0.3511
0.5896 -0.6487 0.3521
0.6472 -0.5953 0.3532
0.7002 -0.5370 0.3544
0.7481 -0.4741 0.3557
0.7906 -0.4070 0.3571
0.8272 -0.3362 0.3586
0.8576 -0.2621 0.3602
0.8815 -0.1853 0.3618
0.8987 -0.1063 0.3634
0.9088 -0.0257 0.3651
0.9117 0.0558 0.3669
0.9073 0.1376 0.3686
0.8955 0.2191 0.3703
0.8764 0.2995 0.3720
0.8499 0.3783 0.3736
0.8162 0.4546 0.3752
0.7755 0.5278 0.3768
0.7281 0.5973 0.3782
0.6743 0.6623 0.3796
0.6145 0.7223 0.3809
0.5492 0.7766 0.3820
0.4789 0.8247 0.3830
0.4042 0.8661 0.3839
0.3259 0.9004 0.3846
0.2445 0.9273 0.3852
0.1609 0.9464 0.3856
0.0758 0.9576 0.3858
-0.0100 0.9607 0.3859
-0.0957 0.9557 0.3858
-0.1806 0.9427 0.3855
-0.2637 0.9218 0.3851
-0.3445 0.8932 0.3845
-0.4220 0.8571 0.3837
-0.4957 0.8141 0.3828
-0.5649 0.7645 0.3818
-0.6290 0.7088 0.3806
-0.6874 0.6477 0.3793
-0.7398 0.5815 0.3779
-0.7857 0.5112 0.3765
-0.8248 0.4371 0.3749
-0.8568 0.3602 0.3733
-0.8816 0.2810 0.3716
-0.8991 0.2002 0.3699
-0.9091 0.1186 0.3682
-0.9118 0.0367 0.3665
-0.9072 -0.0446 0.3648
-0.8954 -0.1249 0.3631
-0.8767 -0.2034 0.3615
-0.8512 -0.2796 0.3599
-0.8193 -0.3530 0.3583
-0.7813 -0.4230 0.3568
-0.7375 -0.4892 0.3555
-0.6884 -0.5511 0.3542
-0.6342 -0.6083 0.3530
-0.5756 -0.6604 0.3519
-0.5129 -0.7072 0.3509
-0.4466 -0.7483 0.3500
-0.3772 -0.7835 0.3493
-0.3052 -0.8127 0.3486
-0.2310 -0.8355 0.3482
-0.1554 -0.8520 0.3478
-0.0786 -0.8619 0.3476
-0.0013 -0.8653 0.3475
0.0760 -0.8621 0.3476
0.1527 -0.8524 0.3478
0.2285 -0.8361 0.3481
0.3026 -0.8135 0.3486
0.3747 -0.7846 0.3492
0.4442 -0.7496 0.3500
0.5106 -0.7086 0.3508
0.5735 -0.6621 0.3518
0.6322 -0.6101 0.3529
0.6865 -0.5531 0.3541
0.7358 -0.4913 0.3554
0.7798 -0.4253 0.3568
0.8180 -0.3554 0.3582
0.8501 -0.2822 0.3598
0.8758 -0.2060 0.3614
0.8947 -0.1276 0.3630
0.9068 -0.0474 0.3647
0.9116 0.0339 0.3664
0.9092 0.1157 0.3681
0.8994 0.1974 0.3698
0.8822 0.2782 0.3715
0.8577 0.3574 0.3732
0.8259 0.4345 0.3748
0.7870 0.5086 0.3764
0.7414 0.5791 0.3779
0.6892 0.6454 0.3792
0.6310 0.7068 0.3805
0.5671 0.7626 0.3817
0.4981 0.8124 0.3828
0.4246 0.8557 0.3837
0.3472 0.8920 0.3844
0.2665 0.9209 0.3850
0.1835 0.9421 0.3855
0.0987 0.9554 0.3858
0.0130 0.9607 0.3859
-0.0729 0.9579 0.3858
-0.1580 0.9470 0.3856
-0.2417 0.9281 0.3852
-0.3232 0.9015 0.3847
-0.4016 0.8675 0.3839
-0.4764 0.8263 0.3831
-0.5469 0.7784 0.3821
-0.6124 0.7243 0.3809
-0.6724 0.6645 0.3797
-0.7264 0.5997 0.3783
-0.7741 0.5303 0.3769
-0.8150 0.4572 0.3753
-0.8490 0.3810 0.3737
