ply
format ascii 1.0
element vertex 2176
property float32 x
property float32 y
property float32 z
end_header
-0.6450 -1.5397 0.3334
-0.5036 -1.5864 0.3324
-0.3593 -1.6214 0.3317
-0.2130 -1.6445 0.3312
-0.0654 -1.6558 0.3309
0.0825 -1.6550 0.3309
0.2300 -1.6424 0.3312
0.3761 -1.6178 0.3317
0.5201 -1.5815 0.3325
0.6610 -1.5334 0.3335
0.7981 -1.4738 0.3347
0.9305 -1.4030 0.3362
1.0573 -1.3211 0.3379
5.9201 -6.1761 1.7086
2.6176 -2.2831 0.6937
2.8255 -2.0513 0.6973
3.0140 -1.8012 0.7012
3.1815 -1.5343 0.7054
3.3264 -1.2522 0.7098
3.4472 -0.9568 0.7145
3.5425 -0.6499 0.7193
3.6110 -0.3337 0.7242
3.6518 -0.0103 0.7293
3.6638 0.3176 0.7345
3.6464 0.6476 0.7396
3.5991 0.9770 0.7448
3.5216 1.3030 0.7499
3.4141 1.6226 0.7549
3.2767 1.9331 0.7598
3.1103 2.2312 0.7645
2.9158 2.5143 0.7689
6.9321 7.1504 1.9890
6.2968 7.7772 1.9985
5.6021 8.3435 2.0071
0.9705 1.7681 0.4028
0.8127 1.8562 0.4047
0.6463 1.9285 0.4062
0.4731 1.9841 0.4074
0.2949 2.0224 0.4082
0.1134 2.0429 0.4086
-0.0692 2.0451 0.4087
-0.2511 2.0291 0.4083
-0.4303 1.9952 0.4076
-0.6050 1.9437 0.4066
-0.7732 1.8754 0.4051
-0.9333 1.7911 0.4034
-5.4251 8.4705 2.0089
-6.1295 7.9150 1.9993
-6.7747 7.2977 1.9887
-7.3554 6.6256 1.9771
-7.8673 5.9059 1.9647
-8.3069 5.1462 1.9516
-8.6716 4.3541 1.9379
-8.9598 3.5375 1.9238
-9.1706 2.7040 1.9094
-9.3038 1.8610 1.8949
-9.3602 1.0160 1.8803
-9.3410 0.1758 1.8658
-9.2230 -0.6512 1.8465
-6.2202 -1.0025 1.2583
-5.9769 -1.5204 1.2317
-5.8414 -2.0558 1.2368
-5.9842 -2.7278 1.3134
-5.9883 -3.4049 1.3758
-6.0692 -4.2086 1.4750
-6.6343 -5.5384 1.7260
-6.0634 -6.0575 1.7117
-1.0873 -1.2999 0.3384
-0.9619 -1.3843 0.3367
-0.8308 -1.4579 0.3351
-0.6947 -1.5202 0.3338
-0.5546 -1.5710 0.3327
-0.4113 -1.6102 0.3319
-0.2656 -1.6376 0.3313
-0.1183 -1.6531 0.3310
0.0296 -1.6567 0.3309
0.1773 -1.6483 0.3311
0.3240 -1.6280 0.3315
0.4688 -1.5958 0.3322
0.6110 -1.5519 0.3331
0.7496 -1.4965 0.3343
0.8837 -1.4296 0.3357
1.0126 -1.3516 0.3373
5.7041 -6.3449 1.7039
2.5388 -2.3614 0.6925
2.7532 -2.1364 0.6960
2.9489 -1.8927 0.6998
3.1241 -1.6317 0.7039
3.2772 -1.3548 0.7082
3.4068 -1.0640 0.7128
3.5113 -0.7609 0.7175
3.5896 -0.4478 0.7224
3.6404 -0.1267 0.7275
3.6628 0.1998 0.7326
3.6560 0.5294 0.7378
3.6195 0.8594 0.7429
3.5528 1.1869 0.7481
3.4560 1.5091 0.7531
3.3293 1.8232 0.7581
3.1732 2.1261 0.7628
2.9886 2.4149 0.7674
7.1441 6.9126 1.9853
6.5313 7.5594 1.9952
5.8573 8.1482 2.0041
1.0247 1.7330 0.4021
0.8702 1.8264 0.4040
0.7068 1.9044 0.4057
0.5358 1.9662 0.4070
0.3591 2.0108 0.4079
0.1786 2.0376 0.4085
-0.0038 2.0464 0.4087
-0.1862 2.0369 0.4085
-0.3666 2.0094 0.4079
-0.5431 1.9641 0.4070
-0.7138 1.9017 0.4057
-0.8770 1.8231 0.4040
-1.0310 1.7291 0.4021
-5.8839 8.1213 2.0029
-6.5509 7.5254 1.9926
-7.1553 6.8720 1.9813
-7.6922 6.1685 1.9692
-8.1580 5.4222 1.9563
-8.5498 4.6408 1.9428
-8.8655 3.8321 1.9289
-9.1040 3.0038 1.9146
-9.2650 2.1634 1.9001
-9.3488 1.3183 1.8855
-9.3564 0.4756 1.8710
-9.2735 -0.3574 1.8534
-9.1102 -1.1709 1.8344
-5.9756 -1.3182 1.2221
-5.9466 -1.8815 1.2456
-5.9828 -2.4995 1.2949
-5.9868 -3.1552 1.3515
-5.9912 -3.8769 1.4252
-5.7651 -4.5080 1.4616
-6.2720 -5.8775 1.7166
-5.6783 -6.3636 1.7033
-1.0075 -1.3553 0.3373
-0.8784 -1.4328 0.3356
-0.7440 -1.4992 0.3342
-0.6052 -1.5541 0.3331
-0.4629 -1.5975 0.3322
-0.3179 -1.6292 0.3315
-0.1712 -1.6489 0.3311
-0.0234 -1.6568 0.3309
0.1245 -1.6527 0.3310
0.2716 -1.6366 0.3313
0.4173 -1.6087 0.3319
0.5605 -1.5690 0.3327
0.7004 -1.5176 0.3338
0.8363 -1.4548 0.3351
0.9671 -1.3808 0.3367
5.4840 -6.5069 1.6995
2.4578 -2.4372 0.6913
2.6785 -2.2192 0.6947
2.8811 -1.9820 0.6984
3.0638 -1.7270 0.7024
3.2250 -1.4556 0.7066
3.3632 -1.1696 0.7111
3.4769 -0.8707 0.7158
3.5647 -0.5609 0.7207
3.6255 -0.2424 0.7257
3.6581 0.0825 0.7308
3.6619 0.4112 0.7359
3.6360 0.7414 0.7411
3.5801 1.0701 0.7463
3.4941 1.3946 0.7513
3.3780 1.7119 0.7563
3.2324 2.0191 0.7611
3.0579 2.3133 0.7658
2.8556 2.5915 0.7701
6.7580 7.3342 1.9917
6.1053 7.9445 2.0010
1.0774 1.6961 0.4013
0.9266 1.7947 0.4034
0.7662 1.8783 0.4051
0.5978 1.9460 0.4066
0.4229 1.9968 0.4076
0.2436 2.0301 0.4083
0.0616 2.0453 0.4087
-0.1210 2.0424 0.4086
-0.3024 2.0213 0.4082
-0.4805 1.9823 0.4074
-0.6535 1.9260 0.4062
-0.8195 1.8530 0.4047
-0.9770 1.7644 0.4028
-5.6309 8.3194 2.0063
-6.3191 7.7456 1.9964
-6.9465 7.1121 1.9855
-7.5080 6.4256 1.9736
-7.9997 5.6938 1.9610
-8.4182 4.9241 1.9477
-8.7614 4.1243 1.9339
-9.0276 3.3021 1.9197
-9.2163 2.4652 1.9053
-9.3276 1.6209 1.8908
-9.3623 0.7765 1.8762
-9.3149 -0.0610 1.8603
-9.1766 -0.8823 1.8411
-5.9744 -1.1190 1.2139
-5.9778 -1.6831 1.2403
-5.8500 -2.2271 1.2501
-5.9854 -2.9139 1.3295
-5.9896 -3.6097 1.3966
-5.8725 -4.2968 1.4532
-6.4759 -5.6910 1.7218
-5.8947 -6.1956 1.7079
-1.0523 -1.3249 0.3379
-0.9252 -1.4063 0.3362
-0.7926 -1.4767 0.3347
-0.6553 -1.5358 0.3335
-0.5142 -1.5833 0.3325
-0.3701 -1.6192 0.3317
-0.2239 -1.6432 0.3312
-0.0763 -1.6553 0.3309
0.0716 -1.6555 0.3309
0.2191 -1.6437 0.3312
0.3654 -1.6201 0.3317
0.5095 -1.5845 0.3324
0.6507 -1.5373 0.3334
0.7882 -1.4786 0.3346
0.9209 -1.4086 0.3361
1.0481 -1.3275 0.3378
5.8758 -6.2115 1.7076
2.6015 -2.2995 0.6934
2.8108 -2.0691 0.6970
3.0008 -1.8203 0.7009
3.1699 -1.5546 0.7051
3.3165 -1.2736 0.7095
3.4391 -0.9790 0.7141
3.5363 -0.6729 0.7189
3.6069 -0.3573 0.7239
3.6497 -0.0344 0.7289
3.6639 0.2933 0.7341
3.6487 0.6232 0.7392
3.6036 0.9528 0.7444
3.5284 1.2791 0.7495
3.4230 1.5993 0.7546
3.2879 1.9105 0.7594
3.1236 2.2097 0.7641
2.9311 2.4939 0.7686
6.9766 7.1018 1.9882
6.3459 7.7328 1.9978
5.6554 8.3039 2.0065
0.9818 1.7610 0.4027
0.8247 1.8502 0.4045
0.6589 1.9237 0.4061
0.4861 1.9806 0.4073
0.3082 2.0202 0.4081
0.1269 2.0420 0.4086
-0.0557 2.0456 0.4087
-0.2377 2.0309 0.4084
-0.4172 1.9983 0.4077
-0.5923 1.9481 0.4066
-0.7610 1.8810 0.4052
-0.9217 1.7979 0.4035
-5.3701 8.5078 2.0093
-6.0794 7.9583 2.0001
-6.7292 7.3453 1.9895
-7.3148 6.6770 1.9780
-7.8319 5.9605 1.9656
-8.2770 5.2035 1.9525
-8.6473 4.4136 1.9389
-8.9412 3.5985 1.9249
-9.1576 2.7660 1.9105
-9.2966 1.9235 1.8960
-9.3586 1.0784 1.8814
-9.3449 0.2376 1.8669
-9.2342 -0.5907 1.8480
-6.4902 -1.0021 1.3115
-5.9766 -1.4784 1.2296
-5.8529 -2.0165 1.2363
-5.9839 -2.6801 1.3095
-5.9880 -3.3526 1.3706
-6.1621 -4.2131 1.4908
-6.6750 -5.4980 1.7271
-6.1068 -6.0209 1.7127
-1.0963 -1.2932 0.3386
-0.9714 -1.3785 0.3368
-0.8407 -1.4528 0.3352
-0.7049 -1.5160 0.3339
-0.5651 -1.5677 0.3328
-0.4219 -1.6077 0.3320
-0.2764 -1.6360 0.3314
-0.1293 -1.6524 0.3310
0.0186 -1.6568 0.3309
0.1664 -1.6493 0.3311
0.3132 -1.6299 0.3315
0.4582 -1.5986 0.3321
0.6006 -1.5556 0.3330
0.7395 -1.5009 0.3342
0.8740 -1.4349 0.3355
1.0033 -1.3578 0.3372
5.6590 -6.3789 1.7030
2.5222 -2.3773 0.6922
2.7380 -2.1537 0.6957
2.9351 -1.9113 0.6995
3.1119 -1.6515 0.7036
3.2667 -1.3758 0.7079
3.3980 -1.0859 0.7124
3.5045 -0.7837 0.7172
3.5848 -0.4712 0.7221
3.6376 -0.1507 0.7271
3.6622 0.1756 0.7322
3.6575 0.5050 0.7374
3.6232 0.8350 0.7426
3.5588 1.1628 0.7477
3.4642 1.4856 0.7528
3.3396 1.8003 0.7577
3.1857 2.1042 0.7625
3.0032 2.3941 0.7670
7.1868 6.8627 1.9846
6.5788 7.5135 1.9945
5.9091 8.1068 2.0035
1.0357 1.7256 0.4019
0.8820 1.8200 0.4039
0.7191 1.8992 0.4056
0.5487 1.9622 0.4069
0.3724 2.0081 0.4079
0.1921 2.0363 0.4085
0.0097 2.0464 0.4087
-0.1728 2.0383 0.4085
-0.3534 2.0120 0.4080
-0.5302 1.9681 0.4071
-0.7014 1.9069 0.4058
-0.8652 1.8294 0.4042
-1.0200 1.7366 0.4022
-5.8322 8.1629 2.0036
-6.5037 7.5715 1.9934
-7.1129 6.9221 1.9822
-7.6549 6.2221 1.9701
-8.1261 5.4787 1.9573
-8.5234 4.6996 1.9439
-8.8448 3.8927 1.9299
-9.0891 3.0655 1.9157
-9.2557 2.2257 1.9012
-9.3452 1.3807 1.8866
-9.3584 0.5376 1.8721
-9.2828 -0.2964 1.8548
-9.1246 -1.1116 1.8358
-5.9754 -1.2769 1.2203
-5.9789 -1.8484 1.2498
-5.9825 -2.4531 1.2913
-5.9865 -3.1048 1.3468
-5.9909 -3.8208 1.4191
-5.7755 -4.4550 1.4567
-6.3145 -5.8396 1.7177
-5.7233 -6.3295 1.7042
-1.0168 -1.3492 0.3374
-0.8881 -1.4275 0.3358
-0.7541 -1.4947 0.3343
-0.6156 -1.5505 0.3332
-0.4735 -1.5947 0.3322
-0.3287 -1.6272 0.3315
-0.1820 -1.6479 0.3311
-0.0343 -1.6566 0.3309
0.1136 -1.6534 0.3310
0.2608 -1.6382 0.3313
0.4066 -1.6112 0.3319
0.5500 -1.5723 0.3327
0.6902 -1.5218 0.3337
0.8264 -1.4599 0.3350
0.9576 -1.3867 0.3366
1.0831 -1.3025 0.3383
6.0448 -6.0739 1.7114
2.6628 -2.2360 0.6944
2.8668 -2.0002 0.6981
3.0510 -1.7464 0.7021
3.2139 -1.4762 0.7063
3.3196 -0.9888 0.7140
3.4166 -0.6933 0.7186
3.4878 -0.3884 0.7234
3.5323 -0.0763 0.7283
3.5491 0.2407 0.7332
3.5375 0.5600 0.7383
3.4970 0.8792 0.7433
3.4274 1.1955 0.7482
3.3287 1.5062 0.7531
3.2011 1.8083 0.7578
3.0453 2.0992 0.7624
2.8622 2.3759 0.7667
2.6529 2.6356 0.7708
6.2232 7.3980 1.9927
1.1090 1.5865 0.3990
0.9682 1.6881 0.4011
0.8176 1.7759 0.4030
0.6584 1.8487 0.4045
0.4924 1.9057 0.4057
0.3211 1.9461 0.4066
0.1465 1.9694 0.4071
-0.0297 1.9753 0.4072
-0.2057 1.9636 0.4070
-0.3794 1.9345 0.4064
-0.5491 1.8885 0.4054
-0.7130 1.8261 0.4041
-0.8695 1.7481 0.4025
-1.0171 1.6556 0.4005
-5.7866 7.7690 1.9968
-6.4239 7.1856 1.9867
-7.0001 6.5476 1.9757
-7.4787 5.8367 1.9555
-7.9527 5.1357 1.9514
-8.3228 4.3764 1.9383
-8.6194 3.5914 1.9247
-8.8412 2.7882 1.9109
-8.9881 1.9740 1.8968
-9.0605 1.1559 1.8827
-9.0593 0.3406 1.8687
-8.9675 -0.4642 1.8509
-7.0606 -1.0024 1.4700
-5.9761 -1.4013 1.2653
-5.8629 -1.9405 1.2730
-5.9834 -2.5930 1.3442
-5.9874 -3.2572 1.4050
-7.0618 -4.7031 1.7489
-5.7997 -4.6597 1.5335
-6.0102 -5.7831 1.7192
-1.0806 -1.2437 0.3396
-0.9604 -1.3282 0.3378
-0.8342 -1.4020 0.3363
-0.7031 -1.4650 0.3350
-0.5678 -1.5169 0.3339
-0.4291 -1.5575 0.3330
-0.2880 -1.5867 0.3324
-0.1451 -1.6042 0.3320
-0.0015 -1.6101 0.3319
0.1422 -1.6044 0.3320
0.2850 -1.5871 0.3324
0.4262 -1.5581 0.3330
0.5649 -1.5178 0.3338
0.7002 -1.4661 0.3349
0.8315 -1.4033 0.3362
0.9577 -1.3296 0.3378
1.0780 -1.2454 0.3395
2.4179 -2.3351 0.6929
2.6292 -2.1204 0.6962
2.8225 -1.8873 0.6999
2.9963 -1.6372 0.7038
3.1489 -1.3715 0.7080
3.2788 -1.0920 0.7124
3.3848 -0.8003 0.7169
3.4654 -0.4985 0.7217
3.5195 -0.1887 0.7265
3.5463 0.1268 0.7315
3.5450 0.4456 0.7365
3.5149 0.7651 0.7415
3.4557 1.0828 0.7465
3.3673 1.3958 0.7514
3.2501 1.7013 0.7562
3.1043 1.9966 0.7608
2.9308 2.2786 0.7652
2.7307 2.5448 0.7694
6.4459 7.1835 1.9895
5.8052 7.7640 1.9983
1.0198 1.6533 0.4004
0.8726 1.7461 0.4024
0.7163 1.8244 0.4040
0.5525 1.8872 0.4053
0.3829 1.9336 0.4063
0.2093 1.9631 0.4069
0.0334 1.9752 0.4072
-0.1429 1.9698 0.4071
-0.3176 1.9469 0.4066
-0.4889 1.9069 0.4058
-0.6551 1.8503 0.4046
-0.8145 1.7778 0.4031
-0.9654 1.6903 0.4012
-5.5446 7.9634 2.0002
-6.2025 7.4011 1.9905
-6.8011 6.7818 1.9798
-7.3358 6.1124 1.9682
-7.8027 5.3999 1.9559
-8.1987 4.6516 1.9430
-8.5218 3.8749 1.9296
-8.7704 3.0774 1.9159
-8.9441 2.2663 1.9019
-9.0431 1.4487 1.8878
-9.0681 0.6317 1.8737
-9.0102 -0.1780 1.8576
-8.8690 -0.9711 1.8391
-5.9749 -1.2010 1.2562
-5.9784 -1.7688 1.2851
-5.8773 -2.3268 1.3030
-5.9859 -3.0126 1.3813
-7.2326 -4.4900 1.7548
-5.8203 -4.3777 1.5012
-6.2097 -5.6041 1.7242
-5.6413 -6.0882 1.7109
-1.0041 -1.2991 0.3385
-0.8800 -1.3768 0.3368
-0.7505 -1.4438 0.3354
-0.6166 -1.4997 0.3342
-0.4791 -1.5443 0.3333
-0.3387 -1.5775 0.3326
-0.1964 -1.5993 0.3321
-0.0530 -1.6093 0.3319
0.0908 -1.6078 0.3319
0.2340 -1.5946 0.3322
0.3759 -1.5698 0.3327
0.5156 -1.5335 0.3335
0.6522 -1.4859 0.3345
0.7850 -1.4270 0.3357
0.9131 -1.3572 0.3372
1.0357 -1.2767 0.3389
2.3686 -2.4386 0.7007
2.5555 -2.1995 0.6950
2.7555 -1.9728 0.6985
2.9365 -1.7286 0.7024
3.0968 -1.4683 0.7065
3.2350 -1.1935 0.7108
3.3497 -0.9060 0.7153
3.4395 -0.6076 0.7199
3.5032 -0.3004 0.7248
3.5399 0.0133 0.7297
3.5487 0.3312 0.7347
3.5290 0.6508 0.7397
3.4802 0.9695 0.7447
3.4023 1.2844 0.7496
3.2953 1.5930 0.7545
3.1597 1.8922 0.7592
2.9960 2.1793 0.7637
2.8053 2.4515 0.7679
6.6609 6.9620 1.9861
6.0411 7.5629 1.9952
1.0701 1.6167 0.3996
0.9264 1.7145 0.4017
0.7732 1.7981 0.4035
0.6119 1.8666 0.4049
0.4442 1.9189 0.4060
0.2718 1.9545 0.4068
0.0965 1.9729 0.4071
-0.0798 1.9737 0.4072
-0.2553 1.9571 0.4068
-0.4281 1.9232 0.4061
-0.5963 1.8724 0.4051
-0.7583 1.8055 0.4037
-0.9124 1.7233 0.4019
-1.0571 1.6268 0.3999
-5.9735 7.6092 1.9940
-6.5940 7.0096 1.9837
-7.1520 6.3574 1.9724
-7.6110 5.6353 1.9521
-8.0652 4.9231 1.9477
-8.4146 4.1557 1.9345
-8.6900 3.3648 1.9208
-8.8906 2.5577 1.9069
-9.0162 1.7417 1.8928
-9.0676 0.9237 1.8787
-9.0440 0.1105 1.8644
-8.9274 -0.6895 1.8457
-5.9767 -1.0037 1.2492
-5.9771 -1.5625 1.2734
-5.8110 -2.0883 1.2728
-5.9845 -2.7758 1.3598
-5.9887 -3.4576 1.4254
-6.0166 -4.2312 1.5162
-6.4045 -5.4187 1.7292
-5.8487 -5.9207 1.7155
-1.0471 -1.2688 0.3391
-0.9251 -1.3502 0.3374
-0.7974 -1.4211 0.3359
-0.6650 -1.4809 0.3346
-0.5287 -1.5296 0.3336
-0.3892 -1.5670 0.3328
-0.2475 -1.5928 0.3323
-0.1044 -1.6071 0.3320
0.0394 -1.6097 0.3319
0.1829 -1.6007 0.3321
0.3253 -1.5800 0.3325
0.4659 -1.5478 0.3332
0.6037 -1.5042 0.3341
0.7380 -1.4493 0.3352
0.8678 -1.3834 0.3366
0.9925 -1.3067 0.3382
5.5862 -6.1318 1.7098
2.4796 -2.2761 0.6938
2.6860 -2.0560 0.6972
2.8740 -1.8180 0.7010
3.0419 -1.5633 0.7050
3.1882 -1.2935 0.7092
3.3114 -1.0102 0.7136
3.4103 -0.7155 0.7183
3.4835 -0.4112 0.7230
3.5300 -0.0996 0.7279
3.5488 0.2171 0.7329
3.5394 0.5364 0.7379
3.5010 0.8557 0.7429
3.4335 1.1723 0.7479
3.3370 1.4835 0.7527
3.2115 1.7864 0.7575
3.0578 2.0781 0.7621
2.8766 2.3560 0.7664
2.6692 2.6171 0.7705
6.2698 7.3543 1.9920
5.6130 7.9180 2.0006
0.9790 1.6811 0.4010
0.8290 1.7699 0.4029
0.6705 1.8439 0.4044
0.5049 1.9021 0.4056
0.3339 1.9437 0.4065
0.1595 1.9683 0.4070
-0.0167 1.9754 0.4072
-0.1927 1.9650 0.4070
-0.3667 1.9373 0.4064
-0.5368 1.8925 0.4055
-0.7012 1.8313 0.4042
-0.8583 1.7544 0.4026
-1.0065 1.6629 0.4007
-5.7372 7.8098 1.9975
-6.3788 7.2307 1.9875
-6.9597 6.5965 1.9766
-7.4433 5.8886 1.9563
-7.9225 5.1906 1.9523
-8.2980 4.4335 1.9393
-8.6000 3.6502 1.9258
-8.8274 2.8480 1.9119
-8.9798 2.0344 1.8979
-9.0577 1.2163 1.8838
-9.0619 0.4007 1.8697
-8.9771 -0.4053 1.8523
-8.8167 -1.1923 1.8339
-5.9759 -1.3597 1.2633
-5.8883 -1.9059 1.2757
-5.9831 -2.5461 1.3403
-5.9871 -3.2060 1.3999
-7.0975 -4.6596 1.7501
-5.7782 -4.5801 1.5198
-6.0518 -5.7467 1.7202
-1.0893 -1.2371 0.3398
-0.9695 -1.3223 0.3380
-0.8437 -1.3969 0.3364
-0.7129 -1.4608 0.3350
-0.5779 -1.5135 0.3339
-0.4395 -1.5549 0.3331
-0.2985 -1.5849 0.3324
-0.1557 -1.6033 0.3320
-0.0121 -1.6101 0.3319
0.1316 -1.6052 0.3320
0.2745 -1.5887 0.3323
0.4158 -1.5607 0.3329
0.5547 -1.5211 0.3337
0.6904 -1.4703 0.3348
0.8219 -1.4083 0.3361
0.9485 -1.3354 0.3376
1.0693 -1.2519 0.3394
2.4016 -2.3502 0.6926
2.6142 -2.1369 0.6960
2.8089 -1.9052 0.6996
2.9842 -1.6563 0.7035
3.1384 -1.3917 0.7077
3.2700 -1.1131 0.7120
3.3778 -0.8222 0.7166
3.4603 -0.5211 0.7213
3.5165 -0.2118 0.7262
3.5453 0.1033 0.7311
3.5460 0.4220 0.7361
3.5181 0.7415 0.7411
3.4610 1.0594 0.7461
3.3749 1.3729 0.7510
3.2597 1.6791 0.7558
3.1160 1.9752 0.7605
2.9445 2.2583 0.7649
2.7464 2.5257 0.7691
6.4910 7.1384 1.9888
5.8545 7.7231 1.9976
1.0303 1.6459 0.4002
0.8838 1.7397 0.4022
0.7281 1.8192 0.4039
0.5648 1.8831 0.4052
0.3956 1.9308 0.4063
0.2222 1.9615 0.4069
0.0464 1.9749 0.4072
-0.1299 1.9708 0.4071
-0.3048 1.9492 0.4067
-0.4764 1.9104 0.4058
-0.6431 1.8550 0.4047
-0.8030 1.7837 0.4032
-0.9546 1.6973 0.4014
-5.4938 8.0025 2.0008
-6.1558 7.4447 1.9912
-6.7590 6.8294 1.9806
-7.2986 6.1634 1.9691
-7.7706 5.4538 1.9569
-8.1719 4.7079 1.9440
-8.5004 3.9331 1.9306
-8.7546 3.1369 1.9169
-8.9339 2.3265 1.9029
-9.0383 1.5092 1.8888
-9.0687 0.6919 1.8747
-9.0179 -0.1186 1.8590
-8.8818 -0.9132 1.8404
-5.9746 -1.1599 1.2545
-5.9781 -1.7259 1.2826
-5.8413 -2.2681 1.2916
-5.9856 -2.9631 1.3767
-7.2672 -4.4453 1.7560
-5.8479 -4.3383 1.5009
-6.2503 -5.5663 1.7252
-5.6845 -6.0541 1.7118
-1.0131 -1.2930 0.3386
-0.8894 -1.3715 0.3369
-0.7603 -1.4392 0.3355
-0.6267 -1.4959 0.3343
-0.4893 -1.5414 0.3333
-0.3492 -1.5755 0.3326
-0.2070 -1.5980 0.3322
-0.0636 -1.6090 0.3319
0.0802 -1.6083 0.3319
0.2235 -1.5960 0.3322
0.3655 -1.5720 0.3327
0.5053 -1.5366 0.3334
0.6422 -1.4898 0.3344
0.7753 -1.4317 0.3356
0.9038 -1.3627 0.3371
1.0268 -1.2830 0.3387
5.7520 -6.0008 1.7134
2.5400 -2.2155 0.6947
2.7413 -1.9902 0.6983
2.9238 -1.7472 0.7021
3.0857 -1.4881 0.7061
3.2256 -1.2143 0.7104
3.3420 -0.9276 0.7149
3.4337 -0.6299 0.7196
3.4994 -0.3233 0.7244
3.5382 -0.0100 0.7293
3.5490 0.3077 0.7343
3.5314 0.6272 0.7393
3.4848 0.9460 0.7443
3.4091 1.2614 0.7493
3.3042 1.5705 0.7541
3.1707 1.8705 0.7588
3.0091 2.1586 0.7633
2.8203 2.4320 0.7676
6.7044 6.9155 1.9854
6.0889 7.5205 1.9946
1.0803 1.6090 0.3995
0.9374 1.7077 0.4015
0.7848 1.7925 0.4033
0.6241 1.8620 0.4048
0.4568 1.9156 0.4059
0.2847 1.9525 0.4067
0.1095 1.9721 0.4071
-0.0668 1.9742 0.4072
-0.2424 1.9589 0.4069
-0.4155 1.9262 0.4062
-0.5841 1.8767 0.4051
-0.7466 1.8110 0.4038
-0.9013 1.7299 0.4021
-1.0468 1.6344 0.4001
-5.9253 7.6513 1.9948
-6.5502 7.0558 1.9845
-7.1130 6.4072 1.9733
-7.5771 5.6880 1.9529
-8.0365 4.9787 1.9487
-8.3913 4.2134 1.9355
-8.6722 3.4239 1.9219
-8.8783 2.6178 1.9080
-9.0095 1.8022 1.8939
-9.0663 0.9841 1.8798
-9.0498 0.1703 1.8657
-8.9383 -0.6311 1.8470
-6.2261 -1.0034 1.2999
-5.9768 -1.5204 1.2712
-5.8179 -2.0475 1.2713
-5.9842 -2.7278 1.3556
-5.9883 -3.4049 1.4199
-6.0886 -4.2220 1.5272
-6.4441 -5.3796 1.7303
-5.8910 -5.8853 1.7164
-1.0559 -1.2623 0.3392
-0.9343 -1.3446 0.3375
-0.8071 -1.4162 0.3360
-0.6750 -1.4769 0.3347
-0.5389 -1.5264 0.3337
-0.3996 -1.5646 0.3329
-0.2580 -1.5913 0.3323
-0.1150 -1.6064 0.3320
0.0287 -1.6099 0.3319
0.1723 -1.6017 0.3321
0.3148 -1.5819 0.3325
0.4556 -1.5506 0.3331
0.5936 -1.5078 0.3340
0.7282 -1.4538 0.3352
0.8584 -1.3887 0.3365
0.9835 -1.3128 0.3381
5.5426 -6.1652 1.7089
2.4637 -2.2916 0.6936
2.6714 -2.0729 0.6970
2.8607 -1.8361 0.7007
3.0302 -1.5826 0.7047
3.1781 -1.3139 0.7089
3.3031 -1.0316 0.7133
3.4038 -0.7376 0.7179
3.4790 -0.4340 0.7227
3.5275 -0.1228 0.7275
3.5484 0.1936 0.7325
3.5410 0.5128 0.7375
3.5048 0.8321 0.7425
3.4395 1.1490 0.7475
3.3451 1.4607 0.7524
3.2218 1.7643 0.7571
3.0701 2.0570 0.7617
2.8909 2.3360 0.7661
2.6854 2.5984 0.7702
6.3161 7.3103 1.9914
5.6634 7.8785 2.0000
0.9897 1.6739 0.4008
0.8404 1.7638 0.4027
0.6824 1.8389 0.4043
0.5173 1.8983 0.4056
0.3467 1.9412 0.4065
0.1724 1.9671 0.4070
-0.0037 1.9755 0.4072
-0.1798 1.9664 0.4070
-0.3539 1.9399 0.4065
-0.5244 1.8963 0.4056
-0.6892 1.8363 0.4043
-0.8469 1.7606 0.4027
-0.9959 1.6702 0.4008
-5.6875 7.8502 1.9982
-6.3334 7.2754 1.9883
-6.9190 6.6451 1.9774
-7.4397 5.9660 1.9657
-7.8919 5.2453 1.9533
-8.2727 4.4905 1.9402
-8.5802 3.7088 1.9268
-8.8131 2.9078 1.9130
-8.9711 2.0948 1.8989
-9.0544 1.2768 1.8848
-9.0640 0.4607 1.8708
-8.9862 -0.3463 1.8537
-8.8308 -1.1350 1.8352
-5.9756 -1.3182 1.2613
-5.9197 -1.8730 1.2798
-5.9828 -2.4995 1.3365
-5.9868 -3.1552 1.3949
-7.1330 -4.6158 1.7513
-5.7764 -4.5169 1.5115
-6.0931 -5.7099 1.7212
-1.0979 -1.2304 0.3399
-0.9785 -1.3163 0.3381
-0.8532 -1.3918 0.3365
-0.7228 -1.4564 0.3351
-0.5880 -1.5100 0.3340
-0.4498 -1.5522 0.3331
-0.3089 -1.5831 0.3325
-0.1663 -1.6023 0.3321
-0.0227 -1.6100 0.3319
0.1210 -1.6060 0.3320
0.2640 -1.5904 0.3323
0.4054 -1.5631 0.3329
0.5446 -1.5244 0.3337
0.6805 -1.4744 0.3347
0.8123 -1.4132 0.3360
0.9394 -1.3412 0.3375
1.0606 -1.2585 0.3392
2.3852 -2.3652 0.6924
2.5990 -2.1533 0.6957
2.7952 -1.9229 0.6993
2.9719 -1.6752 0.7032
3.1277 -1.4117 0.7073
3.2611 -1.1341 0.7117
3.3707 -0.8441 0.7162
3.4551 -0.5437 0.7209
3.5132 -0.2349 0.7258
3.5441 0.0799 0.7307
3.5470 0.3983 0.7357
3.5211 0.7179 0.7407
3.4663 1.0360 0.7457
3.3822 1.3499 0.7506
3.2692 1.6567 0.7555
3.1276 1.9537 0.7601
2.9582 2.2379 0.7646
2.7619 2.5065 0.7688
6.5357 7.0929 1.9881
5.9035 7.6819 1.9970
1.0408 1.6384 0.4001
0.8949 1.7333 0.4021
0.7399 1.8138 0.4038
0.5771 1.8789 0.4052
0.4083 1.9278 0.4062
0.2351 1.9598 0.4069
0.0595 1.9745 0.4072
-0.1168 1.9717 0.4071
-0.2919 1.9514 0.4067
-0.4639 1.9139 0.4059
-0.6310 1.8597 0.4048
-0.7914 1.7895 0.4033
-0.9437 1.7042 0.4015
-5.4427 8.0413 2.0015
-6.1088 7.4879 1.9919
-6.7166 6.8767 1.9814
-7.2610 6.2142 1.9700
-7.7053 5.4843 1.9495
-8.1447 4.7641 1.9450
-8.4787 3.9912 1.9316
-8.7384 3.1963 1.9179
-8.9232 2.3868 1.9040
-9.0331 1.5697 1.8899
-9.0690 0.7522 1.8758
-9.0253 -0.0591 1.8604
-8.8942 -0.8552 1.8418
-5.9744 -1.1190 1.2529
-5.9778 -1.6831 1.2801
-5.8219 -2.2164 1.2841
-5.9853 -2.9139 1.3722
-5.9896 -3.6097 1.4415
-5.8813 -4.3032 1.5021
-6.2907 -5.5283 1.7262
-5.7275 -6.0198 1.7127
-1.0220 -1.2868 0.3387
-0.8987 -1.3660 0.3370
-0.7700 -1.4346 0.3356
-0.6367 -1.4921 0.3344
-0.4996 -1.5384 0.3334
-0.3596 -1.5734 0.3327
-0.2175 -1.5968 0.3322
-0.0742 -1.6086 0.3319
0.0696 -1.6088 0.3319
0.2129 -1.5973 0.3322
0.3550 -1.5742 0.3326
0.4951 -1.5396 0.3334
0.6322 -1.4936 0.3343
0.7657 -1.4364 0.3355
0.8945 -1.3682 0.3369
1.0179 -1.2893 0.3386
5.7092 -6.0353 1.7124
2.5244 -2.2314 0.6945
2.7271 -2.0075 0.6980
2.9110 -1.7658 0.7018
3.0745 -1.5078 0.7058
3.2160 -1.2350 0.7101
3.3343 -0.9492 0.7146
3.4278 -0.6523 0.7192
3.4955 -0.3463 0.7240
3.5363 -0.0334 0.7289
3.5492 0.2841 0.7339
3.5337 0.6036 0.7389
3.4893 0.9225 0.7439
3.4157 1.2382 0.7489
3.3130 1.5479 0.7538
3.1815 1.8487 0.7585
3.0219 2.1378 0.7630
2.8352 2.4123 0.7673
6.7474 6.8686 1.9847
6.1365 7.4777 1.9939
1.0905 1.6011 0.3993
0.9483 1.7009 0.4014
0.7964 1.7867 0.4032
0.6362 1.8574 0.4047
0.4693 1.9122 0.4059
0.2975 1.9503 0.4067
0.1225 1.9712 0.4071
-0.0538 1.9747 0.4072
-0.2295 1.9606 0.4069
-0.4028 1.9292 0.4062
-0.5718 1.8809 0.4052
-0.7348 1.8164 0.4039
-0.8902 1.7364 0.4022
-1.0364 1.6419 0.4002
-5.8768 7.6930 1.9955
-6.5061 7.1017 1.9853
-7.0736 6.4568 1.9742
-7.5428 5.7405 1.9538
-8.0074 5.0341 1.9496
-8.3676 4.2708 1.9365
-8.6540 3.4829 1.9229
-8.8657 2.6778 1.9090
-9.0023 1.8626 1.8949
-9.0646 1.0445 1.8808
-9.0535 0.2302 1.8668
-8.9489 -0.5725 1.8484
-6.4967 -1.0031 1.3550
-5.9766 -1.4784 1.2691
-5.8294 -2.0084 1.2709
-5.9839 -2.6801 1.3515
-5.9880 -3.3526 1.4146
-6.2103 -4.2460 1.5507
-6.4835 -5.3403 1.7314
-5.9331 -5.8496 1.7174
-1.0646 -1.2558 0.3394
-0.9435 -1.3389 0.3376
-0.8166 -1.4113 0.3361
-0.6849 -1.4728 0.3348
-0.5490 -1.5231 0.3337
-0.4100 -1.5622 0.3329
-0.2686 -1.5897 0.3323
-0.1256 -1.6057 0.3320
0.0181 -1.6100 0.3319
0.1617 -1.6027 0.3320
0.3043 -1.5838 0.3324
0.4452 -1.5533 0.3331
0.5835 -1.5114 0.3339
0.7184 -1.4582 0.3351
0.8490 -1.3939 0.3364
0.9744 -1.3187 0.3380
5.4989 -6.1984 1.7080
2.4476 -2.3070 0.6933
2.6566 -2.0897 0.6967
2.8474 -1.8542 0.7004
3.0184 -1.6019 0.7044
3.1680 -1.3342 0.7086
3.2947 -1.0529 0.7130
3.3972 -0.7597 0.7176
3.4743 -0.4567 0.7223
3.5248 -0.1460 0.7272
3.5478 0.1701 0.7321
3.5426 0.4891 0.7371
3.5085 0.8086 0.7422
3.4454 1.1258 0.7471
3.3531 1.4379 0.7520
3.2319 1.7422 0.7568
3.0822 2.0358 0.7614
2.9051 2.3159 0.7658
2.7015 2.5796 0.7699
6.3621 7.2660 1.9907
5.7135 7.8385 1.9994
1.0004 1.6667 0.4007
0.8518 1.7577 0.4026
0.6944 1.8339 0.4042
0.5297 1.8945 0.4055
0.3595 1.9386 0.4064
0.1854 1.9657 0.4070
0.0094 1.9755 0.4072
-0.1668 1.9677 0.4070
-0.3412 1.9424 0.4065
-0.5119 1.9001 0.4056
-0.6773 1.8413 0.4044
-0.8356 1.7667 0.4028
-0.9852 1.6773 0.4010
-5.6375 7.8903 1.9989
-6.2876 7.3199 1.9891
-6.8778 6.6934 1.9782
-7.4035 6.0177 1.9666
-7.8609 5.2998 1.9542
-8.2471 4.5472 1.9412
-8.5600 3.7673 1.9278
-8.7985 2.9675 1.9140
-8.9620 2.1551 1.9000
-9.0508 1.3372 1.8859
-9.0658 0.5208 1.8718
-8.9950 -0.2872 1.8551
-8.8446 -1.0775 1.8366
-5.9754 -1.2769 1.2595
-5.9590 -1.8422 1.2857
-5.9825 -2.4531 1.3328
-5.9865 -3.1047 1.3901
-7.1683 -4.5718 1.7525
-5.7852 -4.4625 1.5060
-6.1343 -5.6729 1.7223
-5.5613 -6.1502 1.7092
-0.9876 -1.3103 0.3382
-0.8627 -1.3866 0.3366
-0.7326 -1.4520 0.3352
-0.5981 -1.5064 0.3341
-0.4601 -1.5495 0.3332
-0.3194 -1.5812 0.3325
-0.1769 -1.6013 0.3321
-0.0334 -1.6098 0.3319
0.1104 -1.6067 0.3320
0.2534 -1.5919 0.3323
0.3951 -1.5655 0.3328
0.5344 -1.5277 0.3336
0.6706 -1.4785 0.3346
0.8028 -1.4181 0.3359
0.9302 -1.3469 0.3374
1.0519 -1.2649 0.3391
2.3688 -2.3802 0.6922
2.5838 -2.1697 0.6955
2.7813 -1.9405 0.6991
2.9595 -1.6941 0.7029
3.1170 -1.4317 0.7070
3.2212 -0.9595 0.7144
3.3147 -0.6726 0.7189
3.3832 -0.3768 0.7236
3.4256 -0.0740 0.7283
3.4412 0.2333 0.7331
3.4293 0.5429 0.7380
3.3893 0.8521 0.7428
3.3212 1.1584 0.7476
3.2248 1.4592 0.7524
3.1006 1.7516 0.7570
2.9492 2.0329 0.7614
2.7713 2.3005 0.7656
2.5683 2.5515 0.7695
6.0236 7.1607 1.9890
1.0725 1.5343 0.3979
0.9362 1.6323 0.4000
0.7904 1.7169 0.4017
0.6365 1.7871 0.4032
0.4759 1.8420 0.4044
0.3104 1.8809 0.4052
0.1416 1.9033 0.4057
-0.0287 1.9089 0.4058
-0.1988 1.8977 0.4056
-0.3667 1.8697 0.4050
-0.5308 1.8254 0.4041
-0.6893 1.7653 0.4028
-0.8407 1.6901 0.4012
-0.9835 1.6009 0.3994
-5.5994 7.5177 1.9925
-6.2170 6.9543 1.9827
-6.7759 6.3379 1.9721
-7.2718 5.6753 1.9607
-7.7011 4.9732 1.9486
-8.0612 4.2389 1.9359
-8.3502 3.4793 1.9228
-8.5671 2.7018 1.9094
-8.7114 1.9132 1.8958
-8.7836 1.1205 1.8821
-8.7844 0.3303 1.8685
-8.6978 -0.4503 1.8512
-8.5400 -1.2124 1.8334
-5.9761 -1.4013 1.3047
-5.8438 -1.9342 1.3084
-5.9834 -2.5930 1.3861
-5.9874 -3.2572 1.4488
-6.8625 -4.5704 1.7526
-5.8572 -4.7060 1.5970
-5.8434 -5.6226 1.7236
-1.0502 -1.2087 0.3404
-0.9335 -1.2910 0.3386
-0.8110 -1.3629 0.3371
-0.6836 -1.4244 0.3358
-0.5520 -1.4749 0.3347
-0.4172 -1.5145 0.3339
-0.2800 -1.5429 0.3333
-0.1411 -1.5600 0.3329
-0.0014 -1.5658 0.3328
0.1382 -1.5602 0.3329
0.2771 -1.5433 0.3333
0.4144 -1.5151 0.3339
0.5492 -1.4757 0.3347
0.6808 -1.4254 0.3358
0.8083 -1.3641 0.3370
0.9308 -1.2924 0.3385
1.0477 -1.2103 0.3403
2.3691 -2.2880 0.7001
2.5532 -2.0591 0.6972
2.7405 -1.8325 0.7007
2.9088 -1.5894 0.7046
3.0564 -1.3312 0.7086
3.1819 -1.0597 0.7129
3.2841 -0.7765 0.7173
3.3616 -0.4836 0.7219
3.4135 -0.1830 0.7266
3.4388 0.1229 0.7314
3.4367 0.4320 0.7362
3.4068 0.7416 0.7411
3.3488 1.0493 0.7459
3.2625 1.3523 0.7507
3.1483 1.6480 0.7553
3.0065 1.9337 0.7598
2.8379 2.2064 0.7641
2.6438 2.4637 0.7681
6.2400 6.9540 1.9860
5.6144 7.5089 1.9929
0.9862 1.5987 0.3993
0.8436 1.6882 0.4011
0.6924 1.7636 0.4027
0.5341 1.8241 0.4040
0.3701 1.8688 0.4050
0.2023 1.8972 0.4056
0.0323 1.9089 0.4058
-0.1381 1.9037 0.4057
-0.3069 1.8816 0.4052
-0.4726 1.8431 0.4044
-0.6333 1.7885 0.4033
-0.7874 1.7187 0.4018
-0.9334 1.6344 0.4001
-1.0700 1.5367 0.3980
-6.0024 7.1624 1.9863
-6.5829 6.5642 1.9760
-7.1018 5.9174 1.9649
-7.5237 5.2068 1.9448
-7.9404 4.5050 1.9405
-8.2550 3.7536 1.9275
-8.4978 2.9817 1.9142
-8.6681 2.1963 1.9007
-8.7660 1.4043 1.8870
-8.7922 0.6125 1.8734
-8.7383 -0.1726 1.8577
-8.6039 -0.9420 1.8398
-5.9749 -1.2010 1.2954
-5.9784 -1.7688 1.3252
-5.8484 -2.3154 1.3370
-5.9859 -3.0126 1.4244
-7.0278 -4.3628 1.7583
-5.8357 -4.3893 1.5521
-6.0368 -5.4480 1.7284
-1.0905 -1.1768 0.3410
-0.9760 -1.2627 0.3392
-0.8554 -1.3384 0.3376
-0.7297 -1.4036 0.3363
-0.5995 -1.4581 0.3351
-0.4658 -1.5016 0.3342
-0.3294 -1.5340 0.3335
-0.1910 -1.5552 0.3330
-0.0515 -1.5650 0.3328
0.0883 -1.5635 0.3329
0.2276 -1.5507 0.3331
0.3655 -1.5265 0.3336
0.5013 -1.4911 0.3344
0.6341 -1.4446 0.3353
0.7632 -1.3873 0.3365
0.8876 -1.3193 0.3380
1.0066 -1.2408 0.3396
2.3686 -2.4386 0.7226
2.4818 -2.1360 0.6960
2.6756 -1.9156 0.6994
2.8508 -1.6782 0.7032
3.0060 -1.4253 0.7071
3.1396 -1.1583 0.7113
3.2503 -0.8791 0.7157
3.3368 -0.5894 0.7202
3.3979 -0.2914 0.7249
3.4328 0.0129 0.7297
3.4406 0.3212 0.7345
3.4208 0.6309 0.7394
3.3728 0.9395 0.7442
3.2966 1.2446 0.7490
3.1924 1.5432 0.7537
3.0604 1.8327 0.7582
2.9013 2.1104 0.7626
2.7161 2.3736 0.7667
2.5062 2.6195 0.7706
5.8454 7.3179 1.9908
1.0348 1.5634 0.3985
0.8957 1.6577 0.4005
0.7474 1.7383 0.4022
0.5915 1.8043 0.4036
0.4293 1.8547 0.4047
0.2627 1.8890 0.4054
0.0933 1.9066 0.4058
-0.0772 1.9075 0.4058
-0.2468 1.8914 0.4054
-0.4138 1.8588 0.4048
-0.5764 1.8099 0.4037
-0.7331 1.7454 0.4024
-0.8822 1.6662 0.4007
-1.0223 1.5732 0.3988
-5.7805 7.3634 1.9898
-6.3820 6.7843 1.9798
-6.9234 6.1541 1.9689
-7.3694 5.4564 1.9490
-7.8105 4.7676 1.9450
-8.1506 4.0253 1.9322
-8.4192 3.2600 1.9190
-8.6155 2.4786 1.9056
-8.7392 1.6882 1.8919
-8.7910 0.8955 1.8783
-8.7701 0.1071 1.8643
-8.6596 -0.6689 1.8461
-5.9822 -1.0047 1.2894
-5.9771 -1.5625 1.3132
-5.7921 -2.0815 1.3082
-5.9845 -2.7758 1.4022
-7.1875 -4.1498 1.7641
-6.0416 -4.2488 1.5700
-6.2257 -5.2674 1.7334
-5.6867 -5.7567 1.7200
-1.0177 -1.2331 0.3398
-0.8992 -1.3125 0.3382
-0.7752 -1.3815 0.3367
-0.6466 -1.4398 0.3355
-0.5141 -1.4873 0.3345
-0.3785 -1.5237 0.3337
-0.2407 -1.5489 0.3332
-0.1015 -1.5628 0.3329
0.0383 -1.5654 0.3328
0.1778 -1.5566 0.3330
0.3163 -1.5364 0.3334
0.4530 -1.5051 0.3341
0.5870 -1.4625 0.3350
0.7175 -1.4091 0.3361
0.8436 -1.3448 0.3374
0.9647 -1.2701 0.3390
1.0797 -1.1852 0.3408
2.4082 -2.2105 0.6948
2.6082 -1.9965 0.6982
2.7903 -1.7651 0.7018
2.9529 -1.5175 0.7057
3.0943 -1.2554 0.7098
3.2134 -0.9803 0.7141
3.3087 -0.6942 0.7186
3.3790 -0.3989 0.7232
3.4234 -0.0966 0.7280
3.4410 0.2105 0.7328
3.4311 0.5200 0.7376
3.3932 0.8293 0.7425
3.3272 1.1360 0.7473
3.2329 1.4372 0.7520
3.1108 1.7303 0.7566
2.9613 2.0126 0.7610
2.7853 2.2812 0.7653
2.5841 2.5336 0.7692
6.0692 7.1190 1.9885
1.0822 1.5266 0.3977
0.9466 1.6255 0.3998
0.8015 1.7111 0.4016
0.6481 1.7824 0.4031
0.4880 1.8385 0.4043
0.3228 1.8786 0.4052
0.1541 1.9022 0.4057
-0.0161 1.9091 0.4058
-0.1863 1.8991 0.4056
-0.3544 1.8723 0.4050
-0.5188 1.8292 0.4041
-0.6778 1.7702 0.4029
-0.8298 1.6962 0.4014
-0.9732 1.6080 0.3995
-5.5515 7.5570 1.9931
-6.1733 6.9978 1.9835
-6.7367 6.3851 1.9729
-7.2374 5.7257 1.9616
-7.6717 5.0263 1.9495
-8.0370 4.2940 1.9369
-8.3313 3.5361 1.9238
-8.5536 2.7597 1.9104
-8.7032 1.9717 1.8968
-8.7807 1.1791 1.8831
-8.7868 0.3885 1.8695
-8.7069 -0.3931 1.8526
-8.5539 -1.1568 1.8347
-5.9759 -1.3597 1.3027
-5.8686 -1.8995 1.3111
-5.9831 -2.5461 1.3821
-5.9871 -3.2060 1.4436
-6.8971 -4.5280 1.7537
-5.8056 -4.6018 1.5747
-5.8837 -5.5870 1.7246
-1.0586 -1.2022 0.3405
-0.9423 -1.2852 0.3387
-0.8202 -1.3580 0.3372
-0.6931 -1.4202 0.3359
-0.5619 -1.4716 0.3348
-0.4273 -1.5120 0.3340
-0.2902 -1.5412 0.3333
-0.1514 -1.5591 0.3330
-0.0118 -1.5658 0.3328
0.1279 -1.5610 0.3329
0.2669 -1.5449 0.3333
0.4043 -1.5176 0.3338
0.5394 -1.4790 0.3346
0.6712 -1.4294 0.3357
0.7990 -1.3690 0.3369
0.9220 -1.2980 0.3384
1.0393 -1.2167 0.3401
2.3690 -2.3183 0.7046
2.5386 -2.0752 0.6969
2.7273 -1.8498 0.7005
2.8970 -1.6079 0.7043
3.0462 -1.3508 0.7083
3.1734 -1.0802 0.7125
3.2774 -0.7978 0.7170
3.3568 -0.5055 0.7215
3.4106 -0.2055 0.7263
3.4378 0.1002 0.7310
3.4378 0.4091 0.7359
3.4100 0.7188 0.7407
3.3541 1.0267 0.7456
3.2699 1.3302 0.7503
3.1577 1.6265 0.7550
3.0179 1.9130 0.7595
2.8513 2.1868 0.7638
2.6590 2.4453 0.7678
6.2837 6.9104 1.9853
5.6627 7.4701 1.9925
0.9963 1.5915 0.3991
0.8545 1.6820 0.4010
0.7039 1.7586 0.4026
0.5460 1.8202 0.4039
0.3824 1.8661 0.4049
0.2148 1.8957 0.4055
0.0449 1.9086 0.4058
-0.1255 1.9046 0.4057
-0.2945 1.8838 0.4053
-0.4605 1.8465 0.4045
-0.6216 1.7931 0.4034
-0.7763 1.7244 0.4020
-0.9229 1.6411 0.4002
-1.0602 1.5444 0.3982
-5.9572 7.2045 1.9871
-6.5421 6.6102 1.9768
-7.0656 5.9667 1.9657
-7.4925 5.2587 1.9457
-7.9143 4.5595 1.9414
-8.2342 3.8100 1.9285
-8.4823 3.0393 1.9152
-8.6580 2.2547 1.9017
-8.7612 1.4630 1.8880
-8.7927 0.6709 1.8744
-8.7456 -0.1150 1.8591
-8.6161 -0.8859 1.8411
-5.9746 -1.1599 1.2937
-5.9781 -1.7259 1.3226
-5.8176 -2.2589 1.3265
-5.9856 -2.9631 1.4196
-7.0613 -4.3193 1.7594
-5.8633 -4.3497 1.5518
-6.0762 -5.4112 1.7295
-1.0987 -1.1701 0.3412
-0.9846 -1.2567 0.3393
-0.8645 -1.3331 0.3377
-0.7391 -1.3991 0.3363
-0.6093 -1.4544 0.3352
-0.4758 -1.4988 0.3342
-0.3395 -1.5320 0.3335
-0.2013 -1.5540 0.3331
-0.0618 -1.5647 0.3328
0.0780 -1.5640 0.3329
0.2173 -1.5520 0.3331
0.3554 -1.5287 0.3336
0.4913 -1.4941 0.3343
0.6244 -1.4485 0.3353
0.7538 -1.3919 0.3365
0.8786 -1.3246 0.3379
0.9980 -1.2470 0.3395
5.5929 -5.8347 1.7180
2.4667 -2.1516 0.6957
2.6619 -1.9325 0.6992
2.8386 -1.6963 0.7029
2.9953 -1.4445 0.7068
3.1305 -1.1785 0.7110
3.2429 -0.9001 0.7154
3.3312 -0.6111 0.7199
3.3943 -0.3136 0.7246
3.4312 -0.0097 0.7293
3.4410 0.2983 0.7342
3.4232 0.6080 0.7390
3.3773 0.9168 0.7439
3.3032 1.2222 0.7486
3.2010 1.5214 0.7533
3.0710 1.8117 0.7579
2.9139 2.0904 0.7623
2.7307 2.3547 0.7664
2.5225 2.6019 0.7703
5.8922 7.2774 1.9903
1.0447 1.5559 0.3984
0.9063 1.6512 0.4004
0.7587 1.7328 0.4021
0.6032 1.7999 0.4035
0.4415 1.8515 0.4046
0.2751 1.8870 0.4053
0.1058 1.9059 0.4057
-0.0646 1.9080 0.4058
-0.2343 1.8932 0.4055
-0.4016 1.8617 0.4048
-0.5646 1.8140 0.4038
-0.7218 1.7507 0.4025
-0.8715 1.6725 0.4009
-1.0123 1.5805 0.3989
-5.7338 7.4040 1.9905
-6.3395 6.8289 1.9806
-6.8855 6.2023 1.9698
-7.3364 5.5073 1.9499
-7.7826 4.8213 1.9460
-8.1279 4.0811 1.9332
-8.4018 3.3172 1.9200
-8.6034 2.5367 1.9066
-8.7326 1.7468 1.8929
-8.7896 0.9541 1.8793
-8.7756 0.1651 1.8656
-8.6701 -0.6121 1.8475
-6.2321 -1.0044 1.3418
-5.9768 -1.5204 1.3109
-5.7992 -2.0409 1.3068
-5.9842 -2.7278 1.3979
-7.2198 -4.1051 1.7653
-6.1285 -4.2497 1.5852
-6.2641 -5.2293 1.7345
-5.7277 -5.7221 1.7209
-1.0262 -1.2268 0.3400
-0.9082 -1.3070 0.3383
-0.7846 -1.3767 0.3368
-0.6562 -1.4359 0.3356
-0.5240 -1.4842 0.3346
-0.3886 -1.5214 0.3338
-0.2509 -1.5474 0.3332
-0.1118 -1.5622 0.3329
0.0279 -1.5656 0.3328
0.1675 -1.5576 0.3330
0.3061 -1.5383 0.3334
0.4430 -1.5078 0.3340
0.5772 -1.4661 0.3349
0.7079 -1.4134 0.3360
0.8345 -1.3499 0.3373
0.9559 -1.2760 0.3389
1.0714 -1.1918 0.3406
2.3927 -2.2256 0.6946
2.5941 -2.0129 0.6979
2.7775 -1.7827 0.7015
2.9415 -1.5363 0.7054
3.0846 -1.2752 0.7095
3.2054 -1.0011 0.7138
3.3025 -0.7157 0.7183
3.3747 -0.4210 0.7229
3.4210 -0.1191 0.7276
3.4406 0.1877 0.7324
3.4328 0.4971 0.7373
3.3970 0.8065 0.7421
3.3330 1.1135 0.7469
3.2408 1.4152 0.7517
3.1207 1.7090 0.7563
2.9732 1.9921 0.7607
2.7992 2.2619 0.7650
2.5998 2.5155 0.7689
6.1141 7.0765 1.9878
1.0918 1.5188 0.3976
0.9570 1.6186 0.3997
0.8125 1.7052 0.4015
0.6597 1.7776 0.4030
0.5000 1.8349 0.4042
0.3351 1.8762 0.4051
0.1667 1.9011 0.4056
-0.0035 1.9092 0.4058
-0.1737 1.9004 0.4056
-0.3421 1.8749 0.4051
-0.5068 1.8329 0.4042
-0.6663 1.7751 0.4030
-0.8188 1.7021 0.4015
-0.9630 1.6149 0.3997
-5.5034 7.5961 1.9938
-6.1293 7.0410 1.9842
-6.6972 6.4321 1.9737
-7.2026 5.7759 1.9624
-7.6102 5.0581 1.9423
-8.0124 4.3491 1.9378
-8.3120 3.5929 1.9248
-8.5396 2.8176 1.9114
-8.6947 2.0302 1.8978
-8.7774 1.2377 1.8842
-8.7887 0.4467 1.8705
-8.7156 -0.3359 1.8539
-8.5674 -1.1011 1.8360
-5.9756 -1.3182 1.3007
-5.8990 -1.8664 1.3151
-5.9828 -2.4994 1.3782
-5.9868 -3.1552 1.4384
-6.9314 -4.4854 1.7549
-5.7970 -4.5330 1.5642
-5.9238 -5.5512 1.7256
-1.0669 -1.1957 0.3406
-0.9511 -1.2794 0.3389
-0.8294 -1.3530 0.3373
-0.7027 -1.4160 0.3360
-0.5717 -1.4682 0.3349
-0.4373 -1.5094 0.3340
-0.3004 -1.5394 0.3334
-0.1617 -1.5582 0.3330
-0.0221 -1.5657 0.3328
0.1176 -1.5618 0.3329
0.2567 -1.5465 0.3332
0.3942 -1.5200 0.3338
0.5295 -1.4823 0.3346
0.6616 -1.4335 0.3356
0.7897 -1.3739 0.3368
0.9131 -1.3036 0.3383
1.0308 -1.2231 0.3400
2.3689 -2.3491 0.7091
2.5240 -2.0911 0.6967
2.7140 -1.8671 0.7002
2.8852 -1.6263 0.7040
3.0359 -1.3703 0.7080
3.1648 -1.1006 0.7122
3.2705 -0.8190 0.7166
3.3518 -0.5274 0.7212
3.4075 -0.2278 0.7259
3.4368 0.0775 0.7307
3.4388 0.3862 0.7355
3.4130 0.6959 0.7404
3.3592 1.0040 0.7452
3.2771 1.3079 0.7500
3.1669 1.6049 0.7546
3.0291 1.8922 0.7592
2.8645 2.1670 0.7635
2.6740 2.4268 0.7675
6.3270 6.8664 1.9846
5.7106 7.4310 1.9920
1.0064 1.5843 0.3990
0.8653 1.6758 0.4009
0.7153 1.7534 0.4025
0.5579 1.8162 0.4038
0.3946 1.8633 0.4048
0.2273 1.8941 0.4055
0.0575 1.9082 0.4058
-0.1129 1.9055 0.4057
-0.2821 1.8859 0.4053
-0.4484 1.8498 0.4046
-0.6099 1.7976 0.4035
-0.7651 1.7299 0.4021
-0.9124 1.6477 0.4003
-1.0504 1.5520 0.3983
-5.9117 7.2462 1.9878
-6.5009 6.6559 1.9776
-7.0291 6.0158 1.9666
-7.4610 5.3104 1.9466
-7.8879 4.6139 1.9424
-8.2130 3.8662 1.9295
-8.4665 3.0968 1.9162
-8.6475 2.3130 1.9027
-8.7561 1.5216 1.8890
-8.7928 0.7293 1.8754
-8.7525 -0.0573 1.8604
-8.6279 -0.8296 1.8424
-5.9744 -1.1190 1.2920
-5.9778 -1.6831 1.3200
-5.8005 -2.2083 1.3193
-5.9853 -2.9139 1.4150
-7.0945 -4.2755 1.7607
-5.8974 -4.3150 1.5532
-6.1154 -5.3742 1.7305
-5.5691 -5.8533 1.7173
-0.9933 -1.2506 0.3395
-0.8736 -1.3278 0.3378
-0.7486 -1.3946 0.3364
-0.6190 -1.4507 0.3353
-0.4858 -1.4959 0.3343
-0.3497 -1.5299 0.3336
-0.2115 -1.5528 0.3331
-0.0722 -1.5643 0.3329
0.0676 -1.5645 0.3328
0.2070 -1.5533 0.3331
0.3452 -1.5308 0.3335
0.4814 -1.4970 0.3343
0.6147 -1.4522 0.3352
0.7444 -1.3964 0.3364
0.8695 -1.3300 0.3377
0.9894 -1.2531 0.3394
5.5512 -5.8684 1.7170
2.4516 -2.1670 0.6955
2.6481 -1.9493 0.6989
2.8262 -1.7143 0.7026
2.9844 -1.4636 0.7065
3.1213 -1.1986 0.7107
3.2354 -0.9211 0.7150
3.3255 -0.6328 0.7196
3.3905 -0.3359 0.7242
3.4294 -0.0324 0.7290
3.4412 0.2754 0.7338
3.4255 0.5851 0.7387
3.3817 0.8941 0.7435
3.3097 1.1998 0.7483
3.2095 1.4996 0.7530
3.0816 1.7906 0.7576
2.9265 2.0702 0.7620
2.7451 2.3357 0.7661
2.5387 2.5843 0.7700
5.9387 7.2367 1.9898
1.0545 1.5484 0.3982
0.9169 1.6446 0.4002
0.7699 1.7273 0.4020
0.6150 1.7955 0.4034
0.4536 1.8482 0.4045
0.2875 1.8849 0.4053
0.1184 1.9051 0.4057
-0.0520 1.9084 0.4058
-0.2218 1.8949 0.4055
-0.3893 1.8646 0.4049
-0.5527 1.8181 0.4039
-0.7104 1.7559 0.4026
-0.8607 1.6788 0.4010
-1.0022 1.5877 0.3991
-5.6868 7.4443 1.9912
-6.2967 6.8733 1.9813
-6.8473 6.2502 1.9706
-7.3031 5.5581 1.9508
-7.7543 4.8749 1.9469
-8.1048 4.1367 1.9341
-8.3840 3.3743 1.9210
-8.5910 2.5948 1.9076
-8.7255 1.8053 1.8939
-8.7878 1.0126 1.8803
-8.7791 0.2232 1.8667
-8.6801 -0.5553 1.8488
-6.5031 -1.0041 1.3987
-5.9766 -1.4784 1.3087
-5.8108 -2.0020 1.3064
-5.9839 -2.6801 1.3937
-7.2518 -4.0602 1.7666
-6.7981 -4.6479 1.7504
-6.3023 -5.1910 1.7355
-5.7686 -5.6874 1.7219
-1.0347 -1.2205 0.3401
-0.9171 -1.3014 0.3384
-0.7939 -1.3719 0.3369
-0.6658 -1.4319 0.3357
-0.5338 -1.4810 0.3346
-0.3987 -1.5190 0.3338
-0.2612 -1.5459 0.3332
-0.1221 -1.5615 0.3329
0.0176 -1.5657 0.3328
0.1572 -1.5586 0.3330
0.2960 -1.5401 0.3334
0.4329 -1.5104 0.3340
0.5674 -1.4695 0.3348
0.6984 -1.4176 0.3359
0.8253 -1.3550 0.3372
0.9471 -1.2818 0.3388
1.0631 -1.1984 0.3405
2.3772 -2.2406 0.6944
2.5798 -2.0293 0.6977
2.7646 -1.8003 0.7012
2.9301 -1.5551 0.7051
3.0748 -1.2950 0.7092
3.1973 -1.0217 0.7135
3.2961 -0.7371 0.7179
3.3702 -0.4430 0.7225
3.4185 -0.1416 0.7273
3.4401 0.1649 0.7321
3.4343 0.4742 0.7369
3.4006 0.7837 0.7418
3.3387 1.0909 0.7466
3.2486 1.3931 0.7513
3.1306 1.6876 0.7559
2.9851 1.9716 0.7604
2.8130 2.2425 0.7647
2.6154 2.4974 0.7687
6.1587 7.0337 1.9872
1.1013 1.5109 0.3974
0.9673 1.6116 0.3995
0.8235 1.6993 0.4014
0.6712 1.7728 0.4029
0.5120 1.8312 0.4042
0.3474 1.8737 0.4051
0.1792 1.8998 0.4056
0.0091 1.9092 0.4058
-0.1612 1.9016 0.4057
-0.3297 1.8773 0.4052
-0.4948 1.8366 0.4043
-0.6547 1.7799 0.4031
-0.8078 1.7080 0.4016
-0.9526 1.6219 0.3998
-5.4549 7.6348 1.9945
-6.0850 7.0840 1.9850
-6.6573 6.4788 1.9745
-7.1675 5.8258 1.9633
-7.5801 5.1106 1.9432
-7.9874 4.4041 1.9388
-8.2924 3.6495 1.9257
-8.5253 2.8754 1.9124
-8.6857 2.0887 1.8988
-8.7738 1.2963 1.8852
-8.7903 0.5050 1.8715
-8.7239 -0.2786 1.8553
-8.5806 -1.0453 1.8373
-5.9754 -1.2769 1.2988
-5.9366 -1.8353 1.3208
-5.9825 -2.4531 1.3744
-5.9865 -3.1047 1.4334
-6.9656 -4.4425 1.7561
-5.8028 -4.4761 1.5577
-5.9637 -5.5152 1.7266
-1.0753 -1.1891 0.3408
-0.9599 -1.2736 0.3390
-0.8386 -1.3479 0.3374
-0.7122 -1.4117 0.3361
-0.5815 -1.4647 0.3350
-0.4474 -1.5067 0.3341
-0.3106 -1.5376 0.3334
-0.1720 -1.5572 0.3330
-0.0325 -1.5655 0.3328
0.1073 -1.5624 0.3329
0.2465 -1.5480 0.3332
0.3841 -1.5223 0.3337
0.5196 -1.4854 0.3345
0.6519 -1.4375 0.3355
0.7804 -1.3786 0.3367
0.9041 -1.3092 0.3382
1.0223 -1.2294 0.3399
2.3688 -2.3802 0.7138
2.5092 -2.1070 0.6964
2.7006 -1.8842 0.6999
2.8732 -1.6446 0.7037
3.0255 -1.3897 0.7077
3.1283 -0.9319 0.7149
3.2185 -0.6531 0.7192
3.2844 -0.3658 0.7237
3.3250 -0.0718 0.7283
3.3394 0.2264 0.7330
3.3272 0.5267 0.7377
3.2878 0.8266 0.7424
3.2210 1.1235 0.7471
3.1270 1.4149 0.7517
3.0060 1.6981 0.7561
2.8587 1.9705 0.7604
2.6858 2.2295 0.7645
2.4886 2.4724 0.7683
5.8293 6.9297 1.9832
1.0382 1.4853 0.3969
0.9062 1.5798 0.3989
0.7649 1.6615 0.4006
0.6159 1.7292 0.4020
0.4605 1.7822 0.4031
0.3003 1.8198 0.4039
0.1370 1.8414 0.4044
-0.0278 1.8468 0.4045
-0.1923 1.8359 0.4043
-0.3548 1.8090 0.4037
-0.5136 1.7662 0.4028
-0.6670 1.7082 0.4016
-0.8136 1.6357 0.4001
-0.9519 1.5496 0.3983
-5.4234 7.2815 1.9884
-6.0226 6.7368 1.9790
-6.5651 6.1407 1.9687
-7.0468 5.4997 1.9577
-7.4336 4.8005 1.9380
-7.8149 4.1093 1.9337
-8.0968 3.3737 1.9210
-8.3088 2.6203 1.9080
-8.4506 1.8559 1.8948
-8.5224 1.0872 1.8816
-8.5251 0.3206 1.8683
-8.4432 -0.4371 1.8516
-8.2923 -1.1772 1.8343
-5.9761 -1.4013 1.3443
-5.8292 -1.9293 1.3447
-5.9834 -2.5930 1.4281
-7.1051 -3.8653 1.7714
-6.6736 -4.4446 1.7560
-6.1983 -4.9800 1.7413
-5.6851 -5.4703 1.7278
-1.0214 -1.1755 0.3410
-0.9080 -1.2557 0.3394
-0.7889 -1.3259 0.3379
-0.6650 -1.3858 0.3366
-0.5371 -1.4351 0.3356
-0.4060 -1.4737 0.3348
-0.2725 -1.5014 0.3342
-0.1373 -1.5181 0.3338
-0.0014 -1.5237 0.3337
0.1345 -1.5183 0.3338
0.2697 -1.5018 0.3342
0.4032 -1.4743 0.3347
0.5344 -1.4359 0.3355
0.6623 -1.3867 0.3366
0.7863 -1.3270 0.3378
0.9054 -1.2571 0.3393
1.0189 -1.1771 0.3410
2.3691 -2.2880 0.7213
2.4813 -2.0011 0.6981
2.6630 -1.7806 0.7016
2.8260 -1.5442 0.7053
2.9689 -1.2931 0.7092
3.0903 -1.0292 0.7133
3.1890 -0.7540 0.7177
3.2637 -0.4695 0.7221
3.3134 -0.1777 0.7267
3.3373 0.1193 0.7313
3.3347 0.4191 0.7360
3.3050 0.7195 0.7408
3.2481 1.0177 0.7454
3.1638 1.3114 0.7500
3.0524 1.5979 0.7545
2.9144 1.8744 0.7589
2.7506 2.1385 0.7630
2.5619 2.3875 0.7669
2.3854 2.6584 0.7822
1.0831 1.4485 0.3961
0.9545 1.5474 0.3982
0.8164 1.6338 0.4000
0.6701 1.7066 0.4015
0.5168 1.7650 0.4028
0.3581 1.8081 0.4037
0.1957 1.8355 0.4043
0.0312 1.8467 0.4045
-0.1336 1.8417 0.4044
-0.2970 1.8205 0.4040
-0.4572 1.7833 0.4032
-0.6128 1.7307 0.4021
-0.7620 1.6633 0.4007
-0.9035 1.5819 0.3990
-1.0358 1.4876 0.3970
-5.8144 6.9380 1.9825
-6.3777 6.3596 1.9725
-6.8816 5.7339 1.9617
-7.3121 5.0604 1.9475
-7.6972 4.3670 1.9381
-8.0038 3.6394 1.9256
-8.2410 2.8916 1.9127
-8.4079 2.1304 1.8996
-8.5047 1.3625 1.8863
-8.5320 0.5944 1.8731
-8.4816 -0.1676 1.8579
-8.3536 -0.9146 1.8404
-5.9749 -1.2010 1.3347
-5.9783 -1.7688 1.3654
-5.8287 -2.3076 1.3729
-7.2459 -3.6467 1.7765
-6.8338 -4.2424 1.7616
-5.8609 -4.4082 1.6061
-5.8729 -5.3001 1.7325
-1.0605 -1.1445 0.3417
-0.9493 -1.2281 0.3399
-0.8321 -1.3019 0.3384
-0.7099 -1.3655 0.3370
-0.5833 -1.4187 0.3359
-0.4533 -1.4611 0.3350
-0.3205 -1.4927 0.3344
-0.1859 -1.5134 0.3339
-0.0501 -1.5230 0.3337
0.0859 -1.5215 0.3337
0.2214 -1.5090 0.3340
0.3557 -1.4854 0.3345
0.4878 -1.4509 0.3352
0.6170 -1.4055 0.3362
0.7424 -1.3496 0.3373
0.8634 -1.2833 0.3387
0.9790 -1.2069 0.3403
2.3686 -2.4386 0.7445
2.4120 -2.0759 0.6969
2.6000 -1.8615 0.7003
2.7699 -1.6306 0.7039
2.9202 -1.3846 0.7078
3.0494 -1.1250 0.7118
3.1564 -0.8537 0.7161
3.2398 -0.5723 0.7205
3.2985 -0.2828 0.7250
3.3318 0.0126 0.7297
3.3387 0.3116 0.7344
3.3188 0.6121 0.7391
3.2716 0.9113 0.7438
3.1971 1.2070 0.7484
3.0954 1.4963 0.7529
2.9668 1.7767 0.7573
2.8121 2.0456 0.7616
2.6322 2.3002 0.7656
2.4284 2.5382 0.7693
5.6569 7.0820 1.9850
1.0017 1.5134 0.3975
0.8669 1.6044 0.3994
0.7233 1.6822 0.4010
0.5723 1.7458 0.4024
0.4154 1.7945 0.4034
0.2541 1.8275 0.4041
0.0902 1.8446 0.4044
-0.0746 1.8454 0.4045
-0.2387 1.8299 0.4042
-0.4003 1.7984 0.4035
-0.5578 1.7512 0.4025
-0.7094 1.6890 0.4012
-0.8538 1.6126 0.3996
-0.9895 1.5228 0.3977
-5.5991 7.1323 1.9858
-6.1827 6.5724 1.9762
-6.7083 5.9629 1.9656
-7.1420 5.2880 1.9462
-7.5400 4.6024 1.9346
-7.9020 3.9026 1.9301
-8.1641 3.1612 1.9173
-8.3562 2.4040 1.9043
-8.4781 1.6377 1.8911
-8.5301 0.8690 1.8778
-8.5116 0.1040 1.8642
-8.4068 -0.6493 1.8466
-5.9877 -1.0056 1.3297
-5.9771 -1.5625 1.3530
-5.7777 -2.0763 1.3445
-5.9845 -2.7758 1.4447
-6.9885 -4.0348 1.7673
-6.0898 -4.2827 1.6305
-6.0562 -5.1240 1.7373
-1.0987 -1.1122 0.3424
-0.9898 -1.1993 0.3405
-0.8747 -1.2767 0.3389
-0.7542 -1.3439 0.3375
-0.6291 -1.4009 0.3363
-0.5002 -1.4472 0.3353
-0.3683 -1.4827 0.3346
-0.2342 -1.5073 0.3341
-0.0988 -1.5208 0.3338
0.0372 -1.5233 0.3337
0.1730 -1.5147 0.3339
0.3078 -1.4951 0.3343
0.4408 -1.4645 0.3349
0.5711 -1.4230 0.3358
0.6980 -1.3708 0.3369
0.8207 -1.3082 0.3382
0.9383 -1.2354 0.3397
1.0500 -1.1526 0.3415
2.3695 -2.1750 0.7044
2.5347 -1.9402 0.6991
2.7112 -1.7150 0.7026
2.8687 -1.4743 0.7064
3.0057 -1.2194 0.7104
3.1207 -0.9521 0.7145
3.2127 -0.6740 0.7189
3.2804 -0.3872 0.7234
3.3229 -0.0937 0.7280
3.3393 0.2043 0.7327
3.3290 0.5045 0.7374
3.2916 0.8045 0.7421
3.2269 1.1017 0.7468
3.1349 1.3936 0.7513
3.0159 1.6775 0.7558
2.8705 1.9508 0.7601
2.6995 2.2109 0.7642
2.5040 2.4551 0.7680
5.8735 6.8894 1.9827
1.0476 1.4778 0.3967
0.9162 1.5733 0.3987
0.7756 1.6559 0.4005
0.6271 1.7247 0.4019
0.4722 1.7788 0.4031
0.3123 1.8175 0.4039
0.1491 1.8403 0.4044
-0.0156 1.8469 0.4045
-0.1802 1.8373 0.4043
-0.3429 1.8115 0.4038
-0.5020 1.7699 0.4029
-0.6559 1.7130 0.4017
-0.8030 1.6415 0.4002
-0.9420 1.5564 0.3984
-1.0715 1.4586 0.3964
-5.9802 6.7789 1.9797
-6.5271 6.1864 1.9695
-7.0134 5.5485 1.9585
-7.4051 4.8516 1.9388
-7.7913 4.1628 1.9346
-8.0783 3.4287 1.9219
-8.2955 2.6764 1.9090
-8.4425 1.9127 1.8958
-8.5195 1.1440 1.8825
-8.5272 0.3770 1.8693
-8.4518 -0.3816 1.8529
-8.3056 -1.1232 1.8355
-5.9759 -1.3597 1.3422
-5.8536 -1.8946 1.3474
-5.9831 -2.5461 1.4240
-7.1347 -3.8206 1.7724
-6.7071 -4.4033 1.7571
-5.8659 -4.6496 1.6393
-5.7243 -5.4357 1.7288
-1.0295 -1.1692 0.3412
-0.9166 -1.2501 0.3395
-0.7979 -1.3210 0.3380
-0.6743 -1.3817 0.3367
-0.5467 -1.4318 0.3357
-0.4158 -1.4712 0.3348
-0.2824 -1.4997 0.3342
-0.1474 -1.5172 0.3338
-0.0115 -1.5237 0.3337
0.1245 -1.5191 0.3338
0.2597 -1.5034 0.3341
0.3934 -1.4767 0.3347
0.5248 -1.4391 0.3355
0.6530 -1.3907 0.3365
0.7773 -1.3318 0.3377
0.8968 -1.2626 0.3392
1.0108 -1.1833 0.3408
2.3690 -2.3184 0.7259
2.4671 -2.0167 0.6979
2.6501 -1.7975 0.7013
2.8146 -1.5622 0.7050
2.9591 -1.3122 0.7089
3.0821 -1.0491 0.7130
3.1825 -0.7747 0.7173
3.2590 -0.4908 0.7218
3.3106 -0.1994 0.7263
3.3364 0.0972 0.7310
3.3358 0.3969 0.7357
3.3081 0.6973 0.7404
3.2532 0.9958 0.7451
3.1709 1.2899 0.7497
3.0616 1.5770 0.7542
2.9255 1.8544 0.7586
2.7635 2.1195 0.7627
2.5767 2.3696 0.7667
2.3853 2.6232 0.7765
1.0921 1.4407 0.3959
0.9644 1.5405 0.3980
0.8270 1.6279 0.3999
0.6811 1.7017 0.4014
0.5283 1.7612 0.4027
0.3700 1.8055 0.4036
0.2078 1.8340 0.4042
0.0434 1.8464 0.4045
-0.1214 1.8426 0.4044
-0.2850 1.8226 0.4040
-0.4455 1.7866 0.4032
-0.6015 1.7351 0.4022
-0.7512 1.6687 0.4008
-0.8933 1.5884 0.3991
-1.0263 1.4950 0.3971
-5.7705 6.9787 1.9832
-6.3381 6.4041 1.9733
-6.8465 5.7816 1.9625
-7.2617 5.0967 1.9430
-7.6718 4.4198 1.9390
-7.9835 3.6940 1.9265
-8.2258 2.9474 1.9136
-8.3980 2.1870 1.9005
-8.4999 1.4193 1.8873
-8.5323 0.6510 1.8740
-8.4885 -0.1116 1.8592
-8.3652 -0.8601 1.8417
-5.9746 -1.1599 1.3329
-5.9781 -1.7259 1.3627
-5.8005 -2.2522 1.3627
-7.2742 -3.6010 1.7776
-6.8662 -4.2000 1.7627
-5.8883 -4.3683 1.6057
-5.9111 -5.2642 1.7335
-1.0684 -1.1379 0.3418
-0.9577 -1.2223 0.3401
-0.8410 -1.2968 0.3385
-0.7191 -1.3612 0.3371
-0.5928 -1.4151 0.3360
-0.4630 -1.4584 0.3351
-0.3304 -1.4908 0.3344
-0.1959 -1.5122 0.3340
-0.0602 -1.5227 0.3337
0.0759 -1.5220 0.3337
0.2115 -1.5103 0.3340
0.3458 -1.4875 0.3345
0.4781 -1.4538 0.3352
0.6075 -1.4093 0.3361
0.7333 -1.3541 0.3372
0.8546 -1.2885 0.3386
0.9707 -1.2128 0.3402
1.0806 -1.1273 0.3420
2.3974 -2.0911 0.6967
2.5867 -1.8779 0.7000
2.7580 -1.6482 0.7036
2.9097 -1.4032 0.7075
3.0406 -1.1447 0.7115
3.1493 -0.8741 0.7158
3.2344 -0.5934 0.7202
3.2951 -0.3045 0.7247
3.3302 -0.0094 0.7293
3.3391 0.2895 0.7340
3.3212 0.5899 0.7387
3.2760 0.8893 0.7434
3.2035 1.1853 0.7481
3.1038 1.4752 0.7526
2.9772 1.7564 0.7570
2.8244 2.0262 0.7613
2.6464 2.2820 0.7653
2.4442 2.5212 0.7690
5.7020 7.0425 1.9845
1.0113 1.5062 0.3973
0.8772 1.5981 0.3992
0.7342 1.6769 0.4009
0.5837 1.7416 0.4023
0.4272 1.7914 0.4033
0.2662 1.8256 0.4040
0.1024 1.8439 0.4044
-0.0625 1.8459 0.4045
-0.2267 1.8316 0.4042
-0.3885 1.8013 0.4036
-0.5463 1.7552 0.4026
-0.6984 1.6941 0.4013
-0.8434 1.6187 0.3997
-0.9798 1.5299 0.3979
-5.5538 7.1716 1.9865
-6.1415 6.6156 1.9769
-6.6715 6.0095 1.9665
-7.1400 5.3599 1.9552
-7.5128 4.6542 1.9355
-7.8799 3.9565 1.9310
-8.1471 3.2166 1.9183
-8.3444 2.4604 1.9052
-8.4715 1.6945 1.8920
-8.5287 0.9257 1.8788
-8.5168 0.1603 1.8655
-8.4168 -0.5943 1.8479
-6.2380 -1.0053 1.3838
-5.9768 -1.5204 1.3506
-5.7849 -2.0359 1.3431
-5.9842 -2.7278 1.4403
-7.0197 -3.9913 1.7685
-6.5770 -4.5608 1.7528
-6.0934 -5.0869 1.7384
-5.5728 -5.5674 1.7252
