ply
format ascii 1.0
element vertex 2177
property float32 x
property float32 y
property float32 z
end_header
2.3721 -1.3869 0.7091
2.4933 -1.1730 0.7111
2.6007 -0.9505 0.7146
2.6888 -0.7183 0.7182
2.7565 -0.4780 0.7220
2.8031 -0.2314 0.7259
2.8278 0.0197 0.7298
2.8301 0.2734 0.7338
2.8096 0.5276 0.7378
2.7662 0.7804 0.7417
2.6996 1.0295 0.7456
2.6103 1.2727 0.7494
2.4986 1.5079 0.7531
2.3824 1.7455 0.7622
2.3836 2.0975 0.8194
1.0372 1.0917 0.3886
0.9404 1.1859 0.3906
0.8347 1.2708 0.3924
0.7208 1.3456 0.3940
0.5999 1.4093 0.3953
0.4731 1.4613 0.3964
0.3416 1.5008 0.3972
0.2066 1.5275 0.3978
0.0696 1.5409 0.3981
-0.0682 1.5410 0.3981
-0.2053 1.5277 0.3978
-0.3403 1.5012 0.3973
-0.4719 1.4619 0.3964
-0.5988 1.4101 0.3953
-0.7198 1.3465 0.3940
-0.8337 1.2718 0.3924
-0.9396 1.1869 0.3907
-1.0365 1.0928 0.3887
-5.6650 4.9940 1.9489
-6.0585 4.4471 1.9395
-6.3980 3.8688 1.9295
-6.6814 3.2648 1.9191
-6.9071 2.6408 1.9084
-7.0741 2.0024 1.8974
-7.1821 1.3553 1.8862
-7.2311 0.7049 1.8750
-7.2192 0.0566 1.8631
-7.1377 -0.5830 1.8482
-7.0014 -1.2079 1.8335
-6.8127 -1.8136 1.8194
-5.7795 -2.1065 1.5875
-6.2886 -2.9517 1.7928
-5.9591 -3.4770 1.7805
-5.5888 -3.9690 1.7690
-1.0236 -0.8742 0.3474
-0.9367 -0.9572 0.3456
-0.8437 -1.0322 0.3441
-0.7452 -1.0989 0.3427
-0.6419 -1.1569 0.3414
-0.5345 -1.2059 0.3404
-0.4238 -1.2457 0.3396
-0.3104 -1.2761 0.3389
-0.1950 -1.2970 0.3385
-0.0785 -1.3083 0.3382
0.0386 -1.3099 0.3382
0.1554 -1.3019 0.3384
0.2712 -1.2842 0.3387
0.3853 -1.2570 0.3393
0.4971 -1.2204 0.3401
0.6057 -1.1745 0.3410
0.7104 -1.1195 0.3422
0.8106 -1.0558 0.3435
0.9056 -0.9836 0.3450
0.9945 -0.9032 0.3467
1.0768 -0.8152 0.3486
2.3718 -1.4825 0.7218
2.4536 -1.2443 0.7100
2.5672 -1.0253 0.7134
2.6618 -0.7962 0.7170
2.7364 -0.5584 0.7207
2.7901 -0.3137 0.7246
2.8221 -0.0639 0.7285
2.8319 0.1892 0.7325
2.8190 0.4435 0.7364
2.7831 0.6970 0.7404
2.7242 0.9475 0.7443
2.6424 1.1929 0.7482
2.5381 1.4310 0.7519
2.4117 1.6596 0.7555
2.3832 1.9752 0.7988
1.0671 1.0586 0.3879
0.9735 1.1556 0.3900
0.8706 1.2438 0.3918
0.7594 1.3220 0.3935
0.6407 1.3895 0.3949
0.5157 1.4454 0.3961
0.3856 1.4891 0.3970
0.2516 1.5201 0.3976
0.1151 1.5379 0.3980
-0.0226 1.5425 0.3981
-0.1600 1.5336 0.3979
-0.2959 1.5115 0.3975
-0.4288 1.4763 0.3967
-0.5573 1.4286 0.3957
-0.6804 1.3688 0.3945
-0.7968 1.2977 0.3930
-0.9055 1.2161 0.3913
-1.0054 1.1250 0.3894
-5.5232 5.1674 1.9519
-5.9340 4.6320 1.9427
-6.2668 4.0474 1.9252
-6.5939 3.4674 1.9226
-6.8388 2.8494 1.9120
-7.0254 2.2151 1.9010
-7.1529 1.5703 1.8899
-7.2214 0.9203 1.8787
-7.2313 0.2708 1.8675
-7.1709 -0.3726 1.8531
-7.0525 -1.0028 1.8383
-6.8809 -1.6154 1.8240
-5.8310 -1.9318 1.5853
-6.3882 -2.7709 1.7970
-6.0729 -3.3066 1.7845
-5.7157 -3.8099 1.7727
-1.0508 -0.8450 0.3480
-0.9662 -0.9306 0.3462
-0.8752 -1.0083 0.3446
-0.7784 -1.0778 0.3431
-0.6766 -1.1386 0.3418
-0.5705 -1.1906 0.3407
-0.4608 -1.2335 0.3398
-0.3482 -1.2670 0.3391
-0.2334 -1.2911 0.3386
-0.1172 -1.3056 0.3383
-0.0002 -1.3104 0.3382
0.1167 -1.3056 0.3383
0.2330 -1.2911 0.3386
0.3477 -1.2671 0.3391
0.4604 -1.2335 0.3398
0.5701 -1.1907 0.3407
0.6762 -1.1387 0.3418
0.7780 -1.0778 0.3430
0.8747 -1.0084 0.3445
0.9658 -0.9307 0.3461
1.0504 -0.8452 0.3479
2.3714 -1.5818 0.7356
2.4120 -1.3143 0.7089
2.5317 -1.0990 0.7123
2.6326 -0.8731 0.7158
2.7139 -0.6380 0.7195
2.7746 -0.3954 0.7233
2.8139 -0.1471 0.7272
2.8311 0.1051 0.7311
2.8258 0.3592 0.7351
2.7975 0.6132 0.7391
2.7463 0.8650 0.7431
2.6720 1.1123 0.7469
2.5751 1.3531 0.7507
2.4560 1.5851 0.7544
2.3828 1.8587 0.7799
1.0959 1.0247 0.3872
1.0056 1.1244 0.3893
0.9057 1.2156 0.3912
0.7971 1.2973 0.3929
0.6808 1.3684 0.3944
0.5577 1.4282 0.3957
0.4292 1.4760 0.3967
0.2963 1.5113 0.3974
0.1605 1.5335 0.3979
0.0231 1.5425 0.3981
-0.1146 1.5380 0.3980
-0.2511 1.5202 0.3976
-0.3852 1.4894 0.3970
-0.5153 1.4457 0.3961
-0.6403 1.3899 0.3949
-0.7591 1.3225 0.3935
-0.8704 1.2442 0.3919
-0.9733 1.1562 0.3900
-1.0670 1.0592 0.3880
-5.8037 4.8132 1.9458
-6.1546 4.2381 1.9285
-6.5001 3.6675 1.9261
-6.7641 3.0562 1.9155
-6.9701 2.4267 1.9047
-7.1172 1.7847 1.8936
-7.2052 1.1358 1.8824
-7.2345 0.4856 1.8712
-7.1979 -0.1607 1.8580
-7.0977 -0.7958 1.8432
-6.9435 -1.4147 1.8287
-6.0409 -1.8048 1.6271
-6.4829 -2.5869 1.8013
-6.1821 -3.1326 1.7885
-5.8385 -3.6470 1.7765
-1.0773 -0.8150 0.3486
-0.9950 -0.9031 0.3468
-0.9060 -0.9834 0.3451
-0.8111 -1.0557 0.3436
-0.7109 -1.1194 0.3422
-0.6061 -1.1744 0.3411
-0.4975 -1.2203 0.3401
-0.3857 -1.2570 0.3393
-0.2716 -1.2842 0.3387
-0.1558 -1.3019 0.3384
-0.0390 -1.3099 0.3382
0.0781 -1.3083 0.3382
0.1946 -1.2970 0.3385
0.3099 -1.2761 0.3389
0.4233 -1.2457 0.3395
0.5341 -1.2059 0.3404
0.6415 -1.1569 0.3414
0.7448 -1.0990 0.3426
0.8433 -1.0323 0.3440
0.9363 -0.9573 0.3456
1.0231 -0.8744 0.3473
2.3711 -1.6850 0.7507
2.3721 -1.3851 0.7089
2.4940 -1.1716 0.7111
2.6013 -0.9490 0.7146
2.6893 -0.7168 0.7182
2.7569 -0.4765 0.7220
2.8033 -0.2299 0.7259
2.8279 0.0213 0.7298
2.8301 0.2750 0.7338
2.8094 0.5292 0.7378
2.7658 0.7820 0.7418
2.6991 1.0310 0.7457
2.6097 1.2742 0.7495
2.4978 1.5094 0.7532
2.3824 1.7476 0.7625
2.3836 2.0999 0.8198
1.0366 1.0923 0.3886
0.9398 1.1864 0.3906
0.8340 1.2713 0.3924
0.7201 1.3461 0.3940
0.5992 1.4097 0.3953
0.4723 1.4616 0.3964
0.3407 1.5010 0.3972
0.2057 1.5276 0.3978
0.0687 1.5410 0.3981
-0.0691 1.5410 0.3981
-0.2061 1.5276 0.3978
-0.3411 1.5010 0.3972
-0.4727 1.4616 0.3964
-0.5996 1.4097 0.3953
-0.7205 1.3460 0.3940
-0.8344 1.2713 0.3924
-0.9402 1.1864 0.3907
-1.0370 1.0922 0.3887
-5.6677 4.9907 1.9489
-6.0608 4.4435 1.9395
-6.4000 3.8651 1.9295
-6.6830 3.2609 1.9191
-6.9084 2.6368 1.9083
-7.0750 1.9984 1.8973
-7.1826 1.3512 1.8861
-7.2312 0.7008 1.8749
-7.2189 0.0525 1.8630
-7.1370 -0.5870 1.8481
-7.0004 -1.2118 1.8335
-6.8113 -1.8174 1.8193
-5.7796 -2.1103 1.5879
-6.2866 -2.9552 1.7927
-5.9568 -3.4802 1.7804
-5.5863 -3.9720 1.7689
-1.0230 -0.8748 0.3474
-0.9362 -0.9577 0.3456
-0.8431 -1.0327 0.3440
-0.7446 -1.0993 0.3426
-0.6413 -1.1572 0.3414
-0.5338 -1.2061 0.3404
-0.4231 -1.2459 0.3396
-0.3096 -1.2762 0.3389
-0.1943 -1.2971 0.3385
-0.0777 -1.3083 0.3382
0.0393 -1.3099 0.3382
0.1561 -1.3018 0.3384
0.2719 -1.2841 0.3387
0.3860 -1.2568 0.3393
0.4978 -1.2201 0.3401
0.6063 -1.1741 0.3410
0.7111 -1.1191 0.3422
0.8112 -1.0553 0.3435
0.9061 -0.9831 0.3450
0.9951 -0.9027 0.3467
1.0773 -0.8146 0.3486
2.3718 -1.4807 0.7216
2.4544 -1.2429 0.7100
2.5679 -1.0239 0.7134
2.6623 -0.7947 0.7170
2.7368 -0.5569 0.7208
2.7903 -0.3121 0.7246
2.8222 -0.0623 0.7285
2.8319 0.1908 0.7325
2.8188 0.4451 0.7365
2.7828 0.6986 0.7404
2.7238 0.9491 0.7444
2.6418 1.1944 0.7482
2.5373 1.4325 0.7520
2.4108 1.6610 0.7555
2.3832 1.9775 0.7992
1.0666 1.0593 0.3879
0.9729 1.1562 0.3900
0.8700 1.2443 0.3918
0.7586 1.3225 0.3935
0.6399 1.3899 0.3949
0.5149 1.4457 0.3961
0.3847 1.4894 0.3970
0.2508 1.5203 0.3976
0.1142 1.5380 0.3980
-0.0235 1.5425 0.3981
-0.1609 1.5335 0.3979
-0.2967 1.5113 0.3975
-0.4296 1.4760 0.3967
-0.5581 1.4282 0.3957
-0.6812 1.3684 0.3945
-0.7975 1.2972 0.3930
-0.9061 1.2156 0.3913
-1.0060 1.1244 0.3894
-5.5260 5.1641 1.9519
-5.9365 4.6285 1.9426
-6.2688 4.0437 1.9252
-6.5956 3.4635 1.9226
-6.8402 2.8454 1.9119
-7.0263 2.2111 1.9010
-7.1535 1.5661 1.8898
-7.2216 0.9162 1.8786
-7.2312 0.2667 1.8674
-7.1703 -0.3766 1.8530
-7.0516 -1.0068 1.8383
-6.8796 -1.6192 1.8239
-5.8290 -1.9348 1.5850
-6.3863 -2.7744 1.7969
-6.0708 -3.3099 1.7844
-5.7133 -3.8130 1.7726
-1.0503 -0.8456 0.3480
-0.9657 -0.9311 0.3462
-0.8746 -1.0088 0.3445
-0.7778 -1.0782 0.3431
-0.6760 -1.1390 0.3418
-0.5698 -1.1909 0.3407
-0.4601 -1.2337 0.3398
-0.3474 -1.2672 0.3391
-0.2326 -1.2912 0.3386
-0.1164 -1.3057 0.3383
0.0005 -1.3104 0.3382
0.1175 -1.3056 0.3383
0.2337 -1.2910 0.3386
0.3485 -1.2669 0.3391
0.4611 -1.2333 0.3398
0.5708 -1.1904 0.3407
0.6768 -1.1383 0.3418
0.7786 -1.0774 0.3431
0.8753 -1.0079 0.3445
0.9663 -0.9302 0.3461
1.0509 -0.8446 0.3479
2.3714 -1.5798 0.7354
2.4128 -1.3129 0.7089
2.5324 -1.0976 0.7123
2.6332 -0.8717 0.7158
2.7144 -0.6365 0.7195
2.7749 -0.3939 0.7233
2.8141 -0.1455 0.7272
2.8312 0.1067 0.7312
2.8257 0.3609 0.7351
2.7973 0.6148 0.7391
2.7459 0.8666 0.7431
2.6715 1.1139 0.7470
2.5744 1.3546 0.7507
2.4551 1.5865 0.7544
2.3828 1.8609 0.7802
1.0954 1.0254 0.3872
1.0050 1.1251 0.3893
0.9050 1.2162 0.3912
0.7964 1.2978 0.3929
0.6800 1.3688 0.3944
0.5569 1.4286 0.3957
0.4284 1.4763 0.3967
0.2955 1.5115 0.3974
0.1596 1.5336 0.3979
0.0222 1.5425 0.3981
-0.1155 1.5379 0.3980
-0.2520 1.5201 0.3976
-0.3860 1.4891 0.3970
-0.5161 1.4454 0.3961
-0.6411 1.3895 0.3949
-0.7598 1.3220 0.3935
-0.8711 1.2437 0.3919
-0.9739 1.1556 0.3900
-1.0676 1.0585 0.3880
-5.8063 4.8098 1.9458
-6.1567 4.2345 1.9284
-6.5019 3.6637 1.9260
-6.7656 3.0522 1.9155
-6.9712 2.4226 1.9046
-7.1179 1.7806 1.8935
-7.2056 1.1317 1.8823
-7.2345 0.4814 1.8711
-7.1975 -0.1648 1.8579
-7.0969 -0.7998 1.8431
-6.9423 -1.4186 1.8286
-6.0319 -1.8059 1.6249
-6.4811 -2.5904 1.8012
-6.1801 -3.1359 1.7885
-5.8361 -3.6501 1.7764
-1.0768 -0.8156 0.3486
-0.9944 -0.9036 0.3468
-0.9054 -0.9839 0.3451
-0.8105 -1.0561 0.3436
-0.7102 -1.1198 0.3422
-0.6054 -1.1747 0.3411
-0.4968 -1.2206 0.3401
-0.3850 -1.2572 0.3393
-0.2709 -1.2843 0.3387
-0.1550 -1.3020 0.3384
-0.0382 -1.3099 0.3382
0.0788 -1.3082 0.3382
0.1953 -1.2969 0.3385
0.3107 -1.2759 0.3389
0.4241 -1.2455 0.3395
0.5348 -1.2056 0.3404
0.6422 -1.1566 0.3414
0.7454 -1.0986 0.3426
0.8439 -1.0319 0.3440
0.9369 -0.9568 0.3456
1.0236 -0.8738 0.3473
2.3711 -1.6830 0.7504
2.3721 -1.3833 0.7086
2.4948 -1.1702 0.7111
2.6019 -0.9476 0.7146
2.6897 -0.7153 0.7183
2.7572 -0.4750 0.7220
2.8035 -0.2283 0.7259
2.8280 0.0229 0.7298
2.8300 0.2766 0.7338
2.8092 0.5309 0.7378
2.7655 0.7836 0.7418
2.6987 1.0326 0.7457
2.6090 1.2757 0.7495
2.4970 1.5108 0.7532
2.3824 1.7497 0.7628
2.3836 2.1023 0.8202
1.0360 1.0929 0.3886
0.9391 1.1870 0.3906
0.8333 1.2719 0.3924
0.7193 1.3465 0.3940
0.5984 1.4101 0.3953
0.4715 1.4619 0.3964
0.3399 1.5012 0.3972
0.2049 1.5277 0.3978
0.0678 1.5410 0.3981
-0.0700 1.5409 0.3981
-0.2070 1.5275 0.3978
-0.3420 1.5008 0.3972
-0.4735 1.4613 0.3964
-0.6004 1.4093 0.3953
-0.7213 1.3456 0.3940
-0.8351 1.2708 0.3924
-0.9408 1.1858 0.3906
-1.0376 1.0916 0.3887
-5.6703 4.9873 1.9488
-6.0632 4.4399 1.9394
-6.4020 3.8613 1.9294
-6.6847 3.2570 1.9190
-6.9096 2.6328 1.9082
-7.0759 1.9943 1.8972
-7.1831 1.3470 1.8861
-7.2314 0.6966 1.8748
-7.2185 0.0484 1.8629
-7.1363 -0.5911 1.8480
-6.9994 -1.2157 1.8334
-6.8100 -1.8212 1.8192
-5.7798 -2.1140 1.5882
-6.2847 -2.9586 1.7926
-5.9546 -3.4835 1.7803
-5.5838 -3.9750 1.7689
-1.0225 -0.8753 0.3474
-0.9356 -0.9582 0.3456
-0.8425 -1.0331 0.3440
-0.7439 -1.0997 0.3426
-0.6406 -1.1575 0.3414
-0.5331 -1.2064 0.3404
-0.4223 -1.2461 0.3395
-0.3089 -1.2764 0.3389
-0.1935 -1.2972 0.3385
-0.0770 -1.3084 0.3382
0.0401 -1.3099 0.3382
0.1568 -1.3017 0.3384
0.2726 -1.2839 0.3387
0.3868 -1.2566 0.3393
0.4985 -1.2198 0.3401
0.6070 -1.1738 0.3410
0.7117 -1.1188 0.3422
0.8119 -1.0549 0.3435
0.9067 -0.9826 0.3450
0.9956 -0.9022 0.3467
1.0778 -0.8141 0.3486
2.3718 -1.4788 0.7213
2.4552 -1.2416 0.7100
2.5685 -1.0225 0.7135
0.9131 -0.9358 0.3460
0.9979 -0.8548 0.3477
1.0759 -0.7664 0.3496
2.3721 -1.3887 0.7274
2.4321 -1.1459 0.7115
2.5367 -0.9287 0.7149
2.6224 -0.7022 0.7185
2.6883 -0.4678 0.7222
2.7335 -0.2273 0.7259
2.7574 0.0176 0.7298
2.7594 0.2650 0.7336
2.7392 0.5128 0.7375
2.6966 0.7591 0.7414
2.6316 1.0018 0.7452
2.5443 1.2387 0.7489
2.4353 1.4678 0.7525
2.3824 1.7434 0.7813
1.0952 0.9627 0.3859
1.0104 1.0623 0.3880
0.9161 1.1539 0.3899
0.8131 1.2365 0.3917
0.7023 1.3092 0.3932
0.5846 1.3712 0.3945
0.4612 1.4217 0.3956
0.3332 1.4602 0.3964
0.2019 1.4861 0.3969
0.0685 1.4993 0.3972
-0.0655 1.4994 0.3972
-0.1989 1.4866 0.3969
-0.3303 1.4610 0.3964
-0.4584 1.4228 0.3956
-0.5820 1.3726 0.3946
-0.6998 1.3109 0.3933
-0.8108 1.2384 0.3917
-0.9140 1.1560 0.3900
-1.0085 1.0646 0.3881
-5.5152 4.8675 1.9468
-5.8759 4.3181 1.9298
-6.2315 3.7729 1.9279
-6.5088 3.1851 1.9178
-6.7301 2.5775 1.9073
-6.8942 1.9557 1.8965
-7.0008 1.3252 1.8857
-7.0500 0.6913 1.8747
-7.0399 0.0592 1.8632
-6.9621 -0.5647 1.8486
-6.8309 -1.1745 1.8343
-6.6484 -1.7658 1.8205
-5.8010 -2.1106 1.6337
-6.1398 -2.8776 1.7945
-5.8194 -3.3911 1.7825
-1.0777 -0.7645 0.3497
-0.9999 -0.8530 0.3478
-0.9153 -0.9342 0.3461
-0.8246 -1.0076 0.3446
-0.7285 -1.0729 0.3432
-0.6276 -1.1296 0.3420
-0.5228 -1.1776 0.3410
-0.4147 -1.2166 0.3402
-0.3039 -1.2465 0.3395
-0.1912 -1.2670 0.3391
-0.0774 -1.2781 0.3389
0.0370 -1.2798 0.3388
0.1511 -1.2720 0.3390
0.2642 -1.2547 0.3393
0.3757 -1.2282 0.3399
0.4849 -1.1924 0.3407
0.5909 -1.1475 0.3416
0.6932 -1.0938 0.3427
0.7911 -1.0315 0.3440
0.8837 -0.9609 0.3455
0.9705 -0.8824 0.3471
1.0508 -0.7964 0.3489
2.3718 -1.4844 0.7405
2.3935 -1.2154 0.7104
2.5041 -1.0018 0.7138
2.5962 -0.7782 0.7173
2.6687 -0.5462 0.7209
2.7209 -0.3075 0.7247
2.7519 -0.0638 0.7285
2.7612 0.1829 0.7324
2.7484 0.4308 0.7362
2.7132 0.6778 0.7401
2.6556 0.9219 0.7439
2.5756 1.1610 0.7477
2.4738 1.3929 0.7513
2.3820 1.6372 0.7650
2.3832 1.9729 0.8188
1.0396 1.0301 0.3873
0.9483 1.1245 0.3893
0.8481 1.2102 0.3911
0.7398 1.2863 0.3927
0.6243 1.3519 0.3941
0.5026 1.4063 0.3952
0.3760 1.4488 0.3961
0.2457 1.4789 0.3968
0.1128 1.4964 0.3971
-0.0211 1.5008 0.3972
-0.1549 1.4923 0.3971
-0.2871 1.4709 0.3966
-0.4164 1.4368 0.3959
-0.5416 1.3905 0.3949
-0.6615 1.3325 0.3937
-0.7749 1.2636 0.3923
-0.8808 1.1844 0.3906
-0.9782 1.0958 0.3888
-1.0665 0.9989 0.3867
-5.7779 4.5154 1.9407
-6.1275 3.9623 1.9312
-6.4231 3.3822 1.9212
-6.6631 2.7806 1.9108
-6.8462 2.1629 1.9001
-6.9719 1.5347 1.8893
-7.0401 0.9013 1.8784
-7.0512 0.2680 1.8674
-6.9939 -0.3594 1.8534
-6.8802 -0.9744 1.8390
-6.7144 -1.5723 1.8250
-5.8539 -1.9357 1.6318
-6.2366 -2.7009 1.7986
-5.9301 -3.2245 1.7864
-5.5826 -3.7166 1.7749
-1.0264 -0.8245 0.3484
-0.9440 -0.9081 0.3467
-0.8552 -0.9842 0.3451
-0.7609 -1.0522 0.3436
-0.6615 -1.1118 0.3424
-0.5579 -1.1627 0.3413
-0.4508 -1.2047 0.3404
-0.3408 -1.2376 0.3397
-0.2287 -1.2612 0.3392
-0.1152 -1.2755 0.3389
-0.0009 -1.2803 0.3388
0.1133 -1.2756 0.3389
0.2269 -1.2615 0.3392
0.3390 -1.2380 0.3397
0.4490 -1.2052 0.3404
0.5562 -1.1634 0.3413
0.6598 -1.1125 0.3423
0.7592 -1.0531 0.3436
0.8536 -0.9852 0.3450
0.9425 -0.9093 0.3466
1.0250 -0.8257 0.3483
2.3714 -1.5837 0.7547
2.3724 -1.2944 0.7152
2.4695 -1.0737 0.7127
2.5678 -0.8532 0.7161
2.6469 -0.6238 0.7197
2.7059 -0.3872 0.7234
2.7440 -0.1450 0.7272
2.7605 0.1009 0.7311
2.7551 0.3487 0.7350
2.7273 0.5962 0.7388
2.6771 0.8415 0.7427
2.6046 1.0825 0.7465
2.5099 1.3170 0.7501
2.3937 1.5430 0.7537
2.3828 1.8566 0.7994
1.0677 0.9971 0.3866
0.9796 1.0941 0.3887
0.8823 1.1828 0.3905
0.7765 1.2622 0.3922
0.6633 1.3314 0.3937
0.5435 1.3896 0.3949
0.4184 1.4361 0.3959
0.2892 1.4704 0.3966
0.1570 1.4920 0.3970
0.0233 1.5008 0.3972
-0.1107 1.4966 0.3971
-0.2435 1.4794 0.3968
-0.3740 1.4495 0.3962
-0.5007 1.4072 0.3953
-0.6224 1.3530 0.3941
-0.7381 1.2876 0.3928
-0.8466 1.2117 0.3912
-0.9469 1.1261 0.3894
-1.0383 1.0319 0.3874
-5.6507 4.6917 1.9437
-5.9936 4.1323 1.9267
-6.3313 3.5770 1.9245
-6.5898 2.9819 1.9142
-6.7919 2.3689 1.9037
-6.9366 1.7436 1.8929
-7.0238 1.1113 1.8820
-7.0538 0.4774 1.8711
-7.0198 -0.1527 1.8582
-6.9237 -0.7724 1.8437
-6.7749 -1.3764 1.8296
-6.5756 -1.9606 1.8160
-6.3285 -2.5211 1.8028
-6.0363 -3.0544 1.7904
-5.7020 -3.5572 1.7786
-1.0522 -0.7951 0.3490
-0.9720 -0.8812 0.3472
-0.8853 -0.9599 0.3456
-0.7927 -1.0306 0.3441
-0.6949 -1.0930 0.3428
-0.5927 -1.1468 0.3416
-0.4866 -1.1918 0.3407
-0.3775 -1.2277 0.3399
-0.2660 -1.2544 0.3394
-0.1529 -1.2718 0.3390
-0.0388 -1.2797 0.3388
0.0755 -1.2782 0.3389
0.1894 -1.2672 0.3391
0.3021 -1.2468 0.3395
0.4129 -1.2171 0.3401
0.5210 -1.1782 0.3409
0.6259 -1.1303 0.3419
0.7268 -1.0737 0.3431
0.8229 -1.0086 0.3445
0.9137 -0.9353 0.3460
0.9984 -0.8542 0.3477
1.0763 -0.7658 0.3496
2.3721 -1.3869 0.7272
2.4328 -1.1445 0.7115
2.5373 -0.9273 0.7149
2.6229 -0.7007 0.7185
2.6886 -0.4663 0.7222
2.7337 -0.2257 0.7259
2.7575 0.0192 0.7298
2.7594 0.2665 0.7337
2.7390 0.5144 0.7376
2.6962 0.7607 0.7414
2.6311 1.0033 0.7452
2.5437 1.2402 0.7489
2.4345 1.4692 0.7525
2.3824 1.7455 0.7816
1.0947 0.9633 0.3859
1.0098 1.0629 0.3880
0.9155 1.1544 0.3899
0.8124 1.2370 0.3917
0.7016 1.3096 0.3932
0.5838 1.3715 0.3945
0.4604 1.4220 0.3956
0.3324 1.4604 0.3964
0.2010 1.4863 0.3969
0.0677 1.4993 0.3972
-0.0664 1.4994 0.3972
-0.1997 1.4865 0.3969
-0.3311 1.4608 0.3964
-0.4592 1.4225 0.3956
-0.5827 1.3722 0.3945
-0.7005 1.3105 0.3933
-0.8115 1.2379 0.3917
-0.9147 1.1555 0.3900
-1.0091 1.0640 0.3881
-5.5178 4.8643 1.9467
-5.8781 4.3147 1.9298
-6.2334 3.7693 1.9278
-6.5104 3.1813 1.9177
-6.7313 2.5736 1.9072
-6.8951 1.9517 1.8965
-7.0013 1.3212 1.8856
-7.0502 0.6873 1.8747
-7.0396 0.0552 1.8631
-6.9615 -0.5686 1.8485
-6.8299 -1.1783 1.8342
-6.6471 -1.7695 1.8204
-5.8012 -2.1144 1.6341
-6.1379 -2.8810 1.7944
-5.8172 -3.3942 1.7824
-1.0772 -0.7650 0.3497
-0.9993 -0.8535 0.3478
-0.9147 -0.9347 0.3461
-0.8240 -1.0080 0.3446
-0.7278 -1.0732 0.3432
-0.6270 -1.1300 0.3420
-0.5221 -1.1779 0.3410
-0.4140 -1.2168 0.3402
-0.3032 -1.2466 0.3395
-0.1905 -1.2671 0.3391
-0.0767 -1.2781 0.3389
0.0377 -1.2797 0.3388
0.1518 -1.2719 0.3390
0.2649 -1.2546 0.3393
0.3764 -1.2280 0.3399
0.4855 -1.1921 0.3407
0.5916 -1.1472 0.3416
0.6939 -1.0934 0.3427
0.7917 -1.0311 0.3440
0.8843 -0.9604 0.3455
0.9711 -0.8819 0.3472
1.0513 -0.7959 0.3490
2.3718 -1.4825 0.7402
2.3942 -1.2141 0.7105
2.5048 -1.0004 0.7138
2.5967 -0.7767 0.7173
2.6691 -0.5447 0.7209
2.7211 -0.3060 0.7247
2.7520 -0.0623 0.7285
2.7612 0.1845 0.7324
2.7482 0.4324 0.7363
2.7129 0.6794 0.7401
2.6551 0.9235 0.7440
2.5751 1.1625 0.7477
2.4731 1.3944 0.7514
2.3820 1.6392 0.7653
2.3832 1.9752 0.8192
1.0390 1.0307 0.3873
0.9477 1.1251 0.3893
0.8475 1.2107 0.3911
0.7391 1.2867 0.3927
0.6235 1.3523 0.3941
0.5019 1.4066 0.3952
0.3752 1.4490 0.3961
0.2448 1.4791 0.3968
0.1120 1.4964 0.3971
-0.0220 1.5008 0.3972
-0.1557 1.4922 0.3971
-0.2879 1.4707 0.3966
-0.4172 1.4366 0.3959
-0.5424 1.3902 0.3949
-0.6622 1.3321 0.3937
-0.7756 1.2631 0.3923
-0.8814 1.1838 0.3906
-0.9788 1.0952 0.3887
-1.0670 0.9983 0.3867
-5.7803 4.5120 1.9406
-6.1295 3.9587 1.9311
-6.4248 3.3785 1.9211
-6.6644 2.7767 1.9107
-6.8472 2.1589 1.9001
-6.9725 1.5307 1.8892
-7.0403 0.8973 1.8783
-7.0511 0.2640 1.8674
-6.9934 -0.3634 1.8533
-6.8793 -0.9782 1.8389
-6.7132 -1.5760 1.8249
-5.8518 -1.9387 1.6314
-6.2347 -2.7043 1.7986
-5.9280 -3.2277 1.7863
-5.5802 -3.7196 1.7748
-1.0259 -0.8250 0.3484
-0.9434 -0.9086 0.3467
-0.8547 -0.9846 0.3451
-0.7602 -1.0526 0.3436
-0.6609 -1.1121 0.3424
-0.5573 -1.1630 0.3413
-0.4501 -1.2050 0.3404
-0.3401 -1.2378 0.3397
-0.2280 -1.2613 0.3392
-0.1145 -1.2755 0.3389
-0.0002 -1.2803 0.3388
0.1141 -1.2755 0.3389
0.2276 -1.2614 0.3392
0.3397 -1.2378 0.3397
0.4497 -1.2050 0.3404
0.5568 -1.1631 0.3413
0.6605 -1.1122 0.3423
0.7598 -1.0527 0.3436
0.8542 -0.9847 0.3450
0.9430 -0.9088 0.3466
1.0255 -0.8252 0.3483
2.3714 -1.5818 0.7544
2.3724 -1.2927 0.7150
2.4702 -1.0723 0.7127
2.5684 -0.8518 0.7161
2.6474 -0.6224 0.7197
2.7062 -0.3857 0.7234
2.7442 -0.1434 0.7272
2.7606 0.1025 0.7311
2.7550 0.3502 0.7350
2.7271 0.5978 0.7389
2.6767 0.8431 0.7427
2.6040 1.0840 0.7465
2.5092 1.3185 0.7502
2.3929 1.5444 0.7537
2.3828 1.8587 0.7998
1.0671 0.9978 0.3866
0.9790 1.0947 0.3887
0.8816 1.1834 0.3905
0.7758 1.2627 0.3922
0.6625 1.3318 0.3937
0.5428 1.3899 0.3949
0.4176 1.4363 0.3959
0.2883 1.4705 0.3966
0.1562 1.4921 0.3970
0.0224 1.5008 0.3972
-0.1115 1.4965 0.3971
-0.2444 1.4792 0.3968
-0.3748 1.4492 0.3962
-0.5015 1.4069 0.3953
-0.6232 1.3526 0.3941
-0.7388 1.2871 0.3928
-0.8472 1.2112 0.3912
-0.9476 1.1255 0.3894
-1.0389 1.0313 0.3874
-5.6532 4.6884 1.9437
-5.9958 4.1287 1.9266
-6.3331 3.5733 1.9244
-6.5913 2.9781 1.9142
-6.7930 2.3650 1.9036
-6.9374 1.7396 1.8928
-7.0242 1.1073 1.8819
-7.0538 0.4734 1.8710
-7.0193 -0.1567 1.8581
-6.9229 -0.7762 1.8436
-6.7738 -1.3801 1.8295
-6.5742 -1.9642 1.8159
-6.3268 -2.5246 1.8028
-6.0343 -3.0577 1.7903
-5.6998 -3.5603 1.7785
-1.0517 -0.7957 0.3490
-0.9715 -0.8818 0.3472
-0.8847 -0.9603 0.3456
-0.7921 -1.0310 0.3441
-0.6943 -1.0934 0.3428
-0.5920 -1.1471 0.3416
-0.4860 -1.1921 0.3407
-0.3768 -1.2279 0.3399
-0.2653 -1.2546 0.3394
-0.1522 -1.2719 0.3390
-0.0381 -1.2797 0.3388
0.0763 -1.2781 0.3389
0.1901 -1.2671 0.3391
0.3028 -1.2466 0.3395
0.4136 -1.2169 0.3401
0.5217 -1.1779 0.3410
0.6266 -1.1300 0.3420
0.7274 -1.0733 0.3431
0.8235 -1.0081 0.3445
0.9143 -0.9348 0.3460
0.9989 -0.8537 0.3477
1.0768 -0.7652 0.3496
2.3721 -1.3851 0.7270
2.4336 -1.1432 0.7116
2.5379 -0.9259 0.7150
2.6234 -0.6992 0.7185
2.6890 -0.4648 0.7222
2.7340 -0.2242 0.7260
2.7576 0.0208 0.7298
2.7593 0.2681 0.7337
2.7388 0.5159 0.7376
2.6959 0.7622 0.7414
2.6306 1.0048 0.7452
2.5431 1.2417 0.7490
2.4338 1.4706 0.7526
2.3824 1.7476 0.7820
1.0942 0.9640 0.3859
1.0092 1.0635 0.3880
0.9149 1.1550 0.3899
0.8118 1.2375 0.3917
0.7008 1.3101 0.3932
0.5831 1.3719 0.3945
0.4596 1.4223 0.3956
0.3316 1.4606 0.3964
0.2002 1.4864 0.3969
0.0668 1.4994 0.3972
-0.0672 1.4994 0.3972
-0.2006 1.4864 0.3969
-0.3319 1.4606 0.3964
-0.4600 1.4222 0.3956
-0.5835 1.3719 0.3945
-0.7012 1.3100 0.3932
-0.8122 1.2374 0.3917
-0.9153 1.1549 0.3900
-1.0097 1.0634 0.3881
-5.5204 4.8610 1.9467
-5.8804 4.3112 1.9297
-6.2353 3.7656 1.9278
-6.5120 3.1775 1.9176
-6.7325 2.5697 1.9071
-6.8959 1.9478 1.8964
-7.0018 1.3172 1.8855
-7.0503 0.6832 1.8746
-7.0392 0.0512 1.8630
-6.9608 -0.5725 1.8484
-6.8289 -1.1821 1.8342
-6.6457 -1.7732 1.8203
-5.8015 -2.1182 1.6345
-6.1360 -2.8843 1.7944
-5.8151 -3.3974 1.7824
-1.0768 -0.7656 0.3497
-0.9988 -0.8541 0.3478
-0.9142 -0.9352 0.3461
-0.8234 -1.0085 0.3446
-0.7272 -1.0736 0.3432
-0.6263 -1.1303 0.3420
-0.5215 -1.1782 0.3410
-0.4133 -1.2171 0.3402
-0.3025 -1.2468 0.3395
-0.1898 -1.2672 0.3391
-0.0759 -1.2782 0.3389
0.0384 -1.2797 0.3388
0.1525 -1.2718 0.3390
0.2656 -1.2545 0.3394
0.3771 -1.2278 0.3399
0.4862 -1.1918 0.3407
0.5922 -1.1469 0.3416
0.6945 -1.0931 0.3427
0.7923 -1.0307 0.3440
0.8848 -0.9600 0.3455
0.9716 -0.8814 0.3472
1.0518 -0.7953 0.3490
2.3718 -1.4807 0.7400
2.3950 -1.2128 0.7105
2.5054 -0.9990 0.7138
2.5972 -0.7753 0.7173
2.6695 -0.5432 0.7210
2.7214 -0.3044 0.7247
2.7521 -0.0607 0.7285
2.7612 0.1860 0.7324
2.7481 0.4339 0.7363
2.7126 0.6809 0.7402
2.6547 0.9250 0.7440
2.5745 1.1640 0.7477
2.4724 1.3958 0.7514
2.3821 1.6412 0.7656
2.3832 1.9775 0.8196
1.0385 1.0314 0.3873
0.9471 1.1256 0.3893
0.8468 1.2112 0.3911
0.7384 1.2872 0.3927
0.6228 1.3527 0.3941
0.5011 1.4069 0.3952
0.3744 1.4493 0.3961
0.2440 1.4792 0.3968
0.1111 1.4965 0.3971
-0.0228 1.5008 0.3972
-0.1566 1.4921 0.3971
-0.2887 1.4705 0.3966
-0.4180 1.4363 0.3959
-0.5432 1.3899 0.3949
-0.6629 1.3317 0.3937
-0.7763 1.2626 0.3923
-0.8821 1.1833 0.3906
-0.9794 1.0946 0.3887
-1.0676 0.9976 0.3867
-5.7827 4.5086 1.9406
-6.1316 3.9551 1.9310
-6.4265 3.3747 1.9210
-6.6657 2.7728 1.9106
-6.8481 2.1550 1.9000
-6.9731 1.5266 1.8892
-7.0406 0.8932 1.8782
-7.0509 0.2600 1.8673
-6.9928 -0.3673 1.8532
-6.8784 -0.9820 1.8388
-6.7120 -1.5797 1.8249
-5.8496 -1.9417 1.6312
-6.2329 -2.7077 1.7985
-5.9259 -3.2309 1.7863
-5.5779 -3.7226 1.7748
-1.0254 -0.8256 0.3484
-0.9429 -0.9091 0.3466
-0.8541 -0.9851 0.3450
-0.7596 -1.0530 0.3436
-0.6602 -1.1125 0.3424
-0.5566 -1.1633 0.3413
-0.4494 -1.2052 0.3404
-0.3394 -1.2380 0.3397
-0.2273 -1.2615 0.3392
-0.1137 -1.2756 0.3389
0.0005 -1.2803 0.3388
0.1148 -1.2755 0.3389
0.2283 -1.2612 0.3392
0.3404 -1.2376 0.3397
0.4504 -1.2048 0.3404
0.5575 -1.1628 0.3413
0.6611 -1.1118 0.3423
0.7604 -1.0523 0.3436
0.8548 -0.9843 0.3450
0.9435 -0.9083 0.3466
1.0260 -0.8246 0.3484
2.3714 -1.5798 0.7541
2.3724 -1.2909 0.7148
2.4708 -1.0710 0.7127
2.5689 -0.8504 0.7162
2.6478 -0.6209 0.7198
2.7065 -0.3842 0.7235
2.7443 -0.1419 0.7273
2.7606 0.1041 0.7311
2.7549 0.3518 0.7350
2.7268 0.5993 0.7389
2.6764 0.8446 0.7427
2.6035 1.0855 0.7465
2.5086 1.3200 0.7502
2.3921 1.5458 0.7537
2.3828 1.8609 0.8001
1.0666 0.9984 0.3866
0.9784 1.0953 0.3887
0.8810 1.1839 0.3905
0.7751 1.2631 0.3922
0.6618 1.3322 0.3937
0.5420 1.3902 0.3949
0.4168 1.4366 0.3959
0.2875 1.4707 0.3966
0.1553 1.4922 0.3970
0.0216 1.5008 0.3972
-0.1124 1.4964 0.3971
-0.2452 1.4791 0.3968
-0.3756 1.4490 0.3962
-0.5023 1.4066 0.3953
-0.6239 1.3522 0.3941
-0.7395 1.2867 0.3928
-0.8479 1.2106 0.3912
-0.9482 1.1250 0.3894
-1.0394 1.0306 0.3874
-5.6556 4.6850 1.9436
-5.9979 4.1252 1.9265
-6.3349 3.5696 1.9244
-6.5928 2.9742 1.9141
-6.7941 2.3611 1.9035
-6.9381 1.7356 1.8928
-7.0246 1.1033 1.8818
-7.0538 0.4694 1.8709
-7.0189 -0.1607 1.8580
-6.9222 -0.7801 1.8436
-6.7727 -1.3839 1.8294
-6.5728 -1.9678 1.8158
-6.3251 -2.5280 1.8027
-6.0323 -3.0610 1.7902
-5.6975 -3.5634 1.7785
-1.0513 -0.7963 0.3490
-0.9710 -0.8823 0.3472
-0.8841 -0.9608 0.3456
-0.7915 -1.0314 0.3441
-0.6937 -1.0937 0.3428
-0.5914 -1.1474 0.3416
-0.4853 -1.1923 0.3407
-0.3761 -1.2281 0.3399
-0.2646 -1.2547 0.3394
-0.1515 -1.2719 0.3390
-0.0373 -1.2798 0.3388
0.0770 -1.2781 0.3389
0.1908 -1.2670 0.3391
0.3035 -1.2465 0.3395
0.4143 -1.2167 0.3401
0.5224 -1.1777 0.3410
0.6272 -1.1297 0.3420
0.7280 -1.0729 0.3432
0.8241 -1.0077 0.3445
0.9148 -0.9343 0.3461
0.9994 -0.8531 0.3478
1.0773 -0.7646 0.3496
2.3721 -1.3833 0.7267
2.4343 -1.1418 0.7116
2.5385 -0.9245 0.7150
2.6239 -0.6978 0.7185
2.6894 -0.4633 0.7222
2.7342 -0.2226 0.7260
2.7576 0.0223 0.7298
2.7592 0.2697 0.7337
2.7386 0.5175 0.7376
2.6956 0.7638 0.7415
2.6301 1.0064 0.7453
2.5424 1.2432 0.7490
2.4330 1.4721 0.7526
2.3824 1.7497 0.7823
1.0937 0.9646 0.3859
1.0087 1.0641 0.3880
0.9142 1.1555 0.3900
0.8111 1.2380 0.3917
0.7001 1.3105 0.3932
0.5823 1.3723 0.3945
0.4588 1.4225 0.3956
0.3307 1.4608 0.3964
0.1994 1.4865 0.3969
0.0660 1.4994 0.3972
-0.0681 1.4993 0.3972
-0.2014 1.4862 0.3969
-0.3328 1.4604 0.3964
-0.4608 1.4220 0.3956
-0.5843 1.3715 0.3945
-0.7020 1.3096 0.3932
-0.8129 1.2369 0.3917
-0.9159 1.1544 0.3900
-1.0102 1.0628 0.3881
-5.5230 4.8578 1.9466
-5.8826 4.3078 1.9296
-6.2373 3.7620 1.9277
-6.5136 3.1737 1.9176
-6.7337 2.5658 1.9071
-6.8968 1.9438 1.8963
-7.0023 1.3131 1.8855
-7.0504 0.6792 1.8745
-7.0389 0.0472 1.8629
-6.9601 -0.5765 1.8483
-6.8279 -1.1859 1.8341
-6.6444 -1.7769 1.8202
-5.8019 -2.1221 1.6350
-6.1341 -2.8877 1.7943
-5.8129 -3.4005 1.7823
-1.0763 -0.7662 0.3496
-0.9983 -0.8546 0.3478
-0.9136 -0.9357 0.3461
-0.8228 -1.0089 0.3445
-0.7266 -1.0740 0.3432
-0.6257 -1.1306 0.3420
-0.5208 -1.1784 0.3410
-0.4126 -1.2173 0.3402
-0.3018 -1.2469 0.3395
-0.1891 -1.2673 0.3391
-0.0752 -1.2782 0.3389
0.0391 -1.2797 0.3388
0.1532 -1.2717 0.3390
0.2664 -1.2543 0.3394
0.3778 -1.2276 0.3399
0.4869 -1.1916 0.3407
0.5929 -1.1466 0.3416
0.6951 -1.0927 0.3427
0.7929 -1.0302 0.3440
0.8854 -0.9595 0.3455
0.9721 -0.8809 0.3472
1.0523 -0.7947 0.3490
2.3718 -1.4788 0.7397
2.3957 -1.2115 0.7105
2.5060 -0.9976 0.7138
0.8921 -0.9142 0.3465
0.9747 -0.8350 0.3481
1.0508 -0.7485 0.3500
2.3721 -1.3887 0.7456
2.3743 -1.1186 0.7119
2.4762 -0.9066 0.7153
2.5595 -0.6853 0.7187
2.6235 -0.4565 0.7223
2.6673 -0.2217 0.7260
2.6903 0.0172 0.7298
2.6919 0.2585 0.7335
2.6718 0.5002 0.7373
2.6299 0.7403 0.7411
2.5662 0.9769 0.7448
2.4808 1.2078 0.7484
2.3814 1.4353 0.7542
2.3824 1.7434 0.8008
1.0671 0.9380 0.3854
0.9843 1.0349 0.3874
0.8924 1.1240 0.3893
0.7920 1.2043 0.3910
0.6839 1.2750 0.3925
0.5693 1.3353 0.3937
0.4491 1.3843 0.3948
0.3244 1.4217 0.3956
0.1965 1.4470 0.3961
0.0667 1.4597 0.3964
-0.0638 1.4599 0.3964
-0.1937 1.4474 0.3961
-0.3216 1.4225 0.3956
-0.4464 1.3854 0.3948
-0.5667 1.3366 0.3938
-0.6815 1.2766 0.3925
-0.7897 1.2062 0.3911
-0.8903 1.1261 0.3894
-0.9825 1.0371 0.3875
-1.0655 0.9404 0.3855
-5.7503 4.2259 1.9357
-6.0746 3.6780 1.9263
-6.3459 3.1053 1.9164
-6.5624 2.5133 1.9062
-6.7234 1.9073 1.8957
-6.8284 1.2925 1.8851
-6.8774 0.6743 1.8745
-6.8684 0.0577 1.8631
-6.7939 -0.5511 1.8489
-6.6670 -1.1463 1.8350
-6.4901 -1.7238 1.8215
-5.8354 -2.1231 1.6844
-5.9956 -2.8101 1.7961
-5.6836 -3.3120 1.7844
-1.0526 -0.7466 0.3501
-0.9767 -0.8332 0.3482
-0.8941 -0.9126 0.3466
-0.8056 -0.9845 0.3451
-0.7118 -1.0483 0.3437
-0.6133 -1.1039 0.3425
-0.5109 -1.1509 0.3416
-0.4053 -1.1890 0.3407
-0.2970 -1.2182 0.3401
-0.1869 -1.2383 0.3397
-0.0756 -1.2492 0.3395
0.0361 -1.2508 0.3394
0.1476 -1.2432 0.3396
0.2582 -1.2263 0.3399
0.3672 -1.2003 0.3405
0.4739 -1.1653 0.3412
0.5775 -1.1214 0.3421
0.6774 -1.0688 0.3432
0.7729 -1.0078 0.3445
0.8634 -0.9388 0.3460
0.9481 -0.8620 0.3476
1.0264 -0.7779 0.3493
2.3718 -1.4844 0.7590
2.3727 -1.2049 0.7218
2.4445 -0.9779 0.7142
2.5340 -0.7595 0.7176
2.6045 -0.5330 0.7211
2.6551 -0.3001 0.7248
2.6850 -0.0623 0.7285
2.6937 0.1784 0.7323
2.6809 0.4202 0.7361
2.6462 0.6611 0.7399
2.5897 0.8991 0.7436
2.5114 1.1321 0.7472
2.4118 1.3580 0.7508
2.3820 1.6372 0.7840
1.0924 0.9043 0.3847
1.0128 1.0036 0.3868
0.9238 1.0954 0.3887
0.8261 1.1787 0.3904
0.7205 1.2527 0.3920
0.6079 1.3165 0.3933
0.4894 1.3694 0.3945
0.3661 1.4107 0.3953
0.2392 1.4400 0.3959
0.1099 1.4569 0.3963
-0.0206 1.4612 0.3964
-0.1508 1.4529 0.3962
-0.2795 1.4321 0.3958
-0.4055 1.3990 0.3951
-0.5274 1.3540 0.3942
-0.6442 1.2977 0.3930
-0.7547 1.2306 0.3916
-0.8579 1.1536 0.3900
-0.9530 1.0675 0.3882
-1.0391 0.9732 0.3862
-5.6316 4.4010 1.9387
-5.9730 3.8624 1.9294
-6.2620 3.2974 1.9197
-6.4968 2.7112 1.9096
-6.6763 2.1092 1.8992
-6.7998 1.4968 1.8886
-6.8673 0.8792 1.8780
-6.8791 0.2615 1.8673
-6.8245 -0.3507 1.8536
-6.7147 -0.9509 1.8396
-6.5541 -1.5347 1.8259
-5.8869 -1.9467 1.6819
-6.0898 -2.6373 1.8001
-5.7914 -3.1491 1.7882
-1.0762 -0.7165 0.3507
-1.0026 -0.8053 0.3488
-0.9222 -0.8872 0.3471
-0.8356 -0.9615 0.3455
-0.7434 -1.0281 0.3441
-0.6464 -1.0864 0.3429
-0.5452 -1.1363 0.3419
-0.4406 -1.1774 0.3410
-0.3331 -1.2096 0.3403
-0.2235 -1.2327 0.3398
-0.1126 -1.2466 0.3395
-0.0009 -1.2513 0.3394
0.1108 -1.2468 0.3395
0.2218 -1.2329 0.3398
0.3313 -1.2100 0.3403
0.4388 -1.1779 0.3410
0.5435 -1.1369 0.3418
0.6447 -1.0872 0.3429
0.7418 -1.0289 0.3441
0.8340 -0.9625 0.3455
0.9207 -0.8883 0.3470
1.0012 -0.8066 0.3487
1.0749 -0.7178 0.3506
2.3724 -1.2944 0.7331
2.4107 -1.0482 0.7131
2.5064 -0.8328 0.7164
2.5834 -0.6089 0.7199
2.6406 -0.3778 0.7236
2.6774 -0.1415 0.7273
2.6932 0.0985 0.7310
2.6876 0.3401 0.7348
2.6601 0.5815 0.7386
2.6108 0.8207 0.7424
2.5397 1.0556 0.7460
2.4471 1.2841 0.7496
2.3817 1.5353 0.7686
2.3828 1.8566 0.8194
1.0402 0.9715 0.3861
0.9543 1.0659 0.3881
0.8594 1.1521 0.3899
0.7563 1.2293 0.3915
0.6459 1.2966 0.3929
0.5293 1.3531 0.3941
0.4074 1.3983 0.3951
0.2816 1.4316 0.3958
0.1529 1.4527 0.3962
0.0227 1.4612 0.3964
-0.1078 1.4571 0.3963
-0.2371 1.4404 0.3960
-0.3641 1.4113 0.3954
-0.4875 1.3702 0.3945
-0.6061 1.3176 0.3934
-0.7188 1.2540 0.3921
-0.8246 1.1802 0.3905
-0.9224 1.0970 0.3888
-1.0116 1.0053 0.3869
-5.5073 4.5727 1.9417
-5.8656 4.0440 1.9326
-6.1722 3.4871 1.9230
-6.4251 2.9074 1.9130
-6.6230 2.3100 1.9027
-6.7651 1.7005 1.8921
-6.8512 1.0840 1.8815
-6.8813 0.4658 1.8709
-6.8492 -0.1490 1.8583
-6.7568 -0.7537 1.8442
-6.6128 -1.3434 1.8304
-6.4194 -1.9140 1.8170
-6.1792 -2.4616 1.8042
-5.8949 -2.9828 1.7921
-5.5693 -3.4744 1.7806
-1.0278 -0.7766 0.3494
-0.9495 -0.8609 0.3477
-0.8649 -0.9378 0.3460
-0.7745 -1.0069 0.3446
-0.6790 -1.0680 0.3433
-0.5792 -1.1207 0.3422
-0.4756 -1.1647 0.3413
-0.3690 -1.1999 0.3405
-0.2600 -1.2260 0.3400
-0.1494 -1.2430 0.3396
-0.0379 -1.2508 0.3394
0.0738 -1.2493 0.3395
0.1851 -1.2385 0.3397
0.2952 -1.2186 0.3401
0.4035 -1.1895 0.3407
0.5092 -1.1514 0.3415
0.6117 -1.1046 0.3425
0.7102 -1.0492 0.3437
0.8040 -0.9854 0.3450
0.8926 -0.9137 0.3465
0.9753 -0.8344 0.3482
1.0513 -0.7480 0.3500
2.3721 -1.3869 0.7453
2.3750 -1.1173 0.7120
2.4768 -0.9052 0.7153
2.5600 -0.6839 0.7188
2.6239 -0.4550 0.7224
2.6675 -0.2202 0.7260
2.6903 0.0187 0.7298
2.6918 0.2600 0.7336
2.6716 0.5017 0.7374
2.6296 0.7418 0.7411
2.5657 0.9784 0.7448
2.4802 1.2092 0.7485
2.3814 1.4371 0.7545
2.3824 1.7455 0.8011
1.0666 0.9386 0.3854
0.9838 1.0355 0.3874
0.8918 1.1245 0.3893
0.7913 1.2048 0.3910
0.6832 1.2754 0.3925
0.5686 1.3356 0.3937
0.4483 1.3846 0.3948
0.3236 1.4219 0.3956
0.1957 1.4471 0.3961
0.0659 1.4598 0.3964
-0.0646 1.4598 0.3964
-0.1945 1.4473 0.3961
-0.3224 1.4223 0.3956
-0.4471 1.3851 0.3948
-0.5675 1.3363 0.3938
-0.6822 1.2762 0.3925
-0.7904 1.2057 0.3911
-0.8909 1.1255 0.3894
-0.9831 1.0366 0.3875
-1.0660 0.9398 0.3855
-5.7526 4.2225 1.9356
-6.0765 3.6744 1.9262
-6.3474 3.1016 1.9163
-6.5636 2.5095 1.9061
-6.7243 1.9034 1.8956
-6.8289 1.2886 1.8850
-6.8775 0.6704 1.8744
-6.8681 0.0538 1.8631
-6.7932 -0.5549 1.8488
-6.6661 -1.1500 1.8349
-6.4888 -1.7274 1.8214
-5.8360 -2.1271 1.6849
-5.9938 -2.8133 1.7960
-5.6815 -3.3151 1.7843
-1.0522 -0.7472 0.3500
-0.9762 -0.8337 0.3482
-0.8936 -0.9131 0.3466
-0.8051 -0.9849 0.3450
-0.7112 -1.0487 0.3437
-0.6127 -1.1042 0.3425
-0.5103 -1.1511 0.3415
-0.4046 -1.1892 0.3407
-0.2963 -1.2184 0.3401
-0.1862 -1.2384 0.3397
-0.0749 -1.2493 0.3395
0.0368 -1.2508 0.3394
0.1483 -1.2431 0.3396
0.2589 -1.2262 0.3399
0.3679 -1.2001 0.3405
0.4745 -1.1650 0.3412
0.5781 -1.1211 0.3421
0.6780 -1.0684 0.3432
0.7735 -1.0074 0.3445
0.8639 -0.9383 0.3460
0.9486 -0.8615 0.3476
1.0269 -0.7774 0.3494
2.3718 -1.4825 0.7587
2.3727 -1.2032 0.7216
2.4451 -0.9765 0.7142
2.5345 -0.7581 0.7176
2.6049 -0.5316 0.7212
2.6553 -0.2986 0.7248
2.6851 -0.0608 0.7285
2.6937 0.1800 0.7323
2.6807 0.4217 0.7361
2.6459 0.6626 0.7399
2.5893 0.9006 0.7436
2.5109 1.1335 0.7473
2.4111 1.3594 0.7508
2.3820 1.6392 0.7843
1.0919 0.9050 0.3847
1.0123 1.0042 0.3868
0.9232 1.0960 0.3887
0.8255 1.1792 0.3905
0.7198 1.2532 0.3920
0.6072 1.3169 0.3934
0.4887 1.3697 0.3945
0.3653 1.4109 0.3953
0.2384 1.4401 0.3959
0.1090 1.4570 0.3963
-0.0214 1.4612 0.3964
-0.1516 1.4528 0.3962
-0.2803 1.4320 0.3958
-0.4062 1.3988 0.3951
-0.5282 1.3537 0.3942
-0.6449 1.2973 0.3930
-0.7554 1.2302 0.3916
-0.8585 1.1531 0.3900
-0.9535 1.0669 0.3881
-1.0396 0.9726 0.3862
-5.6339 4.3977 1.9387
-5.9750 3.8589 1.9294
-6.2637 3.2937 1.9196
-6.4981 2.7074 1.9095
-6.6773 2.1054 1.8991
-6.8004 1.4929 1.8886
-6.8676 0.8752 1.8779
-6.8790 0.2576 1.8673
-6.8239 -0.3546 1.8535
-6.7139 -0.9547 1.8395
-6.5529 -1.5384 1.8258
-5.8845 -1.9495 1.6815
-6.0880 -2.6407 1.8001
-5.7894 -3.1522 1.7881
-1.0757 -0.7171 0.3507
-1.0021 -0.8059 0.3488
-0.9217 -0.8876 0.3471
-0.8350 -0.9620 0.3455
-0.7428 -1.0285 0.3441
-0.6458 -1.0867 0.3429
-0.5446 -1.1365 0.3419
-0.4399 -1.1776 0.3410
-0.3324 -1.2097 0.3403
-0.2228 -1.2328 0.3398
-0.1119 -1.2467 0.3395
-0.0002 -1.2513 0.3394
0.1115 -1.2467 0.3395
0.2225 -1.2328 0.3398
0.3320 -1.2098 0.3403
0.4395 -1.1776 0.3410
0.5442 -1.1366 0.3418
0.6454 -1.0868 0.3429
0.7424 -1.0286 0.3441
0.8346 -0.9621 0.3455
0.9212 -0.8878 0.3470
1.0017 -0.8060 0.3487
1.0753 -0.7172 0.3506
2.3724 -1.2927 0.7328
2.4114 -1.0468 0.7131
2.5070 -0.8314 0.7165
2.5838 -0.6074 0.7200
2.6409 -0.3764 0.7236
2.6776 -0.1400 0.7273
2.6933 0.1000 0.7311
2.6874 0.3417 0.7348
2.6599 0.5831 0.7386
2.6104 0.8222 0.7424
2.5392 1.0570 0.7461
2.4465 1.2855 0.7497
2.3817 1.5372 0.7689
2.3828 1.8587 0.8197
1.0397 0.9721 0.3861
0.9537 1.0665 0.3881
0.8588 1.1526 0.3899
0.7556 1.2298 0.3915
0.6452 1.2969 0.3929
0.5285 1.3534 0.3941
0.4066 1.3986 0.3951
0.2808 1.4318 0.3958
0.1521 1.4528 0.3962
0.0218 1.4612 0.3964
-0.1086 1.4570 0.3963
-0.2379 1.4402 0.3960
-0.3649 1.4111 0.3954
-0.4883 1.3699 0.3945
-0.6069 1.3172 0.3934
-0.7195 1.2535 0.3921
-0.8252 1.1797 0.3905
-0.9230 1.0964 0.3888
-1.0121 1.0047 0.3868
-5.5097 4.5694 1.9416
-5.8677 4.0406 1.9325
-6.1740 3.4835 1.9229
-6.4266 2.9036 1.9129
-6.6241 2.3062 1.9026
-6.7659 1.6966 1.8921
-6.8515 1.0801 1.8815
-6.8814 0.4619 1.8708
-6.8488 -0.1529 1.8582
-6.7561 -0.7575 1.8441
-6.6117 -1.3471 1.8303
-6.4181 -1.9176 1.8170
-6.1776 -2.4650 1.8042
-5.8929 -2.9860 1.7920
-5.5671 -3.4775 1.7805
-1.0273 -0.7772 0.3494
-0.9490 -0.8614 0.3476
-0.8643 -0.9382 0.3460
-0.7739 -1.0073 0.3446
-0.6784 -1.0684 0.3433
-0.5785 -1.1210 0.3422
-0.4749 -1.1650 0.3413
-0.3683 -1.2001 0.3405
-0.2593 -1.2262 0.3400
-0.1487 -1.2431 0.3396
-0.0372 -1.2508 0.3394
0.0745 -1.2493 0.3395
0.1858 -1.2384 0.3397
0.2959 -1.2184 0.3401
0.4042 -1.1893 0.3407
0.5099 -1.1512 0.3415
0.6123 -1.1043 0.3425
0.7108 -1.0488 0.3437
0.8046 -0.9850 0.3450
0.8932 -0.9132 0.3465
0.9758 -0.8339 0.3482
1.0517 -0.7474 0.3500
2.3721 -1.3851 0.7451
2.3757 -1.1160 0.7120
2.4774 -0.9038 0.7153
2.5605 -0.6825 0.7188
2.6242 -0.4536 0.7224
2.6677 -0.2187 0.7261
2.6904 0.0202 0.7298
2.6918 0.2616 0.7336
2.6714 0.5033 0.7374
2.6292 0.7434 0.7411
2.5652 0.9799 0.7449
2.4796 1.2107 0.7485
2.3814 1.4390 0.7547
2.3824 1.7476 0.8015
1.0661 0.9392 0.3854
0.9832 1.0361 0.3874
0.8912 1.1251 0.3893
0.7906 1.2053 0.3910
0.6825 1.2758 0.3925
0.5678 1.3359 0.3938
0.4475 1.3849 0.3948
0.3228 1.4221 0.3956
0.1949 1.4472 0.3961
0.0651 1.4598 0.3964
-0.0654 1.4598 0.3964
-0.1953 1.4472 0.3961
-0.3232 1.4221 0.3956
-0.4479 1.3849 0.3948
-0.5682 1.3359 0.3938
-0.6829 1.2758 0.3925
-0.7910 1.2052 0.3910
-0.8916 1.1250 0.3894
-0.9836 1.0360 0.3875
-1.0665 0.9391 0.3855
-5.7548 4.2191 1.9356
-6.0784 3.6708 1.9261
-6.3489 3.0979 1.9162
-6.5648 2.5057 1.9060
-6.7251 1.8995 1.8956
-6.8294 1.2847 1.8850
-6.8776 0.6665 1.8743
-6.8678 0.0499 1.8630
-6.7926 -0.5587 1.8487
-6.6651 -1.1538 1.8348
-6.4875 -1.7310 1.8213
-5.8368 -2.1311 1.6855
-5.9919 -2.8166 1.7959
-5.6794 -3.3181 1.7842
-1.0517 -0.7478 0.3500
-0.9757 -0.8343 0.3482
-0.8931 -0.9136 0.3465
-0.8045 -0.9853 0.3450
-0.7106 -1.0491 0.3437
-0.6121 -1.1045 0.3425
-0.5096 -1.1514 0.3415
-0.4039 -1.1895 0.3407
-0.2956 -1.2186 0.3401
-0.1855 -1.2385 0.3397
-0.0742 -1.2493 0.3395
0.0375 -1.2508 0.3394
0.1491 -1.2431 0.3396
0.2596 -1.2261 0.3399
0.3686 -1.1999 0.3405
0.4752 -1.1648 0.3412
0.5788 -1.1208 0.3422
0.6786 -1.0681 0.3433
0.7741 -1.0070 0.3445
0.8645 -0.9379 0.3460
0.9491 -0.8610 0.3476
1.0273 -0.7768 0.3494
2.3718 -1.4807 0.7584
2.3727 -1.2015 0.7214
2.4457 -0.9752 0.7142
2.5351 -0.7567 0.7176
2.6053 -0.5301 0.7212
2.6556 -0.2971 0.7248
2.6852 -0.0593 0.7286
2.6937 0.1815 0.7323
2.6806 0.4233 0.7361
2.6456 0.6641 0.7399
2.5888 0.9020 0.7436
2.5103 1.1350 0.7473
2.4104 1.3608 0.7508
2.3821 1.6412 0.7847
1.0914 0.9056 0.3847
1.0117 1.0048 0.3868
0.9226 1.0965 0.3887
0.8248 1.1797 0.3905
0.7191 1.2536 0.3920
0.6065 1.3172 0.3934
0.4879 1.3700 0.3945
0.3645 1.4111 0.3953
0.2376 1.4403 0.3960
0.1082 1.4570 0.3963
-0.0222 1.4612 0.3964
-0.1524 1.4528 0.3962
-0.2811 1.4318 0.3958
-0.4070 1.3985 0.3951
-0.5289 1.3534 0.3942
-0.6456 1.2969 0.3930
-0.7560 1.2297 0.3916
-0.8592 1.1526 0.3899
-0.9541 1.0664 0.3881
-1.0401 0.9720 0.3862
-5.6362 4.3944 1.9386
-5.9770 3.8554 1.9293
-6.2653 3.2901 1.9196
-6.4994 2.7037 1.9094
-6.6782 2.1015 1.8991
-6.8011 1.4890 1.8885
-6.8678 0.8713 1.8779
-6.8789 0.2537 1.8672
-6.8234 -0.3584 1.8534
-6.7130 -0.9584 1.8394
-6.5517 -1.5420 1.8257
-5.8821 -1.9524 1.6811
-6.0863 -2.6440 1.8000
-5.7874 -3.1554 1.7880
-1.0753 -0.7176 0.3507
-1.0016 -0.8064 0.3488
-0.9211 -0.8881 0.3471
-0.8344 -0.9624 0.3455
-0.7422 -1.0289 0.3441
-0.6452 -1.0871 0.3429
-0.5439 -1.1368 0.3418
-0.4392 -1.1778 0.3410
-0.3317 -1.2099 0.3403
-0.2221 -1.2329 0.3398
-0.1112 -1.2468 0.3395
0.0005 -1.2513 0.3394
0.1122 -1.2466 0.3395
0.2231 -1.2327 0.3398
0.3327 -1.2096 0.3403
0.4402 -1.1774 0.3410
0.5448 -1.1363 0.3418
0.6460 -1.0865 0.3429
0.7430 -1.0282 0.3441
0.8351 -0.9616 0.3455
0.9218 -0.8873 0.3470
1.0022 -0.8055 0.3488
1.0758 -0.7167 0.3506
2.3724 -1.2909 0.7326
2.4121 -1.0455 0.7131
2.5075 -0.8300 0.7165
2.5842 -0.6060 0.7200
2.6412 -0.3749 0.7236
2.6777 -0.1384 0.7273
2.6933 0.1015 0.7311
2.6873 0.3432 0.7349
2.6596 0.5846 0.7387
2.6101 0.8237 0.7424
2.5387 1.0585 0.7461
2.4458 1.2869 0.7497
2.3817 1.5391 0.7692
2.3828 1.8609 0.8201
1.0392 0.9727 0.3861
0.9531 1.0670 0.3881
0.8581 1.1532 0.3899
0.7549 1.2302 0.3915
0.6445 1.2973 0.3929
0.5278 1.3537 0.3941
0.4059 1.3988 0.3951
0.2799 1.4320 0.3958
0.1512 1.4529 0.3962
0.0210 1.4612 0.3964
-0.1094 1.4569 0.3963
-0.2387 1.4401 0.3960
-0.3657 1.4109 0.3954
-0.4891 1.3696 0.3945
-0.6076 1.3168 0.3934
-0.7202 1.2531 0.3921
-0.8259 1.1792 0.3905
-0.9236 1.0959 0.3888
-1.0127 1.0041 0.3868
-5.5122 4.5662 1.9416
-5.8698 4.0371 1.9324
-6.1757 3.4799 1.9228
-6.4280 2.8999 1.9128
-6.6252 2.3024 1.9025
-6.7666 1.6927 1.8920
-6.8519 1.0762 1.8814
-6.8814 0.4579 1.8707
-6.8484 -0.1568 1.8581
-6.7553 -0.7613 1.8440
-6.6107 -1.3508 1.8302
-6.4167 -1.9211 1.8169
-6.1759 -2.4684 1.8041
-5.8910 -2.9893 1.7919
-5.5649 -3.4805 1.7804
-1.0268 -0.7777 0.3494
-0.9485 -0.8619 0.3476
-0.8638 -0.9387 0.3460
-0.7733 -1.0077 0.3446
-0.6778 -1.0687 0.3433
-0.5779 -1.1213 0.3422
-0.4743 -1.1652 0.3412
-0.3676 -1.2003 0.3405
-0.2586 -1.2263 0.3400
-0.1480 -1.2432 0.3396
-0.0365 -1.2508 0.3394
0.0752 -1.2492 0.3395
0.1865 -1.2383 0.3397
0.2966 -1.2183 0.3401
0.4049 -1.1891 0.3407
0.5105 -1.1509 0.3415
0.6129 -1.1039 0.3425
0.7114 -1.0484 0.3437
0.8052 -0.9846 0.3450
0.8937 -0.9128 0.3465
0.9763 -0.8334 0.3482
1.0522 -0.7468 0.3500
2.3721 -1.3833 0.7448
2.3764 -1.1147 0.7120
2.4779 -0.9024 0.7153
2.5609 -0.6810 0.7188
2.6245 -0.4521 0.7224
2.6679 -0.2172 0.7261
2.6905 0.0218 0.7298
2.6917 0.2631 0.7336
2.6712 0.5048 0.7374
2.6289 0.7449 0.7412
2.5647 0.9813 0.7449
2.4789 1.2121 0.7485
2.3814 1.4408 0.7550
2.3824 1.7497 0.8018
1.0656 0.9399 0.3854
0.9827 1.0366 0.3875
0.8905 1.1256 0.3893
0.7900 1.2058 0.3910
0.6818 1.2763 0.3925
0.5671 1.3363 0.3938
0.4467 1.3852 0.3948
0.3220 1.4223 0.3956
0.1941 1.4473 0.3961
0.0642 1.4598 0.3964
-0.0663 1.4598 0.3964
-0.1961 1.4471 0.3961
-0.3240 1.4219 0.3956
-0.4487 1.3846 0.3948
-0.5689 1.3356 0.3938
-0.6836 1.2754 0.3925
-0.7917 1.2047 0.3910
-0.8922 1.1244 0.3894
-0.9842 1.0354 0.3875
-1.0670 0.9385 0.3855
-5.7570 4.2157 1.9355
-6.0803 3.6673 1.9261
-6.3505 3.0942 1.9162
-6.5660 2.5019 1.9060
-6.7260 1.8956 1.8955
-6.8298 1.2808 1.8849
-6.8778 0.6626 1.8743
-6.8675 0.0460 1.8629
-6.7919 -0.5625 1.8486
-6.6641 -1.1575 1.8347
-6.4862 -1.7346 1.8212
-5.8375 -2.1351 1.6860
-5.9901 -2.8199 1.7959
-5.6773 -3.3212 1.7841
-1.0512 -0.7484 0.3500
-0.9752 -0.8348 0.3482
-0.8925 -0.9141 0.3465
-0.8039 -0.9857 0.3450
-0.7100 -1.0494 0.3437
-0.6114 -1.1048 0.3425
-0.5089 -1.1517 0.3415
-0.4032 -1.1897 0.3407
-0.2949 -1.2187 0.3401
-0.1848 -1.2386 0.3397
-0.0735 -1.2493 0.3395
0.0382 -1.2508 0.3394
0.1498 -1.2430 0.3396
0.2603 -1.2259 0.3400
0.3693 -1.1997 0.3405
0.4758 -1.1645 0.3412
0.5794 -1.1205 0.3422
0.6793 -1.0677 0.3433
0.7747 -1.0066 0.3445
0.8650 -0.9374 0.3460
0.9496 -0.8605 0.3476
1.0278 -0.7763 0.3494
2.3718 -1.4788 0.7582
2.3727 -1.1998 0.7212
2.4463 -0.9738 0.7142
0.8719 -0.8935 0.3469
0.9526 -0.8160 0.3485
1.0268 -0.7314 0.3503
2.3721 -1.3887 0.7638
2.3730 -1.1180 0.7289
2.4183 -0.8854 0.7156
2.4994 -0.6692 0.7190
2.5616 -0.4457 0.7225
2.6040 -0.2165 0.7261
2.6261 0.0168 0.7298
2.6274 0.2523 0.7334
2.6075 0.4881 0.7371
2.5662 0.7224 0.7408
2.5037 0.9531 0.7444
2.4201 1.1783 0.7480
2.3814 1.4353 0.7726
2.3824 1.7434 0.8203
1.0403 0.9144 0.3849
0.9595 1.0088 0.3869
0.8698 1.0955 0.3887
0.7718 1.1737 0.3903
0.6665 1.2425 0.3918
0.5547 1.3010 0.3930
0.4375 1.3488 0.3940
0.3161 1.3851 0.3948
0.1915 1.4097 0.3953
0.0650 1.4221 0.3956
-0.0621 1.4222 0.3956
-0.1887 1.4101 0.3953
-0.3133 1.3859 0.3948
-0.4349 1.3498 0.3941
-0.5522 1.3024 0.3931
-0.6641 1.2440 0.3919
-0.7696 1.1755 0.3904
-0.8678 1.0975 0.3888
-0.9577 1.0110 0.3870
-1.0388 0.9168 0.3850
-5.6080 4.1213 1.9339
-5.9250 3.5874 1.9247
-6.1903 3.0292 1.9151
-6.4025 2.4520 1.9051
-6.5604 1.8610 1.8949
-6.6637 1.2614 1.8846
-6.7124 0.6582 1.8742
-6.7046 0.0563 1.8631
-6.6330 -0.5380 1.8492
-6.5103 -1.1194 1.8356
-6.3386 -1.6836 1.8224
-5.9005 -2.1468 1.7448
-5.8576 -2.7454 1.7976
-5.5536 -3.2362 1.7861
-1.0286 -0.7296 0.3504
-0.9545 -0.8143 0.3486
-0.8739 -0.8920 0.3470
-0.7875 -0.9623 0.3455
-0.6958 -1.0248 0.3442
-0.5996 -1.0792 0.3431
-0.4995 -1.1252 0.3421
-0.3962 -1.1626 0.3413
-0.2904 -1.1912 0.3407
-0.1828 -1.2109 0.3403
-0.0739 -1.2215 0.3401
0.0353 -1.2231 0.3400
0.1444 -1.2156 0.3402
0.2525 -1.1991 0.3405
0.3590 -1.1736 0.3410
0.4633 -1.1393 0.3418
0.5646 -1.0963 0.3427
0.6622 -1.0449 0.3437
0.7555 -0.9852 0.3450
0.8439 -0.9176 0.3464
0.9266 -0.8425 0.3480
1.0030 -0.7602 0.3497
1.0725 -0.6712 0.3516
2.3727 -1.2049 0.7395
2.3874 -0.9551 0.7145
2.4746 -0.7417 0.7179
2.5431 -0.5205 0.7213
2.5922 -0.2929 0.7249
2.6211 -0.0608 0.7285
2.6293 0.1742 0.7322
2.6164 0.4101 0.7359
2.5823 0.6451 0.7396
2.5268 0.8772 0.7432
2.4502 1.1044 0.7468
2.3811 1.3407 0.7593
2.3820 1.6372 0.8032
1.0650 0.8817 0.3842
0.9873 0.9783 0.3862
0.9004 1.0677 0.3881
0.8051 1.1488 0.3898
0.7021 1.2208 0.3913
0.5924 1.2828 0.3926
0.4769 1.3342 0.3937
0.3567 1.3744 0.3946
0.2330 1.4029 0.3952
0.1070 1.4193 0.3955
-0.0200 1.4235 0.3956
-0.1469 1.4155 0.3954
-0.2723 1.3952 0.3950
-0.3950 1.3631 0.3944
-0.5139 1.3193 0.3934
-0.6277 1.2645 0.3923
-0.7354 1.1993 0.3909
-0.8361 1.1243 0.3893
-0.9289 1.0405 0.3876
-1.0130 0.9488 0.3857
-5.4920 4.2919 1.9368
-5.8257 3.7672 1.9278
-6.1083 3.2164 1.9183
-6.3382 2.6450 1.9084
-6.5141 2.0580 1.8983
-6.6356 1.4606 1.8880
-6.7023 0.8580 1.8776
-6.7148 0.2552 1.8672
-6.6625 -0.3424 1.8538
-6.5565 -0.9285 1.8401
-6.4008 -1.4988 1.8268
-5.9462 -1.9663 1.7403
-5.9493 -2.5765 1.8016
-5.6587 -3.0769 1.7899
-1.0516 -0.7001 0.3510
-0.9798 -0.7870 0.3492
-0.9013 -0.8671 0.3475
-0.8167 -0.9398 0.3460
-0.7267 -1.0050 0.3446
-0.6320 -1.0621 0.3434
-0.5331 -1.1109 0.3424
-0.4308 -1.1512 0.3415
-0.3257 -1.1827 0.3409
-0.2186 -1.2053 0.3404
-0.1101 -1.2190 0.3401
-0.0009 -1.2236 0.3400
0.1083 -1.2191 0.3401
0.2168 -1.2056 0.3404
0.3240 -1.1831 0.3409
0.4291 -1.1517 0.3415
0.5314 -1.1115 0.3423
0.6303 -1.0628 0.3434
0.7251 -1.0058 0.3446
0.8152 -0.9408 0.3459
0.8998 -0.8682 0.3474
0.9784 -0.7882 0.3491
1.0503 -0.7014 0.3509
2.3724 -1.2944 0.7510
2.3732 -1.0319 0.7191
2.4477 -0.8133 0.7167
2.5226 -0.5945 0.7202
2.5781 -0.3689 0.7237
2.6138 -0.1381 0.7273
2.6289 0.0961 0.7310
2.6230 0.3320 0.7347
2.5959 0.5675 0.7384
2.5475 0.8008 0.7420
2.4779 1.0298 0.7456
2.3872 1.2527 0.7491
2.3817 1.5353 0.7874
1.0886 0.8482 0.3835
1.0141 0.9471 0.3856
0.9302 1.0390 0.3875
0.8376 1.1229 0.3893
0.7370 1.1980 0.3908
0.6294 1.2634 0.3922
0.5157 1.3184 0.3934
0.3970 1.3624 0.3943
0.2743 1.3948 0.3950
0.1489 1.4152 0.3954
0.0221 1.4235 0.3956
-0.1050 1.4195 0.3955
-0.2310 1.4033 0.3952
-0.3548 1.3750 0.3946
-0.4750 1.3351 0.3938
-0.5906 1.2838 0.3927
-0.7005 1.2220 0.3914
-0.8036 1.1502 0.3899
-0.8991 1.0692 0.3882
-0.9861 0.9800 0.3863
-1.0640 0.8834 0.3843
-5.7207 3.9441 1.9308
-6.0204 3.4014 1.9215
-6.2679 2.8362 1.9117
-6.4619 2.2538 1.9017
-6.6014 1.6593 1.8914
-6.6862 1.0579 1.8811
-6.7166 0.4546 1.8707
-6.6862 -0.1455 1.8584
-6.5972 -0.7359 1.8446
-6.4578 -1.3119 1.8311
-6.2700 -1.8695 1.8181
-6.0364 -2.4047 1.8056
-5.7595 -2.9143 1.7937
-1.0738 -0.6699 0.3517
-1.0043 -0.7589 0.3498
-0.9280 -0.8413 0.3481
-0.8454 -0.9166 0.3465
-0.7571 -0.9843 0.3451
-0.6638 -1.0441 0.3438
-0.5662 -1.0957 0.3427
-0.4650 -1.1388 0.3418
-0.3608 -1.1732 0.3411
-0.2543 -1.1988 0.3405
-0.1461 -1.2155 0.3402
-0.0371 -1.2231 0.3400
0.0722 -1.2216 0.3400
0.1810 -1.2111 0.3403
0.2887 -1.1915 0.3407
0.3945 -1.1630 0.3413
0.4978 -1.1258 0.3420
0.5980 -1.0799 0.3430
0.6942 -1.0256 0.3441
0.7859 -0.9632 0.3455
0.8724 -0.8931 0.3469
0.9531 -0.8155 0.3486
1.0273 -0.7309 0.3503
2.3721 -1.3869 0.7635
2.3730 -1.1164 0.7287
2.4189 -0.8840 0.7156
2.4999 -0.6678 0.7190
2.5619 -0.4443 0.7225
2.6042 -0.2150 0.7261
2.6262 0.0183 0.7298
2.6273 0.2538 0.7335
2.6073 0.4896 0.7372
2.5659 0.7239 0.7408
2.5033 0.9546 0.7445
2.4195 1.1797 0.7480
2.3814 1.4371 0.7729
2.3824 1.7455 0.8207
1.0398 0.9151 0.3849
0.9590 1.0094 0.3869
0.8692 1.0960 0.3887
0.7712 1.1741 0.3903
0.6658 1.2429 0.3918
0.5540 1.3014 0.3930
0.4368 1.3491 0.3940
0.3153 1.3853 0.3948
0.1907 1.4098 0.3953
0.0642 1.4221 0.3956
-0.0629 1.4222 0.3956
-0.1895 1.4100 0.3953
-0.3141 1.3857 0.3948
-0.4356 1.3496 0.3941
-0.5529 1.3020 0.3931
-0.6648 1.2436 0.3918
-0.7703 1.1750 0.3904
-0.8684 1.0970 0.3888
-0.9583 1.0104 0.3870
-1.0393 0.9162 0.3850
-5.6102 4.1180 1.9338
-5.9269 3.5839 1.9246
-6.1919 3.0256 1.9150
-6.4036 2.4483 1.9050
-6.5612 1.8572 1.8949
-6.6642 1.2576 1.8845
-6.7126 0.6543 1.8741
-6.7043 0.0525 1.8630
-6.6324 -0.5418 1.8491
-6.5094 -1.1230 1.8355
-6.3374 -1.6871 1.8223
-5.9027 -2.1514 1.7458
-5.8558 -2.7486 1.7975
-5.5516 -3.2393 1.7861
-1.0281 -0.7301 0.3504
-0.9540 -0.8148 0.3486
