ply
format ascii 1.0
element vertex 1960
property float32 x
property float32 y
property float32 z
end_header
34.1132 21.6079 -2.7404
31.3239 24.0123 -2.6785
9.3151 8.5642 -0.8587
23.2881 25.6090 -2.3491
20.5484 27.1104 -2.3086
17.2120 27.5043 -2.2019
-17.6327 17.7597 -1.6984
-20.8265 17.5272 -1.8473
-20.8170 14.5552 -1.7238
-20.8087 11.9360 -1.6280
-20.8011 9.5748 -1.5540
-20.7942 7.4022 -1.4979
-20.7877 5.3654 -1.4570
-20.7815 3.4218 -1.4293
-20.7755 1.5359 -1.4137
-49.4314 -0.7716 -3.3550
-49.4172 -5.2082 -3.3722
-26.7704 -5.2708 -1.8516
-20.7513 -6.0527 -1.4669
-20.7447 -8.1226 -1.5119
-20.7376 -10.3417 -1.5726
-20.7298 -12.7666 -1.6522
-20.8013 -15.5328 -1.7618
-20.7914 -18.6365 -1.8948
-23.3936 -30.0677 -2.5854
-24.7361 -38.4389 -3.1021
-22.6175 -43.1904 -3.3086
15.8148 -36.2296 -2.6828
18.4377 -33.6712 -2.6052
9.2467 -13.7988 -1.1272
12.1319 -15.0091 -1.3097
12.1103 -12.5097 -1.1816
12.1038 -10.4502 -1.0852
10.3055 -7.4011 -0.8610
12.0932 -7.1412 -0.9531
10.2919 -4.8959 -0.7735
12.0327 -4.4554 -0.8708
11.9136 -3.2360 -0.8378
11.9100 -2.1159 -0.8209
12.0218 -1.0416 -0.8189
11.9032 0.0354 -0.8078
11.8998 1.1024 -0.8110
12.0222 2.2097 -0.8295
12.0153 3.3405 -0.8463
36.5918 13.7971 -2.6539
15.2876 9.1508 -1.2091
30.9426 22.5025 -2.5965
29.7006 25.9533 -2.6767
23.6263 24.6976 -2.3195
22.9029 28.6821 -2.4909
17.3482 26.2246 -2.1339
-29.2249 30.9616 -2.8894
-24.7064 21.8818 -2.2397
-20.9001 15.4136 -1.7624
-20.8109 12.6465 -1.6526
-20.8032 10.2202 -1.5729
-20.7961 8.0004 -1.5121
-20.7895 5.9298 -1.4671
-20.7832 3.9637 -1.4358
-20.7772 2.0648 -1.4170
-49.4354 0.4773 -3.3550
-49.4212 -3.9495 -3.3646
-30.9420 -5.2841 -2.1302
-20.7531 -5.4884 -1.4568
-20.7466 -7.5247 -1.4977
-20.7397 -9.6964 -1.5537
-20.7321 -12.0567 -1.6276
-20.7238 -14.6743 -1.7233
-20.7944 -17.7126 -1.8537
-20.7833 -21.1835 -2.0139
-23.7005 -28.9242 -2.5377
-26.1351 -38.4433 -3.1547
-22.6255 -40.6718 -3.1585
15.8302 -38.9173 -2.8512
17.3488 -33.6746 -2.5707
10.3834 -16.3747 -1.3158
12.1242 -15.7997 -1.3515
12.1124 -13.1613 -1.2139
12.1674 -11.0538 -1.1156
12.1225 -16.3182 -1.2538
12.0418 -13.5011 -1.1158
12.1686 -11.4061 -1.0287
10.3076 -8.0605 -0.8071
10.3065 -6.6684 -0.7571
11.9233 -6.2814 -0.8312
11.9211 -4.9767 -0.7968
11.9153 -3.7653 -0.7707
11.9117 -2.6221 -0.7523
11.9082 -1.5239 -0.7405
12.0200 -0.4555 -0.7419
11.9013 0.6137 -0.7350
12.0253 1.7059 -0.7491
12.0184 2.8181 -0.7614
12.0115 3.9768 -0.7804
9.1777 6.1173 -0.6803
30.0462 24.1640 -2.3781
9.1195 8.7850 -0.7810
23.0702 26.5876 -2.1711
19.4368 26.9239 -2.0481
16.7712 28.2415 -2.0259
-20.8239 16.7124 -1.6469
-20.8148 13.8434 -1.5418
-20.8066 11.2993 -1.4603
-20.7993 8.9931 -1.3976
-20.7925 6.8605 -1.3504
-20.7861 4.8517 -1.3165
-20.7799 2.9263 -1.2943
-21.3155 1.0775 -1.3164
-17.6797 -2.2807 -1.0995
-23.7856 -5.2613 -1.5025
-20.7496 -6.5801 -1.3426
-20.7429 -8.6842 -1.3870
-20.7356 -10.9508 -1.4463
-20.7277 -13.4409 -1.5237
-20.7188 -16.2360 -1.6235
-20.7886 -19.5257 -1.7591
-28.5039 -38.4509 -2.9521
-23.9694 -39.2257 -2.8353
15.5365 -43.1681 -2.8297
15.6454 -33.6800 -2.2905
19.4684 -33.6679 -2.3987
16.2621 -23.0867 -1.7417
10.3151 -12.1706 -0.9840
12.1085 -11.9385 -1.0488
10.3089 -8.4898 -0.8237
10.3043 -7.0425 -0.7698
11.9246 -6.6722 -0.8428
11.9203 -5.3337 -0.8055
11.9175 -4.0998 -0.7773
11.9127 -2.9397 -0.7568
11.9091 -1.8308 -0.7432
12.0210 -0.7600 -0.7429
11.9023 0.3126 -0.7344
11.8989 1.3824 -0.7388
12.0204 2.5000 -0.7573
12.0135 3.6434 -0.7743
34.0482 21.4726 -2.4828
30.5040 23.2883 -2.3671
29.3742 26.8997 -2.4566
23.4012 25.6314 -2.1407
21.3954 28.1125 -2.1790
17.0882 27.1868 -1.9805
-17.6390 17.8363 -1.5472
-20.8267 17.5977 -1.6817
-20.8172 14.6166 -1.5689
-20.8088 11.9908 -1.4813
-20.8013 9.6247 -1.4137
-20.7943 7.4486 -1.3623
-20.7878 5.4092 -1.3248
-20.7816 3.4640 -1.2994
-20.7756 1.5771 -1.2851
-27.0565 -5.2717 -1.7002
-20.7514 -6.0083 -1.3325
-20.7448 -8.0755 -1.3730
-20.7378 -10.2906 -1.4279
-20.7300 -12.7104 -1.4998
-20.7214 -15.4094 -1.5927
-20.7116 -18.4913 -1.7125
-23.6107 -30.2234 -2.3655
-25.0749 -38.7970 -2.8492
-22.6181 -42.9849 -2.9958
15.7728 -36.3287 -2.4428
18.3515 -33.6714 -2.3652
9.2314 -13.8349 -1.0258
12.1339 -15.0724 -1.1934
12.1049 -12.5536 -1.0756
10.3104 -8.9375 -0.8416
10.3056 -7.4320 -0.7837
12.0933 -7.1736 -0.8672
10.2920 -4.9208 -0.7036
12.0328 -4.4825 -0.7920
11.9137 -3.2613 -0.7618
11.9101 -2.1402 -0.7464
12.0219 -1.0655 -0.7444
11.9032 0.0119 -0.7342
11.8998 1.0787 -0.7370
12.0223 2.1852 -0.7537
12.0154 3.3150 -0.7688
36.9100 13.8339 -2.4312
15.2648 9.0962 -1.0960
30.8116 22.3142 -2.3464
29.7407 25.8850 -2.4318
23.7317 24.7101 -2.1131
23.5793 29.4099 -2.3250
17.5241 26.3773 -1.9532
-29.1129 30.9651 -2.6214
-24.7066 21.9694 -2.0392
-20.8198 15.4180 -1.5979
-20.8111 12.7029 -1.5038
-20.8034 10.2714 -1.4310
-20.7963 8.0476 -1.3754
-20.7896 5.9742 -1.3342
-20.7834 4.0063 -1.3055
-20.7773 2.1063 -1.2881
-31.3216 -5.2853 -1.9592
-20.7532 -5.4446 -1.3233
-20.7467 -7.4784 -1.3602
-20.7398 -9.6467 -1.4108
-20.7323 -12.0020 -1.4775
-20.7240 -14.6132 -1.5640
-20.7145 -17.5741 -1.6755
-20.7836 -21.1003 -1.8267
-24.0970 -29.2898 -2.3393
-26.2464 -38.4437 -2.8710
-22.6261 -40.4845 -2.8605
15.7937 -39.0484 -2.5980
17.2648 -33.6749 -2.3341
10.3382 -16.3749 -1.1944
12.0917 -15.8221 -1.2282
12.1126 -13.2138 -1.1056
10.3119 -9.4053 -0.8608
10.3069 -7.8362 -0.7986
12.0947 -7.5938 -0.8808
11.9227 -6.0751 -0.8253
11.9594 -4.8025 -0.7949
11.9147 -3.5874 -0.7675
11.9111 -2.4525 -0.7501
11.9076 -1.3593 -0.7392
12.0195 -0.2917 -0.7416
11.9008 0.7763 -0.7356
12.0243 1.8731 -0.7506
12.0174 2.9910 -0.7638
12.0104 4.1587 -0.7839
37.0817 20.8460 -2.6237
32.4509 22.2740 -2.4276
30.2196 24.9888 -2.4186
24.2993 24.0542 -2.1089
23.3570 27.6704 -2.2334
18.1960 25.9423 -1.9544
16.5825 28.8102 -2.0503
-24.7103 23.1163 -2.0870
-20.8224 16.2500 -1.6291
-20.8135 13.4374 -1.5280
-20.8055 10.9345 -1.4497
-20.7982 8.6585 -1.3895
-20.7915 6.5476 -1.3445
-20.7851 4.5540 -1.3124
-20.7790 2.6382 -1.2919
-28.5677 1.0543 -1.7632
-48.8055 -6.9728 -3.0408
-22.3188 -5.2566 -1.4142
-20.7486 -6.8921 -1.3485
-20.7418 -9.0176 -1.3950
-20.7345 -11.3139 -1.4569
-20.7264 -13.8445 -1.5373
-20.7173 -16.6951 -1.6411
-20.7869 -20.0638 -1.7819
-24.3957 -28.1712 -2.2985
-27.6989 -38.4483 -2.9227
-23.4856 -39.6369 -2.8416
9.3311 -33.7564 -2.1601
15.7524 -41.9657 -2.7647
16.2057 -33.6783 -2.3052
20.0838 -33.6659 -2.4179
16.2600 -22.4287 -1.7086
12.1148 -13.9055 -1.1375
12.0677 -11.5785 -1.0315
10.3082 -8.2562 -0.8146
10.2981 -6.8344 -0.7623
11.9239 -6.4602 -0.8364
11.9197 -5.1399 -0.8006
11.9158 -3.9186 -0.7737
11.9121 -2.7680 -0.7543
11.9086 -1.6651 -0.7416
12.0204 -0.5957 -0.7423
11.9018 0.4749 -0.7347
11.8984 1.5468 -0.7400
12.0193 2.6710 -0.7594
12.0124 3.8224 -0.7775
9.2654 6.0212 -0.6815
30.1411 23.6678 -2.3637
9.1459 8.6074 -0.7747
23.2163 26.1350 -2.1561
19.5300 26.3997 -2.0254
17.0513 27.9663 -2.0202
-20.8252 17.1159 -1.6626
-20.8159 14.1965 -1.5540
-20.8076 11.6156 -1.4698
-20.8002 9.2825 -1.4049
-20.7933 7.1303 -1.3558
-20.7869 5.1078 -1.3202
-20.7807 3.1736 -1.2966
-20.7747 1.2929 -1.2838
-17.7519 -2.0801 -1.1024
-25.1935 -5.2658 -1.5875
-20.7504 -6.3154 -1.3378
-20.7438 -8.4021 -1.3804
-20.7366 -10.6444 -1.4376
-20.7288 -13.1013 -1.5125
-20.7200 -15.8511 -1.6090
-20.7099 -19.0029 -1.7336
-23.0635 -30.3663 -2.3519
-24.5443 -39.1348 -2.8492
-22.6135 -44.4339 -3.0751
15.7300 -34.9206 -2.3623
18.9496 -33.6695 -2.3830
9.4214 -13.7116 -1.0261
12.1229 -14.6459 -1.1726
12.0018 -12.1121 -1.0517
10.3096 -8.6938 -0.8318
10.3049 -7.2203 -0.7761
12.0926 -6.9523 -0.8603
11.9208 -5.5015 -0.8098
12.0322 -4.2966 -0.7880
11.9131 -3.0874 -0.7591
11.9096 -1.9731 -0.7446
12.0214 -0.9007 -0.7435
11.9027 0.1740 -0.7342
11.8993 1.2422 -0.7379
12.0213 2.3545 -0.7555
12.0144 3.4914 -0.7717
37.2254 14.5332 -2.4648
34.1475 20.9836 -2.4720
31.1495 23.2120 -2.3960
28.9706 25.9163 -2.3975
23.6047 25.2573 -2.1322
22.1454 28.4055 -2.2215
17.2432 26.7373 -1.9623
-24.7047 21.3724 -2.0148
-20.8184 14.9824 -1.5820
-20.8099 12.3164 -1.4915
-20.8022 9.9208 -1.4215
-20.7952 7.7232 -1.3682
-20.7887 5.6687 -1.3290
-20.7824 3.7133 -1.3021
-20.7764 1.8207 -1.2864
-28.8729 -5.2775 -1.8103
-20.7523 -5.7475 -1.3281
-20.7457 -7.7989 -1.3670
-20.7387 -9.9919 -1.4198
-20.7311 -12.3813 -1.4893
-20.7226 -15.0388 -1.5792
-20.7129 -18.0637 -1.6951
-20.7158 -21.6125 -1.8465
-17.6832 -22.1004 -1.7457
-25.5245 -38.5025 -2.8492
-22.6219 -41.8036 -2.9317
15.7380 -37.4355 -2.5047
17.8471 -33.6730 -2.3506
16.2683 -25.0066 -1.8400
12.1348 -15.4381 -1.2111
12.1115 -12.8565 -1.0894
10.3110 -9.1504 -0.8503
10.3061 -7.6164 -0.7904
11.9978 -7.3070 -0.8664
11.9220 -5.8717 -0.8197
12.0333 -4.6429 -0.7955
11.9142 -3.4110 -0.7644
11.9106 -2.2837 -0.7480
11.9072 -1.1952 -0.7381
11.9060 -0.1267 -0.7344
11.9003 0.9392 -0.7363
12.0232 2.0411 -0.7522
12.0163 3.1652 -0.7664
36.5172 13.2040 -2.3950
15.3952 8.9326 -1.0978
32.1487 22.7168 -2.4279
30.4172 25.8575 -2.4623
24.1512 24.5679 -2.1249
22.9235 27.9196 -2.2281
18.0404 26.4803 -1.9763
-19.7189 31.1648 -2.2746
-24.7083 22.4914 -2.0608
-20.8210 15.7975 -1.6120
-20.8122 13.0385 -1.5147
-20.8043 10.5749 -1.4394
-20.7971 8.3275 -1.3817
-20.7905 6.2374 -1.3388
-20.7842 4.2579 -1.3085
-20.7781 2.3510 -1.2897
-48.8314 1.1365 -3.0126
-33.7580 -5.2931 -2.1076
-21.0144 -5.2524 -1.3360
-20.7476 -7.2069 -1.3547
-20.7407 -9.3550 -1.4033
-20.7333 -11.6824 -1.4678
-20.7251 -14.2557 -1.5515
-20.7158 -17.1644 -1.6593
-20.7851 -20.6162 -1.8056
-24.3512 -28.9061 -2.3312
-26.9093 -38.4458 -2.8944
-23.0046 -40.0593 -2.8492
15.7470 -40.2753 -2.6672
16.7734 -33.6765 -2.3205
20.7093 -33.6639 -2.4377
12.1223 -16.2508 -1.2505
12.0417 -13.4474 -1.1133
12.1684 -11.3609 -1.0268
10.3075 -8.0277 -0.8058
10.3069 -6.6398 -0.7562
11.9232 -6.2513 -0.8303
11.9410 -4.9573 -0.7974
11.9152 -3.7394 -0.7702
11.9116 -2.5974 -0.7519
11.9081 -1.4999 -0.7403
12.0199 -0.4317 -0.7418
11.9013 0.6373 -0.7351
12.0252 1.7301 -0.7493
12.0182 2.8431 -0.7617
12.0114 4.0030 -0.7809
9.1691 6.1378 -0.6805
29.9290 24.1673 -2.3726
25.7428 24.8967 -2.2088
23.1183 26.7496 -2.1806
19.1225 26.5988 -2.0205
17.1103 28.9425 -2.0737
-20.8237 16.6447 -1.6442
-20.8146 13.7840 -1.5398
-20.8065 11.2461 -1.4588
-20.7991 8.9443 -1.3964
-20.7923 6.8150 -1.3496
-20.7859 4.8084 -1.3159
-20.7798 2.8845 -1.2939
-22.1299 1.0749 -1.3665
-17.6973 -2.3185 -1.1009
-23.5615 -5.2605 -1.4890
-20.7495 -6.6252 -1.3434
-20.7427 -8.7324 -1.3881
-20.7355 -11.0031 -1.4478
-20.7275 -13.4989 -1.5256
-20.7186 -16.3020 -1.6260
-20.7883 -19.6029 -1.7623
-28.3863 -38.4505 -2.9478
-23.8707 -39.2381 -2.8328
15.5357 -42.8999 -2.8141
15.7263 -33.6798 -2.2926
19.5570 -33.6676 -2.4015
16.2618 -22.9896 -1.7368
10.3150 -12.1218 -0.9817
12.1084 -11.8913 -1.0467
10.3088 -8.4556 -0.8224
10.3042 -7.0126 -0.7688
11.9245 -6.6412 -0.8419
11.9202 -5.3055 -0.8047
11.9170 -4.0733 -0.7768
11.9126 -2.9147 -0.7564
11.9091 -1.8067 -0.7429
12.0209 -0.7362 -0.7428
11.9022 0.3362 -0.7344
11.8988 1.4062 -0.7390
12.0202 2.5248 -0.7576
12.0133 3.6693 -0.7748
29.9675 15.4202 -2.0787
34.0475 21.5663 -2.4858
30.6122 23.4668 -2.3790
9.3151 8.5642 -0.7805
23.3953 25.7268 -2.1448
21.3608 28.1823 -2.1811
17.0829 27.2979 -1.9862
-17.6322 17.7592 -1.5435
-20.8265 17.5272 -1.6789
-20.8170 14.5553 -1.5667
-20.8087 11.9360 -1.4796
-20.8011 9.5748 -1.4124
-20.7942 7.4022 -1.3614
-20.7877 5.3654 -1.3242
-20.7815 3.4218 -1.2990
-20.7755 1.5359 -1.2849
-26.7704 -5.2708 -1.6828
-20.7513 -6.0527 -1.3332
-20.7447 -8.1226 -1.3741
-20.7376 -10.3417 -1.4293
-20.7298 -12.7667 -1.5016
-20.7212 -15.4730 -1.5950
-20.7113 -18.5647 -1.7155
-23.5310 -30.2442 -2.3635
-24.9983 -38.8464 -2.8492
-22.6175 -43.1904 -3.0070
15.8148 -36.2296 -2.4382
18.4377 -33.6712 -2.3677
9.2464 -13.7984 -1.0245
12.1338 -15.0115 -1.1905
12.1103 -12.5097 -1.0739
10.3102 -8.9017 -0.8401
10.3055 -7.4011 -0.7826
12.0932 -7.1412 -0.8662
10.2919 -4.8959 -0.7030
12.0327 -4.4554 -0.7914
11.9136 -3.2360 -0.7614
11.9100 -2.1159 -0.7461
12.0218 -1.0416 -0.7443
11.9032 0.0354 -0.7342
11.8998 1.1024 -0.7371
12.0222 2.2097 -0.7539
12.0153 3.3405 -0.7692
36.7987 13.8751 -2.4257
15.2870 9.1504 -1.0989
30.8597 22.4422 -2.3535
29.6277 25.8896 -2.4267
23.6151 24.6859 -2.1071
23.5183 29.4529 -2.3247
17.4366 26.3583 -1.9493
-29.2233 30.9599 -2.6258
-24.7064 21.8818 -2.0356
-20.8196 15.3543 -1.5955
-20.8109 12.6465 -1.5020
-20.8032 10.2202 -1.4296
-20.7961 8.0004 -1.3743
-20.7895 5.9298 -1.3334
-20.7832 3.9637 -1.3050
-20.7772 2.0648 -1.2878
-30.9420 -5.2841 -1.9361
-20.7531 -5.4884 -1.3240
-20.7466 -7.5247 -1.3612
-20.7397 -9.6964 -1.4121
-20.7321 -12.0567 -1.4792
-20.7238 -14.6743 -1.5662
-20.7143 -17.6444 -1.6783
-20.7833 -21.1835 -1.8304
-23.9956 -29.2842 -2.3351
-26.1352 -38.4433 -2.8671
-22.6255 -40.6718 -2.8706
15.8302 -38.9173 -2.5913
17.3488 -33.6746 -2.3364
10.3834 -16.3747 -1.1959
12.1242 -15.7997 -1.2283
12.1124 -13.1613 -1.1032
10.3117 -9.3680 -0.8593
12.1225 -16.3182 -1.1281
10.3188 -11.5692 -0.8603
10.3127 -9.6665 -0.7844
12.1006 -9.4627 -0.8525
10.3065 -6.6684 -0.6813
11.9233 -6.2814 -0.7479
11.9211 -4.9767 -0.7169
11.9153 -3.7653 -0.6935
11.9117 -2.6221 -0.6769
11.9081 -1.5239 -0.6663
12.0200 -0.4555 -0.6675
11.9013 0.6137 -0.6614
12.0253 1.7059 -0.6740
12.0184 2.8181 -0.6851
12.0115 3.9767 -0.7022
9.1775 6.1172 -0.6121
30.2105 24.2962 -2.1515
9.1195 8.7850 -0.7027
23.1889 26.7244 -1.9636
19.2725 26.6963 -1.8273
16.7606 28.2236 -1.8217
-20.8239 16.7124 -1.4818
-20.8148 13.8434 -1.3873
-20.8066 11.2993 -1.3140
-20.7993 8.9931 -1.2576
-20.7925 6.8605 -1.2151
-20.7861 4.8517 -1.1846
-20.7799 2.9263 -1.1646
-21.3154 1.0775 -1.1844
-17.6792 -2.2806 -0.9893
-23.7856 -5.2613 -1.3519
-20.7496 -6.5801 -1.2080
-20.7429 -8.6842 -1.2480
-20.7356 -10.9508 -1.3014
-20.7277 -13.4409 -1.3710
-20.7188 -16.2360 -1.4608
-20.7085 -19.4505 -1.5767
-25.8195 -29.0077 -2.1552
-22.3914 -30.2052 -2.0866
-23.9694 -39.2257 -2.5511
15.5365 -43.1681 -2.5461
15.6454 -33.6800 -2.0610
19.4684 -33.6679 -2.1583
16.2621 -23.0867 -1.5672
10.3151 -12.1706 -0.8854
10.3143 -10.1695 -0.8038
10.3340 -8.5104 -0.7429
12.0006 -8.2018 -0.8067
11.9246 -6.6722 -0.7583
11.9203 -5.3337 -0.7247
11.9175 -4.0998 -0.6994
11.9127 -2.9397 -0.6809
11.9091 -1.8308 -0.6687
12.0210 -0.7600 -0.6685
11.9023 0.3126 -0.6608
11.8989 1.3824 -0.6648
12.0204 2.5000 -0.6814
12.0135 3.6434 -0.6967
29.9518 15.3374 -1.8675
33.9829 21.4315 -2.2297
30.7323 23.4626 -2.1458
29.3485 26.8762 -2.2085
23.0344 25.2297 -1.8959
21.0818 27.7004 -1.9319
17.5072 27.8533 -1.8258
-17.6379 17.8352 -1.3921
-20.8267 17.5977 -1.5132
-20.8172 14.6166 -1.4116
-20.8088 11.9908 -1.3328
-20.8013 9.6247 -1.2720
-20.7943 7.4486 -1.2258
-20.7878 5.4092 -1.1921
-20.7816 3.4640 -1.1692
-20.7756 1.5771 -1.1563
-27.0565 -5.2717 -1.5298
-20.7514 -6.0083 -1.1989
-20.7448 -8.0755 -1.2354
-20.7378 -10.2906 -1.2848
-20.7300 -12.7104 -1.3495
-20.7214 -15.4094 -1.4331
-20.7116 -18.4913 -1.5409
-30.6427 -39.2248 -2.7623
-25.3372 -39.2027 -2.5905
15.7728 -36.3287 -2.1980
18.3515 -33.6714 -2.1282
9.2312 -13.8345 -0.9230
12.1358 -15.0747 -1.0740
10.3160 -10.6983 -0.8248
10.3104 -8.9375 -0.7572
10.3306 -7.4501 -0.7068
12.0933 -7.1736 -0.7803
10.2920 -4.9209 -0.6331
12.0328 -4.4825 -0.7126
11.9137 -3.2613 -0.6855
11.9101 -2.1402 -0.6716
12.0219 -1.0655 -0.6698
11.9032 0.0119 -0.6606
11.8998 1.0787 -0.6631
12.0223 2.1852 -0.6781
12.0154 3.3150 -0.6917
37.5431 14.0712 -2.2251
15.2642 9.0958 -0.9861
32.1556 23.2875 -2.2034
29.6677 25.8214 -2.1827
24.0414 25.0325 -1.9262
23.6214 29.4625 -2.0957
17.8597 26.8823 -1.7911
-29.1121 30.9644 -2.3586
-24.7066 21.9694 -1.8348
-20.8198 15.4180 -1.4378
-20.8111 12.7029 -1.3531
-20.8034 10.2714 -1.2876
-20.7963 8.0476 -1.2375
-20.7896 5.9742 -1.2004
-20.7834 4.0063 -1.1746
-20.7773 2.1063 -1.1590
-31.3216 -5.2853 -1.7628
-20.7532 -5.4446 -1.1907
-20.7467 -7.4784 -1.2239
-20.7398 -9.6467 -1.2694
-20.7323 -12.0020 -1.3295
-20.7240 -14.6132 -1.4073
-20.7145 -17.5741 -1.5076
-20.7035 -21.0191 -1.6373
-24.9533 -30.3306 -2.1797
-26.7687 -39.2087 -2.6347
-23.3865 -41.8451 -2.6603
15.7937 -39.0484 -2.3376
17.2648 -33.6749 -2.1001
10.3382 -16.3749 -1.0747
12.0917 -15.8221 -1.1051
10.3178 -11.2558 -0.8474
10.3119 -9.4053 -0.7746
12.0036 -9.1261 -0.8368
11.9985 -7.5334 -0.7862
11.9227 -6.0751 -0.7426
11.9594 -4.8025 -0.7152
11.9147 -3.5874 -0.6906
11.9111 -2.4525 -0.6749
11.9076 -1.3593 -0.6651
12.0195 -0.2917 -0.6672
11.9008 0.7763 -0.6619
12.0243 1.8731 -0.6754
12.0173 2.9910 -0.6873
12.0104 4.1587 -0.7054
37.0802 20.8452 -2.3607
33.9515 23.3040 -2.2853
30.4586 25.1864 -2.1934
25.5532 25.2955 -1.9954
23.1968 27.4807 -1.9958
18.2117 25.9645 -1.7601
16.5377 28.7323 -1.8398
-24.7103 23.1163 -1.8778
-20.8224 16.2501 -1.4658
-20.8135 13.4374 -1.3749
-20.8055 10.9345 -1.3044
-20.7982 8.6585 -1.2503
-20.7915 6.5476 -1.2097
-20.7851 4.5540 -1.1809
-20.7790 2.6382 -1.1624
-28.5677 1.0543 -1.5865
-48.8055 -6.9728 -2.7360
-22.3188 -5.2566 -1.2725
-20.7486 -6.8921 -1.2133
-20.7418 -9.0176 -1.2552
-20.7345 -11.3139 -1.3108
-20.7264 -13.8445 -1.3832
-20.7173 -16.6951 -1.4766
-20.7068 -19.9865 -1.5971
-24.7150 -28.5400 -2.0952
-23.0634 -32.0139 -2.1897
-23.4856 -39.6369 -2.5568
9.3308 -33.7551 -1.9436
15.7524 -41.9657 -2.4876
16.2057 -33.6783 -2.0742
20.0838 -33.6659 -2.1756
16.2600 -22.4287 -1.5374
12.1148 -13.9055 -1.0235
10.3134 -9.8953 -0.7932
12.1014 -9.6925 -0.8604
10.2981 -6.8344 -0.6859
11.9239 -6.4602 -0.7526
11.9197 -5.1398 -0.7204
11.9158 -3.9186 -0.6961
11.9121 -2.7680 -0.6787
11.9086 -1.6651 -0.6673
12.0204 -0.5957 -0.6679
11.9018 0.4749 -0.6610
11.8984 1.5468 -0.6659
12.0193 2.6710 -0.6833
12.0124 3.8224 -0.6996
28.9340 15.3170 -1.8169
9.2652 6.0210 -0.6132
30.2491 23.7525 -2.1344
9.1459 8.6074 -0.6970
22.9578 25.8440 -1.9184
19.4233 26.2556 -1.8125
17.1895 28.1929 -1.8325
-20.8252 17.1159 -1.4960
-20.8159 14.1965 -1.3983
-20.8076 11.6156 -1.3225
-20.8002 9.2825 -1.2641
-20.7933 7.1303 -1.2199
-20.7869 5.1078 -1.1879
-20.7807 3.1736 -1.1666
-20.7747 1.2929 -1.1552
-17.7511 -2.0800 -0.9919
-25.1936 -5.2658 -1.4284
-20.7504 -6.3154 -1.2037
-20.7438 -8.4021 -1.2421
-20.7366 -10.6444 -1.2936
-20.7288 -13.1013 -1.3609
-20.7200 -15.8511 -1.4478
-20.7099 -19.0029 -1.5598
-23.6542 -31.1441 -2.1704
-24.5850 -39.1996 -2.5679
15.7300 -34.9206 -2.1255
18.9496 -33.6695 -2.1442
9.4210 -13.7110 -0.9232
12.1251 -14.6485 -1.0553
10.3151 -10.4099 -0.8133
10.3286 -8.7098 -0.7498
12.0013 -8.4089 -0.8133
12.0926 -6.9523 -0.7741
11.9208 -5.5015 -0.7286
12.0322 -4.2966 -0.7090
11.9131 -3.0874 -0.6830
11.9096 -1.9731 -0.6700
12.0214 -0.9007 -0.6690
11.9027 0.1740 -0.6606
11.8993 1.2422 -0.6640
12.0213 2.3545 -0.6798
12.0143 3.4914 -0.6943
37.3048 14.5643 -2.2225
34.0704 20.9362 -2.2193
31.0649 23.1490 -2.1500
28.9239 25.8746 -2.1537
23.8085 25.4754 -1.9351
22.1184 28.3708 -1.9964
17.1205 26.5471 -1.7531
-24.7047 21.3724 -1.8129
-20.8184 14.9824 -1.4234
-20.8099 12.3164 -1.3420
-20.8022 9.9208 -1.2790
-20.7952 7.7232 -1.2311
-20.7887 5.6687 -1.1958
-20.7824 3.7133 -1.1716
-20.7764 1.8207 -1.1574
-28.8729 -5.2775 -1.6289
-20.7523 -5.7475 -1.1950
-20.7457 -7.7989 -1.2300
-20.7387 -9.9919 -1.2775
-20.7311 -12.3813 -1.3401
-20.7226 -15.0388 -1.4210
-20.7129 -18.0637 -1.5252
-20.7017 -21.5978 -1.6603
-17.6828 -22.0999 -1.5707
-25.9909 -39.2054 -2.6105
-23.3829 -43.2098 -2.7266
15.7380 -37.4355 -2.2537
17.8471 -33.6730 -2.1150
16.2683 -25.0066 -1.6556
12.1367 -15.4405 -1.0899
10.3168 -10.9514 -0.8350
10.3110 -9.1504 -0.7651
12.0990 -8.9413 -0.8349
11.9978 -7.3070 -0.7796
11.9220 -5.8717 -0.7375
12.0333 -4.6429 -0.7158
11.9142 -3.4110 -0.6878
11.9106 -2.2837 -0.6730
11.9072 -1.1952 -0.6641
11.9060 -0.1267 -0.6608
11.9003 0.9392 -0.6625
12.0232 2.0411 -0.6768
12.0163 3.1652 -0.6896
36.5165 13.2038 -2.1550
15.3947 8.9324 -0.9878
32.2415 22.7824 -2.1909
30.3416 25.7932 -2.2101
24.1697 24.5868 -1.9134
23.0259 28.0442 -2.0137
18.0560 26.5033 -1.7797
-19.7184 31.1640 -2.0466
-24.7083 22.4914 -1.8542
-20.8210 15.7975 -1.4504
-20.8122 13.0385 -1.3629
-20.8043 10.5749 -1.2952
-20.7971 8.3275 -1.2433
-20.7905 6.2374 -1.2046
-20.7842 4.2579 -1.1774
-20.7781 2.3510 -1.1605
-48.8314 1.1365 -2.7107
-33.7580 -5.2931 -1.8963
-21.0144 -5.2524 -1.2021
-20.7476 -7.2069 -1.2189
-20.7407 -9.3550 -1.2627
-20.7333 -11.6824 -1.3207
-20.7251 -14.2557 -1.3960
-20.7158 -17.1644 -1.4930
-20.7050 -20.5368 -1.6184
-24.5268 -29.1145 -2.1127
-27.4453 -39.2115 -2.6562
-23.3895 -40.7295 -2.6065
15.7470 -40.2753 -2.3999
16.7734 -33.6765 -2.0879
20.7093 -33.6639 -2.1934
12.1223 -16.2508 -1.1251
10.3186 -11.5232 -0.8584
10.3126 -9.6282 -0.7830
10.3325 -8.0472 -0.7268
10.3064 -6.6395 -0.6804
11.9232 -6.2513 -0.7471
11.9410 -4.9573 -0.7175
11.9152 -3.7394 -0.6931
11.9116 -2.5974 -0.6766
11.9081 -1.5000 -0.6661
12.0199 -0.4317 -0.6675
11.9013 0.6373 -0.6614
12.0252 1.7301 -0.6742
12.0182 2.8431 -0.6854
12.0113 4.0030 -0.7026
9.1689 6.1377 -0.6123
30.0923 24.2991 -2.1465
27.4060 26.5051 -2.1159
23.1019 26.7306 -1.9607
19.1500 26.6371 -1.8206
16.6883 28.2288 -1.8199
-20.8237 16.6447 -1.4795
-20.8146 13.7840 -1.3855
-20.8065 11.2461 -1.3126
-20.7991 8.9443 -1.2565
-20.7923 6.8150 -1.2143
-20.7859 4.8084 -1.1840
-20.7798 2.8845 -1.1643
-22.1300 1.0749 -1.2296
-17.6957 -2.3183 -0.9904
-23.5615 -5.2605 -1.3398
-20.7495 -6.6252 -1.2088
-20.7427 -8.7324 -1.2490
-20.7355 -11.0031 -1.3027
-20.7275 -13.4989 -1.3727
-20.7186 -16.3020 -1.4631
-20.7083 -19.5273 -1.5796
-25.7709 -29.0684 -2.1559
-22.3392 -30.2595 -2.0873
-23.8707 -39.2381 -2.5489
15.5357 -42.8999 -2.5321
15.7263 -33.6798 -2.0628
19.5570 -33.6676 -2.1608
16.2618 -22.9896 -1.5628
10.3150 -12.1218 -0.8833
10.3142 -10.1292 -0.8023
10.3636 -8.5005 -0.7439
10.3292 -7.0296 -0.6934
11.9245 -6.6412 -0.7575
11.9202 -5.3055 -0.7241
11.9170 -4.0733 -0.6989
11.9126 -2.9147 -0.6806
11.9091 -1.8067 -0.6685
12.0209 -0.7362 -0.6684
11.9022 0.3362 -0.6608
11.8988 1.4062 -0.6649
12.0202 2.5248 -0.6816
12.0133 3.6693 -0.6971
29.8715 15.3708 -1.8644
33.9821 21.5249 -2.2324
30.8425 23.6433 -2.1567
9.3151 8.5642 -0.7022
22.9061 25.1890 -1.8895
21.0458 27.7667 -1.9336
17.5782 28.0894 -1.8389
-17.6318 17.7588 -1.3888
-20.8265 17.5272 -1.5106
-20.8170 14.5552 -1.4097
-20.8087 11.9360 -1.3313
-20.8011 9.5748 -1.2708
-20.7942 7.4022 -1.2249
-20.7877 5.3654 -1.1915
-20.7815 3.4218 -1.1688
-20.7755 1.5359 -1.1561
-26.7704 -5.2708 -1.5142
-20.7513 -6.0527 -1.1996
-20.7447 -8.1226 -1.2364
-20.7376 -10.3417 -1.2860
-20.7298 -12.7667 -1.3511
-20.7212 -15.4730 -1.4352
-20.7113 -18.5647 -1.5436
-30.5177 -39.2243 -2.7581
-25.2274 -39.2022 -2.5871
15.8148 -36.2296 -2.1939
18.4377 -33.6712 -2.1305
9.2462 -13.7980 -0.9218
12.1357 -15.0138 -1.0714
10.3158 -10.6560 -0.8231
10.3102 -8.9017 -0.7559
10.3305 -7.4191 -0.7058
12.0932 -7.1412 -0.7794
10.2919 -4.8959 -0.6325
12.0327 -4.4554 -0.7121
11.9136 -3.2360 -0.6851
11.9100 -2.1159 -0.6713
12.0218 -1.0416 -0.6697
11.9032 0.0354 -0.6606
11.8998 1.1024 -0.6632
12.0222 2.2097 -0.6784
12.0152 3.3405 -0.6921
37.5665 14.1646 -2.2281
15.2864 9.1500 -0.9887
30.7774 22.3824 -2.1120
29.5551 25.8262 -2.1782
23.9810 25.0684 -1.9253
17.6975 26.7526 -1.7801
-29.2216 30.9581 -2.3626
-24.7064 21.8818 -1.8316
-20.8196 15.3543 -1.4356
-20.8109 12.6465 -1.3515
-20.8032 10.2202 -1.2863
-20.7961 8.0004 -1.2366
-20.7895 5.9298 -1.1998
-20.7832 3.9637 -1.1742
-20.7772 2.0648 -1.1587
-30.9420 -5.2841 -1.7420
-20.7531 -5.4884 -1.1913
-20.7466 -7.5247 -1.2248
-20.7397 -9.6964 -1.2706
-20.7321 -12.0566 -1.3310
-20.7238 -14.6743 -1.4092
-20.7143 -17.6444 -1.5101
-20.7032 -21.1019 -1.6406
-24.8458 -30.3218 -2.1755
-26.6551 -39.2082 -2.6311
-23.3860 -42.0389 -2.6697
15.8302 -38.9173 -2.3317
17.3488 -33.6746 -2.1023
10.3834 -16.3747 -1.0760
12.1242 -15.7997 -1.1052
10.3176 -11.2111 -0.8456
10.3117 -9.3680 -0.7732
10.3262 -13.9002 -0.8540
10.3188 -11.5692 -0.7646
12.0366 -11.2824 -0.8137
12.0044 -9.3874 -0.7516
11.9992 -7.7636 -0.7049
11.9233 -6.2814 -0.6647
11.9211 -4.9767 -0.6371
11.9153 -3.7653 -0.6163
11.9117 -2.6221 -0.6015
11.9081 -1.5239 -0.5921
12.0200 -0.4555 -0.5933
11.9013 0.6137 -0.5878
12.0253 1.7059 -0.5990
12.0184 2.8181 -0.6088
12.0114 3.9767 -0.6240
9.1773 6.1170 -0.5440
30.3764 24.4297 -1.9226
9.1195 8.7850 -0.6245
23.1725 26.7055 -1.7438
19.1364 26.5077 -1.6124
17.0193 28.6592 -1.6439
-20.8239 16.7124 -1.3169
-20.8148 13.8434 -1.2329
-20.8066 11.2993 -1.1677
-20.7993 8.9931 -1.1176
-20.7925 6.8605 -1.0799
-20.7861 4.8517 -1.0527
-20.7799 2.9264 -1.0350
-21.3154 1.0775 -1.0526
-17.6787 -2.2805 -0.8791
-23.7856 -5.2613 -1.2014
-20.7496 -6.5801 -1.0736
-20.7429 -8.6842 -1.1091
-20.7356 -10.9508 -1.1565
-20.7277 -13.4409 -1.2184
-20.7188 -16.2360 -1.2982
-20.7085 -19.4505 -1.4012
-25.6884 -28.8604 -1.9056
-22.2410 -30.0023 -1.8419
-23.9694 -39.2257 -2.2672
15.5365 -43.1681 -2.2627
15.6454 -33.6800 -1.8316
19.4684 -33.6679 -1.9181
16.2554 -23.0771 -1.3922
10.3151 -12.1706 -0.7868
12.1085 -11.9385 -0.8387
10.3340 -8.5104 -0.6603
12.0006 -8.2018 -0.7169
11.9246 -6.6722 -0.6739
11.9203 -5.3337 -0.6441
11.9175 -4.0998 -0.6216
11.9127 -2.9397 -0.6052
11.9091 -1.8308 -0.5943
12.0210 -0.7600 -0.5941
11.9023 0.3127 -0.5872
11.8989 1.3824 -0.5908
12.0204 2.5001 -0.6055
12.0134 3.6434 -0.6191
29.9300 15.3262 -1.6584
33.9178 21.3905 -1.9777
30.9639 23.6394 -1.9213
28.3400 25.9527 -1.8953
23.2308 25.4448 -1.6993
19.3433 25.4162 -1.5753
17.1140 27.2279 -1.5861
-17.6368 17.8341 -1.2370
-20.8267 17.5977 -1.3447
-20.8172 14.6166 -1.2545
-20.8088 11.9908 -1.1845
-20.8013 9.6247 -1.1304
-20.7943 7.4486 -1.0894
-20.7878 5.4092 -1.0594
-20.7816 3.4640 -1.0391
-20.7756 1.5771 -1.0276
-27.0565 -5.2717 -1.3595
-20.7514 -6.0083 -1.0655
-20.7448 -8.0755 -1.0979
-20.7378 -10.2906 -1.1418
-20.7300 -12.7104 -1.1993
-20.7214 -15.4094 -1.2736
-20.7116 -18.4913 -1.3694
-24.8794 -31.8474 -1.9932
-25.3372 -39.2027 -2.3021
15.7616 -36.3030 -1.9519
18.3515 -33.6714 -1.8913
9.2309 -13.8342 -0.8202
10.3227 -12.8226 -0.8119
12.1049 -12.5536 -0.8601
10.3407 -8.9638 -0.6749
10.3306 -7.4501 -0.6282
12.0933 -7.1736 -0.6935
10.2920 -4.9209 -0.5626
12.0328 -4.4825 -0.6333
11.9137 -3.2613 -0.6092
11.9101 -2.1402 -0.5968
12.0219 -1.0655 -0.5952
11.9032 0.0119 -0.5871
11.8998 1.0787 -0.5893
12.0223 2.1852 -0.6027
12.0154 3.3150 -0.6147
36.5384 13.6947 -1.9245
15.2636 9.0955 -0.8763
31.9920 23.1691 -1.9482
29.5952 25.7583 -1.9351
24.3051 25.3071 -1.7306
22.8702 28.5255 -1.8032
17.7510 26.7187 -1.5821
-29.1114 30.9636 -2.0961
-24.7066 21.9694 -1.6306
-20.8198 15.4180 -1.2777
-20.8111 12.7029 -1.2025
-20.8034 10.2714 -1.1443
-20.7963 8.0476 -1.0998
-20.7896 5.9742 -1.0668
-20.7834 4.0063 -1.0439
-20.7773 2.1063 -1.0300
-31.3216 -5.2853 -1.5666
-20.7532 -5.4446 -1.0582
-20.7467 -7.4784 -1.0877
-20.7398 -9.6467 -1.1281
-20.7323 -12.0020 -1.1815
-20.7240 -14.6132 -1.2506
-20.7145 -17.5741 -1.3398
-20.7035 -21.0191 -1.4551
-26.7687 -39.2087 -2.3415
-23.2530 -41.6062 -2.3507
15.7937 -39.0484 -2.0774
17.2648 -33.6749 -1.8664
10.3382 -16.3749 -0.9551
10.3249 -13.5103 -0.8386
10.3178 -11.2558 -0.7531
10.3531 -9.4429 -0.6911
12.0036 -9.1261 -0.7437
10.3167 -6.4775 -0.6008
11.9227 -6.0751 -0.6600
11.9594 -4.8025 -0.6356
11.9147 -3.5874 -0.6137
11.9111 -2.4525 -0.5998
11.9076 -1.3593 -0.5911
12.0195 -0.2917 -0.5930
11.9008 0.7763 -0.5882
12.0243 1.8731 -0.6002
12.0173 2.9910 -0.6108
12.0104 4.1587 -0.6269
37.0787 20.8443 -2.0979
33.8659 23.2453 -2.0259
29.5653 24.4477 -1.8921
25.4671 25.2103 -1.7674
23.0091 27.2583 -1.7593
18.2273 25.9868 -1.5655
16.4932 28.6550 -1.6306
-24.7103 23.1163 -1.6688
-20.8224 16.2501 -1.3027
-20.8135 13.4374 -1.2219
-20.8055 10.9345 -1.1592
-20.7982 8.6585 -1.1111
-20.7915 6.5476 -1.0751
-20.7851 4.5540 -1.0494
-20.7790 2.6382 -1.0330
-28.5677 1.0543 -1.4099
-48.8055 -6.9728 -2.4315
-22.3188 -5.2566 -1.1309
-20.7486 -6.8921 -1.0783
-20.7418 -9.0176 -1.1155
-20.7345 -11.3139 -1.1649
-20.7264 -13.8445 -1.2293
-20.7173 -16.6951 -1.3122
-20.7068 -19.9865 -1.4194
-25.3328 -29.2534 -1.9086
-21.9340 -30.4461 -1.8507
-23.4856 -39.6369 -2.2723
9.3304 -33.7539 -1.7272
15.7524 -41.9657 -2.2108
16.2058 -33.6783 -1.8433
20.0838 -33.6659 -1.9334
16.2515 -22.4168 -1.3656
10.3196 -11.8450 -0.7748
12.0677 -11.5785 -0.8248
12.0051 -9.6154 -0.7586
10.2981 -6.8344 -0.6096
11.9239 -6.4602 -0.6689
11.9197 -5.1398 -0.6402
11.9158 -3.9186 -0.6186
11.9121 -2.7680 -0.6032
11.9086 -1.6651 -0.5930
12.0204 -0.5957 -0.5936
11.9018 0.4749 -0.5875
11.8984 1.5468 -0.5918
12.0193 2.6710 -0.6073
12.0123 3.8224 -0.6217
28.9705 15.3364 -1.6167
9.2649 6.0208 -0.5450
29.9158 23.4909 -1.8760
9.1459 8.6074 -0.6195
23.4003 26.3421 -1.7378
19.1149 25.8387 -1.5852
17.3499 28.4561 -1.6437
-20.8252 17.1159 -1.3295
-20.8159 14.1965 -1.2427
-20.8076 11.6156 -1.1753
-20.8002 9.2825 -1.1234
-20.7933 7.1303 -1.0841
-20.7869 5.1078 -1.0557
-20.7807 3.1736 -1.0368
-20.7747 1.2929 -1.0266
-17.7502 -2.0799 -0.8814
-25.1936 -5.2658 -1.2694
-20.7504 -6.3154 -1.0698
-20.7438 -8.4021 -1.1038
-20.7366 -10.6444 -1.1496
-20.7288 -13.1013 -1.2094
-20.7200 -15.8511 -1.2866
-20.7099 -19.0029 -1.3862
-22.5465 -29.6855 -1.8385
-24.5850 -39.1996 -2.2821
15.7300 -34.9206 -1.8890
18.9496 -33.6695 -1.9055
9.4206 -13.7104 -0.8204
10.3216 -12.4698 -0.7984
10.3699 -10.4652 -0.7266
12.1030 -10.2061 -0.7808
12.0013 -8.4089 -0.7227
12.0926 -6.9523 -0.6879
11.9208 -5.5015 -0.6475
12.0322 -4.2966 -0.6301
11.9131 -3.0874 -0.6070
11.9096 -1.9731 -0.5954
12.0214 -0.9007 -0.5946
11.9027 0.1740 -0.5871
11.8993 1.2422 -0.5901
12.0213 2.3545 -0.6042
12.0143 3.4914 -0.6171
37.3845 14.5954 -1.9793
30.9808 23.0863 -1.9056
29.1974 26.1192 -1.9321
23.8289 25.4972 -1.7212
17.4734 27.0942 -1.5901
-24.7047 21.3724 -1.6111
-20.8184 14.9824 -1.2650
-20.8099 12.3164 -1.1926
-20.8022 9.9208 -1.1367
-20.7952 7.7233 -1.0941
-20.7887 5.6687 -1.0627
-20.7824 3.7133 -1.0412
-20.7764 1.8207 -1.0286
-28.8729 -5.2775 -1.4476
-20.7523 -5.7475 -1.0620
-20.7457 -7.7989 -1.0931
-20.7387 -9.9919 -1.1353
-20.7311 -12.3813 -1.1909
-20.7226 -15.0388 -1.2628
-20.7129 -18.0637 -1.3555
-20.7017 -21.5978 -1.4755
-17.6823 -22.0994 -1.3959
-25.9909 -39.2054 -2.3199
-23.3829 -43.2098 -2.4231
15.7380 -37.4355 -2.0028
17.8471 -33.6730 -1.8796
16.2683 -25.0066 -1.4713
10.3237 -13.1340 -0.8239
12.1115 -12.8565 -0.8711
12.0722 -10.7133 -0.7960
12.0990 -8.9413 -0.7420
12.0939 -7.3656 -0.6984
11.9220 -5.8717 -0.6554
12.0333 -4.6429 -0.6361
11.9142 -3.4110 -0.6112
11.9106 -2.2837 -0.5981
11.9072 -1.1952 -0.5902
11.9060 -0.1267 -0.5872
11.9003 0.9392 -0.5887
12.0232 2.0411 -0.6015
12.0162 3.1651 -0.6129
36.8105 13.3101 -1.9305
15.3943 8.9321 -0.8778
32.3058 22.8278 -1.9510
30.2665 25.7293 -1.9592
24.1883 24.6056 -1.7017
23.1290 28.1699 -1.7976
18.4345 27.0588 -1.6148
16.7643 30.0658 -1.6978
-19.7180 31.1633 -1.8188
-24.7083 22.4914 -1.6479
-20.8210 15.7975 -1.2890
-20.8122 13.0385 -1.2112
-20.8043 10.5749 -1.1510
-20.7971 8.3275 -1.1049
-20.7905 6.2374 -1.0705
-20.7842 4.2579 -1.0464
-20.7781 2.3510 -1.0313
-48.8314 1.1365 -2.4090
-33.7580 -5.2931 -1.6853
-21.0144 -5.2524 -1.0683
-20.7476 -7.2069 -1.0832
-20.7407 -9.3550 -1.1222
-20.7333 -11.6824 -1.1737
-20.7251 -14.2557 -1.2406
-20.7158 -17.1644 -1.3268
-20.7050 -20.5368 -1.4383
-26.3872 -31.3230 -2.0199
-27.4453 -39.2115 -2.3605
-23.3895 -40.7295 -2.3164
15.7470 -40.2753 -2.1328
16.7734 -33.6765 -1.8555
20.7093 -33.6639 -1.9493
10.3260 -13.8427 -0.8517
10.3186 -11.5232 -0.7629
10.3376 -9.6516 -0.6975
10.3325 -8.0472 -0.6459
10.3331 -6.6567 -0.6062
11.9232 -6.2513 -0.6640
11.9410 -4.9573 -0.6377
11.9152 -3.7394 -0.6159
11.9116 -2.5974 -0.6013
11.9081 -1.4999 -0.5919
12.0199 -0.4317 -0.5932
11.9013 0.6373 -0.5878
12.0252 1.7301 -0.5992
12.0182 2.8431 -0.6091
12.0113 4.0030 -0.6244
9.1687 6.1375 -0.5442
30.2573 24.4323 -1.9181
25.7361 24.8902 -1.7658
23.0856 26.7117 -1.7412
18.7458 26.0750 -1.5839
16.9356 28.6469 -1.6413
-20.8237 16.6447 -1.3148
-20.8146 13.7840 -1.2313
-20.8065 11.2461 -1.1665
-20.7991 8.9443 -1.1166
-20.7923 6.8150 -1.0791
-20.7859 4.8084 -1.0522
-20.7798 2.8845 -1.0347
-22.1299 1.0749 -1.0927
-17.6941 -2.3180 -0.8801
-23.5615 -5.2605 -1.1907
-20.7495 -6.6252 -1.0743
-20.7427 -8.7323 -1.1100
-20.7355 -11.0031 -1.1577
-20.7275 -13.4989 -1.2199
-20.7186 -16.3020 -1.3002
-20.7083 -19.5273 -1.4038
-25.6326 -28.9124 -1.9056
-22.1891 -30.0562 -1.8426
-23.8707 -39.2381 -2.2652
15.5357 -42.8999 -2.2503
15.7263 -33.6798 -1.8332
19.5570 -33.6676 -1.9203
16.2548 -22.9797 -1.3882
10.3150 -12.1218 -0.7850
10.3392 -10.1538 -0.7147
10.3636 -8.5005 -0.6611
10.3292 -7.0296 -0.6162
11.9245 -6.6412 -0.6732
11.9202 -5.3055 -0.6435
11.9170 -4.0733 -0.6211
11.9126 -2.9147 -0.6049
11.9091 -1.8067 -0.5941
12.0209 -0.7362 -0.5940
11.9022 0.3362 -0.5873
11.8988 1.4062 -0.5909
12.0202 2.5248 -0.6058
12.0133 3.6692 -0.6195
29.8587 15.3642 -1.6562
35.7800 22.6636 -2.0889
31.0761 23.8224 -1.9312
9.3151 8.5642 -0.6241
23.1007 25.4030 -1.6934
19.3828 25.5727 -1.5826
16.9762 27.1274 -1.5783
-17.6313 17.7583 -1.2342
-20.8265 17.5272 -1.3425
-20.8170 14.5552 -1.2528
-20.8087 11.9360 -1.1831
-20.8011 9.5748 -1.1294
-20.7942 7.4022 -1.0886
-20.7877 5.3654 -1.0588
-20.7815 3.4218 -1.0387
-20.7755 1.5359 -1.0274
-26.7704 -5.2708 -1.3456
-20.7513 -6.0527 -1.0661
-20.7447 -8.1226 -1.0987
-20.7376 -10.3417 -1.1429
-20.7298 -12.7667 -1.2007
-20.7212 -15.4730 -1.2754
-20.7113 -18.5647 -1.3718
-29.3356 -31.4518 -2.1212
-24.7798 -31.8493 -1.9902
-25.2274 -39.2022 -2.2992
15.7583 -36.1003 -1.9427
18.4377 -33.6712 -1.8933
9.2459 -13.7976 -0.8192
10.3226 -12.7707 -0.8099
12.1103 -12.5097 -0.8587
12.1038 -10.4502 -0.7887
10.3305 -7.4191 -0.6273
12.0932 -7.1412 -0.6927
10.2919 -4.8959 -0.5621
12.0327 -4.4554 -0.6328
11.9136 -3.2360 -0.6089
11.9100 -2.1159 -0.5966
12.0218 -1.0416 -0.5951
11.9032 0.0354 -0.5871
11.8998 1.1024 -0.5894
12.0222 2.2097 -0.6029
12.0152 3.3405 -0.6151
36.4843 13.7566 -1.9231
15.2858 9.1497 -0.8786
32.0884 23.3358 -1.9568
29.4829 25.7631 -1.9310
24.2841 25.3853 -1.7326
22.8223 28.5812 -1.8039
17.8407 26.9690 -1.5948
-29.2200 30.9564 -2.0995
-24.7064 21.8818 -1.6277
-20.8196 15.3543 -1.2758
-20.8109 12.6465 -1.2010
-20.8032 10.2202 -1.1431
-20.7961 8.0004 -1.0989
-20.7895 5.9298 -1.0662
-20.7832 3.9637 -1.0435
-20.7772 2.0648 -1.0298
-30.9420 -5.2841 -1.5481
-20.7531 -5.4884 -1.0587
-20.7466 -7.5247 -1.0884
-20.7397 -9.6964 -1.1291
-20.7321 -12.0566 -1.1828
-20.7238 -14.6743 -1.2524
-20.7143 -17.6444 -1.3420
-20.7032 -21.1019 -1.4580
-25.3974 -30.9950 -1.9763
-26.6551 -39.2082 -2.3383
-23.1946 -41.6949 -2.3531
15.8207 -38.8940 -2.0709
17.3488 -33.6746 -1.8683
10.3833 -16.3747 -0.9563
10.3248 -13.4548 -0.8365
10.3176 -11.2111 -0.7514
12.0355 -10.9339 -0.8020
10.3631 -13.9498 -0.7498
12.0418 -13.5011 -0.7806
12.0366 -11.2824 -0.7118
12.1006 -9.4627 -0.6628
12.0954 -7.8258 -0.6216
11.9233 -6.2814 -0.5815
11.9211 -4.9767 -0.5574
11.9153 -3.7653 -0.5392
11.9117 -2.6221 -0.5263
11.9081 -1.5239 -0.5180
12.0200 -0.4555 -0.5190
11.9013 0.6137 -0.5142
12.0253 1.7059 -0.5240
12.0184 2.8181 -0.5326
12.0114 3.9767 -0.5459
9.1770 6.1169 -0.4759
29.3697 23.6200 -1.6262
9.1195 8.7850 -0.5464
23.3517 26.9120 -1.5374
19.0951 26.4505 -1.4076
17.1546 28.8872 -1.4496
-20.8239 16.7124 -1.1520
-20.8148 13.8434 -1.0786
-20.8066 11.2993 -1.0216
-20.7993 8.9931 -0.9777
-20.7925 6.8605 -0.9447
-20.7861 4.8517 -0.9210
-20.7799 2.9263 -0.9054
-21.2897 1.0762 -0.9197
-17.6782 -2.2805 -0.7691
-5.9747 -1.3216 -0.2640
-5.9777 -1.8957 -0.2706
-5.9809 -2.5040 -0.2798
-5.9843 -3.1604 -0.2920
-5.9881 -3.8830 -0.3079
-5.9923 -4.6958 -0.3285
-20.7085 -19.4505 -1.2258
-25.5015 -28.6504 -1.6549
-22.1579 -29.8903 -1.6054
-23.9694 -39.2257 -1.9834
15.5365 -43.1681 -1.9795
15.6454 -33.6800 -1.6023
19.4684 -33.6679 -1.6780
10.3286 -14.6631 -0.7739
10.3151 -12.1706 -0.6884
12.1085 -11.9385 -0.7337
10.3340 -8.5104 -0.5776
12.0968 -8.2676 -0.6322
11.9246 -6.6722 -0.5896
11.9203 -5.3337 -0.5635
11.9175 -4.0998 -0.5438
11.9127 -2.9397 -0.5294
11.9091 -1.8308 -0.5199
12.0210 -0.7600 -0.5197
11.9023 0.3126 -0.5137
11.8989 1.3824 -0.5169
12.0204 2.5001 -0.5297
12.0134 3.6434 -0.5417
45.2038 18.2574 -2.1035
31.1909 23.8127 -1.6932
28.1802 25.8063 -1.6487
23.5799 25.8272 -1.5089
19.4525 25.5596 -1.3859
17.3592 27.6179 -1.4075
-17.6357 17.8329 -1.0821
-20.8267 17.5977 -1.1764
-20.8172 14.6166 -1.0975
-20.8088 11.9908 -1.0362
-20.8013 9.6247 -0.9889
-20.7943 7.4486 -0.9530
-20.7878 5.4092 -0.9268
-20.7816 3.4640 -0.9090
-20.7756 1.5772 -0.8990
-5.9739 -1.1640 -0.2626
-5.9768 -1.7305 -0.2685
-5.9800 -2.3279 -0.2769
-5.9833 -2.9691 -0.2882
-5.9870 -3.6709 -0.3030
-5.9911 -4.4553 -0.3221
-5.9958 -5.3530 -0.3468
-25.2660 -32.3422 -1.7708
-25.3371 -39.2027 -2.0140
15.7342 -36.2397 -1.7046
18.3515 -33.6714 -1.6546
9.2306 -13.8338 -0.7176
10.3478 -12.8537 -0.7120
12.1049 -12.5536 -0.7524
10.3407 -8.9638 -0.5905
10.3306 -7.4501 -0.5496
12.0933 -7.1736 -0.6067
10.2920 -4.9209 -0.4922
12.0328 -4.4825 -0.5540
11.9137 -3.2613 -0.5329
11.9101 -2.1402 -0.5221
12.0219 -1.0655 -0.5207
11.9032 0.0119 -0.5136
11.8998 1.0787 -0.5155
12.0223 2.1852 -0.5272
12.0153 3.3150 -0.5378
36.4512 13.6620 -1.6796
15.2630 9.0951 -0.7666
31.8302 23.0519 -1.6957
29.5230 25.6954 -1.6887
24.4497 25.4576 -1.5229
22.7857 28.4201 -1.5717
17.6439 26.5576 -1.3757
-29.1107 30.9628 -1.8337
-24.7066 21.9694 -1.4265
-20.8198 15.4180 -1.1178
-20.8111 12.7029 -1.0520
-20.8034 10.2714 -1.0010
-20.7963 8.0476 -0.9621
-20.7896 5.9742 -0.9333
-20.7834 4.0063 -0.9132
-20.7773 2.1063 -0.9011
-5.9731 -1.0079 -0.2614
-5.9760 -1.5678 -0.2666
-5.9791 -2.1552 -0.2742
-5.9823 -2.7826 -0.2847
-5.9859 -3.4653 -0.2984
-5.9899 -4.2237 -0.3162
-5.9944 -5.0856 -0.3392
-20.7035 -21.0191 -1.2730
-25.8540 -31.4254 -1.7558
-26.7687 -39.2087 -2.0484
-23.2530 -41.6062 -2.0565
15.6936 -38.8008 -1.8059
17.2648 -33.6749 -1.6328
10.3341 -16.3684 -0.8352
12.0917 -15.8221 -0.8592
10.3653 -11.3077 -0.6619
10.3532 -9.4429 -0.6046
12.0998 -9.1993 -0.6558
10.3059 -6.4707 -0.5250
11.9227 -6.0751 -0.5774
11.9594 -4.8025 -0.5561
11.9147 -3.5874 -0.5369
11.9111 -2.4525 -0.5247
11.9076 -1.3593 -0.5171
12.0195 -0.2917 -0.5188
11.9008 0.7763 -0.5146
12.0243 1.8731 -0.5251
12.0173 2.9910 -0.5343
12.0103 4.1587 -0.5484
33.1206 22.7337 -1.7333
29.7260 24.5806 -1.6643
25.3083 25.0531 -1.5365
23.1563 27.4327 -1.5489
18.8318 26.8487 -1.4150
16.7185 29.0465 -1.4460
-24.7103 23.1163 -1.4600
-20.8224 16.2501 -1.1396
-20.8135 13.4374 -1.0689
-20.8055 10.9345 -1.0141
-20.7982 8.6585 -0.9720
-20.7915 6.5476 -0.9405
-20.7851 4.5540 -0.9181
-20.7790 2.6382 -0.9037
-28.5676 1.0543 -1.2334
-48.8055 -6.9728 -2.1272
-5.9751 -1.4073 -0.2649
-5.9782 -1.9858 -0.2718
-5.9814 -2.6004 -0.2814
-5.9849 -3.2657 -0.2942
-5.9887 -4.0003 -0.3107
-5.9930 -4.8295 -0.3321
-20.7068 -19.9865 -1.2417
-25.1784 -29.0751 -1.6595
-21.8036 -30.2652 -1.6094
-23.4856 -39.6369 -1.9879
9.3301 -33.7526 -1.5109
15.7524 -41.9657 -1.9341
16.2058 -33.6783 -1.6126
20.0838 -33.6659 -1.6914
10.3273 -14.2452 -0.7592
12.1148 -13.9055 -0.7957
12.0374 -11.5495 -0.7198
12.1014 -9.6925 -0.6690
10.2981 -6.8344 -0.5333
11.9239 -6.4602 -0.5851
11.9197 -5.1398 -0.5601
11.9158 -3.9186 -0.5412
11.9121 -2.7680 -0.5277
11.9086 -1.6651 -0.5188
12.0204 -0.5957 -0.5193
11.9018 0.4749 -0.5139
11.8984 1.5468 -0.5177
12.0193 2.6710 -0.5312
12.0123 3.8224 -0.5439
9.2647 6.0207 -0.4767
30.1284 23.6578 -1.6528
9.1459 8.6074 -0.5419
22.9363 25.8197 -1.4901
19.2368 26.0035 -1.3956
16.9360 27.7770 -1.4037
-20.8252 17.1159 -1.1631
-20.8159 14.1965 -1.0871
-20.8076 11.6156 -1.0282
-20.8002 9.2825 -0.9828
-20.7933 7.1303 -0.9484
-20.7869 5.1078 -0.9236
-20.7807 3.1736 -0.9070
-20.7747 1.2929 -0.8981
-17.7494 -2.0798 -0.7711
-5.9743 -1.2487 -0.2633
-5.9773 -1.8192 -0.2696
-5.9805 -2.4223 -0.2784
-5.9838 -3.0716 -0.2902
-5.9876 -3.7844 -0.3056
-5.9918 -4.5838 -0.3255
-20.7099 -19.0029 -1.2127
-22.4580 -29.5691 -1.6021
-24.5850 -39.1996 -1.9964
15.7300 -34.9206 -1.6525
18.9496 -33.6695 -1.6670
9.4202 -13.7098 -0.7177
10.3701 -12.5283 -0.7017
10.3699 -10.4652 -0.6357
12.1030 -10.2061 -0.6831
12.0975 -8.4763 -0.6373
12.0926 -6.9523 -0.6018
11.9208 -5.5015 -0.5665
12.0322 -4.2966 -0.5513
11.9131 -3.0874 -0.5310
11.9096 -1.9731 -0.5209
12.0214 -0.9007 -0.5201
11.9027 0.1740 -0.5136
11.8993 1.2422 -0.5162
12.0213 2.3545 -0.5285
12.0143 3.4914 -0.5398
37.3008 14.5627 -1.7277
30.5483 22.7640 -1.6438
29.0295 25.9690 -1.6806
23.8310 25.4995 -1.5059
17.4484 27.0554 -1.3891
-24.7047 21.3724 -1.4094
-20.8184 14.9824 -1.1067
-20.8099 12.3164 -1.0433
-20.8022 9.9208 -0.9944
-20.7952 7.7233 -0.9571
-20.7887 5.6687 -0.9297
-20.7824 3.7133 -0.9109
-20.7764 1.8207 -0.8999
-5.9735 -1.0919 -0.2620
-5.9764 -1.6552 -0.2676
-5.9795 -2.2479 -0.2756
-5.9829 -2.8825 -0.2865
-5.9865 -3.5753 -0.3009
-5.9905 -4.3475 -0.3194
-5.9951 -5.2283 -0.3432
-20.7017 -21.5978 -1.2908
-17.6819 -22.0988 -1.2211
-25.5686 -38.5684 -1.9966
-23.3829 -43.2098 -2.1198
15.7223 -37.3982 -1.7504
17.8471 -33.6730 -1.6443
10.3325 -15.8825 -0.8175
10.3488 -13.1659 -0.7226
12.0395 -12.7802 -0.7576
12.1047 -10.7422 -0.6983
12.0990 -8.9413 -0.6491
12.0939 -7.3656 -0.6110
11.9220 -5.8717 -0.5734
12.0333 -4.6429 -0.5565
11.9142 -3.4110 -0.5347
11.9106 -2.2837 -0.5233
11.9072 -1.1952 -0.5163
11.9060 -0.1267 -0.5137
11.9003 0.9392 -0.5151
12.0232 2.0411 -0.5262
12.0162 3.1651 -0.5361
36.8609 13.3283 -1.6912
15.3938 8.9319 -0.7679
31.2865 22.1075 -1.6529
28.9332 24.5959 -1.6385
24.2068 24.6244 -1.4899
23.0993 28.1337 -1.5706
18.3705 26.9649 -1.4078
16.6609 29.8804 -1.4761
-19.7175 31.1626 -1.5911
-24.7083 22.4914 -1.4416
-20.8210 15.7975 -1.1277
-20.8122 13.0385 -1.0596
-20.8043 10.5749 -1.0069
-20.7971 8.3275 -0.9666
-20.7905 6.2374 -0.9365
-20.7842 4.2579 -0.9154
-20.7781 2.3510 -0.9022
-48.8314 1.1365 -2.1075
-33.7580 -5.2931 -1.4743
-5.9756 -1.4936 -0.2658
-5.9786 -2.0768 -0.2731
-5.9819 -2.6981 -0.2831
-5.9854 -3.3726 -0.2964
-5.9893 -4.1197 -0.3136
-5.9938 -4.9662 -0.3358
-20.7050 -20.5368 -1.2583
-24.9812 -29.6539 -1.6730
-21.9090 -31.3017 -1.6485
-23.3895 -40.7295 -2.0265
15.7470 -40.2753 -1.8659
16.7734 -33.6765 -1.6233
20.7093 -33.6639 -1.7053
10.3511 -13.8763 -0.7469
12.0417 -13.4474 -0.7788
10.3376 -9.6516 -0.6102
10.3325 -8.0472 -0.5651
10.3331 -6.6567 -0.5303
11.9232 -6.2513 -0.5809
11.9410 -4.9573 -0.5579
11.9152 -3.7394 -0.5388
11.9116 -2.5974 -0.5260
11.9081 -1.5000 -0.5179
12.0199 -0.4317 -0.5190
11.9013 0.6373 -0.5142
12.0252 1.7301 -0.5242
12.0182 2.8431 -0.5329
12.0112 4.0030 -0.5463
9.1685 6.1374 -0.4760
30.4239 24.5669 -1.6872
25.1656 24.3384 -1.5105
23.3617 27.0311 -1.5415
19.0702 26.5262 -1.4096
17.0506 28.8416 -1.4456
-20.8237 16.6447 -1.1502
-20.8146 13.7840 -1.0771
-20.8065 11.2461 -1.0205
-20.7991 8.9443 -0.9769
-20.7923 6.8150 -0.9441
-20.7859 4.8084 -0.9205
-20.7798 2.8845 -0.9052
-22.1033 1.0736 -0.9548
-17.6936 -2.3180 -0.7699
-5.9748 -1.3340 -0.2641
-5.9778 -1.9087 -0.2707
-5.9810 -2.5179 -0.2800
-5.9844 -3.1756 -0.2923
-5.9882 -3.8998 -0.3083
-5.9924 -4.7150 -0.3290
-20.7083 -19.5273 -1.2281
-25.4444 -28.7002 -1.6549
-22.1067 -29.9445 -1.6059
-23.8707 -39.2381 -1.9817
15.5357 -42.8999 -1.9686
15.7263 -33.6798 -1.6038
19.5570 -33.6676 -1.6799
10.3284 -14.6014 -0.7717
10.3150 -12.1218 -0.6867
10.3392 -10.1538 -0.6253
10.3636 -8.5005 -0.5783
10.3292 -7.0296 -0.5391
11.9245 -6.6412 -0.5889
11.9202 -5.3055 -0.5630
11.9170 -4.0733 -0.5434
11.9126 -2.9147 -0.5292
11.9090 -1.8067 -0.5197
12.0209 -0.7362 -0.5196
11.9022 0.3362 -0.5137
11.8988 1.4062 -0.5170
12.0202 2.5248 -0.5300
12.0132 3.6692 -0.5420
29.9008 22.9214 -1.6256
9.3151 8.5642 -0.5460
23.2986 25.6205 -1.4942
19.4928 25.7177 -1.3924
17.2673 27.5927 -1.4044
-17.6309 17.7579 -1.0797
-20.8265 17.5272 -1.1745
-20.8170 14.5553 -1.0960
-20.8087 11.9360 -1.0350
-20.8011 9.5748 -0.9880
-20.7942 7.4022 -0.9523
-20.7877 5.3654 -0.9263
-20.7815 3.4218 -0.9087
-20.7755 1.5359 -0.8988
-5.9739 -1.1762 -0.2627
-5.9769 -1.7433 -0.2686
-5.9800 -2.3415 -0.2771
-5.9834 -2.9839 -0.2885
-5.9871 -3.6872 -0.3034
-5.9912 -4.4737 -0.3226
-5.9959 -5.3744 -0.3474
-25.1899 -32.3765 -1.7699
-25.2274 -39.2022 -2.0114
15.7335 -36.0435 -1.6969
18.4377 -33.6712 -1.6564
9.2456 -13.7972 -0.7166
12.1394 -15.0184 -0.8332
12.1103 -12.5097 -0.7512
12.1038 -10.4502 -0.6900
10.3305 -7.4191 -0.5488
12.0932 -7.1412 -0.6060
10.2919 -4.8959 -0.4917
12.0327 -4.4554 -0.5536
11.9136 -3.2360 -0.5327
11.9100 -2.1159 -0.5219
12.0218 -1.0416 -0.5206
11.9032 0.0354 -0.5136
11.8998 1.1024 -0.5156
12.0222 2.2097 -0.5274
12.0152 3.3405 -0.5381
36.3773 13.7162 -1.6774
15.2852 9.1493 -0.7686
31.9254 23.2172 -1.7032
29.9123 26.1383 -1.7139
24.4313 25.5391 -1.5249
22.7129 28.4442 -1.5705
17.6825 26.7299 -1.3828
-29.2183 30.9546 -1.8366
-24.7064 21.8818 -1.4240
-20.8196 15.3543 -1.1162
-20.8109 12.6465 -1.0507
-20.8032 10.2202 -1.0001
-20.7961 8.0004 -0.9614
-20.7895 5.9298 -0.9328
-20.7832 3.9637 -0.9129
-20.7772 2.0648 -0.9009
-5.9731 -1.0201 -0.2614
-5.9761 -1.5804 -0.2667
-5.9791 -2.1686 -0.2744
-5.9824 -2.7970 -0.2849
-5.9860 -3.4811 -0.2988
-5.9900 -4.2414 -0.3167
-5.9945 -5.1061 -0.3398
-20.7032 -21.1019 -1.2755
-24.8787 -30.3620 -1.6936
-26.6551 -39.2082 -2.0456
-23.1451 -41.6058 -2.0542
15.6916 -38.5766 -1.7969
17.3489 -33.6746 -1.6344
10.3338 -16.2966 -0.8326
10.3498 -13.4875 -0.7335
12.0405 -13.0831 -0.7672
12.1055 -10.9976 -0.7057
12.1225 -16.3182 -0.7517
12.1138 -13.5818 -0.6729
12.1066 -11.3481 -0.6136
12.1006 -9.4627 -0.5680
12.0954 -7.8258 -0.5327
11.9233 -6.2814 -0.4983
11.9211 -4.9767 -0.4777
11.9153 -3.7653 -0.4621
11.9117 -2.6221 -0.4510
11.9081 -1.5239 -0.4439
12.0200 -0.4555 -0.4448
11.9013 0.6137 -0.4407
12.0253 1.7059 -0.4491
12.0184 2.8181 -0.4565
12.0114 3.9767 -0.4678
9.1768 6.1168 -0.4078
29.5003 23.7251 -1.3998
9.1195 8.7850 -0.4682
23.3791 26.9436 -1.3191
18.9343 26.2278 -1.1961
17.0023 28.6307 -1.2313
-20.8239 16.7124 -0.9873
-20.8148 13.8434 -0.9243
-20.8066 11.2993 -0.8755
-20.7993 8.9931 -0.8379
-20.7925 6.8605 -0.8096
-20.7861 4.8517 -0.7893
-20.7799 2.9263 -0.7760
-21.2898 1.0762 -0.7882
-17.6778 -2.2804 -0.6591
-5.9747 -1.3216 -0.2263
-5.9777 -1.8956 -0.2319
-5.9809 -2.5039 -0.2398
-5.9843 -3.1604 -0.2502
-5.9881 -3.8830 -0.2639
-5.9923 -4.6958 -0.2815
-20.7085 -19.4505 -1.0505
-22.0895 -29.7981 -1.3716
-23.5515 -38.5417 -1.6702
15.5365 -43.1681 -1.6965
15.6454 -33.6800 -1.3732
19.4684 -33.6679 -1.4381
10.3590 -14.7062 -0.6652
10.3151 -12.1706 -0.5900
12.1085 -11.9385 -0.6288
10.3340 -8.5104 -0.4950
12.0968 -8.2676 -0.5418
11.9246 -6.6722 -0.5053
11.9203 -5.3337 -0.4829
11.9175 -4.0998 -0.4660
11.9127 -2.9397 -0.4537
11.9091 -1.8308 -0.4455
12.0210 -0.7600 -0.4454
11.9023 0.3126 -0.4403
11.8989 1.3824 -0.4429
12.0204 2.5001 -0.4540
12.0133 3.6433 -0.4642
45.1372 18.2306 -1.8000
30.0723 22.9587 -1.3990
27.1039 24.8207 -1.3590
23.3806 25.6089 -1.2822
19.5629 25.7046 -1.1944
17.2670 27.4713 -1.1998
-17.6346 17.8318 -0.9273
-20.8267 17.5977 -1.0082
-20.8172 14.6166 -0.9405
-20.8088 11.9908 -0.8880
-20.8013 9.6247 -0.8475
-20.7943 7.4486 -0.8167
-20.7878 5.4092 -0.7943
-20.7816 3.4640 -0.7790
-20.7756 1.5772 -0.7704
-5.9739 -1.1640 -0.2250
-5.9768 -1.7305 -0.2301
-5.9800 -2.3279 -0.2373
-5.9833 -2.9691 -0.2470
-5.9870 -3.6708 -0.2597
-5.9911 -4.4553 -0.2761
-5.9958 -5.3530 -0.2972
-25.4963 -32.6371 -1.5314
-24.8437 -38.4392 -1.6924
15.7342 -36.2397 -1.4609
18.3516 -33.6714 -1.4180
9.2304 -13.8334 -0.6149
10.3478 -12.8537 -0.6102
12.1105 -12.5594 -0.6451
10.3407 -8.9638 -0.5060
10.3306 -7.4501 -0.4710
12.0933 -7.1736 -0.5199
10.2920 -4.9209 -0.4218
12.0328 -4.4825 -0.4748
11.9137 -3.2613 -0.4567
11.9101 -2.1402 -0.4475
12.0219 -1.0655 -0.4463
11.9032 0.0119 -0.4401
11.8998 1.0787 -0.4418
12.0223 2.1852 -0.4518
12.0153 3.3150 -0.4609
36.2711 13.5945 -1.4323
15.2624 9.0948 -0.6570
31.6701 22.9359 -1.4459
29.8898 26.0147 -1.4652
24.3948 25.4005 -1.3022
22.6923 28.3036 -1.3414
17.9630 27.0379 -1.2003
-29.1100 30.9620 -1.5714
-24.7066 21.9694 -1.2225
-20.8198 15.4180 -0.9580
-20.8111 12.7029 -0.9016
-20.8034 10.2714 -0.8579
-20.7963 8.0476 -0.8245
-20.7896 5.9742 -0.7998
-20.7834 4.0063 -0.7826
-20.7773 2.1063 -0.7722
-5.9731 -1.0079 -0.2240
-5.9760 -1.5678 -0.2284
-5.9791 -2.1552 -0.2350
-5.9823 -2.7826 -0.2440
-5.9859 -3.4653 -0.2558
-5.9899 -4.2237 -0.2710
-5.9944 -5.0856 -0.2907
-20.7035 -21.0191 -1.0909
-26.0512 -31.6651 -1.5162
-26.2464 -38.4437 -1.7212
-22.6261 -40.4845 -1.7149
15.7427 -38.9223 -1.5525
17.2648 -33.6749 -1.3993
10.3382 -16.3749 -0.7161
12.0917 -15.8221 -0.7363
10.3653 -11.3077 -0.5672
