ply
format ascii 1.0
element vertex 2076
property float32 x
property float32 y
property float32 z
end_header
8.5733 -13.1552 1.3575
9.8389 -12.4965 1.3750
10.2759 -10.8907 1.2945
10.2718 -9.1011 1.1865
10.2683 -7.5760 1.1032
10.2683 -6.2427 1.0389
10.3236 -5.0745 0.9945
11.9138 -4.5862 1.1037
11.9111 -3.4002 1.0709
11.9085 -2.2739 1.0481
11.9060 -1.1860 1.0344
11.9035 -0.1177 1.0292
11.9011 0.9482 1.0322
11.8986 2.0290 1.0435
11.8960 3.1429 1.0638
11.9073 4.3153 1.0950
21.9755 10.2673 2.0970
15.2553 8.8663 1.5255
19.7993 14.0118 2.0970
18.4694 15.7234 2.0970
16.9919 17.3094 2.0970
15.3748 18.7525 2.0965
12.3019 18.0841 1.8909
11.7580 21.1215 2.0899
9.7886 22.0040 2.0821
7.7806 22.7770 2.0809
3.5479 14.5118 1.2916
3.6132 23.8448 2.0850
0.8324 13.6313 1.1807
-0.3876 13.6431 1.1800
-2.8386 23.9857 2.0881
-4.9690 23.6386 2.0883
-7.0586 23.0979 2.0881
-5.9125 14.5498 1.3578
-6.7763 13.1645 1.2801
-9.5240 15.0313 1.5384
-10.5304 13.7332 1.4962
-15.2154 16.5452 1.9433
-16.4346 14.9416 1.9203
-17.5842 13.3248 1.9074
-18.5593 11.6115 1.8927
-19.3105 9.8010 1.8722
-19.8736 7.9441 1.8503
-20.1860 6.0432 1.8217
-20.4077 4.1685 1.8008
-20.2749 2.2823 1.7639
-19.9779 0.4535 1.7276
-19.5074 -1.3030 1.6903
-6.2616 -0.9854 0.5480
-5.9768 -1.4974 0.5327
-5.9804 -2.0811 0.5474
-5.9842 -2.7031 0.5677
-5.9883 -3.3785 0.5944
-5.9929 -4.1269 0.6291
-5.9981 -4.9752 0.6737
-12.5442 -12.4553 1.5283
-11.2108 -13.3218 1.5053
-9.8435 -14.0788 1.4852
-8.4480 -14.7284 1.4679
-7.0296 -15.2721 1.4535
-5.5929 -15.7116 1.4418
-4.1459 -16.0630 1.4342
-2.6857 -16.3107 1.4291
-1.2164 -16.4518 1.4262
0.2571 -16.4866 1.4255
1.7297 -16.4150 1.4270
3.1965 -16.2369 1.4307
4.6524 -15.9522 1.4366
6.0963 -15.5712 1.4457
7.5273 -15.0957 1.4583
8.2206 -13.3496 1.3554
9.4789 -12.6954 1.3698
10.2773 -11.4669 1.3313
10.2729 -9.5830 1.2146
10.2693 -7.9909 1.1249
10.2686 -6.6091 1.0557
10.3622 -5.4274 1.0113
11.9146 -4.9406 1.1151
11.9119 -3.7330 1.0792
11.9092 -2.5919 1.0537
11.9067 -1.4950 1.0375
11.9042 -0.4229 1.0298
11.9018 0.6420 1.0305
11.8993 1.7167 1.0394
11.8968 2.8191 1.0570
11.8941 3.9689 1.0840
22.2314 9.7009 2.0970
21.2765 11.6470 2.0970
9.1639 6.1390 0.9536
18.8661 15.2450 2.0970
17.4298 16.8684 2.0970
15.8542 18.3571 2.0970
14.1483 19.6939 2.0964
12.2967 20.8158 2.0902
10.3629 21.7749 2.0849
8.3587 22.5625 2.0802
6.3183 23.2450 2.0825
4.2219 23.7388 2.0845
2.0874 24.0391 2.0861
-0.0379 13.6397 1.1792
-2.2230 24.0490 2.0880
-4.3617 23.7581 2.0883
-6.4649 23.2724 2.0882
-5.9082 15.6796 1.4486
-6.3545 13.1633 1.2637
-7.8778 13.1678 1.3266
-9.9784 13.7278 1.4672
-15.2041 17.4076 1.9982
-16.0760 15.3860 1.9238
-17.2712 13.7982 1.9112
-18.3059 12.1164 1.8979
-19.1135 10.3251 1.8781
-19.7504 8.4879 1.8585
-20.1150 6.5879 1.8299
-20.3167 4.6951 1.8028
-20.3303 2.8176 1.7744
-20.0791 0.9710 1.7379
-19.6787 -0.8087 1.7027
-7.4721 -0.9804 0.6515
-5.9758 -1.3354 0.5294
-5.9794 -1.9104 0.5427
-5.9831 -2.5201 0.5613
-5.9871 -3.1784 0.5860
-5.9915 -3.9036 0.6182
-5.9965 -4.7199 0.6597
-12.9192 -12.1865 1.5354
-11.5967 -13.0847 1.5116
-10.2384 -13.8730 1.4906
-8.8505 -14.5531 1.4726
-7.4382 -15.1270 1.4573
-6.0063 -15.5962 1.4449
-4.5620 -15.9723 1.4361
-3.1054 -16.2506 1.4304
-1.6382 -16.4223 1.4268
-0.1654 -16.4875 1.4255
1.3080 -16.4464 1.4263
2.7770 -16.2988 1.4294
4.2365 -16.0447 1.4347
5.6831 -15.6883 1.4426
7.1190 -15.2426 1.4544
8.1964 -14.1074 1.4106
9.1167 -12.8862 1.3647
10.2787 -12.0773 1.3711
10.2741 -10.0885 1.2449
10.2703 -8.4228 1.1483
10.2670 -6.9863 1.0736
11.9130 -4.2312 1.1715
11.9103 -3.0652 1.1396
11.9078 -1.9522 1.1181
11.9053 -0.8718 1.1061
11.9028 0.1940 1.1031
11.9004 1.2624 1.1089
11.8979 2.3510 1.1238
11.8953 3.4783 1.1484
19.5394 7.6657 1.9449
20.2451 10.1128 2.0970
19.2614 11.8798 2.0970
18.1239 13.5519 2.0970
16.8417 15.1158 2.0970
15.4250 16.5590 2.0970
13.8800 17.8634 2.0962
12.1825 18.9574 2.0881
10.4130 19.9150 2.0824
8.5672 20.7017 2.0761
6.6925 21.4080 2.0784
3.1710 14.6193 1.3862
2.7835 22.2957 2.0820
0.4748 13.6339 1.2641
-0.7456 13.6457 1.2663
-3.2278 22.2636 2.0846
-5.2027 21.8871 2.0847
-5.9009 17.6428 1.7239
-5.9163 13.5322 1.3685
-7.2182 13.1641 1.3912
-9.4763 14.1241 1.5761
-11.1174 13.7383 1.6377
-15.1986 15.6823 2.0237
-15.5961 13.4506 1.9084
-16.6257 11.9264 1.8960
-17.4507 10.2923 1.8774
-18.1137 8.6048 1.8582
-18.5523 6.8583 1.8328
-18.8143 5.0998 1.8063
-18.9131 3.3499 1.7798
-18.7719 1.6167 1.7459
-18.4939 -0.0644 1.7137
-9.4874 -0.8837 0.8829
-5.9744 -1.1012 0.5629
-5.9779 -1.6651 0.5750
-5.9815 -2.2587 0.5925
-5.9854 -2.8946 0.6161
-5.9896 -3.5891 0.6470
-5.9943 -4.3636 0.6870
-5.9997 -5.2477 0.7386
-11.4828 -12.0147 1.5400
-10.2216 -12.8129 1.5188
-8.9271 -13.5080 1.5003
-7.6048 -14.1014 1.4846
-6.2599 -14.5943 1.4715
-4.8970 -14.9877 1.4611
-3.5205 -15.2828 1.4532
-2.1343 -15.4801 1.4480
-0.7425 -15.5803 1.4454
0.6514 -15.5836 1.4453
2.0435 -15.4900 1.4478
3.4302 -15.2993 1.4529
4.8077 -15.0109 1.4606
6.1718 -14.6241 1.4709
7.5182 -14.1380 1.4838
8.2081 -12.5792 1.3918
9.3117 -11.8132 1.3938
10.5035 -11.1193 1.4174
10.2718 -9.0908 1.2711
10.2683 -7.5670 1.1820
10.2682 -6.2348 1.1132
10.3355 -5.0731 1.0669
11.9138 -4.5785 1.1827
11.9111 -3.3930 1.1476
11.9085 -2.2670 1.1233
11.9060 -1.1792 1.1086
11.9035 -0.1110 1.1031
11.9011 0.9549 1.1063
11.8986 2.0359 1.1186
11.8960 3.1500 1.1403
11.9099 4.3238 1.1741
20.4975 9.5908 2.0970
15.2354 8.8661 1.6334
18.4652 13.0832 2.0970
17.2234 14.6794 2.0970
15.8442 16.1584 2.0970
14.3332 17.5020 2.0963
12.2929 18.0928 2.0269
10.9309 19.6617 2.0846
9.0916 20.4682 2.0753
7.2365 21.2230 2.0778
3.5391 14.5114 1.3841
3.3531 22.2125 2.0816
0.8247 13.6305 1.2654
-0.3952 13.6423 1.2647
-2.6563 22.3381 2.0845
-4.6403 22.0135 2.0847
-6.5863 21.5089 2.0844
-5.9126 14.5266 1.4533
-6.7848 13.1628 1.3722
-9.5242 15.0130 1.6475
-10.5423 13.7327 1.6043
-15.1889 16.4978 2.0780
-15.2731 13.8699 1.9118
-16.3478 12.3735 1.8998
-17.2308 10.7669 1.8828
-17.9405 9.0930 1.8638
-18.4464 7.3616 1.8404
-18.7562 5.6036 1.8139
-18.9244 3.8544 1.7896
-18.8282 2.1087 1.7556
-18.5787 0.4114 1.7220
-18.1401 -1.2219 1.6847
-6.2451 -0.9864 0.5859
-5.9768 -1.5010 0.5710
-5.9804 -2.0848 0.5869
-5.9842 -2.7071 0.6086
-5.9883 -3.3829 0.6373
-5.9929 -4.1319 0.6745
-5.9981 -4.9809 0.7225
-11.8419 -11.7712 1.5472
-10.5868 -12.5947 1.5246
-9.3012 -13.3193 1.5054
-7.9863 -13.9417 1.4888
-6.6474 -14.4632 1.4750
-5.2892 -14.8851 1.4638
-3.9162 -15.2082 1.4552
-2.5324 -15.4335 1.4492
-1.1418 -15.5615 1.4459
0.2519 -15.5926 1.4451
1.6449 -15.5268 1.4468
3.0336 -15.3639 1.4512
4.4141 -15.1036 1.4581
5.7824 -14.7451 1.4676
7.1344 -14.2876 1.4798
8.1941 -13.2898 1.4467
8.9703 -12.0001 1.3883
10.1518 -11.3142 1.4086
10.2729 -9.5721 1.3011
10.2693 -7.9816 1.2052
10.2686 -6.6009 1.1312
10.7946 -5.6461 1.1288
11.9146 -4.9327 1.1949
11.9118 -3.7257 1.1565
11.9092 -2.5849 1.1292
11.9067 -1.4882 1.1119
11.9042 -0.4162 1.1038
11.9018 0.6486 1.1045
11.8993 1.7235 1.1141
11.8968 2.8262 1.1331
11.8941 3.9763 1.1621
20.7365 9.0626 2.0970
19.8447 10.8776 2.0970
9.1454 6.1341 1.0204
17.5939 14.2333 2.0970
16.2530 15.7472 2.0970
14.7769 17.1291 2.0963
13.1723 18.3571 2.0937
11.4489 19.4055 2.0878
9.6226 20.2487 2.0774
7.7753 21.0239 2.0771
5.8736 21.6570 2.0793
3.9202 22.1144 2.0812
1.9316 22.3919 2.0826
-0.0456 13.6390 1.2638
-2.0830 22.3975 2.0844
-4.0748 22.1251 2.0847
-6.0334 21.6717 2.0846
-5.9083 15.6533 1.5504
-6.3628 13.1616 1.3546
-7.8868 13.1660 1.4222
-9.9899 13.7274 1.5732
-14.8063 16.9330 2.0843
-15.2111 14.5419 1.9500
-16.0549 12.8117 1.9033
-16.9976 11.2367 1.8881
-17.7538 9.5778 1.8693
-18.3265 7.8638 1.8479
-18.6845 6.1078 1.8215
-18.9089 4.3586 1.7981
-18.8719 2.6047 1.7653
-18.6653 0.8921 1.7316
-18.2902 -0.7619 1.6963
-7.4488 -0.9816 0.6962
-5.9759 -1.3390 0.5675
-5.9794 -1.9141 0.5818
-5.9831 -2.5240 0.6017
-5.9871 -3.1827 0.6283
-5.9915 -3.9084 0.6629
-5.9965 -4.7254 0.7075
-12.1979 -11.5191 1.5546
-10.9490 -12.3680 1.5306
-9.6729 -13.1221 1.5106
-8.3659 -13.7737 1.4933
-7.0333 -14.3240 1.4787
-5.6802 -14.7743 1.4667
-4.3110 -15.1256 1.4574
-2.9299 -15.3789 1.4507
-1.5408 -15.5348 1.4466
-0.1476 -15.5936 1.4450
1.2459 -15.5555 1.4460
2.6362 -15.4205 1.4497
4.0195 -15.1882 1.4558
5.3917 -14.8579 1.4646
6.7488 -14.4289 1.4761
8.0864 -13.9000 1.4901
8.6291 -12.1825 1.3834
9.8160 -11.5205 1.4025
10.2741 -10.0771 1.3335
10.2702 -8.4132 1.2302
10.2669 -6.9779 1.1503
10.2678 -5.7103 1.0887
11.9155 -5.2946 1.2082
11.9126 -4.0638 1.1663
11.9100 -2.9065 1.1360
11.9074 -1.7992 1.1159
11.9049 -0.7220 1.1052
11.9025 0.3432 1.1034
11.9000 1.4134 1.1105
11.8975 2.5062 1.1267
11.8949 3.6405 1.1527
19.4391 7.9088 1.9447
20.1168 10.3657 2.0970
9.4445 5.9897 1.0363
17.9527 13.7779 2.0970
9.2839 8.5449 1.1692
15.2164 16.7510 2.0970
13.0905 17.2901 2.0096
11.9435 19.1077 2.0880
10.1569 20.0326 2.0813
8.3086 20.8109 2.0764
6.4246 21.4933 2.0787
3.1708 15.5568 1.4712
2.5041 22.3310 2.0822
0.3038 13.6356 1.2638
-1.5085 22.4418 2.0842
-3.5066 22.2218 2.0846
-5.4764 21.8199 2.0846
-5.8650 16.8315 1.6516
-5.9512 13.1603 1.3384
-7.4345 13.1647 1.4010
-9.5359 13.8350 1.5570
-14.3659 17.3047 2.0841
-15.2029 15.2984 1.9986
-15.7497 13.2426 1.9068
-16.7511 11.7013 1.8934
-17.5536 10.0587 1.8747
-18.1927 8.3646 1.8555
-18.5991 6.6119 1.8291
-18.8378 4.8536 1.8026
-18.9028 3.1044 1.7751
-18.7398 1.3776 1.7412
-18.4297 -0.2951 1.7080
-9.4501 -0.9998 0.8806
-5.9749 -1.1789 0.5643
-5.9783 -1.7463 0.5771
-5.9820 -2.3449 0.5954
-5.9859 -2.9880 0.6199
-5.9902 -3.6922 0.6520
-5.9950 -4.4801 0.6935
-6.0005 -5.3826 0.7470
-11.3083 -12.1327 1.5369
-10.0421 -12.9165 1.5161
-8.7433 -13.5973 1.4980
-7.4176 -14.1765 1.4826
-6.0699 -14.6554 1.4699
-4.7048 -15.0350 1.4598
-3.3267 -15.3163 1.4524
-1.9395 -15.5000 1.4475
-0.5472 -15.5866 1.4452
0.8467 -15.5764 1.4455
2.2383 -15.4692 1.4484
3.6240 -15.2648 1.4538
4.9998 -14.9626 1.4618
6.3617 -14.5620 1.4725
7.7053 -14.0619 1.4858
8.2862 -12.3578 1.3787
9.4778 -11.7189 1.3966
10.2753 -10.6083 1.3685
10.2713 -8.8633 1.2571
10.2678 -7.3700 1.1712
10.2682 -6.0600 1.1048
10.2876 -4.8906 1.0555
11.9134 -4.4079 1.1771
11.9107 -3.2321 1.1436
11.9081 -2.1127 1.1207
11.9056 -1.0287 1.1073
11.9032 0.0381 1.1030
11.9007 1.1051 1.1075
11.8982 2.1896 1.1210
11.8956 3.3100 1.1442
19.6409 7.4103 1.9452
20.3758 9.8469 2.0970
15.0809 9.0310 1.6289
18.2998 13.3135 2.0970
17.0382 14.8941 2.0970
15.6405 16.3557 2.0970
14.1127 17.6802 2.0962
12.4301 18.7972 2.0882
10.6792 19.7888 2.0837
8.8359 20.5841 2.0757
6.9711 21.3152 2.0781
3.3471 14.5114 1.3800
3.0748 22.2551 2.0818
0.6535 13.6322 1.2647
-0.5665 13.6440 1.2654
-2.9360 22.3035 2.0846
-4.9157 21.9535 2.0847
-6.8550 21.4240 2.0844
-5.9144 14.0254 1.4105
-6.9952 13.1634 1.3813
-9.4020 14.4178 1.5950
-10.8206 13.7354 1.6203
-15.1937 16.0936 2.0509
-15.4325 13.6659 1.9101
-16.4866 12.1566 1.8981
-17.3400 10.5353 1.8801
-18.0269 8.8547 1.8611
-18.5000 7.1156 1.8367
-18.7863 5.3571 1.8102
-18.9205 3.6073 1.7848
-18.8022 1.8676 1.7509
-18.5456 0.1782 1.7186
-11.0756 -0.8856 1.0296
-5.9739 -1.0204 0.5616
-5.9773 -1.5810 0.5729
-5.9809 -2.1694 0.5895
-5.9848 -2.7982 0.6122
-5.9890 -3.4830 0.6420
-5.9936 -4.2441 0.6805
-5.9989 -5.1099 0.7302
-11.6666 -11.8913 1.5437
-10.4086 -12.7025 1.5217
-9.1186 -13.4126 1.5029
-7.8000 -14.0208 1.4867
-6.4581 -14.5283 1.4733
-5.0976 -14.9363 1.4624
-3.7228 -15.2457 1.4542
-2.3378 -15.4573 1.4486
-0.9465 -15.5717 1.4456
0.4473 -15.5892 1.4451
1.8399 -15.5098 1.4473
3.2277 -15.3333 1.4520
4.6067 -15.0593 1.4593
5.9730 -14.6870 1.4692
7.3223 -14.2154 1.4817
8.2011 -12.9355 1.4192
9.1375 -11.9097 1.3910
10.3152 -11.2104 1.4116
10.2724 -9.3339 1.2861
10.2688 -7.7768 1.1936
10.2684 -6.4204 1.1222
11.1318 -5.6460 1.1566
11.9142 -4.7586 1.1888
11.9115 -3.5623 1.1521
11.9089 -2.4290 1.1262
11.9063 -1.3369 1.1102
11.9039 -0.2669 1.1033
11.9014 0.7983 1.1053
11.8989 1.8759 1.1162
11.8964 2.9840 1.1365
11.8937 4.1425 1.1671
20.6213 9.3217 2.0970
19.7068 11.1254 2.0970
9.1463 6.3023 1.0293
17.4142 14.4526 2.0970
16.0544 15.9496 2.0970
14.5611 17.3129 2.0963
12.9263 18.4994 2.0912
11.2012 19.5410 2.0871
9.3570 20.3436 2.0750
7.5125 21.1230 2.0774
3.7411 14.5115 1.3887
3.6432 22.1642 2.0814
1.6510 22.4162 2.0828
-0.2165 13.6406 1.2642
-2.3636 22.3703 2.0845
-4.3517 22.0724 2.0847
-6.3043 21.5939 2.0845
-5.9105 15.0841 1.5012
-6.5678 13.1622 1.3631
-9.5199 15.4497 1.6816
-10.2574 13.7300 1.5881
-15.0103 16.7384 2.0834
-15.2163 14.1862 1.9277
-16.1997 12.5983 1.9016
-17.1133 11.0076 1.8855
-17.8468 9.3412 1.8666
-18.3869 7.6184 1.8443
-18.7213 5.8613 1.8178
-18.9250 4.1133 1.7946
-18.8521 2.3617 1.7606
-18.6244 0.6564 1.7269
-18.2181 -0.9878 1.6906
-6.8084 -0.9841 0.6374
-5.9763 -1.4179 0.5692
-5.9799 -1.9972 0.5842
-5.9836 -2.6130 0.6050
-5.9877 -3.2799 0.6326
-5.9922 -4.0167 0.6685
-5.9973 -4.8490 0.7147
-12.0241 -11.6435 1.5510
-10.7722 -12.4799 1.5277
-9.4914 -13.2196 1.5080
-8.1805 -13.8569 1.4911
-6.8448 -14.3931 1.4768
-5.4891 -14.8295 1.4653
-4.1180 -15.1670 1.4563
-2.7356 -15.4066 1.4500
-1.3457 -15.5488 1.4462
0.0478 -15.5941 1.4450
1.4411 -15.5425 1.4464
2.8306 -15.3939 1.4504
4.2125 -15.1478 1.4569
5.5830 -14.8038 1.4661
6.9376 -14.3608 1.4779
8.1865 -13.6749 1.4769
8.7960 -12.0940 1.3857
9.9806 -11.4205 1.4054
10.2735 -9.8270 1.3174
10.2698 -8.1999 1.2178
10.2665 -6.7911 1.1406
10.3247 -5.5737 1.0872
11.9150 -5.1166 1.2016
11.9122 -3.8977 1.1614
11.9096 -2.7488 1.1326
11.9071 -1.6468 1.1139
11.9046 -0.5723 1.1044
11.9021 0.4925 1.1038
11.8997 1.5648 1.1122
11.8971 2.6622 1.1297
11.8945 3.8041 1.1572
19.3379 8.1515 1.9446
19.9853 10.6169 2.0970
9.1694 5.9776 1.0143
17.7787 14.0018 2.0970
9.1326 8.6196 1.1636
15.0047 16.9397 2.0969
12.8967 17.4851 2.0133
11.7025 19.2550 2.0879
9.8996 20.1474 2.0801
8.0485 20.9168 2.0768
6.1558 21.5751 2.0790
4.2088 22.0586 2.0809
2.2244 22.3626 2.0824
0.1330 13.6372 1.2637
-1.7895 22.4220 2.0843
-3.7848 22.1763 2.0847
-5.7493 21.7493 2.0846
-5.9059 16.2893 1.6056
-6.1512 13.1609 1.3462
-7.6540 13.1653 1.4111
-9.7157 13.7247 1.5582
-14.5838 17.1260 2.0844
-15.2070 14.9239 1.9744
-15.9005 13.0328 1.9051
-16.8733 11.4748 1.8908
-17.6532 9.8240 1.8721
-18.2599 8.1199 1.8518
-18.6426 6.3654 1.8254
-18.8581 4.6077 1.7989
-18.8893 2.8596 1.7703
-18.7049 1.1396 1.7365
-18.3628 -0.5243 1.7023
-9.4502 -1.1197 0.8818
-5.9754 -1.2569 0.5658
-5.9788 -1.8280 0.5793
-5.9825 -2.4321 0.5984
-5.9865 -3.0826 0.6240
-5.9909 -3.7970 0.6572
-5.9958 -4.5988 0.7002
-12.3786 -11.3869 1.5585
-11.1330 -12.2489 1.5338
-9.8619 -13.0181 1.5134
-8.5590 -13.6846 1.4957
-7.2299 -14.2497 1.4807
-5.8795 -14.7146 1.4683
-4.5123 -15.0803 1.4586
-3.1327 -15.3479 1.4515
-1.7446 -15.5180 1.4470
-0.3518 -15.5910 1.4451
1.0420 -15.5672 1.4457
2.4330 -15.4464 1.4490
3.8175 -15.2283 1.4548
5.1916 -14.9124 1.4632
6.5512 -14.4979 1.4742
7.8919 -13.9837 1.4879
8.4542 -12.2731 1.3810
9.6435 -11.6228 1.3995
10.2747 -10.3451 1.3511
10.2708 -8.6408 1.2437
10.2674 -7.1765 1.1608
10.2681 -5.8877 1.0968
11.7070 -5.3866 1.1941
11.9130 -4.2388 1.1717
11.9103 -3.0723 1.1398
11.9078 -1.9590 1.1182
11.9053 -0.8785 1.1062
11.9028 0.1873 1.1031
11.9004 1.2557 1.1089
11.8979 2.3440 1.1237
11.8953 3.4710 1.1482
19.5438 7.6547 1.9450
20.2508 10.1014 2.0970
19.2681 11.8690 2.0970
18.1316 13.5418 2.0970
16.8502 15.1064 2.0970
15.4344 16.5503 2.0970
13.8900 17.8556 2.0962
12.1931 18.9506 2.0881
10.4247 19.9103 2.0826
8.5788 20.6967 2.0761
6.7044 21.4041 2.0784
3.1710 14.5799 1.3826
2.7960 22.2940 2.0820
0.4824 13.6339 1.2642
-0.7379 13.6456 1.2663
-3.2154 22.2654 2.0846
-5.1904 21.8900 2.0847
-5.9007 17.6755 1.7267
-5.9162 13.5528 1.3703
-7.2085 13.1640 1.3907
-9.4697 14.1315 1.5763
-11.1045 13.7382 1.6369
-15.1983 15.6998 2.0248
-15.5892 13.4598 1.9085
-16.6200 11.9365 1.8961
-17.4460 10.3028 1.8775
-18.1100 8.6156 1.8584
-18.5502 6.8693 1.8330
-18.8132 5.1108 1.8065
-18.9135 3.3610 1.7800
-18.7733 1.6275 1.7461
-18.4967 -0.0541 1.7140
-9.5462 -0.8838 0.8884
-5.9744 -1.0977 0.5629
-5.9778 -1.6615 0.5749
-5.9815 -2.2548 0.5923
-5.9853 -2.8904 0.6159
-5.9896 -3.5845 0.6468
-5.9943 -4.3584 0.6868
-5.9997 -5.2417 0.7382
-11.4907 -12.0094 1.5402
-10.2297 -12.8082 1.5189
-8.9354 -13.5040 1.5005
-7.6132 -14.0980 1.4847
-6.2684 -14.5915 1.4716
-4.9056 -14.9856 1.4611
-3.5292 -15.2812 1.4533
-2.1431 -15.4792 1.4480
-0.7512 -15.5800 1.4454
0.6426 -15.5839 1.4453
2.0348 -15.4909 1.4478
3.4216 -15.3008 1.4528
4.7991 -15.0130 1.4605
6.1632 -14.6269 1.4708
7.5098 -14.1414 1.4837
8.2078 -12.5943 1.3930
9.3042 -11.8173 1.3937
10.4950 -11.1229 1.4171
10.2718 -9.1011 1.2717
10.2683 -7.5760 1.1824
10.2683 -6.2427 1.1135
10.3236 -5.0745 1.0659
11.9138 -4.5862 1.1829
11.9111 -3.4002 1.1478
11.9085 -2.2739 1.1234
11.9060 -1.1860 1.1087
11.9035 -0.1177 1.1031
11.9011 0.9482 1.1063
11.8986 2.0290 1.1185
11.8960 3.1429 1.1402
11.9073 4.3153 1.1736
20.5029 9.5793 2.0970
15.2426 8.8589 1.6337
18.4725 13.0728 2.0970
17.2317 14.6697 2.0970
15.8533 16.1495 2.0970
14.3430 17.4940 2.0963
12.3018 18.0839 2.0267
10.9425 19.6566 2.0847
9.1030 20.4629 2.0753
7.2483 21.2188 2.0778
3.5478 14.5114 1.3843
3.3656 22.2105 2.0816
0.8324 13.6305 1.2654
-0.3876 13.6422 1.2647
-2.6438 22.3395 2.0845
-4.6279 22.0161 2.0847
-6.5742 21.5126 2.0844
-5.9125 14.5498 1.4553
-6.7754 13.1628 1.3718
-9.5240 15.0314 1.6489
-10.5300 13.7326 1.6036
-15.1887 16.5161 2.0792
-15.2658 13.8790 1.9118
-16.3415 12.3832 1.8999
-17.2258 10.7773 1.8829
-17.9366 9.1037 1.8639
-18.4439 7.3726 1.8406
-18.7548 5.6147 1.8141
-18.9245 3.8655 1.7898
-18.8293 2.1196 1.7558
-18.5807 0.4218 1.7222
-18.1435 -1.2119 1.6850
-6.2674 -0.9863 0.5879
-5.9768 -1.4974 0.5710
-5.9804 -2.0811 0.5868
-5.9842 -2.7031 0.6085
-5.9883 -3.3785 0.6371
-5.9929 -4.1269 0.6743
-5.9981 -4.9752 0.7221
-11.8497 -11.7658 1.5474
-10.5948 -12.5898 1.5247
-9.3094 -13.3150 1.5055
-7.9947 -13.9381 1.4889
-6.6559 -14.4603 1.4751
-5.2978 -14.8827 1.4639
-3.9249 -15.2065 1.4553
-2.5411 -15.4324 1.4493
-1.1505 -15.5610 1.4459
0.2431 -15.5927 1.4450
1.6361 -15.5275 1.4468
3.0249 -15.3652 1.4511
4.4054 -15.1055 1.4580
5.7739 -14.7477 1.4676
7.1259 -14.2907 1.4797
8.1938 -13.3059 1.4480
8.9628 -12.0041 1.3882
10.1445 -11.3188 1.4084
10.2729 -9.5830 1.3018
10.2693 -7.9909 1.2057
10.2686 -6.6091 1.1316
10.3622 -5.4274 1.0839
11.9146 -4.9406 1.1952
11.9119 -3.7330 1.1567
11.9092 -2.5919 1.1294
11.9067 -1.4950 1.1120
11.9042 -0.4229 1.1038
11.9018 0.6420 1.1045
11.8993 1.7167 1.1141
11.8968 2.8191 1.1329
11.8941 3.9689 1.1619
20.7416 9.0509 2.0970
19.8507 10.8665 2.0970
9.1468 6.1276 1.0202
17.6019 14.2234 2.0970
16.2618 15.7380 2.0970
14.7868 17.1212 2.0963
13.1832 18.3505 2.0938
11.4598 19.3991 2.0878
9.6346 20.2447 2.0776
7.7870 21.0194 2.0771
5.8857 21.6535 2.0793
3.9326 22.1121 2.0811
1.9442 22.3907 2.0826
-0.0379 13.6389 1.2638
-2.0704 22.3986 2.0844
-4.0624 22.1274 2.0847
-6.0212 21.6751 2.0846
-5.9082 15.6796 1.5527
-6.3537 13.1615 1.3543
-7.8767 13.1660 1.4217
-9.9780 13.7273 1.5726
-14.7971 16.9417 2.0844
-15.2109 14.5581 1.9510
-16.0483 12.8212 1.9034
-16.9923 11.2470 1.8882
-17.7496 9.5883 1.8694
-18.3238 7.8748 1.8481
-18.6827 6.1188 1.8217
-18.9064 4.3692 1.7981
-18.8727 2.6156 1.7655
-18.6670 0.9027 1.7318
-18.2934 -0.7518 1.6966
-7.4804 -0.9815 0.6991
-5.9758 -1.3354 0.5674
-5.9793 -1.9104 0.5817
-5.9831 -2.5201 0.6016
-5.9871 -3.1784 0.6281
-5.9915 -3.9035 0.6626
-5.9965 -4.7199 0.7071
-12.2057 -11.5135 1.5548
-10.9570 -12.3629 1.5308
-9.6810 -13.1177 1.5107
-8.3742 -13.7699 1.4934
-7.0418 -14.3208 1.4788
-5.6888 -14.7718 1.4668
-4.3197 -15.1237 1.4575
-2.9386 -15.3776 1.4507
-1.5495 -15.5341 1.4466
-0.1564 -15.5935 1.4450
1.2372 -15.5561 1.4460
2.6275 -15.4217 1.4496
4.0108 -15.1900 1.4558
5.3831 -14.8603 1.4646
6.7403 -14.4319 1.4760
8.0780 -13.9036 1.4900
8.6217 -12.1865 1.3833
9.8086 -11.5249 1.4023
10.2741 -10.0885 1.3343
10.2703 -8.4228 1.2308
10.2670 -6.9863 1.1507
11.9130 -4.2312 1.2501
11.9103 -3.0652 1.2161
11.9078 -1.9521 1.1932
11.9053 -0.8718 1.1804
11.9028 0.1940 1.1771
11.9004 1.2624 1.1833
11.8979 2.3510 1.1992
11.8953 3.4783 1.2255
18.3406 7.1954 1.9481
17.6103 8.7967 1.9465
16.7439 10.3271 1.9452
15.7502 11.7770 1.9446
15.7829 14.1655 2.0970
14.4547 15.5174 2.0969
12.9923 16.7209 2.0938
11.4052 17.7479 2.0860
9.7280 18.6051 2.0760
8.0185 19.3757 2.0735
6.2633 20.0353 2.0757
3.1710 14.6193 1.4792
2.6047 20.8638 2.0790
0.4747 13.6331 1.3489
-0.7455 13.6448 1.3512
-3.0203 20.8321 2.0814
-4.8681 20.4798 2.0815
-5.9009 17.6428 1.8395
-5.9163 13.5322 1.4604
-7.2172 13.1623 1.4843
-9.4606 14.1007 1.6790
-13.1695 16.2742 2.0701
-14.5923 15.0567 2.0733
-15.2031 13.1116 1.9851
-15.5051 11.1225 1.8868
-16.2852 9.6049 1.8695
-16.8969 8.0268 1.8497
-17.3115 6.3996 1.8250
-17.5723 4.7631 1.8003
-17.6369 3.1239 1.7711
-17.5278 1.5095 1.7396
-17.2722 -0.0602 1.7079
-9.4986 -0.8847 0.9433
-5.9744 -1.1012 0.6007
-5.9778 -1.6651 0.6136
-5.9815 -2.2587 0.6322
-5.9853 -2.8946 0.6574
-5.9896 -3.5891 0.6904
-5.9943 -4.3636 0.7331
-5.9997 -5.2477 0.7882
-10.8891 -11.3935 1.5584
-9.6906 -12.1473 1.5365
-8.4687 -12.8144 1.5188
-7.2182 -13.3845 1.5037
-5.9443 -13.8585 1.4911
-4.6518 -14.2372 1.4810
-3.3451 -14.5214 1.4735
-2.0284 -14.7116 1.4684
-0.7057 -14.8081 1.4659
0.6191 -14.8113 1.4658
1.9421 -14.7211 1.4682
3.2594 -14.5373 1.4731
4.5670 -14.2595 1.4805
5.8608 -13.8872 1.4904
7.1362 -13.4196 1.5029
8.1915 -12.5538 1.4822
8.8374 -11.2115 1.4116
9.9436 -10.5266 1.4318
10.2718 -9.0908 1.3563
10.2683 -7.5670 1.2612
10.2682 -6.2348 1.1878
10.3355 -5.0731 1.1385
11.9138 -4.5785 1.2620
11.9111 -3.3930 1.2246
11.9085 -2.2670 1.1987
11.9060 -1.1792 1.1830
11.9035 -0.1110 1.1771
11.9011 0.9549 1.1806
11.8986 2.0359 1.1936
11.8960 3.1500 1.2168
11.9099 4.3238 1.2529
17.8337 8.3444 1.9469
15.2227 8.8587 1.7416
16.0504 11.3722 1.9451
16.1406 13.7565 2.0970
14.8481 15.1426 2.0970
13.4308 16.4001 2.0961
11.8571 17.4513 2.0862
10.2172 18.3778 2.0792
8.5094 19.1576 2.0728
6.7726 19.8626 2.0751
3.5391 14.5111 1.4769
3.1378 20.7862 2.0786
0.8246 13.6297 1.3502
-0.3952 13.6415 1.3494
-2.4855 20.9018 2.0813
-4.3419 20.5980 2.0815
-6.1450 20.0677 2.0752
-5.7982 14.2457 1.5208
-6.7839 13.1611 1.4641
-11.1357 17.5533 2.0555
-10.8606 14.1473 1.7636
-14.2058 15.4299 2.0739
-15.1956 13.7995 2.0297
-15.2540 11.5456 1.8917
-16.0770 10.0459 1.8745
-16.7492 8.4892 1.8567
-17.2087 6.8676 1.8321
-17.5131 5.2322 1.8073
-17.6409 3.5930 1.7801
-17.5739 1.9682 1.7486
-17.3644 0.3845 1.7174
-16.9776 -1.1436 1.6826
-6.2509 -0.9873 0.6257
-5.9768 -1.5010 0.6093
-5.9804 -2.0848 0.6262
-5.9842 -2.7071 0.6494
-5.9883 -3.3829 0.6801
-5.9929 -4.1319 0.7198
-5.9981 -4.9809 0.7709
-11.2269 -11.1599 1.5653
-10.0360 -11.9395 1.5423
-8.8221 -12.6331 1.5236
-7.5792 -13.2310 1.5077
-6.3115 -13.7324 1.4944
-5.0239 -14.1384 1.4836
-3.7208 -14.4496 1.4754
-2.4065 -14.6666 1.4696
-1.0852 -14.7900 1.4664
0.2394 -14.8199 1.4656
1.5633 -14.7565 1.4673
2.8827 -14.5995 1.4715
4.1935 -14.3488 1.4782
5.4916 -14.0036 1.4873
6.7728 -13.5634 1.4991
8.0323 -13.0274 1.5133
8.5151 -11.3912 1.4063
9.6296 -10.7322 1.4258
10.7680 -10.0334 1.4553
10.2693 -7.9816 1.2861
10.2686 -6.6009 1.2071
10.5995 -5.5441 1.1828
11.9146 -4.9327 1.2751
11.9118 -3.7257 1.2341
11.9092 -2.5849 1.2050
11.9067 -1.4882 1.1865
11.9042 -0.4162 1.1778
11.9018 0.6486 1.1786
11.8993 1.7235 1.1889
11.8968 2.8262 1.2091
11.8941 3.9763 1.2401
18.0459 7.8867 1.9474
17.2568 9.4591 1.9459
9.1198 6.1169 1.0858
16.4878 13.3385 2.0970
15.2311 14.7572 2.0970
13.8466 16.0507 2.0961
12.3041 17.1472 2.0869
10.6957 18.1288 2.0813
8.9944 18.9268 2.0721
7.2771 19.6767 2.0744
5.4968 20.2678 2.0765
3.6685 20.6947 2.0782
1.8075 20.9534 2.0796
-0.0456 13.6381 1.3485
-1.9497 20.9580 2.0812
-3.8128 20.7024 2.0815
-5.6427 20.2683 2.0804
-5.9083 15.6532 1.6544
-6.3620 13.1598 1.4453
-7.8857 13.1642 1.5174
-9.9895 13.7268 1.6787
-13.8028 15.7853 2.0734
-15.1234 14.4581 2.0688
-15.2133 12.1401 1.9246
-15.8564 10.4823 1.8795
-16.5721 8.9403 1.8619
-17.0930 7.3345 1.8392
-17.4413 5.7014 1.8144
-17.6324 4.0643 1.7892
-17.6082 2.4303 1.7576
-17.4377 0.8334 1.7262
-17.1032 -0.7125 1.6926
-7.4569 -0.9827 0.7437
-5.9759 -1.3390 0.6055
-5.9794 -1.9141 0.6208
-5.9831 -2.5240 0.6421
-5.9871 -3.1827 0.6705
-5.9915 -3.9083 0.7073
-5.9965 -4.7254 0.7549
-11.5615 -10.9181 1.5724
-10.3808 -11.7262 1.5486
-9.1730 -12.4439 1.5286
-7.9382 -13.0695 1.5120
-6.6771 -13.5985 1.4980
-5.3947 -14.0318 1.4865
-4.0956 -14.3700 1.4775
-2.7841 -14.6140 1.4710
-1.4644 -14.7642 1.4670
-0.1403 -14.8209 1.4656
1.1841 -14.7842 1.4665
2.5052 -14.6541 1.4700
3.8189 -14.4302 1.4760
5.1211 -14.1122 1.4845
6.4076 -13.6993 1.4954
7.6738 -13.1908 1.5090
8.2185 -11.6028 1.4059
9.3131 -10.9303 1.4199
10.4120 -10.2124 1.4421
10.2702 -8.4132 1.3128
10.2669 -6.9779 1.2275
10.2678 -5.7103 1.1617
11.9155 -5.2946 1.2893
11.9126 -4.0638 1.2446
11.9100 -2.9065 1.2122
11.9074 -1.7992 1.1908
11.9049 -0.7220 1.1793
11.9025 0.3432 1.1774
11.9000 1.4134 1.1849
11.8975 2.5062 1.2022
11.8949 3.6405 1.2300
18.2466 7.4237 1.9478
17.4969 9.0157 1.9463
9.3527 5.9315 1.0951
15.6014 11.9734 1.9446
9.2839 8.5449 1.2476
14.2562 15.6940 2.0965
12.7706 16.8676 2.0920
11.1792 17.8850 2.0855
9.4809 18.6994 2.0731
7.7763 19.4777 2.0738
6.0126 20.1150 2.0759
3.1708 15.5567 1.5699
2.3433 20.8967 2.0792
0.3038 13.6347 1.3485
-1.4115 20.9991 2.0811
-3.2811 20.7930 2.0815
-5.1243 20.4170 2.0815
-5.8646 16.8305 1.7623
-5.9505 13.1586 1.4280
-7.4335 13.1629 1.4948
-9.5359 13.8351 1.6615
-13.3852 16.1233 2.0721
-14.7711 14.8639 2.0721
-15.2066 12.7859 1.9645
-15.6235 10.9136 1.8844
-16.3825 9.3876 1.8670
-16.9645 7.7999 1.8463
-17.3571 6.1704 1.8215
-17.5966 4.5338 1.7968
-17.6304 2.8954 1.7667
-17.5010 1.2865 1.7352
-17.2191 -0.2758 1.7028
-9.4501 -0.9998 0.9396
-5.9749 -1.1789 0.6022
-5.9783 -1.7463 0.6158
-5.9820 -2.3449 0.6353
-5.9859 -2.9880 0.6615
-5.9902 -3.6922 0.6958
-5.9950 -4.4801 0.7400
-6.0005 -5.3826 0.7971
-10.7229 -11.5047 1.5551
-9.5213 -12.2466 1.5339
-8.2950 -12.9001 1.5165
-7.0410 -13.4567 1.5017
-5.7642 -13.9173 1.4895
-4.4694 -14.2828 1.4798
-3.1611 -14.5537 1.4726
-1.8433 -14.7307 1.4679
-0.5200 -14.8142 1.4657
0.8047 -14.8043 1.4660
2.1272 -14.7010 1.4688
3.4434 -14.5040 1.4740
4.7493 -14.2130 1.4818
6.0407 -13.8274 1.4920
7.3132 -13.3464 1.5048
8.1982 -12.2265 1.4556
8.9942 -11.1210 1.4143
10.0962 -10.4233 1.4349
10.2713 -8.8633 1.3415
10.2678 -7.3700 1.2497
10.2681 -6.0599 1.1789
10.2876 -4.8906 1.1263
11.9134 -4.4079 1.2560
11.9107 -3.2321 1.2203
11.9081 -2.1127 1.1959
11.9056 -1.0287 1.1816
11.9032 0.0381 1.1770
11.9007 1.1051 1.1818
11.8982 2.1896 1.1963
11.8956 3.3100 1.2209
18.4357 6.9556 1.9484
17.7258 8.5663 1.9467
15.0728 9.0262 1.7372
15.9030 11.5698 1.9446
15.9670 13.9577 2.0970
14.6571 15.3274 2.0970
13.2191 16.5606 2.0952
11.6371 17.5979 2.0861
9.9792 18.4919 2.0777
8.2701 19.2659 2.0731
6.5242 19.9487 2.0754
3.3470 14.5111 1.4725
2.8774 20.8259 2.0788
0.6535 13.6314 1.3494
-0.5664 13.6431 1.3502
-2.7472 20.8695 2.0814
-4.5997 20.5419 2.0815
-6.3881 19.9647 2.0727
-5.8929 13.9742 1.4996
-6.9943 13.1617 1.4738
-9.3705 14.3695 1.6963
-11.0405 14.0146 1.7641
-14.3993 15.2521 2.0741
-15.1993 13.4594 2.0075
-15.3828 11.3428 1.8899
-16.1803 9.8308 1.8721
-16.8230 8.2633 1.8533
-17.2605 6.6389 1.8286
-17.5436 5.0028 1.8039
-17.6405 3.3633 1.7757
-17.5528 1.7435 1.7442
-17.3251 0.1665 1.7132
-11.0909 -0.8868 1.1002
-5.9739 -1.0204 0.5993
-5.9773 -1.5810 0.6114
-5.9809 -2.1694 0.6291
-5.9848 -2.7982 0.6533
-5.9889 -3.4830 0.6850
-5.9936 -4.2441 0.7262
-5.9989 -5.1099 0.7792
-11.0621 -11.2751 1.5619
-9.8668 -12.0413 1.5393
-8.6496 -12.7228 1.5212
-7.4029 -13.3070 1.5057
-6.1321 -13.7951 1.4928
-4.8421 -14.1877 1.4823
-3.5372 -14.4857 1.4744
-2.2217 -14.6896 1.4690
-0.8996 -14.7998 1.4661
0.4251 -14.8167 1.4657
1.7486 -14.7401 1.4677
3.0670 -14.5701 1.4723
4.3763 -14.3061 1.4793
5.6723 -13.9476 1.4888
6.9507 -13.4941 1.5009
8.1842 -12.9088 1.5113
8.6730 -11.3043 1.4088
9.7835 -10.6326 1.4287
10.2724 -9.3339 1.3724
10.2688 -7.7768 1.2737
10.2684 -6.4204 1.1975
10.6673 -5.4104 1.1827
11.9142 -4.7586 1.2686
11.9115 -3.5623 1.2294
11.9089 -2.4290 1.2018
11.9063 -1.3369 1.1847
11.9039 -0.2669 1.1774
11.9014 0.7983 1.1795
11.8989 1.8759 1.1911
11.8964 2.9840 1.2128
11.8937 4.1425 1.2453
17.9436 8.1112 1.9471
15.4547 8.7249 1.7549
9.1078 6.2757 1.0937
16.3194 13.5440 2.0970
15.0450 14.9469 2.0970
13.6444 16.2229 2.0961
12.0850 17.2952 2.0863
10.4658 18.2581 2.0809
8.7580 19.0413 2.0724
7.0310 19.7692 2.0747
3.7410 14.5111 1.4818
3.4093 20.7412 2.0784
1.5449 20.9761 2.0797
-0.2165 13.6397 1.3489
-2.2116 20.9320 2.0813
-4.0719 20.6531 2.0815
-5.8892 20.1720 2.0779
-5.9105 15.0841 1.6019
-6.5670 13.1604 1.4543
-10.9091 17.7042 2.0563
-10.2570 13.7294 1.6946
-14.0011 15.6129 2.0736
-15.1915 14.1631 2.0537
-15.2193 11.8358 1.9064
-15.9658 10.2695 1.8771
-16.6603 8.7201 1.8594
-17.1512 7.1064 1.8357
-17.4780 5.4720 1.8110
-17.6381 3.8336 1.7848
-17.5929 2.2039 1.7532
-17.4026 0.6134 1.7218
-17.0430 -0.9241 1.6877
-6.8152 -0.9851 0.6809
-5.9763 -1.4179 0.6073
-5.9799 -1.9972 0.6234
-5.9836 -2.6130 0.6456
-5.9877 -3.2799 0.6751
-5.9922 -4.0167 0.7133
-5.9973 -4.8490 0.7626
-11.3983 -11.0374 1.5689
-10.2125 -11.8315 1.5454
-9.0017 -12.5374 1.5261
-7.7629 -13.1495 1.5099
-6.4986 -13.6650 1.4962
-5.2135 -14.0849 1.4851
-3.9124 -14.4099 1.4764
-2.5996 -14.6407 1.4703
-1.2790 -14.7778 1.4667
0.0454 -14.8214 1.4655
1.3696 -14.7716 1.4669
2.6899 -14.6284 1.4707
4.0022 -14.3914 1.4770
5.3025 -14.0601 1.4858
6.5864 -13.6338 1.4972
7.8494 -13.1119 1.5111
8.3496 -11.4802 1.4036
9.4682 -10.8343 1.4227
10.5861 -10.1261 1.4485
10.2698 -8.1999 1.2995
10.2665 -6.7911 1.2172
10.3247 -5.5737 1.1602
11.9150 -5.1166 1.2822
11.9122 -3.8977 1.2393
11.9096 -2.7488 1.2086
11.9071 -1.6468 1.1886
11.9046 -0.5723 1.1785
11.9021 0.4925 1.1779
11.8997 1.5648 1.1868
11.8971 2.6622 1.2055
11.8945 3.8041 1.2348
18.1499 7.6507 1.9476
17.3808 9.2333 1.9461
9.1417 5.9595 1.0790
16.6610 13.1215 2.0970
9.1326 8.6196 1.2417
14.0555 15.8681 2.0961
12.5439 17.0068 2.0896
10.9424 18.0043 2.0833
9.2397 18.8041 2.0717
7.5329 19.5766 2.0741
5.7610 20.1914 2.0762
3.9386 20.6426 2.0780
2.0815 20.9262 2.0794
0.1330 13.6364 1.3484
-1.6745 20.9805 2.0812
-3.5415 20.7504 2.0815
-5.3796 20.3509 2.0814
-5.9059 16.2893 1.7133
-6.1504 13.1592 1.4363
-7.6530 13.1635 1.5056
-9.7154 13.7242 1.6627
-13.5931 15.9625 2.0731
-14.9448 14.6666 2.0705
-15.2099 12.4667 1.9446
-15.7389 10.7033 1.8820
-16.4768 9.1693 1.8645
-17.0290 7.5726 1.8428
-17.3998 5.9410 1.8180
-17.6231 4.3059 1.7938
-17.6211 2.6676 1.7622
-17.4715 1.0645 1.7308
-17.1636 -0.4901 1.6978
-9.4502 -1.1197 0.9410
-5.9753 -1.2569 0.6038
-5.9788 -1.8280 0.6182
-5.9825 -2.4321 0.6386
-5.9865 -3.0826 0.6658
-5.9909 -3.7970 0.7013
-5.9958 -4.5988 0.7472
-6.0014 -5.5206 0.8063
-10.5559 -11.6140 1.5519
-9.3513 -12.3441 1.5313
-8.1208 -12.9839 1.5143
-6.8633 -13.5270 1.4999
-5.5837 -13.9743 1.4880
-4.2867 -14.3264 1.4787
-2.9768 -14.5842 1.4718
-1.6580 -14.7481 1.4675
-0.3343 -14.8184 1.4656
0.9903 -14.7954 1.4662
2.3121 -14.6790 1.4694
3.6271 -14.4689 1.4750
4.9313 -14.1647 1.4831
6.2203 -13.7657 1.4937
7.4898 -13.2713 1.5068
8.2046 -11.9108 1.4301
9.1505 -11.0286 1.4170
10.2481 -10.3183 1.4380
10.2708 -8.6408 1.3272
10.2674 -7.1765 1.2387
10.2680 -5.8876 1.1704
11.7070 -5.3866 1.2742
11.9130 -4.2388 1.2503
11.9103 -3.0723 1.2162
11.9078 -1.9590 1.1933
11.9053 -0.8785 1.1804
11.9028 0.1873 1.1771
11.9004 1.2557 1.1832
11.8979 2.3440 1.1991
11.8953 3.4710 1.2253
18.3447 7.1851 1.9481
17.6153 8.7868 1.9465
16.7498 10.3178 1.9452
15.7568 11.7681 1.9446
15.7909 14.1566 2.0970
14.4635 15.5093 2.0969
13.0021 16.7141 2.0939
11.4152 17.7416 2.0861
9.7388 18.6001 2.0760
8.0294 19.3711 2.0734
6.2745 20.0317 2.0756
3.1710 14.5798 1.4754
2.6164 20.8622 2.0790
0.4824 13.6330 1.3489
-0.7378 13.6447 1.3512
-3.0086 20.8338 2.0814
-4.8566 20.4825 2.0815
-5.9007 17.6755 1.8426
-5.9162 13.5528 1.4622
-7.2076 13.1623 1.4838
-9.4539 14.1079 1.6792
-13.1598 16.2809 2.0700
-14.5841 15.0653 2.0733
-15.2029 13.1264 1.9861
-15.4997 11.1319 1.8869
-16.2807 9.6146 1.8696
-16.8938 8.0370 1.8499
-17.3094 6.4098 1.8251
-17.5711 4.7734 1.8004
-17.6371 3.1342 1.7713
-17.5289 1.5196 1.7398
-17.2745 -0.0505 1.7081
-9.5575 -0.8848 0.9491
-5.9744 -1.0977 0.6006
-5.9778 -1.6615 0.6135
-5.9814 -2.2548 0.6321
-5.9853 -2.8904 0.6572
-5.9896 -3.5845 0.6902
-5.9943 -4.3584 0.7328
-5.9997 -5.2417 0.7878
-10.8966 -11.3884 1.5585
-9.6982 -12.1427 1.5366
-8.4765 -12.8105 1.5189
-7.2261 -13.3812 1.5037
-5.9524 -13.8558 1.4911
-4.6600 -14.2352 1.4811
-3.3534 -14.5199 1.4735
-2.0366 -14.7107 1.4685
-0.7140 -14.8078 1.4659
0.6108 -14.8116 1.4658
1.9338 -14.7219 1.4682
3.2512 -14.5387 1.4731
4.5589 -14.2615 1.4805
5.8527 -13.8898 1.4904
7.1282 -13.4228 1.5028
8.1912 -12.5688 1.4834
8.8304 -11.2155 1.4115
9.9367 -10.5312 1.4317
10.2718 -9.1011 1.3570
10.2683 -7.5760 1.2618
10.2683 -6.2427 1.1882
10.3236 -5.0745 1.1374
11.9138 -4.5862 1.2623
11.9111 -3.4002 1.2248
11.9085 -2.2739 1.1988
11.9060 -1.1860 1.1831
11.9035 -0.1177 1.1771
11.9011 0.9482 1.1805
11.8986 2.0290 1.1935
11.8960 3.1429 1.2166
11.9073 4.3153 1.2523
17.8385 8.3344 1.9469
15.2299 8.8515 1.7418
16.0582 11.3642 1.9452
16.1484 13.7474 2.0970
14.8566 15.1342 2.0970
13.4400 16.3926 2.0961
11.8669 17.4447 2.0862
10.2276 18.3723 2.0792
8.5202 19.1527 2.0728
6.7837 19.8587 2.0750
3.5477 14.5111 1.4771
3.1494 20.7843 2.0786
0.8323 13.6296 1.3502
-0.3876 13.6414 1.3494
-2.4738 20.9032 2.0813
-4.3303 20.6005 2.0815
-6.1340 20.0723 2.0754
-5.8032 14.2809 1.5242
-6.7745 13.1610 1.4637
-11.1260 17.5598 2.0555
-10.8548 14.1563 1.7639
-14.1971 15.4378 2.0739
-15.1954 13.8149 2.0307
-15.2484 11.5548 1.8918
-16.0722 10.0555 1.8746
-16.7455 8.4991 1.8569
-17.2063 6.8779 1.8323
-17.5117 5.2425 1.8075
-17.6408 3.6033 1.7803
-17.5747 1.9784 1.7488
-17.3661 0.3943 1.7176
-16.9805 -1.1342 1.6828
-6.2732 -0.9872 0.6279
-5.9768 -1.4974 0.6093
-5.9804 -2.0811 0.6261
-5.9842 -2.7031 0.6493
-5.9883 -3.3785 0.6799
-5.9929 -4.1269 0.7195
-5.9980 -4.9752 0.7706
-11.2342 -11.1547 1.5654
-10.0436 -11.9349 1.5424
-8.8298 -12.6291 1.5237
-7.5871 -13.2275 1.5078
-6.3196 -13.7296 1.4945
-5.0321 -14.1361 1.4837
-3.7291 -14.4479 1.4754
-2.4148 -14.6656 1.4697
-1.0935 -14.7895 1.4664
0.2311 -14.8200 1.4656
1.5550 -14.7572 1.4673
2.8744 -14.6008 1.4714
4.1853 -14.3506 1.4781
5.4835 -14.0060 1.4873
6.7648 -13.5665 1.4990
8.0245 -13.0310 1.5132
8.5080 -11.3951 1.4062
9.6227 -10.7366 1.4256
10.7601 -10.0374 1.4550
10.2693 -7.9909 1.2866
10.2686 -6.6091 1.2075
10.3622 -5.4274 1.1567
11.9146 -4.9406 1.2754
11.9119 -3.7330 1.2343
11.9092 -2.5919 1.2052
11.9067 -1.4950 1.1866
11.9042 -0.4229 1.1778
11.9018 0.6420 1.1786
11.8993 1.7167 1.1888
11.8968 2.8191 1.2089
11.8941 3.9689 1.2398
18.0505 7.8765 1.9474
17.2622 9.4495 1.9459
9.1198 6.1095 1.0854
16.4953 13.3292 2.0970
15.2395 14.7486 2.0970
13.8556 16.0430 2.0961
12.3144 17.1412 2.0870
10.7059 18.1229 2.0813
9.0050 18.9216 2.0721
7.2881 19.6725 2.0744
5.5082 20.2646 2.0765
3.6801 20.6926 2.0782
1.8193 20.9523 2.0796
-0.0379 13.6380 1.3485
-1.9373 20.9586 2.0812
-3.8011 20.7046 2.0815
-5.6315 20.2725 2.0805
-5.9082 15.6796 1.6568
-6.3528 13.1598 1.4449
-7.8757 13.1641 1.5168
-9.9776 13.7267 1.6780
-13.7938 15.7930 2.0734
-15.1158 14.4671 2.0689
-15.2131 12.1540 1.9254
-15.8514 10.4918 1.8796
-16.5681 8.9501 1.8620
-17.0903 7.3447 1.8393
-17.4396 5.7117 1.8146
-17.6320 4.0747 1.7894
-17.6088 2.4404 1.7578
-17.4392 0.8433 1.7264
-17.1058 -0.7030 1.6929
-7.4886 -0.9826 0.7468
-5.9758 -1.3354 0.6055
-5.9793 -1.9104 0.6207
-5.9831 -2.5201 0.6419
-5.9871 -3.1784 0.6703
-5.9915 -3.9035 0.7071
-5.9965 -4.7199 0.7546
-11.5688 -10.9128 1.5726
-10.3884 -11.7214 1.5487
-9.1806 -12.4397 1.5287
-7.9460 -13.0659 1.5121
-6.6851 -13.5955 1.4980
-5.4029 -14.0293 1.4865
-4.1039 -14.3682 1.4775
-2.7924 -14.6128 1.4711
-1.4727 -14.7636 1.4671
-0.1487 -14.8208 1.4656
1.1758 -14.7848 1.4665
2.4970 -14.6552 1.4700
3.8107 -14.4319 1.4759
5.1130 -14.1145 1.4844
6.3995 -13.7022 1.4954
7.6659 -13.1943 1.5089
8.2173 -11.6149 1.4068
9.3061 -10.9345 1.4198
10.4042 -10.2162 1.4418
10.2703 -8.4228 1.3134
10.2670 -6.9863 1.2279
11.9130 -4.2312 1.3287
11.9103 -3.0652 1.2926
11.9078 -1.9521 1.2683
11.9053 -0.8718 1.2546
11.9028 0.1940 1.2512
11.9004 1.2624 1.2578
11.8979 2.3510 1.2747
11.8953 3.4783 1.3026
17.1273 6.7194 1.9337
16.5920 8.2880 1.9493
15.2536 9.4079 1.8836
14.8175 11.0796 1.9446
13.7692 12.3582 1.9446
13.5921 14.5914 2.0959
12.1887 15.6867 2.0879
10.6972 16.6462 2.0797
9.1204 17.4429 2.0688
7.5353 18.2081 2.0712
5.8855 18.8267 2.0732
3.1710 14.6192 1.5723
2.4474 19.6033 2.0764
0.4747 13.6322 1.4337
-0.7455 13.6440 1.4362
-2.8376 19.5722 2.0786
-4.5615 19.1898 2.0731
-6.2202 18.5975 2.0611
-5.9163 13.5322 1.5523
-7.2162 13.1605 1.5775
-9.4643 14.1062 1.7854
-12.3250 15.2306 2.0593
-13.6653 14.1003 2.0638
-14.8092 12.7720 2.0554
-15.2035 10.9062 1.9666
-15.2645 9.0029 1.8626
-15.8302 7.5201 1.8420
-16.2323 6.0006 1.8189
-16.4895 4.4696 1.7957
-16.5500 2.9314 1.7666
-16.4690 1.4183 1.7374
-16.2502 -0.0566 1.7080
-9.5098 -0.8858 1.0038
-5.9744 -1.1012 0.6385
-5.9778 -1.6651 0.6522
-5.9815 -2.2587 0.6720
-5.9853 -2.8946 0.6988
-5.9896 -3.5891 0.7339
-5.9943 -4.3636 0.7793
-5.9997 -5.2477 0.8378
-10.3532 -10.8327 1.5749
-9.2183 -11.5552 1.5536
-8.0546 -12.1878 1.5354
-6.8686 -12.7362 1.5209
-5.6587 -13.1926 1.5088
-4.4297 -13.5575 1.4991
-3.1862 -13.8315 1.4918
-1.9323 -14.0149 1.4870
-0.6723 -14.1081 1.4845
0.5899 -14.1111 1.4844
1.8501 -14.0241 1.4868
3.1046 -13.8468 1.4915
4.3490 -13.5789 1.4986
5.5793 -13.2202 1.5082
6.7907 -12.7699 1.5201
7.9787 -12.2276 1.5346
8.4086 -10.6676 1.4276
9.4546 -10.0089 1.4471
10.4825 -9.2773 1.4713
10.2683 -7.5670 1.3406
10.2682 -6.2348 1.2626
10.3356 -5.0731 1.2101
11.9138 -4.5785 1.3415
11.9111 -3.3930 1.3017
11.9085 -2.2670 1.2741
11.9060 -1.1792 1.2575
11.9035 -0.1110 1.2512
11.9011 0.9549 1.2549
11.8986 2.0359 1.2688
11.8960 3.1500 1.2934
11.9099 4.3238 1.3317
16.8023 7.8618 1.9498
15.2044 8.8481 1.8489
15.1195 10.7126 1.9476
14.0813 12.0014 1.9446
13.9683 14.2453 2.0969
12.6125 15.4009 2.0922
11.1427 16.3998 2.0839
9.5792 17.2304 2.0720
7.9968 18.0035 2.0705
6.3642 18.6647 2.0727
3.5390 14.5108 1.5698
2.9482 19.5306 2.0760
0.8246 13.6288 1.4351
-0.3952 13.6406 1.4343
-2.3352 19.6377 2.0786
-4.0770 19.3415 2.0775
-5.7459 18.7646 2.0626
-5.7651 14.1643 1.6073
-6.7830 13.1593 1.5560
-10.4481 16.4694 2.0499
-10.8862 14.1806 1.8790
-13.3008 14.4470 2.0640
-14.4956 13.1638 2.0580
-15.1977 11.5029 2.0033
-15.2161 9.5080 1.8858
-15.6880 7.9513 1.8486
-16.1320 6.4379 1.8256
-16.4305 4.9088 1.8023
-16.5485 3.3705 1.7750
-16.5057 1.8486 1.7457
-16.3320 0.3616 1.7170
-15.9871 -1.0768 1.6841
-6.2566 -0.9882 0.6658
-5.9768 -1.5010 0.6477
-5.9804 -2.0848 0.6657
-5.9842 -2.7071 0.6903
-5.9883 -3.3829 0.7229
-5.9929 -4.1319 0.7651
-5.9981 -4.9809 0.8194
-10.6720 -10.6083 1.5816
-9.5470 -11.3577 1.5594
-8.3895 -12.0136 1.5401
-7.2112 -12.5885 1.5248
-6.0076 -13.0712 1.5120
-4.7836 -13.4623 1.5016
-3.5438 -13.7622 1.4937
-2.2925 -13.9716 1.4881
-1.0339 -14.0906 1.4850
0.2281 -14.1194 1.4842
1.4894 -14.0582 1.4858
2.7459 -13.9068 1.4899
3.9936 -13.6650 1.4963
5.2284 -13.3323 1.5052
6.4457 -12.9084 1.5165
7.6409 -12.3925 1.5302
8.2081 -10.9805 1.4409
9.1580 -10.2065 1.4413
10.1807 -9.4862 1.4626
10.2693 -7.9816 1.3670
10.2686 -6.6009 1.2830
10.2994 -5.3871 1.2216
11.9146 -4.9327 1.3554
11.9118 -3.7257 1.3118
11.9092 -2.5849 1.2809
11.9067 -1.4882 1.2612
11.9042 -0.4162 1.2519
11.9018 0.6486 1.2528
11.8993 1.7235 1.2637
11.8968 2.8262 1.2852
11.8941 3.9763 1.3181
16.9261 7.3973 1.9415
16.2592 8.9123 1.9488
9.1006 6.1040 1.1517
14.3841 11.6367 1.9446
13.2846 12.8712 1.9441
13.0201 15.0927 2.0950
11.5624 16.1136 2.0845
10.0355 17.0099 2.0758
8.4527 17.7870 2.0698
6.8383 18.4904 2.0721
5.1651 19.0447 2.0740
3.4470 19.4449 2.0756
1.6983 19.6872 2.0769
-0.0456 13.6372 1.4333
-1.8312 19.6901 2.0784
-3.5822 19.4503 2.0787
-5.2727 18.9392 2.0663
-5.9083 15.6532 1.7585
-6.3611 13.1581 1.5361
-7.8846 13.1624 1.6126
-11.4716 15.7634 2.0491
-12.9237 14.7800 2.0636
-14.1700 13.5465 2.0604
-15.1914 12.1226 2.0427
-15.2113 10.0559 1.9165
-15.5337 8.3801 1.8551
-16.0197 6.8740 1.8322
-16.3597 5.3478 1.8090
-16.5356 3.8115 1.7835
-16.5317 2.2817 1.7540
-16.3947 0.7836 1.7251
-16.0998 -0.6707 1.6936
-7.4651 -0.9838 0.7914
-5.9758 -1.3390 0.6437
-5.9794 -1.9141 0.6599
-5.9831 -2.5240 0.6825
-5.9871 -3.1827 0.7127
-5.9915 -3.9083 0.7519
-5.9965 -4.7254 0.8024
-10.9876 -10.3762 1.5884
-9.8730 -11.1525 1.5655
-8.7242 -11.8351 1.5454
-7.5517 -12.4332 1.5289
-6.3549 -12.9422 1.5154
-5.1363 -13.3595 1.5043
-3.9006 -13.6856 1.4957
-2.6521 -13.9208 1.4894
-1.3951 -14.0657 1.4856
-0.1337 -14.1204 1.4842
1.1281 -14.0850 1.4851
2.3865 -13.9595 1.4885
3.6372 -13.7436 1.4942
4.8761 -13.4370 1.5024
6.0989 -13.0392 1.5130
7.3009 -12.5498 1.5260
8.1955 -11.5703 1.4902
8.8588 -10.3970 1.4356
9.8912 -9.7015 1.4562
10.9718 -8.9879 1.4907
10.2669 -6.9779 1.3047
10.2678 -5.7103 1.2349
11.9155 -5.2946 1.3704
11.9126 -4.0638 1.3229
11.9100 -2.9065 1.2885
11.9074 -1.7992 1.2657
11.9049 -0.7220 1.2536
11.9025 0.3432 1.2515
11.9000 1.4134 1.2595
11.8975 2.5062 1.2779
11.8949 3.6405 1.3074
17.0648 6.9428 1.9364
16.4853 8.4944 1.9492
9.3388 5.9226 1.1623
14.6775 11.2643 1.9446
9.2839 8.5449 1.3262
13.4081 14.7604 2.0959
11.9772 15.8198 2.0855
10.4845 16.7736 2.0790
8.9026 17.5587 2.0692
7.3077 18.3037 2.0715
5.6499 18.9014 2.0735
3.1708 15.5566 1.6687
2.2017 19.6341 2.0766
0.3038 13.6339 1.4333
-0.9544 14.1993 1.4958
-3.0827 19.5354 2.0787
-4.7965 19.1107 2.0709
-5.8775 16.8673 1.8774
-5.9497 13.1569 1.5177
-7.4325 13.1611 1.5886
-9.6554 14.0084 1.7882
-12.5260 15.0885 2.0611
-13.8337 13.9206 2.0627
-14.9568 12.5759 2.0539
-15.2062 10.6221 1.9496
-15.3570 8.8000 1.8603
-15.8954 7.3083 1.8388
-16.2770 5.7864 1.8157
-16.5112 4.2541 1.7921
-16.5467 2.7174 1.7624
-16.4471 1.2091 1.7333
-16.2031 -0.2595 1.7032
-9.4501 -0.9998 0.9988
-5.9749 -1.1789 0.6401
-5.9783 -1.7463 0.6546
-5.9820 -2.3449 0.6753
-5.9859 -2.9880 0.7032
-5.9902 -3.6922 0.7396
-5.9950 -4.4801 0.7866
-6.0005 -5.3826 0.8472
-10.1962 -10.9396 1.5718
-9.0566 -11.6490 1.5508
-7.8900 -12.2702 1.5333
-6.7003 -12.8057 1.5190
-5.4875 -13.2493 1.5073
-4.2562 -13.6014 1.4979
-3.0110 -13.8627 1.4910
-1.7560 -14.0334 1.4865
-0.4955 -14.1139 1.4843
0.7667 -14.1043 1.4846
2.0264 -14.0047 1.4873
3.2797 -13.8147 1.4923
4.5224 -13.5342 1.4998
5.7503 -13.1626 1.5097
6.9588 -12.6995 1.5220
8.1430 -12.1442 1.5368
8.5570 -10.5804 1.4302
9.5986 -9.9097 1.4500
10.6435 -9.1845 1.4776
10.2678 -7.3700 1.3284
10.2681 -6.0599 1.2531
10.2876 -4.8906 1.1972
11.9134 -4.4079 1.3351
11.9107 -3.2321 1.2971
11.9081 -2.1127 1.2711
11.9056 -1.0287 1.2560
11.9032 0.0381 1.2511
11.9007 1.1051 1.2562
11.8982 2.1896 1.2716
11.8956 3.3100 1.2978
17.1888 6.4852 1.9309
16.7007 8.0709 1.9496
15.0323 9.0019 1.8416
14.9613 10.8846 1.9446
13.9298 12.1768 1.9446
13.7866 14.4170 2.0966
12.4071 15.5434 2.0903
10.9256 16.5220 2.0819
9.3490 17.3239 2.0690
7.7718 18.1050 2.0708
6.1306 18.7455 2.0729
3.3469 14.5107 1.5652
2.7035 19.5678 2.0762
0.6534 13.6305 1.4343
-0.5664 13.6422 1.4351
-2.5811 19.6073 2.0786
-4.3147 19.2692 2.0754
-5.9784 18.6845 2.0619
-5.8766 13.9356 1.5896
-6.9934 13.1599 1.5663
-9.3888 14.3976 1.8066
-11.0673 14.0486 1.8797
-13.4819 14.2804 2.0641
-14.6508 12.9736 2.0568
-15.2006 11.2084 1.9850
-15.2249 9.2502 1.8724
-15.7591 7.7407 1.8454
-16.1825 6.2242 1.8223
-16.4608 4.6940 1.7991
-16.5506 3.1555 1.7709
-16.4891 1.6378 1.7416
-16.2970 0.1566 1.7130
-11.1061 -0.8880 1.1710
-5.9739 -1.0204 0.6370
-5.9773 -1.5810 0.6498
-5.9809 -2.1694 0.6687
-5.9848 -2.7982 0.6944
-5.9889 -3.4830 0.7282
-5.9936 -4.2441 0.7719
-5.9989 -5.1099 0.8282
-10.5165 -10.7190 1.5783
-9.3865 -11.4552 1.5566
-8.2260 -12.0997 1.5378
-7.0439 -12.6617 1.5229
-5.8372 -13.1315 1.5104
-4.6107 -13.5098 1.5004
-3.3690 -13.7971 1.4927
-2.1164 -13.9937 1.4875
-0.8571 -14.1001 1.4847
0.4050 -14.1163 1.4843
1.6658 -14.0424 1.4863
2.9214 -13.8784 1.4906
4.1676 -13.6238 1.4974
5.4002 -13.2784 1.5066
6.6147 -12.8416 1.5182
7.8064 -12.3128 1.5323
8.2530 -10.7568 1.4250
9.3034 -10.1107 1.4441
10.3212 -9.3783 1.4657
10.2688 -7.7768 1.3539
10.2684 -6.4204 1.2729
10.6211 -5.3870 1.2517
11.9142 -4.7586 1.3484
11.9115 -3.5623 1.3067
11.9089 -2.4290 1.2774
11.9063 -1.3369 1.2593
11.9039 -0.2669 1.2515
11.9014 0.7983 1.2537
11.8989 1.8759 1.2661
11.8964 2.9840 1.2891
11.8937 4.1425 1.3237
16.8529 7.6182 1.9439
15.3605 8.6717 1.8540
9.0989 6.2696 1.1614
14.2372 11.8160 1.9446
14.1541 14.0618 2.0970
12.8228 15.2461 2.0938
11.3593 16.2567 2.0844
9.8152 17.1230 2.0744
8.2304 17.8943 2.0702
6.6070 18.5772 2.0724
3.7409 14.5108 1.5750
3.2034 19.4884 2.0758
1.4516 19.7084 2.0771
-0.2165 13.6389 1.4337
-2.0779 19.6661 2.0785
-3.8256 19.4040 2.0787
-5.5032 18.8497 2.0639
-5.9105 15.0841 1.7028
-6.5661 13.1587 1.5457
-10.2352 16.6106 2.0507
-11.6860 15.6423 2.0522
-13.1093 14.6184 2.0638
-14.3306 13.3604 2.0593
-15.1946 11.8166 2.0231
-15.2137 9.7857 1.9012
-15.6107 8.1708 1.8519
-16.0761 6.6609 1.8290
-16.3958 5.1332 1.8057
-16.5433 3.5956 1.7794
-16.5203 2.0695 1.7499
-16.3653 0.5768 1.7211
-16.0458 -0.8700 1.6890
-6.8221 -0.9861 0.7245
-5.9763 -1.4179 0.6456
-5.9799 -1.9972 0.6626
-5.9836 -2.6130 0.6863
-5.9877 -3.2799 0.7176
-5.9922 -4.0167 0.7582
-5.9973 -4.8490 0.8106
-10.8337 -10.4907 1.5850
-9.7139 -11.2538 1.5625
-8.5608 -11.9234 1.5428
-7.3854 -12.5100 1.5269
-6.1853 -13.0062 1.5137
-4.9640 -13.4107 1.5030
-3.7262 -13.7240 1.4947
-2.4763 -13.9466 1.4888
-1.2185 -14.0788 1.4853
0.0433 -14.1208 1.4842
1.3049 -14.0728 1.4855
2.5623 -13.9346 1.4891
3.8116 -13.7061 1.4952
5.0486 -13.3867 1.5037
6.2687 -12.9762 1.5147
7.4674 -12.4738 1.5280
8.2018 -11.2770 1.4656
9.0054 -10.3047 1.4384
10.0331 -9.5971 1.4593
10.2698 -8.1999 1.3813
10.2665 -6.7911 1.2938
10.2678 -5.5429 1.2264
11.9150 -5.1166 1.3629
11.9122 -3.8977 1.3173
11.9096 -2.7488 1.2847
11.9071 -1.6468 1.2634
11.9046 -0.5723 1.2527
11.9021 0.4925 1.2520
11.8997 1.5648 1.2615
11.8971 2.6622 1.2814
11.8945 3.8041 1.3125
16.9988 7.1655 1.9389
16.3760 8.6995 1.9490
9.1217 5.9465 1.1445
14.5352 11.4474 1.9446
9.1326 8.6196 1.3199
13.2221 14.9272 2.0959
11.7728 15.9613 2.0846
10.2644 16.8888 2.0772
8.6833 17.6718 2.0695
7.0788 18.3965 2.0718
5.4133 18.9731 2.0737
3.7007 19.3961 2.0754
1.9557 19.6617 2.0767
0.1329 13.6355 1.4332
-1.5732 19.7117 2.0784
-3.3273 19.4954 2.0787
-5.0301 19.0286 2.0687
-5.9059 16.2893 1.8211
-6.1496 13.1575 1.5265
-7.6520 13.1617 1.6002
-11.2529 15.8962 2.0470
-12.7253 14.9435 2.0629
-13.9994 13.7388 2.0616
-15.1016 12.3779 2.0523
-15.2087 10.3428 1.9331
-15.4467 8.5961 1.8580
-15.9577 7.0962 1.8356
-16.3189 5.5720 1.8124
-16.5245 4.0375 1.7879
-16.5407 2.5040 1.7583
-16.4228 1.0006 1.7293
-16.1537 -0.4612 1.6985
-9.4502 -1.1197 1.0002
-5.9753 -1.2569 0.6418
-5.9788 -1.8280 0.6571
-5.9825 -2.4320 0.6788
-5.9865 -3.0826 0.7077
-5.9909 -3.7970 0.7455
-5.9957 -4.5988 0.7942
-6.0014 -5.5206 0.8571
-10.0385 -11.0447 1.5687
-8.8944 -11.7409 1.5481
-7.7248 -12.3508 1.5311
-6.5317 -12.8734 1.5172
-5.3159 -13.3041 1.5058
-4.0824 -13.6435 1.4968
-2.8356 -13.8920 1.4902
-1.5796 -14.0501 1.4860
-0.3185 -14.1180 1.4842
0.9435 -14.0958 1.4848
2.2026 -13.9835 1.4878
3.4546 -13.7808 1.4932
4.6956 -13.4876 1.5010
5.9210 -13.1032 1.5113
7.1263 -12.6272 1.5239
8.1886 -11.8876 1.5172
8.7049 -10.4916 1.4328
9.7421 -9.8088 1.4530
10.8042 -9.0895 1.4840
10.2674 -7.1765 1.3166
10.2680 -5.8876 1.2440
11.7070 -5.3866 1.3545
11.9130 -4.2388 1.3290
11.9103 -3.0723 1.2928
11.9078 -1.9590 1.2684
11.9053 -0.8785 1.2547
11.9028 0.1873 1.2512
11.9004 1.2557 1.2577
11.8979 2.3440 1.2746
11.8953 3.4710 1.3024
17.1300 6.7094 1.9336
16.5967 8.2787 1.9494
15.2268 9.3796 1.8797
14.8237 11.0712 1.9446
13.7761 12.3504 1.9446
13.6006 14.5840 2.0960
12.1981 15.6806 2.0881
10.7070 16.6409 2.0798
9.1301 17.4376 2.0688
7.5455 18.2037 2.0711
5.8960 18.8233 2.0732
3.1710 14.5797 1.5682
2.4584 19.6018 2.0764
0.4824 13.6322 1.4337
-0.7378 13.6439 1.4361
-2.8266 19.5738 2.0786
-4.5509 19.1933 2.0732
-6.2098 18.6013 2.0611
-5.9162 13.5528 1.5543
-7.2066 13.1605 1.5770
-9.4577 14.1135 1.7857
-12.3159 15.2369 2.0592
-13.6577 14.1083 2.0638
-14.8026 12.7807 2.0555
-15.2034 10.9190 1.9674
-15.2603 9.0120 1.8627
-15.8272 7.5296 1.8422
-16.2303 6.0102 1.8191
