ply
format ascii 1.0
element vertex 934
property float32 x
property float32 y
property float32 z
end_header
12.4231 -20.3696 -8.9066
10.7157 -21.8266 -8.9066
12.4376 -20.3935 -8.7497
10.8108 -22.0203 -8.8146
12.4376 -20.3935 -8.5832
9.0244 -23.6091 -8.9066
10.8108 -22.0203 -8.6444
12.4376 -20.3935 -8.4175
9.0790 -23.7521 -8.7848
10.8108 -22.0203 -8.4749
12.3246 -20.2081 -8.1774
7.1341 -25.3986 -8.9327
9.0790 -23.7521 -8.6099
10.8108 -22.0203 -8.3061
12.4376 -20.3935 -8.0880
7.1995 -25.6316 -8.8322
9.0790 -23.7521 -8.4356
10.8108 -22.0203 -8.1380
12.4376 -20.3935 -7.9244
7.1995 -25.6316 -8.6505
8.9965 -23.5362 -8.1870
10.8108 -22.0203 -7.9706
12.4376 -20.3935 -7.7614
7.1995 -25.6316 -8.4696
9.0790 -23.7521 -8.0893
10.8108 -22.0203 -7.8039
12.4376 -20.3935 -7.5990
0.0000 -25.0410 -7.7966
7.1341 -25.3986 -8.2140
9.0790 -23.7521 -7.9171
10.8108 -22.0203 -7.6378
12.4376 -20.3935 -7.4373
-0.0000 -25.0410 -7.6277
7.1995 -25.6316 -8.1098
9.0790 -23.7521 -7.7456
10.8108 -22.0203 -7.4723
12.4376 -20.3935 -7.2762
0.0000 -25.0756 -7.4698
7.1995 -25.6316 -7.9309
9.0790 -23.7521 -7.5748
10.7847 -21.9671 -7.2898
12.4376 -20.3935 -7.1157
0.0000 -25.0684 -7.2998
7.1995 -25.6316 -7.7527
8.9965 -23.5362 -7.3372
10.8108 -22.0203 -7.1433
12.4376 -20.3935 -6.9558
0.0000 -25.0613 -7.1305
7.1995 -25.6316 -7.5751
9.0790 -23.7521 -7.2349
10.8108 -22.0203 -6.9797
11.4249 -18.7329 -6.2430
0.0000 -25.0542 -6.9620
7.1340 -25.3987 -7.3308
9.0790 -23.7521 -7.0659
10.8108 -22.0203 -6.8166
11.4225 -18.7290 -6.0959
-0.0000 -25.0473 -6.7942
7.1995 -25.6316 -7.2217
9.0790 -23.7521 -6.8975
9.9547 -20.2764 -6.1271
11.4239 -18.7313 -5.9513
0.0000 -25.0444 -6.6280
7.1995 -25.6316 -7.0459
9.0790 -23.7521 -6.7296
10.0529 -20.4766 -6.0370
11.5577 -18.9507 -5.8745
0.0000 -25.0415 -6.4625
7.1995 -25.6316 -6.8707
8.4426 -22.0870 -6.1022
10.0529 -20.4766 -5.8869
11.5657 -18.9638 -5.7324
-0.0000 -25.0024 -6.2884
6.6293 -23.6018 -6.1658
8.4426 -22.0870 -5.9471
10.0529 -20.4766 -5.7373
11.5657 -18.9638 -5.5867
0.0000 -25.0024 -6.1248
6.6948 -23.8348 -6.0648
8.4426 -22.0870 -5.7925
10.0529 -20.4766 -5.5881
11.4526 -18.7784 -5.3882
-0.0000 -25.0024 -5.9618
4.7111 -25.5200 -6.1881
6.6948 -23.8348 -5.9034
8.4426 -22.0870 -5.6383
9.9547 -20.2764 -5.3862
11.5657 -18.9638 -5.2966
-0.0000 -25.0411 -5.8083
4.7577 -25.7719 -6.0788
6.6948 -23.8348 -5.7424
8.4426 -22.0870 -5.4846
10.0529 -20.4766 -5.2911
11.5657 -18.9638 -5.1522
-0.0000 -25.0405 -5.6458
4.7577 -25.7719 -5.9089
6.6948 -23.8348 -5.5819
8.4426 -22.0870 -5.3313
10.0529 -20.4766 -5.1432
11.5657 -18.9638 -5.0082
-0.0000 -25.0398 -5.4838
4.7577 -25.7719 -5.7395
6.6293 -23.6018 -5.3689
8.4426 -22.0870 -5.1785
10.0529 -20.4766 -4.9957
11.5657 -18.9638 -4.8646
-0.0000 -25.0391 -5.3222
4.7577 -25.7719 -5.5706
6.6948 -23.8348 -5.2623
8.4426 -22.0870 -5.0260
10.0529 -20.4766 -4.8487
11.5657 -18.9638 -4.7214
-0.0000 -25.0385 -5.1611
4.7207 -25.5717 -5.3601
6.6948 -23.8348 -5.1031
8.4426 -22.0870 -4.8740
10.0529 -20.4766 -4.7020
11.4526 -18.7784 -4.5338
-0.0000 -25.0378 -5.0004
4.7577 -25.7719 -5.2340
6.6948 -23.8348 -4.9443
8.4426 -22.0870 -4.7223
9.9547 -20.2764 -4.5112
11.5657 -18.9638 -4.4361
0.0000 -25.0372 -4.8401
4.7577 -25.7719 -5.0663
6.6948 -23.8348 -4.7859
8.3600 -21.8711 -4.5264
10.0529 -20.4766 -4.4098
11.5657 -18.9638 -4.2940
-0.0000 -25.0365 -4.6801
4.7577 -25.7719 -4.8990
6.6948 -23.8348 -4.6279
8.4426 -22.0870 -4.4201
10.0529 -20.4766 -4.2642
11.5657 -18.9638 -4.1522
-0.0000 -25.0358 -4.5206
4.7577 -25.7719 -4.7321
6.6948 -23.8348 -4.4703
8.4426 -22.0870 -4.2695
10.0529 -20.4766 -4.1189
11.5657 -18.9638 -4.0108
-0.0000 -25.0352 -4.3614
4.7112 -25.5200 -4.5210
6.6948 -23.8348 -4.3130
8.4426 -22.0870 -4.1193
9.6724 -19.7015 -3.8235
11.1709 -18.3165 -3.7376
-0.0000 -25.0345 -4.2026
4.7577 -25.7719 -4.3994
6.6948 -23.8348 -4.1560
8.1230 -21.2509 -3.8191
9.7098 -19.7777 -3.6986
11.1709 -18.3165 -3.6015
-0.0000 -25.0339 -4.0441
4.7577 -25.7719 -4.2336
6.6948 -23.8348 -3.9994
8.1544 -21.3331 -3.6894
9.7098 -19.7777 -3.5592
11.1709 -18.3165 -3.4658
-0.0000 -25.0332 -3.8859
4.7577 -25.7719 -4.0681
6.4663 -23.0212 -3.7119
8.1544 -21.3331 -3.5452
9.7098 -19.7777 -3.4201
11.1709 -18.3165 -3.3303
0.0000 -25.0326 -3.7280
4.5809 -24.8143 -3.7579
6.4663 -23.0212 -3.5611
8.1544 -21.3331 -3.4013
9.7098 -19.7777 -3.2812
11.1709 -18.3165 -3.1951
-0.0000 -25.0320 -3.5704
4.5953 -24.8923 -3.6105
6.4663 -23.0212 -3.4107
8.1544 -21.3331 -3.2576
9.7098 -19.7777 -3.1426
11.1279 -18.2460 -3.0484
0.0000 -25.0313 -3.4132
2.4727 -27.0149 -3.6990
4.5953 -24.8923 -3.4516
6.4663 -23.0212 -3.2606
8.1544 -21.3331 -3.1142
9.7072 -19.7725 -3.0035
11.1709 -18.3165 -2.9254
-0.0000 -25.0307 -3.2561
2.4727 -27.0149 -3.5289
4.5953 -24.8923 -3.2929
6.4663 -23.0212 -3.1106
8.1544 -21.3331 -2.9710
9.7098 -19.7777 -2.8661
11.1709 -18.3165 -2.7909
0.0000 -25.0300 -3.0994
2.4727 -27.0149 -3.3592
4.5953 -24.8923 -3.1344
6.4663 -23.0212 -2.9610
8.1544 -21.3331 -2.8280
9.7098 -19.7777 -2.7282
11.1709 -18.3165 -2.6566
-0.0000 -25.0294 -2.9429
2.4727 -27.0149 -3.1896
4.5953 -24.8923 -2.9762
6.4663 -23.0212 -2.8115
8.1544 -21.3331 -2.6853
9.7098 -19.7777 -2.5905
11.1709 -18.3165 -2.5225
-0.0000 -25.0287 -2.7866
2.4632 -26.9108 -3.0087
4.5953 -24.8923 -2.8182
6.4663 -23.0212 -2.6623
8.1544 -21.3331 -2.5428
9.7098 -19.7777 -2.4530
11.1709 -18.3165 -2.3886
-0.0000 -25.0281 -2.6306
2.4727 -27.0149 -2.8512
4.5953 -24.8923 -2.6605
6.4663 -23.0212 -2.5133
8.1544 -21.3331 -2.4004
9.7098 -19.7777 -2.3157
11.1709 -18.3165 -2.2549
0.0000 -25.0275 -2.4747
2.4727 -27.0149 -2.6824
4.5953 -24.8923 -2.5029
6.4663 -23.0212 -2.3644
8.1544 -21.3331 -2.2583
9.6724 -19.7015 -2.1702
11.1709 -18.3165 -2.1214
-0.0000 -25.0268 -2.3191
2.4727 -27.0149 -2.5138
4.5953 -24.8923 -2.3456
6.4663 -23.0212 -2.2158
8.1544 -21.3331 -2.1163
9.7098 -19.7777 -2.0416
11.1709 -18.3165 -1.9880
0.0000 -25.0262 -2.1636
2.4727 -27.0149 -2.3453
4.5776 -24.7964 -2.1800
6.4663 -23.0212 -2.0673
8.1544 -21.3331 -1.9745
9.7098 -19.7777 -1.9048
11.1709 -18.3165 -1.8548
-0.0000 -25.0255 -2.0083
2.4632 -26.9108 -2.1687
4.5953 -24.8923 -2.0314
6.4663 -23.0212 -1.9190
8.1544 -21.3331 -1.8328
9.7098 -19.7777 -1.7682
11.1709 -18.3165 -1.7217
-0.0000 -25.0249 -1.8532
2.4727 -27.0149 -2.0089
4.5953 -24.8923 -1.8745
6.4663 -23.0212 -1.7708
8.1544 -21.3331 -1.6913
9.7098 -19.7777 -1.6316
11.1709 -18.3165 -1.5888
-0.0000 -25.0243 -1.6982
2.4727 -27.0149 -1.8410
4.5953 -24.8923 -1.7178
6.4663 -23.0212 -1.6228
8.1544 -21.3331 -1.5499
9.7098 -19.7777 -1.4952
11.1279 -18.2460 -1.4504
0.0000 -25.0236 -1.5434
2.4727 -27.0149 -1.6732
4.5953 -24.8923 -1.5612
6.4663 -23.0212 -1.4749
8.1230 -21.2509 -1.4032
9.6724 -19.7015 -1.3537
11.1279 -18.2460 -1.3182
-0.0000 -25.0230 -1.3887
2.4727 -27.0149 -1.5055
4.5776 -24.7964 -1.3994
6.4414 -22.9326 -1.3219
8.1230 -21.2509 -1.2626
9.6724 -19.7015 -1.2180
11.1279 -18.2460 -1.1861
-0.0000 -25.0224 -1.2341
2.4632 -26.9108 -1.3328
4.5776 -24.7964 -1.2436
6.4414 -22.9326 -1.1748
8.1230 -21.2509 -1.1221
9.6724 -19.7015 -1.0825
11.1279 -18.2460 -1.0540
-0.0000 -25.0217 -1.0796
2.4632 -26.9108 -1.1660
4.5776 -24.7964 -1.0880
6.4414 -22.9326 -1.0278
8.1230 -21.2509 -0.9816
9.6724 -19.7015 -0.9470
11.1279 -18.2460 -0.9221
0.0000 -25.0211 -0.9252
2.4632 -26.9108 -0.9992
4.5776 -24.7964 -0.9324
6.4414 -22.9326 -0.8808
8.1230 -21.2509 -0.8412
9.6724 -19.7015 -0.8116
11.1279 -18.2460 -0.7903
-0.0000 -25.0205 -0.7709
2.4632 -26.9108 -0.8326
4.5776 -24.7964 -0.7769
6.4414 -22.9326 -0.7339
8.1230 -21.2509 -0.7009
9.6724 -19.7015 -0.6762
11.1279 -18.2460 -0.6585
-0.0000 -25.0198 -0.6166
2.4632 -26.9108 -0.6660
4.5776 -24.7964 -0.6214
6.4414 -22.9326 -0.5870
8.1230 -21.2509 -0.5607
9.6724 -19.7015 -0.5409
11.1279 -18.2460 -0.5267
-0.0000 -25.0192 -0.4624
2.4631 -26.9108 -0.4994
4.5776 -24.7964 -0.4660
6.4414 -22.9326 -0.4402
8.1230 -21.2509 -0.4205
9.6724 -19.7015 -0.4056
11.1279 -18.2460 -0.3950
-0.0000 -25.0186 -0.3082
2.4632 -26.9108 -0.3329
4.5776 -24.7964 -0.3107
6.4414 -22.9326 -0.2935
8.1230 -21.2509 -0.2803
9.6724 -19.7015 -0.2704
11.1279 -18.2460 -0.2633
-0.0000 -25.0179 -0.1541
2.4632 -26.9108 -0.1665
4.5776 -24.7964 -0.1553
6.4414 -22.9326 -0.1467
8.1230 -21.2509 -0.1401
9.6724 -19.7015 -0.1352
11.1279 -18.2460 -0.1317
-0.0000 -25.0173 -0.0000
2.4632 -26.9108 -0.0000
4.5776 -24.7964 -0.0000
6.4414 -22.9326 -0.0000
8.1230 -21.2509 -0.0000
9.6724 -19.7015 -0.0000
11.1279 -18.2460 -0.0000
-0.0000 -25.0167 0.1541
2.4632 -26.9108 0.1665
4.7249 -25.5942 0.1603
6.6486 -23.6704 0.1515
8.3843 -21.9347 0.1447
9.9836 -20.3354 0.1395
11.1279 -18.2460 0.1317
-0.0000 -25.0160 0.3082
2.4632 -26.9108 0.3329
4.7249 -25.5942 0.3207
6.6486 -23.6704 0.3029
8.3843 -21.9347 0.2893
9.9836 -20.3354 0.2791
11.1279 -18.2460 0.2633
-0.0000 -25.0154 0.4623
2.4631 -26.9108 0.4994
4.7249 -25.5942 0.4810
6.6486 -23.6704 0.4544
8.3843 -21.9347 0.4340
9.9836 -20.3354 0.4187
11.1279 -18.2460 0.3950
-0.0000 -25.0148 0.6165
2.4632 -26.9108 0.6660
4.7249 -25.5942 0.6414
6.6486 -23.6704 0.6059
8.3843 -21.9347 0.5787
9.9836 -20.3354 0.5583
11.1279 -18.2460 0.5267
-0.0000 -25.0142 0.7707
2.4632 -26.9108 0.8326
4.7249 -25.5942 0.8019
6.6486 -23.6704 0.7575
8.3843 -21.9347 0.7235
9.9836 -20.3354 0.6980
11.1279 -18.2460 0.6585
0.0000 -25.0135 0.9249
2.4632 -26.9108 0.9992
4.7249 -25.5942 0.9624
6.6486 -23.6704 0.9091
8.3843 -21.9347 0.8683
9.9836 -20.3354 0.8377
11.1279 -18.2460 0.7903
-0.0000 -25.0129 1.0792
2.4632 -26.9108 1.1660
4.7249 -25.5942 1.1230
6.6486 -23.6704 1.0608
8.3843 -21.9347 1.0132
9.9836 -20.3354 0.9774
11.1279 -18.2460 0.9221
-0.0000 -25.0123 1.2336
2.4632 -26.9108 1.3328
4.7249 -25.5942 1.2836
6.6486 -23.6704 1.2126
8.3843 -21.9347 1.1582
9.9836 -20.3354 1.1173
11.1279 -18.2460 1.0540
-0.0000 -25.0116 1.3881
2.4632 -26.9108 1.4997
4.7249 -25.5942 1.4444
6.6486 -23.6704 1.3645
8.3843 -21.9347 1.3032
9.9836 -20.3354 1.2572
11.1279 -18.2460 1.1861
0.0000 -24.9160 1.5368
2.4632 -26.9108 1.6667
4.7249 -25.5942 1.6053
6.6486 -23.6704 1.5164
8.3843 -21.9347 1.4483
9.9836 -20.3354 1.3972
11.1279 -18.2460 1.3182
-0.0000 -24.8877 1.6890
2.4632 -26.9108 1.8339
4.7249 -25.5942 1.7663
6.6486 -23.6704 1.6685
8.3843 -21.9347 1.5936
9.9836 -20.3354 1.5374
11.1279 -18.2460 1.4504
0.0000 -24.8595 1.8410
2.4632 -26.9108 2.0012
4.7249 -25.5942 1.9274
6.6486 -23.6704 1.8207
8.3843 -21.9347 1.7390
9.9836 -20.3354 1.6776
11.1279 -18.2460 1.5827
-0.0000 -24.8313 1.9927
2.4632 -26.9108 2.1687
4.7249 -25.5942 2.0887
6.6486 -23.6704 1.9731
8.3843 -21.9347 1.8845
9.9836 -20.3354 1.8180
11.1279 -18.2460 1.7151
0.0000 -24.7952 2.1436
2.3488 -25.6619 2.2279
4.6523 -25.2011 2.2156
6.6486 -23.6704 2.1256
8.3843 -21.9347 2.0302
9.9836 -20.3354 1.9585
11.1279 -18.2460 1.8477
0.0000 -24.0793 2.2313
2.1859 -23.8813 2.2222
4.3248 -23.4270 2.2075
6.3952 -22.7680 2.1914
8.3552 -21.8584 2.1684
9.9836 -20.3354 2.0992
11.1279 -18.2460 1.9804
0.0000 -22.5098 2.2258
2.0411 -22.2991 2.2142
4.0401 -21.8846 2.2005
5.9681 -21.2478 2.1823
7.8028 -20.4132 2.1609
9.5134 -19.3777 2.1345
11.0841 -18.1741 2.1049
0.0000 -21.4616 2.2557
1.9141 -20.9117 2.2071
3.7889 -20.5243 2.1936
5.5942 -19.9163 2.1743
7.3186 -19.1466 2.1544
8.9184 -18.1657 2.1270
10.3998 -17.0522 2.0993
-0.0000 -21.3095 2.3725
1.8026 -19.6940 2.2018
3.5638 -19.3048 2.1856
5.2641 -18.7413 2.1673
6.8820 -18.0044 2.1460
8.3927 -17.0950 2.1203
9.7993 -16.0674 2.0953
0.0000 -20.1128 2.3648
1.7986 -19.6506 2.3201
3.3637 -18.2206 2.1785
4.9708 -17.6972 2.1613
6.4960 -16.9945 2.1392
7.9261 -16.1445 2.1146
9.2519 -15.1700 2.0892
0.0000 -19.0364 2.3572
1.7290 -18.8904 2.3489
3.3446 -18.1172 2.2813
4.7166 -16.7920 2.1598
6.1510 -16.0918 2.1332
7.5097 -15.2963 2.1100
8.7674 -14.3756 2.0850
0.0000 -18.0680 2.3504
1.6414 -17.9326 2.3425
3.2471 -17.5893 2.3268
4.7077 -16.7602 2.2646
5.9438 -15.5498 2.1656
7.1343 -14.5316 2.1059
8.3305 -13.6591 2.0812
0.0000 -17.1920 2.3442
1.5617 -17.0617 2.3362
3.0904 -16.7405 2.3212
4.5704 -16.2714 2.3046
5.9364 -15.5306 2.2671
7.0754 -14.4118 2.1892
8.1454 -13.3556 2.1331
0.0000 -16.3957 2.3386
1.4892 -16.2702 2.3304
2.9479 -15.9685 2.3162
4.3581 -15.5158 2.2987
5.7020 -14.9172 2.2779
6.9719 -14.2009 2.2565
8.1359 -13.3401 2.2287
0.0000 -15.6687 2.3335
1.4231 -15.5476 2.3251
2.8177 -15.2635 2.3115
4.1644 -14.8262 2.2934
5.4507 -14.2599 2.2735
6.6675 -13.5808 2.2531
7.7912 -12.7749 2.2284
0.0000 -15.0023 2.3288
1.3625 -14.8852 2.3203
2.6980 -14.6149 2.3070
3.9869 -14.1940 2.2886
5.2203 -13.6569 2.2695
6.3833 -13.0021 2.2484
7.4593 -12.2308 2.2238
0.0000 -14.3891 2.3245
1.3067 -14.2759 2.3158
2.5866 -14.0115 2.3017
3.8235 -13.6125 2.2841
5.0081 -13.1019 2.2659
6.1193 -12.4643 2.2431
7.1540 -11.7302 2.2195
0.0000 -13.8221 2.3203
1.2552 -13.7135 2.3117
2.4839 -13.4550 2.2969
3.6728 -13.0758 2.2800
4.8072 -12.5763 2.2602
5.8758 -11.9683 2.2382
6.8722 -11.2681 2.2156
0.0000 -13.2967 2.3164
1.2075 -13.1920 2.3078
2.3888 -12.9399 2.2924
3.5314 -12.5723 2.2750
4.6211 -12.0895 2.2547
5.6505 -11.5093 2.2337
6.6146 -10.8457 2.2131
0.0000 -12.8081 2.3127
1.1626 -12.7015 2.3030
2.2999 -12.4586 2.2876
3.3984 -12.0988 2.2692
4.4485 -11.6380 2.2497
5.4436 -11.0880 2.2304
6.3765 -10.4553 2.2113
0.0000 -12.3543 2.3094
1.1205 -12.2420 2.2980
2.2156 -12.0019 2.2814
3.2749 -11.6592 2.2638
4.2902 -11.2237 2.2461
5.2525 -10.6988 2.2280
6.1546 -10.0914 2.2096
0.0000 -11.9350 2.3072
1.0809 -11.8094 2.2925
2.1381 -11.5819 2.2768
3.1502 -11.2152 2.2520
4.1432 -10.8392 2.2432
5.0740 -10.3351 2.2257
5.9470 -9.7511 2.2080
0.0000 -11.5279 2.3023
1.0443 -11.4090 2.2881
2.0661 -11.1918 2.2729
3.0561 -10.8803 2.2570
3.9916 -10.4426 2.2327
4.9068 -9.9946 2.2236
5.7526 -9.4323 2.2065
0.0000 -11.1467 2.2976
1.0100 -11.0340 2.2839
1.9986 -10.8263 2.2693
2.9570 -10.5274 2.2539
3.8766 -10.1418 2.2380
4.7341 -9.6428 2.2143
5.5701 -9.1330 2.2050
0.0000 -10.7890 2.2933
0.9777 -10.6820 2.2800
1.9353 -10.4831 2.2659
2.8638 -10.1958 2.2511
3.7554 -9.8246 2.2356
4.6024 -9.3746 2.2198
5.3983 -8.8514 2.2037
-0.0000 -10.4528 2.2892
0.9474 -10.3510 2.2764
1.8756 -10.1601 2.2627
2.7762 -9.8837 2.2483
3.6412 -9.5259 2.2334
4.4634 -9.0915 2.2181
5.2364 -8.5860 2.2025
0.0000 -10.1360 2.2853
0.9189 -10.0390 2.2729
1.8194 -9.8557 2.2597
2.6935 -9.5894 2.2458
3.5334 -9.2440 2.2313
4.3322 -8.8242 2.2164
5.0836 -8.3353 2.2013
-0.0000 -9.8371 2.2817
0.8919 -9.7445 2.2697
1.7664 -9.5682 2.2568
2.6154 -9.3113 2.2433
3.4316 -8.9776 2.2293
4.2082 -8.5716 2.2149
4.9390 -8.0983 2.2002
0.0000 -9.5545 2.2783
0.8664 -9.4660 2.2666
1.7099 -9.2626 2.2460
2.5415 -9.0482 2.2410
3.3352 -8.7255 2.2274
4.0908 -8.3324 2.2134
4.8021 -7.8737 2.1991
0.0000 -1.4819 0.3630
0.8423 -9.2022 2.2637
1.6626 -9.0061 2.2435
2.4715 -8.7988 2.2389
3.2439 -8.4864 2.2256
3.9794 -8.1055 2.2120
4.6721 -7.6607 2.1981
0.0000 -1.4437 0.3631
0.8194 -8.9520 2.2609
1.6176 -8.7626 2.2411
2.4050 -8.5621 2.2368
3.1571 -8.2595 2.2239
3.8736 -7.8900 2.2107
4.5487 -7.4583 2.1972
-0.0000 -1.4073 0.3632
0.7976 -8.7143 2.2583
1.5806 -8.5618 2.2469
2.3337 -8.3085 2.2271
3.0746 -8.0437 2.2223
3.7730 -7.6851 2.2094
4.4312 -7.2657 2.1963
0.0000 -1.3726 0.3633
0.1252 -1.3679 0.3635
1.5398 -8.3408 2.2447
2.2738 -8.0952 2.2253
2.9961 -7.8382 2.2208
3.6771 -7.4899 2.2082
4.3193 -7.0822 2.1954
0.0000 -1.3394 0.3633
0.1222 -1.3348 0.3636
1.5009 -8.1302 2.2426
2.2167 -7.8920 2.2236
2.9116 -7.6172 2.2120
3.5858 -7.3038 2.2071
4.2126 -6.9073 2.1946
-0.0000 -1.3077 0.3634
0.1193 -1.3032 0.3636
1.4587 -7.9016 2.2328
2.1696 -7.7244 2.2295
2.8498 -7.4555 2.2179
3.4986 -7.1262 2.2060
4.1107 -6.7402 2.1938
-0.0000 -1.2774 0.3634
0.1165 -1.2729 0.3637
0.2322 -1.2580 0.3640
2.1174 -7.5384 2.2279
2.7815 -7.2769 2.2166
3.4152 -6.9564 2.2049
4.0133 -6.5805 2.1930
0.0000 -1.2483 0.3635
0.1139 -1.2440 0.3637
0.2269 -1.2293 0.3640
2.0675 -7.3606 2.2263
2.7163 -7.1061 2.2153
3.3355 -6.7939 2.2039
3.9201 -6.4276 2.1923
-0.0000 -1.2205 0.3636
0.1113 -1.2162 0.3638
0.2219 -1.2018 0.3641
0.3307 -1.1775 0.3643
2.6538 -6.9426 2.2141
3.2591 -6.6384 2.2030
3.8308 -6.2812 2.1916
-0.0000 -1.1937 0.3636
0.1089 -1.1895 0.3638
0.2170 -1.1755 0.3641
0.3235 -1.1516 0.3644
2.5938 -6.7859 2.2129
3.1859 -6.4892 2.2020
3.7452 -6.1408 2.1910
0.0000 -1.1680 0.3637
0.1065 -1.1639 0.3639
0.2123 -1.1501 0.3641
0.3165 -1.1268 0.3644
0.4182 -1.0941 0.3647
3.1156 -6.3461 2.2012
3.6630 -6.0060 2.1903
-0.0000 -1.1433 0.3637
0.1043 -1.1393 0.3639
0.2078 -1.1258 0.3642
0.3098 -1.1029 0.3644
0.4093 -1.0709 0.3647
3.0481 -6.2087 2.2003
3.5840 -5.8766 2.1897
-0.0000 -1.1196 0.3638
0.1021 -1.1156 0.3640
0.2035 -1.1023 0.3642
0.3033 -1.0800 0.3645
0.4008 -1.0486 0.3647
0.4951 -1.0084 0.3650
3.5081 -5.7521 2.1891
-0.0000 -1.0967 0.3638
0.1000 -1.0927 0.3640
0.1993 -1.0798 0.3643
0.2971 -1.0578 0.3645
0.3926 -1.0271 0.3648
0.4849 -0.9878 0.3650
0.5734 -0.9402 0.3653
0.0000 -1.0746 0.3639
0.0980 -1.0708 0.3641
0.1953 -1.0580 0.3643
0.2911 -1.0365 0.3645
0.3847 -1.0064 0.3648
0.4751 -0.9678 0.3651
0.5618 -0.9212 0.3653
0.0000 -1.0533 0.3639
0.0961 -1.0495 0.3641
0.1914 -1.0371 0.3643
0.2854 -1.0159 0.3646
0.3770 -0.9864 0.3648
0.4657 -0.9486 0.3651
0.5506 -0.9029 0.3653
0.0000 -1.0328 0.3639
0.0942 -1.0291 0.3641
0.1877 -1.0168 0.3644
0.2798 -0.9961 0.3646
0.3697 -0.9671 0.3648
0.4566 -0.9300 0.3651
0.5399 -0.8852 0.3654
0.0000 -1.0130 0.3640
0.0924 -1.0093 0.3642
0.1841 -0.9973 0.3644
0.2744 -0.9769 0.3646
0.3625 -0.9485 0.3649
0.4478 -0.9121 0.3651
0.5295 -0.8681 0.3654
0.0000 -0.9938 0.3640
0.0906 -0.9902 0.3642
0.1806 -0.9784 0.3644
0.2692 -0.9584 0.3647
0.3557 -0.9305 0.3649
0.4393 -0.8948 0.3651
0.5194 -0.8516 0.3654
-0.0000 -0.9752 0.3641
0.0889 -0.9717 0.3642
0.1772 -0.9601 0.3645
0.2642 -0.9405 0.3647
0.3490 -0.9131 0.3649
0.4311 -0.8781 0.3651
0.5097 -0.8357 0.3654
0.0000 -0.9573 0.3641
0.0873 -0.9538 0.3643
0.1740 -0.9424 0.3645
0.2593 -0.9232 0.3647
0.3426 -0.8962 0.3649
0.4231 -0.8619 0.3652
0.5003 -0.8203 0.3654
0.0000 -0.9399 0.3641
0.0857 -0.9365 0.3643
0.1708 -0.9253 0.3645
0.2546 -0.9064 0.3647
0.3364 -0.8800 0.3649
0.4154 -0.8462 0.3652
0.4911 -0.8053 0.3654
-0.0000 -0.9231 0.3642
0.0842 -0.9197 0.3643
0.1678 -0.9087 0.3645
0.2500 -0.8901 0.3647
0.3303 -0.8642 0.3650
0.4080 -0.8310 0.3652
0.4823 -0.7908 0.3654
-0.0000 -0.9068 0.3642
0.0827 -0.9034 0.3644
0.1648 -0.8926 0.3646
0.2456 -0.8744 0.3648
0.3245 -0.8488 0.3650
0.4007 -0.8162 0.3652
0.4738 -0.7768 0.3654
-0.0000 -0.8909 0.3642
0.0812 -0.8877 0.3644
0.1619 -0.8770 0.3646
0.2413 -0.8591 0.3648
0.3188 -0.8340 0.3650
0.3937 -0.8020 0.3652
0.4655 -0.7632 0.3655
-0.0000 -0.8756 0.3643
0.0798 -0.8724 0.3644
0.1591 -0.8619 0.3646
0.2371 -0.8443 0.3648
0.3133 -0.8196 0.3650
0.3869 -0.7881 0.3652
0.4574 -0.7500 0.3655
-0.0000 -0.8607 0.3643
0.0785 -0.8575 0.3645
0.1564 -0.8472 0.3646
0.2331 -0.8298 0.3648
0.3079 -0.8056 0.3650
0.3803 -0.7746 0.3653
0.4496 -0.7372 0.3655
0.0000 -0.8462 0.3643
0.0772 -0.8430 0.3645
0.1538 -0.8329 0.3647
0.2292 -0.8159 0.3649
0.3027 -0.7920 0.3651
0.3739 -0.7616 0.3653
0.4420 -0.7247 0.3655
-0.0000 -0.8321 0.3643
0.0759 -0.8290 0.3645
0.1512 -0.8190 0.3647
0.2253 -0.8023 0.3649
0.2977 -0.7788 0.3651
0.3676 -0.7488 0.3653
0.4346 -0.7126 0.3655
0.0000 -0.8184 0.3644
0.0746 -0.8154 0.3645
0.1487 -0.8055 0.3647
0.2216 -0.7890 0.3649
0.2928 -0.7660 0.3651
0.3616 -0.7365 0.3653
0.4274 -0.7009 0.3655
0.0000 -0.8051 0.3644
0.0734 -0.8021 0.3646
0.1463 -0.7924 0.3647
0.2180 -0.7762 0.3649
0.2880 -0.7535 0.3651
0.3557 -0.7245 0.3653
0.4205 -0.6894 0.3655
0.0000 -0.7921 0.3644
0.0722 -0.7892 0.3646
0.1439 -0.7796 0.3648
0.2145 -0.7637 0.3649
0.2834 -0.7413 0.3651
0.3499 -0.7128 0.3653
0.4137 -0.6783 0.3655
0.0000 -0.7795 0.3645
0.0711 -0.7766 0.3646
0.1416 -0.7672 0.3648
0.2111 -0.7515 0.3649
0.2788 -0.7295 0.3651
0.3443 -0.7014 0.3653
0.4071 -0.6674 0.3655
-0.0000 -0.7672 0.3645
0.0700 -0.7643 0.3646
0.1394 -0.7551 0.3648
0.2077 -0.7396 0.3650
0.2744 -0.7179 0.3651
0.3389 -0.6903 0.3653
0.4006 -0.6569 0.3655
-0.0000 -0.7552 0.3645
0.0689 -0.7524 0.3647
0.1372 -0.7433 0.3648
0.2045 -0.7280 0.3650
0.2701 -0.7067 0.3652
0.3336 -0.6795 0.3653
0.3943 -0.6466 0.3655
-0.0000 -0.7435 0.3645
0.0678 -0.7407 0.3647
0.1351 -0.7318 0.3648
0.2013 -0.7167 0.3650
0.2659 -0.6957 0.3652
0.3284 -0.6689 0.3654
0.3882 -0.6366 0.3656
0.0000 -0.7321 0.3645
0.0668 -0.7294 0.3647
0.1330 -0.7205 0.3648
0.1982 -0.7057 0.3650
0.2619 -0.6851 0.3652
0.3234 -0.6587 0.3654
0.3823 -0.6268 0.3656
0.0000 -0.7210 0.3646
0.0657 -0.7183 0.3647
0.1310 -0.7096 0.3649
0.1952 -0.6950 0.3650
0.2579 -0.6746 0.3652
0.3184 -0.6486 0.3654
0.3764 -0.6172 0.3656
0.0000 -0.7101 0.3646
0.0648 -0.7075 0.3647
0.1290 -0.6989 0.3649
0.1923 -0.6845 0.3650
0.2540 -0.6645 0.3652
0.3136 -0.6389 0.3654
0.3708 -0.6079 0.3656
-0.0000 -0.6995 0.3646
0.0638 -0.6969 0.3648
0.1271 -0.6885 0.3649
0.1894 -0.6743 0.3651
0.2502 -0.6545 0.3652
0.3090 -0.6293 0.3654
0.3652 -0.5988 0.3656
0.0000 -0.6892 0.3646
0.0628 -0.6866 0.3648
0.1252 -0.6783 0.3649
0.1866 -0.6643 0.3651
0.2465 -0.6448 0.3652
0.3044 -0.6200 0.3654
0.3598 -0.5899 0.3656
0.0000 -0.6791 0.3647
0.0619 -0.6765 0.3648
0.1234 -0.6683 0.3649
0.1839 -0.6546 0.3651
0.2429 -0.6354 0.3653
0.2999 -0.6108 0.3654
0.3545 -0.5812 0.3656
0.0000 -0.6692 0.3647
0.0610 -0.6667 0.3648
0.1216 -0.6586 0.3650
0.1812 -0.6450 0.3651
0.2393 -0.6261 0.3653
0.2955 -0.6019 0.3654
0.3493 -0.5728 0.3656
0.0000 -0.6595 0.3647
0.0601 -0.6570 0.3648
0.1198 -0.6490 0.3650
0.1786 -0.6357 0.3651
0.2359 -0.6170 0.3653
0.2912 -0.5932 0.3654
0.3443 -0.5645 0.3656
-0.0000 -0.6501 0.3647
0.0593 -0.6476 0.3648
0.1181 -0.6397 0.3650
0.1760 -0.6266 0.3651
0.2325 -0.6082 0.3653
0.2871 -0.5847 0.3654
0.3393 -0.5564 0.3656
0.0000 -0.6408 0.3647
0.0584 -0.6384 0.3649
0.1164 -0.6306 0.3650
0.1735 -0.6176 0.3651
0.2292 -0.5995 0.3653
0.2830 -0.5764 0.3655
0.3345 -0.5484 0.3656
-0.0000 -0.6318 0.3648
0.0576 -0.6294 0.3649
0.1148 -0.6217 0.3650
0.1710 -0.6089 0.3652
0.2259 -0.5910 0.3653
0.2790 -0.5682 0.3655
0.3297 -0.5407 0.3656
