ply
format ascii 1.0
element vertex 1979
property float32 x
property float32 y
property float32 z
end_header
-21.7129 7.5443 -3.4233
-21.7453 5.4388 -3.3382
-16.3744 2.5714 -2.4685
-16.3820 1.0900 -2.4451
-16.3895 -0.3751 -2.4415
-8.6525 -0.9749 -1.2967
-16.4048 -3.3515 -2.4936
-16.4129 -4.9130 -2.5515
-22.2061 -8.8738 -3.5614
2.5767 -42.9734 -6.4114
9.1648 -13.5170 -2.4321
23.2229 -4.0120 -3.5097
20.9510 -1.7165 -3.1306
19.1088 0.1447 -2.8459
17.4919 1.7002 -2.6173
16.1611 3.0448 -2.4491
15.1202 4.2750 -2.3401
14.0426 5.3638 -2.2387
15.5291 7.5817 -2.5736
15.8523 9.5781 -2.7583
14.5567 10.6767 -2.6885
17.8633 15.7355 -3.5453
23.3388 24.5890 -5.0488
21.0524 26.5729 -5.0488
18.0005 27.4341 -4.8866
-1.1691 26.2064 -3.9067
-16.2819 20.5583 -3.9056
-18.1369 19.1145 -3.9242
-21.7131 19.1329 -4.3099
-21.5708 15.8266 -3.9844
-23.6369 14.2868 -4.1132
-23.6510 11.5518 -3.9199
-23.6638 9.0431 -3.7727
-21.6365 6.1211 -3.3487
-16.3717 3.0872 -2.4811
-16.3794 1.5948 -2.4509
-16.3870 0.1267 -2.4405
-16.3945 -1.3406 -2.4497
-16.4022 -2.8309 -2.4788
-16.4101 -4.3695 -2.5290
-22.2021 -8.0932 -3.5193
-12.0404 -12.3026 -2.5636
26.9860 -13.6962 -4.5069
23.9679 -4.9006 -3.6433
21.4735 -2.4230 -3.2183
19.7014 -0.4540 -2.9348
18.1585 1.2053 -2.7102
16.7507 2.6277 -2.5251
15.5136 3.8775 -2.3815
14.4014 5.0013 -2.2704
14.4523 6.5160 -2.3610
16.3135 9.1871 -2.7883
14.9934 10.3064 -2.7096
15.1714 12.5608 -2.9333
24.0806 23.8630 -5.0488
21.8559 25.9160 -5.0488
19.4570 27.7623 -5.0488
11.1474 19.3808 -3.3297
-4.8677 46.9602 -7.0311
-16.2751 21.8947 -4.0629
-17.0509 19.1090 -3.8140
-20.4104 19.1262 -4.1657
-21.3878 16.7232 -4.0433
-23.6318 15.2905 -4.1918
-23.6463 12.4600 -3.9805
-23.6595 9.8817 -3.8185
-21.8065 6.8968 -3.4061
-16.3691 3.6088 -2.4963
-16.3768 2.1023 -2.4589
-16.3844 0.6287 -2.4419
-16.3919 -0.8362 -2.4444
-16.3995 -2.3160 -2.4666
-16.4073 -3.8351 -2.5093
-22.1982 -7.3301 -3.4815
4.0230 -45.6072 -6.8185
9.3026 -25.0215 -3.9756
8.1185 -13.7112 -2.3731
22.4510 -3.2321 -3.3780
20.3328 -1.0920 -3.0325
18.6914 0.6669 -2.7854
17.2112 2.1624 -2.5833
15.9216 3.4654 -2.4267
14.7708 4.6280 -2.3052
13.7218 5.6879 -2.2121
16.4009 8.5860 -2.7570
15.4375 9.9299 -2.7336
14.1615 11.0118 -2.6716
24.7998 23.1147 -5.0488
22.6390 25.2347 -5.0488
20.2977 27.1537 -5.0488
14.6981 23.8348 -4.1703
-3.4182 46.9538 -7.0111
-16.2676 23.3446 -4.2375
-16.2878 19.4191 -3.7746
-19.1910 19.1200 -4.0344
-21.2359 17.6780 -4.1150
-23.6264 16.3342 -4.2776
-23.6415 13.3978 -4.0469
-23.6551 10.7417 -3.8691
-21.7045 7.6028 -3.4249
-21.7626 5.5015 -3.3430
-16.3742 2.6137 -2.4694
-16.3818 1.1316 -2.4455
-16.3893 -0.3337 -2.4413
-8.6428 -0.9517 -1.2949
-16.4046 -3.3083 -2.4923
-16.4126 -4.8678 -2.5495
-22.2058 -8.8088 -3.5577
9.1352 -13.5468 -2.4333
23.2952 -4.0851 -3.5222
21.0085 -1.7747 -3.1399
19.1563 0.0967 -2.8529
17.5322 1.6595 -2.6227
16.1964 3.0091 -2.4533
15.1522 4.2427 -2.3433
14.0718 5.3343 -2.2412
15.4331 7.4867 -2.5546
15.8900 9.5462 -2.7606
14.5925 10.6464 -2.6901
17.5995 15.4244 -3.4852
23.4008 24.5300 -5.0488
21.1194 26.5196 -5.0488
18.0738 27.3946 -4.8877
-6.2060 46.9661 -7.0553
-8.9460 16.8260 -2.8380
-16.2814 20.6645 -3.9179
-18.0450 19.1141 -3.9147
-21.6021 19.1323 -4.2975
-21.6387 15.9606 -4.0044
-23.6365 14.3681 -4.1194
-23.6506 11.6256 -3.9247
-23.6635 9.1116 -3.7763
-21.8129 6.2305 -3.3784
-16.3715 3.1299 -2.4823
-16.3792 1.6365 -2.4514
-16.3867 0.1682 -2.4405
-16.3943 -1.2989 -2.4492
-16.4019 -2.7883 -2.4777
-16.4098 -4.3251 -2.5273
-22.2018 -8.0296 -3.5160
-12.0204 -12.2202 -2.5528
-8.5228 -10.3723 -1.9993
26.9214 -13.7489 -4.5019
23.9933 -4.9690 -3.6491
21.7344 -2.5080 -3.2583
19.7519 -0.5051 -2.9425
18.2014 1.1620 -2.7162
16.7879 2.5901 -2.5297
15.5467 3.8442 -2.3850
14.4314 4.9709 -2.2731
14.3713 6.4358 -2.3451
16.3519 9.1545 -2.7909
15.0297 10.2756 -2.7114
14.9903 12.3472 -2.8922
24.1408 23.8021 -5.0488
21.9213 25.8607 -5.0488
19.5270 27.7131 -5.0488
11.1927 19.3463 -3.3286
-4.7480 46.9597 -7.0292
-16.2745 22.0098 -4.0766
-16.9641 19.1085 -3.8054
-20.3069 19.1257 -4.1544
-21.4514 16.8603 -4.0633
-23.6313 15.3750 -4.1986
-23.6459 12.5362 -3.9858
-23.6592 9.9517 -3.8225
-21.7981 6.9547 -3.4075
-16.3688 3.6522 -2.4977
-16.3766 2.1443 -2.4597
-16.3842 0.6700 -2.4421
-16.3917 -0.7948 -2.4440
-16.3993 -2.2737 -2.4656
-16.4071 -3.7913 -2.5078
-22.1979 -7.2680 -3.4785
3.9000 -45.5260 -6.8049
9.2306 -25.0213 -3.9719
22.5181 -3.2998 -3.3894
20.3868 -1.1466 -3.0409
18.7366 0.6212 -2.7919
17.2501 2.1231 -2.5884
15.9559 3.4307 -2.4306
14.7877 4.5923 -2.3060
13.7503 5.6591 -2.2144
16.4353 8.5512 -2.7591
15.4745 9.8985 -2.7357
14.1969 10.9818 -2.6730
20.3192 18.8430 -4.1270
22.7026 25.1776 -5.0488
20.3662 27.1023 -5.0488
14.7493 23.7831 -4.1677
-3.2989 46.9533 -7.0098
-16.2670 23.4697 -4.2527
-16.2873 19.5183 -3.7859
-19.0937 19.1195 -4.0241
-21.1626 17.7076 -4.1094
-23.6259 16.4222 -4.2850
-23.6411 13.4765 -4.0526
-23.6547 10.8137 -3.8735
-21.8601 7.7194 -3.4526
-21.7799 5.5644 -3.3478
-16.3740 2.6561 -2.4704
-16.3816 1.1732 -2.4459
-16.3891 -0.2923 -2.4412
-8.6330 -0.9286 -1.2931
-16.4044 -3.2652 -2.4910
-16.4124 -4.8226 -2.5476
-22.2055 -8.7438 -3.5541
9.1133 -13.5882 -2.4366
23.3680 -4.1586 -3.5348
21.0663 -1.8331 -3.1492
19.2041 0.0484 -2.8600
17.7347 1.6335 -2.6523
16.3814 3.0008 -2.4802
21.0495 28.4579 -5.0488
14.6267 23.9892 -4.0076
-3.6568 46.9547 -6.7177
-16.2689 23.0969 -4.0296
-16.2090 19.1281 -3.5762
-19.3868 19.1210 -3.8839
-21.2266 17.4896 -3.9230
-23.6273 16.1591 -4.0829
-23.6423 13.2409 -3.8651
-23.6559 10.5983 -3.6973
-20.4373 7.0433 -3.0833
-21.6535 5.3578 -3.1817
-16.3746 2.5291 -2.3633
-16.3822 1.0485 -2.3415
-16.3897 -0.4165 -2.3385
-8.6621 -0.9982 -1.2437
-16.4051 -3.3947 -2.3895
-16.4131 -4.9582 -2.4456
-22.2065 -8.9390 -3.4144
-31.4462 -34.3365 -6.6411
9.2007 -13.4964 -2.3298
23.1511 -3.9394 -3.3496
20.8938 -1.6588 -2.9896
19.0615 0.1925 -2.7190
17.4517 1.7408 -2.5016
16.1259 3.0803 -2.3417
15.0884 4.3072 -2.2381
14.0134 5.3932 -2.1417
15.6266 7.6783 -2.4834
15.8147 9.6100 -2.6396
14.5210 10.7070 -2.5734
17.8358 15.7914 -3.3978
24.3033 25.7349 -5.0488
21.9108 27.8003 -5.0488
17.9408 27.4943 -4.6827
-1.2345 26.1870 -3.7393
-6.4477 46.9669 -6.7620
-16.2609 24.6555 -4.2127
-16.2825 20.4526 -3.7288
-18.2293 19.1150 -3.7675
-20.7190 18.1643 -3.9302
-21.4636 15.6647 -3.7901
-23.6373 14.2057 -3.9335
-23.6513 11.4781 -3.7498
-23.6642 8.9749 -3.6099
-21.6072 6.0540 -3.2006
-16.3720 3.0444 -2.3752
-16.3796 1.5530 -2.3468
-16.3872 0.0854 -2.3374
-16.3947 -1.3823 -2.3468
-16.4024 -2.8736 -2.3752
-16.3325 -4.3931 -2.4124
-22.2025 -8.1569 -3.3738
46.9131 -13.9221 -6.9799
24.0208 -4.8483 -3.4953
21.4125 -2.3614 -3.0727
19.6511 -0.4032 -2.8035
18.1158 1.2484 -2.5901
16.7136 2.6651 -2.4141
15.4807 3.9108 -2.2775
14.3714 5.0316 -2.1719
14.5343 6.5972 -2.2767
16.2751 9.2197 -2.6680
14.9572 10.3372 -2.5933
15.1558 12.6125 -2.8124
25.0797 24.9789 -5.0488
22.7515 27.1165 -5.0488
20.2419 29.0379 -5.0488
11.1062 19.4224 -3.1913
-4.9876 46.9605 -6.7359
-16.2757 21.7804 -3.8782
-17.1382 19.1094 -3.6613
-20.5145 19.1268 -4.0006
-22.4663 17.4752 -4.0598
-23.6322 15.2062 -4.0083
-23.6467 12.3841 -3.8074
-23.6599 9.8118 -3.6534
-21.7514 6.8190 -3.2514
-16.3693 3.5656 -2.3896
-16.3770 2.0603 -2.3544
-16.3846 0.5872 -2.3385
-16.3921 -0.8778 -2.3414
-16.3997 -2.3583 -2.3632
-16.4075 -3.8788 -2.4048
-22.1985 -7.3925 -3.3373
-22.0972 -12.0748 -3.5917
8.1376 -13.6647 -2.2685
22.3845 -3.1649 -3.2246
20.0930 -1.0283 -2.8697
18.6463 0.7124 -2.6616
17.1724 2.2016 -2.4694
15.8873 3.5000 -2.3204
14.7399 4.6592 -2.2050
13.5683 5.6644 -2.0972
16.4056 8.6413 -2.6448
15.4006 9.9612 -2.6161
14.1263 11.0417 -2.5574
25.8326 24.1995 -5.0488
23.5709 26.4074 -5.0488
21.1213 28.4047 -5.0488
14.6599 23.9078 -4.0001
-3.5375 46.9541 -6.7163
-16.2682 23.2203 -4.0440
-16.2085 19.2257 -3.5868
-19.2886 19.1205 -3.8739
-21.2071 17.5636 -3.9276
-23.6268 16.2465 -4.0899
-23.6419 13.3192 -3.8705
-23.6555 10.6699 -3.7015
-21.8886 7.6054 -3.3052
-21.6705 5.4201 -3.1862
-16.3744 2.5714 -2.3642
-16.3820 1.0900 -2.3418
-16.3895 -0.3751 -2.3383
-8.6523 -0.9749 -1.2419
-16.4048 -3.3515 -2.3882
-16.4129 -4.9130 -2.4437
-22.2061 -8.8738 -3.4109
-31.4426 -34.1590 -6.6222
9.1648 -13.5170 -2.3294
23.2229 -4.0120 -3.3615
20.9510 -1.7165 -2.9984
19.1088 0.1447 -2.7257
17.4919 1.7002 -2.5067
16.1611 3.0448 -2.3457
15.1202 4.2750 -2.2412
14.0426 5.3638 -2.1441
15.5291 7.5817 -2.4649
15.8523 9.5781 -2.6418
14.5567 10.6767 -2.5749
17.8633 15.7355 -3.3955
24.3682 25.6735 -5.0488
21.9809 27.7449 -5.0488
18.0005 27.4341 -4.6802
-1.1690 26.2047 -3.7414
-6.3268 46.9664 -6.7596
-16.2602 24.7904 -4.2287
-16.2819 20.5583 -3.7406
-18.1369 19.1145 -3.7584
-20.5361 18.0958 -3.9041
-21.5306 15.7972 -3.8090
-23.6369 14.2868 -3.9395
-23.6510 11.5518 -3.7543
-23.6638 9.0431 -3.6134
-21.7531 6.1541 -3.2245
-16.3717 3.0872 -2.3763
-16.3794 1.5947 -2.3473
-16.3870 0.1267 -2.3374
-16.3945 -1.3406 -2.3462
-16.4022 -2.8309 -2.3741
-16.4101 -4.3695 -2.4222
-22.2021 -8.0932 -3.3707
-12.0396 -12.3018 -2.4552
26.9852 -13.6958 -4.3164
23.9679 -4.9006 -3.4894
21.4734 -2.4230 -3.0823
19.7014 -0.4540 -2.8109
18.1585 1.2053 -2.5957
16.7507 2.6277 -2.4185
15.5136 3.8775 -2.2809
14.4014 5.0013 -2.1745
14.4523 6.5160 -2.2612
16.3135 9.1871 -2.6705
14.9934 10.3064 -2.5951
15.1714 12.5608 -2.8094
25.1427 24.9155 -5.0488
22.8199 27.0590 -5.0488
20.3151 28.9867 -5.0488
11.1474 19.3808 -3.1890
-4.8677 46.9600 -6.7340
-16.2751 21.8947 -3.8912
-17.0509 19.1090 -3.6529
-20.4104 19.1262 -3.9897
-22.3878 17.5051 -4.0536
-23.6318 15.2905 -4.0148
-23.6463 12.4600 -3.8124
-23.6595 9.8817 -3.6572
-21.7429 6.8767 -3.2527
-16.3691 3.6088 -2.3909
-16.3768 2.1023 -2.3551
-16.3844 0.6287 -2.3387
-16.3919 -0.8362 -2.3411
-16.3995 -2.3160 -2.3624
-16.4073 -3.8351 -2.4033
-22.1982 -7.3301 -3.3344
4.0230 -45.6067 -6.5304
9.3026 -25.0215 -3.8076
8.1182 -13.7108 -2.2728
22.4510 -3.2321 -3.2353
20.3328 -1.0920 -2.9044
18.6914 0.6669 -2.6677
17.2112 2.1624 -2.4742
15.9216 3.4654 -2.3241
14.7708 4.6280 -2.2078
13.7218 5.6879 -2.1187
16.4009 8.5860 -2.6405
15.4375 9.9299 -2.6181
14.1615 11.0118 -2.5587
25.8935 24.1342 -5.0488
23.6375 26.3477 -5.0488
21.1929 28.3513 -5.0488
14.6981 23.8348 -3.9941
-3.4273 47.0778 -6.7327
-16.2676 23.3446 -4.0585
-16.2080 19.3239 -3.5974
-19.1910 19.1200 -3.8640
-20.9836 17.4679 -3.8943
-23.6264 16.3342 -4.0969
-23.6415 13.3978 -3.8760
-23.6551 10.7417 -3.7056
-21.8640 7.6587 -3.3044
-21.6875 5.4826 -3.1907
-16.3742 2.6137 -2.3651
-16.3818 1.1316 -2.3422
-16.3893 -0.3337 -2.3382
-8.6425 -0.9517 -1.2402
-16.4046 -3.3083 -2.3870
-16.4126 -4.8678 -2.4418
-22.2058 -8.8088 -3.4074
-31.4484 -33.9926 -6.6053
9.1352 -13.5468 -2.3305
23.2952 -4.0851 -3.3734
21.0085 -1.7747 -3.0072
19.1563 0.0967 -2.7324
17.5322 1.6595 -2.5119
16.1964 3.0091 -2.3497
15.1522 4.2427 -2.2444
14.0718 5.3343 -2.1465
15.4331 7.4867 -2.4466
15.8900 9.5462 -2.6440
14.5925 10.6464 -2.5765
17.5995 15.4244 -3.3379
24.4329 25.6119 -5.0488
22.0508 27.6893 -5.0488
18.0738 27.3946 -4.6812
-6.2060 46.9658 -6.7572
-8.9456 16.8253 -2.7180
-16.2595 24.9263 -4.2449
-16.2814 20.6645 -3.7524
-18.0450 19.1141 -3.7493
-20.3593 18.0316 -3.8792
-21.5983 15.9308 -3.8280
-23.6365 14.3681 -3.9454
-23.6506 11.6256 -3.7589
-23.6635 9.1116 -3.6168
-22.1683 6.3321 -3.2884
-16.3715 3.1299 -2.3774
-16.3792 1.6365 -2.3479
-16.3867 0.1681 -2.3375
-16.3943 -1.2989 -2.3457
-16.4019 -2.7883 -2.3731
-16.4098 -4.3251 -2.4206
-22.2018 -8.0296 -3.3675
-12.0200 -12.2199 -2.4449
-8.5223 -10.3716 -1.9147
26.9207 -13.7486 -4.3116
23.9933 -4.9690 -3.4949
21.7343 -2.5080 -3.1207
19.7519 -0.5051 -2.8182
18.2014 1.1620 -2.6014
16.7879 2.5901 -2.4229
15.5467 3.8442 -2.2843
14.4314 4.9709 -2.1771
14.3713 6.4358 -2.2460
16.3519 9.1545 -2.6730
15.0297 10.2756 -2.5969
14.9903 12.3472 -2.7701
25.2055 24.8519 -5.0488
22.8881 27.0013 -5.0488
20.3882 28.9354 -5.0488
11.1927 19.3463 -3.1880
-4.7480 46.9594 -6.7322
-16.2745 22.0098 -3.9044
-16.9641 19.1085 -3.6446
-20.3069 19.1257 -3.9789
-22.3097 17.5349 -4.0474
-23.6313 15.3750 -4.0213
-23.6459 12.5362 -3.8174
-23.6592 9.9517 -3.6610
-21.7345 6.9344 -3.2541
-16.3688 3.6522 -2.3922
-16.3766 2.1443 -2.3558
-16.3842 0.6700 -2.3389
-16.3917 -0.7948 -2.3408
-16.3993 -2.2737 -2.3615
-16.4071 -3.7913 -2.4019
-22.1979 -7.2680 -3.3316
3.9000 -45.5260 -6.5174
9.2306 -25.0213 -3.8040
22.5181 -3.2999 -3.2462
20.3868 -1.1466 -2.9125
18.7366 0.6212 -2.6740
17.2501 2.1231 -2.4790
15.9559 3.4307 -2.3279
14.7877 4.5923 -2.2086
13.7503 5.6591 -2.1209
16.4353 8.5512 -2.6426
15.4745 9.8985 -2.6201
14.1969 10.9818 -2.5601
20.3192 18.8430 -3.9526
23.7039 26.2880 -5.0488
21.2645 28.2976 -5.0488
14.7493 23.7831 -3.9917
-3.3466 47.6309 -6.8106
-16.2670 23.4697 -4.0731
-16.2873 19.5183 -3.6260
-19.0937 19.1195 -3.8541
-20.8367 17.4349 -3.8752
-23.6259 16.4221 -4.1040
-23.6411 13.4765 -3.8814
-23.6547 10.8137 -3.7098
-21.8394 7.7121 -3.3036
-21.7046 5.5452 -3.1953
-16.3740 2.6561 -2.3660
-16.3816 1.1732 -2.3426
-16.3891 -0.2923 -2.3380
-8.6328 -0.9286 -1.2384
-16.4044 -3.2652 -2.3857
-16.4124 -4.8226 -2.4400
-22.2055 -8.7438 -3.4040
-31.3387 -33.7032 -6.5644
9.1133 -13.5882 -2.3337
23.3680 -4.1586 -3.3855
21.0663 -1.8331 -3.0162
19.2041 0.0484 -2.7392
17.7347 1.6335 -2.5403
16.3814 3.0008 -2.3754
22.0189 29.7686 -5.0488
14.6267 23.9892 -3.8311
-3.6858 47.3276 -6.4729
-16.2689 23.0969 -3.8522
-16.2090 19.1281 -3.4187
-19.3868 19.1210 -3.7129
-21.1404 17.4186 -3.7350
-23.6273 16.1591 -3.9031
-23.6423 13.2409 -3.6949
-44.3045 19.8493 -6.6197
-20.3958 7.0290 -2.9416
-21.5794 5.3395 -3.0312
-16.3746 2.5291 -2.2592
-16.3822 1.0485 -2.2384
-16.3897 -0.4165 -2.2356
-8.6618 -0.9981 -1.1889
-16.4051 -3.3947 -2.2843
-16.4131 -4.9582 -2.3379
-22.2065 -8.9390 -3.2641
9.2007 -13.4964 -2.2273
23.1511 -3.9394 -3.2021
20.8938 -1.6587 -2.8579
19.0615 0.1925 -2.5993
17.4517 1.7408 -2.3914
16.1259 3.0803 -2.2386
15.0884 4.3072 -2.1396
14.0134 5.3932 -2.0474
15.6266 7.6783 -2.3741
15.8147 9.6100 -2.5233
14.5210 10.7070 -2.4601
17.8358 15.7914 -3.2483
25.4226 26.9201 -5.0488
22.9199 29.0806 -5.0488
17.9409 27.4943 -4.4765
-1.2344 26.1852 -3.5744
-6.4476 46.9667 -6.4642
-16.2609 24.6555 -4.0272
-16.2027 20.3524 -3.5472
-18.2293 19.1150 -3.6017
-20.6609 18.1133 -3.7466
-21.4240 15.6358 -3.6165
-23.6373 14.2057 -3.7604
-40.5000 19.6548 -6.1384
-21.5815 6.0467 -3.0561
-16.3720 3.0444 -2.2707
-16.3796 1.5530 -2.2435
-16.3872 0.0854 -2.2345
-16.3947 -1.3823 -2.2434
-16.4024 -2.8736 -2.2706
-16.3325 -4.3931 -2.3062
-22.2025 -8.1569 -3.2253
5.2278 -42.9504 -5.8998
46.9070 -13.9203 -6.6717
24.0208 -4.8483 -3.3414
21.4125 -2.3614 -2.9374
19.6511 -0.4032 -2.6801
18.1158 1.2484 -2.4760
16.7136 2.6651 -2.3078
15.4807 3.9108 -2.1772
14.3714 5.0316 -2.0763
14.5343 6.5972 -2.1764
16.2751 9.2197 -2.5505
14.9571 10.3372 -2.4792
15.1558 12.6125 -2.6886
26.2347 26.1293 -5.0488
23.7993 28.3654 -5.0488
21.1742 30.3753 -5.0488
11.1062 19.4224 -3.0508
-4.9876 46.9603 -6.4393
-16.2521 26.3642 -4.2230
-16.2757 21.7804 -3.7075
-17.1382 19.1094 -3.5001
-20.5145 19.1268 -3.8245
-21.7135 16.8896 -3.7510
-23.6322 15.2062 -3.8318
-23.6467 12.3841 -3.6398
-21.6882 6.7992 -3.0992
-16.3693 3.5656 -2.2844
-16.3770 2.0603 -2.2507
-16.3846 0.5872 -2.2356
-16.3921 -0.8778 -2.2384
-16.3997 -2.3583 -2.2592
-16.4075 -3.8788 -2.2989
-22.1985 -7.3925 -3.1903
-22.0965 -12.0745 -3.4335
8.1373 -13.6643 -2.1686
22.3845 -3.1649 -3.0826
20.0930 -1.0283 -2.7434
18.6463 0.7124 -2.5444
17.1724 2.2016 -2.3607
15.8873 3.5000 -2.2183
14.7399 4.6592 -2.1079
13.5683 5.6644 -2.0049
16.4056 8.6413 -2.5283
15.4006 9.9612 -2.5009
14.1263 11.0417 -2.4448
27.0223 25.3140 -5.0488
24.6564 27.6235 -5.0488
22.0940 29.7129 -5.0488
14.6599 23.9078 -3.8240
-3.6077 47.8867 -6.5481
-16.2682 23.2203 -3.8659
-16.2085 19.2257 -3.4289
-19.2886 19.1205 -3.7034
-20.9923 17.3857 -3.7166
-23.6268 16.2465 -3.9098
-23.6419 13.3192 -3.7001
-44.0209 19.8558 -6.5848
-21.8680 7.5982 -3.1567
-21.5963 5.4015 -3.0355
-16.3744 2.5714 -2.2601
-16.3820 1.0900 -2.2387
-16.3895 -0.3751 -2.2354
-8.6520 -0.9749 -1.1872
-16.4048 -3.3515 -2.2831
-16.4129 -4.9130 -2.3361
-22.2061 -8.8738 -3.2607
9.1648 -13.5170 -2.2268
23.2229 -4.0120 -3.2135
20.9510 -1.7165 -2.8663
19.1088 0.1447 -2.6057
17.4919 1.7002 -2.3963
16.1611 3.0448 -2.2424
15.1202 4.2750 -2.1425
14.0426 5.3638 -2.0497
15.5291 7.5817 -2.3564
15.8523 9.5781 -2.5255
14.5567 10.6767 -2.4615
17.8633 15.7355 -3.2460
25.4905 26.8558 -5.0488
22.9932 29.0227 -5.0488
18.0005 27.4341 -4.4741
-1.1689 26.2030 -3.5765
-6.3268 46.9661 -6.4619
-16.2602 24.7904 -4.0426
-16.2021 20.4575 -3.5584
-18.1369 19.1145 -3.5929
-20.4787 18.0452 -3.7218
-21.4907 15.7679 -3.6345
-23.6369 14.2868 -3.7660
-23.6510 11.5518 -3.5891
-21.6458 6.1237 -3.0674
-16.3717 3.0872 -2.2717
-16.3794 1.5948 -2.2440
-16.3870 0.1267 -2.2345
-16.3945 -1.3406 -2.2429
-16.4022 -2.8309 -2.2696
-16.4101 -4.3695 -2.3156
-22.2021 -8.0932 -3.2222
-12.0388 -12.3009 -2.3469
26.9843 -13.6953 -4.1262
23.9679 -4.9006 -3.3358
21.4735 -2.4230 -2.9466
19.7014 -0.4540 -2.6871
18.1585 1.2053 -2.4815
16.7507 2.6277 -2.3120
15.5136 3.8775 -2.1804
14.4014 5.0013 -2.0788
14.4523 6.5160 -2.1617
16.3135 9.1871 -2.5529
14.9934 10.3064 -2.4809
15.1714 12.5608 -2.6857
26.3006 26.0630 -5.0488
23.8708 28.3052 -5.0488
21.2508 30.3217 -5.0488
11.1474 19.3808 -3.0486
-4.8677 46.9597 -6.4375
-16.2513 26.5125 -4.2402
-16.2751 21.8946 -3.7199
-17.0509 19.1090 -3.4921
-20.4104 19.1262 -3.8140
-21.7062 16.9721 -3.7571
-23.6318 15.2905 -3.8380
-23.6463 12.4600 -3.6445
-21.6797 6.8567 -3.1005
-16.3691 3.6088 -2.2856
-16.3768 2.1023 -2.2514
-16.3844 0.6287 -2.2357
-16.3919 -0.8362 -2.2380
-16.3995 -2.3160 -2.2584
-16.4073 -3.8351 -2.2975
-22.1982 -7.3301 -3.1876
8.1180 -13.7104 -2.1726
22.4510 -3.2321 -3.0929
20.3328 -1.0920 -2.7765
18.6914 0.6669 -2.5503
17.2112 2.1624 -2.3653
15.9216 3.4654 -2.2218
14.7708 4.6280 -2.1106
13.7218 5.6879 -2.0254
16.4009 8.5860 -2.5243
15.4375 9.9299 -2.5028
14.1615 11.0118 -2.4461
27.0861 25.2457 -5.0488
24.7262 27.5612 -5.0488
22.1690 29.6570 -5.0488
14.6981 23.8348 -3.8183
-3.5278 48.4588 -6.6251
-16.2676 23.3446 -3.8798
-16.2878 19.4191 -3.4560
-19.1910 19.1200 -3.6939
-20.8455 17.3530 -3.6984
-23.6264 16.3342 -3.9165
-23.6415 13.3978 -3.7053
-43.2526 19.6408 -6.4773
-21.8434 7.6515 -3.1559
-21.6131 5.4638 -3.0398
-16.3742 2.6137 -2.2610
-16.3818 1.1316 -2.2391
-16.3893 -0.3337 -2.2352
-8.6423 -0.9517 -1.1855
-16.4046 -3.3083 -2.2819
-16.4126 -4.8678 -2.3343
-22.2058 -8.8088 -3.2574
9.1352 -13.5468 -2.2280
23.2952 -4.0851 -3.2249
21.0085 -1.7747 -2.8748
19.1563 0.0967 -2.6121
17.5322 1.6595 -2.4013
16.1964 3.0091 -2.2463
15.1522 4.2427 -2.1455
14.0718 5.3343 -2.0520
15.4331 7.4867 -2.3389
15.8900 9.5462 -2.5276
14.5925 10.6464 -2.4630
17.5995 15.4244 -3.1910
25.5581 26.7915 -5.0488
23.0664 28.9645 -5.0488
18.0738 27.3946 -4.4751
-6.2059 46.9656 -6.4597
-8.9453 16.8247 -2.5982
-16.2595 24.9263 -4.0580
-16.2016 20.5632 -3.5696
-18.0450 19.1141 -3.5843
-20.3197 17.9965 -3.7011
-21.5580 15.9012 -3.6527
-23.6365 14.3681 -3.7717
-23.6506 11.6256 -3.5934
-21.7107 6.2013 -3.0788
-16.3715 3.1299 -2.2728
-16.3792 1.6365 -2.2445
-16.3867 0.1682 -2.2345
-16.3943 -1.2989 -2.2425
-16.4019 -2.7883 -2.2686
-16.4098 -4.3251 -2.3140
-22.2018 -8.0296 -3.2192
-12.0197 -12.2196 -2.3372
-8.5218 -10.3710 -1.8303
26.9201 -13.7482 -4.1217
23.9933 -4.9690 -3.3410
21.7344 -2.5080 -2.9833
19.7519 -0.5051 -2.6942
18.2014 1.1620 -2.4869
16.7879 2.5901 -2.3162
15.5467 3.8442 -2.1837
14.4314 4.9709 -2.0813
14.3713 6.4358 -2.1471
16.3519 9.1545 -2.5553
15.0297 10.2756 -2.4826
14.9903 12.3472 -2.6481
26.3664 25.9964 -5.0488
23.9422 28.2448 -5.0488
21.3272 30.2680 -5.0488
11.1927 19.3463 -3.0476
-4.7479 46.9592 -6.4358
-16.2085 26.5932 -4.2466
-16.2745 22.0098 -3.7325
-16.9641 19.1085 -3.4842
-20.3069 19.1257 -3.8037
-22.2024 17.4506 -3.8506
-23.6313 15.3750 -3.8442
-23.6459 12.5362 -3.6493
-21.6713 6.9143 -3.1018
-16.3688 3.6522 -2.2869
-16.3766 2.1443 -2.2521
-16.3842 0.6700 -2.2359
-16.3917 -0.7948 -2.2377
-16.3993 -2.2737 -2.2575
-16.4071 -3.7913 -2.2962
-22.1979 -7.2680 -3.1849
-31.4239 -35.9407 -6.5098
3.9023 -45.5530 -6.2342
22.5181 -3.2998 -3.1033
20.3868 -1.1466 -2.7842
18.7366 0.6212 -2.5562
17.2501 2.1231 -2.3699
15.9559 3.4307 -2.2254
14.7877 4.5923 -2.1114
13.7503 5.6591 -2.0275
16.4353 8.5512 -2.5262
15.4745 9.8985 -2.5048
14.1969 10.9818 -2.4474
20.3192 18.8430 -3.7786
24.7956 27.4987 -5.0488
22.2438 29.6009 -5.0488
14.7493 23.7831 -3.8159
-3.4459 49.0447 -6.7040
-16.2670 23.4697 -3.8937
-16.2873 19.5183 -3.4663
-19.0937 19.1195 -3.6844
-20.6998 17.3204 -3.6803
-23.6259 16.4222 -3.9233
-23.6411 13.4765 -3.7106
-43.1850 19.7420 -6.4747
-21.8189 7.7048 -3.1552
-21.6301 5.5261 -3.0441
-16.3740 2.6561 -2.2619
-16.3816 1.1732 -2.2394
-16.3891 -0.2923 -2.2351
-8.6326 -0.9286 -1.1839
-16.4044 -3.2652 -2.2807
-16.4124 -4.8226 -2.3325
-22.2055 -8.7438 -3.2541
9.1133 -13.5882 -2.2310
23.3680 -4.1586 -3.2364
21.0663 -1.8331 -2.8834
19.2041 0.0484 -2.6186
17.7347 1.6335 -2.4285
16.3814 3.0008 -2.2709
23.0801 31.2032 -5.0488
14.6267 23.9892 -3.6550
-3.7944 48.7216 -6.3572
-16.2432 28.0864 -4.2207
-16.2689 23.0969 -3.6751
-16.2090 19.1281 -3.2615
-19.3868 19.1210 -3.5422
-21.0006 17.3034 -3.5398
-23.6273 16.1591 -3.7237
-32.7647 18.3500 -4.8852
-44.3045 19.8493 -6.3154
-21.8720 7.5378 -3.0095
-22.1324 5.4763 -2.9659
-16.3746 2.5291 -2.1554
-16.3822 1.0485 -2.1355
-16.3897 -0.4165 -2.1328
-8.6616 -0.9981 -1.1342
-16.4051 -3.3947 -2.1793
-16.4131 -4.9582 -2.2304
-22.2065 -8.9390 -3.1140
9.2007 -13.4964 -2.1249
23.1511 -3.9394 -3.0549
20.8938 -1.6588 -2.7265
19.0615 0.1925 -2.4798
17.4517 1.7408 -2.2815
16.1259 3.0803 -2.1357
15.0884 4.3072 -2.0412
14.0134 5.3932 -1.9533
15.6266 7.6783 -2.2649
15.8147 9.6100 -2.4073
14.5210 10.7070 -2.3470
17.8358 15.7914 -3.0989
26.6478 28.2175 -5.0488
24.0245 30.4821 -5.0488
17.9408 27.4943 -4.2707
-1.2343 26.1835 -3.4099
-6.4476 46.9664 -6.1670
-16.2609 24.6555 -3.8421
-16.2825 20.4526 -3.4008
-18.2293 19.1150 -3.4361
-20.6032 18.0627 -3.5643
-21.3846 15.6071 -3.4439
-23.6373 14.2057 -3.5875
-40.5000 19.6548 -5.8561
-21.7590 6.0965 -2.9395
-16.3720 3.0444 -2.1663
-16.3796 1.5530 -2.1403
-16.3872 0.0854 -2.1318
-16.3947 -1.3823 -2.1403
-16.4024 -2.8736 -2.1662
-16.3325 -4.3931 -2.2001
-22.2025 -8.1569 -3.0770
46.9009 -13.9185 -6.3642
24.0208 -4.8483 -3.1878
21.4125 -2.3614 -2.8024
19.6511 -0.4032 -2.5569
18.1158 1.2484 -2.3622
16.7136 2.6651 -2.2017
15.4807 3.9108 -2.0771
14.3714 5.0316 -1.9808
14.5343 6.5972 -2.0764
16.2751 9.2197 -2.4333
14.9572 10.3372 -2.3652
15.1558 12.6125 -2.5649
27.4991 27.3886 -5.0488
24.9463 29.7324 -5.0488
22.1553 31.7828 -5.0399
11.1062 19.4224 -2.9105
-4.9876 46.9600 -6.1432
-16.2521 26.3641 -4.0289
-16.2756 21.7804 -3.5370
-17.1382 19.1094 -3.3391
-20.5145 19.1268 -3.6486
-21.6729 16.8580 -3.5718
-23.6322 15.2062 -3.6556
-32.7423 17.1475 -4.8081
-21.6254 6.7795 -2.9482
-16.3693 3.5656 -2.1793
-16.3770 2.0603 -2.1472
-16.3846 0.5872 -2.1328
-16.3921 -0.8778 -2.1354
-16.3997 -2.3583 -2.1553
-16.4075 -3.8788 -2.1932
-22.1985 -7.3925 -3.0436
-22.0958 -12.0741 -3.2755
8.1371 -13.6639 -2.0688
22.3844 -3.1648 -2.9409
20.0930 -1.0283 -2.6172
18.6463 0.7124 -2.4274
17.1724 2.2016 -2.2522
15.8873 3.5000 -2.1163
14.7399 4.6592 -2.0110
13.5683 5.6644 -1.9127
16.4056 8.6413 -2.4121
15.4006 9.9612 -2.3859
14.1263 11.0417 -2.3324
28.3246 26.5340 -5.0488
25.8447 28.9548 -5.0488
23.1588 31.1449 -5.0488
14.6599 23.9078 -3.6482
-16.1628 28.1109 -4.2182
-16.2682 23.2203 -3.6882
-16.2085 19.2257 -3.2712
-19.2886 19.1205 -3.5331
-20.8537 17.2710 -3.5223
-23.6268 16.2465 -3.7300
-32.6828 18.4126 -4.8798
-44.0209 19.8558 -6.2821
-21.8474 7.5911 -3.0087
-21.5227 5.3831 -2.8860
-16.3744 2.5714 -2.1562
-16.3820 1.0900 -2.1358
-16.3895 -0.3751 -2.1326
-8.6518 -0.9749 -1.1326
-16.4048 -3.3515 -2.1781
-16.4129 -4.9130 -2.2287
-22.2061 -8.8738 -3.1108
9.1648 -13.5170 -2.1244
23.2229 -4.0120 -3.0657
20.9510 -1.7165 -2.7346
19.1088 0.1447 -2.4859
17.4919 1.7002 -2.2862
16.1611 3.0448 -2.1393
15.1202 4.2750 -2.0440
14.0426 5.3638 -1.9555
15.5291 7.5817 -2.2480
15.8523 9.5781 -2.4094
14.5567 10.6767 -2.3484
17.8633 15.7355 -3.0968
26.7190 28.1501 -5.0488
24.1013 30.4213 -5.0488
18.0005 27.4341 -4.2684
-1.1689 26.2013 -3.4118
-6.3268 46.9659 -6.1648
-16.2602 24.7904 -3.8567
-16.2819 20.5583 -3.4115
-18.1369 19.1145 -3.4277
-20.4244 17.9974 -3.5413
-21.4510 15.7387 -3.4610
-23.6369 14.2868 -3.5929
-40.4994 19.7810 -5.8632
-21.8652 6.1858 -2.9560
-16.3717 3.0872 -2.1673
-16.3794 1.5947 -2.1408
-16.3870 0.1267 -2.1318
-16.3945 -1.3406 -2.1398
-16.4022 -2.8309 -2.1652
-16.4101 -4.3695 -2.2091
-22.2021 -8.0932 -3.0741
-12.0380 -12.3002 -2.2389
26.9834 -13.6949 -3.9364
23.9679 -4.9006 -3.1824
21.4735 -2.4230 -2.8111
19.7014 -0.4540 -2.5636
18.1585 1.2053 -2.3674
16.7507 2.6277 -2.2057
15.5136 3.8775 -2.0802
14.4014 5.0013 -1.9832
14.4523 6.5160 -2.0623
16.3135 9.1871 -2.4355
14.9934 10.3064 -2.3668
15.1714 12.5608 -2.5622
27.5681 27.3191 -5.0488
25.0213 29.6693 -5.0488
22.2749 31.7830 -5.0488
11.1474 19.3808 -2.9085
-4.8677 46.9595 -6.1415
-16.2513 26.5125 -4.0453
-16.2388 21.8459 -3.5410
-17.0509 19.1090 -3.3315
-20.4104 19.1262 -3.6387
-21.6655 16.9403 -3.5776
-23.6318 15.2905 -3.6615
-32.8215 17.2948 -4.8261
-21.6170 6.8369 -2.9494
-16.3691 3.6088 -2.1805
-16.3768 2.1023 -2.1479
-16.3844 0.6287 -2.1329
-16.3919 -0.8362 -2.1351
-16.3995 -2.3160 -2.1545
-16.4073 -3.8351 -2.1919
-22.1982 -7.3301 -3.0410
-22.2536 -12.0875 -3.2944
8.1177 -13.7100 -2.0727
22.4510 -3.2321 -2.9507
20.3328 -1.0920 -2.6488
18.6914 0.6669 -2.4330
17.2112 2.1624 -2.2565
15.9216 3.4654 -2.1197
14.7708 4.6280 -2.0136
13.7218 5.6879 -1.9323
16.4009 8.5860 -2.4082
15.4375 9.9299 -2.3878
14.1615 11.0118 -2.3336
28.3915 26.4624 -5.0488
25.9178 28.8894 -5.0488
23.2374 31.0863 -5.0488
14.6981 23.8348 -3.6427
-16.2676 23.3446 -3.7014
-16.2878 19.4191 -3.2971
-19.1910 19.1200 -3.5240
-21.4093 17.8223 -3.6237
-23.6264 16.3342 -3.7365
-32.6275 18.4903 -4.8786
-43.2526 19.6408 -6.1795
-21.8229 7.6443 -3.0080
-21.5394 5.4451 -2.8901
-16.3742 2.6137 -2.1570
-16.3818 1.1316 -2.1361
-16.3893 -0.3337 -2.1325
-8.6420 -0.9517 -1.1310
-16.4046 -3.3083 -2.1770
-16.4126 -4.8678 -2.2270
-22.2058 -8.8088 -3.1077
9.1352 -13.5468 -2.1255
23.2953 -4.0851 -3.0766
21.0085 -1.7747 -2.7427
19.1563 0.0967 -2.4920
17.5322 1.6595 -2.2909
16.1964 3.0091 -2.1430
15.1522 4.2427 -2.0469
14.0718 5.3343 -1.9577
15.4331 7.4867 -2.2314
15.8900 9.5462 -2.4114
14.5925 10.6464 -2.3498
17.5995 15.4244 -3.0443
26.7899 28.0826 -5.0488
24.1781 30.3604 -5.0488
18.0738 27.3946 -4.2694
-6.2059 46.9654 -6.1626
-8.9450 16.8241 -2.4787
-16.2595 24.9263 -3.8714
-16.2814 20.6645 -3.4223
-18.0450 19.1141 -3.4195
-20.2803 17.9616 -3.5241
-21.5180 15.8717 -3.4783
-23.6365 14.3681 -3.5983
-40.3554 19.8370 -5.8496
-21.8353 6.2370 -2.9541
-16.3715 3.1299 -2.1683
-16.3792 1.6365 -2.1413
-16.3867 0.1681 -2.1318
-16.3943 -1.2989 -2.1394
-16.4019 -2.7883 -2.1643
-16.4098 -4.3251 -2.2076
-22.2018 -8.0296 -3.0712
-12.0194 -12.2193 -2.2297
-8.5212 -10.3703 -1.7460
26.9194 -13.7479 -3.9321
23.9933 -4.9690 -3.1874
21.7344 -2.5080 -2.8461
19.7519 -0.5051 -2.5703
18.2014 1.1620 -2.3726
16.7879 2.5901 -2.2097
15.5467 3.8442 -2.0833
14.4314 4.9709 -1.9856
14.3713 6.4358 -2.0484
16.3519 9.1545 -2.4378
15.0297 10.2756 -2.3684
14.9903 12.3472 -2.5263
27.6371 27.2493 -5.0488
25.0961 29.6061 -5.0488
22.3550 31.7267 -5.0488
11.1927 19.3463 -2.9075
-4.7479 46.9590 -6.1398
-16.2085 26.5932 -4.0513
-16.1947 21.9019 -3.5434
-16.9641 19.1085 -3.3240
-20.3069 19.1257 -3.6288
-21.6582 17.0228 -3.5835
-23.6313 15.3750 -3.6675
-33.6681 17.8496 -4.9572
-21.6085 6.8942 -2.9506
-16.3688 3.6522 -2.1817
-16.3766 2.1443 -2.1485
-16.3842 0.6700 -2.1331
-16.3917 -0.7948 -2.1348
-16.3993 -2.2737 -2.1537
-16.4071 -3.7913 -2.1906
-22.1979 -7.2680 -3.0385
3.9022 -45.5518 -5.9474
22.5181 -3.2999 -2.9606
20.3868 -1.1466 -2.6562
18.7366 0.6212 -2.4387
17.2501 2.1231 -2.2609
15.9559 3.4306 -2.1231
14.7877 4.5923 -2.0143
13.7503 5.6591 -1.9343
16.4353 8.5512 -2.4101
15.4745 9.8985 -2.3896
14.1969 10.9818 -2.3349
20.3192 18.8430 -3.6049
25.9906 28.8240 -5.0488
23.3158 31.0275 -5.0488
14.7493 23.7831 -3.6405
-16.2670 23.4697 -3.7147
-16.2873 19.5183 -3.3069
-19.0937 19.1195 -3.5150
-21.3081 17.8294 -3.6142
-23.6259 16.4222 -3.7429
-32.5591 18.5602 -4.8753
-43.1850 19.7419 -6.1769
-21.7984 7.6976 -3.0073
-21.5562 5.5073 -2.8942
-16.3740 2.6561 -2.1579
-16.3816 1.1732 -2.1365
-16.3891 -0.2923 -2.1323
-8.6323 -0.9286 -1.1294
-16.4044 -3.2652 -2.1758
-16.4124 -4.8226 -2.2253
-22.2055 -8.7438 -3.1045
9.1133 -13.5882 -2.1284
23.3681 -4.1586 -3.0876
21.0663 -1.8331 -2.7508
19.2041 0.0484 -2.4982
17.7347 1.6335 -2.3168
16.3814 3.0008 -2.1665
14.6267 23.9892 -3.4791
-16.2432 28.0864 -4.0176
-16.2689 23.0969 -3.4983
-16.2090 19.1281 -3.1046
-19.3868 19.1210 -3.3718
-21.6730 17.8574 -3.4773
-27.7151 18.9548 -4.1577
-32.8118 18.3763 -4.6568
-43.8461 19.6439 -5.9493
-21.8515 7.5307 -2.8620
-22.5341 5.5757 -2.8745
-16.3746 2.5291 -2.0517
-16.3822 1.0485 -2.0327
-16.3897 -0.4165 -2.0301
-8.6613 -0.9981 -1.0796
-16.4051 -3.3947 -2.0744
-16.4131 -4.9582 -2.1231
-22.2065 -8.9390 -2.9642
9.2007 -13.4964 -2.0226
23.1511 -3.9394 -2.9079
20.8938 -1.6588 -2.5954
19.0615 0.1925 -2.3604
17.4517 1.7408 -2.1717
16.1259 3.0803 -2.0329
15.0884 4.3072 -1.9430
14.0134 5.3932 -1.8593
15.6266 7.6783 -2.1560
15.8147 9.6100 -2.2915
14.5210 10.7070 -2.2340
17.8358 15.7914 -2.9498
17.9409 27.4943 -4.0652
-1.2342 26.1817 -3.2456
-6.4476 46.9662 -5.8702
-16.2609 24.6555 -3.6572
-16.2825 20.4526 -3.2371
-18.2293 19.1150 -3.2707
-20.5451 18.0118 -3.3833
-21.5625 15.7369 -3.3055
-31.9914 19.2264 -4.6217
-40.5000 19.6548 -5.5744
-21.6378 6.0625 -2.7825
-16.3720 3.0444 -2.0620
-16.3796 1.5530 -2.0373
-16.3872 0.0854 -2.0292
-16.3947 -1.3823 -2.0373
-16.4024 -2.8736 -2.0620
-16.3325 -4.3931 -2.0943
-22.2025 -8.1569 -2.9289
46.8783 -13.9117 -6.0550
24.0208 -4.8483 -3.0344
21.4125 -2.3614 -2.6675
19.6511 -0.4032 -2.4338
18.1158 1.2484 -2.2485
16.7136 2.6651 -2.0957
15.4807 3.9108 -1.9771
14.3714 5.0316 -1.8855
14.5344 6.5972 -1.9765
16.2751 9.2197 -2.3162
14.9572 10.3372 -2.2514
15.1558 12.6125 -2.4415
22.1553 31.7828 -4.7974
11.1062 19.4224 -2.7704
-4.9876 46.9598 -5.8476
-16.2521 26.3641 -3.8350
-16.2756 21.7804 -3.3668
-17.1382 19.1094 -3.1785
-20.5145 19.1268 -3.4731
-21.6324 16.8265 -3.3936
-29.4720 18.9639 -4.3396
-32.6398 17.0939 -4.5624
-21.5631 6.7600 -2.7982
-16.3693 3.5656 -2.0745
-16.3770 2.0603 -2.0439
-16.3846 0.5872 -2.0302
-16.3921 -0.8778 -2.0327
-16.3997 -2.3583 -2.0516
-16.4075 -3.8788 -2.0877
-22.1985 -7.3925 -2.8972
-22.0951 -12.0738 -3.1178
8.1369 -13.6635 -1.9692
22.3845 -3.1649 -2.7994
20.0930 -1.0283 -2.4913
18.6463 0.7124 -2.3106
17.1724 2.2016 -2.1438
15.8873 3.5000 -2.0144
14.7399 4.6592 -1.9142
13.5683 5.6644 -1.8206
16.4056 8.6413 -2.2960
15.4006 9.9612 -2.2711
14.1263 11.0417 -2.2202
14.6599 23.9078 -3.4727
-16.1628 28.1109 -4.0152
-16.2682 23.2203 -3.5107
-16.2085 19.2257 -3.1138
-19.2886 19.1205 -3.3631
-21.4253 17.7443 -3.4447
-27.6593 19.0194 -4.1565
-32.7251 18.4365 -4.6511
-43.5476 19.6423 -5.9155
-21.8270 7.5839 -2.8613
-21.9536 5.4909 -2.8022
-16.3744 2.5714 -2.0524
-16.3820 1.0900 -2.0330
-16.3895 -0.3751 -2.0300
-8.6516 -0.9748 -1.0781
-16.4048 -3.3515 -2.0733
-16.4129 -4.9130 -2.1215
-22.2061 -8.8738 -2.9611
9.1648 -13.5170 -2.0222
23.2229 -4.0120 -2.9182
20.9510 -1.7165 -2.6030
19.1088 0.1447 -2.3662
17.4919 1.7002 -2.1762
16.1611 3.0448 -2.0364
15.1202 4.2750 -1.9457
14.0426 5.3638 -1.8614
15.5291 7.5817 -2.1399
15.8523 9.5781 -2.2934
14.5567 10.6767 -2.2354
17.8633 15.7355 -2.9478
18.0005 27.4341 -4.0630
-1.1688 26.1997 -3.2474
-6.3267 46.9657 -5.8681
-16.2602 24.7904 -3.6711
-16.2819 20.5583 -3.2473
-18.1369 19.1145 -3.2628
-20.3848 17.9625 -3.3643
-21.4115 15.7097 -3.2884
-31.8821 19.2704 -4.6130
-40.4994 19.7810 -5.5811
-21.6551 6.1264 -2.7867
-16.3717 3.0872 -2.0630
-16.3794 1.5947 -2.0378
-16.3870 0.1267 -2.0292
-16.3945 -1.3406 -2.0369
-16.4022 -2.8309 -2.0611
-16.4101 -4.3695 -2.1028
-22.2021 -8.0932 -2.9262
-12.0373 -12.2994 -2.1310
26.9826 -13.6945 -3.7469
23.9679 -4.9006 -3.0293
21.4734 -2.4230 -2.6759
19.7014 -0.4540 -2.4402
18.1585 1.2053 -2.2535
16.7507 2.6277 -2.0995
15.5136 3.8775 -1.9801
14.4014 5.0013 -1.8877
14.4523 6.5160 -1.9631
16.3135 9.1871 -2.3183
14.9934 10.3064 -2.2529
15.1714 12.5608 -2.4389
11.1474 19.3808 -2.7685
-4.8676 46.9593 -5.8460
-16.2513 26.5125 -3.8506
-16.2751 21.8946 -3.3781
-17.0509 19.1090 -3.1712
-20.4104 19.1262 -3.4636
-21.6250 16.9086 -3.3991
-29.3078 18.9630 -4.3225
-32.7015 17.2315 -4.5771
-21.5546 6.8172 -2.7994
-16.3691 3.6088 -2.0756
-16.3768 2.1023 -2.0445
-16.3844 0.6287 -2.0303
-16.3919 -0.8362 -2.0324
-16.3995 -2.3160 -2.0509
-16.4073 -3.8351 -2.0864
-22.1982 -7.3301 -2.8947
-22.2488 -12.0849 -3.1352
8.1175 -13.7096 -1.9729
22.4510 -3.2321 -2.8087
20.3328 -1.0920 -2.5214
18.6914 0.6669 -2.3160
17.2112 2.1624 -2.1480
15.9216 3.4654 -2.0177
14.7708 4.6280 -1.9167
13.7218 5.6879 -1.8393
16.4009 8.5860 -2.2923
15.4375 9.9299 -2.2729
14.1615 11.0118 -2.2213
14.6981 23.8348 -3.4674
-16.2676 23.3446 -3.5233
-16.2878 19.4191 -3.1384
-19.1910 19.1200 -3.3545
-21.7737 18.1257 -3.5081
-27.5317 19.0342 -4.1446
-32.6384 18.4965 -4.6454
-43.2526 19.6408 -5.8822
-21.8025 7.6371 -2.8606
-22.0834 5.5826 -2.8205
-16.3742 2.6137 -2.0532
-16.3818 1.1316 -2.0333
-16.3893 -0.3337 -2.0299
-8.6418 -0.9516 -1.0766
-16.4046 -3.3083 -2.0722
-16.4126 -4.8678 -2.1198
-22.2058 -8.8088 -2.9581
9.1352 -13.5468 -2.0231
23.2952 -4.0851 -2.9286
21.0085 -1.7747 -2.6107
19.1563 0.0967 -2.3721
17.5322 1.6595 -2.1807
16.1964 3.0091 -2.0399
15.1522 4.2427 -1.9484
14.0718 5.3343 -1.8635
15.4331 7.4867 -2.1240
15.8900 9.5462 -2.2954
14.5925 10.6464 -2.2367
17.5995 15.4244 -2.8978
18.0738 27.3946 -4.0639
-6.2059 46.9651 -5.8661
-8.9446 16.8235 -2.3593
-16.2595 24.9263 -3.6852
-16.2814 20.6645 -3.2576
-18.0450 19.1141 -3.2549
-20.2411 17.9269 -3.3481
-21.4783 15.8423 -3.3048
-32.5674 19.7970 -4.7193
-40.3554 19.8370 -5.5682
-21.6898 6.1954 -2.7932
-16.3715 3.1299 -2.0639
-16.3792 1.6365 -2.0383
-16.3867 0.1681 -2.0292
-16.3943 -1.2989 -2.0364
-16.4019 -2.7883 -2.0601
-16.4098 -4.3251 -2.1014
-22.2018 -8.0296 -2.9235
-12.0191 -12.2190 -2.1223
-8.5207 -10.3697 -1.6619
26.9188 -13.7476 -3.7428
23.9933 -4.9690 -3.0341
21.7343 -2.5080 -2.7092
19.7519 -0.5051 -2.4466
18.2014 1.1620 -2.2584
16.7879 2.5901 -2.1034
15.5467 3.8442 -1.9831
14.4314 4.9709 -1.8900
14.3713 6.4358 -1.9498
16.3519 9.1545 -2.3205
15.0297 10.2756 -2.2545
14.9903 12.3472 -2.4048
11.1927 19.3463 -2.7676
-4.7479 46.9588 -5.8444
-16.2085 26.5932 -3.8564
-16.2745 22.0098 -3.3895
-16.9641 19.1085 -3.1640
-20.3069 19.1257 -3.4542
-21.6176 16.9909 -3.4047
-29.1448 18.9622 -4.3055
-32.7637 17.3701 -4.5919
-21.5462 6.8743 -2.8005
-16.3688 3.6522 -2.0767
-16.3766 2.1443 -2.0452
-16.3842 0.6700 -2.0305
-16.3917 -0.7948 -2.0321
-16.3993 -2.2737 -2.0501
-16.4071 -3.7913 -2.0852
-22.1979 -7.2680 -2.8923
3.9021 -45.5505 -5.6610
22.5181 -3.2998 -2.8181
20.3868 -1.1466 -2.5284
18.7366 0.6212 -2.3214
17.2501 2.1231 -2.1521
15.9559 3.4307 -2.0209
14.7877 4.5923 -1.9174
13.7503 5.6591 -1.8412
16.4353 8.5512 -2.2941
15.4745 9.8985 -2.2746
14.1969 10.9818 -2.2225
20.3192 18.8430 -3.4314
14.7493 23.7831 -3.4653
-16.2670 23.4697 -3.5360
-16.2873 19.5183 -3.1478
-19.0937 19.1195 -3.3459
-21.7630 18.2101 -3.5138
-27.3827 19.0335 -4.1294
-32.5522 18.5562 -4.6397
-43.1850 19.7419 -5.8797
-21.7780 7.6904 -2.8599
-21.4829 5.4885 -2.7456
-16.3740 2.6561 -2.0540
-16.3816 1.1732 -2.0337
-16.3891 -0.2923 -2.0297
-8.6321 -0.9285 -1.0751
-16.4044 -3.2652 -2.0712
-16.4124 -4.8226 -2.1182
-22.2055 -8.7438 -2.9551
9.1133 -13.5882 -2.0260
23.3680 -4.1586 -2.9391
21.0663 -1.8331 -2.6184
19.2041 0.0484 -2.3780
17.7347 1.6335 -2.2053
16.3814 3.0008 -2.0622
14.6267 23.9892 -3.3035
-16.2432 28.0864 -3.8148
-16.2689 23.0969 -3.3217
-16.2090 19.1281 -2.9479
-19.3868 19.1210 -3.2016
-21.3002 17.5502 -3.2450
-27.7151 18.9548 -3.9479
-32.7493 18.3414 -4.4133
-44.3045 19.8493 -5.7081
-21.8310 7.5236 -2.7150
-22.5059 5.5687 -2.7260
-16.2944 2.5167 -1.9386
-16.3019 1.0434 -1.9207
-16.3094 -0.4144 -1.9182
-8.6611 -0.9981 -1.0251
-16.3247 -3.3781 -1.9601
-16.4131 -4.9582 -2.0159
-22.2065 -8.9390 -2.8146
9.2007 -13.4964 -1.9205
23.1511 -3.9394 -2.7612
20.8938 -1.6587 -2.4644
19.0615 0.1925 -2.2413
17.4517 1.7408 -2.0621
16.1259 3.0803 -1.9303
15.0884 4.3072 -1.8449
13.8854 5.3440 -1.7493
15.6266 7.6783 -2.0471
15.8147 9.6100 -2.1758
14.5210 10.7070 -2.1213
17.8358 15.7914 -2.8009
17.9409 27.4943 -3.8601
-1.2341 26.1800 -3.0816
-6.4475 46.9660 -5.5739
-16.2609 24.6555 -3.4726
-16.2825 20.4526 -3.0738
-18.2293 19.1150 -3.1057
-20.4898 17.9633 -3.2039
-21.4530 15.6571 -3.1227
-31.5725 18.9747 -4.3310
-40.5000 19.6548 -5.2930
-21.5635 6.0417 -2.6330
-16.2917 3.0295 -1.9484
-16.2994 1.5454 -1.9250
-16.3069 0.0849 -1.9173
-16.3144 -1.3755 -1.9250
-16.3220 -2.8595 -1.9483
-16.3299 -4.3924 -1.9883
-22.2025 -8.1569 -2.7811
46.9015 -13.9186 -5.7522
24.0208 -4.8483 -2.8812
21.4125 -2.3614 -2.5329
19.6511 -0.4032 -2.3110
18.1158 1.2484 -2.1351
16.7136 2.6651 -1.9900
15.4807 3.9108 -1.8774
14.2401 4.9856 -1.7740
14.5343 6.5972 -1.8767
16.2751 9.2197 -2.1993
14.9572 10.3372 -2.1377
15.1558 12.6125 -2.3183
22.1553 31.7828 -4.5553
11.1062 19.4224 -2.6306
-4.9875 46.9596 -5.5524
-16.2521 26.3642 -3.6415
-16.2756 21.7804 -3.1969
-17.1382 19.1094 -3.0181
-20.5145 19.1268 -3.2978
-21.5921 16.7952 -3.2163
-29.5978 19.0448 -4.1382
-33.3428 17.4620 -4.4254
-21.5012 6.7406 -2.6494
-16.2891 3.5481 -1.9601
-16.2968 2.0502 -1.9312
-16.3043 0.5844 -1.9182
-16.3118 -0.8735 -1.9206
-16.3194 -2.3467 -1.9385
-16.3271 -3.8598 -1.9726
-22.1985 -7.3925 -2.7510
-22.0945 -12.0734 -2.9604
8.1366 -13.6631 -1.8698
22.3845 -3.1649 -2.6581
20.0930 -1.0283 -2.3656
18.6463 0.7124 -2.1940
17.1724 2.2016 -2.0356
15.8873 3.5000 -1.9128
14.6053 4.6167 -1.8010
13.5683 5.6644 -1.7288
16.4056 8.6413 -2.1801
15.4006 9.9612 -2.1565
14.1263 11.0417 -2.1081
14.6599 23.9078 -3.2974
-16.1628 28.1109 -3.8125
-16.2682 23.2203 -3.3335
-16.2085 19.2257 -2.9566
-19.2886 19.1205 -3.1933
-21.7120 17.9817 -3.3147
-27.6593 19.0194 -3.9468
-32.6628 18.4014 -4.4079
-44.0209 19.8558 -5.6780
-21.8066 7.5769 -2.7143
-22.5278 5.6345 -2.7303
-16.2941 2.5588 -1.9393
-16.3017 1.0847 -1.9209
-16.3092 -0.3732 -1.9181
-8.6513 -0.9748 -1.0236
-16.3244 -3.3351 -1.9590
-16.4129 -4.9130 -2.0144
-22.2061 -8.8738 -2.8117
9.1648 -13.5170 -1.9202
23.2229 -4.0120 -2.7709
20.9510 -1.7165 -2.4716
19.1088 0.1447 -2.2468
17.4919 1.7002 -2.0663
16.1611 3.0448 -1.9336
15.1202 4.2750 -1.8475
13.9143 5.3148 -1.7513
15.5291 7.5817 -2.0319
15.8523 9.5781 -2.1777
14.5567 10.6767 -2.1225
17.8633 15.7355 -2.7990
18.0005 27.4341 -3.8580
-1.1687 26.1980 -3.0833
-6.3267 46.9655 -5.5719
-16.2602 24.7904 -3.4858
-16.2819 20.5583 -3.0834
-18.1369 19.1145 -3.0981
-20.3453 17.9277 -3.1883
-21.3722 15.6809 -3.1167
-31.3912 18.9737 -4.3127
-40.4994 19.7810 -5.2994
-21.5806 6.1053 -2.6370
-16.2915 3.0721 -1.9493
-16.2991 1.5869 -1.9255
-16.3066 0.1261 -1.9173
-16.3142 -1.3340 -1.9246
-16.3218 -2.8170 -1.9474
-16.3296 -4.3481 -1.9869
-22.2021 -8.0932 -2.7785
-12.0365 -12.2986 -2.0233
26.9818 -13.6940 -3.5576
23.9679 -4.9006 -2.8764
21.4735 -2.4230 -2.5408
19.7014 -0.4540 -2.3170
18.1585 1.2053 -2.1397
16.7507 2.6277 -1.9936
15.5136 3.8775 -1.8802
14.2698 4.9556 -1.7761
14.4523 6.5160 -1.8640
16.3135 9.1871 -2.2013
14.9934 10.3064 -2.1392
15.1714 12.5608 -2.3158
11.1474 19.3808 -2.6288
-4.8676 46.9591 -5.5509
-16.2513 26.5125 -3.6563
-16.2751 21.8946 -3.2076
-17.0509 19.1090 -3.0112
-20.4104 19.1262 -3.2888
-21.4100 16.7405 -3.1955
-29.4329 19.0440 -4.1219
-33.8977 17.8618 -4.5051
-21.4928 6.7976 -2.6504
-16.2888 3.5911 -1.9612
-16.2965 2.0920 -1.9318
-16.3041 0.6256 -1.9184
-16.3116 -0.8321 -1.9204
-16.3191 -2.3046 -1.9378
-16.3269 -3.8163 -1.9714
-22.1982 -7.3301 -2.7486
-22.2440 -12.0823 -2.9763
8.1173 -13.7092 -1.8733
22.4510 -3.2321 -2.6669
20.3328 -1.0920 -2.3941
18.6914 0.6669 -2.1991
17.2112 2.1624 -2.0395
15.9216 3.4654 -1.9158
14.6359 4.5858 -1.8033
13.5965 5.6359 -1.7305
16.4009 8.5860 -2.1766
15.4375 9.9299 -2.1582
14.1615 11.0118 -2.1092
14.6981 23.8348 -3.2924
-7.6765 46.9714 -5.5960
-16.2676 23.3446 -3.3455
-16.2878 19.4191 -2.9800
-19.1910 19.1200 -3.1852
-21.7012 18.0653 -3.3200
-27.5318 19.0342 -3.9354
-32.5764 18.4613 -4.4025
-43.2526 19.6408 -5.5853
-21.7821 7.6300 -2.7137
-21.7780 5.5054 -2.6411
-16.2939 2.6009 -1.9400
-16.3015 1.1260 -1.9213
-16.3090 -0.3321 -1.9180
-8.6416 -0.9516 -1.0222
-16.3242 -3.2921 -1.9580
-16.4126 -4.8678 -2.0128
-22.2058 -8.8088 -2.8088
9.1352 -13.5468 -1.9211
23.2953 -4.0851 -2.7808
21.0085 -1.7747 -2.4789
19.1563 0.0967 -2.2524
17.5322 1.6595 -2.0706
16.1964 3.0091 -1.9369
15.1522 4.2427 -1.8501
13.9432 5.2855 -1.7532
15.4331 7.4867 -2.0168
15.8900 9.5462 -2.1795
14.5925 10.6464 -2.1238
17.5995 15.4244 -2.7515
18.0738 27.3946 -3.8588
-6.2058 46.9649 -5.5700
-8.9443 16.8228 -2.2402
-16.2595 24.9263 -3.4992
-16.2814 20.6645 -3.0932
-18.0450 19.1141 -3.0907
-20.2021 17.8924 -3.1730
-21.4386 15.8131 -3.1322
-31.2178 18.9766 -4.2954
-40.3554 19.8370 -5.2871
-21.7488 6.2122 -2.6594
-16.2913 3.1146 -1.9502
-16.2989 1.6285 -1.9259
-16.3064 0.1673 -1.9174
-16.3139 -1.2925 -1.9242
-16.3216 -2.7746 -1.9466
-16.3294 -4.3039 -1.9855
-22.2018 -8.0296 -2.7759
-12.0188 -12.2186 -2.0152
-8.5201 -10.3690 -1.5779
26.9181 -13.7473 -3.5538
23.9933 -4.9690 -2.8809
21.7344 -2.5080 -2.5724
19.7519 -0.5051 -2.3231
18.2014 1.1620 -2.1444
16.7879 2.5901 -1.9972
15.5467 3.8442 -1.8830
14.2996 4.9255 -1.7782
14.0169 6.2771 -1.8058
16.3519 9.1545 -2.2034
15.0297 10.2756 -2.1407
14.9903 12.3472 -2.2834
11.1927 19.3463 -2.6279
-4.7479 46.9585 -5.5494
-16.2085 26.5932 -3.6617
-16.2745 22.0098 -3.2184
-16.9641 19.1085 -3.0043
-20.3069 19.1257 -3.2799
-21.5773 16.9592 -3.2268
-29.2692 19.0431 -4.1057
-32.6441 17.3067 -4.3442
-21.3977 6.8270 -2.6408
-16.2886 3.6343 -1.9623
-16.2963 2.1338 -1.9324
-16.3039 0.6668 -1.9186
-16.3114 -0.7909 -1.9201
-16.3189 -2.2626 -1.9371
-16.3267 -3.7728 -1.9702
-22.1979 -7.2680 -2.7463
3.9019 -45.5493 -5.3752
22.5181 -3.2999 -2.6759
20.3868 -1.1466 -2.4008
18.7366 0.6212 -2.2042
17.2501 2.1231 -2.0435
15.9559 3.4306 -1.9189
14.6666 4.5547 -1.8057
13.6247 5.6074 -1.7323
16.4353 8.5512 -2.1783
15.4745 9.8985 -2.1598
14.1969 10.9818 -2.1103
20.3192 18.8430 -3.2582
14.7493 23.7831 -3.2904
-7.5546 46.9708 -5.5937
-16.2670 23.4697 -3.3575
-16.2873 19.5183 -2.9889
-19.0937 19.1195 -3.1770
-21.6905 18.1494 -3.3253
-27.3827 19.0335 -3.9209
-32.4904 18.5210 -4.3972
-43.1850 19.7420 -5.5830
-21.7577 7.6832 -2.7130
-21.9056 5.5965 -2.6583
-16.2937 2.6431 -1.9408
-16.3013 1.1674 -1.9216
-16.3088 -0.2908 -1.9178
-8.6319 -0.9285 -1.0208
-16.3240 -3.2492 -1.9570
-16.4124 -4.8226 -2.0113
-22.2055 -8.7438 -2.8060
9.1133 -13.5882 -1.9237
23.3680 -4.1586 -2.7907
21.0663 -1.8331 -2.4863
19.2041 0.0484 -2.2580
17.7347 1.6335 -2.0940
16.3814 3.0008 -1.9581
14.6267 23.9892 -3.1282
-7.9189 46.9641 -5.3026
-16.1636 27.9488 -3.5946
-16.2689 23.0969 -3.1454
-16.2090 19.1281 -2.7914
-19.3868 19.1210 -3.0317
-21.6510 17.8392 -3.1234
-27.7151 18.9548 -3.7383
-32.8505 18.3980 -4.1920
-44.3045 19.8493 -5.4051
-21.8107 7.5166 -2.5685
-21.6424 5.3551 -2.4823
-16.2944 2.5167 -1.8357
-16.3019 1.0434 -1.8187
-16.3094 -0.4144 -1.8164
-8.6609 -0.9980 -0.9707
-16.3247 -3.3781 -1.8560
-16.3327 -4.9339 -1.8996
-22.2065 -8.9390 -2.6652
-31.4321 -28.6995 -4.7389
9.2007 -13.4964 -1.8186
23.1511 -3.9394 -2.6146
20.8938 -1.6587 -2.3336
19.0615 0.1925 -2.1223
17.4517 1.7408 -1.9527
16.1259 3.0803 -1.8278
14.9506 4.2678 -1.7310
13.8854 5.3440 -1.6565
15.6266 7.6783 -1.9385
15.8147 9.6100 -2.0603
14.5210 10.7070 -2.0087
17.8358 15.7914 -2.6522
17.9408 27.4943 -3.6552
-1.2341 26.1782 -2.9178
-6.4475 46.9658 -5.2780
-16.2609 24.6555 -3.2883
-16.2825 20.4526 -2.9106
-18.2293 19.1150 -2.9408
-20.4501 17.9285 -3.0279
-22.8630 16.6861 -3.1513
-31.6874 19.0437 -4.1161
-40.5000 19.6548 -5.0121
-21.4898 6.0211 -2.4847
-16.2917 3.0295 -1.8450
-16.2994 1.5454 -1.8228
-16.3069 0.0849 -1.8156
-16.3144 -1.3755 -1.8228
-16.3220 -2.8595 -1.8449
-16.3299 -4.3924 -1.8827
-22.2025 -8.1569 -2.6335
46.9001 -13.9182 -5.4468
24.0208 -4.8483 -2.7283
21.4125 -2.3614 -2.3984
19.6511 -0.4032 -2.1883
18.1158 1.2484 -2.0217
16.7136 2.6651 -1.8843
15.3392 3.8751 -1.7615
14.2401 4.9856 -1.6798
14.1759 6.4345 -1.7333
16.2751 9.2197 -2.0826
14.9572 10.3372 -2.0243
15.1558 12.6125 -2.1952
22.1553 31.7828 -4.3135
11.1062 19.4224 -2.4910
-4.9875 46.9594 -5.2577
-16.2521 26.3642 -3.4482
-16.2756 21.7804 -3.0272
-17.1382 19.1094 -2.8579
-20.5145 19.1268 -3.1227
-21.6218 16.8183 -3.0498
-29.5978 19.0448 -3.9186
-33.1622 17.3675 -4.1678
-21.3887 6.7053 -2.4956
-16.2891 3.5481 -1.8561
-16.2968 2.0502 -1.8287
-16.3043 0.5844 -1.8164
-16.3118 -0.8735 -1.8187
-16.3194 -2.3467 -1.8356
-16.3271 -3.8598 -1.8679
-22.1985 -7.3925 -2.6049
-22.0938 -12.0730 -2.8031
8.1364 -13.6627 -1.7705
22.3845 -3.1649 -2.5170
20.0930 -1.0283 -2.2400
18.6463 0.7124 -2.0775
17.1724 2.2016 -1.9276
15.7422 3.4680 -1.7947
14.6053 4.6167 -1.7054
13.5683 5.6644 -1.6370
16.4056 8.6413 -2.0644
15.4006 9.9612 -2.0421
14.1263 11.0417 -1.9962
14.6599 23.9078 -3.1224
-7.7972 46.9655 -5.3005
-16.1628 28.1109 -3.6102
-16.2682 23.2203 -3.1566
-16.2085 19.2257 -2.7997
-19.2886 19.1205 -3.0238
-21.6402 17.9223 -3.1283
-27.6593 19.0194 -3.7373
-32.6008 18.3665 -4.1660
-44.0209 19.8558 -5.3766
-21.7862 7.5698 -2.5678
-21.6692 5.4198 -2.4869
-16.2941 2.5588 -1.8364
-16.3017 1.0847 -1.8190
-16.3092 -0.3732 -1.8163
-8.6511 -0.9748 -0.9693
-16.3244 -3.3351 -1.8550
-16.3324 -4.8889 -1.8981
-22.2061 -8.8738 -2.6624
-31.4298 -28.5522 -4.7276
9.1648 -13.5170 -1.8182
23.2229 -4.0120 -2.6239
20.9510 -1.7165 -2.3404
19.1088 0.1447 -2.1276
17.4919 1.7002 -1.9567
16.1611 3.0448 -1.8310
14.9821 4.2359 -1.7334
13.9143 5.3148 -1.6583
15.5291 7.5817 -1.9240
15.8523 9.5781 -2.0621
14.5567 10.6767 -2.0099
17.8633 15.7355 -2.6504
18.0005 27.4341 -3.6532
-1.1686 26.1963 -2.9195
-6.3267 46.9652 -5.2762
-16.2602 24.7904 -3.3008
-16.2819 20.5583 -2.9198
-18.1369 19.1145 -2.9337
-20.3061 17.8931 -3.0133
-21.4855 15.7640 -2.9669
-31.5253 19.0547 -4.1012
-40.4994 19.7810 -5.0182
-21.7935 6.1655 -2.5216
-16.2915 3.0721 -1.8458
-16.2991 1.5869 -1.8233
-16.3066 0.1261 -1.8156
-16.3142 -1.3340 -1.8224
-16.3218 -2.8170 -1.8441
-16.3296 -4.3481 -1.8814
-22.2021 -8.0932 -2.6310
-12.0357 -12.2978 -1.9158
26.9809 -13.6936 -3.3687
23.9679 -4.9006 -2.7237
21.4735 -2.4231 -2.4060
19.7014 -0.4540 -2.1941
18.1585 1.2053 -2.0261
16.7507 2.6277 -1.8878
15.3719 3.8421 -1.7641
14.2698 4.9556 -1.6818
14.0959 6.3553 -1.7215
16.3135 9.1871 -2.0845
14.9934 10.3064 -2.0257
15.1714 12.5608 -2.1929
11.1474 19.3808 -2.4893
-4.8849 47.1254 -5.2749
-16.2513 26.5125 -3.4622
-16.2751 21.8947 -3.0374
-17.0509 19.1090 -2.8514
-20.4104 19.1262 -3.1142
-21.6538 16.9311 -3.0603
-29.4329 19.0440 -3.9031
-33.1525 17.4692 -4.1722
-21.2940 6.7347 -2.4865
-16.2888 3.5911 -1.8571
-16.2965 2.0920 -1.8293
-16.3041 0.6256 -1.8166
-16.3116 -0.8321 -1.8184
-16.3191 -2.3046 -1.8349
-16.3269 -3.8163 -1.8668
-22.1982 -7.3301 -2.6027
-22.2392 -12.0797 -2.8177
8.1170 -13.7088 -1.7738
22.4510 -3.2321 -2.5254
20.3328 -1.0920 -2.2670
18.6914 0.6669 -2.0824
17.2112 2.1624 -1.9313
15.7761 3.4337 -1.7976
14.6359 4.5858 -1.7076
13.5965 5.6359 -1.6387
16.4009 8.5860 -2.0611
15.4375 9.9299 -2.0436
14.1615 11.0118 -1.9973
14.6981 23.8348 -3.1177
-7.6758 46.9669 -5.2985
-16.2676 23.3446 -3.1679
-16.2878 19.4191 -2.8219
-19.1910 19.1200 -3.0161
-21.6293 18.0055 -3.1333
-27.5318 19.0342 -3.7265
-32.5147 18.4263 -4.1610
-43.2526 19.6408 -5.2888
-21.7618 7.6229 -2.5672
-22.5216 5.6934 -2.5863
-16.2939 2.6009 -1.8371
-16.3015 1.1260 -1.8193
-16.3090 -0.3321 -1.8162
-8.6413 -0.9516 -0.9679
-16.3242 -3.2921 -1.8541
-16.3322 -4.8439 -1.8967
-22.2058 -8.8088 -2.6597
-31.4276 -28.4058 -4.7165
9.1352 -13.5468 -1.8193
23.2953 -4.0851 -2.6332
21.0085 -1.7747 -2.3473
19.1563 0.0967 -2.1328
17.5322 1.6595 -1.9607
16.1964 3.0091 -1.8341
15.0138 4.2040 -1.7359
13.9432 5.2855 -1.6602
15.4331 7.4867 -1.9098
15.8900 9.5462 -2.0638
14.5925 10.6464 -2.0111
17.5995 15.4244 -2.6055
