ply
format ascii 1.0
element vertex 1998
property float32 x
property float32 y
property float32 z
end_header
16.1316 3.2677 -10.1911
14.8215 4.4100 -9.5747
13.8921 5.5252 -9.2570
16.0203 8.0951 -11.1138
15.6546 9.7541 -11.4205
14.3665 10.8438 -11.1449
18.6097 16.8530 -15.5454
-8.6648 -0.8331 -5.3898
23.7218 -4.4840 -14.9480
21.3442 -2.0874 -13.2788
19.3774 -0.1579 -11.9984
17.9261 1.4588 -11.1360
16.5465 2.8495 -10.3960
15.3297 4.0761 -9.8215
14.2321 5.1825 -9.3782
14.9088 6.9925 -10.1960
16.0926 9.3836 -11.5343
14.7825 10.4919 -11.2240
16.2544 13.8749 -13.2323
22.0641 -2.8130 -13.7721
19.8341 -0.7434 -12.2893
18.4242 0.9566 -11.4232
16.9787 2.4138 -10.6185
15.7141 3.6886 -9.9942
14.5813 4.8305 -9.5109
13.9664 6.0576 -9.4260
16.5399 9.0053 -11.6606
15.1714 10.1125 -11.2893
13.8372 11.1271 -10.9941
-3.8593 -9.8870 -6.5716
22.7838 -3.5863 -14.2808
20.6433 -1.3808 -12.8104
18.7760 0.4236 -11.6285
17.4303 1.9585 -10.8603
16.1125 3.2870 -10.1819
14.8044 4.4272 -9.5676
13.8764 5.5411 -9.2516
16.0776 8.1520 -11.1614
15.6342 9.7714 -11.4155
14.3471 10.8603 -11.1414
18.7170 16.9973 -15.6546
-8.6600 -0.8447 -5.3875
23.6804 -4.4424 -14.9181
21.3116 -2.0545 -13.2568
19.3776 -0.1311 -11.9984
23.8467 -4.6100 -14.8324
21.4357 -2.1859 -13.1584
19.5113 -0.2396 -11.9161
17.9948 1.3894 -11.0219
16.6064 2.7891 -10.2833
15.3831 4.0222 -9.7101
14.2808 5.1335 -9.2674
14.7667 6.8516 -9.9412
16.1551 9.3307 -11.3930
14.8417 10.4419 -11.0820
15.3039 12.9544 -12.2445
22.1699 -2.9197 -13.6557
19.9191 -0.8291 -12.1748
18.4965 0.8837 -11.3084
17.0412 2.3508 -10.5053
15.7694 3.6328 -9.8824
14.6314 4.7800 -9.3999
13.5033 5.7905 -8.9725
16.6037 8.9512 -11.5193
15.1556 10.0117 -11.0924
13.8943 11.0787 -10.8522
22.7437 -3.6765 -14.0695
20.7348 -1.4730 -12.6943
18.7577 0.3455 -11.4570
17.4956 1.8927 -10.7466
16.1463 3.2243 -10.0550
14.9925 4.4159 -9.5446
13.9238 5.4933 -9.1409
15.9073 7.9830 -10.8690
15.6954 9.7196 -11.2740
14.4054 10.8109 -10.9990
18.9154 17.0352 -15.5454
-8.6757 -0.8100 -5.3211
-4.2417 -9.8779 -6.5649
23.8049 -4.5679 -14.8025
21.4098 -2.1534 -13.1406
19.4843 -0.2124 -11.8995
17.9719 1.4126 -11.0090
16.5864 2.8093 -10.2733
15.3653 4.0402 -9.7023
14.2645 5.1498 -9.2614
14.8138 6.8982 -9.9793
16.1343 9.3484 -11.3874
14.8219 10.4586 -11.0780
15.3881 13.0622 -12.3263
22.1345 -2.8840 -13.6314
19.8907 -0.8005 -12.1568
18.4723 0.9081 -11.2944
17.0203 2.3718 -10.4945
15.7509 3.6515 -9.8739
14.6147 4.7968 -9.3934
13.5426 5.8295 -9.0039
16.5824 8.9693 -11.5130
15.1357 10.0286 -11.0879
13.8753 11.0948 -10.8492
22.7278 -3.6418 -14.0566
20.7042 -1.4421 -12.6744
18.7843 0.3719 -11.4735
17.4738 1.9147 -10.7348
16.1508 3.2484 -10.0605
14.9753 4.4333 -9.5375
13.9080 5.5093 -9.1355
15.9636 8.0389 -10.9150
15.6750 9.7369 -11.2690
14.3860 10.8274 -10.9955
18.8919 17.0613 -15.5454
-8.6693 -0.8215 -5.3179
-4.2258 -9.8783 -6.5614
23.7633 -4.5259 -14.7727
21.3770 -2.1203 -13.1186
19.4573 -0.1852 -11.8828
17.9489 1.4357 -10.9961
16.5665 2.8293 -10.2634
15.3475 4.0581 -9.6946
14.2483 5.1662 -9.2555
14.8613 6.9454 -10.0177
16.1134 9.3660 -11.3818
14.8021 10.4753 -11.0740
15.4985 13.1927 -12.4293
22.0991 -2.8483 -13.6072
19.8623 -0.7719 -12.1388
18.4483 0.9323 -11.2805
16.9995 2.3928 -10.4837
15.7325 3.6700 -9.8655
14.5980 4.8137 -9.3869
13.5821 5.8687 -9.0356
16.5611 8.9873 -11.5068
15.1158 10.0454 -11.0835
13.8563 11.1109 -10.8463
22.7557 -3.6141 -14.0708
20.6736 -1.4113 -12.6544
18.8110 0.3984 -11.4901
17.4521 1.9366 -10.7231
16.1316 3.2677 -10.0514
14.8215 4.4100 -9.4434
13.8921 5.5252 -9.1301
16.0203 8.0951 -10.9614
15.6546 9.7541 -11.2640
14.3665 10.8438 -10.9921
18.8684 17.0872 -15.5454
-8.6645 -0.8331 -5.3157
-4.2109 -9.8812 -6.5594
23.7218 -4.4840 -14.7430
21.3442 -2.0873 -13.0968
19.4306 -0.1583 -11.8664
17.9261 1.4588 -10.9833
16.5465 2.8495 -10.2534
15.3297 4.0761 -9.6869
14.2321 5.1825 -9.2496
14.9088 6.9925 -10.0562
16.0926 9.3836 -11.3762
14.7825 10.4919 -11.0701
16.2544 13.8749 -13.0509
22.0641 -2.8130 -13.5833
19.8340 -0.7434 -12.1208
18.4242 0.9566 -11.2665
16.9787 2.4138 -10.4729
15.7141 3.6886 -9.8572
14.5813 4.8305 -9.3805
13.9664 6.0576 -9.2968
16.5399 9.0053 -11.5007
15.1714 10.1125 -11.1345
13.8372 11.1271 -10.8434
22.7838 -3.5863 -14.0850
20.6433 -1.3808 -12.6347
18.7759 0.4236 -11.4691
17.4303 1.9585 -10.7114
16.1125 3.2870 -10.0423
14.8044 4.4272 -9.4364
13.8764 5.5411 -9.1247
16.0776 8.1520 -11.0083
15.6342 9.7714 -11.2590
14.3471 10.8603 -10.9887
18.8448 17.1133 -15.5454
-8.6598 -0.8447 -5.3135
-4.1964 -9.8849 -6.5580
23.6804 -4.4424 -14.7135
21.3116 -2.0544 -13.0750
19.4038 -0.1313 -11.8499
23.8467 -4.6100 -14.6278
21.4357 -2.1859 -12.9768
19.5113 -0.2396 -11.7517
17.9948 1.3894 -10.8698
16.6064 2.7891 -10.1414
15.3831 4.0222 -9.5761
14.2808 5.1334 -9.1395
14.7667 6.8516 -9.8041
16.1551 9.3307 -11.2358
14.8417 10.4419 -10.9291
15.2793 12.9336 -12.0562
-4.6216 -9.9117 -6.5864
22.1699 -2.9197 -13.4673
19.9191 -0.8291 -12.0068
18.4965 0.8837 -11.1524
17.0412 2.3508 -10.3604
15.7694 3.6328 -9.7460
14.6314 4.7800 -9.2702
13.5033 5.7905 -8.8487
16.6037 8.9512 -11.3603
15.1556 10.0117 -10.9394
13.8943 11.0787 -10.7024
22.7437 -3.6765 -13.8754
20.5444 -1.4595 -12.4042
18.7576 0.3455 -11.2989
17.4956 1.8927 -10.5984
16.1463 3.2243 -9.9163
14.9925 4.4159 -9.4129
13.9238 5.4934 -9.0147
15.9073 7.9830 -10.7190
15.6954 9.7196 -11.1184
14.4054 10.8109 -10.8472
18.9679 17.0825 -15.3734
-8.6751 -0.8100 -5.2474
23.8049 -4.5679 -14.5983
21.4098 -2.1534 -12.9593
19.4843 -0.2124 -11.7353
17.9719 1.4126 -10.8571
16.5864 2.8093 -10.1316
15.3653 4.0402 -9.5684
14.2645 5.1498 -9.1336
14.8137 6.8982 -9.8416
16.1343 9.3484 -11.2303
14.8219 10.4586 -10.9252
15.3880 13.0621 -12.1562
-4.6023 -9.9060 -6.5784
22.1345 -2.8840 -13.4434
19.9062 -0.8011 -11.9984
18.4723 0.9081 -11.1386
17.0203 2.3718 -10.3497
15.7509 3.6514 -9.7377
14.6147 4.7968 -9.2638
13.5426 5.8295 -8.8797
16.5824 8.9693 -11.3542
15.1357 10.0286 -10.9350
13.8753 11.0948 -10.6995
22.7278 -3.6418 -13.8626
20.5141 -1.4289 -12.3847
18.7843 0.3719 -11.3152
17.4738 1.9147 -10.5867
16.1508 3.2484 -9.9217
14.9753 4.4333 -9.4059
13.9080 5.5093 -9.0094
15.9636 8.0389 -10.7644
15.6750 9.7369 -11.1135
14.3860 10.8274 -10.8438
19.1380 17.2835 -15.5306
-8.6690 -0.8215 -5.2444
23.7633 -4.5259 -14.5689
21.3770 -2.1204 -12.9376
19.4573 -0.1852 -11.7189
17.9489 1.4357 -10.8444
16.5665 2.8293 -10.1218
15.3475 4.0581 -9.5608
14.2483 5.1662 -9.1278
14.8613 6.9453 -9.8795
16.1134 9.3660 -11.2247
14.8021 10.4753 -10.9213
15.4985 13.1927 -12.2578
-4.5831 -9.9003 -6.5705
22.0991 -2.8483 -13.4195
19.9073 -0.7737 -11.9984
18.4483 0.9323 -11.1248
16.9995 2.3928 -10.3390
15.7325 3.6700 -9.7294
14.5980 4.8137 -9.2574
13.5821 5.8687 -8.9109
16.5611 8.9873 -11.3481
15.1158 10.0454 -10.9306
13.8563 11.1109 -10.6966
22.7557 -3.6141 -13.8766
20.4837 -1.3983 -12.3652
18.8110 0.3984 -11.3316
17.4521 1.9366 -10.5752
16.1316 3.2677 -9.9127
14.8215 4.4100 -9.3131
13.8921 5.5252 -9.0041
16.0203 8.0951 -10.8102
15.6546 9.7541 -11.1085
14.3665 10.8438 -10.8404
19.1324 17.3263 -15.5454
-8.6642 -0.8331 -5.2422
23.7218 -4.4840 -14.5396
21.3442 -2.0874 -12.9161
19.4306 -0.1583 -11.7027
17.9261 1.4588 -10.8318
16.5465 2.8495 -10.1120
15.3297 4.0761 -9.5532
14.2321 5.1825 -9.1220
14.9088 6.9925 -9.9175
16.0926 9.3836 -11.2192
14.7825 10.4919 -10.9174
15.6109 13.3256 -12.3613
-4.5640 -9.8951 -6.5628
22.0641 -2.8130 -13.3959
19.9083 -0.7462 -11.9984
18.4242 0.9566 -11.1111
16.9787 2.4138 -10.3284
15.7141 3.6886 -9.7212
14.5813 4.8305 -9.2510
13.9664 6.0576 -9.1685
16.5399 9.0053 -11.3420
15.1714 10.1125 -10.9809
13.8372 11.1271 -10.6938
22.7838 -3.5863 -13.8907
20.4537 -1.3681 -12.3460
18.7759 0.4236 -11.3108
17.4303 1.9585 -10.5636
16.1125 3.2870 -9.9037
14.8044 4.4272 -9.3062
13.8764 5.5411 -8.9989
16.0776 8.1520 -10.8564
15.6342 9.7714 -11.1036
14.3471 10.8603 -10.8371
19.1084 17.3527 -15.5454
-8.6595 -0.8447 -5.2400
23.6804 -4.4424 -14.5105
21.3116 -2.0545 -12.8946
19.4038 -0.1313 -11.6864
23.8467 -4.6100 -14.4247
21.4357 -2.1859 -12.7966
19.5113 -0.2396 -11.5885
17.9948 1.3894 -10.7189
16.6064 2.7891 -10.0006
15.3831 4.0222 -9.4431
14.2808 5.1335 -9.0126
14.7667 6.8515 -9.6679
16.1551 9.3307 -11.0798
14.8417 10.4419 -10.7773
15.4201 13.0528 -11.9984
-4.6348 -9.9400 -6.5135
22.1699 -2.9197 -13.2803
20.0386 -0.8341 -11.9112
18.4966 0.8837 -10.9975
17.0412 2.3508 -10.2165
15.7694 3.6328 -9.6107
14.6314 4.7800 -9.1415
13.5033 5.7905 -8.7258
16.6037 8.9512 -11.2026
15.1556 10.0117 -10.7874
13.8943 11.0787 -10.5538
22.7437 -3.6765 -13.6827
20.5655 -1.4610 -12.2445
18.7576 0.3455 -11.1420
17.4956 1.8927 -10.4512
16.1463 3.2243 -9.7786
14.9925 4.4159 -9.2822
13.7966 5.4432 -8.8083
15.9073 7.9830 -10.5702
15.6954 9.7196 -10.9640
14.4054 10.8109 -10.6966
18.9679 17.0825 -15.1599
-8.6745 -0.8099 -5.1741
23.8049 -4.5679 -14.3956
21.4098 -2.1534 -12.7793
19.4843 -0.2124 -11.5723
17.9719 1.4126 -10.7063
16.5864 2.8093 -9.9909
15.3653 4.0402 -9.4356
14.2645 5.1498 -9.0068
14.8137 6.8982 -9.7049
16.1343 9.3484 -11.0743
14.8219 10.4586 -10.7735
15.4021 13.0741 -11.9984
-4.6203 -9.9447 -6.5124
22.1345 -2.8840 -13.2567
20.0655 -0.8075 -11.9264
18.4723 0.9081 -10.9839
17.0203 2.3718 -10.2060
15.7509 3.6515 -9.6025
14.6147 4.7968 -9.1352
13.5426 5.8295 -8.7564
16.5824 8.9693 -11.1965
15.1357 10.0286 -10.7831
13.8753 11.0948 -10.5509
22.7278 -3.6418 -13.6701
20.5675 -1.4326 -12.2445
18.7843 0.3719 -11.1581
17.4738 1.9147 -10.4397
16.1508 3.2484 -9.7840
14.9753 4.4333 -9.2753
13.7809 5.4589 -8.8031
15.9636 8.0389 -10.6150
15.6750 9.7369 -10.9591
14.3860 10.8274 -10.6932
19.1379 17.2835 -15.3149
-8.6687 -0.8214 -5.1714
23.7633 -4.5259 -14.3666
21.3770 -2.1203 -12.7580
19.4573 -0.1852 -11.5561
17.9489 1.4357 -10.6938
16.5665 2.8293 -9.9812
15.3475 4.0581 -9.4281
14.2483 5.1662 -9.0011
14.8613 6.9453 -9.7423
16.1134 9.3660 -11.0689
14.8021 10.4753 -10.7696
15.4985 13.1927 -12.0876
-4.6131 -9.9653 -6.5217
22.0991 -2.8483 -13.2331
20.0464 -0.7791 -11.9145
18.4483 0.9323 -10.9703
16.9995 2.3928 -10.1954
15.7325 3.6700 -9.5943
14.5980 4.8137 -9.1289
13.5821 5.8687 -8.7871
16.5610 8.9874 -11.1905
15.1158 10.0454 -10.7788
13.8563 11.1109 -10.5481
22.7558 -3.6141 -13.6839
20.4837 -1.3983 -12.1935
18.8110 0.3984 -11.1743
17.4521 1.9366 -10.4283
16.1316 3.2677 -9.7751
14.8215 4.4100 -9.1838
13.7652 5.4748 -8.7979
16.0203 8.0951 -10.6601
15.6546 9.7541 -10.9543
14.3665 10.8438 -10.6899
19.1874 17.3762 -15.3736
-8.6639 -0.8330 -5.1692
23.7218 -4.4840 -14.3377
21.3442 -2.0873 -12.7367
19.4306 -0.1583 -11.5401
17.9261 1.4588 -10.6814
16.5465 2.8495 -9.9715
15.3297 4.0761 -9.4206
14.2321 5.1825 -8.9953
14.9088 6.9925 -9.7798
16.0926 9.3836 -11.0634
14.7825 10.4919 -10.7658
15.6109 13.3256 -12.1897
22.0641 -2.8130 -13.2098
20.0179 -0.7503 -11.8969
18.4242 0.9566 -10.9568
16.9787 2.4138 -10.1849
15.7141 3.6886 -9.5862
14.5813 4.8305 -9.1226
13.6220 5.9083 -8.8182
16.5399 9.0053 -11.1845
15.1714 10.1125 -10.8284
13.8372 11.1271 -10.5453
22.7838 -3.5863 -13.6978
20.4537 -1.3681 -12.1745
18.7759 0.4236 -11.1538
17.4303 1.9585 -10.4169
16.1125 3.2870 -9.7662
14.8044 4.4272 -9.1770
13.7497 5.4904 -8.7928
16.0776 8.1519 -10.7057
15.6342 9.7714 -10.9494
14.3471 10.8603 -10.6866
19.1599 17.3995 -15.3708
-8.6592 -0.8447 -5.1671
23.6804 -4.4424 -14.3090
21.3116 -2.0545 -12.7155
19.4038 -0.1313 -11.5241
23.8467 -4.6100 -14.2230
21.4357 -2.1859 -12.6177
19.5113 -0.2396 -11.4265
17.9948 1.3894 -10.5690
16.6064 2.7891 -9.8608
15.3831 4.0222 -9.3111
14.1503 5.0866 -8.8054
14.7667 6.8515 -9.5328
16.1551 9.3307 -10.9249
14.8417 10.4419 -10.6267
15.6387 13.2379 -11.9984
22.1699 -2.9197 -13.0946
20.0387 -0.8341 -11.7447
18.4965 0.8837 -10.8438
17.0412 2.3508 -10.0737
15.7694 3.6328 -9.4763
14.6314 4.7800 -9.0137
13.5033 5.7905 -8.6038
16.6037 8.9512 -11.0460
15.1556 10.0117 -10.6366
13.8943 11.0787 -10.4063
-4.9925 -9.9359 -6.5116
22.7437 -3.6765 -13.4914
20.5444 -1.4595 -12.0610
18.7576 0.3455 -10.9862
17.4956 1.8927 -10.3051
16.1463 3.2243 -9.6419
14.9925 4.4159 -9.1524
13.8162 5.4509 -8.6976
15.9073 7.9830 -10.4224
15.6954 9.7196 -10.8108
14.4054 10.8109 -10.5471
18.9679 17.0825 -14.9480
-8.6739 -0.8099 -5.1015
23.8049 -4.5679 -14.1943
21.4098 -2.1534 -12.6007
19.4843 -0.2124 -11.4105
17.9719 1.4126 -10.5566
16.5864 2.8093 -9.8512
15.3653 4.0402 -9.3037
14.1342 5.1028 -8.7998
14.8137 6.8982 -9.5692
16.1343 9.3484 -10.9195
14.8219 10.4586 -10.6228
15.6204 13.2594 -11.9984
22.1345 -2.8840 -13.0714
20.0655 -0.8075 -11.7597
18.4723 0.9081 -10.8303
17.0203 2.3718 -10.0633
15.7509 3.6515 -9.4682
14.6147 4.7968 -9.0075
13.5426 5.8295 -8.6339
16.5824 8.9693 -11.0400
15.1357 10.0286 -10.6324
13.8753 11.0948 -10.4034
-4.9758 -9.9367 -6.5077
22.7278 -3.6418 -13.4790
20.5141 -1.4289 -12.0420
18.7843 0.3719 -11.0021
17.4738 1.9147 -10.2938
16.1508 3.2484 -9.6472
14.9753 4.4333 -9.1456
13.8086 5.4700 -8.6976
15.9636 8.0389 -10.4666
15.6750 9.7369 -10.8059
14.3860 10.8274 -10.5437
19.1380 17.2835 -15.1008
-8.6684 -0.8214 -5.0989
23.7633 -4.5259 -14.1657
21.3770 -2.1204 -12.5796
19.4573 -0.1852 -11.3946
17.9489 1.4357 -10.5443
16.5665 2.8293 -9.8417
15.3475 4.0582 -9.2962
14.1182 5.1190 -8.7942
14.8613 6.9453 -9.6061
16.1134 9.3660 -10.9141
14.8021 10.4753 -10.6190
15.6021 13.2809 -11.9984
22.0991 -2.8483 -13.0481
20.0464 -0.7791 -11.7479
18.4483 0.9323 -10.8170
16.9995 2.3928 -10.0529
15.7325 3.6700 -9.4602
14.5980 4.8137 -9.0012
13.6343 5.8912 -8.6976
16.5611 8.9874 -11.0340
15.1158 10.0454 -10.6281
13.8563 11.1109 -10.4006
-4.9592 -9.9376 -6.5037
22.7557 -3.6141 -13.4926
20.4838 -1.3983 -12.0231
18.8110 0.3984 -11.0181
17.4521 1.9366 -10.2825
16.1316 3.2677 -9.6384
14.8215 4.4100 -9.0554
13.8011 5.4890 -8.6976
16.0203 8.0951 -10.5110
15.6546 9.7541 -10.8011
14.3665 10.8438 -10.5404
19.1874 17.3762 -15.1587
-8.6637 -0.8330 -5.0968
23.7218 -4.4840 -14.1373
21.1482 -2.0682 -12.4433
19.4306 -0.1583 -11.3788
17.9261 1.4588 -10.5321
16.5465 2.8495 -9.8321
15.3297 4.0761 -9.2889
14.1021 5.1352 -8.7885
14.9088 6.9925 -9.6431
16.0926 9.3836 -10.9088
14.7825 10.4919 -10.6153
15.6110 13.3257 -12.0193
22.0641 -2.8130 -13.0252
20.0179 -0.7503 -11.7306
18.4242 0.9566 -10.8036
16.9787 2.4138 -10.0426
15.7141 3.6886 -9.4522
14.5813 4.8305 -8.9950
13.6261 5.9100 -8.6976
16.5399 9.0053 -11.0282
15.1714 10.1126 -10.6770
13.8372 11.1271 -10.3978
-4.9424 -9.9384 -6.4998
22.7838 -3.5863 -13.5063
20.4538 -1.3681 -12.0043
18.7759 0.4236 -10.9979
17.4303 1.9586 -10.2713
16.1125 3.2870 -9.6297
14.8044 4.4272 -9.0487
13.7935 5.5080 -8.6976
16.0776 8.1519 -10.5560
15.6342 9.7714 -10.7964
14.3471 10.8603 -10.5372
19.1599 17.3994 -15.1559
-8.6589 -0.8446 -5.0947
23.6804 -4.4424 -14.1090
21.1159 -2.0356 -12.4226
19.4038 -0.1313 -11.3630
23.8467 -4.6100 -14.0228
21.2458 -2.1665 -12.3298
19.5113 -0.2396 -11.2657
17.9948 1.3894 -10.4202
16.6064 2.7891 -9.7220
15.3831 4.0222 -9.1800
14.1765 5.0960 -8.6976
14.7667 6.8516 -9.3986
16.1551 9.3307 -10.7711
14.8417 10.4419 -10.4771
15.8620 13.4269 -11.9984
22.1699 -2.9197 -12.9103
20.0386 -0.8341 -11.5793
18.4965 0.8837 -10.6912
17.0412 2.3508 -9.9319
15.7694 3.6328 -9.3429
14.4977 4.7363 -8.8056
13.5033 5.7905 -8.4827
16.6037 8.9512 -10.8905
15.1556 10.0117 -10.4869
13.8943 11.0787 -10.2598
22.7437 -3.6765 -13.3015
20.7296 -1.4727 -11.9984
18.7576 0.3455 -10.8316
17.4956 1.8927 -10.1600
16.1463 3.2243 -9.5061
14.9925 4.4159 -9.0236
13.7966 5.4432 -8.5630
15.9073 7.9830 -10.2757
15.6954 9.7196 -10.6586
14.4054 10.8109 -10.3986
18.9679 17.0825 -14.7376
-8.6733 -0.8098 -5.0293
23.8049 -4.5679 -13.9945
21.2132 -2.1336 -12.3092
19.4843 -0.2124 -11.2499
17.9719 1.4126 -10.4081
16.5864 2.8093 -9.7125
15.3653 4.0402 -9.1727
14.1695 5.1155 -8.6976
14.8137 6.8982 -9.4345
16.1343 9.3484 -10.7658
14.8219 10.4586 -10.4733
15.8435 13.4487 -11.9984
22.1345 -2.8840 -12.8874
20.0655 -0.8075 -11.5942
18.4723 0.9081 -10.6779
17.0203 2.3718 -9.9216
15.7509 3.6515 -9.3350
14.4812 4.7530 -8.7995
13.5426 5.8295 -8.5124
16.5824 8.9693 -10.8846
15.1357 10.0286 -10.4827
13.8753 11.0948 -10.2570
22.7278 -3.6418 -13.2893
20.7042 -1.4422 -11.9825
18.7843 0.3719 -10.8472
17.4738 1.9147 -10.1489
16.1508 3.2484 -9.5114
14.9753 4.4333 -9.0169
13.7809 5.4589 -8.5579
15.9636 8.0389 -10.3192
15.6750 9.7369 -10.6538
14.3860 10.8274 -10.3953
19.1380 17.2835 -14.8882
-8.6681 -0.8214 -5.0270
23.7633 -4.5259 -13.9663
21.1807 -2.1009 -12.2887
19.4573 -0.1852 -11.2342
17.9489 1.4357 -10.3959
16.5665 2.8293 -9.7031
15.3475 4.0581 -9.1654
14.1624 5.1350 -8.6976
14.8613 6.9453 -9.4709
16.1134 9.3660 -10.7605
14.8021 10.4753 -10.4696
15.8249 13.4706 -11.9984
22.0991 -2.8483 -12.8645
20.0464 -0.7791 -11.5825
18.4483 0.9323 -10.6647
16.9995 2.3928 -9.9114
15.7325 3.6700 -9.3270
14.4646 4.7697 -8.7935
13.5821 5.8687 -8.5423
16.5611 8.9874 -10.8787
15.1158 10.0454 -10.4785
13.8563 11.1109 -10.2542
22.7557 -3.6141 -13.3027
20.6736 -1.4113 -11.9637
18.8110 0.3984 -10.8629
17.4521 1.9366 -10.1378
16.1316 3.2677 -9.5027
14.8215 4.4100 -8.9279
13.7652 5.4748 -8.5529
16.0203 8.0951 -10.3631
15.6546 9.7541 -10.6491
14.3665 10.8438 -10.3921
19.1874 17.3762 -14.9453
-8.6634 -0.8330 -5.0249
23.7218 -4.4840 -13.9383
21.1482 -2.0682 -12.2682
19.4306 -0.1583 -11.2186
17.9261 1.4588 -10.3838
16.5465 2.8495 -9.6937
15.3297 4.0761 -9.1581
14.1553 5.1546 -8.6976
14.9088 6.9925 -9.5073
16.0926 9.3836 -10.7552
14.7825 10.4919 -10.4659
15.8063 13.4924 -11.9984
22.0641 -2.8130 -12.8418
20.0179 -0.7503 -11.5654
18.4242 0.9566 -10.6515
16.9787 2.4138 -9.9012
15.7141 3.6886 -9.3191
14.4481 4.7864 -8.7874
13.6220 5.9083 -8.5726
16.5399 9.0053 -10.8729
15.1714 10.1126 -10.5267
13.8372 11.1271 -10.2515
22.7838 -3.5863 -13.3162
20.6433 -1.3808 -11.9450
18.7759 0.4236 -10.8431
17.4303 1.9586 -10.1267
16.1125 3.2870 -9.4941
14.8044 4.4272 -8.9213
13.7496 5.4904 -8.5479
16.0776 8.1520 -10.4074
15.6342 9.7714 -10.6444
14.3471 10.8603 -10.3888
19.1599 17.3995 -14.9426
-8.6586 -0.8446 -5.0228
23.6804 -4.4424 -13.9104
21.1159 -2.0356 -12.2478
19.4038 -0.1313 -11.2031
23.8467 -4.6100 -13.8240
21.2458 -2.1665 -12.1551
19.5113 -0.2396 -11.1060
17.9948 1.3894 -10.2725
16.6064 2.7891 -9.5842
15.3831 4.0222 -9.0499
14.1503 5.0865 -8.5584
14.7667 6.8516 -9.2653
16.1551 9.3307 -10.6184
14.8417 10.4419 -10.3286
15.9091 13.4667 -11.8634
22.1699 -2.9197 -12.7273
20.0386 -0.8341 -11.4152
18.4965 0.8837 -10.5396
17.0412 2.3508 -9.7911
15.7694 3.6328 -9.2105
14.5257 4.7455 -8.6976
13.5033 5.7905 -8.3624
16.6037 8.9512 -10.7361
15.1556 10.0117 -10.3383
13.8943 11.0787 -10.1144
22.7437 -3.6765 -13.1130
20.7348 -1.4730 -11.8313
18.7576 0.3455 -10.6780
17.4956 1.8927 -10.0160
16.1463 3.2243 -9.3714
14.8556 4.3756 -8.8144
13.8126 5.4495 -8.4514
15.9073 7.9830 -10.1300
15.6954 9.7196 -10.5075
14.4054 10.8109 -10.2512
18.9679 17.0825 -14.5287
-8.6728 -0.8098 -4.9577
-5.3857 -9.9779 -6.4536
23.8049 -4.5679 -13.7961
21.2132 -2.1336 -12.1347
19.4843 -0.2124 -11.0905
17.9719 1.4126 -10.2605
16.5864 2.8093 -9.5748
15.3653 4.0402 -9.0427
14.1342 5.1028 -8.5529
14.8137 6.8982 -9.3008
16.1343 9.3484 -10.6132
14.8219 10.4586 -10.3249
16.0223 13.6005 -11.9618
22.1345 -2.8840 -12.7047
20.0655 -0.8075 -11.4298
18.4724 0.9081 -10.5265
17.0203 2.3718 -9.7810
15.7509 3.6515 -9.2026
14.5192 4.7655 -8.6976
13.5426 5.8294 -8.3917
16.5824 8.9693 -10.7303
15.1357 10.0286 -10.3341
13.8753 11.0948 -10.1116
22.7278 -3.6418 -13.1009
20.7042 -1.4422 -11.8127
18.7843 0.3719 -10.6935
17.4738 1.9147 -10.0050
16.1508 3.2484 -9.3766
14.8385 4.3928 -8.8079
13.8051 5.4685 -8.4514
15.9636 8.0389 -10.1730
15.6750 9.7369 -10.5028
14.3860 10.8274 -10.2480
19.1380 17.2835 -14.6772
-8.6679 -0.8213 -4.9556
-5.3699 -9.9816 -6.4511
23.7633 -4.5259 -13.7684
21.1807 -2.1009 -12.1145
19.4573 -0.1852 -11.0750
17.9489 1.4357 -10.2486
16.5665 2.8293 -9.5656
15.3475 4.0581 -9.0355
14.1181 5.1190 -8.5475
14.8613 6.9453 -9.3367
16.1134 9.3660 -10.6080
14.8021 10.4753 -10.3212
16.0525 13.6643 -11.9984
22.0991 -2.8483 -12.6821
20.0464 -0.7791 -11.4184
18.4483 0.9323 -10.5135
16.9995 2.3928 -9.7709
15.7325 3.6700 -9.1948
14.5126 4.7855 -8.6976
13.5821 5.8687 -8.4213
16.5611 8.9873 -10.7245
15.1158 10.0454 -10.3300
13.8563 11.1109 -10.1089
22.7557 -3.6141 -13.1141
20.6736 -1.4113 -11.7941
18.8110 0.3984 -10.7090
17.4521 1.9366 -9.9941
16.1316 3.2677 -9.3680
14.8215 4.4100 -8.8014
13.7975 5.4876 -8.4514
16.0203 8.0951 -10.2162
15.6546 9.7541 -10.4981
14.3665 10.8438 -10.2448
19.1874 17.3762 -14.7335
-8.6631 -0.8330 -4.9535
-5.3550 -9.9869 -6.4498
23.7218 -4.4840 -13.7407
21.1482 -2.0682 -12.0943
19.4306 -0.1583 -11.0596
17.9261 1.4588 -10.2366
16.5465 2.8495 -9.5563
15.3297 4.0761 -9.0283
14.1021 5.1352 -8.5420
14.9088 6.9925 -9.3726
16.0926 9.3836 -10.6028
14.7825 10.4919 -10.3175
16.0336 13.6864 -11.9984
22.0641 -2.8130 -12.6598
20.0179 -0.7503 -11.4015
18.4242 0.9566 -10.5006
16.9787 2.4138 -9.7609
15.7141 3.6886 -9.1870
14.5060 4.8056 -8.6976
13.6226 5.9085 -8.4514
16.5399 9.0053 -10.7188
15.1714 10.1125 -10.3775
13.8372 11.1271 -10.1062
22.7838 -3.5863 -13.1274
20.6433 -1.3808 -11.7757
18.7759 0.4236 -10.6893
17.4303 1.9586 -9.9832
16.1125 3.2870 -9.3596
14.8044 4.4272 -8.7949
13.7900 5.5065 -8.4514
16.0776 8.1520 -10.2599
15.6342 9.7714 -10.4935
14.3471 10.8603 -10.2416
19.1599 17.3995 -14.7307
-8.6583 -0.8446 -4.9514
-5.3401 -9.9922 -6.4484
23.6804 -4.4424 -13.7132
21.1159 -2.0356 -12.0742
19.4038 -0.1313 -11.0443
23.8467 -4.6100 -13.6266
21.2757 -2.1695 -11.9984
19.5113 -0.2396 -10.9474
17.9948 1.3894 -10.1259
16.6064 2.7891 -9.4473
15.2426 3.9855 -8.8392
14.1758 5.0957 -8.4514
14.7667 6.8516 -9.1330
16.1551 9.3307 -10.4668
14.8417 10.4419 -10.1811
15.9091 13.4667 -11.6940
21.9663 -2.8929 -12.4304
20.0386 -0.8341 -11.2522
18.4965 0.8837 -10.3891
17.0412 2.3508 -9.6513
15.7694 3.6328 -9.0790
14.4977 4.7363 -8.5568
13.5033 5.7905 -8.2430
16.6037 8.9512 -10.5828
15.1556 10.0117 -10.1906
13.8943 11.0787 -9.9699
22.7437 -3.6765 -12.9257
20.7348 -1.4730 -11.6624
18.7576 0.3455 -10.5255
17.4956 1.8927 -9.8730
16.1463 3.2243 -9.2376
14.8710 4.3801 -8.6976
13.9238 5.4933 -8.3978
15.9073 7.9830 -9.9854
15.6954 9.7196 -10.3575
14.4054 10.8109 -10.1048
18.9679 17.0825 -14.3212
-8.6723 -0.8097 -4.8867
23.8049 -4.5679 -13.5991
21.2786 -2.1402 -11.9984
19.4843 -0.2124 -10.9321
17.9719 1.4126 -10.1140
16.5864 2.8093 -9.4381
15.2249 4.0033 -8.8321
14.1687 5.1153 -8.4514
14.8137 6.8982 -9.1680
16.1343 9.3484 -10.4616
14.8219 10.4586 -10.1774
16.0223 13.6005 -11.7910
21.9313 -2.8575 -12.4083
20.0655 -0.8075 -11.2666
18.4723 0.9081 -10.3762
17.0203 2.3718 -9.6413
15.7509 3.6515 -9.0712
14.4812 4.7530 -8.5509
13.5426 5.8294 -8.2719
16.5824 8.9693 -10.5771
15.1357 10.0286 -10.1865
13.8753 11.0948 -9.9672
22.7278 -3.6418 -12.9139
20.7042 -1.4421 -11.6440
18.7843 0.3719 -10.5408
17.4738 1.9147 -9.8622
16.1508 3.2484 -9.2427
14.8649 4.4006 -8.6976
13.9080 5.5093 -8.3928
15.9636 8.0389 -10.0277
15.6750 9.7369 -10.3528
14.3860 10.8274 -10.1016
19.1379 17.2835 -14.4676
-8.6676 -0.8213 -4.8846
23.7633 -4.5259 -13.5718
21.2816 -2.1109 -11.9984
19.4573 -0.1852 -10.9168
17.9489 1.4357 -10.1022
16.5665 2.8293 -9.4290
15.2073 4.0211 -8.8251
14.1617 5.1348 -8.4514
14.8613 6.9453 -9.2033
16.1134 9.3660 -10.4565
14.8021 10.4753 -10.1738
16.1373 13.7365 -11.8895
21.8962 -2.8222 -12.3862
20.0464 -0.7791 -11.2553
18.4483 0.9323 -10.3634
16.9995 2.3928 -9.6314
15.7325 3.6700 -9.0635
14.4646 4.7697 -8.5450
13.5821 5.8687 -8.3010
16.5611 8.9874 -10.5714
15.1158 10.0454 -10.1825
13.8563 11.1109 -9.9645
22.7558 -3.6141 -12.9269
20.6736 -1.4113 -11.6257
18.8110 0.3984 -10.5561
17.4521 1.9366 -9.8514
16.1316 3.2677 -9.2343
14.8588 4.4211 -8.6976
13.8921 5.5252 -8.3878
16.0203 8.0951 -10.0703
15.6546 9.7541 -10.3482
14.3665 10.8438 -10.0985
19.1874 17.3762 -14.5231
-8.6628 -0.8329 -4.8826
23.7218 -4.4840 -13.5445
21.2845 -2.0815 -11.9984
19.4306 -0.1583 -10.9017
17.9261 1.4588 -10.0905
16.5465 2.8495 -9.4199
15.1896 4.0389 -8.8181
14.1546 5.1543 -8.4514
14.9088 6.9925 -9.2387
16.0926 9.3836 -10.4514
14.7825 10.4919 -10.1702
16.2544 13.8749 -11.9899
21.8615 -2.7872 -12.3644
20.0179 -0.7503 -11.2387
18.4242 0.9566 -10.3506
16.9787 2.4138 -9.6215
15.7141 3.6886 -9.0558
14.4481 4.7864 -8.5392
13.8199 5.9941 -8.4514
16.5399 9.0053 -10.5657
15.1714 10.1125 -10.2293
13.8372 11.1271 -9.9619
22.7838 -3.5863 -12.9400
20.6433 -1.3808 -11.6076
18.7760 0.4236 -10.5367
17.4303 1.9586 -9.8406
16.1125 3.2870 -9.2259
14.8527 4.4416 -8.6976
13.8764 5.5411 -8.3830
16.0776 8.1520 -10.1134
15.6342 9.7714 -10.3437
14.3471 10.8603 -10.0953
19.1599 17.3995 -14.5204
-8.6581 -0.8445 -4.8806
23.6804 -4.4424 -13.5174
21.2873 -2.0521 -11.9984
19.4038 -0.1313 -10.8866
23.8467 -4.6100 -13.4306
21.4357 -2.1859 -11.9147
19.5113 -0.2396 -10.7899
17.9948 1.3894 -9.9802
16.6064 2.7891 -9.3114
15.2426 3.9854 -8.7120
14.2808 5.1335 -8.3915
14.4026 6.6826 -8.7797
16.1551 9.3307 -10.3162
14.8417 10.4419 -10.0346
15.9091 13.4667 -11.5258
-5.8073 -10.0112 -6.3998
21.9663 -2.8929 -12.2516
20.0386 -0.8341 -11.0903
18.4965 0.8837 -10.2397
17.0412 2.3508 -9.5125
15.6253 3.5996 -8.8666
14.5281 4.7462 -8.4514
13.5033 5.7905 -8.1245
16.6037 8.9512 -10.4306
15.1556 10.0117 -10.0440
13.8943 11.0787 -9.8265
22.7437 -3.6765 -12.7398
20.7348 -1.4730 -11.4946
18.7577 0.3455 -10.3741
17.4956 1.8927 -9.7310
16.1463 3.2243 -9.1047
14.8556 4.3756 -8.5636
13.9238 5.4934 -8.2769
15.9073 7.9830 -9.8418
15.6954 9.7196 -10.2085
14.4054 10.8109 -9.9594
18.9679 17.0825 -14.1152
-8.6721 -0.8097 -4.8162
23.8049 -4.5679 -13.4035
21.4098 -2.1534 -11.8986
19.4843 -0.2124 -10.7748
17.9719 1.4126 -9.9685
16.5864 2.8093 -9.3024
15.2249 4.0033 -8.7051
14.2645 5.1498 -8.3861
14.4484 6.7281 -8.8133
16.1343 9.3484 -10.3111
14.8219 10.4586 -10.0310
16.0223 13.6005 -11.6214
-5.7896 -10.0124 -6.3955
21.9577 -2.8610 -12.2445
20.0655 -0.8075 -11.1045
18.4724 0.9081 -10.2269
17.0203 2.3718 -9.5026
15.6070 3.6181 -8.8590
14.5215 4.7663 -8.4514
13.5426 5.8295 -8.1529
16.5824 8.9693 -10.4249
15.1357 10.0286 -10.0400
13.8753 11.0948 -9.8238
22.7278 -3.6418 -12.7281
20.7042 -1.4421 -11.4765
18.7843 0.3719 -10.3891
17.4738 1.9147 -9.7203
16.1508 3.2484 -9.1097
14.8385 4.3928 -8.5572
13.9080 5.5093 -8.2721
15.9636 8.0389 -9.8834
15.6750 9.7369 -10.2039
14.3860 10.8274 -9.9563
19.1379 17.2835 -14.2595
-8.6673 -0.8213 -4.8142
23.7633 -4.5259 -13.3765
21.3770 -2.1203 -11.8788
19.4573 -0.1852 -10.7598
17.9489 1.4357 -9.9569
16.5665 2.8293 -9.2934
15.2073 4.0211 -8.6981
14.2483 5.1662 -8.3808
14.4948 6.7741 -8.8473
16.1134 9.3660 -10.3061
14.8021 10.4753 -10.0274
16.1373 13.7365 -11.7185
-5.7736 -10.0165 -6.3931
21.9617 -2.8306 -12.2445
20.0464 -0.7791 -11.0934
18.4483 0.9323 -10.2143
16.9995 2.3928 -9.4928
15.5888 3.6365 -8.8515
14.5149 4.7863 -8.4514
13.5821 5.8687 -8.1816
16.5610 8.9874 -10.4193
15.1158 10.0454 -10.0360
13.8563 11.1109 -9.8212
22.7558 -3.6141 -12.7409
20.6736 -1.4113 -11.4584
18.8110 0.3984 -10.4042
17.4521 1.9366 -9.7097
16.1316 3.2677 -9.1014
14.8215 4.4100 -8.5509
13.8921 5.5252 -8.2672
16.0203 8.0951 -9.9254
15.6546 9.7541 -10.1994
14.3665 10.8438 -9.9532
19.1874 17.3762 -14.3141
-8.6625 -0.8329 -4.8122
23.7218 -4.4840 -13.3497
21.3442 -2.0874 -11.8590
19.4306 -0.1583 -10.7449
17.9261 1.4588 -9.9453
16.5465 2.8495 -9.2844
15.2007 4.0418 -8.6976
14.2321 5.1825 -8.3754
14.5412 6.8201 -8.8813
16.0926 9.3836 -10.3010
14.7825 10.4919 -10.0239
16.2544 13.8749 -11.8174
-5.7588 -10.0228 -6.3920
21.8615 -2.7872 -12.1866
20.0179 -0.7503 -11.0770
18.4242 0.9566 -10.2017
16.9787 2.4138 -9.4831
15.5705 3.6549 -8.8440
14.5083 4.8063 -8.4514
13.9664 6.0576 -8.4181
16.5399 9.0053 -10.4138
15.1714 10.1125 -10.0821
13.8372 11.1271 -9.8185
22.7838 -3.5863 -12.7538
20.6433 -1.3808 -11.4406
18.7759 0.4236 -10.3851
17.4303 1.9586 -9.6990
16.1125 3.2870 -9.0932
14.8044 4.4272 -8.5446
13.8764 5.5411 -8.2624
16.0776 8.1520 -9.9679
15.6342 9.7714 -10.1949
14.3471 10.8603 -9.9501
19.1599 17.3995 -14.3115
-8.6578 -0.8445 -4.8102
23.6804 -4.4424 -13.3229
21.3116 -2.0545 -11.8393
19.4038 -0.1313 -10.7299
23.8467 -4.6100 -13.2359
21.4357 -2.1859 -11.7420
19.5113 -0.2396 -10.6335
17.9948 1.3894 -9.8355
16.6064 2.7891 -9.1764
15.2426 3.9855 -8.5857
14.2808 5.1335 -8.2699
14.4778 6.7175 -8.6976
16.1551 9.3307 -10.1667
14.8417 10.4419 -9.8891
15.9091 13.4667 -11.3587
21.9663 -2.8929 -12.0739
20.0386 -0.8341 -10.9295
18.4966 0.8837 -10.0912
17.0412 2.3508 -9.3746
15.6253 3.5996 -8.7381
14.6314 4.7800 -8.3881
13.5033 5.7905 -8.0067
16.6037 8.9512 -10.2793
15.1556 10.0117 -9.8984
13.8943 11.0787 -9.6840
22.7437 -3.6765 -12.5551
20.7348 -1.4730 -11.3280
18.7576 0.3455 -10.2237
17.4956 1.8927 -9.5899
16.0222 3.1995 -8.9037
14.8766 4.3818 -8.4514
13.9238 5.4933 -8.1570
15.9073 7.9830 -9.6991
15.6954 9.7196 -10.0605
14.4054 10.8109 -9.8151
18.9679 17.0825 -13.9106
-8.6718 -0.8097 -4.7463
23.8049 -4.5679 -13.2092
21.4098 -2.1534 -11.7261
19.4843 -0.2124 -10.6186
17.9719 1.4126 -9.8240
16.5864 2.8093 -9.1675
15.2249 4.0033 -8.5789
14.2645 5.1498 -8.2645
14.4685 6.7374 -8.6976
16.1343 9.3484 -10.1617
14.8219 10.4586 -9.8856
16.0223 13.6005 -11.4529
21.9313 -2.8575 -12.0525
20.0655 -0.8075 -10.9436
18.4723 0.9081 -10.0787
17.0203 2.3718 -9.3649
15.6070 3.6181 -8.7306
14.6147 4.7968 -8.3823
13.5426 5.8295 -8.0347
16.5824 8.9693 -10.2738
15.1357 10.0286 -9.8944
13.8753 11.0948 -9.6814
22.7278 -3.6418 -12.5436
20.7042 -1.4421 -11.3101
18.7843 0.3719 -10.2385
17.4738 1.9147 -9.5794
16.0032 3.2187 -8.8956
14.8706 4.4023 -8.4514
13.9080 5.5093 -8.1521
15.9636 8.0389 -9.7402
15.6750 9.7369 -10.0560
14.3860 10.8274 -9.8120
19.1380 17.2835 -14.0528
-8.6670 -0.8213 -4.7443
23.7633 -4.5259 -13.1826
21.3770 -2.1203 -11.7066
19.4573 -0.1852 -10.6038
17.9489 1.4357 -9.8125
16.5665 2.8293 -9.1586
15.2073 4.0211 -8.5720
14.2483 5.1662 -8.2593
14.4948 6.7741 -8.7190
16.1134 9.3660 -10.1567
14.8021 10.4753 -9.8820
16.1373 13.7365 -11.5486
21.8962 -2.8222 -12.0311
20.0464 -0.7791 -10.9326
18.4483 0.9323 -10.0663
16.9995 2.3928 -9.3552
15.5888 3.6365 -8.7232
14.5980 4.8137 -8.3765
13.5821 5.8687 -8.0630
16.5611 8.9873 -10.2682
15.1158 10.0454 -9.8905
13.8563 11.1109 -9.6788
22.7557 -3.6141 -12.5562
20.6736 -1.4113 -11.2923
18.8110 0.3984 -10.2534
17.4521 1.9366 -9.5689
15.9842 3.2378 -8.8875
14.8215 4.4100 -8.4269
13.8921 5.5252 -8.1473
16.0203 8.0951 -9.7816
15.6546 9.7541 -10.0515
14.3665 10.8438 -9.8089
19.1874 17.3762 -14.1066
-8.6623 -0.8329 -4.7423
23.7218 -4.4840 -13.1561
21.3442 -2.0873 -11.6871
19.4306 -0.1583 -10.5891
17.9261 1.4588 -9.8011
16.5465 2.8495 -9.1498
15.1896 4.0389 -8.5652
14.2321 5.1825 -8.2540
14.5412 6.8201 -8.7525
16.0926 9.3836 -10.1517
14.7825 10.4919 -9.8786
16.2544 13.8749 -11.6461
21.8615 -2.7872 -12.0099
20.0179 -0.7503 -10.9164
18.4242 0.9566 -10.0538
16.9787 2.4138 -9.3456
15.5705 3.6549 -8.7158
14.5813 4.8305 -8.3708
13.9664 6.0576 -8.2961
16.5399 9.0053 -10.2628
15.1714 10.1125 -9.9360
13.8372 11.1271 -9.6762
22.7838 -3.5863 -12.5689
20.6433 -1.3808 -11.2747
18.7760 0.4236 -10.2346
17.4303 1.9585 -9.5584
15.9653 3.2570 -8.8795
14.8044 4.4272 -8.4207
13.8764 5.5411 -8.1426
16.0776 8.1519 -9.8234
15.6342 9.7714 -10.0471
14.3471 10.8603 -9.8059
19.1599 17.3994 -14.1040
-8.6575 -0.8445 -4.7403
23.6804 -4.4424 -13.1298
21.3116 -2.0545 -11.6676
19.4038 -0.1313 -10.5744
23.8467 -4.6100 -13.0425
21.4357 -2.1859 -11.5704
19.5113 -0.2396 -10.4781
17.9948 1.3894 -9.6918
16.6064 2.7891 -9.0423
15.2426 3.9854 -8.4603
14.2808 5.1335 -8.1490
14.4026 6.6826 -8.5260
16.1551 9.3307 -10.0181
14.8417 10.4419 -9.7446
15.9091 13.4667 -11.1927
22.1525 -2.9174 -11.9984
20.0386 -0.8341 -10.7698
18.4965 0.8837 -9.9438
17.0412 2.3508 -9.2376
15.6253 3.5996 -8.6104
14.6314 4.7800 -8.2656
13.5033 5.7905 -7.8897
16.6037 8.9512 -10.1292
15.1556 10.0117 -9.7538
13.8943 11.0787 -9.5425
-6.2269 -10.0441 -6.3460
22.7437 -3.6765 -12.3716
20.7348 -1.4730 -11.1624
18.7576 0.3455 -10.0744
17.4956 1.8927 -9.4498
16.0222 3.1995 -8.7736
14.9925 4.4159 -8.3928
13.9238 5.4933 -8.0378
15.9073 7.9830 -9.5574
15.6954 9.7196 -9.9135
14.4054 10.8109 -9.6716
18.9679 17.0825 -13.7073
-8.6715 -0.8097 -4.6768
23.8049 -4.5679 -13.0162
21.4098 -2.1534 -11.5548
19.4843 -0.2124 -10.4635
17.9719 1.4126 -9.6804
16.5864 2.8093 -9.0335
15.2249 4.0033 -8.4535
14.2645 5.1498 -8.1438
14.4484 6.7281 -8.5586
16.1343 9.3484 -10.0132
14.8219 10.4586 -9.7411
16.0223 13.6005 -11.2855
22.1345 -2.8840 -11.9864
20.0655 -0.8075 -10.7836
18.4724 0.9081 -9.9314
17.0203 2.3718 -9.2280
15.6070 3.6181 -8.6031
14.6147 4.7968 -8.2598
13.5426 5.8295 -7.9173
16.5824 8.9693 -10.1237
15.1357 10.0286 -9.7499
13.8753 11.0948 -9.5400
-6.2086 -10.0455 -6.3414
22.7058 -3.6383 -12.3483
20.7042 -1.4421 -11.1449
18.7843 0.3719 -10.0889
17.4738 1.9147 -9.4394
16.0032 3.2187 -8.7656
14.9753 4.4333 -8.3866
13.9080 5.5093 -8.0330
15.9636 8.0389 -9.5978
15.6750 9.7369 -9.9090
14.3860 10.8274 -9.6686
19.1379 17.2835 -13.8474
-8.6668 -0.8212 -4.6748
23.7633 -4.5259 -12.9900
21.3770 -2.1204 -11.5355
19.4573 -0.1852 -10.4488
17.9489 1.4357 -9.6692
16.5665 2.8293 -9.0248
15.2156 4.0233 -8.4514
14.2483 5.1662 -8.1386
14.4948 6.7741 -8.5916
16.1134 9.3660 -10.0082
14.8021 10.4753 -9.7377
16.1373 13.7365 -11.3799
22.0991 -2.8483 -11.9651
20.0464 -0.7791 -10.7728
18.4483 0.9323 -9.9192
16.9995 2.3928 -9.2185
15.5888 3.6365 -8.5957
14.5980 4.8137 -8.2541
13.5821 5.8687 -7.9451
16.5611 8.9873 -10.1182
15.1158 10.0454 -9.7460
13.8563 11.1109 -9.5374
-6.1903 -10.0468 -6.3369
22.6680 -3.6002 -12.3250
20.6736 -1.4113 -11.1273
18.8110 0.3984 -10.1036
17.4521 1.9366 -9.4291
15.9842 3.2378 -8.7577
14.8215 4.4100 -8.3038
13.8921 5.5252 -8.0283
16.0203 8.0951 -9.6386
15.6546 9.7541 -9.9046
14.3665 10.8438 -9.6656
19.1874 17.3762 -13.9005
-8.6620 -0.8329 -4.6728
23.7218 -4.4840 -12.9639
21.3442 -2.0873 -11.5163
19.4306 -0.1583 -10.4344
17.9261 1.4588 -9.6579
16.5465 2.8495 -9.0161
15.2100 4.0443 -8.4514
14.2321 5.1825 -8.1334
14.5412 6.8201 -8.6246
16.0926 9.3836 -10.0033
14.7825 10.4919 -9.7342
16.2544 13.8749 -11.4759
22.0641 -2.8130 -11.9441
20.0179 -0.7503 -10.7569
18.4242 0.9566 -9.9069
16.9787 2.4138 -9.2090
15.5705 3.6549 -8.5885
14.5813 4.8305 -8.2485
13.9664 6.0576 -8.1749
16.5399 9.0053 -10.1128
15.1714 10.1125 -9.7908
13.8372 11.1271 -9.5348
-6.1738 -10.0510 -6.3341
22.6303 -3.5621 -12.3018
20.6433 -1.3808 -11.1100
18.7760 0.4236 -10.0850
17.4303 1.9586 -9.4188
15.9653 3.2570 -8.7497
14.8044 4.4272 -8.2977
13.8764 5.5411 -8.0236
16.0776 8.1520 -9.6799
15.6342 9.7714 -9.9003
14.3471 10.8603 -9.6626
19.1599 17.3994 -13.8980
-8.6572 -0.8445 -4.6709
23.6804 -4.4424 -12.9379
21.3116 -2.0545 -11.4971
19.4038 -0.1313 -10.4199
23.8467 -4.6100 -12.8504
21.4357 -2.1859 -11.4000
19.5113 -0.2396 -10.3238
17.9948 1.3894 -9.5490
16.4547 2.7636 -8.8277
15.3831 4.0222 -8.4125
14.2808 5.1335 -8.0290
14.4900 6.7232 -8.4514
16.1551 9.3307 -9.8705
14.8417 10.4419 -9.6011
15.9091 13.4667 -11.0278
-1.9121 16.6416 -8.8626
22.1699 -2.9197 -11.8309
20.0387 -0.8341 -10.6112
18.4966 0.8837 -9.7973
17.0412 2.3508 -9.1015
15.6253 3.5996 -8.4836
14.6314 4.7800 -8.1438
13.5033 5.7905 -7.7735
16.6037 8.9512 -9.9799
15.1556 10.0117 -9.6101
13.8943 11.0787 -9.4020
22.7437 -3.6765 -12.1894
20.7348 -1.4730 -10.9980
18.7576 0.3455 -9.9259
17.4956 1.8927 -9.3106
16.0222 3.1995 -8.6444
14.9925 4.4159 -8.2692
13.9238 5.4933 -7.9194
15.9073 7.9830 -9.4166
15.6954 9.7196 -9.7674
14.4054 10.8109 -9.5292
18.9679 17.0825 -13.5054
-8.6712 -0.8096 -4.6077
23.8049 -4.5679 -12.8244
21.4098 -2.1534 -11.3846
19.4843 -0.2124 -10.3093
17.9719 1.4126 -9.5378
16.4348 2.7836 -8.8192
15.3653 4.0402 -8.4058
14.2645 5.1498 -8.0238
14.4808 6.7431 -8.4514
16.1343 9.3484 -9.8657
14.8219 10.4586 -9.5977
16.0223 13.6005 -11.1193
-1.9358 16.6454 -8.8661
22.1345 -2.8840 -11.8099
20.0655 -0.8075 -10.6248
18.4723 0.9081 -9.7851
17.0203 2.3718 -9.0921
15.6070 3.6181 -8.4763
14.6147 4.7968 -8.1382
13.5426 5.8294 -7.8007
16.5824 8.9693 -9.9746
15.1357 10.0286 -9.6062
13.8753 11.0948 -9.3994
-1.4511 16.7423 -8.8912
22.7058 -3.6383 -12.1664
20.7042 -1.4422 -10.9807
18.7843 0.3719 -9.9403
17.4738 1.9147 -9.3003
16.0032 3.2187 -8.6365
14.9753 4.4333 -8.2630
13.9080 5.5093 -7.9147
15.9636 8.0389 -9.4565
15.6750 9.7369 -9.7631
14.3860 10.8274 -9.5262
19.1380 17.2835 -13.6434
-8.6665 -0.8212 -4.6058
23.7633 -4.5259 -12.7986
21.3770 -2.1203 -11.3656
19.4573 -0.1852 -10.2949
17.9489 1.4357 -9.5267
16.4151 2.8035 -8.8106
15.3475 4.0581 -8.3991
14.2483 5.1662 -8.0187
14.4948 6.7741 -8.4650
16.1134 9.3660 -9.8608
14.8021 10.4753 -9.5942
16.1373 13.7364 -11.2122
-1.9596 16.6492 -8.8696
22.0991 -2.8483 -11.7889
20.0464 -0.7791 -10.6141
18.4483 0.9323 -9.7731
16.9995 2.3928 -9.0827
15.5888 3.6365 -8.4691
14.5980 4.8137 -8.1325
13.5821 5.8687 -7.8281
16.5611 8.9874 -9.9692
15.1158 10.0454 -9.6024
13.8563 11.1109 -9.3969
-1.4711 16.7050 -8.8725
22.6680 -3.6002 -12.1434
20.6736 -1.4113 -10.9634
18.8110 0.3984 -9.9547
17.4521 1.9366 -9.2902
15.9842 3.2378 -8.6287
14.8215 4.4100 -8.1815
13.8921 5.5252 -7.9100
16.0203 8.0951 -9.4966
15.6547 9.7541 -9.7587
14.3665 10.8438 -9.5232
19.1874 17.3762 -13.6957
-8.6617 -0.8328 -4.6039
23.7218 -4.4840 -12.7729
21.3442 -2.0873 -11.3466
19.4306 -0.1583 -10.2807
17.9261 1.4588 -9.5156
16.3953 2.8234 -8.8021
15.3297 4.0761 -8.3924
14.2321 5.1825 -8.0136
14.5412 6.8201 -8.4976
16.0926 9.3836 -9.8560
14.7825 10.4919 -9.5908
16.2544 13.8749 -11.3069
-1.9834 16.6541 -8.8736
22.0641 -2.8130 -11.7681
20.0179 -0.7503 -10.5985
18.4242 0.9566 -9.7610
16.9787 2.4138 -9.0734
15.5705 3.6549 -8.4619
14.5813 4.8305 -8.1270
13.9664 6.0576 -8.0544
16.5399 9.0053 -9.9639
15.1714 10.1125 -9.6466
13.8372 11.1271 -9.3944
-1.4918 16.6761 -8.8582
22.6303 -3.5622 -12.1206
20.6433 -1.3808 -10.9463
18.7760 0.4236 -9.9365
17.4303 1.9585 -9.2800
15.9653 3.2569 -8.6209
14.8044 4.4272 -8.1754
13.8764 5.5411 -7.9054
16.0776 8.1519 -9.5373
15.6342 9.7714 -9.7544
14.3471 10.8603 -9.5202
19.1599 17.3994 -13.6932
-8.6570 -0.8444 -4.6019
23.6804 -4.4424 -12.7474
21.3116 -2.0545 -11.3278
19.4038 -0.1313 -10.2664
23.8467 -4.6100 -12.6595
21.4357 -2.1859 -11.2307
19.5113 -0.2396 -10.1704
17.9948 1.3894 -9.4072
16.4565 2.7639 -8.6976
15.3831 4.0222 -8.2875
14.2808 5.1335 -7.9097
14.7085 6.8245 -8.4514
16.1551 9.3307 -9.7239
14.8417 10.4419 -9.4585
15.9091 13.4667 -10.8640
-1.9153 16.6689 -8.7453
22.1699 -2.9197 -11.6552
20.0387 -0.8341 -10.4536
18.4966 0.8837 -9.6518
16.8855 2.3293 -8.8844
15.7694 3.6328 -8.4346
14.6314 4.7800 -8.0228
13.5033 5.7905 -7.6580
16.6037 8.9512 -9.8317
15.1556 10.0117 -9.4674
13.8943 11.0787 -9.2623
-1.4300 16.7668 -8.7709
22.7437 -3.6765 -12.0083
20.7348 -1.4730 -10.8346
18.7576 0.3455 -9.7785
17.4956 1.8927 -9.1723
16.0222 3.1995 -8.5160
14.9925 4.4159 -8.1463
13.9238 5.4933 -7.8017
15.9073 7.9830 -9.2767
15.6954 9.7196 -9.6224
14.4054 10.8109 -9.3876
18.9679 17.0825 -13.3048
-2.4367 16.6753 -8.7838
-8.6710 -0.8096 -4.5391
-6.6614 -10.0729 -6.2944
23.8049 -4.5679 -12.6340
21.4098 -2.1534 -11.2155
19.4843 -0.2124 -10.1562
17.9719 1.4126 -9.3962
16.4526 2.7866 -8.6976
15.3653 4.0402 -8.2809
14.2645 5.1498 -7.9046
14.6991 6.8448 -8.4514
16.1343 9.3484 -9.7191
14.8219 10.4586 -9.4551
16.0223 13.6005 -10.9541
-1.9380 16.6640 -8.7441
22.1345 -2.8840 -11.6344
20.0655 -0.8075 -10.4670
18.4723 0.9081 -9.6398
16.8648 2.3501 -8.8752
15.7509 3.6515 -8.4274
14.6147 4.7968 -8.0173
13.5426 5.8294 -7.6848
16.5824 8.9693 -9.8264
15.1357 10.0286 -9.4636
13.8753 11.0948 -9.2598
-1.4529 16.7624 -8.7697
22.7278 -3.6418 -11.9973
20.7042 -1.4421 -10.8176
18.7843 0.3719 -9.7927
17.4738 1.9147 -9.1622
16.0032 3.2187 -8.5082
14.9753 4.4333 -8.1403
13.9080 5.5093 -7.7971
15.9636 8.0389 -9.3160
15.6750 9.7369 -9.6181
14.3860 10.8274 -9.3847
19.1379 17.2835 -13.4408
-2.4606 16.6783 -8.7871
-8.6662 -0.8212 -4.5372
-6.6426 -10.0747 -6.2898
23.7633 -4.5259 -12.6085
21.3770 -2.1203 -11.1968
19.4573 -0.1852 -10.1420
17.9489 1.4357 -9.3852
16.4488 2.8093 -8.6976
15.3475 4.0581 -8.2743
14.2483 5.1662 -7.8996
14.6896 6.8651 -8.4514
16.1134 9.3660 -9.7143
14.8021 10.4753 -9.4517
16.1373 13.7365 -11.0457
-1.9608 16.6590 -8.7429
22.0991 -2.8483 -11.6138
20.0464 -0.7791 -10.4565
18.4483 0.9323 -9.6279
16.8442 2.3710 -8.8661
15.7325 3.6700 -8.4202
14.5980 4.8137 -8.0118
13.5821 5.8687 -7.7119
16.5611 8.9874 -9.8211
15.1158 10.0454 -9.4598
13.8563 11.1109 -9.2573
-1.4773 16.7754 -8.7775
22.7349 -3.6108 -11.9984
20.6736 -1.4113 -10.8006
18.8110 0.3984 -9.8068
17.4521 1.9366 -9.1522
15.9842 3.2378 -8.5005
14.8215 4.4100 -8.0599
13.8921 5.5252 -7.7925
16.0203 8.0951 -9.3556
15.6546 9.7541 -9.6138
14.3665 10.8438 -9.3818
19.1874 17.3762 -13.4923
-2.4846 16.6816 -8.7907
-8.6614 -0.8328 -4.5353
-6.6239 -10.0764 -6.2852
23.7218 -4.4840 -12.5832
21.3442 -2.0873 -11.1781
19.4306 -0.1583 -10.1280
17.9261 1.4588 -9.3743
16.4449 2.8320 -8.6976
15.3297 4.0761 -8.2678
14.2321 5.1825 -7.8946
14.6802 6.8853 -8.4514
16.0926 9.3836 -9.7096
14.7825 10.4919 -9.4484
16.2544 13.8749 -11.1389
-1.9834 16.6540 -8.7417
22.0641 -2.8130 -11.5933
20.0179 -0.7503 -10.4410
18.4242 0.9566 -9.6160
16.8236 2.3917 -8.8569
15.7141 3.6886 -8.4131
14.5813 4.8305 -8.0062
13.9664 6.0576 -7.9348
16.5399 9.0053 -9.8159
15.1714 10.1125 -9.5033
13.8372 11.1271 -9.2548
-1.5003 16.7710 -8.7763
22.7398 -3.5794 -11.9984
20.6433 -1.3808 -10.7837
18.7759 0.4236 -9.7889
17.4303 1.9585 -9.1422
15.9653 3.2570 -8.4928
14.8044 4.4272 -8.0540
13.8764 5.5411 -7.7880
16.0776 8.1519 -9.3956
15.6342 9.7714 -9.6095
14.3471 10.8603 -9.3788
19.1599 17.3995 -13.4898
-2.5087 16.6849 -8.7943
-8.6567 -0.8444 -4.5334
-6.6051 -10.0782 -6.2806
23.4630 -4.4016 -12.4427
21.3116 -2.0544 -11.1595
19.4038 -0.1313 -10.1139
23.6277 -4.5677 -12.3553
21.4357 -2.1859 -11.0624
19.5113 -0.2396 -10.0181
17.9948 1.3894 -9.2662
16.4546 2.7636 -8.5663
15.3831 4.0222 -8.1634
14.2808 5.1335 -7.7912
14.7667 6.8516 -8.3577
16.1551 9.3307 -9.5783
14.8417 10.4419 -9.3168
15.9091 13.4667 -10.7013
-1.9461 16.9368 -8.7527
-3.4834 16.8600 -8.8389
-21.9326 6.6638 -11.7687
22.1699 -2.9197 -11.4806
20.0387 -0.8341 -10.2970
18.4966 0.8837 -9.5072
16.8855 2.3293 -8.7513
15.7694 3.6328 -8.3082
14.6314 4.7800 -7.9026
13.5033 5.7905 -7.5433
16.6037 8.9512 -9.6844
15.1556 10.0117 -9.3255
13.8943 11.0787 -9.1236
-1.4515 17.0194 -8.7697
-2.9741 16.8780 -8.7989
-22.2433 5.3243 -11.7426
22.7437 -3.6765 -11.8284
20.7348 -1.4730 -10.6723
18.7576 0.3455 -9.6320
17.4956 1.8927 -9.0349
16.1426 3.2236 -8.4514
14.9925 4.4159 -8.0243
13.9238 5.4934 -7.6849
15.9073 7.9830 -9.1377
15.6954 9.7196 -9.4782
14.4054 10.8109 -9.2470
18.9679 17.0825 -13.1055
-2.4549 16.7999 -8.7168
-8.6707 -0.8096 -4.4710
-6.6967 -10.1263 -6.2330
23.5863 -4.5259 -12.3304
21.4098 -2.1534 -11.0475
19.4843 -0.2124 -10.0041
17.9719 1.4126 -9.2554
16.4349 2.7836 -8.5580
15.3653 4.0402 -8.1569
14.2645 5.1498 -7.7862
14.8138 6.8982 -8.3897
16.1343 9.3484 -9.5735
14.8219 10.4586 -9.3134
16.0223 13.6005 -10.7900
-1.9691 16.9317 -8.7515
-3.5080 16.8618 -8.8424
-21.9363 6.6318 -11.7657
22.1345 -2.8840 -11.4601
20.0655 -0.8075 -10.3102
18.4723 0.9081 -9.4954
16.8648 2.3501 -8.7423
15.7509 3.6515 -8.3011
14.6147 4.7968 -7.8972
13.5426 5.8295 -7.5697
16.5824 8.9693 -9.6792
15.1357 10.0286 -9.3218
13.8753 11.0948 -9.1211
-1.4761 17.0299 -8.7761
-2.9975 16.8745 -8.7992
-22.2548 5.2946 -11.7448
22.7278 -3.6418 -11.8176
20.7042 -1.4421 -10.6555
18.7843 0.3719 -9.6459
17.4738 1.9147 -9.0249
16.1381 3.2458 -8.4514
14.9753 4.4333 -8.0183
13.9080 5.5093 -7.6803
15.9636 8.0389 -9.1764
15.6750 9.7369 -9.4740
14.3860 10.8274 -9.2441
19.1380 17.2835 -13.2394
-2.4777 16.7942 -8.7156
-8.6659 -0.8212 -4.4691
-6.6817 -10.1339 -6.2320
23.5450 -4.4843 -12.3056
21.3770 -2.1203 -11.0290
19.4573 -0.1852 -9.9901
17.9489 1.4357 -9.2446
16.4151 2.8035 -8.5497
15.3475 4.0581 -8.1504
14.2483 5.1662 -7.7812
14.8613 6.9454 -8.4221
16.1134 9.3660 -9.5688
14.8021 10.4753 -9.3101
16.1373 13.7365 -10.8802
-1.9923 16.9267 -8.7503
-21.9399 6.5999 -11.7628
22.0991 -2.8483 -11.4398
20.0464 -0.7791 -10.2998
18.4483 0.9323 -9.4836
16.8442 2.3710 -8.7332
15.7325 3.6700 -8.2941
14.5980 4.8137 -7.8917
13.5821 5.8687 -7.5963
16.5611 8.9873 -9.6740
15.1158 10.0454 -9.3180
13.8563 11.1109 -9.1186
-1.4996 17.0282 -8.7763
-3.0208 16.8710 -8.7995
-22.2664 5.2649 -11.7470
22.7557 -3.6141 -11.8295
20.6736 -1.4113 -10.6387
18.8110 0.3984 -9.6599
17.4520 1.9366 -9.0151
16.1316 3.2677 -8.4503
14.8215 4.4100 -7.9392
13.8921 5.5252 -7.6758
16.0203 8.0951 -9.2154
15.6546 9.7541 -9.4698
14.3665 10.8438 -9.2412
19.1874 17.3762 -13.2902
-2.5006 16.7884 -8.7144
-8.6612 -0.8328 -4.4673
-6.6783 -10.1592 -6.2419
23.5039 -4.4429 -12.2809
21.3442 -2.0873 -11.0106
19.4306 -0.1583 -9.9762
17.9261 1.4588 -9.2339
16.3953 2.8234 -8.5414
15.3297 4.0761 -8.1439
14.2321 5.1825 -7.7763
14.9035 6.9900 -8.4514
16.0926 9.3836 -9.5641
14.7825 10.4919 -9.3068
16.2544 13.8749 -10.9721
-2.0152 16.9216 -8.7491
-21.9435 6.5680 -11.7599
22.0641 -2.8130 -11.4196
20.0179 -0.7503 -10.2846
18.4242 0.9566 -9.4719
16.8236 2.3917 -8.7242
15.7141 3.6886 -8.2871
14.5813 4.8305 -7.8863
13.9664 6.0576 -7.8159
16.5399 9.0053 -9.6688
15.1714 10.1125 -9.3609
13.8372 11.1271 -9.1162
-1.5229 17.0237 -8.7750
-3.0442 16.8674 -8.7998
22.7838 -3.5863 -11.8415
20.6433 -1.3808 -10.6222
18.7759 0.4236 -9.6422
17.4303 1.9586 -9.0052
16.1125 3.2870 -8.4427
14.8044 4.4272 -7.9333
13.8764 5.5411 -7.6713
16.0776 8.1519 -9.2548
15.6342 9.7714 -9.4656
14.3471 10.8603 -9.2383
19.1599 17.3995 -13.2877
-2.5234 16.7826 -8.7132
-8.6564 -0.8444 -4.4654
23.4630 -4.4016 -12.2563
21.3116 -2.0545 -10.9923
19.4038 -0.1313 -9.9624
23.6277 -4.5677 -12.1686
21.4357 -2.1859 -10.8952
19.5113 -0.2396 -9.8667
17.9948 1.3894 -9.1262
16.4830 2.7684 -8.4514
15.3831 4.0222 -8.0400
14.2808 5.1335 -7.6735
14.7667 6.8515 -8.2314
16.1551 9.3307 -9.4335
14.8417 10.4419 -9.1760
15.9091 13.4667 -10.5395
-21.9146 6.6583 -11.5813
8.2613 -13.5827 -8.0387
22.1699 -2.9197 -11.3070
20.0387 -0.8341 -10.1414
18.4965 0.8837 -9.3635
16.8855 2.3293 -8.6191
15.7694 3.6328 -8.1827
14.6314 4.7800 -7.7832
13.5033 5.7905 -7.4293
16.6037 8.9512 -9.5380
15.1556 10.0117 -9.1846
13.8943 11.0787 -8.9857
-22.2335 5.3219 -11.5600
22.7437 -3.6765 -11.6496
20.7348 -1.4730 -10.5110
18.7576 0.3455 -9.4865
17.3358 1.8754 -8.8170
16.1463 3.2243 -8.3256
14.9925 4.4159 -7.9030
13.9238 5.4933 -7.5687
15.5151 7.7862 -8.7777
15.6954 9.7196 -9.3350
14.4054 10.8109 -9.1072
18.2170 16.4063 -12.3965
-2.4920 17.0537 -8.7148
-4.0252 16.8535 -8.7617
-8.6704 -0.8095 -4.4033
23.5863 -4.5259 -12.1441
21.4098 -2.1534 -10.8805
19.4843 -0.2124 -9.8529
17.9719 1.4126 -9.1155
16.4792 2.7911 -8.4514
15.3653 4.0402 -8.0336
14.2645 5.1498 -7.6685
14.8137 6.8982 -8.2629
16.1343 9.3484 -9.4288
14.8219 10.4586 -9.1727
16.0223 13.6005 -10.6270
-21.9183 6.6264 -11.5784
8.2870 -13.5828 -8.0455
22.1345 -2.8840 -11.2870
20.0655 -0.8075 -10.1543
18.4723 0.9081 -9.3518
16.8649 2.3501 -8.6101
15.7509 3.6515 -8.1757
14.6147 4.7968 -7.7778
13.5426 5.8294 -7.4553
16.5824 8.9693 -9.5329
15.1357 10.0286 -9.1809
13.8753 11.0948 -8.9832
-22.2450 5.2923 -11.5622
22.7278 -3.6418 -11.6390
20.7042 -1.4422 -10.4945
18.7843 0.3719 -9.5002
17.3142 1.8972 -8.8073
16.1508 3.2484 -8.3302
14.9753 4.4333 -7.8971
13.9080 5.5093 -7.5642
15.5700 7.8406 -8.8149
15.6750 9.7369 -9.3308
14.3860 10.8274 -9.1044
19.1380 17.2835 -13.0393
-2.5152 17.0479 -8.7136
-4.0493 16.8517 -8.7636
-8.6657 -0.8211 -4.4014
23.5450 -4.4843 -12.1196
21.3770 -2.1203 -10.8623
19.4573 -0.1852 -9.8391
17.9489 1.4357 -9.1049
16.4753 2.8138 -8.4514
15.3475 4.0581 -8.0272
14.2483 5.1662 -7.6636
14.8613 6.9453 -8.2948
16.1134 9.3660 -9.4242
14.8021 10.4753 -9.1694
16.1373 13.7365 -10.7158
-21.9219 6.5945 -11.5755
-7.1103 -10.1252 -6.2561
8.3128 -13.5829 -8.0524
22.0991 -2.8483 -11.2669
20.0464 -0.7791 -10.1442
18.4483 0.9323 -9.3403
16.8442 2.3710 -8.6013
15.7325 3.6700 -8.1688
14.5980 4.8137 -7.7725
13.5821 5.8687 -7.4815
16.5611 8.9874 -9.5278
15.1158 10.0454 -9.1772
13.8563 11.1109 -8.9808
22.7557 -3.6141 -11.6507
20.6736 -1.4113 -10.4780
18.8110 0.3984 -9.5139
17.2926 1.9189 -8.7977
16.1316 3.2677 -8.3226
14.8215 4.4100 -7.8192
13.8921 5.5252 -7.5598
15.6253 7.8955 -8.8523
15.6546 9.7541 -9.3266
14.3665 10.8438 -9.1015
19.1874 17.3762 -13.0893
-2.5383 17.0420 -8.7124
-4.0734 16.8498 -8.7656
-8.6609 -0.8328 -4.3996
23.5039 -4.4429 -12.0953
21.3442 -2.0873 -10.8442
19.4306 -0.1583 -9.8255
17.9261 1.4588 -9.0943
16.4714 2.8365 -8.4514
15.3297 4.0761 -8.0208
