ply
format ascii 1.0
element vertex 622
property float32 x
property float32 y
property float32 z
end_header
1.5839 -16.6202 -8.5716
1.6023 -16.8126 -8.5398
1.6268 -17.0703 -8.5385
3.2450 -16.8704 -8.5544
4.9323 -16.8324 -8.4659
6.7199 -16.8214 -8.1989
8.6543 -16.8252 -7.7349
4.4739 -46.9439 -8.5148
4.4739 -46.9439 -8.2152
4.4738 -46.9437 -7.9162
4.4738 -46.9435 -7.6178
4.4738 -46.9433 -7.3200
4.4738 -46.9431 -7.0227
4.4738 -46.9428 -6.7260
4.4737 -46.9426 -6.4299
16.2576 -25.3591 -4.1074
4.4737 -46.9424 -6.1342
16.3377 -25.4840 -3.9379
4.4737 -46.9422 -5.8390
16.3377 -25.4840 -3.7484
4.5004 -47.2220 -5.5774
16.3377 -25.4840 -3.5592
4.6353 -48.6378 -5.4397
16.2576 -25.3591 -3.3538
16.3377 -25.4840 -3.1816
16.3377 -25.4840 -2.9932
16.3377 -25.4840 -2.8051
9.0228 -46.9078 -4.1297
16.3377 -25.4840 -2.6171
9.0218 -46.9028 -3.8330
16.3377 -25.4840 -2.4293
16.3377 -25.4840 -2.2417
16.3377 -25.4840 -2.0543
16.3377 -25.4840 -1.8671
16.2576 -25.3591 -1.6717
16.2576 -25.3591 -1.4857
4.5606 -47.8537 -2.0741
16.2576 -25.3591 -1.2997
4.4730 -46.9350 -1.7434
16.2576 -25.3591 -1.1138
4.4725 -46.9302 -1.4525
16.2576 -25.3591 -0.9281
4.4721 -46.9253 -1.1617
16.2576 -25.3591 -0.7424
4.4716 -46.9204 -0.8711
16.2576 -25.3591 -0.5567
4.4712 -46.9156 -0.5806
16.2576 -25.3591 -0.3711
4.4707 -46.9107 -0.2903
16.9239 -26.3983 -0.1932
4.4702 -46.9059 -0.0000
16.9239 -26.3983 -0.0000
4.4698 -46.9010 0.2902
16.9239 -26.3983 0.1932
4.4693 -46.8961 0.5804
16.9239 -26.3983 0.3863
4.4688 -46.8913 0.8706
16.9239 -26.3983 0.5796
13.2409 -33.1450 0.8796
16.9239 -26.3983 0.7728
13.1626 -44.9198 1.4422
13.2415 -33.1466 1.0997
16.9239 -26.3983 0.9661
-0.0000 -40.4698 1.4964
3.8343 -40.2332 1.4944
7.9181 -41.1647 1.5500
13.1765 -44.9672 1.7326
13.0891 -32.7652 1.3046
16.9239 -26.3983 1.1595
-0.0000 -40.4698 1.7461
3.8343 -40.2332 1.7438
7.9181 -41.1647 1.8087
12.6668 -43.2277 1.9435
13.0914 -32.7709 1.5226
22.1634 -43.0876 2.0906
16.9239 -26.3983 1.3530
-0.0000 -39.3989 1.9431
3.7386 -39.2293 1.9435
7.4317 -38.6361 1.9405
11.5111 -39.2835 2.0189
13.0937 -32.7766 1.7408
19.3889 -37.6947 2.0906
16.9239 -26.3983 1.5465
-0.0000 -37.3163 2.0709
3.5275 -37.0141 2.0635
7.1156 -36.9928 2.0906
3.9675 -13.5399 0.7830
13.9750 -34.9829 2.0906
15.9748 -31.0572 1.9382
16.9239 -26.3983 1.7402
-0.0000 -13.2321 0.8161
3.2158 -33.7428 2.0906
6.4025 -33.2855 2.0906
3.9677 -13.5405 0.8703
12.5745 -31.4770 2.0906
8.7248 -16.9622 1.1765
16.9239 -26.3983 1.9341
-0.0000 -11.9685 0.8122
2.9226 -30.6672 2.0906
5.8189 -30.2515 2.0906
3.9679 -13.5410 0.9576
10.6092 -26.5573 1.9408
8.6794 -16.8738 1.2877
15.4521 -24.1025 1.9430
-0.0000 -10.9244 0.8090
2.4831 -26.0546 1.9382
5.3325 -27.7224 2.0906
3.9680 -13.5415 1.0450
9.7274 -24.3499 1.9418
8.6643 -16.8446 1.4028
14.1590 -22.0856 1.9428
-0.0000 -10.0471 0.8063
0.9534 -10.0036 0.8064
2.9357 -15.2623 1.2473
3.9682 -13.5421 1.1325
8.9751 -22.4669 1.9415
8.6493 -16.8154 1.5175
13.0649 -20.3792 1.9427
-0.0000 -10.0026 0.8648
0.9533 -10.0034 0.8688
2.9362 -15.2648 1.3439
3.9683 -13.5426 1.2200
8.3287 -20.8487 1.9410
8.6343 -16.7863 1.6320
12.1272 -18.9164 1.9426
-0.0000 -10.0024 0.9269
0.9533 -10.0032 0.9311
2.9367 -15.2672 1.4406
3.8760 -13.2276 1.2773
7.7678 -19.4447 1.9403
8.6194 -16.7572 1.7462
11.3142 -17.6481 1.9425
-0.0000 -10.0022 0.9890
0.9533 -10.0030 0.9936
2.9371 -15.2697 1.5375
3.8766 -13.2295 1.3631
7.2767 -18.2152 1.9395
8.5996 -16.7188 1.8590
10.6072 -16.5454 1.9433
-0.0000 -10.0020 1.0512
0.9533 -10.0028 1.0561
2.8850 -14.9984 1.6053
3.8771 -13.2313 1.4491
6.8430 -17.1297 1.9387
8.4568 -16.4411 1.9432
9.9801 -15.5672 1.9435
-0.0000 -10.0018 1.1136
0.9533 -10.0026 1.1187
2.8611 -14.8742 1.6864
3.8776 -13.2331 1.5353
6.4582 -16.1664 1.9382
7.9790 -15.5122 1.9422
9.4214 -14.6958 1.9435
-0.0000 -10.0016 1.1760
0.9533 -10.0024 1.1814
2.8522 -14.8281 1.7754
3.8782 -13.2350 1.6216
6.3448 -15.8826 2.0109
7.5515 -14.6811 1.9411
8.9214 -13.9158 1.9435
-0.0000 -10.0014 1.2384
0.9532 -10.0022 1.2442
2.8506 -14.8199 1.8687
3.8787 -13.2368 1.7080
6.2633 -15.6786 2.0906
7.1668 -13.9332 1.9402
8.4711 -13.2135 1.9435
-0.0000 -10.0012 1.3010
0.9532 -10.0020 1.3070
2.8567 -14.8512 1.9674
3.8793 -13.2386 1.7946
5.9620 -14.9242 2.0906
6.8188 -13.2566 1.9393
8.0595 -12.5713 1.9426
-0.0000 -10.0010 1.3637
0.9532 -10.0018 1.3700
2.8859 -15.0032 2.0833
3.8798 -13.2405 1.8813
5.6878 -14.2380 2.0906
6.5024 -12.6416 1.9384
7.6850 -11.9872 1.9416
-0.0000 -10.0008 1.4265
0.9532 -10.0017 1.4331
2.7686 -14.3932 2.0906
3.8920 -13.2823 1.9742
0.9344 -2.3390 0.3593
6.2581 -12.1666 1.9515
7.3432 -11.4541 1.9407
-0.0000 -10.0006 1.4894
0.9532 -10.0015 1.4962
0.4555 -2.3683 0.3592
0.6785 -2.3154 0.3593
0.8956 -2.2419 0.3595
6.2415 -12.1343 2.0322
7.0300 -10.9655 1.9398
0.0000 -2.3147 0.3593
0.2196 -2.3045 0.3593
0.4374 -2.2739 0.3594
0.6514 -2.2230 0.3596
0.8599 -2.1525 0.3598
1.0610 -2.0627 0.3601
6.7419 -10.5162 1.9391
0.0000 -2.2259 0.3596
0.2112 -2.2160 0.3596
0.4206 -2.1865 0.3597
0.6264 -2.1376 0.3598
0.8268 -2.0697 0.3600
1.0202 -1.9833 0.3603
6.4760 -10.1014 1.9384
0.0000 -2.1434 0.3598
0.2034 -2.1339 0.3598
0.4050 -2.1055 0.3599
0.6032 -2.0584 0.3601
0.7961 -1.9929 0.3603
0.9823 -1.9097 0.3605
6.2561 -9.7584 1.9459
0.0000 -2.0667 0.3600
0.1961 -2.0575 0.3601
0.3905 -2.0301 0.3601
0.5815 -1.9846 0.3603
0.7676 -1.9215 0.3605
0.9471 -1.8412 0.3607
6.2373 -9.7291 2.0133
0.0000 -1.9951 0.3602
0.1893 -1.9862 0.3603
0.3770 -1.9598 0.3603
0.5614 -1.9159 0.3605
0.7410 -1.8549 0.3607
0.9142 -1.7773 0.3609
6.2245 -9.7091 2.0824
0.0000 -1.9282 0.3604
0.1829 -1.9196 0.3605
0.3643 -1.8940 0.3605
0.5426 -1.8515 0.3607
0.7161 -1.7926 0.3608
0.8835 -1.7176 0.3611
1.0432 -1.6272 0.3613
0.0000 -1.8654 0.3606
0.1770 -1.8572 0.3606
0.3525 -1.8324 0.3607
0.5249 -1.7913 0.3608
0.6928 -1.7342 0.3610
0.8547 -1.6616 0.3612
1.0092 -1.5742 0.3615
0.0000 -1.8065 0.3608
0.1714 -1.7985 0.3608
0.3413 -1.7745 0.3609
0.5083 -1.7347 0.3610
0.6709 -1.6794 0.3612
0.8277 -1.6091 0.3614
0.9773 -1.5244 0.3616
0.0000 -1.7511 0.3609
0.1661 -1.7433 0.3610
0.3309 -1.7200 0.3610
0.4927 -1.6814 0.3612
0.6503 -1.6278 0.3613
0.8022 -1.5596 0.3615
0.9472 -1.4775 0.3618
0.0000 -1.6989 0.3611
0.1612 -1.6913 0.3611
0.3210 -1.6687 0.3612
0.4780 -1.6312 0.3613
0.6309 -1.5792 0.3615
0.7783 -1.5130 0.3617
0.9189 -1.4333 0.3619
0.0000 -1.6495 0.3612
0.1565 -1.6422 0.3613
0.3116 -1.6202 0.3613
0.4641 -1.5838 0.3614
0.6125 -1.5333 0.3616
0.7556 -1.4690 0.3618
0.8921 -1.3916 0.3620
0.0000 -1.6028 0.3614
0.1521 -1.5957 0.3614
0.3028 -1.5743 0.3615
0.4510 -1.5389 0.3616
0.5952 -1.4898 0.3617
0.7342 -1.4274 0.3619
0.8668 -1.3521 0.3621
0.0000 -1.5586 0.3615
0.1479 -1.5516 0.3615
0.2945 -1.5309 0.3616
0.4385 -1.4965 0.3617
0.5787 -1.4487 0.3618
0.7139 -1.3879 0.3620
0.8429 -1.3147 0.3622
0.0000 -1.5166 0.3616
0.1439 -1.5098 0.3617
0.2865 -1.4896 0.3617
0.4267 -1.4561 0.3618
0.5631 -1.4096 0.3619
0.6946 -1.3505 0.3621
0.8201 -1.2792 0.3623
0.0000 -1.4767 0.3617
0.1401 -1.4701 0.3618
0.2790 -1.4504 0.3618
0.4155 -1.4178 0.3619
0.5483 -1.3725 0.3621
0.6763 -1.3149 0.3622
0.7985 -1.2455 0.3624
0.0000 -1.4387 0.3619
0.1365 -1.4323 0.3619
0.2718 -1.4131 0.3619
0.4048 -1.3813 0.3620
0.5342 -1.3372 0.3622
0.6589 -1.2811 0.3623
0.7779 -1.2134 0.3625
-0.0000 -1.4026 0.3620
0.1331 -1.3963 0.3620
0.2650 -1.3776 0.3620
0.3946 -1.3466 0.3621
0.5207 -1.3036 0.3623
0.6424 -1.2488 0.3624
0.7583 -1.1829 0.3626
0.0000 -1.3681 0.3621
0.1298 -1.3620 0.3621
0.2585 -1.3437 0.3621
0.3849 -1.3135 0.3622
0.5079 -1.2715 0.3623
0.6265 -1.2181 0.3625
0.7397 -1.1537 0.3627
0.0000 -1.3351 0.3622
0.1267 -1.3292 0.3622
0.2522 -1.3114 0.3622
0.3756 -1.2818 0.3623
0.4957 -1.2408 0.3624
0.6114 -1.1887 0.3626
0.7218 -1.1259 0.3628
0.0000 -1.3036 0.3622
0.1237 -1.2978 0.3623
0.2463 -1.2804 0.3623
0.3667 -1.2516 0.3624
0.4840 -1.2115 0.3625
0.5970 -1.1606 0.3627
0.7048 -1.0993 0.3629
0.0000 -1.2735 0.3623
0.1208 -1.2678 0.3624
0.2406 -1.2508 0.3624
0.3583 -1.2226 0.3625
0.4728 -1.1835 0.3626
0.5832 -1.1337 0.3628
0.6884 -1.0738 0.3629
0.0000 -1.2446 0.3624
0.1181 -1.2390 0.3624
0.2351 -1.2224 0.3625
0.3501 -1.1949 0.3626
0.4621 -1.1566 0.3627
0.5699 -1.1080 0.3628
0.6728 -1.0494 0.3630
0.0000 -1.2169 0.3625
0.1155 -1.2115 0.3625
0.2299 -1.1952 0.3626
0.3423 -1.1683 0.3626
0.4518 -1.1309 0.3628
0.5572 -1.0833 0.3629
0.6578 -1.0260 0.3631
0.0000 -1.1903 0.3626
0.1129 -1.1850 0.3626
0.2249 -1.1691 0.3626
0.3348 -1.1427 0.3627
0.4419 -1.1061 0.3628
0.5450 -1.0596 0.3630
0.6434 -1.0036 0.3631
0.0000 -1.1648 0.3627
0.1105 -1.1596 0.3627
0.2201 -1.1440 0.3627
0.3277 -1.1182 0.3628
0.4324 -1.0824 0.3629
0.5333 -1.0369 0.3630
0.6296 -0.9820 0.3632
0.0000 -1.1402 0.3627
0.1082 -1.1351 0.3627
0.2154 -1.1199 0.3628
0.3207 -1.0946 0.3629
0.4233 -1.0595 0.3630
0.5221 -1.0150 0.3631
0.6163 -0.9613 0.3633
0.0000 -1.1166 0.3628
0.1059 -1.1116 0.3628
0.2109 -1.0966 0.3629
0.3141 -1.0719 0.3629
0.4145 -1.0376 0.3630
0.5112 -0.9939 0.3632
0.6035 -0.9413 0.3633
0.0000 -1.0938 0.3629
0.1038 -1.0889 0.3629
0.2066 -1.0743 0.3629
0.3077 -1.0500 0.3630
0.4060 -1.0164 0.3631
0.5008 -0.9736 0.3632
0.5912 -0.9221 0.3634
0.0000 -1.0718 0.3629
0.1017 -1.0671 0.3629
0.2025 -1.0527 0.3630
0.3015 -1.0290 0.3631
0.3979 -0.9960 0.3631
0.4907 -0.9541 0.3633
0.5793 -0.9036 0.3634
0.0000 -1.0507 0.3630
0.0997 -1.0460 0.3630
0.1985 -1.0319 0.3630
0.2956 -1.0086 0.3631
0.3900 -0.9763 0.3632
0.4810 -0.9352 0.3633
0.5678 -0.8857 0.3635
0.0000 -1.0302 0.3630
0.0977 -1.0256 0.3631
0.1946 -1.0119 0.3631
0.2898 -0.9890 0.3632
0.3824 -0.9573 0.3633
0.4717 -0.9170 0.3634
0.5568 -0.8685 0.3635
0.0000 -1.0105 0.3631
0.0959 -1.0060 0.3631
0.1909 -0.9925 0.3632
0.2843 -0.9701 0.3632
0.3751 -0.9389 0.3633
0.4626 -0.8994 0.3634
0.5461 -0.8518 0.3636
0.0000 -0.9914 0.3632
0.0941 -0.9870 0.3632
0.1873 -0.9737 0.3632
0.2789 -0.9517 0.3633
0.3680 -0.9212 0.3634
0.4539 -0.8824 0.3635
0.5358 -0.8357 0.3636
0.0000 -0.9730 0.3632
0.0923 -0.9686 0.3632
0.1838 -0.9556 0.3633
0.2737 -0.9340 0.3633
0.3612 -0.9041 0.3634
0.4454 -0.8660 0.3635
0.5258 -0.8201 0.3637
0.0000 -0.9551 0.3633
0.0906 -0.9508 0.3633
0.1804 -0.9380 0.3633
0.2687 -0.9169 0.3634
0.3545 -0.8874 0.3635
0.4372 -0.8501 0.3636
0.5161 -0.8050 0.3637
0.0000 -0.9378 0.3633
0.0890 -0.9336 0.3633
0.1772 -0.9211 0.3634
0.2638 -0.9003 0.3634
0.3481 -0.8714 0.3635
0.4293 -0.8347 0.3636
0.5068 -0.7904 0.3637
0.0000 -0.9211 0.3634
0.0874 -0.9169 0.3634
0.1740 -0.9046 0.3634
0.2591 -0.8842 0.3635
0.3419 -0.8558 0.3636
0.4216 -0.8197 0.3637
0.4977 -0.7763 0.3638
0.0000 -0.9048 0.3634
0.0858 -0.9008 0.3634
0.1709 -0.8886 0.3635
0.2545 -0.8686 0.3635
0.3358 -0.8407 0.3636
0.4142 -0.8053 0.3637
0.4889 -0.7626 0.3638
0.0000 -0.8890 0.3635
0.0843 -0.8851 0.3635
0.1680 -0.8732 0.3635
0.2501 -0.8534 0.3636
0.3300 -0.8260 0.3636
0.4070 -0.7912 0.3637
0.4804 -0.7493 0.3639
0.0000 -0.8738 0.3635
0.0829 -0.8698 0.3635
0.1651 -0.8581 0.3635
0.2458 -0.8387 0.3636
0.3243 -0.8118 0.3637
0.4000 -0.7776 0.3638
0.4721 -0.7364 0.3639
0.0000 -0.8589 0.3635
0.0815 -0.8551 0.3636
0.1623 -0.8435 0.3636
0.2416 -0.8245 0.3636
0.3188 -0.7980 0.3637
0.3932 -0.7644 0.3638
0.4641 -0.7239 0.3639
0.0000 -0.8445 0.3636
0.0801 -0.8407 0.3636
0.1595 -0.8294 0.3636
0.2375 -0.8106 0.3637
0.3134 -0.7846 0.3638
0.3866 -0.7515 0.3639
0.4563 -0.7117 0.3640
0.0000 -0.8304 0.3636
0.0788 -0.8267 0.3636
0.1569 -0.8156 0.3637
0.2336 -0.7972 0.3637
0.3082 -0.7716 0.3638
0.3801 -0.7390 0.3639
0.4487 -0.6998 0.3640
0.0000 -0.8168 0.3637
0.0775 -0.8131 0.3637
0.1543 -0.8022 0.3637
0.2297 -0.7841 0.3638
0.3032 -0.7589 0.3638
0.3739 -0.7269 0.3639
0.4413 -0.6883 0.3640
0.0000 -0.8035 0.3637
0.0762 -0.7999 0.3637
0.1518 -0.7892 0.3637
0.2260 -0.7713 0.3638
0.2982 -0.7465 0.3639
0.3678 -0.7151 0.3640
0.4341 -0.6771 0.3641
0.0000 -0.7906 0.3637
0.0750 -0.7871 0.3637
0.1494 -0.7765 0.3638
0.2224 -0.7589 0.3638
0.2934 -0.7345 0.3639
0.3619 -0.7036 0.3640
0.4271 -0.6663 0.3641
0.0000 -0.7780 0.3638
0.0738 -0.7745 0.3638
0.1470 -0.7641 0.3638
0.2188 -0.7468 0.3639
0.2888 -0.7228 0.3639
0.3561 -0.6924 0.3640
0.4203 -0.6556 0.3641
0.0000 -0.7658 0.3638
0.0727 -0.7623 0.3638
0.1447 -0.7521 0.3639
0.2154 -0.7351 0.3639
0.2842 -0.7115 0.3640
0.3505 -0.6814 0.3641
0.4137 -0.6453 0.3642
0.0000 -0.7538 0.3638
0.0715 -0.7505 0.3639
0.1424 -0.7403 0.3639
0.2120 -0.7236 0.3639
0.2798 -0.7003 0.3640
0.3450 -0.6708 0.3641
0.4072 -0.6352 0.3642
0.0000 -0.7422 0.3639
0.0704 -0.7389 0.3639
0.1402 -0.7289 0.3639
0.2088 -0.7124 0.3640
0.2755 -0.6895 0.3640
0.3397 -0.6604 0.3641
0.4009 -0.6254 0.3642
0.0000 -0.7308 0.3639
0.0693 -0.7276 0.3639
0.1381 -0.7178 0.3640
0.2056 -0.7015 0.3640
0.2712 -0.6790 0.3641
0.3345 -0.6503 0.3642
0.3948 -0.6158 0.3643
0.0000 -0.7198 0.3639
0.0683 -0.7165 0.3640
0.1360 -0.7069 0.3640
0.2024 -0.6909 0.3640
0.2671 -0.6687 0.3641
0.3294 -0.6405 0.3642
0.3888 -0.6065 0.3643
0.0000 -0.7089 0.3640
0.0673 -0.7058 0.3640
0.1339 -0.6962 0.3640
0.1994 -0.6805 0.3641
0.2631 -0.6586 0.3641
0.3245 -0.6308 0.3642
0.3830 -0.5974 0.3643
0.0000 -0.6984 0.3640
0.0663 -0.6952 0.3640
0.1319 -0.6859 0.3640
0.1964 -0.6704 0.3641
0.2592 -0.6488 0.3642
0.3196 -0.6214 0.3642
0.3773 -0.5885 0.3643
0.0000 -0.6881 0.3640
0.0653 -0.6850 0.3640
0.1300 -0.6757 0.3641
0.1935 -0.6604 0.3641
0.2554 -0.6392 0.3642
0.3149 -0.6122 0.3643
0.3717 -0.5798 0.3644
0.0000 -0.6780 0.3641
0.0643 -0.6749 0.3641
0.1281 -0.6658 0.3641
0.1907 -0.6508 0.3641
0.2516 -0.6298 0.3642
0.3103 -0.6033 0.3643
0.3662 -0.5712 0.3644
0.0000 -0.6681 0.3641
0.0634 -0.6651 0.3641
0.1262 -0.6562 0.3641
0.1879 -0.6413 0.3642
0.2480 -0.6207 0.3642
0.3058 -0.5945 0.3643
0.3609 -0.5629 0.3644
0.0000 -0.6585 0.3641
0.0625 -0.6555 0.3641
0.1244 -0.6467 0.3642
0.1852 -0.6321 0.3642
0.2444 -0.6117 0.3643
0.3014 -0.5859 0.3643
0.3557 -0.5548 0.3644
0.0000 -0.6491 0.3641
0.0616 -0.6462 0.3642
0.1226 -0.6374 0.3642
0.1826 -0.6230 0.3642
0.2409 -0.6030 0.3643
0.2971 -0.5775 0.3644
0.3506 -0.5469 0.3645
0.0000 -0.6398 0.3642
0.0607 -0.6370 0.3642
0.1209 -0.6284 0.3642
0.1800 -0.6142 0.3643
0.2375 -0.5944 0.3643
0.2928 -0.5693 0.3644
0.3456 -0.5391 0.3645
0.0000 -0.6308 0.3642
0.0598 -0.6280 0.3642
0.1192 -0.6195 0.3642
0.1774 -0.6055 0.3643
0.2341 -0.5860 0.3643
0.2887 -0.5613 0.3644
0.3407 -0.5315 0.3645
