52344 378.87427320331335 -54.75082015991211 -2.8988778591156006 2.0906102657318115 -1.000515670313007e-08 6.830188794992864e-06 0.11190558969974518 0.6651064157485962 256
1.5839388370513916 -16.62016487121582 -8.571640014648438
1.6022753715515137 -16.812559127807617 -8.53982162475586
1.6268317699432373 -17.07026481628418 -8.538500785827637
3.245042085647583 -16.87036895751953 -8.554443359375
4.93233060836792 -16.832443237304688 -8.465947151184082
6.719854354858398 -16.821388244628906 -8.198927879333496
8.654339790344238 -16.825199127197266 -7.734912395477295
4.473852157592773 -46.94390106201172 -8.514806747436523
4.473853588104248 -46.94390106201172 -8.215181350708008
4.473838806152344 -46.94374084472656 -7.916173934936523
4.47381591796875 -46.94350814819336 -7.617769718170166
4.473794937133789 -46.94328689575195 -7.319964408874512
4.473772048950195 -46.94305419921875 -7.022735595703125
4.473751544952393 -46.94282913208008 -6.726047039031982
4.473728656768799 -46.94260787963867 -6.4298906326293945
16.257646560668945 -25.359079360961914 -4.107437610626221
4.473708629608154 -46.94237518310547 -6.134221076965332
16.33771514892578 -25.483964920043945 -3.937880754470825
4.473686218261719 -46.94215393066406 -5.839041233062744
16.33771514892578 -25.483972549438477 -3.7484068870544434
4.5003581047058105 -47.22203063964844 -5.577388286590576
16.33771514892578 -25.483972549438477 -3.5592174530029297
4.635289669036865 -48.63782501220703 -5.439702033996582
16.257644653320312 -25.359073638916016 -3.3537847995758057
16.33771514892578 -25.48396873474121 -3.1816492080688477
16.33771514892578 -25.48396873474121 -2.993236541748047
16.33771514892578 -25.483978271484375 -2.805058002471924
9.022788047790527 -46.90778732299805 -4.12971830368042
16.33771514892578 -25.483978271484375 -2.617086410522461
9.021831512451172 -46.9028205871582 -3.8330230712890625
16.33771514892578 -25.483966827392578 -2.4293203353881836
16.33771324157715 -25.48396873474121 -2.2417385578155518
16.33771514892578 -25.48396873474121 -2.054330348968506
16.33771514892578 -25.483966827392578 -1.867071509361267
16.257646560668945 -25.359079360961914 -1.6717257499694824
16.257646560668945 -25.35908317565918 -1.485661268234253
4.5605597496032715 -47.85371017456055 -2.0740880966186523
16.257646560668945 -25.35908317565918 -1.2997084856033325
4.473006725311279 -46.93502426147461 -1.7433663606643677
16.257646560668945 -25.359079360961914 -1.1138497591018677
4.4725446701049805 -46.93016052246094 -1.452458143234253
16.257646560668945 -25.35908317565918 -0.9280810356140137
4.472081184387207 -46.925296783447266 -1.161712646484375
16.257646560668945 -25.35908317565918 -0.7423794269561768
4.471617698669434 -46.920433044433594 -0.8711150884628296
16.257646560668945 -25.359079360961914 -0.5567346215248108
4.47115421295166 -46.91558074951172 -0.5806493759155273
16.257646560668945 -25.359079360961914 -0.37113156914711
4.470692157745361 -46.91072082519531 -0.2902851700782776
16.923912048339844 -26.398332595825195 -0.193165123462677
4.470228672027588 -46.90586853027344 -5.0354001359664835e-06
16.923912048339844 -26.398332595825195 -3.662109293145477e-06
4.469766616821289 -46.90101623535156 0.2902180552482605
16.923912048339844 -26.398332595825195 0.193165123462677
4.469303131103516 -46.89614486694336 0.5803982615470886
16.923912048339844 -26.398338317871094 0.38633742928504944
4.468839645385742 -46.89128494262695 0.8705681562423706
16.923912048339844 -26.398334503173828 0.5795501470565796
13.240870475769043 -33.14503479003906 0.8796217441558838
16.923912048339844 -26.398334503173828 0.7727994918823242
13.162647247314453 -44.91980743408203 1.4421546459197998
13.241509437561035 -33.14663314819336 1.0997074842453003
16.923912048339844 -26.39834213256836 0.9661113023757935
-4.825591986445943e-06 -40.4698371887207 1.4964373111724854
3.8343076705932617 -40.233192443847656 1.4944274425506592
7.918091297149658 -41.16468048095703 1.550032615661621
13.17652416229248 -44.96719741821289 1.7326443195343018
13.089138984680176 -32.76520919799805 1.3046443462371826
16.923912048339844 -26.398334503173828 1.1594927310943604
-4.830360467167338e-06 -40.4698371887207 1.7461282014846802
3.8343076705932617 -40.233192443847656 1.7437841892242432
7.918092250823975 -41.16468811035156 1.8086702823638916
12.66680908203125 -43.22769546508789 1.9435442686080933
13.091408729553223 -32.77088928222656 1.5225963592529297
22.16344451904297 -43.08756637573242 2.0906102657318115
16.923912048339844 -26.398338317871094 1.3529622554779053
-5.2404402595129795e-06 -39.39886474609375 1.9431415796279907
3.7385928630828857 -39.229286193847656 1.9435442686080933
7.43172025680542 -38.636138916015625 1.9404550790786743
11.51105785369873 -39.28348922729492 2.0189168453216553
13.093677520751953 -32.77657699584961 1.7407500743865967
19.388925552368164 -37.6947021484375 2.0906102657318115
16.923912048339844 -26.398338317871094 1.5465420484542847
-5.116462489240803e-06 -37.3162727355957 2.07092547416687
3.52752685546875 -37.01414489746094 2.0634655952453613
7.115630149841309 -36.99284362792969 2.0906102657318115
3.9675471782684326 -13.539947509765625 0.7830162048339844
13.975034713745117 -34.982872009277344 2.0906102657318115
15.974838256835938 -31.057201385498047 1.9382102489471436
16.923912048339844 -26.39832878112793 1.7402323484420776
-1.1801719210779993e-06 -13.232138633728027 0.8161288499832153
3.2157602310180664 -33.742794036865234 2.0906102657318115
6.402520179748535 -33.2855110168457 2.0906102657318115
3.9677040576934814 -13.54047966003418 0.8702625036239624
12.574511528015137 -31.476966857910156 2.0906102657318115
8.724801063537598 -16.962186813354492 1.1764744520187378
16.923912048339844 -26.398332595825195 1.9340571165084839
-1.9192696072423132e-06 -11.96853256225586 0.8122270107269287
2.9226443767547607 -30.667150497436523 2.0906102657318115
5.818933010101318 -30.251548767089844 2.0906102657318115
3.9678595066070557 -13.541011810302734 0.9575800895690918
10.609200477600098 -26.557302474975586 1.9407607316970825
8.679354667663574 -16.87383270263672 1.287722110748291
15.452061653137207 -24.102506637573242 1.942960262298584
-1.6498565855727065e-06 -10.924394607543945 0.8090028166770935
2.483060598373413 -26.05462646484375 1.9382102489471436
5.332451820373535 -27.722421646118164 2.0906102657318115
3.96801495552063 -13.541544914245605 1.0449814796447754
9.727363586425781 -24.34988784790039 1.9417858123779297
8.664305686950684 -16.844573974609375 1.402764916419983
14.159027099609375 -22.085588455200195 1.9427920579910278
-7.975101539159368e-07 -10.047138214111328 0.8062939047813416
0.9533625841140747 -10.003589630126953 0.8064376711845398
2.9357290267944336 -15.262313842773438 1.2472704648971558
3.968170404434204 -13.54207706451416 1.1324636936187744
8.975135803222656 -22.466888427734375 1.9415380954742432
8.649295806884766 -16.815391540527344 1.5175061225891113
13.064929962158203 -20.37917709350586 1.942671298980713
-1.6403197378167533e-06 -10.002572059631348 0.8647639751434326
0.9533447623252869 -10.00339412689209 0.8687537312507629
2.9362008571624756 -15.264768600463867 1.343894362449646
3.968327522277832 -13.542609214782715 1.2200450897216797
8.328704833984375 -20.84872055053711 1.9409611225128174
8.634322166442871 -16.786285400390625 1.6319713592529297
12.127232551574707 -18.916378021240234 1.942620038986206
-1.5640258652638295e-06 -10.0023775100708 0.9268563389778137
0.9533268809318542 -10.003203392028809 0.931132435798645
2.936673402786255 -15.267221450805664 1.4406495094299316
3.876035690307617 -13.227648735046387 1.277260422706604
7.767818927764893 -19.444698333740234 1.940269112586975
8.619384765625 -16.757244110107422 1.7461596727371216
11.314153671264648 -17.64809226989746 1.9425466060638428
-1.4972686130931834e-06 -10.00218677520752 0.9890158772468567
0.9533079266548157 -10.003007888793945 0.9935804009437561
2.9371469020843506 -15.269681930541992 1.5375454425811768
3.8765695095062256 -13.229471206665039 1.3631356954574585
7.276660442352295 -18.2152042388916 1.9395214319229126
8.599594116210938 -16.718765258789062 1.8590253591537476
10.60721206665039 -16.545381546020508 1.943347454071045
-1.7356871921947459e-06 -10.001996040344238 1.051249623298645
0.9532893896102905 -10.00281810760498 1.0560998916625977
2.8849740028381348 -14.998443603515625 1.6052939891815186
3.8771026134490967 -13.231298446655273 1.4491370916366577
6.843037128448486 -17.129737854003906 1.9387491941452026
8.456780433654785 -16.44110870361328 1.9432222843170166
9.98009204864502 -15.567166328430176 1.9435442686080933
-1.3542174883696134e-06 -10.001800537109375 1.1135635375976562
0.9532710313796997 -10.002622604370117 1.1187011003494263
2.8610763549804688 -14.8742036819458 1.686396598815918
3.8776402473449707 -13.233125686645508 1.535277247428894
6.458187580108643 -16.166372299194336 1.9382102489471436
7.978992938995361 -15.512227058410645 1.9421517848968506
9.421441078186035 -14.695818901062012 1.9435442686080933
-9.822845186135964e-07 -10.00161075592041 1.1759594678878784
0.9532523155212402 -10.002431869506836 1.1813852787017822
2.8521995544433594 -14.82805347442627 1.775398850440979
3.87817645072937 -13.23495864868164 1.6215591430664062
6.344831466674805 -15.882614135742188 2.010925769805908
7.551503658294678 -14.681133270263672 1.9411286115646362
8.921357154846191 -13.91580867767334 1.9435442686080933
-1.2111663636460435e-06 -10.001415252685547 1.2384412288665771
0.9532342553138733 -10.002236366271973 1.244154453277588
2.850621223449707 -14.81985092163086 1.8687316179275513
3.8787128925323486 -13.236790657043457 1.707985520362854
6.263336181640625 -15.678610801696777 2.0906102657318115
7.166810989379883 -13.933231353759766 1.9401613473892212
8.471099853515625 -13.213470458984375 1.9435442686080933
-1.449584942747606e-06 -10.001224517822266 1.3010190725326538
0.9532150626182556 -10.002041816711426 1.307020902633667
2.856661081314087 -14.851245880126953 1.9673551321029663
3.8792524337768555 -13.238627433776855 1.7945741415023804
5.961960792541504 -14.9241943359375 2.0906102657318115
6.818761348724365 -13.256589889526367 1.9392542839050293
8.05945873260498 -12.57132625579834 1.9425691366195679
-1.3732909565078444e-06 -10.001029014587402 1.3636949062347412
0.9531973004341125 -10.001846313476562 1.3699853420257568
2.8858888149261475 -15.003199577331543 2.0832693576812744
3.879790782928467 -13.24046802520752 1.8813238143920898
5.687838554382324 -14.238006591796875 2.0906102657318115
6.502437591552734 -12.641611099243164 1.9384158849716187
7.684961795806885 -11.98719596862793 1.941575288772583
-1.6021728015402914e-06 -10.000834465026855 1.4264711141586304
0.9531787633895874 -10.001655578613281 1.4330514669418335
2.768551826477051 -14.393195152282715 2.0906102657318115
3.8920440673828125 -13.282279968261719 1.9741811752319336
0.9343880414962769 -2.3389923572540283 0.35925763845443726
6.258133411407471 -12.166645050048828 1.9515058994293213
7.3431830406188965 -11.454081535339355 1.9406683444976807
-1.535415663056483e-06 -10.000643730163574 1.4893560409545898
0.9531604051589966 -10.001460075378418 1.4962258338928223
0.45554542541503906 -2.3682916164398193 0.35916441679000854
0.6784727573394775 -2.315406560897827 0.3593217432498932
0.8956189751625061 -2.241943836212158 0.35953888297080994
6.241509437561035 -12.134326934814453 2.0321648120880127
7.029979705810547 -10.965533256530762 1.939837098121643
2.3961067086020194e-07 -2.3147356510162354 0.35931259393692017
0.2196251004934311 -2.3045103549957275 0.3593460023403168
0.43738189339637756 -2.2738664150238037 0.3594384789466858
0.6514100432395935 -2.2230489253997803 0.35958951711654663
0.85987389087677 -2.1524646282196045 0.35979795455932617
1.060983419418335 -2.0626912117004395 0.3600619435310364
6.7418951988220215 -10.5161714553833 1.9390724897384644
2.029538137549025e-07 -2.225853681564331 0.35957062244415283
0.2111910730600357 -2.2160122394561768 0.3596026599407196
0.42058175802230835 -2.186523675918579 0.3596917688846588
0.6263775825500488 -2.1376237869262695 0.3598373234272003
0.8268128037452698 -2.06970477104187 0.36003753542900085
1.0201600790023804 -1.983329176902771 0.36029160022735596
6.476003170013428 -10.101417541503906 1.9383670091629028
4.515051728049002e-07 -2.143387794494629 0.3598100244998932
0.203366219997406 -2.133902072906494 0.359840989112854
0.4049941897392273 -2.10548734664917 0.3599267601966858
0.6031540632247925 -2.0583691596984863 0.36006683111190796
0.7961415648460388 -1.9929307699203491 0.36026015877723694
0.9822916388511658 -1.9097052812576294 0.3605045974254608
6.256080150604248 -9.75838565826416 1.945880651473999
4.798174018105783e-07 -2.0666589736938477 0.3600326478481293
0.19608528912067413 -2.0575058460235596 0.36006253957748413
0.3904920816421509 -2.030092477798462 0.36014524102211
0.5815483331680298 -1.984635591506958 0.36028045415878296
0.7676078081130981 -1.9215028285980225 0.36046674847602844
0.9470621943473816 -1.8412134647369385 0.3607029616832733
6.237329959869385 -9.72913932800293 2.013322353363037
5.078315439277503e-07 -1.995086669921875 0.36024045944213867
0.18929423391819 -1.9862474203109741 0.360269159078598
0.3769642412662506 -1.9597632884979248 0.36034926772117615
0.5613948702812195 -1.9158557653427124 0.3604797422885895
0.7409922480583191 -1.854878544807434 0.36065977811813354
0.9142045974731445 -1.7773357629776 0.3608875870704651
6.224464416503906 -9.709065437316895 2.0824480056762695
3.0636786618742917e-07 -1.928162693977356 0.3604348599910736
0.1829436868429184 -1.9196137189865112 0.36046263575553894
0.3643154501914978 -1.8940061330795288 0.3605400025844574
0.5425505042076111 -1.8515464067459106 0.3606661856174469
0.7161085605621338 -1.7925885915756226 0.3608402907848358
0.8834852576255798 -1.717612624168396 0.36106076836586
1.0432196855545044 -1.6272408962249756 0.3613256812095642
4.380941334147792e-07 -1.8654428720474243 0.36061689257621765
0.17699262499809265 -1.8571654558181763 0.360643595457077
0.35246145725250244 -1.8323763608932495 0.36071884632110596
0.5248911380767822 -1.7912824153900146 0.36084091663360596
0.6927891373634338 -1.734212875366211 0.36100950837135315
0.8546978831291199 -1.6616480350494385 0.36122268438339233
1.0092037916183472 -1.5741811990737915 0.3614791929721832
4.452466839666158e-07 -1.8065365552902222 0.360787957906723
0.17140313982963562 -1.7985167503356934 0.36081403493881226
0.3413287401199341 -1.7745029926300049 0.36088669300079346
0.5083067417144775 -1.734682559967041 0.36100494861602783
0.6708903312683105 -1.6793944835662842 0.3611680567264557
0.8276662230491638 -1.6090950965881348 0.36137479543685913
0.977263331413269 -1.5243579149246216 0.3616233766078949
3.758072750770225e-07 -1.7511067390441895 0.360948771238327
0.16614381968975067 -1.7433305978775024 0.36097395420074463
0.3308526873588562 -1.7200390100479126 0.36104461550712585
0.49270129203796387 -1.6814292669296265 0.3611593544483185
0.6502841711044312 -1.627816081047058 0.36131757497787476
0.8022305369377136 -1.5596411228179932 0.36151793599128723
0.9472104907035828 -1.4774826765060425 0.3617590367794037
5.155801545697614e-07 -1.6988506317138672 0.3611004650592804
0.16118527948856354 -1.691304326057434 0.3611251711845398
0.32097673416137695 -1.6686962842941284 0.36119338870048523
0.4779897630214691 -1.631219744682312 0.36130490899086
0.6308591961860657 -1.5791893005371094 0.361458420753479
0.7782530784606934 -1.5130268335342407 0.36165282130241394
0.9188815355300903 -1.4332915544509888 0.361886590719223
4.836916787098744e-07 -1.649495244026184 0.3612435758113861
0.15650220215320587 -1.6421641111373901 0.36126768589019775
0.3116494417190552 -1.620206356048584 0.36133405566215515
0.46409541368484497 -1.5838048458099365 0.3614422380924225
0.6125134229660034 -1.5332646369934082 0.36159148812294006
0.7556098103523254 -1.4690078496932983 0.36178022623062134
0.8921294212341309 -1.3915644884109497 0.3620074391365051
4.3213367462158203e-07 -1.6028056144714355 0.36137938499450684
0.15207181870937347 -1.5956759452819824 0.36140257120132446
0.3028257489204407 -1.574334740638733 0.3614669740200043
0.45095178484916687 -1.538949966430664 0.361572265625
0.5951591730117798 -1.489822506904602 0.36171722412109375
0.7341898083686829 -1.427364468574524 0.3619006276130676
0.8668248057365417 -1.3520960807800293 0.36212158203125
1.7076730784992833e-07 -1.5585672855377197 0.36150771379470825
0.14787441492080688 -1.551629662513733 0.3615303039550781
0.29446548223495483 -1.5308709144592285 0.36159300804138184
0.43849843740463257 -1.4964501857757568 0.3616955578327179
0.5787171721458435 -1.4486671686172485 0.36183637380599976
0.7138974666595459 -1.3879106044769287 0.3620150685310364
0.842851996421814 -1.3147004842758179 0.3622299134731293
3.85344009146138e-07 -1.5165847539901733 0.3616296350955963
0.1438910812139511 -1.509839653968811 0.36165159940719604
0.2865324318408966 -1.4896297454833984 0.36171263456344604
0.42668208479881287 -1.4561240673065186 0.3618122637271881
0.5631162524223328 -1.4096132516860962 0.36194944381713867
0.6946423649787903 -1.350475549697876 0.3621235489845276
0.8201063275337219 -1.2792214155197144 0.36233246326446533
1.8060207196413103e-07 -1.4766921997070312 0.36174559593200684
0.14010575413703918 -1.4701200723648071 0.3617669641971588
0.2789939343929291 -1.4504352807998657 0.36182647943496704
0.415453165769577 -1.4178063869476318 0.3619235157966614
0.5482911467552185 -1.3724992275238037 0.3620571792125702
0.676347017288208 -1.3149075508117676 0.3622263967990875
0.7984936237335205 -1.2455121278762817 0.36242979764938354
1.567602083696329e-07 -1.4387378692626953 0.3618556261062622
0.1365046203136444 -1.432329773902893 0.361876517534256
0.2718212902545929 -1.413145899772644 0.36193451285362244
0.4047687351703644 -1.3813449144363403 0.362029105424881
0.5341858267784119 -1.337193250656128 0.36215940117836
0.6589391231536865 -1.281064748764038 0.3623245060443878
0.7779307961463928 -1.2134357690811157 0.3625227212905884
-8.940696516468449e-10 -1.4025709629058838 0.3619607388973236
0.13307306170463562 -1.3963220119476318 0.3619808852672577
0.26498696208000183 -1.3776147365570068 0.3620375096797943
0.3945898711681366 -1.3466033935546875 0.3621295094490051
0.5207476019859314 -1.3035537004470825 0.36225661635398865
0.6423550844192505 -1.2488253116607666 0.362417608499527
0.7583408951759338 -1.18287992477417 0.3626110851764679
2.416968243323936e-07 -1.3680737018585205 0.36206069588661194
0.1297999769449234 -1.361979603767395 0.3620806932449341
0.25846776366233826 -1.3437250852584839 0.36213576793670654
0.38487979769706726 -1.3134690523147583 0.36222580075263977
0.5079285502433777 -1.27146315574646 0.3623496890068054
0.6265357136726379 -1.2180668115615845 0.3625067174434662
0.7396564483642578 -1.1537319421768188 0.3626953065395355
5.033612069382798e-07 -1.3351293802261353 0.3621565103530884
0.12667372822761536 -1.3291757106781006 0.3621758818626404
0.25224220752716064 -1.3113594055175781 0.3622296154499054
0.3756067156791687 -1.2818248271942139 0.3623175024986267
0.495687335729599 -1.2408239841461182 0.3624383509159088
0.6114290952682495 -1.1887012720108032 0.36259186267852783
0.721812903881073 -1.1259040832519531 0.36277586221694946
3.832578556739463e-07 -1.3036303520202637 0.36224791407585144
0.12368506193161011 -1.2978172302246094 0.3622668385505676
0.24629007279872894 -1.2804150581359863 0.36231932044029236
0.3667418658733368 -1.25156831741333 0.36240509152412415
0.48398399353027344 -1.2115237712860107 0.3625231981277466
0.5969873070716858 -1.1606212854385376 0.3626728653907776
0.7047553658485413 -1.09929358959198 0.36285263299942017
7.212161534653205e-08 -1.2734788656234741 0.3623355031013489
0.12082437425851822 -1.2678017616271973 0.3623538017272949
0.24059291183948517 -1.250794529914856 0.362405389547348
0.35825663805007935 -1.2226111888885498 0.3624890148639679
0.4727829396724701 -1.1834841966629028 0.3626043498516083
0.583165168762207 -1.1337486505508423 0.36275067925453186
0.6884303689002991 -1.0738320350646973 0.3629264831542969
3.331899449676712e-07 -1.2445969581604004 0.3624192774295807
0.1180839017033577 -1.239046335220337 0.3624374270439148
0.2351350337266922 -1.2224195003509521 0.36248746514320374
0.350127249956131 -1.1948707103729248 0.3625694215297699
0.4620516896247864 -1.1566224098205566 0.3626823425292969
0.5699239373207092 -1.108009696006775 0.3628251552581787
0.6727911829948425 -1.0494362115859985 0.3629969656467438
4.224478971082135e-07 -1.2168967723846436 0.3624996840953827
0.11545588076114655 -1.211467981338501 0.362517386674881
0.22990098595619202 -1.1952120065689087 0.3625665307044983
0.3423321843147278 -1.1682684421539307 0.3626464903354645
0.4517609179019928 -1.1308649778366089 0.3627569377422333
0.5572255253791809 -1.0833218097686768 0.36289671063423157
0.6577944755554199 -1.0260425806045532 0.363064706325531
1.6823410931010585e-07 -1.190309762954712 0.3625769019126892
0.11293310672044754 -1.1849981546401978 0.3625941276550293
0.2248772382736206 -1.1690937280654907 0.36264219880104065
0.3348495662212372 -1.1427314281463623 0.36272063851356506
0.441883385181427 -1.1061385869979858 0.36282867193222046
0.5450376272201538 -1.0596261024475098 0.3629652261734009
0.6434000730514526 -1.0035924911499023 0.36312955617904663
3.239512409436429e-07 -1.1647628545761108 0.3626510500907898
0.11050934344530106 -1.159563660621643 0.36266782879829407
0.2200501412153244 -1.1439963579177856 0.3627149760723114
0.3276602625846863 -1.1181957721710205 0.36279159784317017
0.4323936402797699 -1.0823845863342285 0.3628973364830017
0.5333281755447388 -1.0368590354919434 0.3630312979221344
0.6295713186264038 -0.9820225238800049 0.36319199204444885
3.9383769490086706e-07 -1.1401973962783813 0.3627223074436188
0.10817856341600418 -1.1351059675216675 0.3627389371395111
0.2154085487127304 -1.119866132736206 0.3627850115299225
0.3207476735115051 -1.094607949256897 0.3628601133823395
0.42326876521110535 -1.0595396757125854 0.36296355724334717
0.5220692157745361 -1.0149718523025513 0.3630944788455963
0.6162745952606201 -0.9612787365913391 0.3632519543170929
1.7732381252244522e-07 -1.116559624671936 0.3627909719944
0.10593540966510773 -1.111571192741394 0.3628073036670685
0.21094155311584473 -1.0966445207595825 0.3628523051738739
0.3140949308872223 -1.0719045400619507 0.36292585730552673
0.41448721289634705 -1.0375595092773438 0.3630271852016449
0.5112340450286865 -0.9939056038856506 0.3631555140018463
0.603479266166687 -0.9413220882415771 0.363309770822525
9.432434922018729e-08 -1.093791127204895 0.36285704374313354
0.10377538204193115 -1.0889058113098145 0.3628729283809662
0.20663952827453613 -1.074277639389038 0.3629171550273895
0.3076877295970917 -1.0500365495681763 0.3629891872406006
0.4060298800468445 -1.016385793685913 0.3630885183811188
0.500798761844635 -0.9736215472221375 0.3632141053676605
0.5911558866500854 -0.9220987558364868 0.3633653223514557
2.4005768750612333e-07 -1.0718427896499634 0.3629208207130432
0.10169282555580139 -1.0670560598373413 0.362936407327652
0.20249247550964355 -1.0527217388153076 0.36297956109046936
0.30151188373565674 -1.0289599895477295 0.3630502223968506
0.3978777229785919 -0.9959791302680969 0.3631475865840912
0.4907405376434326 -0.9540656805038452 0.3632708787918091
0.5792778730392456 -0.9035696983337402 0.3634188771247864
8.046627186786282e-08 -1.0506757497787476 0.3629821836948395
0.09968442469835281 -1.0459778308868408 0.362997442483902
0.19849258661270142 -1.031922698020935 0.3630400002002716
0.29555484652519226 -1.0086308717727661 0.36310911178588867
0.3900148272514343 -0.9763007164001465 0.36320462822914124
0.4810391962528229 -0.9352039694786072 0.3633255064487457
0.5678216814994812 -0.885700523853302 0.36347076296806335
3.2141804240382044e-07 -1.0302411317825317 0.3630416691303253
0.09774569422006607 -1.025637149810791 0.363056480884552
0.1946316361427307 -1.0118516683578491 0.36309814453125
0.2898045778274536 -0.9890102744102478 0.36316603422164917
0.3824249804019928 -0.9573014378547668 0.3632597327232361
0.47167500853538513 -0.9169971346855164 0.3633781373500824
0.5567638874053955 -0.8684523701667786 0.3635205030441284
4.288554009690415e-07 -1.0104999542236328 0.36309874057769775
0.09587275981903076 -1.0059850215911865 0.3631137013435364
0.19090209901332855 -0.9924644827842712 0.36315444111824036
0.2842504680156708 -0.9700540900230408 0.36322110891342163
0.3750934600830078 -0.9389472603797913 0.36331284046173096
0.46262961626052856 -0.899411141872406 0.36342909932136536
0.546082615852356 -0.8517908453941345 0.3635687232017517
1.5452503987489763e-07 -0.991422712802887 0.3631542921066284
0.09406264126300812 -0.9869873523712158 0.3631686270236969
0.18729731440544128 -0.9737221598625183 0.3632087707519531
0.27888160943984985 -0.9517329335212708 0.3632742166519165
0.3680075407028198 -0.9212087988853455 0.36336424946784973
0.4538871645927429 -0.8824164271354675 0.36347824335098267
0.5357590913772583 -0.835691511631012 0.3636152446269989
1.8551945402123238e-07 -0.9729705452919006 0.3632078468799591
0.09231171756982803 -0.9686195850372314 0.36322203278541565
0.18381039798259735 -0.9555951356887817 0.36326125264167786
0.2736888527870178 -0.934008002281189 0.3633255064487457
0.36115336418151855 -0.9040517807006836 0.3634139895439148
0.44543108344078064 -0.8659790754318237 0.36352598667144775
0.5257742404937744 -0.8201153874397278 0.3636602759361267
2.8297304766056186e-07 -0.955109179019928 0.3632597327232361
0.09061700850725174 -0.9508378505706787 0.36327362060546875
0.18043585121631622 -0.9380494356155396 0.3633122146129608
0.2686634361743927 -0.9168593883514404 0.3633752465248108
0.3545207381248474 -0.8874470591545105 0.3634619116783142
0.437248170375824 -0.8500694632530212 0.36357176303863525
0.5161113142967224 -0.8050426840782166 0.3637039065361023
1.89840790199014e-07 -0.9378142356872559 0.36330991983413696
0.08897612988948822 -0.933617889881134 0.36332350969314575
0.17716825008392334 -0.9210606217384338 0.36336150765419006
0.263796865940094 -0.9002532958984375 0.36342328786849976
0.3480972349643707 -0.8713700175285339 0.3635086119174957
0.42932355403900146 -0.8346633911132812 0.36361661553382874
0.5067541003227234 -0.7904492616653442 0.36374616622924805
2.680718864667142e-07 -0.92105633020401 0.36335861682891846
0.0873861089348793 -0.9169350266456604 0.363371878862381
0.1740015298128128 -0.9045993685722351 0.3634091019630432
0.2590819001197815 -0.8841599822044373 0.36346983909606934
0.34187382459640503 -0.8557913899421692 0.3635537624359131
0.42164546251296997 -0.8197362422943115 0.36365965008735657
0.49768808484077454 -0.7763054966926575 0.363786906003952
2.7015803993890586e-07 -0.90480637550354 0.3634057641029358
0.08584482222795486 -0.9007601737976074 0.3634188771247864
0.1709321141242981 -0.8886411786079407 0.36345550417900085
0.2545103132724762 -0.868560254573822 0.363515168428421
0.3358399569988251 -0.8406867980957031 0.36359739303588867
0.4142017960548401 -0.8052635788917542 0.3637014627456665
0.48889896273612976 -0.7625969648361206 0.3638267517089844
2.3394822790123726e-07 -0.8890445232391357 0.3634515404701233
0.08434927463531494 -0.8850687146186829 0.36346435546875
0.16795393824577332 -0.8731616735458374 0.36350035667419434
0.25007545948028564 -0.853424608707428 0.36355894804000854
0.3299868702888489 -0.8260366916656494 0.36363983154296875
0.4069806933403015 -0.7912260890007019 0.3637422025203705
0.4803731143474579 -0.7492990493774414 0.3638651967048645
1.9758938663017034e-07 -0.8737515807151794 0.36349576711654663
0.08289800584316254 -0.8698412775993347 0.3635086119174957
0.16506396234035492 -0.8581364750862122 0.3635439872741699
0.2457718402147293 -0.8387383818626404 0.3636016845703125
0.3243066370487213 -0.8118165135383606 0.36368101835250854
0.3999733030796051 -0.7775990962982178 0.36378157138824463
0.4720989167690277 -0.7363921999931335 0.36390256881713867
2.186000358506135e-07 -0.8588980436325073 0.3635391294956207
0.08148858696222305 -0.8550533056259155 0.36355146765708923
0.1622573584318161 -0.8435459733009338 0.36358609795570374
0.24159255623817444 -0.8244773149490356 0.3636428713798523
0.31879037618637085 -0.7980068922042847 0.36372116208076477
0.3931683599948883 -0.7643728256225586 0.3638198673725128
0.46406474709510803 -0.7238569259643555 0.36393874883651733
3.3468006677139783e-07 -0.8444644212722778 0.3635809123516083
0.08011924475431442 -0.8406853079795837 0.36359313130378723
0.1595311462879181 -0.8293707966804504 0.3636273145675659
0.23753207921981812 -0.8106167912483215 0.36368316411972046
0.3134317696094513 -0.7845931649208069 0.3637599050998688
0.3865574300289154 -0.7515181303024292 0.36385712027549744
0.4562588632106781 -0.7116835713386536 0.363974004983902
2.6032327582470316e-07 -0.8304410576820374 0.36362165212631226
0.07878848165273666 -0.8267228007316589 0.3636337220668793
0.15688075125217438 -0.8155910968780518 0.3636672794818878
0.23358531296253204 -0.7971519827842712 0.3637222349643707
0.30822283029556274 -0.7715556025505066 0.3637976050376892
0.3801316022872925 -0.7390251159667969 0.36389341950416565
0.44867202639579773 -0.699847400188446 0.3640081584453583
3.5732983860725653e-07 -0.8167983889579773 0.3636611998081207
0.07749421149492264 -0.8131411671638489 0.3636730909347534
0.15430346131324768 -0.8021925091743469 0.36370620131492615
0.22974734008312225 -0.7840536832809448 0.3637600541114807
0.30315786600112915 -0.7588747143745422 0.3638343811035156
0.37388303875923157 -0.7268790006637573 0.36392852663993835
0.4412948489189148 -0.6883436441421509 0.36404144763946533
3.397464638510428e-07 -0.8035268187522888 0.3636997938156128
0.07623522728681564 -0.7999306321144104 0.36371153593063354
0.15179595351219177 -0.7891603112220764 0.3637439012527466
0.2260136902332306 -0.7713119983673096 0.36379697918891907
0.2982298731803894 -0.746540904045105 0.363870233297348
0.36780399084091187 -0.7150605320930481 0.36396270990371704
0.43411746621131897 -0.6771480441093445 0.364073783159256
2.4616718974357354e-07 -0.7906069755554199 0.3637373149394989
0.07500973343849182 -0.7870669364929199 0.3637487590312958
0.14935551583766937 -0.7764699459075928 0.36378082633018494
0.2223791629076004 -0.7589073777198792 0.3638330101966858
0.2934330701828003 -0.7345295548439026 0.3639048635959625
0.36188676953315735 -0.7035548090934753 0.3639959692955017
0.42713114619255066 -0.6662505865097046 0.36410537362098694
4.0024517033998563e-07 -0.7780287861824036 0.36377379298210144
0.07381623983383179 -0.7745450139045715 0.3637850880622864
0.14697912335395813 -0.7641165852546692 0.36381667852401733
0.21884042024612427 -0.7468302249908447 0.36386793851852417
0.28876256942749023 -0.7228407263755798 0.3639388978481293
0.356125146150589 -0.6923570036888123 0.3640284538269043
0.42032870650291443 -0.6556366682052612 0.3641360402107239
2.2038817348857265e-07 -0.7657777070999146 0.36380934715270996
0.07265353947877884 -0.7623454332351685 0.36382049322128296
0.14466378092765808 -0.7520807981491089 0.3638514578342438
0.21539264917373657 -0.7350655794143677 0.36390212178230286
0.2842123806476593 -0.7114500403404236 0.36397185921669006
0.3505122661590576 -0.6814426779747009 0.36406004428863525
0.4137020409107208 -0.6453014016151428 0.36416593194007874
5.0365922987793965e-08 -0.7538344264030457 0.36384397745132446
0.07152044773101807 -0.7504585385322571 0.3638549745082855
0.14240732789039612 -0.7403478622436523 0.3638854920864105
0.212032750248909 -0.7235990762710571 0.3639352321624756
0.2797778844833374 -0.7003476023674011 0.36400389671325684
0.34504199028015137 -0.6708070039749146 0.3640907108783722
0.4072437286376953 -0.6352301836013794 0.3641950786113739
2.1383165460520104e-07 -0.7421888709068298 0.3638778626918793
0.07041577249765396 -0.7388644814491272 0.363888680934906
0.1402076780796051 -0.728912889957428 0.3639187514781952
0.20875686407089233 -0.7124159336090088 0.36396774649620056
0.2754545211791992 -0.6895285844802856 0.36403533816337585
0.33970898389816284 -0.6604401469230652 0.3641207814216614
0.400947242975235 -0.6254082918167114 0.3642234802246094
4.24981095648036e-07 -0.7308314442634583 0.36391082406044006
0.06933800131082535 -0.7275586724281311 0.36392149329185486
0.1380617916584015 -0.7177563309669495 0.3639509379863739
0.20556160807609558 -0.7015160918235779 0.36399930715560913
0.2712377607822418 -0.6789734363555908 0.36406585574150085
0.33450737595558167 -0.6503273844718933 0.3641500771045685
0.39480647444725037 -0.6158308386802673 0.3642510771751404
9.253621158222813e-08 -0.7197522521018982 0.36394286155700684
0.06828685104846954 -0.7165263295173645 0.36395353078842163
0.1359681934118271 -0.7068732976913452 0.36398252844810486
0.2024439573287964 -0.6908751726150513 0.3640301525592804
0.26712334156036377 -0.6686723828315735 0.3640955984592438
0.3294316828250885 -0.6404590606689453 0.3641785979270935
0.3888145685195923 -0.6064832210540771 0.36427825689315796
1.6078352871318202e-07 -0.7089368104934692 0.36397430300712585
0.06726051867008209 -0.7057576775550842 0.3639846742153168
0.13392440974712372 -0.6962491273880005 0.36401334404945374
0.1994008719921112 -0.6804883480072021 0.36406034231185913
0.263107031583786 -0.6586205959320068 0.3641248941421509
0.3244779407978058 -0.6308302283287048 0.3642065227031708
0.38296616077423096 -0.5973604321479797 0.36430448293685913
3.431737241044175e-07 -0.6983752846717834 0.3640049695968628
0.06625841557979584 -0.6952430009841919 0.3640151917934418
0.13192929327487946 -0.6858741641044617 0.36404356360435486
0.19642934203147888 -0.6703507304191589 0.36408963799476624
0.2591857612133026 -0.6488032937049866 0.36415329575538635
0.31964096426963806 -0.6214262843132019 0.36423370242118835
0.3772553503513336 -0.5884527564048767 0.3643304407596588
3.5405159337642544e-07 -0.6880578398704529 0.364035040140152
0.06527963280677795 -0.6849725246429443 0.36404508352279663
0.12998008728027344 -0.6757434010505676 0.36407285928726196
0.19352693855762482 -0.6604427099227905 0.3641183376312256
0.2553556263446808 -0.6392157673835754 0.36418089270591736
0.31491586565971375 -0.6122373342514038 0.3642602562904358
0.37167757749557495 -0.5797504782676697 0.3643556237220764
2.123415470123291e-07 -0.6779749393463135 0.3640643358230591
0.06432297825813293 -0.6749365329742432 0.36407408118247986
0.12807559967041016 -0.665837287902832 0.3641015589237213
0.19069091975688934 -0.6507642865180969 0.3641464114189148
0.2516126334667206 -0.6298431754112244 0.36420807242393494
0.31029897928237915 -0.6032634377479553 0.364286333322525
0.36622709035873413 -0.5712485909461975 0.3643801808357239
2.3260712112005422e-07 -0.668121337890625 0.3640928566455841
0.0633881539106369 -0.6651250123977661 0.36410263180732727
0.12621401250362396 -0.6561607718467712 0.3641296327114105
0.1879185438156128 -0.641305685043335 0.36417388916015625
0.24795405566692352 -0.6206856369972229 0.36423459649086
0.3057864010334015 -0.5944899320602417 0.36431166529655457
0.36089983582496643 -0.5629422664642334 0.3644041419029236
1.2874602361989673e-07 -0.6584875583648682 0.3641207814216614
0.06247397139668465 -0.6555333733558655 0.3641304075717926
0.12439350038766861 -0.6466991901397705 0.364157110452652
0.1852080523967743 -0.6320523023605347 0.36420074105262756
0.24437718093395233 -0.6117333173751831 0.36426055431365967
0.3013741374015808 -0.5859119892120361 0.3643365502357483
0.3556908071041107 -0.5548168420791626 0.3644276261329651
2.25305555545674e-07 -0.6490636467933655 0.36414825916290283
0.06157981604337692 -0.6461517214775085 0.36415770649909973
0.12261287122964859 -0.6374379396438599 0.3641839623451233
0.18255694210529327 -0.6230041980743408 0.3642268180847168
0.24087804555892944 -0.6029765009880066 0.3642858862876892
0.29705822467803955 -0.5775197744369507 0.36436066031455994
0.3505958616733551 -0.5468674302101135 0.3644506633281708
2.3595988807301183e-07 -0.6398400068283081 0.36417511105537415
0.06070510670542717 -0.6369703412055969 0.36418426036834717
0.1208709180355072 -0.6283817887306213 0.36421018838882446
0.17996284365653992 -0.6141514182090759 0.3642524778842926
0.2374548316001892 -0.5944052934646606 0.36431074142456055
0.29283568263053894 -0.5693132877349854 0.3643844425678253
0.34561100602149963 -0.5390939712524414 0.36447325348854065
4.6595928893111704e-07 -0.6308165788650513 0.36420103907585144
0.059848930686712265 -0.6279891729354858 0.3642103374004364
0.1191658079624176 -0.6195210218429565 0.3642358183860779
0.17742392420768738 -0.6054892539978027 0.3642776310443878
0.23410451412200928 -0.5860198736190796 0.36433500051498413
0.2887030839920044 -0.5612778067588806 0.36440780758857727
0.3407323658466339 -0.5314819812774658 0.3644952178001404
