ply
format ascii 1.0
element vertex 2087
property float32 x
property float32 y
property float32 z
end_header
-2.4238 -17.6801 1.8756
-0.8391 -17.8638 1.8796
0.7590 -17.9046 1.8835
2.3575 -17.8012 1.8873
3.9433 -17.5537 1.8909
5.5117 -17.1900 1.8973
7.0651 -16.7298 1.9087
7.8800 -14.8131 1.7635
9.2294 -14.1428 1.7750
4.5586 -5.7836 0.7740
4.9427 -5.2337 0.7566
12.8685 -11.3937 1.8065
13.8962 -10.2470 1.8147
14.8547 -9.0276 1.8270
15.6992 -7.7152 1.8385
16.4127 -6.3182 1.8484
16.9853 -4.8505 1.8566
17.3340 -3.3132 1.8549
17.5280 -1.7509 1.8514
17.5705 -0.1801 1.8468
17.4623 1.3833 1.8411
16.5649 2.8154 1.7660
5.0369 1.3273 0.5475
4.7566 1.7199 0.5316
5.1203 2.3872 0.5938
14.8014 8.5847 1.7984
13.8936 9.8117 1.7877
12.8820 10.9428 1.7765
11.7776 11.9696 1.7649
10.5916 12.8854 1.7531
4.9317 7.2288 0.9197
8.0223 14.3623 1.7291
6.6628 14.9162 1.7171
5.2887 15.4008 1.7115
3.8877 15.7852 1.7087
2.6805 17.4784 1.8585
0.6295 9.9996 1.0531
-0.2645 10.0032 1.0518
-2.0420 17.5645 1.8585
-2.8296 13.6061 1.4607
-4.0148 13.2435 1.4545
-6.2729 15.5403 1.7614
-7.4060 14.4735 1.7088
-8.6807 13.7767 1.7115
-9.8748 12.9476 1.7115
-10.9853 12.0099 1.7107
-12.0043 10.9747 1.7095
-12.9340 9.8595 1.7094
-13.7597 8.6653 1.7091
-14.4756 7.4024 1.7088
-15.0762 6.0813 1.7086
-15.5566 4.7118 1.7084
-15.9130 3.3053 1.7082
-16.1426 1.8727 1.7080
-16.2435 0.4254 1.7078
-16.2149 -1.0248 1.7077
-16.0572 -2.4666 1.7075
-15.7718 -3.8884 1.7073
-15.3610 -5.2792 1.7072
-14.8273 -6.6274 1.7070
-14.1756 -7.9225 1.7068
-13.4170 -9.1584 1.7074
-12.5565 -10.3265 1.7087
-11.5956 -11.4150 1.7102
-8.5072 -10.0198 1.3815
-9.3761 -13.2837 1.7089
-8.8679 -15.2985 1.8585
-7.4796 -16.0531 1.8614
-3.9143 -10.8334 1.2107
-2.8564 -10.8502 1.1793
-2.9836 -17.5804 1.8742
-1.4068 -17.8145 1.8782
0.1880 -17.9065 1.8821
1.7879 -17.8546 1.8860
3.3798 -17.6585 1.8897
4.9504 -17.3188 1.8932
6.5151 -16.9118 1.9048
8.0479 -16.3659 1.9168
8.1799 -13.4524 1.6548
10.0689 -13.6476 1.7826
4.7953 -5.4133 0.7601
5.3869 -5.0848 0.7786
13.5417 -10.6680 1.8119
14.5238 -9.4729 1.8225
15.4123 -8.1939 1.8346
16.1738 -6.8255 1.8451
16.7977 -5.3814 1.8539
17.2284 -3.8658 1.8558
17.4761 -2.3101 1.8528
17.5727 -0.7406 1.8486
17.5180 0.8272 1.8433
17.0357 2.3397 1.8073
15.7668 3.6218 1.7003
4.7970 1.5636 0.5303
4.7632 2.0386 0.5446
15.0983 8.1253 1.8021
14.2300 9.3845 1.7916
13.2542 10.5508 1.7806
12.1816 11.6157 1.7691
11.0233 12.5718 1.7574
5.2164 7.1460 0.9299
4.6517 7.7381 0.9489
7.1524 14.7329 1.7213
5.2400 13.8100 1.5525
4.3922 15.6658 1.7100
2.9708 15.9592 1.7062
1.6727 17.6035 1.8585
0.0543 10.0019 1.0513
-0.8411 10.0056 1.0553
-3.0470 17.4183 1.8585
-3.5626 13.2598 1.4431
-6.0930 16.5999 1.8585
-6.9359 14.6912 1.7075
-8.2354 14.0429 1.7111
-9.4573 13.2556 1.7115
-10.6006 12.3580 1.7113
-11.6499 11.3529 1.7097
-12.6138 10.2669 1.7094
-13.4774 9.0998 1.7092
-14.2331 7.8602 1.7089
-14.8754 6.5589 1.7087
-15.3992 5.2053 1.7085
-15.8003 3.8107 1.7083
-16.0754 2.3861 1.7081
-16.2224 0.9428 1.7079
-16.2400 -0.5077 1.7077
-8.5986 -1.0417 0.9104
-15.8882 -3.3842 1.7074
-15.5220 -4.7875 1.7073
-15.0315 -6.1519 1.7071
-14.4213 -7.4672 1.7069
-13.6985 -8.7240 1.7070
-12.8754 -9.9183 1.7082
-11.9495 -11.0363 1.7097
-10.9277 -12.0691 1.7112
-9.8013 -12.9872 1.7101
-8.5869 -13.7821 1.7067
-7.9806 -15.7933 1.8598
-6.5569 -16.4843 1.8646
-3.2276 -10.8443 1.1892
-2.6078 -12.8664 1.3798
-1.9721 -17.7472 1.8768
-0.3823 -17.8901 1.8808
1.2173 -17.8897 1.8846
2.8135 -17.7450 1.8884
4.3932 -17.4564 1.8919
5.9603 -17.0746 1.9008
7.5030 -16.5713 1.9119
8.2695 -14.6302 1.7663
9.3051 -13.4919 1.7226
4.6869 -5.6433 0.7710
5.0776 -5.1084 0.7570
13.1735 -11.0760 1.8089
14.1782 -9.9055 1.8178
15.1093 -8.6611 1.8305
15.9174 -7.3232 1.8415
16.5915 -5.9045 1.8510
17.1036 -4.4145 1.8566
17.4050 -2.8676 1.8540
17.5556 -1.3012 1.8502
17.5548 0.2689 1.8453
17.4038 1.8276 1.8393
16.2020 3.1820 1.7354
4.9159 1.4308 0.5381
4.7517 1.8569 0.5362
15.3802 7.6554 1.8057
14.5527 8.9453 1.7954
13.6140 10.1459 1.7845
12.5747 11.2478 1.7732
11.4458 12.2435 1.7616
5.6207 7.2060 0.9605
4.7762 7.4005 0.9258
7.6371 14.5337 1.7256
6.2667 15.0517 1.7136
4.8929 15.5302 1.7114
3.4805 15.8692 1.7076
2.2327 17.5412 1.8585
0.3732 10.0006 1.0518
-0.5207 10.0043 1.0529
-2.4904 17.5065 1.8585
-3.1171 13.2758 1.4333
-5.5611 16.7856 1.8585
-6.4594 14.8935 1.7063
-7.7782 14.2879 1.7098
-9.0302 13.5503 1.7115
-10.2027 12.6909 1.7115
-11.2859 11.7220 1.7103
-12.2807 10.6639 1.7095
-13.1814 9.5252 1.7093
-13.9761 8.3103 1.7090
-14.6596 7.0296 1.7088
-15.2262 5.6935 1.7086
-15.6714 4.3124 1.7084
-15.9919 2.8971 1.7082
-16.1847 1.4592 1.7080
-16.2486 0.0100 1.7078
-8.6136 -0.7660 0.9089
-15.9884 -2.8763 1.7074
-15.6669 -4.2903 1.7073
-15.2204 -5.6701 1.7071
-14.6525 -7.0042 1.7069
-13.9679 -8.2822 1.7068
-13.1813 -9.5005 1.7078
-12.2913 -10.6467 1.7091
-11.3028 -11.7109 1.7106
-8.4032 -10.4264 1.4075
-9.0282 -13.5113 1.7079
-8.4753 -15.5230 1.8589
-7.0730 -16.2535 1.8631
-3.6055 -10.8383 1.2005
-2.5769 -10.9150 1.1787
-2.5347 -17.6618 1.8753
-0.9513 -17.8555 1.8793
0.6462 -17.9064 1.8833
2.2452 -17.8132 1.8871
3.8323 -17.5758 1.8907
5.4007 -17.2155 1.8964
6.9568 -16.7672 1.9080
7.7796 -14.8490 1.7619
9.1360 -14.1939 1.7741
4.5497 -5.8477 0.7787
4.9112 -5.2664 0.7569
12.7922 -11.4705 1.8059
13.8273 -10.3311 1.8142
14.7905 -9.1165 1.8261
15.6439 -7.8106 1.8378
16.3669 -6.4191 1.8478
16.9498 -4.9559 1.8561
17.3147 -3.4226 1.8551
17.5193 -1.8614 1.8517
17.5724 -0.2908 1.8472
17.4748 1.2737 1.8415
16.6561 2.7233 1.7739
5.0825 1.3052 0.5515
4.7676 1.6901 0.5316
5.0515 2.3166 0.5841
14.8612 8.4948 1.7992
13.9611 9.7283 1.7885
12.9564 10.8665 1.7773
11.8581 11.9009 1.7658
10.6776 12.8246 1.7540
4.9742 7.1935 0.9192
8.1165 14.3186 1.7299
6.7598 14.8813 1.7179
5.3854 15.3672 1.7115
3.9876 15.7629 1.7089
2.7905 17.4612 1.8585
0.6927 9.9993 1.0535
-0.2015 10.0030 1.0516
-1.9314 17.5770 1.8585
-2.8493 14.1468 1.5167
-3.9250 13.2467 1.4521
-6.2889 15.8668 1.7939
-7.3137 14.5177 1.7086
-8.5939 13.8311 1.7115
-9.7932 13.0095 1.7115
-10.9102 12.0796 1.7108
-11.9351 11.0501 1.7095
-12.8719 9.9407 1.7094
-13.7050 8.7517 1.7091
-14.4289 7.4935 1.7089
-15.0378 6.1760 1.7086
-15.5267 4.8096 1.7084
-15.8920 3.4054 1.7082
-16.1307 1.9742 1.7081
-16.2407 0.5277 1.7079
-16.2212 -0.9228 1.7077
-16.0725 -2.3656 1.7075
-15.7960 -3.7893 1.7073
-15.3940 -5.1825 1.7072
-14.8688 -6.5341 1.7070
-14.2252 -7.8333 1.7068
-13.4737 -9.0733 1.7073
-12.6205 -10.2467 1.7086
-11.6664 -11.3412 1.7101
-8.6246 -10.0295 1.3903
-9.4608 -13.2262 1.7092
-8.9640 -15.2424 1.8585
-7.5785 -16.0015 1.8609
-3.9911 -10.8322 1.2133
-2.9292 -10.8490 1.1811
-2.4254 -13.7658 1.4691
-1.5186 -17.8027 1.8779
0.0754 -17.9047 1.8819
1.6753 -17.8630 1.8857
3.2681 -17.6770 1.8894
4.8407 -17.3475 1.8929
6.4059 -16.9454 1.9040
7.9407 -16.4079 1.9159
8.0664 -13.4556 1.6489
9.9783 -13.7044 1.7817
4.7761 -5.4604 0.7625
5.3077 -5.0735 0.7717
13.4701 -10.7496 1.8113
14.4567 -9.5594 1.8216
15.3537 -8.2871 1.8338
16.1245 -6.9245 1.8444
16.7585 -5.4853 1.8533
17.2052 -3.9745 1.8560
17.4636 -2.4203 1.8530
17.5708 -0.8513 1.8489
17.5268 0.7171 1.8437
17.1312 2.2432 1.8159
15.8513 3.5364 1.7070
4.8202 1.5377 0.5318
4.7613 2.0024 0.5429
15.1552 8.0334 1.8028
14.2948 9.2987 1.7923
13.3263 10.4718 1.7814
12.2601 11.5442 1.7699
11.1075 12.5081 1.7582
16.3230 -2.9076 1.8460
16.4871 -1.4376 1.8426
16.5096 0.0384 1.8381
16.3912 1.5062 1.8326
16.1344 2.9516 1.8262
4.9450 1.3698 0.5713
4.7276 1.7770 0.5623
14.5790 7.0218 1.8016
13.8208 8.2500 1.7921
12.9563 9.3963 1.7819
11.9950 10.4520 1.7714
10.9471 11.4093 1.7604
9.8232 12.2619 1.7493
4.8733 7.3399 0.9809
7.3914 13.6330 1.7266
6.1058 14.1445 1.7153
4.6583 14.1418 1.6577
3.4803 14.9381 1.7077
2.3227 16.5306 1.8585
0.5033 9.9999 1.1148
-0.3905 10.0036 1.1146
-2.1362 16.5557 1.8585
-2.9375 13.2841 1.5147
-5.0435 15.9128 1.8585
-6.2329 14.8984 1.7980
-7.1602 13.5695 1.7082
-8.3575 12.9009 1.7114
-9.4751 12.1047 1.7115
-10.5167 11.2111 1.7114
-11.4651 10.2199 1.7100
-12.3255 9.1526 1.7093
-13.0914 8.0162 1.7091
-13.7524 6.8157 1.7089
-14.3036 5.5612 1.7086
-14.7407 4.2628 1.7084
-15.0604 2.9309 1.7082
-15.2602 1.5757 1.7080
-15.3383 0.2087 1.7079
-15.2943 -1.1598 1.7077
-15.1288 -2.5191 1.7076
-14.8422 -3.8581 1.7074
-14.4374 -5.1658 1.7072
-13.9177 -6.4322 1.7070
-13.2927 -7.6502 1.7075
-12.5657 -8.8110 1.7087
-11.7385 -9.9040 1.7100
-10.8174 -10.9204 1.7114
-8.4204 -10.1742 1.4704
-8.6944 -12.6528 1.7092
-8.1893 -14.5467 1.8586
-6.8748 -15.2533 1.8628
-3.7617 -10.8357 1.2770
-2.7114 -10.8524 1.2454
-2.6077 -16.6313 1.8743
-1.1163 -16.8315 1.8781
0.3901 -16.8972 1.8818
1.8992 -16.8272 1.8854
3.3986 -16.6211 1.8888
4.8758 -16.2800 1.8921
5.8203 -14.5594 1.7457
7.1478 -14.0853 1.7586
8.4052 -13.4391 1.7648
4.5529 -6.0113 0.8396
4.8261 -5.3118 0.7990
5.5063 -5.0680 0.8332
12.8600 -9.8713 1.8050
13.7504 -8.7239 1.8130
14.5620 -7.5083 1.8241
15.2532 -6.2121 1.8337
15.8147 -4.8479 1.8416
16.2303 -3.4279 1.8469
16.4448 -1.9636 1.8439
16.5178 -0.4880 1.8398
16.4495 0.9843 1.8347
16.2417 2.4393 1.8286
5.1520 1.2519 0.5903
4.7728 1.6225 0.5613
4.8846 2.1637 0.5948
14.1040 7.8206 1.7955
13.2764 8.9973 1.7856
12.3485 10.0862 1.7752
11.3303 11.0795 1.7644
10.2323 11.9701 1.7533
5.1146 7.1948 0.9828
4.7515 8.1341 1.0488
6.5687 13.9756 1.7193
5.2720 14.4397 1.7115
3.9574 14.8308 1.7090
2.7665 15.9767 1.8053
0.8233 9.9986 1.1170
-0.0715 10.0023 1.1136
-1.6076 16.6154 1.8585
-2.7902 14.8476 1.6820
-3.7408 13.2551 1.5334
-5.9487 15.5971 1.8585
-6.7196 13.7811 1.7070
-7.9370 13.1520 1.7103
-9.0847 12.4003 1.7115
-10.1544 11.5407 1.7115
-11.1369 10.5831 1.7105
-12.0280 9.5410 1.7093
-12.8298 8.4295 1.7091
-13.5290 7.2509 1.7090
-14.1197 6.0146 1.7087
-14.5981 4.7304 1.7085
-14.9600 3.4095 1.7083
-15.2028 2.0615 1.7081
-15.3244 0.6972 1.7079
-15.3240 -0.6721 1.7078
-15.2018 -2.0361 1.7076
-14.9582 -3.3834 1.7075
-14.5952 -4.7034 1.7073
-14.1161 -5.9857 1.7071
-13.5268 -7.2212 1.7072
-12.8368 -8.4041 1.7083
-12.0448 -9.5223 1.7095
-11.1565 -10.5670 1.7108
-8.8629 -10.0398 1.4910
-9.0998 -12.3786 1.7105
-7.9431 -13.1136 1.7070
-7.3519 -15.0156 1.8614
-4.1507 -10.8296 1.2912
-3.0802 -10.8466 1.2554
-2.5755 -13.5825 1.5392
-1.6508 -16.7754 1.8767
-0.1484 -16.8893 1.8805
1.3612 -16.8678 1.8841
2.8654 -16.7102 1.8876
4.3520 -16.4171 1.8910
5.8259 -16.0380 1.8998
6.6766 -14.2655 1.7536
7.9670 -13.6901 1.7635
9.2147 -13.0075 1.7748
4.7253 -5.5461 0.8112
5.1595 -5.0618 0.8047
12.5202 -10.2606 1.8023
13.4392 -9.1397 1.8095
14.2857 -7.9519 1.8203
15.0210 -6.6831 1.8304
15.6297 -5.3416 1.8390
16.1036 -3.9410 1.8458
16.3845 -2.4881 1.8451
16.5080 -1.0149 1.8414
16.4900 0.4602 1.8367
16.3317 1.9230 1.8309
16.0280 3.3579 1.8232
4.8267 1.4710 0.5618
4.7370 1.9202 0.5691
14.3733 7.3813 1.7990
13.5837 8.5870 1.7892
12.6905 9.7082 1.7789
11.7033 10.7365 1.7683
10.6326 11.6644 1.7573
5.4567 7.1802 1.0041
4.7236 7.5251 0.9892
7.0271 13.7915 1.7233
5.7313 14.2692 1.7120
4.4312 14.7081 1.7103
3.0953 15.0132 1.7067
1.8992 16.5846 1.8585
0.2472 10.0010 1.1138
-0.6471 10.0046 1.1162
-2.5588 16.4957 1.8585
-3.2927 13.2713 1.5224
-5.4488 15.7787 1.8585
-6.2739 13.9810 1.7061
-7.5089 13.3892 1.7091
-8.6850 12.6835 1.7115
-9.7816 11.8583 1.7115
-10.7973 10.9358 1.7110
-11.7201 9.9212 1.7096
-12.5551 8.8343 1.7092
-13.2917 7.6786 1.7090
-13.9216 6.4617 1.7088
-14.4405 5.1935 1.7086
-14.8444 3.8844 1.7084
-15.1300 2.5449 1.7082
-15.2950 1.1851 1.7080
-15.3382 -0.1837 1.7078
-8.5798 -0.8719 0.9602
-15.0590 -2.9052 1.7075
-14.7382 -4.2362 1.7073
-14.3001 -5.5331 1.7072
-13.7482 -6.7858 1.7070
-13.0950 -7.9890 1.7079
-12.3388 -9.1313 1.7090
-11.4841 -10.2032 1.7103
-10.5353 -11.1942 1.7115
-9.4949 -12.0892 1.7115
-8.3630 -12.8633 1.7082
-7.8209 -14.7630 1.8601
-6.4863 -15.4332 1.8639
-3.4554 -10.8406 1.2668
-2.5159 -11.2900 1.2878
-2.1828 -16.7022 1.8754
-0.6859 -16.8641 1.8791
0.8225 -16.8911 1.8828
2.3301 -16.7820 1.8864
3.8244 -16.5372 1.8898
5.3003 -16.1800 1.8956
6.2021 -14.4323 1.7489
7.5092 -13.9044 1.7594
8.7760 -13.2649 1.7708
4.5381 -5.6838 0.8098
4.9587 -5.1850 0.7988
12.1678 -10.6376 1.7994
13.1233 -9.5502 1.8070
13.9945 -8.3847 1.8163
14.7726 -7.1448 1.8270
15.4276 -5.8278 1.8361
15.9504 -4.4467 1.8436
16.3061 -3.0106 1.8461
16.4802 -1.5415 1.8429
16.5126 -0.0654 1.8385
16.4041 1.4034 1.8330
16.1569 2.8508 1.8266
4.9689 1.3429 0.5731
4.7282 1.7434 0.5611
14.6282 6.9325 1.8023
13.8778 8.1660 1.7927
13.0204 9.3184 1.7827
12.0657 10.3808 1.7721
11.0236 11.3453 1.7612
9.9047 12.2054 1.7501
4.9128 7.2993 0.9796
7.4805 13.5925 1.7274
6.1975 14.1124 1.7161
4.7483 14.1158 1.6581
3.5748 14.9182 1.7080
2.4266 16.5157 1.8585
0.5664 9.9997 1.1151
-0.3274 10.0033 1.1143
-2.0320 16.5688 1.8585
-2.8506 13.2872 1.5130
-4.1055 13.2420 1.5436
-6.2417 15.1872 1.8281
-7.0737 13.6124 1.7080
-8.2751 12.9515 1.7112
-9.3988 12.1641 1.7115
-10.4462 11.2772 1.7115
-11.4012 10.2924 1.7101
-12.2677 9.2301 1.7093
-13.0408 8.0984 1.7091
-13.7094 6.9022 1.7089
-14.2684 5.6511 1.7087
-14.7137 4.3556 1.7084
-15.0418 3.0258 1.7082
-15.2500 1.6719 1.7081
-15.3368 0.3054 1.7079
-15.3014 -1.0636 1.7077
-15.1444 -2.4240 1.7076
-14.8663 -3.7646 1.7074
-14.4697 -5.0749 1.7072
-13.9580 -6.3445 1.7070
-13.3399 -7.5661 1.7075
-12.6202 -8.7313 1.7086
-11.8000 -9.8294 1.7099
-10.8852 -10.8515 1.7113
-8.4318 -10.0585 1.4613
-8.7751 -12.5997 1.7095
-7.6015 -13.3060 1.7061
-6.9696 -15.2076 1.8625
-3.8378 -10.8345 1.2797
-2.7838 -10.8513 1.2473
-2.7119 -16.6122 1.8740
-1.2219 -16.8217 1.8778
0.2837 -16.8970 1.8815
1.7930 -16.8366 1.8851
3.2935 -16.6401 1.8886
4.7727 -16.3084 1.8919
5.7266 -14.5906 1.7451
7.0548 -14.1214 1.7575
8.2883 -13.4394 1.7580
4.5799 -6.1266 0.8516
4.8036 -5.3544 0.8009
5.4276 -5.0591 0.8261
12.7939 -9.9491 1.8044
13.6889 -8.8062 1.8122
14.5086 -7.5967 1.8234
15.2086 -6.3058 1.8330
15.7796 -4.9459 1.8411
16.2098 -3.5302 1.8470
16.4343 -2.0673 1.8442
16.5173 -0.5920 1.8402
16.4589 0.8810 1.8351
16.2608 2.3377 1.8290
5.2029 1.2297 0.5952
4.7838 1.5927 0.5614
4.7429 2.0653 0.5759
14.1583 7.7347 1.7962
13.3380 8.9171 1.7863
12.4169 10.0126 1.7759
11.4048 11.0128 1.7651
10.3120 11.9108 1.7541
5.1723 7.1800 0.9852
4.6713 7.8826 1.0201
6.6596 13.9404 1.7201
5.1528 13.8423 1.6445
4.0513 14.8077 1.7092
2.7343 15.2205 1.7217
0.8866 9.9984 1.1176
-0.0086 10.0020 1.1136
-0.9046 10.0056 1.1185
-2.7093 14.9338 1.6898
-3.6518 13.2583 1.5311
-5.8504 15.6342 1.8585
-6.6318 13.8212 1.7068
-7.8531 13.1999 1.7101
-9.0065 12.4573 1.7115
-10.0816 11.6044 1.7115
-11.0707 10.6535 1.7106
-11.9679 9.6167 1.7093
-12.7766 8.5101 1.7092
-13.4833 7.3360 1.7090
-14.0818 6.1034 1.7087
-14.5681 4.8225 1.7085
-14.9384 3.5035 1.7083
-15.1896 2.1570 1.7081
-15.3198 0.7936 1.7079
-15.3281 -0.5758 1.7078
-15.2143 -1.9404 1.7076
-14.9793 -3.2892 1.7075
-14.6246 -4.6115 1.7073
-14.1535 -5.8968 1.7071
-13.5714 -7.1357 1.7071
-12.8889 -8.3228 1.7082
-12.1038 -9.4458 1.7094
-11.2221 -10.4960 1.7107
-10.2456 -11.4599 1.7115
-9.1789 -12.3229 1.7108
-8.0266 -13.0652 1.7072
-7.4451 -14.9669 1.8611
-4.2285 -10.8283 1.2942
-3.1538 -10.8454 1.2575
-2.6153 -13.3334 1.5128
-1.7560 -16.7623 1.8765
-0.2546 -16.8857 1.8802
1.2548 -16.8737 1.8838
2.7599 -16.7258 1.8874
4.2482 -16.4422 1.8907
5.7226 -16.0678 1.8990
6.5825 -14.2981 1.7525
7.8771 -13.7337 1.7627
9.1287 -13.0595 1.7740
4.7051 -5.5933 0.8138
5.1062 -5.0729 0.8014
12.4516 -10.3360 1.8017
13.3779 -9.2216 1.8090
14.2293 -8.0382 1.8195
14.9732 -6.7750 1.8298
15.5912 -5.4382 1.8384
16.0748 -4.0413 1.8454
16.3704 -2.5914 1.8453
16.5040 -1.1189 1.8417
16.4959 0.3566 1.8370
16.3474 1.8206 1.8313
16.0611 3.2594 1.8246
4.8723 1.4514 0.5660
4.7347 1.8847 0.5674
14.4247 7.2935 1.7996
13.6428 8.5048 1.7899
12.7566 9.6322 1.7797
11.7757 10.6673 1.7690
10.7105 11.6025 1.7580
5.5498 7.2081 1.0128
4.7517 7.4652 0.9852
7.1171 13.7534 1.7241
5.8237 14.2394 1.7128
4.5243 14.6820 1.7105
3.1902 14.9956 1.7069
2.0035 16.5723 1.8585
0.3102 10.0007 1.1140
-0.5839 10.0043 1.1157
-2.4550 16.5115 1.8585
-3.2050 13.2744 1.5204
-5.3494 15.8126 1.8585
-6.2285 14.1169 1.7179
-7.4236 13.4344 1.7089
-8.6050 12.7380 1.7115
-9.7068 11.9198 1.7115
-10.7289 11.0041 1.7111
-11.6581 9.9953 1.7097
-12.4994 8.9131 1.7092
-13.2432 7.7621 1.7091
-13.8808 6.5492 1.7088
-14.4077 5.2843 1.7086
-14.8198 3.9777 1.7084
-15.1138 2.6401 1.7082
-15.2873 1.2815 1.7080
-15.3391 -0.0871 1.7078
-8.5914 -0.8185 0.9609
-15.0771 -2.8104 1.7075
-14.7647 -4.1434 1.7073
-14.3348 -5.4431 1.7072
-13.7908 -6.6992 1.7070
-13.1445 -7.9061 1.7078
-12.3953 -9.0530 1.7089
-11.5474 -10.1302 1.7102
-10.6055 -11.1277 1.7115
-8.3844 -10.5381 1.4993
-8.4450 -12.8123 1.7085
-7.9124 -14.7114 1.8598
-6.5823 -15.3899 1.8636
-3.5303 -10.8394 1.2692
-2.5736 -11.2163 1.2812
-2.2875 -16.6858 1.8751
-0.7919 -16.8571 1.8789
0.7161 -16.8936 1.8826
2.2242 -16.7942 1.8861
3.7198 -16.5588 1.8895
5.1959 -16.2050 1.8947
6.1084 -14.4645 1.7481
7.4186 -13.9458 1.7587
8.6885 -13.3139 1.7700
4.5319 -5.7497 0.8151
4.9274 -5.2175 0.7990
12.0968 -10.7105 1.7989
13.0593 -9.6299 1.8065
13.9353 -8.4688 1.8155
14.7217 -7.2349 1.8263
15.3857 -5.9229 1.8355
15.9181 -4.5457 1.8431
16.2885 -3.1134 1.8463
16.4726 -1.6454 1.8431
16.5150 -0.1693 1.8388
16.4163 1.3004 1.8335
16.1788 2.7498 1.8271
5.0084 1.3198 0.5767
4.7392 1.7137 0.5611
5.0805 2.3687 0.6241
13.9342 8.0817 1.7934
13.0842 9.2401 1.7834
12.1359 10.3090 1.7729
11.0996 11.2806 1.7620
9.9858 12.1484 1.7508
4.9522 7.2588 0.9783
7.5694 13.5515 1.7282
6.2891 14.0796 1.7169
4.9926 14.5387 1.7115
3.6691 14.8976 1.7082
2.5305 16.5001 1.8585
0.6295 9.9994 1.1155
-0.2645 10.0031 1.1141
-1.9277 16.5813 1.8585
-2.8295 13.6055 1.5472
-4.0153 13.2453 1.5410
-6.2483 15.4795 1.8585
-6.9870 13.6547 1.7077
-8.1924 13.0017 1.7110
-9.3221 12.2229 1.7115
-10.3751 11.3427 1.7115
-11.3369 10.3646 1.7102
-12.2095 9.3072 1.7093
-12.9897 8.1803 1.7091
-13.6659 6.9884 1.7089
-14.2327 5.7411 1.7087
-14.6861 4.4483 1.7085
-15.0226 3.1202 1.7083
-15.2393 1.7679 1.7081
-15.3347 0.4017 1.7079
-15.3079 -0.9672 1.7077
-15.1594 -2.3287 1.7076
-14.8898 -3.6710 1.7074
-14.5015 -4.9839 1.7072
-13.9977 -6.2566 1.7070
-13.3867 -7.4816 1.7074
-12.6743 -8.6514 1.7085
-11.8609 -9.7544 1.7098
-10.9527 -10.7821 1.7112
-8.4987 -10.0098 1.4620
-8.8555 -12.5461 1.7097
-7.6853 -13.2584 1.7062
-7.0641 -15.1613 1.8622
-3.9142 -10.8333 1.2825
-2.8564 -10.8501 1.2492
-2.8159 -16.5924 1.8737
-1.3276 -16.8114 1.8775
0.1774 -16.8961 1.8813
1.6868 -16.8453 1.8849
3.1884 -16.6584 1.8883
4.6695 -16.3362 1.8917
5.6327 -14.6213 1.7445
6.9611 -14.1559 1.7563
8.1722 -13.4396 1.7512
9.4763 -12.8445 1.7771
4.7846 -5.4011 0.8034
5.3503 -5.0502 0.8191
12.7273 -10.0265 1.8039
13.6270 -8.8880 1.8114
14.4547 -7.6847 1.8226
15.1634 -6.3992 1.8324
15.7437 -5.0438 1.8406
16.1875 -3.6322 1.8471
16.4231 -2.1709 1.8444
16.5161 -0.6961 1.8405
16.4676 0.7776 1.8355
16.2793 2.2359 1.8295
5.2548 1.2071 0.6003
4.7764 1.5569 0.5593
4.7425 2.0298 0.5743
14.2120 7.6483 1.7969
13.3992 8.8366 1.7870
12.4849 9.9384 1.7767
11.4789 10.9456 1.7659
10.3914 11.8510 1.7548
5.2304 7.1651 0.9877
4.6682 7.7655 1.0088
6.7503 13.9047 1.7209
5.2443 13.8216 1.6459
4.1450 14.7841 1.7095
2.8044 15.0654 1.7061
1.5791 16.6181 1.8585
0.0543 10.0018 1.1136
-0.8411 10.0054 1.1179
-2.8764 16.4433 1.8585
-3.5631 13.2615 1.5289
-5.7519 15.6707 1.8585
-6.5439 13.8608 1.7066
-7.7689 13.2473 1.7098
-8.9279 12.5137 1.7115
-10.0084 11.6675 1.7115
-11.0041 10.7236 1.7107
-11.9073 9.6918 1.7094
-12.7229 8.5904 1.7092
-13.4370 7.4207 1.7090
-14.0432 6.1918 1.7088
-14.5376 4.9138 1.7085
-14.9162 3.5974 1.7083
-15.1759 2.2526 1.7081
-15.3146 0.8901 1.7080
-15.3315 -0.4794 1.7078
-8.5838 -1.0399 0.9627
-14.9998 -3.1949 1.7075
-14.6535 -4.5195 1.7073
-14.1905 -5.8077 1.7071
-13.6155 -7.0499 1.7070
-12.9404 -8.2411 1.7081
-12.1624 -9.3690 1.7093
-11.2872 -10.4246 1.7106
-10.3175 -11.3952 1.7115
-9.2576 -12.2667 1.7110
-8.1098 -13.0164 1.7075
-7.5381 -14.9176 1.8609
-6.1902 -15.5623 1.8647
-3.2275 -10.8442 1.2597
-2.6079 -12.8665 1.4616
-1.8611 -16.7485 1.8762
-0.3607 -16.8814 1.8799
1.1485 -16.8790 1.8836
2.6542 -16.7406 1.8871
4.1441 -16.4666 1.8905
5.6190 -16.0969 1.8982
6.4893 -14.3326 1.7517
7.7870 -13.7766 1.7619
9.0424 -13.1109 1.7732
4.6790 -5.6338 0.8154
5.0534 -5.0840 0.7981
12.3825 -10.4109 1.8012
13.3161 -9.3031 1.8085
14.1724 -8.1241 1.8188
14.9248 -6.8666 1.8291
15.5519 -5.5345 1.8379
16.0453 -4.1413 1.8450
16.3557 -2.6947 1.8455
16.4992 -1.2229 1.8420
16.5011 0.2528 1.8374
16.3624 1.7182 1.8317
16.0857 3.1592 1.8251
4.8959 1.4250 0.5677
4.7324 1.8493 0.5657
14.4757 7.2052 1.8003
13.7014 8.4220 1.7906
12.8222 9.5557 1.7804
11.8477 10.5975 1.7698
10.7881 11.5400 1.7588
5.6445 7.2365 1.0218
4.7915 7.4242 0.9838
7.2068 13.7147 1.7249
5.9159 14.2091 1.7136
4.6173 14.6554 1.7107
3.2850 14.9775 1.7072
2.1078 16.5594 1.8585
0.3732 10.0005 1.1142
-0.5207 10.0041 1.1153
-2.3510 16.5266 1.8585
-3.1175 13.2776 1.5185
-5.2498 15.8460 1.8585
-6.2253 14.3536 1.7419
-7.3379 13.4790 1.7087
-8.5247 12.7919 1.7115
-9.6316 11.9806 1.7115
-10.6601 11.0721 1.7112
-11.5956 10.0690 1.7098
-12.4432 8.9916 1.7092
-13.1942 7.8453 1.7091
-13.8395 6.6364 1.7088
-14.3743 5.3750 1.7086
-14.7946 4.0709 1.7084
-15.0970 2.7350 1.7082
-15.2791 1.3776 1.7080
-15.3395 0.0094 1.7078
-8.5958 -0.7644 0.9608
-15.0946 -2.7155 1.7076
-14.7906 -4.0505 1.7074
-14.3688 -5.3529 1.7072
-13.8327 -6.6123 1.7070
-13.1933 -7.8229 1.7077
-12.4514 -8.9744 1.7089
-11.6102 -10.0568 1.7101
-10.6753 -11.0607 1.7115
-8.3963 -10.4178 1.4897
-8.5267 -12.7608 1.7087
-8.0035 -14.6589 1.8595
-6.6780 -15.3459 1.8633
-3.6054 -10.8382 1.2717
-2.5769 -10.9151 1.2487
-2.3921 -16.6687 1.8748
-0.8977 -16.8494 1.8786
0.6098 -16.8955 1.8823
2.1182 -16.8056 1.8859
3.6152 -16.5798 1.8893
5.0908 -16.2275 1.8935
6.0145 -14.4960 1.7473
7.3280 -13.9870 1.7580
8.6007 -13.3623 1.7692
4.5255 -5.8165 0.8205
4.8960 -5.2501 0.7993
12.0253 -10.7829 1.7983
12.9948 -9.7091 1.8060
13.8755 -8.5525 1.8147
14.6702 -7.3245 1.8256
15.3431 -6.0175 1.8349
15.8851 -4.6446 1.8426
16.2702 -3.2161 1.8465
16.4642 -1.7493 1.8434
16.5166 -0.2733 1.8392
16.4279 1.1974 1.8339
16.2000 2.6487 1.8276
5.0519 1.2973 0.5807
4.7502 1.6839 0.5611
5.0018 2.2938 0.6127
13.9902 7.9969 1.7941
13.1474 9.1613 1.7841
12.2057 10.2368 1.7736
11.1753 11.2155 1.7628
10.0666 12.0907 1.7516
4.9962 7.2253 0.9780
7.6580 13.5098 1.7290
6.3805 14.0463 1.7176
5.0840 14.5070 1.7115
3.7633 14.8764 1.7085
2.6343 16.4838 1.8585
0.6927 9.9992 1.1159
-0.2015 10.0028 1.1139
-1.8233 16.5931 1.8585
-2.8492 14.1462 1.6066
-3.9255 13.2485 1.5384
-6.1508 15.5185 1.8585
-6.9000 13.6966 1.7075
-8.1094 13.0513 1.7107
-9.2450 12.2813 1.7115
-10.3035 11.4077 1.7115
-11.2721 10.4362 1.7103
-12.1508 9.3838 1.7093
-12.9380 8.2620 1.7091
-13.6218 7.0742 1.7089
-14.1964 5.8303 1.7087
-14.6580 4.5404 1.7085
-15.0028 3.2148 1.7083
-15.2280 1.8637 1.7081
-15.3320 0.4979 1.7079
-15.3138 -0.8712 1.7077
-15.1739 -2.2333 1.7076
-14.9127 -3.5773 1.7074
-14.5326 -4.8925 1.7072
-14.0369 -6.1685 1.7071
-13.4329 -7.3970 1.7073
-12.7279 -8.5710 1.7084
-11.9214 -9.6791 1.7097
-11.0196 -10.7124 1.7111
-8.6160 -10.0195 1.4713
-8.9356 -12.4919 1.7100
-7.7697 -13.2117 1.7064
-7.1583 -15.1143 1.8620
-3.9910 -10.8321 1.2853
-2.9291 -10.8490 1.2511
-2.4250 -13.7636 1.5560
-1.4331 -16.8003 1.8773
0.0711 -16.8946 1.8810
1.5806 -16.8533 1.8846
3.0831 -16.6760 1.8881
4.5661 -16.3633 1.8914
6.0387 -15.9741 1.9013
6.8686 -14.1926 1.7555
8.0583 -13.4421 1.7449
9.3913 -12.8983 1.7764
4.7653 -5.4481 0.8059
5.2717 -5.0392 0.8120
12.6603 -10.1033 1.8034
13.5640 -8.9691 1.8105
14.4001 -7.7724 1.8219
15.1176 -6.4921 1.8318
15.7072 -5.1412 1.8401
16.1608 -3.7332 1.8467
16.4112 -2.2745 1.8446
16.5142 -0.8001 1.8408
16.4756 0.6741 1.8359
16.2971 2.1340 1.8299
15.8513 3.5364 1.8082
4.8008 1.5315 0.5610
4.7417 1.9942 0.5727
14.2652 7.5616 1.7976
13.4599 8.7556 1.7877
12.5525 9.8638 1.7774
11.5525 10.8779 1.7667
10.4705 11.7907 1.7556
15.3841 -2.7404 1.8373
15.5498 -1.3559 1.8352
15.5732 0.0363 1.8311
15.4641 1.4210 1.8259
15.2248 2.7852 1.8198
4.9247 1.3642 0.6008
4.7085 1.7699 0.5914
13.7676 6.6310 1.7967
13.0554 7.7931 1.7877
12.2426 8.8787 1.7782
11.3380 9.8795 1.7682
10.3510 10.7881 1.7579
9.2915 11.5982 1.7473
4.8858 7.3587 1.0386
6.9962 12.9041 1.7259
5.7814 13.3930 1.7152
4.5517 13.8182 1.7106
3.2947 14.1413 1.7072
2.1994 15.6532 1.8585
0.5033 9.9997 1.1772
-0.3905 10.0034 1.1771
-2.0228 15.6770 1.8585
-2.9379 13.2859 1.5999
-4.7758 15.0682 1.8585
-6.1006 14.5822 1.8585
-6.7761 12.8415 1.7072
-7.9083 12.2076 1.7102
-8.9722 11.4622 1.7115
-9.9587 10.6161 1.7115
-10.8624 9.6827 1.7109
-11.6744 8.6692 1.7097
-12.3961 7.5904 1.7090
-13.0224 6.4540 1.7089
-13.5448 5.2663 1.7087
-13.9590 4.0369 1.7085
-14.2619 2.7755 1.7083
-14.4511 1.4925 1.7082
-14.5250 0.1976 1.7080
-8.8867 -0.6740 1.0479
-14.3260 -2.3856 1.7076
-14.0546 -3.6533 1.7074
-13.6714 -4.8917 1.7072
-13.1841 -6.0931 1.7077
-12.5949 -7.2486 1.7086
-11.9056 -8.3482 1.7097
-11.1215 -9.3834 1.7109
-10.2439 -10.3415 1.7115
-8.4135 -10.1659 1.5515
-8.2345 -11.9835 1.7096
-7.1335 -12.6713 1.7097
-6.5072 -14.4377 1.8620
-3.7616 -10.8357 1.3486
-2.7114 -10.8523 1.3152
-2.4687 -15.7449 1.8739
-1.0566 -15.9328 1.8774
0.3692 -15.9933 1.8809
1.7974 -15.9254 1.8843
3.2161 -15.7288 1.8876
4.6137 -15.4046 1.8907
5.4962 -13.7487 1.7409
6.7545 -13.3102 1.7549
7.9521 -12.7146 1.7633
4.5103 -5.9551 0.8783
4.8140 -5.2985 0.8417
5.4685 -5.0332 0.8739
12.1292 -9.3103 1.7978
12.9575 -8.2209 1.8043
13.7084 -7.0682 1.8134
14.3546 -5.8461 1.8224
14.8793 -4.5611 1.8298
15.2751 -3.2262 1.8356
15.5093 -1.8519 1.8365
15.5801 -0.4603 1.8327
15.5181 0.9286 1.8278
15.3250 2.3016 1.8221
5.1179 1.2436 0.6193
4.7554 1.6165 0.5905
4.8709 2.1576 0.6264
13.3215 7.3868 1.7910
12.5436 8.5007 1.7816
11.6707 9.5326 1.7718
10.7120 10.4749 1.7616
9.6772 11.3208 1.7511
5.1283 7.2141 1.0407
7.4203 12.7028 1.7297
6.2189 13.2314 1.7190
4.9922 13.6733 1.7115
3.7462 14.0391 1.7084
2.6970 15.5752 1.8585
0.8233 9.9984 1.1796
-0.0715 10.0021 1.1760
-1.5223 15.7335 1.8585
-2.8016 14.9081 1.7835
-3.7413 13.2569 1.6196
-5.6329 14.7692 1.8585
-6.3596 13.0429 1.7061
-7.5107 12.4456 1.7091
-8.6025 11.7423 1.7115
-9.6154 10.9281 1.7115
-10.5513 10.0266 1.7114
-11.3951 9.0389 1.7101
-12.1484 7.9822 1.7091
-12.8106 6.8658 1.7089
-13.3706 5.6954 1.7088
-13.8239 4.4798 1.7086
-14.1668 3.2286 1.7084
-14.3967 1.9521 1.7082
-14.5119 0.6603 1.7080
-14.5114 -0.6365 1.7079
-14.3953 -1.9280 1.7077
-14.1644 -3.2038 1.7075
-13.8208 -4.4539 1.7073
-13.3692 -5.6690 1.7074
-12.8168 -6.8422 1.7083
-12.1627 -7.9628 1.7093
-11.4118 -9.0219 1.7104
-10.5682 -10.0099 1.7115
-8.8539 -10.0296 1.5730
-8.6183 -11.7235 1.7108
-7.5232 -12.4203 1.7073
-6.9563 -14.2077 1.8600
-4.1506 -10.8295 1.3636
-3.0802 -10.8465 1.3257
-2.5791 -13.6016 1.6277
-1.5627 -15.8803 1.8762
-0.1404 -15.9864 1.8797
1.2883 -15.9644 1.8831
2.7117 -15.8137 1.8865
4.1182 -15.5348 1.8896
5.0420 -13.8799 1.7363
6.3087 -13.4795 1.7499
7.5269 -12.9338 1.7595
8.7002 -12.2812 1.7696
4.7146 -5.5336 0.8547
5.1348 -5.0375 0.8458
11.8097 -9.6783 1.7953
12.6736 -8.6191 1.8021
13.4499 -7.4867 1.8099
14.1376 -6.2901 1.8194
14.7065 -5.0261 1.8273
15.1490 -3.7074 1.8337
15.4518 -2.3465 1.8376
15.5701 -0.9572 1.8341
15.5554 0.4342 1.8297
15.4088 1.8143 1.8242
15.1328 3.1703 1.8179
4.8076 1.4652 0.5909
4.7176 1.9124 0.5985
13.5744 6.9711 1.7942
12.8326 8.1122 1.7850
11.9925 9.1743 1.7753
11.0633 10.1494 1.7653
10.0546 11.0304 1.7549
5.4795 7.2103 1.0648
4.7401 7.5514 1.0483
6.6521 13.0555 1.7228
5.4273 13.5124 1.7121
4.1945 13.9223 1.7096
2.9303 14.2129 1.7063
1.7984 15.7043 1.8585
0.2472 10.0008 1.1762
-0.6471 10.0044 1.1788
-2.4230 15.6201 1.8585
-3.2932 13.2731 1.6079
-5.1595 14.9412 1.8585
-6.2102 13.8391 1.7835
-7.1059 12.6706 1.7081
-8.2219 12.0072 1.7110
-9.2624 11.2290 1.7115
-10.2269 10.3582 1.7115
-11.1041 9.3998 1.7106
-11.8900 8.3663 1.7094
-12.5858 7.2708 1.7090
-13.1828 6.1187 1.7088
-13.6746 4.9181 1.7086
-14.0573 3.6786 1.7085
-14.3278 2.4098 1.7083
-14.4841 1.1224 1.7081
-14.5249 -0.1739 1.7079
-8.5537 -0.8693 1.0109
-14.2599 -2.7510 1.7075
-13.9562 -4.0114 1.7074
-13.5415 -5.2396 1.7072
-13.0258 -6.4292 1.7079
-12.4075 -7.5696 1.7089
-11.6905 -8.6516 1.7100
-10.8803 -9.6668 1.7112
-9.9761 -10.6000 1.7115
-8.9910 -11.4475 1.7115
-7.9208 -12.1831 1.7086
-7.4002 -13.9689 1.8587
-6.1418 -14.6134 1.8638
-3.4554 -10.8405 1.3378
-2.5001 -11.2191 1.3515
-2.0664 -15.8116 1.8749
-0.6492 -15.9632 1.8785
0.7785 -15.9870 1.8819
2.2051 -15.8822 1.8853
3.6190 -15.6490 1.8885
4.5845 -13.9949 1.7315
5.8603 -13.6370 1.7452
7.1134 -13.1715 1.7601
8.2881 -12.5274 1.7661
4.5118 -5.6508 0.8502
4.9434 -5.1690 0.8409
11.4783 -10.0348 1.7926
12.3767 -9.0069 1.7998
13.1774 -7.8952 1.8062
13.9054 -6.7254 1.8161
14.5176 -5.4841 1.8247
15.0060 -4.1834 1.8316
15.3640 -2.8366 1.8370
15.5432 -1.4539 1.8355
15.5759 -0.0617 1.8314
15.4761 1.3240 1.8263
15.2459 2.6901 1.8203
4.9485 1.3374 0.6027
4.7109 1.7370 0.5904
5.0970 2.4155 0.6632
13.1090 7.7137 1.7884
12.3030 8.8050 1.7788
11.4046 9.8119 1.7689
10.4230 10.7272 1.7586
9.3683 11.5445 1.7481
4.9254 7.3180 1.0372
7.0804 12.8655 1.7266
5.8681 13.3622 1.7159
4.6392 13.7912 1.7108
3.3841 14.1223 1.7075
2.2978 15.6390 1.8585
0.5664 9.9995 1.1776
-0.3274 10.0031 1.1768
-1.9241 15.6894 1.8585
-2.8510 13.2890 1.5980
-4.1060 13.2438 1.6303
-6.0088 14.6203 1.8585
-6.6943 12.8822 1.7070
-7.8304 12.2556 1.7100
-8.8999 11.5184 1.7115
-9.8917 10.6786 1.7115
-10.8019 9.7514 1.7110
-11.6202 8.7429 1.7098
-12.3482 7.6683 1.7090
-12.9816 6.5358 1.7089
-13.5115 5.3515 1.7087
-13.9335 4.1247 1.7085
-14.2443 2.8651 1.7083
-14.4415 1.5835 1.7082
-14.5236 0.2890 1.7080
-14.4899 -1.0074 1.7078
-14.3408 -2.2954 1.7076
-14.0775 -3.5649 1.7074
-13.7020 -4.8057 1.7073
-13.2217 -6.0099 1.7076
-12.6397 -7.1689 1.7085
-11.9574 -8.2727 1.7096
-11.1797 -9.3127 1.7108
-10.3087 -10.2768 1.7115
-8.4249 -10.0504 1.5420
-8.3109 -11.9331 1.7098
-7.1990 -12.6013 1.7064
-6.5955 -14.3915 1.8613
-3.8378 -10.8345 1.3514
-2.7838 -10.8512 1.3172
-2.5674 -15.7270 1.8736
-1.1567 -15.9237 1.8772
0.2686 -15.9932 1.8807
1.6969 -15.9344 1.8841
3.1167 -15.7469 1.8874
4.5161 -15.4316 1.8905
5.4070 -13.7764 1.7401
6.6673 -13.3457 1.7541
7.8688 -12.7592 1.7625
4.5330 -6.0639 0.8902
4.7929 -5.3425 0.8439
5.3742 -5.0092 0.8638
12.0670 -9.3839 1.7973
12.9025 -8.3003 1.8038
13.6585 -7.1516 1.8127
14.3130 -5.9345 1.8218
14.8464 -4.6535 1.8293
15.2516 -3.3216 1.8353
15.4993 -1.9497 1.8367
15.5795 -0.5584 1.8330
15.5268 0.8311 1.8282
15.3428 2.2057 1.8225
5.1683 1.2215 0.6244
4.7663 1.5869 0.5907
4.7223 2.0563 0.6056
13.3725 7.3054 1.7916
12.6017 8.4248 1.7823
11.7352 9.4628 1.7725
10.7822 10.4115 1.7623
9.7524 11.2644 1.7519
5.1862 7.1993 1.0432
4.7221 7.9683 1.0891
6.3048 13.1978 1.7197
5.0781 13.6416 1.7115
3.8350 14.0172 1.7087
2.7142 15.1085 1.8049
0.8866 9.9982 1.1802
-0.0086 10.0018 1.1760
-0.9046 10.0054 1.1812
-2.8216 15.5531 1.8585
-3.6523 13.2601 1.6172
-5.5399 14.8043 1.8585
-6.2774 13.0827 1.7061
-7.4314 12.4911 1.7089
-8.5284 11.7961 1.7115
-9.5465 10.9884 1.7115
-10.4885 10.0932 1.7115
-11.3385 9.1109 1.7102
-12.0981 8.0584 1.7091
-12.7672 6.9464 1.7089
-13.3346 5.7794 1.7088
-13.7955 4.5667 1.7086
-14.1463 3.3177 1.7084
-14.3842 2.0427 1.7082
-14.5076 0.7516 1.7081
-14.5152 -0.5452 1.7079
-8.5764 -1.0938 1.0166
-14.1844 -3.1147 1.7075
-13.8487 -4.3668 1.7073
-13.4042 -5.5846 1.7073
-12.8591 -6.7612 1.7082
-12.2120 -7.8858 1.7092
-11.4678 -8.9495 1.7103
-10.6309 -9.9432 1.7115
-9.7018 -10.8517 1.7115
-8.6931 -11.6707 1.7110
-7.6022 -12.3745 1.7076
-7.0446 -14.1617 1.8597
-4.2285 -10.8283 1.3668
-3.1537 -10.8453 1.3280
-2.6153 -13.3336 1.5976
-1.6623 -15.8680 1.8759
-0.2409 -15.9831 1.8795
1.1876 -15.9701 1.8829
2.6118 -15.8285 1.8862
4.0199 -15.5587 1.8894
4.9518 -13.9036 1.7353
6.2210 -13.5128 1.7491
7.4425 -12.9759 1.7588
8.6194 -12.3310 1.7689
4.6950 -5.5813 0.8575
5.0818 -5.0487 0.8423
11.7452 -9.7496 1.7948
12.6160 -8.6964 1.8016
13.3972 -7.5682 1.8092
14.0929 -6.3767 1.8187
14.6705 -5.1171 1.8268
15.1221 -3.8018 1.8333
15.4385 -2.4439 1.8378
15.5661 -1.0553 1.8344
15.5608 0.3363 1.8300
15.4234 1.7177 1.8246
15.1564 3.0758 1.8184
4.8525 1.4456 0.5953
4.7154 1.8770 0.5967
13.6228 6.8879 1.7948
12.8881 8.0343 1.7857
12.0548 9.1023 1.7760
11.1315 10.0837 1.7660
10.1280 10.9715 1.7556
5.5732 7.2385 1.0741
4.7639 7.4844 1.0431
6.7371 13.0191 1.7236
5.5147 13.4839 1.7129
4.2826 13.8976 1.7099
3.0201 14.1961 1.7065
1.8972 15.6927 1.8585
0.3102 10.0005 1.1764
-0.5839 10.0042 1.1783
-2.3247 15.6351 1.8585
-3.2054 13.2762 1.6058
-5.0654 14.9733 1.8585
-6.2084 14.0713 1.8083
-7.0252 12.7134 1.7078
-8.1453 12.0573 1.7108
-9.1915 11.2871 1.7115
-10.1616 10.4222 1.7115
-11.0454 9.4700 1.7107
-11.8377 8.4413 1.7095
-12.5399 7.3498 1.7090
-13.1441 6.2016 1.7088
-13.6435 5.0041 1.7087
-14.0340 3.7669 1.7085
-14.3124 2.5000 1.7083
-14.4769 1.2135 1.7081
-14.5258 -0.0825 1.7079
-8.5536 -0.8149 1.0103
-14.2770 -2.6613 1.7076
-13.9813 -3.9235 1.7074
-13.5742 -5.1543 1.7072
-13.0656 -6.3469 1.7079
-12.4544 -7.4910 1.7088
-11.7442 -8.5774 1.7099
-10.9403 -9.5976 1.7112
-10.0426 -10.5370 1.7115
-8.3775 -10.5293 1.5820
-7.9984 -12.1347 1.7088
-7.4874 -13.9212 1.8585
-6.2323 -14.5715 1.8634
-3.5303 -10.8393 1.3403
-2.5606 -11.1594 1.3462
-2.1655 -15.7962 1.8746
-0.7496 -15.9567 1.8782
0.6778 -15.9895 1.8817
2.1049 -15.8938 1.8851
3.5201 -15.6696 1.8883
4.9131 -15.3230 1.8920
5.7718 -13.6673 1.7444
7.0245 -13.2049 1.7586
8.2058 -12.5743 1.7654
4.4984 -5.7073 0.8544
4.9121 -5.2014 0.8412
11.4115 -10.1038 1.7921
12.3165 -9.0822 1.7993
13.1228 -7.9751 1.8055
13.8578 -6.8103 1.8155
14.4785 -5.5736 1.8241
14.9758 -4.2766 1.8312
15.3431 -2.9327 1.8367
15.5358 -1.5519 1.8358
15.5779 -0.1597 1.8317
15.4874 1.2269 1.8267
15.2663 2.5947 1.8207
4.9803 1.3124 0.6056
4.7219 1.7074 0.5904
5.0412 2.3503 0.6540
13.1620 7.6338 1.7890
12.3629 8.7308 1.7795
11.4707 9.7439 1.7696
10.4947 10.6659 1.7593
9.4448 11.4902 1.7488
4.9648 7.2774 1.0358
7.1644 12.8263 1.7274
5.9546 13.3309 1.7167
4.7265 13.7636 1.7111
3.4733 14.1027 1.7077
2.3962 15.6243 1.8585
0.6295 9.9992 1.1780
-0.2644 10.0029 1.1765
-1.8254 15.7012 1.8585
-2.8294 13.6050 1.6339
-4.0159 13.2471 1.6276
-5.9167 14.6578 1.8585
-6.6123 12.9225 1.7067
-7.7522 12.3031 1.7098
-8.8273 11.5741 1.7115
-9.8244 10.7406 1.7115
-10.7409 9.8197 1.7111
-11.5655 8.8163 1.7099
-12.2998 7.7459 1.7091
-12.9403 6.6174 1.7089
-13.4776 5.4364 1.7087
-13.9074 4.2123 1.7085
-14.2260 2.9549 1.7084
-14.4314 1.6741 1.7082
-14.5216 0.3803 1.7080
-14.4961 -0.9162 1.7078
-14.3551 -2.2051 1.7076
-14.0997 -3.4762 1.7074
-13.7321 -4.7194 1.7073
-13.2588 -5.9264 1.7076
-12.6841 -7.0889 1.7085
-12.0086 -8.1970 1.7095
-11.2375 -9.2417 1.7107
-10.3732 -10.2117 1.7115
-8.4903 -9.9999 1.5424
-8.3870 -11.8823 1.7100
-7.2791 -12.5576 1.7066
-6.6849 -14.3474 1.8610
-3.9142 -10.8333 1.3543
-2.8563 -10.8500 1.3192
-2.6659 -15.7084 1.8733
-1.2567 -15.9140 1.8769
0.1679 -15.9925 1.8805
1.5964 -15.9427 1.8839
3.0172 -15.7643 1.8872
4.4185 -15.4580 1.8903
5.3177 -13.8035 1.7392
6.5799 -13.3807 1.7532
7.7852 -12.8032 1.7618
4.5598 -6.1805 0.9031
4.7738 -5.3890 0.8465
5.2846 -4.9882 0.8544
12.0044 -9.4570 1.7968
12.8470 -8.3793 1.8034
13.6080 -7.2346 1.8120
14.2708 -6.0224 1.8212
14.8130 -4.7456 1.8289
15.2274 -3.4168 1.8349
15.4886 -2.0474 1.8369
15.5782 -0.6565 1.8333
15.5348 0.7336 1.8286
15.3600 2.1096 1.8229
5.2195 1.1990 0.6297
4.7551 1.5500 0.5880
4.7220 2.0210 0.6039
13.4230 7.2237 1.7923
12.6592 8.3486 1.7830
11.7991 9.3925 1.7732
10.8519 10.3478 1.7630
9.8272 11.2077 1.7526
5.2444 7.1844 1.0458
4.6848 7.7932 1.0691
6.3906 13.1636 1.7205
5.1638 13.6094 1.7115
3.9236 13.9947 1.7089
2.7155 14.5878 1.7447
1.4953 15.7361 1.8585
0.0543 10.0016 1.1760
-0.8411 10.0052 1.1805
-2.7238 15.5705 1.8585
-3.5636 13.2633 1.6148
-5.4466 14.8389 1.8585
-6.2245 13.1843 1.7142
-7.3517 12.5360 1.7087
-8.4541 11.8495 1.7115
-9.4772 11.0483 1.7115
-10.4248 10.1589 1.7115
-11.2815 9.1825 1.7103
-12.0475 8.1343 1.7092
-12.7234 7.0266 1.7089
-13.2981 5.8633 1.7088
-13.7666 4.6534 1.7086
-14.1253 3.4066 1.7084
-14.3712 2.1331 1.7082
-14.5027 0.8429 1.7081
-14.5185 -0.4539 1.7079
-8.5543 -1.0363 1.0131
-14.2038 -3.0254 1.7075
-13.8760 -4.2797 1.7073
-13.4386 -5.5000 1.7073
-12.9009 -6.6799 1.7081
-12.2609 -7.8084 1.7091
-11.5233 -8.8767 1.7103
-10.6933 -9.8760 1.7115
-9.7699 -10.7904 1.7115
-8.7676 -11.6175 1.7113
-7.6810 -12.3282 1.7078
-7.1325 -14.1150 1.8595
-5.8619 -14.7370 1.8648
-3.2275 -10.8441 1.3303
-2.6079 -12.8667 1.5436
-1.7619 -15.8551 1.8757
-0.3415 -15.9792 1.8792
1.0870 -15.9753 1.8827
2.5119 -15.8427 1.8860
3.9215 -15.5818 1.8892
4.8607 -13.9246 1.7341
6.1311 -13.5414 1.7477
7.3582 -13.0180 1.7582
8.5383 -12.3801 1.7682
4.6429 -5.5904 0.8544
5.0294 -5.0598 0.8388
11.6802 -9.8205 1.7942
12.5579 -8.7735 1.8012
13.3440 -7.6492 1.8084
14.0477 -6.4630 1.8181
14.6338 -5.2078 1.8263
15.0946 -3.8960 1.8329
15.4236 -2.5411 1.8379
15.5615 -1.1534 1.8347
15.5655 0.2385 1.8304
15.4373 1.6211 1.8251
15.1794 2.9812 1.8188
4.8760 1.4192 0.5971
4.7132 1.8419 0.5950
13.6706 6.8045 1.7955
12.9432 7.9560 1.7863
12.1165 9.0298 1.7767
11.1993 10.0176 1.7667
10.2012 10.9121 1.7564
5.7423 7.3619 1.0978
4.8038 7.4432 1.0416
6.8218 12.9822 1.7243
5.6019 13.4548 1.7136
4.3705 13.8723 1.7101
3.1098 14.1788 1.7067
1.9959 15.6804 1.8585
0.3732 10.0003 1.1766
-0.5207 10.0039 1.1778
-2.2262 15.6494 1.8585
-3.1159 13.2706 1.6028
-4.9711 15.0049 1.8585
-6.2068 14.3110 1.8341
-6.9442 12.7557 1.7076
-8.0683 12.1068 1.7106
-9.1204 11.3446 1.7115
-10.0958 10.4860 1.7115
-10.9861 9.5397 1.7107
-11.7849 8.5160 1.7096
-12.4935 7.4287 1.7090
-13.1050 6.2842 1.7088
-13.6118 5.0899 1.7087
-14.0101 3.8552 1.7085
-14.2965 2.5901 1.7083
-14.4690 1.3046 1.7081
-14.5262 0.0089 1.7079
-8.5534 -0.7606 1.0096
-14.2936 -2.5714 1.7076
-14.0058 -3.8355 1.7074
-13.6065 -5.0689 1.7072
-13.1048 -6.2644 1.7078
-12.5007 -7.4122 1.7087
-11.7973 -8.5030 1.7098
-10.9999 -9.5281 1.7111
-10.1087 -10.4737 1.7115
-8.3894 -10.4092 1.5719
-8.0757 -12.0859 1.7091
-7.5749 -13.8738 1.8585
-6.3215 -14.5266 1.8627
-3.6054 -10.8382 1.3430
-2.5769 -10.9152 1.3187
-2.2646 -15.7801 1.8744
-0.8498 -15.9495 1.8780
0.5771 -15.9914 1.8814
2.0046 -15.9048 1.8848
3.4210 -15.6896 1.8881
4.8145 -15.3469 1.8912
5.6820 -13.6947 1.7433
6.9378 -13.2422 1.7577
8.1234 -12.6207 1.7647
4.4694 -5.7445 0.8558
4.8808 -5.2339 0.8414
11.3443 -10.1723 1.7915
12.2559 -9.1570 1.7988
13.0694 -8.0557 1.8051
13.8096 -6.8948 1.8148
14.4387 -5.6628 1.8236
14.9450 -4.3698 1.8308
15.3216 -3.0286 1.8363
15.5279 -1.6498 1.8360
15.5793 -0.2578 1.8320
15.4981 1.1297 1.8271
15.2861 2.4993 1.8212
5.0233 1.2900 0.6098
4.7328 1.6778 0.5904
4.9531 2.2715 0.6407
13.2146 7.5536 1.7897
12.4224 8.6561 1.7802
11.5364 9.6755 1.7703
10.5660 10.6040 1.7601
9.5210 11.4355 1.7496
5.0095 7.2446 1.0356
7.2481 12.7866 1.7282
6.0411 13.2990 1.7174
4.8136 13.7355 1.7113
3.5625 14.0825 1.7079
2.4944 15.6089 1.8585
0.6927 9.9990 1.1785
-0.2015 10.0026 1.1763
-1.7265 15.7124 1.8585
-2.9979 14.8846 1.7852
-3.9260 13.2503 1.6249
-5.8243 14.6948 1.8585
-6.5300 12.9621 1.7065
-7.6737 12.3501 1.7096
-8.7543 11.6294 1.7115
-9.7566 10.8024 1.7115
-10.6795 9.8876 1.7112
-11.5104 8.8892 1.7100
-12.2509 7.8232 1.7091
-12.8986 6.6987 1.7089
-13.4433 5.5211 1.7087
-13.8807 4.2998 1.7086
-14.2073 3.0443 1.7084
-14.4206 1.7649 1.7082
-14.5191 0.4717 1.7080
-14.5017 -0.8250 1.7078
-14.3688 -2.1148 1.7076
-14.1214 -3.3875 1.7075
-13.7616 -4.6329 1.7073
-13.2954 -5.8427 1.7075
-12.7279 -7.0087 1.7084
-12.0594 -8.1209 1.7094
-11.2948 -9.1704 1.7106
-10.4372 -10.1463 1.7115
-8.6074 -10.0095 1.5522
-8.4628 -11.8310 1.7103
-7.3590 -12.5133 1.7068
-6.7739 -14.3027 1.8607
-3.9910 -10.8320 1.3573
-2.9291 -10.8489 1.3213
-2.4363 -13.8276 1.6508
-1.3566 -15.9036 1.8767
0.0673 -15.9912 1.8802
1.4959 -15.9505 1.8836
2.9176 -15.7811 1.8869
4.3207 -15.4837 1.8901
5.2279 -13.8291 1.7383
6.4904 -13.4112 1.7518
7.7012 -12.8464 1.7611
8.8660 -12.1768 1.7710
4.7546 -5.4359 0.8491
5.2454 -5.0140 0.8532
11.9414 -9.5296 1.7963
12.7910 -8.4579 1.8030
13.5570 -7.3173 1.8114
14.2279 -6.1101 1.8206
14.7789 -4.8373 1.8284
15.2025 -3.5118 1.8345
15.4773 -2.1450 1.8372
15.5762 -0.7546 1.8336
15.5422 0.6359 1.8289
15.3766 2.0134 1.8234
15.0821 3.3648 1.8169
4.7799 1.5248 0.5899
4.7217 1.9858 0.6023
13.4729 7.1417 1.7929
12.7163 8.2718 1.7836
11.8627 9.3218 1.7739
10.9213 10.2836 1.7638
9.9018 11.1503 1.7533
14.5205 -2.5865 1.8263
14.7122 -1.2828 1.8287
14.7361 0.0343 1.8247
14.6352 1.3448 1.8199
14.4113 2.6364 1.8141
4.9046 1.3587 0.6302
4.6896 1.7628 0.6204
5.1136 2.4629 0.7028
12.3694 7.3836 1.7838
11.6026 8.4146 1.7748
10.7484 9.3658 1.7653
9.8157 10.2302 1.7556
8.8138 11.0019 1.7456
4.8983 7.3776 1.0966
6.6407 12.2484 1.7253
5.4893 12.7164 1.7151
4.3204 13.1161 1.7100
3.1276 13.4241 1.7068
2.0884 14.8631 1.8585
0.5033 9.9995 1.2398
-0.3905 10.0032 1.2396
-1.9207 14.8857 1.8585
-2.9516 13.3479 1.6928
-4.5347 14.3077 1.8585
-5.7927 13.8463 1.8585
-6.4306 12.1868 1.7063
-7.5045 11.5841 1.7091
-8.5194 10.8836 1.7115
-9.4561 10.0805 1.7115
-10.3174 9.1970 1.7115
-11.0910 8.2360 1.7106
-11.7743 7.2097 1.7096
-12.3648 6.1282 1.7088
-4.2182 1.6401 0.5604
-13.2543 3.8331 1.7085
-13.5420 2.6355 1.7083
-13.7217 1.4171 1.7081
-13.7919 0.1876 1.7080
-8.8115 -0.6683 1.0942
-13.6031 -2.2652 1.7076
-13.3456 -3.4693 1.7075
-12.9868 -4.6468 1.7080
-4.1563 -1.9209 0.5670
-11.9658 -6.8866 1.7096
-11.3107 -7.9310 1.7106
-10.5639 -8.9129 1.7115
-9.7269 -9.8195 1.7115
-8.4066 -10.1576 1.6327
-7.8181 -11.3775 1.7094
-6.7593 -12.0065 1.7061
-6.1717 -13.6934 1.8599
-3.7616 -10.8356 1.4203
-2.7114 -10.8523 1.3851
-2.3438 -14.9472 1.8735
-1.0030 -15.1241 1.8769
0.3505 -15.1801 1.8802
1.7058 -15.1142 1.8834
3.0520 -14.9264 1.8865
3.9831 -13.2991 1.7191
5.1905 -12.9840 1.7315
6.3894 -12.5908 1.7483
7.5317 -12.0424 1.7588
8.6207 -11.3821 1.7680
4.7348 -5.2113 0.8719
10.6031 -9.7591 1.7844
11.4761 -8.8090 1.7914
12.2575 -7.7767 1.7975
12.9483 -6.6763 1.8039
13.5550 -5.5205 1.8123
14.0472 -4.3061 1.8193
14.4184 -3.0452 1.8248
14.6635 -1.7509 1.8286
14.7420 -0.4355 1.8263
14.6854 0.8788 1.8217
14.5051 2.1785 1.8163
5.0848 1.2356 0.6480
4.7381 1.6106 0.6197
4.8573 2.1516 0.6578
12.6203 6.9980 1.7869
11.8867 8.0555 1.7780
11.0627 9.0360 1.7687
10.1570 9.9321 1.7591
9.1786 10.7375 1.7492
5.1420 7.2335 1.0990
7.0424 12.0560 1.7289
5.9041 12.5615 1.7187
4.7392 12.9802 1.7111
3.5561 13.3266 1.7079
2.5609 14.7891 1.8585
0.8233 9.9982 1.2422
-0.0715 10.0019 1.2385
-1.0419 10.7689 1.3397
-2.7721 14.7509 1.8585
-3.7554 13.3068 1.7121
-5.3486 14.0238 1.8585
-6.2111 12.7384 1.7549
-7.1274 11.8104 1.7081
-8.1655 11.1457 1.7109
-9.1301 10.3766 1.7115
-10.0192 9.5209 1.7115
-10.8255 8.5871 1.7110
-11.5410 7.5827 1.7099
-12.1646 6.5196 1.7090
-12.6955 5.4078 1.7087
-13.1259 4.2536 1.7086
-13.4516 3.0657 1.7084
-13.6700 1.8536 1.7082
-13.7795 0.6270 1.7080
-13.7791 -0.6044 1.7079
-13.6688 -1.8307 1.7077
-13.4497 -3.0422 1.7075
-13.1266 -4.2302 1.7077
-12.7020 -5.3861 1.7084
-4.0424 -2.1580 0.5674
-11.5551 -7.5650 1.7102
-10.8413 -8.5709 1.7113
-10.0348 -9.5046 1.7115
-8.8450 -10.0195 1.6549
-8.1820 -11.1301 1.7105
-7.1433 -11.7931 1.7073
-6.6013 -13.4824 1.8588
-4.1506 -10.8294 1.4361
-3.0802 -10.8464 1.3962
-2.5894 -13.6561 1.7211
-1.4833 -15.0747 1.8757
-0.1333 -15.1741 1.8790
1.2227 -15.1517 1.8823
2.5734 -15.0074 1.8854
3.9078 -14.7415 1.8884
4.7593 -13.1019 1.7261
5.9650 -12.7452 1.7425
7.1418 -12.2721 1.7582
8.2387 -11.6298 1.7648
4.5749 -5.3696 0.8735
5.1286 -5.0314 0.8896
11.1746 -9.1579 1.7890
11.9897 -8.1539 1.7954
12.7077 -7.0736 1.8009
13.3513 -5.9402 1.8095
13.8852 -4.7454 1.8170
14.3002 -3.4997 1.8230
14.5907 -2.2157 1.8274
14.7319 -0.9057 1.8276
14.7199 0.4108 1.8234
14.5835 1.7172 1.8183
14.3250 3.0011 1.8123
4.7887 1.4594 0.6199
4.6985 1.9046 0.6278
12.8587 6.6035 1.7899
12.1593 7.6866 1.7813
11.3665 8.6955 1.7721
10.4890 9.6225 1.7626
9.5355 10.4609 1.7527
5.5054 7.2443 1.1267
4.7567 7.5779 1.1079
6.3146 12.3932 1.7223
5.1536 12.8309 1.7122
3.9815 13.2153 1.7091
2.7822 13.4946 1.7061
1.7076 14.9117 1.8585
0.2472 10.0006 1.2387
-0.6471 10.0042 1.2414
-2.3007 14.8318 1.8585
-3.6143 14.5675 1.8585
-4.8991 14.1871 1.8585
-6.1449 13.6936 1.8585
-6.7434 12.0243 1.7071
-7.8018 11.3937 1.7099
-8.7949 10.6623 1.7115
-9.7108 9.8353 1.7115
-10.5489 8.9298 1.7114
-11.2959 7.9482 1.7103
-11.9530 6.9052 1.7093
-12.5171 5.8097 1.7088
-4.2602 1.5322 0.5606
-13.3476 3.4928 1.7084
-13.6045 2.2883 1.7083
-13.7530 1.0657 1.7081
-13.7918 -0.1651 1.7079
-8.5468 -0.8685 1.0638
-13.5403 -2.6122 1.7076
-13.2532 -3.8094 1.7075
-12.8652 -4.9779 1.7082
-4.1073 -2.0272 0.5672
-11.7877 -7.1915 1.7098
-11.1062 -8.2192 1.7109
-10.3325 -9.1801 1.7115
-9.4726 -10.0650 1.7115
-8.5372 -10.8697 1.7115
-7.5205 -11.5674 1.7085
-7.0262 -13.2630 1.8585
-5.8224 -13.8536 1.8608
-3.4553 -10.8405 1.4089
-2.4917 -11.1813 1.4185
-1.9617 -15.0101 1.8745
-0.6162 -15.1525 1.8778
0.7389 -15.1737 1.8811
2.0928 -15.0729 1.8843
3.4343 -14.8502 1.8874
4.3299 -13.2175 1.7223
5.5332 -12.8758 1.7353
6.7328 -12.4668 1.7545
7.8492 -11.8641 1.7615
4.4858 -5.6182 0.8902
4.8628 -5.0847 0.8712
10.8619 -9.4959 1.7865
11.7096 -8.5214 1.7933
12.4632 -7.4672 1.7991
13.1333 -6.3520 1.8065
13.7080 -5.1782 1.8145
14.1661 -3.9492 1.8210
14.5016 -2.6774 1.8260
14.7058 -1.3755 1.8289
14.7386 -0.0584 1.8250
14.6463 1.2530 1.8202
14.4310 2.5463 1.8146
4.9283 1.3319 0.6321
4.6938 1.7307 0.6195
5.0573 2.3967 0.6930
12.4200 7.3082 1.7844
11.6596 8.3445 1.7754
10.8113 9.3015 1.7660
9.8838 10.1723 1.7563
8.8864 10.9507 1.7463
4.9380 7.3368 1.0951
6.7204 12.2114 1.7260
5.5715 12.6869 1.7158
4.4034 13.0903 1.7102
3.2124 13.4059 1.7070
2.1819 14.8497 1.8585
0.5664 9.9993 1.2402
-0.3274 10.0029 1.2393
-1.8270 14.8975 1.8585
-2.8869 13.4564 1.7042
-4.4446 14.3360 1.8585
-5.7055 13.8824 1.8585
-6.3534 12.2262 1.7061
-7.4306 11.6298 1.7089
-8.4507 10.9370 1.7115
-9.3925 10.1398 1.7115
-10.2594 9.2617 1.7115
-11.0395 8.3059 1.7107
-11.7292 7.2839 1.7097
-12.3262 6.2054 1.7088
-4.2074 1.6664 0.5604
-13.2300 3.9165 1.7085
-13.5252 2.7206 1.7083
-13.7126 1.5034 1.7082
-13.7906 0.2744 1.7080
-13.7587 -0.9565 1.7078
-13.6172 -2.1796 1.7076
-13.3672 -3.3850 1.7075
-13.0155 -4.5649 1.7079
-4.1680 -1.8945 0.5669
-3.9872 -2.2614 0.5676
-11.3599 -7.8593 1.7105
-10.6197 -8.8463 1.7115
-9.7885 -9.7581 1.7115
-8.4181 -10.0422 1.6226
-7.8905 -11.3296 1.7096
-6.8356 -11.9654 1.7064
-6.2564 -13.6515 1.8595
-3.8377 -10.8344 1.4233
-2.7837 -10.8511 1.3872
-2.4374 -14.9303 1.8732
-1.0980 -15.1155 1.8766
0.2549 -15.1801 1.8800
1.6106 -15.1229 1.8832
2.9577 -14.9436 1.8863
3.8979 -13.3191 1.7184
5.1039 -13.0042 1.7298
6.3069 -12.6243 1.7474
7.4530 -12.0850 1.7581
8.5459 -11.4320 1.7674
4.7032 -5.2425 0.8721
5.5106 -5.1364 0.9328
11.4174 -8.8787 1.7910
12.2056 -7.8519 1.7971
12.9014 -6.7552 1.8033
13.5159 -5.6040 1.8118
14.0164 -4.3933 1.8189
14.3963 -3.1353 1.8244
14.6504 -1.8429 1.8284
14.7413 -0.5284 1.8265
14.6935 0.7865 1.8221
14.5218 2.0876 1.8167
5.1340 1.2134 0.6532
4.7489 1.5811 0.6198
4.7018 2.0474 0.6350
12.6684 6.9208 1.7875
11.9414 7.9834 1.7787
11.1235 8.9696 1.7694
10.2233 9.8719 1.7598
9.2497 10.6838 1.7499
5.2002 7.2186 1.1016
4.8052 8.1085 1.1671
5.9855 12.5294 1.7194
4.8214 12.9518 1.7113
3.6403 13.3057 1.7082
2.6539 14.7727 1.8585
0.8866 9.9980 1.2429
-0.0086 10.0016 1.2385
-0.9046 10.0053 1.2440
-2.6792 14.7681 1.8585
-3.6836 13.3737 1.7177
-5.2603 14.0572 1.8585
-6.2071 12.9361 1.7767
-7.0521 11.8536 1.7079
-8.0943 11.1956 1.7107
-9.0647 10.4338 1.7115
-9.9591 9.5837 1.7115
-10.7717 8.6555 1.7111
-11.4935 7.6555 1.7100
-12.1238 6.5963 1.7091
-12.6613 5.4876 1.7087
-13.0990 4.3361 1.7086
-13.4321 3.1503 1.7084
-13.6582 1.9396 1.7082
-13.7754 0.7136 1.7080
-13.7827 -0.5177 1.7079
-8.5620 -1.0920 1.0688
-13.4687 -2.9575 1.7075
-13.1527 -4.1474 1.7077
-12.7352 -5.3059 1.7084
-4.0555 -2.1323 0.5674
-11.6019 -7.4918 1.7101
-10.8945 -8.5021 1.7112
-10.0944 -9.4413 1.7115
-9.2121 -10.3040 1.7115
-8.2530 -11.0798 1.7108
-7.2183 -11.7495 1.7075
-6.6855 -13.4399 1.8587
-4.2284 -10.8282 1.4394
-3.1537 -10.8452 1.3986
-2.6709 -13.6172 1.7183
-1.5781 -15.0632 1.8754
-0.2286 -15.1710 1.8788
1.1272 -15.1573 1.8821
2.4787 -15.0215 1.8852
3.8146 -14.7642 1.8882
4.6748 -13.1259 1.7253
5.8816 -12.7756 1.7416
7.0648 -12.3175 1.7583
8.1623 -11.6771 1.7642
