ply
format ascii 1.0
element vertex 2176
property float32 x
property float32 y
property float32 z
end_header
5.9226 -4.5817 1.7368
6.3291 -4.0482 1.7426
6.6657 -3.4673 1.7428
6.9568 -2.8617 1.7448
7.1908 -2.2312 1.7463
7.3653 -1.5812 1.7473
7.4787 -0.9176 1.7477
7.5300 -0.2463 1.7475
7.5187 0.4267 1.7468
7.4450 1.0954 1.7455
7.3097 1.7538 1.7436
4.7547 1.6013 1.1637
4.8237 2.1210 1.2222
6.5511 3.6100 1.7350
6.1891 4.1712 1.7312
5.7779 4.6955 1.7269
5.3209 5.1782 1.7221
1.0264 1.1951 0.3654
0.9155 1.2818 0.3654
0.7973 1.3583 0.3653
0.6728 1.4239 0.3653
0.5430 1.4782 0.3653
0.4088 1.5207 0.3653
0.2715 1.5511 0.3652
0.1319 1.5691 0.3652
-0.0087 1.5746 0.3652
-0.1492 1.5676 0.3652
-0.2886 1.5481 0.3653
-0.4257 1.5162 0.3653
-0.5594 1.4723 0.3653
-0.6886 1.4166 0.3653
-0.8124 1.3496 0.3654
-0.9297 1.2718 0.3654
-1.0397 1.1839 0.3655
-5.8037 5.5245 1.8585
-6.1962 4.9228 1.8356
-6.2165 4.0905 1.7261
-2.7007 1.4495 0.7110
-2.6947 1.1495 0.6795
-2.6891 0.8727 0.6558
-2.6839 0.6126 0.6385
-2.6788 0.3639 0.6271
-2.6740 0.1221 0.6209
-2.6692 -0.1168 0.6197
-2.6643 -0.3568 0.6235
-2.6594 -0.6018 0.6324
-2.6543 -0.8559 0.6469
-2.6488 -1.1240 0.6674
-2.6430 -1.4121 0.6951
-2.6367 -1.7278 0.7312
-2.6296 -2.0810 0.7778
-5.8141 -5.5136 1.8585
-1.0454 -1.1858 0.3667
-0.9355 -1.2746 0.3667
-0.8180 -1.3531 0.3667
-0.6940 -1.4209 0.3668
-0.5644 -1.4772 0.3668
-0.4303 -1.5218 0.3668
-0.2928 -1.5542 0.3668
-0.1529 -1.5742 0.3668
-0.0117 -1.5815 0.3668
0.1295 -1.5762 0.3668
0.2697 -1.5583 0.3668
0.4077 -1.5279 0.3668
0.5424 -1.4853 0.3668
0.6728 -1.4309 0.3667
0.7978 -1.3650 0.3667
0.9163 -1.2881 0.3667
1.0275 -1.2010 0.3666
5.3071 -5.1844 1.7209
5.7939 -4.7267 1.7344
6.2192 -4.2086 1.7418
6.5711 -3.6372 1.7421
6.8783 -3.0399 1.7443
7.1290 -2.4160 1.7460
7.3209 -1.7711 1.7471
7.4522 -1.1108 1.7476
7.5216 -0.4411 1.7476
7.5284 0.2320 1.7470
7.4727 0.9026 1.7459
7.3552 1.5645 1.7442
4.8200 1.4856 1.1699
4.7428 1.9405 1.1886
6.6463 3.4412 1.7360
6.2991 4.0123 1.7323
5.9018 4.5477 1.7282
5.4611 5.0461 1.7247
1.0570 1.1682 0.3654
0.9484 1.2577 0.3654
0.8322 1.3372 0.3653
0.7095 1.4061 0.3653
0.5811 1.4637 0.3653
0.4481 1.5096 0.3653
0.3115 1.5436 0.3652
0.1725 1.5652 0.3652
0.0321 1.5743 0.3652
-0.1086 1.5709 0.3652
-0.2484 1.5550 0.3653
-0.3863 1.5267 0.3653
-0.5211 1.4862 0.3653
-0.6517 1.4339 0.3653
-0.7772 1.3701 0.3654
-0.8965 1.2954 0.3654
-1.0087 1.2104 0.3654
-5.6587 5.6729 1.8585
-6.1426 5.1450 1.8585
-6.2111 4.3214 1.7551
-2.7026 1.5419 0.7217
-2.6964 1.2336 0.6878
-2.6907 0.9509 0.6619
-2.6854 0.6866 0.6429
-2.6803 0.4351 0.6298
-2.6754 0.1917 0.6221
-2.6705 -0.0477 0.6195
-2.6657 -0.2870 0.6219
-2.6608 -0.5301 0.6293
-2.6558 -0.7811 0.6421
-2.6504 -1.0446 0.6608
-2.6448 -1.3262 0.6863
-2.6386 -1.6330 0.7198
-2.6317 -1.9742 0.7631
-5.9549 -5.3612 1.8585
-1.0757 -1.1583 0.3667
-0.9681 -1.2499 0.3667
-0.8527 -1.3314 0.3667
-0.7305 -1.4024 0.3668
-0.6025 -1.4621 0.3668
-0.4696 -1.5101 0.3668
-0.3329 -1.5461 0.3668
-0.1936 -1.5697 0.3668
-0.0527 -1.5807 0.3668
0.0887 -1.5791 0.3668
0.2293 -1.5648 0.3668
0.3680 -1.5380 0.3668
0.5038 -1.4989 0.3668
0.6356 -1.4478 0.3668
0.7622 -1.3852 0.3667
0.8827 -1.3115 0.3667
0.9961 -1.2273 0.3666
5.1523 -5.3006 1.7146
5.6585 -4.8656 1.7310
6.1018 -4.3636 1.7400
6.4751 -3.8062 1.7422
6.7950 -3.2158 1.7437
7.0624 -2.5991 1.7455
7.2715 -1.9597 1.7468
7.4205 -1.3033 1.7475
7.5079 -0.6357 1.7477
7.5329 0.0371 1.7473
7.4953 0.7090 1.7463
7.3955 1.3741 1.7447
4.9391 1.3834 1.1897
4.7092 1.7859 1.1682
6.7370 3.2699 1.7370
6.4050 3.8503 1.7334
6.0218 4.3966 1.7294
5.5931 4.9060 1.7257
1.0869 1.1405 0.3654
0.9807 1.2328 0.3654
0.8666 1.3153 0.3653
0.7457 1.3873 0.3653
0.6188 1.4482 0.3653
0.4870 1.4976 0.3653
0.3514 1.5350 0.3652
0.2129 1.5602 0.3652
0.0728 1.5730 0.3652
-0.0679 1.5732 0.3652
-0.2081 1.5609 0.3652
-0.3466 1.5361 0.3653
-0.4824 1.4992 0.3653
-0.6144 1.4502 0.3653
-0.7414 1.3897 0.3654
-0.8626 1.3181 0.3654
-0.9770 1.2360 0.3654
-5.5100 5.8174 1.8585
-6.0073 5.3023 1.8585
-6.2054 4.5602 1.7862
-2.7045 1.6372 0.7333
-2.6981 1.3199 0.6967
-2.6923 1.0306 0.6687
-2.6869 0.7616 0.6478
-2.6817 0.5069 0.6330
-2.6768 0.2616 0.6238
-2.6719 0.0214 0.6198
-2.6671 -0.2175 0.6207
-2.6623 -0.4591 0.6266
-2.6572 -0.7073 0.6378
-2.6520 -0.9667 0.6547
-2.6465 -1.2424 0.6781
-2.6404 -1.5411 0.7091
-2.6338 -1.8712 0.7494
-6.0916 -5.2053 1.8585
-5.6026 -5.7283 1.8585
-1.0001 -1.2244 0.3667
-0.8869 -1.3089 0.3667
-0.7666 -1.3830 0.3668
-0.6401 -1.4460 0.3668
-0.5085 -1.4975 0.3668
-0.3728 -1.5369 0.3668
-0.2341 -1.5641 0.3668
-0.0936 -1.5788 0.3668
0.0478 -1.5808 0.3668
0.1887 -1.5702 0.3668
0.3281 -1.5470 0.3668
0.4649 -1.5115 0.3668
0.5979 -1.4638 0.3668
0.7261 -1.4045 0.3667
0.8485 -1.3339 0.3667
0.9641 -1.2527 0.3667
1.0719 -1.1615 0.3666
5.5181 -4.9990 1.7270
5.9797 -4.5147 1.7379
6.3756 -3.9733 1.7425
6.7071 -3.3894 1.7431
6.9908 -2.7803 1.7451
7.2171 -2.1469 1.7465
7.3837 -1.4948 1.7474
7.4890 -0.8298 1.7477
7.5321 -0.1579 1.7474
7.5126 0.5149 1.7466
7.4307 1.1825 1.7452
5.1706 1.3049 1.2369
4.7404 1.6587 1.1649
6.8230 3.0961 1.7379
6.5066 3.6855 1.7345
6.1378 4.2422 1.7306
5.7205 4.7614 1.7263
5.2558 5.2364 1.7209
1.0123 1.2071 0.3654
0.9004 1.2925 0.3654
0.7813 1.3675 0.3653
0.6561 1.4317 0.3653
0.5256 1.4845 0.3653
0.3910 1.5254 0.3653
0.2532 1.5542 0.3652
0.1135 1.5705 0.3652
-0.0272 1.5744 0.3652
-0.1676 1.5657 0.3652
-0.3067 1.5446 0.3653
-0.4434 1.5111 0.3653
-0.5766 1.4656 0.3653
-0.7052 1.4084 0.3653
-0.8282 1.3400 0.3654
-0.9446 1.2608 0.3654
-1.0535 1.1716 0.3655
-5.8681 5.4560 1.8585
-6.1992 4.8076 1.8196
-2.7065 1.7357 0.7458
-2.6999 1.4085 0.7063
-2.6939 1.1120 0.6760
-2.6884 0.8377 0.6531
-2.6832 0.5794 0.6367
-2.6782 0.3319 0.6260
-2.6733 0.0907 0.6204
-2.6685 -0.1482 0.6199
-2.6637 -0.3886 0.6244
-2.6587 -0.6345 0.6340
-2.6536 -0.8901 0.6492
-2.6481 -1.1605 0.6706
-2.6422 -1.4518 0.6993
-2.6358 -1.7718 0.7367
-2.6285 -2.1309 0.7849
-5.7490 -5.5814 1.8585
-1.0314 -1.1980 0.3667
-0.9204 -1.2855 0.3667
-0.8021 -1.3626 0.3668
-0.6773 -1.4289 0.3668
-0.5471 -1.4838 0.3668
-0.4125 -1.5268 0.3668
-0.2745 -1.5575 0.3668
-0.1344 -1.5758 0.3668
0.0068 -1.5816 0.3668
0.1480 -1.5746 0.3668
0.2879 -1.5550 0.3668
0.4256 -1.5230 0.3668
0.5598 -1.4789 0.3668
0.6895 -1.4229 0.3667
0.8137 -1.3555 0.3667
0.9314 -1.2773 0.3667
1.0415 -1.1889 0.3666
5.3743 -5.1282 1.7230
5.8527 -4.6615 1.7355
6.2710 -4.1372 1.7426
6.6146 -3.5605 1.7424
6.9145 -2.9594 1.7445
7.1576 -2.3325 1.7461
7.3417 -1.6852 1.7472
7.4649 -1.0234 1.7477
7.5260 -0.3529 1.7476
7.5247 0.3203 1.7469
7.4608 0.9901 1.7457
7.3352 1.6505 1.7439
4.7720 1.5323 1.1625
4.7732 2.0186 1.2021
6.6037 3.5180 1.7355
6.2498 4.0847 1.7318
5.8461 4.6152 1.7276
5.3982 5.1068 1.7236
1.0432 1.1805 0.3654
0.9336 1.2688 0.3654
0.8165 1.3469 0.3653
0.6929 1.4143 0.3653
0.5639 1.4704 0.3653
0.4303 1.5148 0.3653
0.2934 1.5471 0.3652
0.1541 1.5671 0.3652
0.0136 1.5746 0.3652
-0.1270 1.5695 0.3652
-0.2667 1.5520 0.3653
-0.4042 1.5221 0.3653
-0.5385 1.4800 0.3653
-0.6685 1.4261 0.3653
-0.7932 1.3609 0.3654
-0.9116 1.2848 0.3654
-1.0228 1.1985 0.3655
-5.7249 5.6061 1.8585
-6.1925 5.0645 1.8555
-6.2136 4.2158 1.7417
-2.7017 1.4997 0.7167
-2.6956 1.1952 0.6840
-2.6900 0.9153 0.6591
-2.6847 0.6529 0.6409
-2.6796 0.4028 0.6285
-2.6747 0.1601 0.6215
-2.6699 -0.0790 0.6196
-2.6651 -0.3186 0.6226
-2.6602 -0.5625 0.6307
-2.6551 -0.8148 0.6442
-2.6497 -1.0804 0.6637
-2.6440 -1.3649 0.6902
-2.6377 -1.6756 0.7248
-2.6307 -2.0221 0.7696
-5.8916 -5.4307 1.8585
-1.0620 -1.1709 0.3667
-0.9534 -1.2612 0.3667
-0.8371 -1.3414 0.3667
-0.7140 -1.4109 0.3668
-0.5853 -1.4691 0.3668
-0.4518 -1.5156 0.3668
-0.3147 -1.5499 0.3668
-0.1751 -1.5718 0.3668
-0.0341 -1.5812 0.3668
0.1072 -1.5779 0.3668
0.2476 -1.5620 0.3668
0.3860 -1.5336 0.3668
0.5214 -1.4929 0.3668
0.6525 -1.4403 0.3668
0.7784 -1.3761 0.3667
0.8980 -1.3010 0.3667
1.0105 -1.2155 0.3666
5.2228 -5.2486 1.7174
5.7210 -4.8037 1.7327
6.1556 -4.2938 1.7408
6.5187 -3.7297 1.7420
6.8334 -3.1364 1.7440
7.0932 -2.5164 1.7457
7.2946 -1.8744 1.7469
7.4355 -1.2162 1.7476
7.5147 -0.5476 1.7477
7.5315 0.1254 1.7472
7.4857 0.7968 1.7461
7.3779 1.4605 1.7445
4.8845 1.4301 1.1805
4.7073 1.8486 1.1730
6.6964 3.3478 1.7365
6.3575 3.9241 1.7329
5.9679 4.4655 1.7289
5.5348 4.9709 1.7256
1.0735 1.1531 0.3654
0.9661 1.2442 0.3654
0.8511 1.3253 0.3653
0.7293 1.3959 0.3653
0.6018 1.4553 0.3653
0.4694 1.5032 0.3653
0.3333 1.5390 0.3652
0.1946 1.5626 0.3652
0.0543 1.5737 0.3652
-0.0864 1.5723 0.3652
-0.2264 1.5583 0.3653
-0.3646 1.5320 0.3653
-0.5000 1.4934 0.3653
-0.6313 1.4429 0.3653
-0.7577 1.3809 0.3654
-0.8780 1.3079 0.3654
-0.9914 1.2245 0.3654
-5.5779 5.7524 1.8585
-6.0691 5.2315 1.8585
-6.2080 4.4509 1.7718
-2.7036 1.5937 0.7279
-2.6973 1.2805 0.6926
-2.6916 0.9942 0.6655
-2.6862 0.7274 0.6455
-2.6811 0.4742 0.6315
-2.6761 0.2298 0.6230
-2.6713 -0.0099 0.6196
-2.6665 -0.2490 0.6212
-2.6616 -0.4912 0.6278
-2.6566 -0.7406 0.6397
-2.6513 -1.0018 0.6574
-2.6457 -1.2802 0.6817
-2.6396 -1.5824 0.7138
-2.6329 -1.9174 0.7555
-6.0301 -5.2764 1.8585
-1.0919 -1.1430 0.3666
-0.9857 -1.2360 0.3667
-0.8715 -1.3192 0.3667
-0.7503 -1.3919 0.3668
-0.6231 -1.4534 0.3668
-0.4909 -1.5033 0.3668
-0.3548 -1.5412 0.3668
-0.2158 -1.5668 0.3668
-0.0750 -1.5798 0.3668
0.0663 -1.5802 0.3668
0.2071 -1.5679 0.3668
0.3462 -1.5431 0.3668
0.4826 -1.5059 0.3668
0.6150 -1.4567 0.3668
0.7425 -1.3959 0.3667
0.8641 -1.3239 0.3667
0.9787 -1.2413 0.3666
1.0855 -1.1488 0.3666
5.5821 -4.9390 1.7288
6.0359 -4.4469 1.7390
6.4212 -3.8979 1.7423
6.7475 -3.3110 1.7434
7.0239 -2.6984 1.7453
7.2424 -2.0622 1.7466
7.4010 -1.4081 1.7475
7.4982 -0.7419 1.7477
7.5331 -0.0696 1.7474
7.5054 0.6029 1.7465
7.4154 1.2694 1.7450
5.0063 1.3261 1.2013
4.7262 1.7163 1.1663
6.7846 3.1752 1.7375
6.4611 3.7606 1.7340
6.0857 4.3126 1.7301
5.6623 4.8265 1.7258
1.1030 1.1250 0.3654
0.9980 1.2188 0.3654
0.8851 1.3029 0.3654
0.7652 1.3766 0.3653
0.6392 1.4393 0.3653
0.5082 1.4905 0.3653
0.3731 1.5299 0.3653
0.2350 1.5570 0.3652
0.0950 1.5718 0.3652
-0.0456 1.5740 0.3652
-0.1860 1.5637 0.3652
-0.3248 1.5409 0.3653
-0.4611 1.5058 0.3653
-0.5938 1.4588 0.3653
-0.7217 1.4001 0.3653
-0.8439 1.3302 0.3654
-0.9594 1.2497 0.3654
-1.0672 1.1592 0.3655
-5.9317 5.3868 1.8585
-6.2020 4.6943 1.8042
-2.7056 1.6907 0.7400
-2.6991 1.3681 0.7019
-2.6932 1.0749 0.6726
-2.6877 0.8031 0.6506
-2.6825 0.5464 0.6350
-2.6776 0.3000 0.6249
-2.6727 0.0593 0.6201
-2.6679 -0.1796 0.6202
-2.6630 -0.4205 0.6253
-2.6581 -0.6674 0.6357
-2.6529 -0.9247 0.6516
-2.6474 -1.1974 0.6739
-2.6414 -1.4920 0.7037
-2.6349 -1.8164 0.7423
-2.6275 -2.1816 0.7921
-5.6832 -5.6484 1.8585
-1.0173 -1.2101 0.3667
-0.9053 -1.2962 0.3667
-0.7861 -1.3720 0.3668
-0.6605 -1.4368 0.3668
-0.5296 -1.4901 0.3668
-0.3945 -1.5315 0.3668
-0.2562 -1.5607 0.3668
-0.1159 -1.5773 0.3668
0.0254 -1.5814 0.3668
0.1664 -1.5727 0.3668
0.3062 -1.5515 0.3668
0.4434 -1.5179 0.3668
0.5771 -1.4722 0.3668
0.7062 -1.4147 0.3667
0.8296 -1.3458 0.3667
0.9463 -1.2662 0.3667
1.0554 -1.1766 0.3666
5.4399 -5.0701 1.7248
5.9107 -4.5954 1.7366
6.3194 -4.0636 1.7427
6.6571 -3.4832 1.7427
6.9497 -2.8785 1.7448
7.1852 -2.2486 1.7463
7.3613 -1.5990 1.7473
7.4764 -0.9357 1.7477
7.5294 -0.2645 1.7475
7.5198 0.4085 1.7468
7.4478 1.0774 1.7455
7.3142 1.7362 1.7437
4.7576 1.5895 1.1635
4.8044 2.0986 1.2161
6.5602 3.5943 1.7351
6.1996 4.1564 1.7313
5.7896 4.6819 1.7270
5.3342 5.1661 1.7224
1.0293 1.1926 0.3654
0.9186 1.2796 0.3654
0.8006 1.3564 0.3653
0.6763 1.4223 0.3653
0.5466 1.4769 0.3653
0.4125 1.5197 0.3653
0.2752 1.5504 0.3652
0.1357 1.5688 0.3652
-0.0049 1.5746 0.3652
-0.1454 1.5679 0.3652
-0.2848 1.5488 0.3653
-0.4220 1.5172 0.3653
-0.5558 1.4736 0.3653
-0.6852 1.4182 0.3653
-0.8091 1.3515 0.3654
-0.9267 1.2741 0.3654
-1.0368 1.1864 0.3655
-5.7903 5.5386 1.8585
-6.1956 4.9468 1.8389
-6.2160 4.1117 1.7287
-2.7009 1.4581 0.7119
-2.6948 1.1572 0.6803
-2.6893 0.8800 0.6563
-2.6840 0.6195 0.6389
-2.6790 0.3706 0.6273
-2.6741 0.1286 0.6210
-2.6693 -0.1104 0.6197
-2.6644 -0.3503 0.6233
-2.6595 -0.5950 0.6321
-2.6544 -0.8488 0.6464
-2.6490 -1.1165 0.6668
-2.6432 -1.4040 0.6942
-2.6369 -1.7188 0.7301
-2.6298 -2.0709 0.7764
-5.8275 -5.4995 1.8585
-1.0482 -1.1833 0.3667
-0.9385 -1.2723 0.3667
-0.8213 -1.3511 0.3667
-0.6975 -1.4192 0.3668
-0.5680 -1.4759 0.3668
-0.4340 -1.5208 0.3668
-0.2965 -1.5535 0.3668
-0.1567 -1.5738 0.3668
-0.0156 -1.5815 0.3668
0.1257 -1.5765 0.3668
0.2659 -1.5590 0.3668
0.4040 -1.5289 0.3668
0.5388 -1.4867 0.3668
0.6693 -1.4325 0.3667
0.7945 -1.3669 0.3667
0.9132 -1.2904 0.3667
1.0246 -1.2035 0.3666
5.2927 -5.1954 1.7203
5.7816 -4.7401 1.7341
6.2084 -4.2233 1.7416
6.5621 -3.6529 1.7420
6.8707 -3.0564 1.7442
7.1230 -2.4332 1.7459
7.3165 -1.7888 1.7471
7.4495 -1.1289 1.7476
7.5205 -0.4593 1.7476
7.5290 0.2138 1.7471
7.4751 0.8845 1.7459
7.3592 1.5468 1.7443
4.8309 1.4762 1.1717
4.7367 1.9246 1.1859
6.6550 3.4253 1.7361
6.3092 3.9972 1.7324
5.9132 4.5337 1.7283
5.4740 5.0335 1.7249
1.0598 1.1656 0.3654
0.9514 1.2554 0.3654
0.8355 1.3352 0.3653
0.7129 1.4044 0.3653
0.5846 1.4623 0.3653
0.4517 1.5086 0.3653
0.3152 1.5428 0.3652
0.1763 1.5648 0.3652
0.0359 1.5742 0.3652
-0.1048 1.5712 0.3652
-0.2447 1.5556 0.3653
-0.3826 1.5276 0.3653
-0.5174 1.4875 0.3653
-0.6482 1.4354 0.3653
-0.7739 1.3720 0.3654
-0.8933 1.2976 0.3654
-1.0057 1.2128 0.3654
-5.6450 5.6866 1.8585
-6.1301 5.1599 1.8585
-6.2106 4.3433 1.7579
-2.7028 1.5507 0.7228
-2.6965 1.2416 0.6886
-2.6908 0.9583 0.6625
-2.6855 0.6935 0.6433
-2.6804 0.4417 0.6301
-2.6755 0.1982 0.6223
-2.6707 -0.0412 0.6195
-2.6659 -0.2805 0.6218
-2.6610 -0.5234 0.6290
-2.6559 -0.7741 0.6417
-2.6506 -1.0372 0.6602
-2.6449 -1.3183 0.6855
-2.6388 -1.6243 0.7187
-2.6319 -1.9644 0.7618
-5.9678 -5.3468 1.8585
-1.0785 -1.1557 0.3667
-0.9711 -1.2475 0.3667
-0.8560 -1.3294 0.3667
-0.7339 -1.4006 0.3668
-0.6060 -1.4606 0.3668
-0.4732 -1.5090 0.3668
-0.3366 -1.5453 0.3668
-0.1974 -1.5692 0.3668
-0.0565 -1.5806 0.3668
0.0848 -1.5793 0.3668
0.2255 -1.5654 0.3668
0.3643 -1.5389 0.3668
0.5002 -1.5001 0.3668
0.6321 -1.4494 0.3668
0.7589 -1.3870 0.3667
0.8795 -1.3136 0.3667
0.9932 -1.2297 0.3666
5.1377 -5.3113 1.7140
5.6455 -4.8782 1.7306
6.0906 -4.3779 1.7398
6.4660 -3.8219 1.7422
6.7870 -3.2322 1.7436
7.0559 -2.6161 1.7455
7.2667 -1.9773 1.7468
7.2912 0.6035 1.7445
7.2023 1.2509 1.7431
5.0327 1.3461 1.2422
4.7468 1.7368 1.2053
6.5856 3.1015 1.7358
6.2701 3.6698 1.7324
5.9044 4.2056 1.7285
5.4954 4.7073 1.7254
1.0703 1.0970 0.3655
0.9680 1.1880 0.3654
0.8580 1.2695 0.3654
0.7412 1.3409 0.3653
0.6184 1.4016 0.3653
0.4908 1.4512 0.3653
0.3593 1.4891 0.3653
0.2249 1.5152 0.3653
0.0888 1.5292 0.3653
-0.0481 1.5311 0.3653
-0.1846 1.5207 0.3653
-0.3196 1.4982 0.3653
-0.4521 1.4638 0.3653
-0.5810 1.4177 0.3653
-0.7053 1.3603 0.3654
-0.8240 1.2920 0.3654
-0.9362 1.2134 0.3654
-1.0409 1.1251 0.3655
-5.7827 5.2260 1.8585
-6.1937 4.6645 1.8489
-2.7054 1.6815 0.7596
-2.6989 1.3598 0.7206
-2.6930 1.0672 0.6907
-2.6876 0.7959 0.6684
-2.6824 0.5397 0.6524
-2.6774 0.2934 0.6423
-2.6726 0.0528 0.6374
-2.6678 -0.1861 0.6377
-2.6629 -0.4271 0.6431
-2.6579 -0.6742 0.6539
-2.6527 -0.9318 0.6704
-2.6472 -1.2051 0.6936
-2.6413 -1.5003 0.7243
-2.6347 -1.8257 0.7643
-2.6273 -2.1922 0.8159
-1.0879 -1.0865 0.3666
-0.9867 -1.1794 0.3667
-0.8775 -1.2629 0.3667
-0.7614 -1.3363 0.3667
-0.6391 -1.3991 0.3668
-0.5117 -1.4506 0.3668
-0.3801 -1.4906 0.3668
-0.2456 -1.5186 0.3668
-0.1090 -1.5345 0.3668
0.0284 -1.5381 0.3668
0.1656 -1.5294 0.3668
0.3015 -1.5084 0.3668
0.4349 -1.4754 0.3668
0.5648 -1.4306 0.3668
0.6902 -1.3743 0.3667
0.8101 -1.3071 0.3667
0.9234 -1.2294 0.3666
1.0293 -1.1419 0.3666
5.2894 -4.9060 1.7203
5.7499 -4.4481 1.7334
6.1491 -3.9330 1.7405
6.4786 -3.3699 1.7413
6.7600 -2.7807 1.7430
6.9871 -2.1680 1.7444
7.1565 -1.5364 1.7454
7.2667 -0.8916 1.7457
7.3166 -0.2393 1.7456
7.3057 0.4146 1.7449
7.2343 1.0644 1.7436
7.1030 1.7042 1.7418
4.7783 1.6093 1.2023
4.9229 2.1646 1.2823
6.3668 3.5084 1.7334
6.0153 4.0540 1.7297
5.6184 4.5659 1.7263
1.0984 1.0689 0.3655
0.9985 1.1626 0.3654
0.8906 1.2469 0.3654
0.7756 1.3213 0.3653
0.6545 1.3852 0.3653
0.5282 1.4380 0.3653
0.3977 1.4793 0.3653
0.2641 1.5089 0.3653
0.1283 1.5264 0.3653
-0.0085 1.5318 0.3653
-0.1452 1.5249 0.3653
-0.2807 1.5059 0.3653
-0.4141 1.4750 0.3653
-0.5441 1.4322 0.3653
-0.6699 1.3780 0.3654
-0.7903 1.3128 0.3654
-0.9044 1.2372 0.3654
-1.0114 1.1517 0.3655
-5.6455 5.3739 1.8585
-6.1026 4.8485 1.8585
-6.2080 4.0849 1.7720
-2.7007 1.4495 0.7309
-2.6947 1.1495 0.6986
-2.6891 0.8727 0.6741
-2.6839 0.6126 0.6564
-2.6788 0.3639 0.6446
-2.6740 0.1221 0.6383
-2.6692 -0.1168 0.6371
-2.6643 -0.3568 0.6410
-2.6594 -0.6018 0.6502
-2.6543 -0.8559 0.6650
-2.6488 -1.1240 0.6861
-2.6430 -1.4121 0.7145
-2.6367 -1.7278 0.7517
-2.6296 -2.0810 0.7996
-5.6556 -5.3632 1.8585
-1.0168 -1.1534 0.3667
-0.9099 -1.2397 0.3667
-0.7957 -1.3161 0.3667
-0.6751 -1.3820 0.3668
-0.5490 -1.4369 0.3668
-0.4186 -1.4802 0.3668
-0.2848 -1.5117 0.3668
-0.1487 -1.5311 0.3668
-0.0114 -1.5383 0.3668
0.1260 -1.5332 0.3668
0.2623 -1.5157 0.3668
0.3966 -1.4862 0.3668
0.5276 -1.4448 0.3668
0.6544 -1.3918 0.3667
0.7760 -1.3277 0.3667
0.8913 -1.2530 0.3667
0.9995 -1.1682 0.3666
5.1428 -5.0239 1.7143
5.6216 -4.5862 1.7300
6.0394 -4.0869 1.7388
6.3904 -3.5372 1.7417
6.6837 -2.9539 1.7424
6.9272 -2.3476 1.7441
7.1135 -1.7209 1.7452
7.2410 -1.0794 1.7457
7.3084 -0.4286 1.7457
7.3151 0.2254 1.7451
7.2611 0.8770 1.7440
7.1471 1.5203 1.7424
4.8476 1.4941 1.2096
4.7740 1.9533 1.2300
6.4591 3.3443 1.7344
6.1221 3.8995 1.7308
5.7363 4.4202 1.7268
5.3037 4.9007 1.7219
1.0282 1.1364 0.3654
0.9226 1.2235 0.3654
0.8096 1.3009 0.3654
0.6902 1.3678 0.3653
0.5653 1.4239 0.3653
0.4359 1.4686 0.3653
0.3030 1.5016 0.3653
0.1678 1.5226 0.3653
0.0312 1.5315 0.3653
-0.1057 1.5282 0.3653
-0.2417 1.5127 0.3653
-0.3758 1.4852 0.3653
-0.5069 1.4458 0.3653
-0.6340 1.3949 0.3653
-0.7560 1.3328 0.3654
-0.8721 1.2601 0.3654
-0.9812 1.1774 0.3655
-5.5045 5.5182 1.8585
-5.9751 5.0048 1.8585
-6.2025 4.3153 1.8017
-2.7026 1.5419 0.7419
-2.6964 1.2336 0.7070
-2.6907 0.9509 0.6805
-2.6854 0.6866 0.6609
-2.6803 0.4351 0.6475
-2.6754 0.1917 0.6396
-2.6705 -0.0477 0.6369
-2.6657 -0.2870 0.6393
-2.6608 -0.5301 0.6469
-2.6558 -0.7811 0.6601
-2.6504 -1.0446 0.6793
-2.6448 -1.3262 0.7055
-2.6386 -1.6330 0.7399
-2.6317 -1.9742 0.7845
-5.7925 -5.2151 1.8585
-1.0463 -1.1267 0.3666
-0.9417 -1.2157 0.3667
-0.8295 -1.2951 0.3667
-0.7106 -1.3641 0.3668
-0.5860 -1.4222 0.3668
-0.4567 -1.4689 0.3668
-0.3238 -1.5038 0.3668
-0.1883 -1.5268 0.3668
-0.0512 -1.5375 0.3668
0.0862 -1.5359 0.3668
0.2230 -1.5220 0.3668
0.3580 -1.4960 0.3668
0.4901 -1.4580 0.3668
0.6182 -1.4083 0.3667
0.7414 -1.3474 0.3667
0.8586 -1.2757 0.3667
0.9689 -1.1938 0.3666
1.0715 -1.1024 0.3666
5.4892 -4.7201 1.7263
5.9245 -4.2368 1.7368
6.2980 -3.7021 1.7420
6.6029 -3.1249 1.7419
6.8624 -2.5255 1.7436
7.0655 -1.9042 1.7449
7.2102 -1.2663 1.7456
7.2951 -0.6177 1.7457
7.3194 0.0360 1.7453
7.2830 0.6889 1.7444
7.1862 1.3352 1.7429
4.9679 1.3915 1.2302
4.7327 1.7948 1.2069
6.5471 3.1778 1.7353
6.2249 3.7421 1.7319
5.8529 4.2732 1.7280
5.4367 4.7687 1.7244
1.0573 1.1094 0.3654
0.9540 1.1993 0.3654
0.8430 1.2795 0.3654
0.7254 1.3495 0.3653
0.6020 1.4088 0.3653
0.4738 1.4568 0.3653
0.3418 1.4932 0.3653
0.2071 1.5177 0.3653
0.0708 1.5302 0.3653
-0.0661 1.5304 0.3653
-0.2024 1.5184 0.3653
-0.3372 1.4944 0.3653
-0.4693 1.4584 0.3653
-0.5976 1.4108 0.3653
-0.7213 1.3519 0.3654
-0.8391 1.2823 0.3654
-0.9504 1.2024 0.3655
-1.0541 1.1129 0.3655
-5.8436 5.1578 1.8585
-6.1966 4.5537 1.8336
-2.7045 1.6372 0.7539
-2.6981 1.3199 0.7162
-2.6923 1.0306 0.6874
-2.6869 0.7616 0.6659
-2.6817 0.5069 0.6508
-2.6768 0.2616 0.6413
-2.6719 0.0214 0.6371
-2.6671 -0.2175 0.6381
-2.6623 -0.4591 0.6442
-2.6572 -0.7073 0.6557
-2.6520 -0.9667 0.6731
-2.6465 -1.2424 0.6971
-2.6404 -1.5411 0.7290
-2.6338 -1.8712 0.7704
-5.9256 -5.0634 1.8585
-1.0751 -1.0992 0.3666
-0.9728 -1.1909 0.3667
-0.8627 -1.2731 0.3667
-0.7456 -1.3452 0.3667
-0.6226 -1.4065 0.3668
-0.4946 -1.4565 0.3668
-0.3626 -1.4950 0.3668
-0.2277 -1.5214 0.3668
-0.0910 -1.5357 0.3668
0.0465 -1.5376 0.3668
0.1835 -1.5273 0.3668
0.3191 -1.5048 0.3668
0.4522 -1.4702 0.3668
0.5816 -1.4239 0.3667
0.7063 -1.3661 0.3667
0.8253 -1.2975 0.3667
0.9378 -1.2185 0.3666
1.0427 -1.1298 0.3666
5.3534 -4.8498 1.7225
5.8052 -4.3830 1.7345
6.1975 -3.8623 1.7413
6.5175 -3.2936 1.7413
6.7930 -2.7016 1.7432
7.0127 -2.0861 1.7446
7.1744 -1.4524 1.7454
7.2767 -0.8063 1.7458
7.3186 -0.1535 1.7455
7.2998 0.5003 1.7447
7.2204 1.1491 1.7434
5.2348 1.3211 1.2874
4.7640 1.6670 1.2035
6.6307 3.0088 1.7363
6.3235 3.5818 1.7329
5.9655 4.1231 1.7292
5.5641 4.6312 1.7262
1.0857 1.0817 0.3655
0.9847 1.1742 0.3654
0.8759 1.2573 0.3654
0.7601 1.3303 0.3653
0.6382 1.3928 0.3653
0.5113 1.4441 0.3653
0.3803 1.4839 0.3653
0.2463 1.5119 0.3653
0.1104 1.5278 0.3653
-0.0264 1.5316 0.3653
-0.1631 1.5231 0.3653
-0.2984 1.5026 0.3653
-0.4314 1.4700 0.3653
-0.5609 1.4257 0.3653
-0.6860 1.3701 0.3654
-0.8057 1.3035 0.3654
-0.9189 1.2265 0.3654
-1.0249 1.1397 0.3655
-5.7081 5.3073 1.8585
-6.1591 4.7765 1.8585
-2.7065 1.7357 0.7667
-2.6999 1.4085 0.7261
-2.6939 1.1120 0.6949
-2.6884 0.8377 0.6715
-2.6832 0.5794 0.6546
-2.6782 0.3319 0.6435
-2.6733 0.0907 0.6378
-2.6685 -0.1482 0.6373
-2.6637 -0.3886 0.6419
-2.6587 -0.6345 0.6518
-2.6536 -0.8901 0.6674
-2.6481 -1.1605 0.6894
-2.6422 -1.4518 0.7189
-2.6358 -1.7718 0.7573
-2.6285 -2.1309 0.8069
-5.5923 -5.4292 1.8585
-1.0032 -1.1653 0.3667
-0.8953 -1.2503 0.3667
-0.7802 -1.3254 0.3667
-0.6588 -1.3899 0.3668
-0.5321 -1.4432 0.3668
-0.4012 -1.4850 0.3668
-0.2670 -1.5150 0.3668
-0.1307 -1.5328 0.3668
0.0066 -1.5383 0.3668
0.1439 -1.5316 0.3668
0.2801 -1.5126 0.3668
0.4140 -1.4814 0.3668
0.5445 -1.4385 0.3668
0.6707 -1.3840 0.3667
0.7915 -1.3185 0.3667
0.9059 -1.2424 0.3666
1.0131 -1.1564 0.3666
5.2096 -4.9711 1.7170
5.6805 -4.5243 1.7316
6.0896 -4.0175 1.7396
6.4309 -3.4616 1.7415
6.7188 -2.8757 1.7427
6.9549 -2.2664 1.7442
7.1336 -1.6374 1.7453
7.2533 -0.9943 1.7457
7.3127 -0.3429 1.7456
7.3115 0.3112 1.7450
7.2496 0.9620 1.7438
7.1277 1.6038 1.7421
4.7957 1.5399 1.2010
4.8049 2.0320 1.2440
6.4178 3.4190 1.7339
6.0742 3.9699 1.7303
5.6829 4.4863 1.7265
5.2416 4.9586 1.7205
1.0148 1.1484 0.3654
0.9082 1.2342 0.3654
0.7943 1.3102 0.3654
0.6741 1.3758 0.3653
0.5485 1.4304 0.3653
0.4186 1.4736 0.3653
0.2854 1.5050 0.3653
0.1499 1.5245 0.3653
0.0132 1.5317 0.3653
-0.1236 1.5268 0.3653
-0.2594 1.5098 0.3653
-0.3932 1.4806 0.3653
-0.5238 1.4397 0.3653
-0.6503 1.3873 0.3653
-0.7716 1.3239 0.3654
-0.8868 1.2498 0.3654
-0.9950 1.1658 0.3655
-5.5688 5.4533 1.8585
-6.0334 4.9343 1.8585
-6.2050 4.2099 1.7880
-2.7017 1.4997 0.7368
-2.6956 1.1952 0.7031
-2.6900 0.9153 0.6775
-2.6847 0.6529 0.6588
-2.6796 0.4028 0.6461
-2.6747 0.1601 0.6389
-2.6699 -0.0790 0.6369
-2.6651 -0.3186 0.6400
-2.6602 -0.5625 0.6483
-2.6551 -0.8148 0.6622
-2.6497 -1.0804 0.6823
-2.6440 -1.3649 0.7095
-2.6377 -1.6756 0.7451
-2.6307 -2.0221 0.7912
-5.7309 -5.2827 1.8585
-1.0330 -1.1389 0.3666
-0.9273 -1.2267 0.3667
-0.8142 -1.3047 0.3667
-0.6945 -1.3723 0.3668
-0.5693 -1.4290 0.3668
-0.4395 -1.4741 0.3668
-0.3061 -1.5075 0.3668
-0.1703 -1.5289 0.3668
-0.0332 -1.5380 0.3668
0.1042 -1.5348 0.3668
0.2408 -1.5193 0.3668
0.3755 -1.4917 0.3668
0.5071 -1.4521 0.3668
0.6347 -1.4009 0.3667
0.7571 -1.3386 0.3667
0.8735 -1.2655 0.3667
0.9829 -1.1823 0.3666
1.0843 -1.0897 0.3666
5.5497 -4.6599 1.7280
5.9772 -4.1694 1.7378
6.3404 -3.6276 1.7418
6.6401 -3.0476 1.7421
6.8924 -2.4451 1.7438
7.0879 -1.8213 1.7450
7.2248 -1.1817 1.7456
7.3017 -0.5320 1.7457
7.3181 0.1219 1.7452
7.2737 0.7742 1.7442
7.1691 1.4192 1.7427
4.9128 1.4384 1.2206
4.7378 1.8606 1.2137
6.5078 3.2535 1.7349
6.1788 3.8138 1.7314
5.8005 4.3403 1.7275
5.3770 4.8292 1.7233
1.0442 1.1217 0.3654
0.9398 1.2103 0.3654
0.8279 1.2893 0.3654
0.7095 1.3579 0.3653
0.5854 1.4157 0.3653
0.4566 1.4623 0.3653
0.3243 1.4971 0.3653
0.1893 1.5201 0.3653
0.0529 1.5309 0.3653
-0.0840 1.5295 0.3653
-0.2202 1.5160 0.3653
-0.3547 1.4903 0.3653
-0.4864 1.4528 0.3653
-0.6141 1.4037 0.3653
-0.7371 1.3434 0.3654
-0.8541 1.2723 0.3654
-0.9644 1.1912 0.3655
-1.0671 1.1004 0.3655
-5.9037 5.0889 1.8585
-6.1993 4.4447 1.8189
-2.7036 1.5937 0.7484
-2.6973 1.2805 0.7120
-2.6916 0.9942 0.6842
-2.6862 0.7274 0.6636
-2.6811 0.4742 0.6492
-2.6761 0.2299 0.6405
-2.6713 -0.0099 0.6370
-2.6665 -0.2490 0.6386
-2.6616 -0.4912 0.6454
-2.6566 -0.7406 0.6576
-2.6513 -1.0018 0.6758
-2.6457 -1.2802 0.7008
-2.6396 -1.5824 0.7339
-2.6329 -1.9174 0.7766
-5.8658 -5.1326 1.8585
-1.0621 -1.1117 0.3666
-0.9587 -1.2023 0.3667
-0.8477 -1.2832 0.3667
-0.7298 -1.3539 0.3667
-0.6061 -1.4137 0.3668
-0.4775 -1.4623 0.3668
-0.3451 -1.4991 0.3668
-0.2099 -1.5240 0.3668
-0.0730 -1.5366 0.3668
0.0645 -1.5370 0.3668
0.2014 -1.5251 0.3668
0.3368 -1.5009 0.3668
0.4694 -1.4648 0.3668
0.5982 -1.4169 0.3667
0.7223 -1.3577 0.3667
0.8405 -1.2877 0.3667
0.9520 -1.2074 0.3666
1.0558 -1.1174 0.3666
5.4154 -4.7915 1.7242
5.8598 -4.3171 1.7355
6.2450 -3.7909 1.7420
6.5567 -3.2174 1.7415
6.8251 -2.6220 1.7434
7.0372 -2.0038 1.7447
7.1913 -1.3682 1.7455
7.2857 -0.7209 1.7458
7.3196 -0.0676 1.7454
7.2928 0.5858 1.7446
7.2055 1.2335 1.7432
5.0662 1.3420 1.2497
4.7498 1.7248 1.2049
6.5934 3.0857 1.7358
6.2793 3.6548 1.7325
5.9149 4.1915 1.7287
5.5074 4.6945 1.7256
1.0730 1.0944 0.3655
0.9709 1.1857 0.3654
0.8611 1.2675 0.3654
0.7444 1.3391 0.3653
0.6218 1.4001 0.3653
0.4943 1.4500 0.3653
0.3629 1.4883 0.3653
0.2286 1.5147 0.3653
0.0925 1.5290 0.3653
-0.0444 1.5312 0.3653
-0.1809 1.5211 0.3653
-0.3160 1.4990 0.3653
-0.4486 1.4649 0.3653
-0.5776 1.4191 0.3653
-0.7020 1.3620 0.3654
-0.8209 1.2940 0.3654
-0.9332 1.2157 0.3654
-1.0382 1.1277 0.3655
-5.7700 5.2400 1.8585
-6.1932 4.6876 1.8521
-2.7056 1.6907 0.7608
-2.6991 1.3681 0.7216
-2.6932 1.0749 0.6914
-2.6877 0.8031 0.6689
-2.6825 0.5464 0.6528
-2.6776 0.3000 0.6425
-2.6727 0.0593 0.6375
-2.6679 -0.1796 0.6376
-2.6630 -0.4205 0.6429
-2.6581 -0.6674 0.6535
-2.6529 -0.9247 0.6699
-2.6474 -1.1974 0.6928
-2.6414 -1.4920 0.7234
-2.6349 -1.8164 0.7631
-2.6275 -2.1816 0.8143
-1.0905 -1.0838 0.3666
-0.9895 -1.1770 0.3667
-0.8806 -1.2608 0.3667
-0.7646 -1.3345 0.3667
-0.6425 -1.3975 0.3668
-0.5152 -1.4494 0.3668
-0.3837 -1.4897 0.3668
-0.2492 -1.5180 0.3668
-0.1127 -1.5342 0.3668
0.0247 -1.5382 0.3668
0.1619 -1.5298 0.3668
0.2978 -1.5092 0.3668
0.4313 -1.4765 0.3668
0.5614 -1.4320 0.3668
0.6869 -1.3760 0.3667
0.8069 -1.3091 0.3667
0.9204 -1.2317 0.3666
1.0266 -1.1444 0.3666
5.2758 -4.9173 1.7197
5.7384 -4.4614 1.7332
6.1390 -3.9476 1.7404
6.4705 -3.3856 1.7413
6.7530 -2.7970 1.7429
6.9817 -2.1849 1.7444
7.1527 -1.5537 1.7453
7.2645 -0.9092 1.7457
7.3160 -0.2570 1.7456
7.3068 0.3969 1.7449
7.2370 1.0469 1.7436
7.1073 1.6870 1.7418
4.7813 1.5974 1.2020
4.8741 2.1291 1.2683
6.3756 3.4931 1.7335
6.0254 4.0397 1.7298
5.6295 4.5524 1.7263
1.1010 1.0663 0.3655
1.0013 1.1602 0.3654
0.8936 1.2448 0.3654
0.7788 1.3195 0.3653
0.6579 1.3836 0.3653
0.5317 1.4367 0.3653
0.4013 1.4784 0.3653
0.2677 1.5083 0.3653
0.1320 1.5261 0.3653
-0.0048 1.5318 0.3653
-0.1415 1.5253 0.3653
-0.2771 1.5066 0.3653
-0.4105 1.4759 0.3653
-0.5407 1.4335 0.3653
-0.6665 1.3796 0.3654
-0.7871 1.3148 0.3654
-0.9014 1.2394 0.3654
-1.0086 1.1541 0.3655
-5.6324 5.3876 1.8585
-6.0909 4.8632 1.8585
-6.2075 4.1061 1.7747
-2.7009 1.4581 0.7319
-2.6948 1.1573 0.6993
-2.6893 0.8800 0.6747
-2.6840 0.6195 0.6568
-2.6790 0.3706 0.6449
-2.6741 0.1286 0.6384
-2.6693 -0.1104 0.6370
-2.6644 -0.3503 0.6408
-2.6595 -0.5950 0.6498
-2.6544 -0.8488 0.6645
-2.6490 -1.1165 0.6855
-2.6432 -1.4040 0.7137
-2.6369 -1.7188 0.7505
-2.6298 -2.0709 0.7982
-5.6686 -5.3495 1.8585
-1.0196 -1.1510 0.3666
-0.9129 -1.2375 0.3667
-0.7989 -1.3142 0.3667
-0.6784 -1.3804 0.3668
-0.5525 -1.4355 0.3668
-0.4222 -1.4792 0.3668
-0.2884 -1.5110 0.3668
-0.1524 -1.5308 0.3668
-0.0151 -1.5383 0.3668
0.1223 -1.5335 0.3668
0.2586 -1.5164 0.3668
0.3930 -1.4872 0.3668
0.5241 -1.4460 0.3668
0.6511 -1.3934 0.3667
0.7728 -1.3296 0.3667
0.8883 -1.2551 0.3667
0.9967 -1.1707 0.3666
5.1290 -5.0347 1.7138
5.6094 -4.5989 1.7296
6.0289 -4.1011 1.7387
6.3820 -3.5527 1.7417
6.6763 -2.9700 1.7424
6.9213 -2.3643 1.7440
7.1092 -1.7381 1.7451
7.2383 -1.0969 1.7457
7.3073 -0.4463 1.7457
7.3157 0.2077 1.7451
7.2634 0.8594 1.7440
7.1510 1.5030 1.7424
4.8586 1.4846 1.2114
4.7677 1.9372 1.2271
6.4675 3.3288 1.7345
6.1319 3.8849 1.7309
5.7474 4.4066 1.7269
5.3163 4.8886 1.7222
1.0310 1.1339 0.3654
0.9256 1.2213 0.3654
0.8127 1.2989 0.3654
0.6935 1.3661 0.3653
0.5687 1.4225 0.3653
0.4394 1.4675 0.3653
0.3067 1.5008 0.3653
0.1715 1.5222 0.3653
0.0349 1.5314 0.3653
-0.1020 1.5284 0.3653
-0.2380 1.5133 0.3653
-0.3722 1.4861 0.3653
-0.5034 1.4470 0.3653
-0.6306 1.3964 0.3653
-0.7528 1.3346 0.3654
-0.8690 1.2622 0.3654
-0.9784 1.1798 0.3655
-5.4911 5.5315 1.8585
-5.9630 5.0192 1.8585
-6.2019 4.3373 1.8046
-2.7028 1.5507 0.7430
-2.6965 1.2416 0.7079
-2.6908 0.9583 0.6811
-2.6855 0.6935 0.6614
-2.6804 0.4417 0.6478
-2.6755 0.1982 0.6397
-2.6707 -0.0412 0.6369
-2.6659 -0.2805 0.6392
-2.6610 -0.5234 0.6467
-2.6559 -0.7741 0.6597
-2.6506 -1.0372 0.6787
-2.6449 -1.3183 0.7047
-2.6388 -1.6243 0.7389
-2.6319 -1.9644 0.7831
-5.8051 -5.2010 1.8585
-1.0490 -1.1242 0.3666
-0.9446 -1.2134 0.3667
-0.8326 -1.2931 0.3667
-0.7139 -1.3623 0.3667
-0.5895 -1.4207 0.3668
-0.4603 -1.4678 0.3668
-0.3274 -1.5031 0.3668
-0.1920 -1.5263 0.3668
-0.0549 -1.5374 0.3668
0.0825 -1.5361 0.3668
0.2193 -1.5226 0.3668
0.3543 -1.4969 0.3668
0.4865 -1.4592 0.3668
0.6148 -1.4098 0.3667
0.7381 -1.3492 0.3667
0.8555 -1.2777 0.3667
0.9661 -1.1961 0.3666
1.0688 -1.1050 0.3666
5.4767 -4.7324 1.7259
5.9135 -4.2506 1.7365
6.2891 -3.7174 1.7420
6.5951 -3.1408 1.7418
6.8561 -2.5421 1.7436
7.0608 -1.9213 1.7449
7.0898 0.5868 1.7427
7.0036 1.2164 1.7413
5.0939 1.3625 1.2917
4.7707 1.7455 1.2444
6.4045 3.0162 1.7342
6.0981 3.5691 1.7309
5.7428 4.0904 1.7272
5.3408 4.5749 1.7227
1.0419 1.0678 0.3655
0.9423 1.1564 0.3654
0.8352 1.2358 0.3654
0.7215 1.3053 0.3654
0.6020 1.3644 0.3653
0.4778 1.4126 0.3653
0.3498 1.4496 0.3653
0.2189 1.4750 0.3653
0.0864 1.4886 0.3653
-0.0468 1.4904 0.3653
-0.1797 1.4803 0.3653
-0.3111 1.4584 0.3653
-0.4401 1.4249 0.3653
-0.5656 1.3800 0.3654
-0.6866 1.3241 0.3654
-0.8021 1.2577 0.3654
-0.9113 1.1812 0.3655
-1.0132 1.0952 0.3655
-5.6287 5.0869 1.8585
-6.0604 4.5640 1.8585
-2.7054 1.6815 0.7803
-2.6989 1.3598 0.7403
-2.6930 1.0672 0.7096
-2.6876 0.7959 0.6866
-2.6824 0.5397 0.6703
-2.6774 0.2934 0.6598
-2.6726 0.0528 0.6548
-2.6678 -0.1861 0.6551
-2.6629 -0.4271 0.6607
-2.6579 -0.6742 0.6717
-2.6527 -0.9318 0.6888
-2.6472 -1.2051 0.7125
-2.6413 -1.5003 0.7441
-2.6347 -1.8257 0.7852
-2.6273 -2.1922 0.8382
-1.0589 -1.0575 0.3666
-0.9604 -1.1480 0.3666
-0.8541 -1.2292 0.3667
-0.7411 -1.3007 0.3667
-0.6220 -1.3618 0.3667
-0.4980 -1.4119 0.3668
-0.3700 -1.4508 0.3668
-0.2390 -1.4781 0.3668
-0.1061 -1.4936 0.3668
0.0277 -1.4971 0.3668
0.1612 -1.4886 0.3668
0.2934 -1.4682 0.3668
0.4233 -1.4361 0.3668
0.5498 -1.3925 0.3667
0.6718 -1.3377 0.3667
0.7885 -1.2723 0.3667
0.8988 -1.1967 0.3666
1.0019 -1.1115 0.3666
5.1296 -4.7578 1.7139
5.5823 -4.3184 1.7289
5.9754 -3.8219 1.7376
6.3057 -3.2800 1.7412
6.5734 -2.7040 1.7412
6.7941 -2.1081 1.7426
6.9588 -1.4940 1.7435
7.0658 -0.8670 1.7439
7.1144 -0.2327 1.7437
7.1038 0.4032 1.7430
7.0345 1.0350 1.7418
6.9071 1.6572 1.7401
4.8022 1.6174 1.2413
6.4837 2.8509 1.7351
6.1920 3.4120 1.7319
5.8505 3.9430 1.7283
5.4648 4.4411 1.7250
1.0692 1.0405 0.3655
0.9719 1.1317 0.3654
0.8669 1.2138 0.3654
0.7550 1.2862 0.3654
0.6371 1.3484 0.3653
0.5142 1.3998 0.3653
0.3872 1.4400 0.3653
0.2571 1.4688 0.3653
0.1249 1.4859 0.3653
-0.0082 1.4911 0.3653
-0.1413 1.4844 0.3653
-0.2733 1.4659 0.3653
-0.4031 1.4358 0.3653
-0.5297 1.3941 0.3653
-0.6521 1.3414 0.3654
-0.7693 1.2780 0.3654
-0.8804 1.2043 0.3654
-0.9845 1.1211 0.3655
-5.4952 5.2309 1.8585
-5.9402 4.7194 1.8585
-6.1995 4.0793 1.8180
-2.7007 1.4495 0.7509
-2.6947 1.1495 0.7177
-2.6891 0.8727 0.6926
-2.6839 0.6126 0.6744
-2.6788 0.3639 0.6623
-2.6740 0.1221 0.6557
-2.6692 -0.1168 0.6545
-2.6643 -0.3568 0.6585
-2.6594 -0.6018 0.6679
-2.6543 -0.8559 0.6832
-2.6488 -1.1240 0.7049
-2.6430 -1.4121 0.7341
-2.6367 -1.7278 0.7722
-2.6296 -2.0810 0.8215
-1.0859 -1.0297 0.3666
-0.9897 -1.1227 0.3666
-0.8856 -1.2067 0.3667
-0.7745 -1.2811 0.3667
-0.6571 -1.3452 0.3667
-0.5344 -1.3986 0.3668
-0.4074 -1.4408 0.3668
-0.2772 -1.4714 0.3668
-0.1447 -1.4903 0.3668
-0.0111 -1.4973 0.3668
0.1226 -1.4923 0.3668
0.2553 -1.4753 0.3668
0.3860 -1.4466 0.3668
0.5135 -1.4062 0.3667
0.6370 -1.3547 0.3667
0.7553 -1.2923 0.3667
0.8676 -1.2196 0.3666
0.9728 -1.1371 0.3666
1.0703 -1.0456 0.3665
5.4576 -4.4524 1.7254
5.8676 -3.9706 1.7356
6.2194 -3.4425 1.7414
6.4993 -2.8724 1.7407
6.7359 -2.2828 1.7423
6.9169 -1.6734 1.7433
7.0408 -1.0495 1.7439
7.1064 -0.4168 1.7438
7.1130 0.2192 1.7433
7.0606 0.8528 1.7422
6.9499 1.4783 1.7406
4.8756 1.5027 1.2498
4.8056 1.9662 1.2720
6.2817 3.2524 1.7329
5.9543 3.7926 1.7294
5.5837 4.3026 1.7268
1.0958 1.0126 0.3655
1.0009 1.1062 0.3654
0.8981 1.1910 0.3654
0.7881 1.2663 0.3654
0.6718 1.3315 0.3653
0.5503 1.3860 0.3653
0.4243 1.4296 0.3653
0.2950 1.4617 0.3653
0.1633 1.4822 0.3653
0.0304 1.4908 0.3653
-0.1029 1.4876 0.3653
-0.2352 1.4725 0.3653
-0.3658 1.4457 0.3653
-0.4934 1.4074 0.3653
-0.6171 1.3578 0.3654
-0.7359 1.2974 0.3654
-0.8489 1.2267 0.3654
-0.9551 1.1461 0.3655
-1.0538 1.0564 0.3655
-5.8161 4.8716 1.8585
-6.1938 4.3093 1.8484
-2.7026 1.5419 0.7622
-2.6964 1.2336 0.7264
-2.6907 0.9509 0.6991
-2.6854 0.6866 0.6790
-2.6803 0.4351 0.6652
-2.6754 0.1917 0.6571
-2.6705 -0.0477 0.6543
-2.6657 -0.2870 0.6568
-2.6608 -0.5301 0.6646
-2.6558 -0.7811 0.6781
-2.6504 -1.0446 0.6979
-2.6448 -1.3262 0.7248
-2.6386 -1.6330 0.7602
-2.6317 -1.9742 0.8059
-5.6384 -5.0763 1.8585
-1.0184 -1.0967 0.3666
-0.9166 -1.1833 0.3667
-0.8073 -1.2605 0.3667
-0.6916 -1.3277 0.3667
-0.5704 -1.3842 0.3668
-0.4446 -1.4297 0.3668
-0.3152 -1.4637 0.3668
-0.1833 -1.4861 0.3668
-0.0499 -1.4965 0.3668
0.0839 -1.4950 0.3668
0.2171 -1.4815 0.3668
0.3484 -1.4561 0.3668
0.4770 -1.4191 0.3667
0.6017 -1.3707 0.3667
0.7216 -1.3114 0.3667
0.8357 -1.2416 0.3666
0.9431 -1.1619 0.3666
1.0429 -1.0730 0.3666
5.3294 -4.5826 1.7218
5.7558 -4.1161 1.7334
6.1231 -3.5993 1.7399
6.4228 -3.0396 1.7407
6.6730 -2.4558 1.7419
6.8703 -1.8516 1.7431
7.0109 -1.2313 1.7438
7.0934 -0.6006 1.7439
7.1171 0.0350 1.7435
7.0818 0.6699 1.7426
6.9879 1.2983 1.7411
4.9971 1.3996 1.2712
4.7565 1.8039 1.2462
6.3672 3.0904 1.7338
6.0542 3.6394 1.7304
5.6940 4.1573 1.7271
5.2833 4.6342 1.7216
1.0293 1.0800 0.3655
0.9286 1.1674 0.3654
0.8206 1.2455 0.3654
0.7061 1.3137 0.3654
0.5860 1.3714 0.3653
0.4612 1.4181 0.3653
0.3327 1.4536 0.3653
0.2016 1.4774 0.3653
0.0689 1.4895 0.3653
-0.0643 1.4897 0.3653
-0.1971 1.4781 0.3653
-0.3282 1.4547 0.3653
-0.4568 1.4196 0.3653
-0.5818 1.3733 0.3654
-0.7021 1.3160 0.3654
-0.8169 1.2482 0.3654
-0.9251 1.1704 0.3655
-1.0260 1.0833 0.3655
-5.6880 5.0205 1.8585
-6.1135 4.4927 1.8585
-2.7045 1.6372 0.7745
-2.6981 1.3199 0.7358
-2.6923 1.0306 0.7062
-2.6869 0.7616 0.6841
-2.6817 0.5069 0.6686
-2.6768 0.2616 0.6589
-2.6719 0.0214 0.6546
-2.6671 -0.2175 0.6555
-2.6623 -0.4591 0.6618
-2.6572 -0.7073 0.6736
-2.6520 -0.9667 0.6915
-2.6465 -1.2424 0.7162
-2.6404 -1.5411 0.7489
-2.6338 -1.8712 0.7915
-5.7679 -4.9286 1.8585
-1.0464 -1.0699 0.3666
-0.9468 -1.1592 0.3667
-0.8397 -1.2392 0.3667
-0.7258 -1.3093 0.3667
-0.6060 -1.3690 0.3668
-0.4814 -1.4177 0.3668
-0.3530 -1.4551 0.3668
-0.2216 -1.4808 0.3668
-0.0886 -1.4947 0.3668
0.0452 -1.4966 0.3668
0.1786 -1.4866 0.3668
0.3106 -1.4646 0.3668
0.4401 -1.4310 0.3668
0.5661 -1.3859 0.3667
0.6875 -1.3297 0.3667
0.8033 -1.2629 0.3667
0.9128 -1.1860 0.3666
1.0149 -1.0997 0.3666
5.1928 -4.7044 1.7165
5.6376 -4.2564 1.7305
6.0225 -3.7532 1.7384
6.3432 -3.2055 1.7410
6.6055 -2.6270 1.7414
6.8189 -2.0284 1.7428
6.9761 -1.4123 1.7436
7.0756 -0.7840 1.7439
7.1163 -0.1492 1.7437
7.0981 0.4864 1.7429
7.0211 1.1173 1.7416
6.8861 1.7378 1.7398
4.7879 1.6753 1.2426
6.4484 2.9261 1.7347
6.1499 3.4835 1.7315
5.8021 4.0102 1.7278
5.4093 4.5024 1.7241
1.0569 1.0530 0.3655
0.9586 1.1430 0.3654
0.8526 1.2239 0.3654
0.7399 1.2950 0.3654
0.6213 1.3558 0.3653
0.4977 1.4057 0.3653
0.3702 1.4445 0.3653
0.2398 1.4717 0.3653
0.1075 1.4872 0.3653
-0.0257 1.4909 0.3653
-0.1587 1.4827 0.3653
-0.2905 1.4627 0.3653
-0.4199 1.4310 0.3653
-0.5460 1.3879 0.3653
-0.6678 1.3337 0.3654
-0.7842 1.2689 0.3654
-0.8945 1.1939 0.3655
-0.9976 1.1094 0.3655
-5.5562 5.1660 1.8585
-5.9952 4.6494 1.8585
-2.7065 1.7357 0.7876
-2.6999 1.4085 0.7460
-2.6939 1.1120 0.7139
-2.6884 0.8377 0.6898
-2.6832 0.5794 0.6725
-2.6782 0.3319 0.6611
-2.6733 0.0907 0.6553
-2.6685 -0.1482 0.6547
-2.6637 -0.3886 0.6594
-2.6587 -0.6345 0.6696
-2.6536 -0.8901 0.6856
-2.6481 -1.1605 0.7083
-2.6422 -1.4518 0.7385
-2.6358 -1.7718 0.7780
-2.6285 -2.1309 0.8289
-1.0737 -1.0424 0.3666
-0.9765 -1.1342 0.3666
-0.8714 -1.2170 0.3667
-0.7594 -1.2901 0.3667
-0.6412 -1.3528 0.3667
-0.5179 -1.4047 0.3668
-0.3905 -1.4454 0.3668
-0.2599 -1.4746 0.3668
-0.1272 -1.4919 0.3668
0.0065 -1.4973 0.3668
0.1401 -1.4907 0.3668
0.2726 -1.4722 0.3668
0.4029 -1.4419 0.3668
0.5300 -1.4001 0.3667
0.6528 -1.3471 0.3667
0.7704 -1.2833 0.3667
0.8818 -1.2093 0.3666
0.9861 -1.1256 0.3666
1.0825 -1.0329 0.3665
5.5145 -4.3921 1.7270
5.9169 -3.9036 1.7365
6.2593 -3.3692 1.7414
6.5334 -2.7963 1.7409
6.7628 -2.2038 1.7424
6.9365 -1.5922 1.7434
7.0528 -0.9669 1.7439
7.1106 -0.3334 1.7438
7.1094 0.3026 1.7432
7.0494 0.9355 1.7420
6.9311 1.5595 1.7404
4.8221 1.5484 1.2407
4.8371 2.0457 1.2866
6.2416 3.3251 1.7324
5.9077 3.8611 1.7289
5.5307 4.3661 1.7262
1.0838 1.0253 0.3655
0.9879 1.1178 0.3654
0.8840 1.2014 0.3654
0.7732 1.2754 0.3654
0.6562 1.3393 0.3653
0.5340 1.3924 0.3653
0.4075 1.4344 0.3653
0.2778 1.4650 0.3653
0.1459 1.4840 0.3653
0.0129 1.4911 0.3653
-0.1203 1.4863 0.3653
-0.2525 1.4697 0.3653
-0.3827 1.4413 0.3653
-0.5099 1.4015 0.3653
-0.6330 1.3505 0.3654
-0.7511 1.2887 0.3654
-0.8633 1.2166 0.3654
-0.9685 1.1349 0.3655
-1.0661 1.0440 0.3655
-5.8728 4.8030 1.8585
-6.1964 4.2041 1.8343
-2.7017 1.4997 0.7570
-2.6956 1.1952 0.7223
-2.6900 0.9153 0.6961
-2.6847 0.6529 0.6768
-2.6796 0.4028 0.6638
-2.6747 0.1601 0.6564
-2.6699 -0.0790 0.6543
-2.6651 -0.3186 0.6575
-2.6602 -0.5625 0.6661
-2.6551 -0.8148 0.6804
-2.6497 -1.0804 0.7010
-2.6440 -1.3649 0.7289
-2.6377 -1.6756 0.7655
-2.6307 -2.0221 0.8128
-5.5784 -5.1421 1.8585
-1.0055 -1.1085 0.3666
-0.9026 -1.1940 0.3667
-0.7925 -1.2699 0.3667
-0.6760 -1.3357 0.3667
-0.5541 -1.3908 0.3668
-0.4278 -1.4348 0.3668
-0.2980 -1.4673 0.3668
-0.1658 -1.4881 0.3668
-0.0323 -1.4970 0.3668
0.1015 -1.4939 0.3668
0.2344 -1.4788 0.3668
0.3655 -1.4519 0.3668
0.4936 -1.4134 0.3667
0.6178 -1.3636 0.3667
0.7369 -1.3029 0.3667
0.8502 -1.2317 0.3666
0.9567 -1.1508 0.3666
1.0554 -1.0606 0.3666
5.3879 -4.5240 1.7235
5.8069 -4.0506 1.7344
6.1673 -3.5286 1.7406
6.4574 -2.9638 1.7405
6.7020 -2.3776 1.7421
6.8920 -1.7710 1.7432
7.0251 -1.1490 1.7438
7.0999 -0.5173 1.7439
7.1159 0.1185 1.7434
7.0728 0.7529 1.7424
6.9713 1.3800 1.7409
4.9414 1.4468 1.2613
4.7688 1.8728 1.2551
6.3290 3.1641 1.7334
6.0094 3.7092 1.7300
5.6445 4.2235 1.7270
5.2237 4.6915 1.7200
1.0165 1.0919 0.3655
0.9149 1.1782 0.3654
0.8059 1.2550 0.3654
0.6906 1.3219 0.3653
0.5698 1.3781 0.3653
0.4445 1.4234 0.3653
0.3156 1.4574 0.3653
0.1843 1.4797 0.3653
0.0514 1.4902 0.3653
-0.0818 1.4889 0.3653
-0.2144 1.4757 0.3653
-0.3453 1.4507 0.3653
-0.4734 1.4142 0.3653
-0.5978 1.3664 0.3654
-0.7175 1.3077 0.3654
-0.8315 1.2385 0.3654
-0.9388 1.1595 0.3655
-1.0387 1.0712 0.3655
-5.7466 4.9534 1.8585
-6.1658 4.4206 1.8585
-2.7036 1.5937 0.7688
-2.6973 1.2805 0.7314
-2.6916 0.9942 0.7029
-2.6862 0.7274 0.6817
-2.6811 0.4742 0.6670
-2.6761 0.2298 0.6580
-2.6713 -0.0099 0.6544
-2.6665 -0.2490 0.6561
-2.6616 -0.4912 0.6630
-2.6566 -0.7406 0.6756
-2.6513 -1.0018 0.6943
-2.6457 -1.2802 0.7200
-2.6396 -1.5824 0.7539
-2.6329 -1.9174 0.7979
-5.7096 -4.9960 1.8585
-1.0338 -1.0821 0.3666
-0.9332 -1.1702 0.3667
-0.8251 -1.2490 0.3667
-0.7104 -1.3178 0.3667
-0.5899 -1.3760 0.3668
-0.4648 -1.4233 0.3668
-0.3359 -1.4591 0.3668
-0.2043 -1.4833 0.3668
-0.0710 -1.4956 0.3668
0.0628 -1.4960 0.3668
0.1961 -1.4844 0.3668
0.3278 -1.4609 0.3668
0.4569 -1.4257 0.3668
0.5823 -1.3791 0.3667
0.7030 -1.3215 0.3667
0.8181 -1.2534 0.3667
0.9266 -1.1752 0.3666
1.0277 -1.0877 0.3666
5.2554 -4.6500 1.7190
5.6922 -4.1937 1.7320
6.0686 -3.6838 1.7391
6.3798 -3.1306 1.7409
6.6366 -2.5497 1.7416
6.8428 -1.9485 1.7429
6.9925 -1.3304 1.7437
7.0843 -0.7009 1.7439
7.1173 -0.0657 1.7436
7.0913 0.5697 1.7428
7.0067 1.1995 1.7414
5.1282 1.3584 1.2996
4.7736 1.7335 1.2441
6.4121 3.0008 1.7343
6.1070 3.5545 1.7310
5.7530 4.0768 1.7273
5.3526 4.5626 1.7230
1.0445 1.0653 0.3655
0.9451 1.1541 0.3654
0.8382 1.2338 0.3654
0.7246 1.3036 0.3654
0.6053 1.3629 0.3653
0.4812 1.4115 0.3653
0.3533 1.4487 0.3653
0.2225 1.4744 0.3653
0.0900 1.4884 0.3653
-0.0432 1.4905 0.3653
-0.1761 1.4807 0.3653
-0.3076 1.4592 0.3653
-0.4367 1.4259 0.3653
-0.5623 1.3814 0.3653
-0.6834 1.3258 0.3654
-0.7991 1.2596 0.3654
-0.9084 1.1834 0.3655
-1.0106 1.0977 0.3655
-5.6164 5.1005 1.8585
-6.0493 4.5787 1.8585
-2.7056 1.6907 0.7816
-2.6991 1.3681 0.7413
-2.6932 1.0749 0.7104
-2.6877 0.8031 0.6872
-2.6825 0.5464 0.6706
-2.6776 0.3000 0.6600
-2.6727 0.0593 0.6549
-2.6679 -0.1796 0.6550
-2.6630 -0.4205 0.6604
-2.6581 -0.6674 0.6714
-2.6529 -0.9247 0.6882
-2.6474 -1.1974 0.7118
-2.6414 -1.4920 0.7432
-2.6349 -1.8164 0.7840
-2.6275 -2.1816 0.8366
-1.0614 -1.0550 0.3666
-0.9631 -1.1456 0.3666
-0.8571 -1.2272 0.3667
-0.7442 -1.2989 0.3667
-0.6253 -1.3603 0.3667
-0.5014 -1.4107 0.3668
-0.3735 -1.4499 0.3668
-0.2426 -1.4775 0.3668
-0.1097 -1.4933 0.3668
0.0240 -1.4971 0.3668
0.1576 -1.4890 0.3668
0.2899 -1.4689 0.3668
0.4198 -1.4371 0.3668
0.5464 -1.3938 0.3667
0.6686 -1.3393 0.3667
0.7854 -1.2742 0.3667
0.8959 -1.1988 0.3666
0.9992 -1.1139 0.3666
5.1165 -4.7688 1.7134
5.5708 -4.3311 1.7286
5.9655 -3.8360 1.7374
6.2978 -3.2953 1.7412
6.5666 -2.7198 1.7412
6.7888 -2.1245 1.7426
6.9551 -1.5108 1.7435
7.0637 -0.8841 1.7439
7.1138 -0.2499 1.7437
7.1049 0.3860 1.7431
7.0372 1.0180 1.7418
6.9113 1.6405 1.7401
4.8052 1.6054 1.2411
4.9756 2.1734 1.3301
6.2005 3.3972 1.7320
5.8604 3.9290 1.7284
5.4762 4.4284 1.7252
1.0717 1.0379 0.3655
0.9747 1.1293 0.3654
0.8699 1.2117 0.3654
0.7581 1.2844 0.3654
0.6404 1.3469 0.3653
0.5176 1.3986 0.3653
0.3906 1.4391 0.3653
0.2606 1.4682 0.3653
0.1285 1.4856 0.3653
-0.0046 1.4911 0.3653
-0.1377 1.4848 0.3653
-0.2697 1.4666 0.3653
-0.3996 1.4367 0.3653
-0.5263 1.3954 0.3653
-0.6488 1.3430 0.3654
-0.7662 1.2798 0.3654
-0.8775 1.2064 0.3654
-0.9818 1.1234 0.3655
-5.4825 5.2442 1.8585
-5.9288 4.7338 1.8585
-6.1990 4.1005 1.8207
-2.7009 1.4581 0.7519
-2.6948 1.1572 0.7185
-2.6893 0.8800 0.6932
-2.6840 0.6195 0.6748
-2.6790 0.3706 0.6625
-2.6741 0.1286 0.6558
-2.6693 -0.1104 0.6545
-2.6644 -0.3503 0.6583
-2.6595 -0.5950 0.6676
-2.6544 -0.8488 0.6827
-2.6490 -1.1165 0.7042
-2.6432 -1.4040 0.7332
-2.6369 -1.7188 0.7711
-2.6298 -2.0709 0.8200
-1.0883 -1.0271 0.3666
-0.9924 -1.1203 0.3666
-0.8886 -1.2045 0.3667
-0.7776 -1.2792 0.3667
-0.6603 -1.3436 0.3667
-0.5378 -1.3973 0.3668
-0.4109 -1.4398 0.3668
-0.2807 -1.4707 0.3668
-0.1483 -1.4900 0.3668
-0.0147 -1.4973 0.3668
0.1190 -1.4926 0.3668
0.2517 -1.4759 0.3668
0.3825 -1.4475 0.3668
0.5101 -1.4075 0.3667
0.6337 -1.3562 0.3667
0.7522 -1.2941 0.3667
0.8646 -1.2217 0.3666
0.9701 -1.1395 0.3666
1.0678 -1.0482 0.3665
5.4457 -4.4647 1.7251
5.8573 -3.9844 1.7354
6.2106 -3.4573 1.7413
6.4921 -2.8880 1.7406
6.7302 -2.2991 1.7422
6.9128 -1.6901 1.7433
7.0382 -1.0666 1.7438
7.1054 -0.4340 1.7438
7.1136 0.2020 1.7433
7.0628 0.8357 1.7422
6.9537 1.4616 1.7407
4.8867 1.4932 1.2517
4.7992 1.9500 1.2690
6.2899 3.2374 1.7330
5.9638 3.7784 1.7295
5.5942 4.2892 1.7269
1.0983 1.0099 0.3655
1.0036 1.1038 0.3655
0.9010 1.1888 0.3654
0.7912 1.2644 0.3654
0.6751 1.3299 0.3653
0.5536 1.3847 0.3653
0.4278 1.4285 0.3653
0.2985 1.4610 0.3653
0.1669 1.4818 0.3653
0.0340 1.4907 0.3653
-0.0992 1.4878 0.3653
-0.2317 1.4731 0.3653
-0.3623 1.4466 0.3653
-0.4900 1.4085 0.3653
-0.6138 1.3593 0.3654
-0.7328 1.2992 0.3654
-0.8459 1.2287 0.3654
-0.9524 1.1484 0.3655
-1.0512 1.0590 0.3655
-5.8043 4.8856 1.8585
-6.1933 4.3312 1.8514
-2.7028 1.5507 0.7633
-2.6965 1.2416 0.7272
-2.6908 0.9583 0.6997
-2.6855 0.6935 0.6795
-2.6804 0.4417 0.6655
-2.6755 0.1982 0.6572
-2.6707 -0.0412 0.6543
-2.6659 -0.2805 0.6567
-2.6610 -0.5234 0.6643
-2.6559 -0.7741 0.6777
-2.6506 -1.0372 0.6973
-2.6449 -1.3183 0.7240
-2.6388 -1.6243 0.7591
-2.6319 -1.9644 0.8045
-5.6506 -5.0626 1.8585
-1.0211 -1.0942 0.3666
-0.9194 -1.1811 0.3667
-0.8104 -1.2586 0.3667
-0.6948 -1.3260 0.3667
-0.5737 -1.3828 0.3668
-0.4480 -1.4286 0.3668
-0.3187 -1.4630 0.3668
-0.1868 -1.4856 0.3668
-0.0535 -1.4964 0.3668
0.0803 -1.4952 0.3668
0.2135 -1.4820 0.3668
0.3449 -1.4569 0.3668
0.4736 -1.4202 0.3667
0.5984 -1.3722 0.3667
0.7184 -1.3132 0.3667
0.8327 -1.2437 0.3666
0.9403 -1.1642 0.3666
1.0404 -1.0755 0.3666
5.3172 -4.5946 1.7215
5.7451 -4.1296 1.7332
6.1138 -3.6138 1.7398
6.4155 -3.0552 1.7407
6.6668 -2.4719 1.7418
6.8657 -1.8682 1.7430
6.8987 0.5710 1.7410
6.8149 1.1836 1.7397
5.1776 1.3849 1.3480
4.7949 1.7543 1.2841
6.2327 2.9353 1.7327
5.9348 3.4735 1.7295
5.5940 3.9845 1.7274
1.1038 0.9455 0.3655
1.0148 1.0401 0.3655
0.9178 1.1264 0.3654
0.8135 1.2037 0.3654
0.7027 1.2714 0.3654
0.5864 1.3290 0.3653
0.4654 1.3760 0.3653
0.3407 1.4120 0.3653
0.2133 1.4367 0.3653
0.0842 1.4500 0.3653
-0.0456 1.4517 0.3653
-0.1750 1.4419 0.3653
-0.3031 1.4206 0.3653
-0.4287 1.3879 0.3653
-0.5509 1.3442 0.3654
-0.6688 1.2898 0.3654
-0.7813 1.2250 0.3654
-0.8877 1.1505 0.3655
-0.9869 1.0668 0.3655
-5.4824 4.9546 1.8585
-5.9028 4.4454 1.8585
-2.7054 1.6815 0.8012
-2.6989 1.3598 0.7601
-2.6930 1.0672 0.7286
-2.6876 0.7959 0.7050
-2.6824 0.5397 0.6882
-2.6774 0.2934 0.6774
-2.6726 0.0528 0.6723
-2.6678 -0.1861 0.6726
-2.6629 -0.4271 0.6783
-2.6579 -0.6742 0.6897
-2.6527 -0.9318 0.7072
-2.6472 -1.2051 0.7315
-2.6413 -1.5003 0.7640
-2.6347 -1.8257 0.8062
-2.6273 -2.1922 0.8606
-1.0313 -1.0300 0.3666
-0.9354 -1.1181 0.3666
-0.8319 -1.1972 0.3667
-0.7218 -1.2668 0.3667
-0.6058 -1.3263 0.3667
-0.4850 -1.3752 0.3668
-0.3604 -1.4130 0.3668
-0.2328 -1.4396 0.3668
-0.1033 -1.4547 0.3668
0.0269 -1.4581 0.3668
0.1570 -1.4498 0.3668
0.2858 -1.4300 0.3668
0.4123 -1.3987 0.3667
0.5354 -1.3562 0.3667
0.6543 -1.3029 0.3667
0.7679 -1.2391 0.3666
0.8754 -1.1655 0.3666
0.9758 -1.0826 0.3666
1.0684 -0.9910 0.3665
5.4232 -4.1953 1.7245
5.8091 -3.7156 1.7344
6.1374 -3.1924 1.7399
6.3978 -2.6318 1.7399
6.6109 -2.0513 1.7409
6.7711 -1.4537 1.7418
6.8752 -0.8436 1.7422
6.9224 -0.2264 1.7420
6.9123 0.3923 1.7413
6.8450 1.0071 1.7401
6.7212 1.6126 1.7384
4.8265 1.6255 1.2809
6.3097 2.7743 1.7336
6.0261 3.3206 1.7305
5.6964 3.8391 1.7277
5.3142 4.3187 1.7223
1.0414 1.0135 0.3655
0.9467 1.1023 0.3655
0.8444 1.1823 0.3654
0.7354 1.2529 0.3654
0.6206 1.3134 0.3654
0.5009 1.3635 0.3653
0.3771 1.4027 0.3653
0.2504 1.4307 0.3653
0.1217 1.4473 0.3653
-0.0080 1.4524 0.3653
-0.1377 1.4459 0.3653
-0.2662 1.4279 0.3653
-0.3926 1.3985 0.3653
-0.5159 1.3580 0.3654
-0.6352 1.3066 0.3654
-0.7493 1.2448 0.3654
-0.8576 1.1731 0.3655
-0.9590 1.0919 0.3655
-1.0528 1.0021 0.3656
-5.7858 4.5967 1.8585
-6.1730 4.0619 1.8585
-2.7007 1.4495 0.7709
-2.6947 1.1495 0.7368
-2.6891 0.8727 0.7111
-2.6839 0.6126 0.6924
-2.6788 0.3639 0.6799
-2.6740 0.1221 0.6732
-2.6692 -0.1168 0.6720
-2.6643 -0.3568 0.6761
-2.6594 -0.6018 0.6858
-2.6543 -0.8559 0.7014
-2.6488 -1.1240 0.7237
-2.6430 -1.4121 0.7537
-2.6367 -1.7278 0.7928
-2.6296 -2.0810 0.8434
-1.0576 -1.0029 0.3666
-0.9639 -1.0934 0.3666
-0.8626 -1.1753 0.3667
-0.7543 -1.2477 0.3667
-0.6399 -1.3101 0.3667
-0.5205 -1.3621 0.3667
-0.3968 -1.4032 0.3668
-0.2700 -1.4331 0.3668
-0.1410 -1.4515 0.3668
-0.0108 -1.4583 0.3668
0.1194 -1.4534 0.3668
0.2487 -1.4369 0.3668
0.3759 -1.4089 0.3667
0.5002 -1.3696 0.3667
0.6204 -1.3194 0.3667
0.7356 -1.2586 0.3667
0.8450 -1.1878 0.3666
0.9475 -1.1075 0.3666
1.0425 -1.0184 0.3665
5.3022 -4.3256 1.7210
5.7045 -3.8603 1.7324
6.0479 -3.3476 1.7386
6.3287 -2.7970 1.7403
6.5543 -2.2213 1.7406
6.7304 -1.6282 1.7416
