ply
format ascii 1.0
element vertex 2092
property float32 x
property float32 y
property float32 z
end_header
2.5296 2.3702 0.2353
19.0633 21.3612 1.9430
12.6285 16.9857 1.4364
11.2324 18.3200 1.4583
13.3675 26.9324 2.0405
11.2060 28.7709 2.0954
8.5884 29.6312 2.0937
3.1342 16.0530 1.1100
3.1904 30.7110 2.0954
0.1869 13.1475 0.8923
-2.3162 30.7892 2.0954
-5.0528 30.4599 2.0954
-7.7492 29.8879 2.0954
-5.7832 16.1949 1.1670
-5.8052 12.5819 0.9404
-7.1227 12.3943 0.9701
-9.5595 13.6516 1.1310
-11.2325 13.3306 1.1830
-17.6556 17.5117 1.6876
-20.8281 17.2606 1.8358
-21.4882 14.7864 1.7702
-21.4793 12.1108 1.6734
-21.4712 9.6944 1.5988
-21.4638 7.4673 1.5423
-20.7879 5.2086 1.4544
-22.3810 3.5247 1.5376
-20.7752 1.3920 1.4131
-25.6248 -0.5740 1.7394
-9.3358 -1.0471 0.6375
-6.4142 -1.3069 0.4442
-6.1035 -1.8233 0.4323
-5.8473 -2.3328 0.4272
-5.8519 -2.9645 0.4452
-5.8570 -3.6574 0.4686
-5.8627 -4.4338 0.4988
-5.8693 -5.3248 0.5378
-14.4074 -15.6306 1.4426
-12.7665 -16.6068 1.4215
-11.0952 -17.4596 1.4039
-9.3925 -18.1834 1.3889
-7.6647 -18.7800 1.3765
-5.9170 -19.2512 1.3668
-4.1557 -19.6035 1.3599
-2.3846 -19.8438 1.3564
-0.6047 -19.9533 1.3547
1.1775 -19.9321 1.3550
2.9552 -19.7802 1.3573
4.7223 -19.4989 1.3615
6.4802 -19.1115 1.3695
8.2008 -18.5525 1.3766
9.0831 -16.4110 1.2729
9.1794 -13.5682 1.1117
10.2930 -12.6220 1.1053
10.2860 -10.5357 0.9992
10.2802 -8.8020 0.9184
2.5045 -1.7834 0.2087
2.5064 -1.4668 0.1971
2.5081 -1.1814 0.1881
2.5097 -0.9187 0.1814
2.5112 -0.6723 0.1764
2.5126 -0.4372 0.1731
2.5140 -0.2091 0.1712
2.5154 0.0159 0.1707
2.5167 0.2414 0.1716
2.5181 0.4710 0.1739
2.5196 0.7088 0.1776
2.5211 0.9591 0.1831
2.5227 1.2274 0.1904
2.5245 1.5205 0.2000
2.5265 1.8476 0.2124
2.5287 2.2211 0.2284
19.7404 20.7371 1.9430
13.1096 16.4970 1.4300
11.7614 17.8666 1.4516
14.0824 26.2197 2.0198
12.0577 28.2369 2.0837
9.5320 29.3246 2.0926
3.4192 14.9407 1.0401
4.1764 30.5925 2.0954
0.6102 13.1478 0.8932
-0.5646 13.1468 0.8930
-4.0709 30.6067 2.0954
-6.7840 30.1217 2.0954
-5.6006 17.4347 1.2427
-5.7466 13.5872 1.0012
-6.6003 12.3915 0.9528
-9.5544 14.6238 1.1855
-10.5156 13.3270 1.1521
-19.6476 20.7829 1.9409
-21.3833 18.9130 1.9373
-21.4917 15.8308 1.8115
-21.4824 13.0404 1.7055
-21.4740 10.5397 1.6234
-21.4664 8.2513 1.5607
-21.4593 6.1166 1.5143
-22.3835 4.2670 1.5464
-22.3767 2.2241 1.5261
-25.7884 0.2519 1.7502
-9.3348 -0.7440 0.6355
-6.7688 -1.1538 0.4660
-6.2188 -1.6419 0.4365
-5.8903 -2.1330 0.4251
-5.8502 -2.7308 0.4381
-5.8551 -3.3995 0.4595
-5.8606 -4.1428 0.4871
-5.8668 -4.9882 0.5226
-15.0039 -15.2622 1.4524
-13.3597 -16.2676 1.4286
-11.7012 -17.1674 1.4099
-10.0090 -17.9374 1.3940
-8.2896 -18.5796 1.3807
-6.5485 -19.0958 1.3700
-4.7908 -19.4875 1.3619
-3.0239 -19.7723 1.3574
-1.2464 -19.9290 1.3551
0.5357 -19.9548 1.3547
2.3158 -19.8500 1.3562
4.0873 -19.6144 1.3597
5.8486 -19.2653 1.3663
7.5966 -18.7985 1.3760
8.5196 -16.6342 1.2683
10.0758 -15.9772 1.2819
10.2958 -13.4891 1.1516
10.2884 -11.2396 1.0341
10.2822 -9.3934 0.9451
2.5038 -1.9071 0.2136
2.5058 -1.5768 0.2009
2.5076 -1.2812 0.1911
2.5092 -1.0111 0.1836
2.5107 -0.7595 0.1780
2.5121 -0.5209 0.1741
2.5135 -0.2907 0.1717
2.5149 -0.0650 0.1707
2.5162 0.1599 0.1711
2.5176 0.3876 0.1729
2.5190 0.6219 0.1761
2.5205 0.8671 0.1809
2.5221 1.1283 0.1875
2.5238 1.4116 0.1962
2.5257 1.7252 0.2076
2.5279 2.0802 0.2222
20.3971 20.0916 1.9430
13.5869 16.0121 1.4251
12.2518 17.3684 1.4424
10.8727 18.7693 1.4720
12.8019 27.4959 2.0583
10.4827 29.0377 2.0951
7.8489 29.8477 2.0944
5.1581 30.4423 2.0954
2.4227 30.7810 2.0954
-0.1414 13.1472 0.8923
-3.0865 30.7216 2.0954
-5.8117 30.3243 2.0954
-8.4930 29.6851 2.0954
-5.7904 15.0199 1.0924
-6.0958 12.3888 0.9370
-7.5418 12.3966 0.9847
-9.8344 13.3235 1.1238
-18.9809 21.4174 1.9421
-20.7781 19.6043 1.9387
-21.0031 16.5387 1.8142
-21.4856 14.0073 1.7406
-21.4769 11.4125 1.6505
-21.4691 9.0551 1.5813
-21.4618 6.8709 1.5293
-20.9709 4.7013 1.4585
-22.3791 2.9539 1.5319
-25.2587 1.0599 1.7157
-25.3655 -1.2024 1.7233
-9.3366 -1.2840 0.6396
-6.3303 -1.4553 0.4408
-6.0116 -1.9606 0.4291
-5.8486 -2.5043 0.4318
-5.8533 -3.1512 0.4511
-5.8585 -3.8649 0.4763
-5.8644 -4.6697 0.5087
-15.1953 -14.4936 1.4251
-13.9476 -15.9113 1.4359
-12.3027 -16.8584 1.4163
-10.6220 -17.6749 1.3994
-8.9117 -18.3629 1.3852
-7.1778 -18.9243 1.3735
-5.4255 -19.3607 1.3645
-3.6618 -19.6838 1.3587
-1.8875 -19.8876 1.3557
-0.1063 -19.9606 1.3546
1.6752 -19.9028 1.3555
3.4506 -19.7143 1.3582
5.2152 -19.4030 1.3635
6.9690 -18.9810 1.3722
8.2176 -17.4021 1.3060
9.5183 -16.2273 1.2767
10.2990 -14.4331 1.2033
10.2909 -11.9951 1.0726
10.2843 -10.0208 0.9745
2.5030 -2.0370 0.2190
2.5051 -1.6912 0.2051
2.5069 -1.3843 0.1943
2.5086 -1.1059 0.1861
2.5102 -0.8484 0.1798
2.5116 -0.6056 0.1753
2.5130 -0.3729 0.1724
2.5144 -0.1460 0.1709
2.5158 0.0787 0.1708
2.5171 0.3050 0.1721
2.5185 0.5365 0.1748
2.5200 0.7773 0.1790
2.5215 1.0320 0.1849
2.5232 1.3065 0.1928
2.5250 1.6081 0.2032
2.5271 1.9467 0.2165
2.5294 2.3361 0.2337
19.2166 21.2235 1.9430
12.7365 16.8760 1.4348
11.3760 18.2580 1.4599
13.5288 26.7716 2.0356
11.4127 28.6896 2.0954
8.8005 29.5653 2.0934
3.1344 15.4615 1.0706
3.4114 30.6872 2.0954
0.2815 13.1476 0.8924
-0.8939 13.1465 0.8942
-4.8331 30.4956 2.0954
-7.5339 29.9429 2.0954
-5.7810 16.5641 1.1906
-5.8038 12.8206 0.9551
-7.0042 12.3937 0.9661
-9.5584 13.8613 1.1427
-11.0688 13.3298 1.1758
-17.4948 17.6037 1.6843
-20.8290 17.5157 1.8469
-21.4889 15.0159 1.7791
-21.4799 12.3158 1.6803
-21.4718 9.8813 1.6041
-21.4644 7.6411 1.5462
-20.7885 5.3681 1.4571
-22.3815 3.6900 1.5394
-20.7757 1.5423 1.4138
-25.6973 -0.3906 1.7441
-9.3356 -0.9792 0.6370
-6.4379 -1.2635 0.4452
-6.1296 -1.7832 0.4332
-5.8469 -2.2840 0.4260
-5.8515 -2.9116 0.4435
-5.8566 -3.5988 0.4665
-5.8622 -4.3675 0.4961
-5.8687 -5.2478 0.5343
-14.5412 -15.5497 1.4448
-12.8997 -16.5325 1.4231
-11.2311 -17.3957 1.4052
-9.5307 -18.1298 1.3900
-7.8047 -18.7365 1.3774
-6.0585 -19.2178 1.3675
-4.2979 -19.5784 1.3603
-2.5278 -19.8293 1.3566
-0.7482 -19.9494 1.3548
1.0340 -19.9387 1.3549
2.8123 -19.7973 1.3570
4.5802 -19.5251 1.3610
6.3391 -19.1473 1.3688
8.0821 -18.6457 1.3791
8.9573 -16.4623 1.2719
9.1012 -13.6634 1.1141
10.2936 -12.8099 1.1152
10.2865 -10.6890 1.0067
10.2807 -8.9314 0.9242
2.5044 -1.8106 0.2097
2.5063 -1.4911 0.1979
2.5080 -1.2034 0.1888
2.5096 -0.9391 0.1818
2.5111 -0.6917 0.1768
2.5125 -0.4559 0.1733
2.5139 -0.2273 0.1713
2.5153 -0.0022 0.1707
2.5166 0.2231 0.1715
2.5180 0.4523 0.1736
2.5195 0.6892 0.1773
2.5210 0.9383 0.1825
2.5226 1.2049 0.1897
2.5243 1.4958 0.1991
2.5263 1.8197 0.2113
2.5285 2.1889 0.2270
19.8891 20.5946 1.9430
13.2167 16.3883 1.4288
11.8717 17.7545 1.4494
14.2403 26.0621 2.0155
12.2258 28.0696 2.0778
9.7417 29.2518 2.0923
3.5325 14.9407 1.0419
4.3964 30.5616 2.0954
0.7051 13.1479 0.8936
-0.4699 13.1469 0.8928
-3.8503 30.6352 2.0954
-6.5622 30.1701 2.0954
-5.5076 17.5785 1.2501
-5.7967 13.9854 1.0274
-6.4860 12.3909 0.9491
-7.9740 12.3989 1.0004
-10.3602 13.3262 1.1455
-19.5003 20.9267 1.9412
-21.2499 19.0694 1.9376
-21.4925 16.0712 1.8212
-21.4831 13.2533 1.7130
-21.4747 10.7325 1.6292
-21.4670 8.4293 1.5651
-21.4598 6.2841 1.5175
-22.3840 4.4342 1.5486
-22.3772 2.3869 1.5272
-25.7859 0.4375 1.7502
-9.6992 -0.7028 0.6599
-7.0653 -1.1520 0.4858
-6.2440 -1.6006 0.4374
-5.9177 -2.0949 0.4260
-5.8498 -2.6796 0.4367
-5.8547 -3.3431 0.4575
-5.8601 -4.0795 0.4846
-5.8663 -4.9154 0.5194
-15.1368 -15.1774 1.4547
-13.4917 -16.1894 1.4302
-11.8361 -17.0998 1.4113
-10.1465 -17.8801 1.3952
-8.4290 -18.5326 1.3817
-6.6895 -19.0588 1.3708
-4.9330 -19.4605 1.3624
-3.1667 -19.7540 1.3577
-1.3899 -19.9212 1.3552
0.3921 -19.9576 1.3547
2.1726 -19.8633 1.3560
3.9450 -19.6382 1.3593
5.7071 -19.2975 1.3657
7.4564 -18.8408 1.3751
8.3932 -16.6820 1.2673
9.9514 -16.0345 1.2807
10.2965 -13.6932 1.1627
10.2889 -11.4038 1.0423
10.2827 -9.5304 0.9515
2.5036 -1.9356 0.2148
2.5056 -1.6020 0.2018
2.5074 -1.3039 0.1918
2.5091 -1.0321 0.1841
2.5106 -0.7792 0.1784
2.5120 -0.5397 0.1744
2.5134 -0.3091 0.1719
2.5148 -0.0831 0.1708
2.5161 0.1417 0.1710
2.5175 0.3690 0.1727
2.5189 0.6027 0.1758
2.5204 0.8469 0.1804
2.5220 1.1065 0.1869
2.5237 1.3877 0.1955
2.5256 1.6985 0.2065
2.5277 2.0497 0.2208
20.5411 19.9443 1.9430
13.6933 15.9041 1.4242
12.3607 17.2578 1.4406
10.9860 18.6542 1.4692
12.9659 27.3325 2.0530
10.6927 28.9652 2.0954
8.0626 29.7872 2.0942
5.3770 30.4044 2.0954
2.6441 30.7628 2.0954
-0.0468 13.1473 0.8922
-2.8631 30.7432 2.0954
-5.5933 30.3654 2.0954
-8.2792 29.7455 2.0954
-5.7884 15.3428 1.1129
-5.9851 12.3882 0.9337
-7.4198 12.3959 0.9804
-9.6866 13.3227 1.1178
-18.8289 21.5564 1.9424
-20.6396 19.7563 1.9389
-20.8261 16.6435 1.8092
-21.4863 14.2291 1.7489
-21.4776 11.6118 1.6569
-21.4697 9.2379 1.5862
-21.4624 7.0418 1.5329
-20.7866 4.8174 1.4481
-22.3796 3.1179 1.5334
-21.7904 1.0714 1.4806
-25.4415 -1.0225 1.7280
-9.3364 -1.2156 0.6390
-6.3547 -1.4128 0.4418
-6.0383 -1.9214 0.4300
-5.8482 -2.4545 0.4304
-5.8529 -3.0969 0.4494
-5.8581 -3.8044 0.4740
-5.8639 -4.6008 0.5058
-15.1982 -14.2890 1.4157
-14.0784 -15.8292 1.4376
-12.4367 -16.7869 1.4178
-10.7585 -17.6139 1.4007
-9.0505 -18.3122 1.3862
-7.3183 -18.8837 1.3744
-5.5673 -19.3301 1.3651
-3.8042 -19.6617 1.3591
-2.0308 -19.8760 1.3559
-0.2500 -19.9595 1.3546
1.5319 -19.9123 1.3553
3.3079 -19.7344 1.3579
5.0732 -19.4317 1.3629
6.8283 -19.0196 1.3714
8.2129 -17.7213 1.3255
9.3930 -16.2812 1.2756
9.5326 -13.5644 1.1251
10.2915 -12.1719 1.0817
10.2848 -10.1665 0.9814
2.5028 -2.0670 0.2203
2.5049 -1.7174 0.2061
2.5068 -1.4078 0.1951
2.5085 -1.1275 0.1866
2.5100 -0.8685 0.1802
2.5115 -0.6248 0.1756
2.5129 -0.3914 0.1726
2.5143 -0.1642 0.1710
2.5157 0.0606 0.1708
2.5170 0.2866 0.1719
2.5184 0.5176 0.1745
2.5199 0.7574 0.1786
2.5214 1.0108 0.1843
2.5230 1.2835 0.1921
2.5249 1.5826 0.2022
2.5269 1.9177 0.2153
2.5292 2.3024 0.2321
19.3688 21.0846 1.9430
12.8443 16.7665 1.4333
11.4875 18.1447 1.4574
13.6893 26.6116 2.0309
11.6189 28.6067 2.0954
9.0120 29.4979 2.0932
3.1409 14.9406 1.0361
3.6320 30.6619 2.0954
0.3762 13.1476 0.8926
-0.7989 13.1465 0.8938
-4.6134 30.5296 2.0954
-7.3182 29.9964 2.0954
-5.7787 16.9484 1.2152
-5.8023 13.0667 0.9703
-6.8866 12.3931 0.9622
-9.5573 14.0753 1.1546
-10.9070 13.3290 1.1688
-17.4940 17.8581 1.6965
-21.7087 18.5235 1.9367
-21.4897 15.2478 1.7882
-21.4806 12.5224 1.6874
-21.4725 10.0694 1.6095
-21.4649 7.8158 1.5503
-20.7890 5.5281 1.4599
-22.3821 3.8558 1.5413
-22.3753 1.8231 1.5235
-25.7687 -0.2062 1.7488
-9.3354 -0.9113 0.6365
-6.4614 -1.2199 0.4462
-6.1555 -1.7428 0.4342
-5.8466 -2.2355 0.4248
-5.8512 -2.8590 0.4419
-5.8562 -3.5407 0.4644
-5.8617 -4.3018 0.4934
-5.8681 -5.1718 0.5308
-14.6748 -15.4679 1.4470
-13.0326 -16.4571 1.4246
-11.3668 -17.3310 1.4065
-9.6688 -18.0754 1.3911
-7.9446 -18.6923 1.3784
-6.1998 -19.1836 1.3682
-4.4399 -19.5525 1.3607
-2.6708 -19.8139 1.3568
-0.8918 -19.9445 1.3549
0.8904 -19.9444 1.3548
2.6693 -19.8135 1.3568
4.4382 -19.5519 1.3606
6.1979 -19.1823 1.3680
7.9423 -18.6907 1.3782
8.8313 -16.5127 1.2708
9.1003 -13.8775 1.1262
10.2942 -13.0012 1.1254
10.2870 -10.8447 1.0144
10.2811 -9.0624 0.9301
2.5042 -1.8381 0.2108
2.5061 -1.5155 0.1988
2.5079 -1.2257 0.1894
2.5095 -0.9597 0.1823
2.5110 -0.7111 0.1771
2.5124 -0.4745 0.1735
2.5138 -0.2456 0.1714
2.5152 -0.0203 0.1707
2.5165 0.2048 0.1713
2.5179 0.4336 0.1734
2.5193 0.6697 0.1769
2.5208 0.9177 0.1821
2.5224 1.1826 0.1891
2.5242 1.4713 0.1983
2.5261 1.7921 0.2102
2.5283 2.1571 0.2255
20.0367 20.4510 1.9430
13.3236 16.2796 1.4276
11.9816 17.6429 1.4473
14.3976 25.9052 2.0113
12.3930 27.9032 2.0720
9.9585 29.2002 2.0937
3.6463 14.9408 1.0437
4.6162 30.5292 2.0954
0.8000 13.1480 0.8939
-0.3751 13.1470 0.8926
-3.6298 30.6621 2.0954
-6.3498 30.2162 2.0954
-9.0191 29.5295 2.0954
-5.7950 14.2707 1.0453
-6.3725 12.3903 0.9455
-7.8481 12.3982 0.9958
-10.2066 13.3254 1.1391
-19.3519 21.0695 1.9415
-21.1154 19.2248 1.9379
-21.4933 16.3144 1.8312
-21.4838 13.4682 1.7208
-21.4753 10.9267 1.6352
-21.4676 8.6084 1.5696
-21.4604 6.4523 1.5208
-22.3846 4.6020 1.5509
-22.3777 2.5500 1.5285
-25.7821 0.6230 1.7502
-10.7502 -0.7012 0.7311
-7.3882 -1.1502 0.5074
-6.2691 -1.5590 0.4384
-5.9450 -2.0565 0.4269
-5.8495 -2.6286 0.4352
-5.8543 -3.2873 0.4556
-5.8597 -4.0169 0.4821
-5.8657 -4.8436 0.5162
-15.1880 -15.0110 1.4492
-13.6234 -16.1103 1.4318
-11.9709 -17.0312 1.4127
-10.2838 -17.8220 1.3964
-8.5684 -18.4847 1.3827
-6.8303 -19.0211 1.3715
-5.0751 -19.4327 1.3630
-3.3096 -19.7348 1.3580
-1.5333 -19.9126 1.3553
0.2485 -19.9595 1.3546
2.0293 -19.8757 1.3558
3.8026 -19.6612 1.3590
5.5654 -19.3289 1.3650
7.3160 -18.8822 1.3742
8.2666 -16.7292 1.2663
9.8268 -16.0910 1.2795
10.2972 -13.9013 1.1740
10.2895 -11.5709 1.0508
9.3120 -13.5530 1.2177
10.2923 -12.4374 1.1955
10.2855 -10.3846 1.0824
2.5025 -2.1117 0.2425
2.5047 -1.7565 0.2265
2.5066 -1.4428 0.2142
2.5083 -1.1594 0.2046
2.5099 -0.8983 0.1974
2.5113 -0.6530 0.1922
2.5128 -0.4186 0.1886
2.5141 -0.1909 0.1867
2.5155 0.0340 0.1863
2.5169 0.2597 0.1874
2.5182 0.4898 0.1900
2.5197 0.7284 0.1942
2.5212 0.9800 0.2003
2.5228 1.2500 0.2085
2.5246 1.5455 0.2192
2.5266 1.8758 0.2330
2.5289 2.2537 0.2509
19.3610 20.6339 2.0954
12.9314 16.5154 1.5533
11.6507 17.9788 1.5865
13.1989 25.0047 2.0939
10.9037 26.0522 2.0915
8.5217 26.8729 2.0877
3.3061 14.9400 1.1331
3.6202 28.0214 2.0924
0.5153 13.1464 0.9743
-0.6594 13.1453 0.9747
-3.9321 28.0204 2.0954
-6.4153 27.5581 2.0954
-5.6945 17.2982 1.3486
-5.7710 13.3758 1.0788
-6.7146 12.3904 1.0436
-9.5555 14.3980 1.2797
-10.6726 13.3276 1.2644
-18.1093 18.8817 1.9374
-19.6528 17.1319 1.9307
-20.9956 15.2335 1.9210
-21.4817 12.8293 1.8529
-21.4734 10.3483 1.7652
-21.4658 8.0742 1.6984
-21.4587 5.9498 1.6491
-22.3829 4.1001 1.6851
-22.3761 2.0616 1.6641
-23.4912 0.0604 1.7396
-9.3350 -0.8116 0.6939
-6.5007 -1.1563 0.4890
-5.8418 -1.5874 0.4483
-5.8460 -2.1647 0.4617
-5.8506 -2.7825 0.4798
-5.8555 -3.4563 0.5035
-5.8610 -4.2067 0.5343
-5.8673 -5.0618 0.5739
-13.8822 -14.3260 1.4773
-12.3406 -15.2492 1.4527
-10.7809 -16.0646 1.4327
-9.2084 -16.7853 1.4178
-7.6074 -17.3858 1.4054
-5.9838 -17.8673 1.3954
-4.3430 -18.2307 1.3879
-2.6899 -18.4771 1.3827
-1.0293 -18.6069 1.3800
0.6340 -18.6205 1.3797
2.2956 -18.5179 1.3818
3.9508 -18.2989 1.3863
5.5948 -17.9629 1.3933
7.2226 -17.5093 1.4026
8.2208 -15.7699 1.3170
9.0535 -14.1298 1.2427
10.2952 -13.2888 1.2449
10.2878 -11.0778 1.1196
10.2818 -9.2581 1.0246
2.5039 -1.8790 0.2318
2.5059 -1.5518 0.2183
2.5077 -1.2586 0.2078
2.5093 -0.9902 0.1998
2.5108 -0.7399 0.1938
2.5123 -0.5021 0.1897
2.5136 -0.2724 0.1872
2.5150 -0.0469 0.1863
2.5164 0.1781 0.1868
2.5177 0.4062 0.1889
2.5192 0.6412 0.1925
2.5207 0.8875 0.1979
2.5222 1.1502 0.2053
2.5240 1.4356 0.2150
2.5259 1.7521 0.2276
2.5281 2.1110 0.2439
20.0146 20.0006 2.0954
13.4803 16.1203 1.5562
12.1425 17.4792 1.5761
10.7588 18.8848 1.6095
11.7450 25.7079 2.0931
9.3770 26.5720 2.0867
3.8140 14.9402 1.1419
4.5180 27.8812 2.0917
0.9396 13.1467 0.9761
-0.2360 13.1457 0.9737
-3.0303 28.1321 2.0954
-5.5257 27.7501 2.0954
-7.9785 27.1468 2.0954
-5.7923 14.7085 1.1707
-6.2063 12.3876 1.0261
-7.6639 12.3954 1.0792
-9.9838 13.3241 1.2330
-17.5028 19.4655 1.9386
-19.1253 17.7864 1.9341
-20.5350 15.9320 1.9247
-21.4848 13.7875 1.8905
-21.4763 11.2146 1.7942
-21.4685 8.8734 1.7203
-21.4612 6.7008 1.6650
-21.6903 4.6989 1.6435
-22.3785 2.7901 1.6701
-23.5603 0.8188 1.7458
-23.0485 -1.2588 1.7094
-9.3369 -1.3526 0.6987
-5.8403 -1.3870 0.4445
-5.8445 -1.9528 0.4563
-5.8489 -2.5544 0.4726
-5.8537 -3.2060 0.4943
-5.8590 -3.9260 0.5223
-5.8650 -4.7395 0.5584
-14.4295 -13.9628 1.4870
-12.8994 -14.9309 1.4612
-11.3393 -15.7754 1.4387
-9.7784 -16.5396 1.4229
-8.1870 -17.1833 1.4096
-6.5709 -17.7075 1.3987
-4.9357 -18.1134 1.3903
-3.2864 -18.4018 1.3843
-1.6280 -18.5735 1.3807
0.0349 -18.6289 1.3796
1.6976 -18.5682 1.3808
3.3556 -18.3912 1.3844
5.0042 -18.0975 1.3905
6.6385 -17.6863 1.3990
8.2011 -17.0484 1.4010
9.0145 -15.1180 1.3035
10.2983 -14.2145 1.2999
10.2903 -11.8212 1.1606
10.2838 -9.8770 1.0559
2.5032 -2.0074 0.2376
2.5052 -1.6652 0.2228
2.5071 -1.3609 0.2113
2.5087 -1.0845 0.2024
2.5103 -0.8283 0.1958
2.5117 -0.5866 0.1910
2.5131 -0.3545 0.1880
2.5145 -0.1279 0.1865
2.5159 0.0969 0.1865
2.5172 0.3234 0.1879
2.5187 0.5555 0.1910
2.5201 0.7972 0.1957
2.5217 1.0533 0.2024
2.5233 1.3297 0.2112
2.5252 1.6338 0.2227
2.5272 1.9759 0.2376
2.5296 2.3702 0.2567
18.8399 21.1109 2.0954
12.6284 16.9856 1.5674
11.1672 18.2136 1.5821
12.5685 25.3225 2.0935
10.2423 26.2969 2.0899
7.8510 27.0871 2.0885
3.1344 16.0540 1.2113
2.9202 28.1097 2.0929
0.1868 13.1461 0.9736
-2.1225 28.2142 2.0953
-4.6304 27.9135 2.0954
-7.1013 27.3893 2.0954
-5.7832 16.1949 1.2735
-5.8052 12.5819 1.0261
-7.1217 12.3925 1.0585
-9.5594 13.6515 1.2342
-11.2324 13.3304 1.2909
-17.6294 17.4857 1.8388
-20.0464 16.6128 1.9281
-21.3193 14.6702 1.9165
-21.4793 12.1108 1.8261
-21.4712 9.6944 1.7446
-21.4638 7.4673 1.6829
-20.7879 5.2086 1.5870
-22.3810 3.5247 1.6779
-20.7752 1.3920 1.5420
-23.3302 -0.5226 1.7281
-9.3358 -1.0471 0.6957
-5.9093 -1.2040 0.4466
-5.8430 -1.7455 0.4516
-5.8473 -2.3327 0.4662
-5.8519 -2.9645 0.4858
-5.8570 -3.6574 0.5114
-5.8627 -4.4338 0.5443
-5.8692 -5.3248 0.5869
-13.4543 -14.5966 1.4701
-11.9043 -15.4853 1.4465
-10.3444 -16.2783 1.4283
-8.7633 -16.9653 1.4141
-7.1555 -17.5324 1.4023
-5.5266 -17.9807 1.3930
-3.8818 -18.3114 1.3862
-2.2261 -18.5251 1.3817
-0.5643 -18.6224 1.3797
1.0990 -18.6035 1.3801
2.7593 -18.4684 1.3828
4.4117 -18.2168 1.3880
6.0518 -17.8480 1.3956
7.6742 -17.3612 1.4057
8.4863 -15.3328 1.2978
9.1737 -13.5597 1.2124
10.2930 -12.6220 1.2061
10.2860 -10.5357 1.0904
10.2802 -8.8020 1.0022
2.5045 -1.7834 0.2277
2.5064 -1.4668 0.2151
2.5082 -1.1814 0.2053
2.5097 -0.9187 0.1979
2.5112 -0.6723 0.1925
2.5127 -0.4372 0.1889
2.5140 -0.2091 0.1868
2.5154 0.0159 0.1863
2.5167 0.2414 0.1872
2.5181 0.4710 0.1897
2.5196 0.7088 0.1938
2.5211 0.9591 0.1998
2.5227 1.2274 0.2078
2.5245 1.5205 0.2182
2.5265 1.8476 0.2318
2.5287 2.2211 0.2492
19.5090 20.4940 2.0954
13.0067 16.3675 1.5482
11.7613 17.8665 1.5840
13.3791 24.9102 2.0940
11.0918 25.9750 2.0916
8.7140 26.8080 2.0875
3.4191 14.9400 1.1350
3.8215 27.9926 2.0922
0.6101 13.1465 0.9746
-0.5646 13.1454 0.9744
-3.7303 28.0480 2.0954
-6.2169 27.6035 2.0954
-5.5834 17.3810 1.3519
-5.6856 13.4430 1.0809
-6.5994 12.3897 1.0396
-9.5543 14.6236 1.2936
-10.5154 13.3268 1.2571
-17.9753 19.0140 1.9377
-19.5368 17.2798 1.9315
-20.8993 15.3945 1.9223
-21.4824 13.0404 1.8610
-21.4740 10.5397 1.7715
-21.4664 8.2513 1.7031
-21.4593 6.1166 1.6525
-22.3835 4.2670 1.6875
-22.3767 2.2241 1.6653
-23.4901 0.2295 1.7396
-9.3348 -0.7440 0.6935
-6.7744 -1.1547 0.5089
-5.8415 -1.5423 0.4474
-5.8457 -2.1168 0.4604
-5.8502 -2.7308 0.4781
-5.8551 -3.3995 0.5014
-5.8606 -4.1428 0.5315
-5.8668 -4.9882 0.5703
-14.0050 -14.2462 1.4794
-12.4660 -15.1793 1.4546
-10.9062 -16.0012 1.4340
-9.3362 -16.7317 1.4189
-7.7374 -17.3419 1.4063
-6.1154 -17.8329 1.3961
-4.4757 -18.2058 1.3884
-2.8235 -18.4616 1.3831
-1.1633 -18.6007 1.3802
0.5000 -18.6237 1.3797
2.1619 -18.5304 1.3816
3.8177 -18.3209 1.3859
5.4628 -17.9944 1.3926
7.0921 -17.5502 1.4018
8.2166 -16.0425 1.3348
9.4228 -14.9417 1.3082
10.2958 -13.4891 1.2567
10.2884 -11.2396 1.1284
10.2822 -9.3934 1.0314
2.5038 -1.9072 0.2331
2.5058 -1.5768 0.2192
2.5076 -1.2812 0.2085
2.5092 -1.0111 0.2003
2.5107 -0.7595 0.1942
2.5121 -0.5209 0.1900
2.5135 -0.2907 0.1874
2.5149 -0.0650 0.1863
2.5163 0.1599 0.1867
2.5176 0.3876 0.1886
2.5190 0.6219 0.1921
2.5205 0.8671 0.1974
2.5221 1.1283 0.2046
2.5238 1.4116 0.2141
2.5257 1.7252 0.2265
2.5279 2.0802 0.2424
20.1581 19.8560 2.0954
13.5868 16.0120 1.5551
12.2517 17.3683 1.5740
10.8726 18.7692 1.6063
11.9303 25.6241 2.0932
9.5669 26.5007 2.0865
7.1748 27.2841 2.0892
4.7182 27.8457 2.0915
2.2179 28.1800 2.0933
-0.1414 13.1458 0.9736
-2.8275 28.1532 2.0954
-5.3258 27.7892 2.0954
-7.7830 27.2035 2.0954
-5.7904 15.0199 1.1921
-6.0949 12.3870 1.0223
-7.5407 12.3947 1.0744
-9.8343 13.3233 1.2263
-17.3644 19.5935 1.9388
-19.0042 17.9306 1.9349
-20.4260 16.0842 1.9253
-21.4856 14.0073 1.8994
-21.4769 11.4124 1.8011
-21.4691 9.0551 1.7255
-21.4618 6.8709 1.6688
-20.9709 4.7013 1.5915
-22.3791 2.9539 1.6717
-23.6002 0.9903 1.7493
-23.1132 -1.0956 1.7136
-9.3366 -1.2840 0.6979
-5.8400 -1.3426 0.4438
-5.8442 -1.9060 0.4552
-5.8485 -2.5043 0.4711
-5.8533 -3.1512 0.4923
-5.8585 -3.8649 0.5198
-5.8644 -4.6697 0.5552
-14.5513 -13.8793 1.4892
-13.0239 -14.8575 1.4632
-11.4660 -15.7119 1.4404
-9.9054 -16.4825 1.4241
-8.3162 -17.1359 1.4105
-6.7020 -17.6697 1.3995
-5.0681 -18.0850 1.3909
-3.4198 -18.3829 1.3847
-1.7619 -18.5640 1.3809
-0.0992 -18.6288 1.3796
1.5637 -18.5774 1.3806
3.2223 -18.4098 1.3841
4.8718 -18.1255 1.3899
6.5074 -17.7238 1.3982
8.1240 -17.2039 1.4089
8.8965 -15.1673 1.3022
9.6476 -13.5202 1.2300
10.2909 -11.9951 1.1704
10.2843 -10.0208 1.0634
2.5030 -2.0370 0.2390
2.5051 -1.6912 0.2238
2.5069 -1.3843 0.2121
2.5086 -1.1059 0.2030
2.5102 -0.8484 0.1962
2.5116 -0.6056 0.1913
2.5130 -0.3729 0.1881
2.5144 -0.1460 0.1865
2.5158 0.0787 0.1864
2.5171 0.3050 0.1878
2.5185 0.5365 0.1907
2.5200 0.7773 0.1953
2.5215 1.0320 0.2018
2.5232 1.3065 0.2104
2.5250 1.6081 0.2217
2.5271 1.9467 0.2362
2.5294 2.3361 0.2550
18.9913 20.9747 2.0954
12.7365 16.8759 1.5657
11.3399 18.1999 1.5880
12.7510 25.2325 2.0936
10.4344 26.2302 2.0905
8.0450 27.0271 2.0883
3.1346 15.4625 1.1684
3.1222 28.0861 2.0927
0.2815 13.1462 0.9738
-0.8938 13.1451 0.9757
-4.4309 27.9458 2.0954
-6.9041 27.4397 2.0954
-5.7810 16.5641 1.2992
-5.8038 12.8205 1.0422
-7.0032 12.3919 1.0541
-9.5583 13.8612 1.2469
-11.0686 13.3296 1.2831
-17.4682 17.5770 1.8351
-19.9344 16.7634 1.9288
-21.2276 14.8333 1.9178
-21.4799 12.3158 1.8336
-21.4718 9.8813 1.7504
-21.4644 7.6411 1.6873
-20.7885 5.3681 1.5900
-22.3815 3.6900 1.6798
-20.7757 1.5423 1.5428
-23.3905 -0.3555 1.7324
-9.3356 -0.9792 0.6951
-5.9301 -1.1639 0.4475
-5.8426 -1.6997 0.4506
-5.8469 -2.2840 0.4649
-5.8515 -2.9116 0.4840
-5.8566 -3.5988 0.5090
-5.8622 -4.3675 0.5414
-5.8687 -5.2478 0.5830
-13.5779 -14.5196 1.4721
-12.0302 -15.4182 1.4482
-10.4705 -16.2177 1.4296
-8.8918 -16.9144 1.4151
-7.2859 -17.4911 1.4032
-5.6585 -17.9490 1.3937
-4.0148 -18.2891 1.3866
-2.3598 -18.5122 1.3820
-0.6983 -18.6188 1.3798
0.9650 -18.6093 1.3800
2.6257 -18.4836 1.3825
4.2790 -18.2413 1.3875
5.9202 -17.8820 1.3949
7.5442 -17.4048 1.4048
8.3678 -15.3790 1.2966
9.0880 -13.6436 1.2140
10.2936 -12.8099 1.2170
10.2865 -10.6890 1.0986
10.2807 -8.9314 1.0085
2.5044 -1.8106 0.2289
2.5063 -1.4911 0.2160
2.5080 -1.2034 0.2060
2.5096 -0.9391 0.1984
2.5111 -0.6917 0.1929
2.5125 -0.4559 0.1891
2.5139 -0.2273 0.1869
2.5153 -0.0022 0.1863
2.5166 0.2231 0.1871
2.5180 0.4523 0.1895
2.5195 0.6892 0.1934
2.5210 0.9383 0.1992
2.5226 1.2049 0.2070
2.5243 1.4958 0.2173
2.5263 1.8197 0.2306
2.5285 2.1889 0.2477
19.6560 20.3532 2.0954
13.1379 16.2905 1.5498
11.8716 17.7544 1.5816
13.5585 24.8143 2.0940
11.2798 25.8977 2.0919
8.9057 26.7417 2.0873
3.5324 14.9401 1.1369
4.0225 27.9623 2.0921
0.7050 13.1465 0.9750
-0.4699 13.1455 0.9741
-3.5284 28.0741 2.0954
-6.0180 27.6476 2.0954
-5.4862 17.5102 1.3589
-5.6154 13.5480 1.0861
-6.4850 12.3891 1.0356
-7.9728 12.3970 1.0915
-10.3601 13.3260 1.2500
-17.8403 19.1453 1.9380
-19.4196 17.4269 1.9323
-20.8019 15.5548 1.9235
-21.4831 13.2533 1.8693
-21.4747 10.7325 1.7779
-21.4670 8.4293 1.7079
-21.4598 6.2841 1.6559
-22.3840 4.4342 1.6899
-22.3772 2.3869 1.6665
-23.4878 0.3985 1.7396
-9.7222 -0.7045 0.7219
-7.0714 -1.1530 0.5306
-5.8411 -1.4973 0.4466
-5.8454 -2.0693 0.4592
-5.8498 -2.6796 0.4765
-5.8547 -3.3431 0.4993
-5.8601 -4.0795 0.5288
-5.8662 -4.9154 0.5668
-14.1277 -14.1655 1.4816
-12.5911 -15.1087 1.4565
-11.0313 -15.9370 1.4354
-9.4639 -16.6773 1.4200
-7.8671 -17.2971 1.4072
-6.2468 -17.7977 1.3968
-4.6084 -18.1801 1.3889
-2.9569 -18.4453 1.3834
-1.2972 -18.5938 1.3803
0.3659 -18.6261 1.3796
2.0281 -18.5423 1.3813
3.6847 -18.3420 1.3854
5.3307 -18.0250 1.3920
6.9615 -17.5904 1.4010
8.2123 -16.3225 1.3531
9.3053 -14.9934 1.3068
10.2965 -13.6932 1.2687
10.2889 -11.4038 1.1374
10.2827 -9.5304 1.0382
2.5036 -1.9356 0.2344
2.5056 -1.6020 0.2202
2.5074 -1.3039 0.2093
2.5091 -1.0321 0.2009
2.5106 -0.7792 0.1947
2.5120 -0.5397 0.1903
2.5134 -0.3091 0.1875
2.5148 -0.0831 0.1863
2.5161 0.1417 0.1866
2.5175 0.3690 0.1884
2.5189 0.6027 0.1918
2.5204 0.8469 0.1969
2.5220 1.1065 0.2039
2.5237 1.3877 0.2133
2.5256 1.6985 0.2254
2.5277 2.0497 0.2410
20.3004 19.7105 2.0954
13.6932 15.9040 1.5542
12.3606 17.2577 1.5720
10.9859 18.6541 1.6032
12.1151 25.5388 2.0933
9.7634 26.4479 2.0878
7.3702 27.2291 2.0890
4.9180 27.8088 2.0913
2.4206 28.1616 2.0932
-0.0468 13.1459 0.9735
-2.6237 28.1730 2.0954
-5.1257 27.8268 2.0954
-7.5871 27.2588 2.0954
-5.7884 15.3428 1.2144
-5.9843 12.3864 1.0187
-7.4187 12.3941 1.0697
-9.6864 13.3226 1.2198
-17.2251 19.7203 1.9390
-18.8819 18.0738 1.9356
-20.3181 16.2375 1.9261
-21.4863 14.2291 1.9084
-21.4776 11.6118 1.8081
-21.4697 9.2379 1.7309
-21.4624 7.0418 1.6728
-20.7866 4.8174 1.5802
-22.3796 3.1179 1.6733
-21.7904 1.0714 1.6156
-23.1770 -0.9315 1.7178
-9.3364 -1.2156 0.6972
-5.8570 -1.3022 0.4443
-5.8438 -1.8595 0.4541
-5.8482 -2.4545 0.4697
-5.8529 -3.0969 0.4904
-5.8581 -3.8044 0.5173
-5.8639 -4.6008 0.5520
-14.6728 -13.7950 1.4914
-13.1482 -14.7833 1.4651
-11.5926 -15.6475 1.4421
-10.0321 -16.4247 1.4253
-8.4453 -17.0877 1.4115
-6.8328 -17.6310 1.4003
-5.2004 -18.0559 1.3915
-3.5530 -18.3632 1.3851
-1.8957 -18.5537 1.3811
-0.2333 -18.6279 1.3796
1.4298 -18.5859 1.3804
3.0889 -18.4276 1.3837
4.7393 -18.1527 1.3894
6.3763 -17.7605 1.3974
7.9945 -17.2502 1.4080
8.7784 -15.2159 1.3009
9.5179 -13.5436 1.2259
10.2915 -12.1719 1.1804
10.2848 -10.1665 1.0709
2.5028 -2.0670 0.2404
2.5049 -1.7174 0.2249
2.5068 -1.4078 0.2129
2.5085 -1.1275 0.2037
2.5100 -0.8685 0.1967
2.5115 -0.6248 0.1917
2.5129 -0.3914 0.1883
2.5143 -0.1642 0.1866
2.5157 0.0606 0.1863
2.5170 0.2866 0.1876
2.5184 0.5176 0.1904
2.5199 0.7574 0.1949
2.5214 1.0108 0.2012
2.5231 1.2835 0.2096
2.5249 1.5826 0.2207
2.5269 1.9177 0.2349
2.5292 2.3024 0.2533
19.1418 20.8375 2.0954
12.8442 16.7664 1.5641
11.4875 18.1446 1.5904
12.9329 25.1413 2.0937
10.6247 26.1590 2.0909
8.2384 26.9657 2.0881
3.1407 14.9399 1.1306
3.3239 28.0610 2.0926
0.3761 13.1463 0.9739
-0.7988 13.1452 0.9753
-4.2303 27.9768 2.0954
-6.7064 27.4887 2.0954
-5.7787 16.9484 1.3261
-5.8023 13.0667 1.0588
-6.8856 12.3913 1.0498
-9.5571 14.0752 1.2599
-10.9068 13.3288 1.2754
-17.4664 17.8300 1.8484
-19.8212 16.9132 1.9296
-21.1346 14.9958 1.9191
-21.4806 12.5224 1.8413
-21.4725 10.0694 1.7563
-21.4649 7.8158 1.6917
-20.7890 5.5281 1.5930
-22.3821 3.8558 1.6819
-22.3753 1.8231 1.6625
-23.4498 -0.1877 1.7366
-9.3354 -0.9113 0.6946
-6.1353 -1.1583 0.4624
-5.8423 -1.6541 0.4497
-5.8466 -2.2355 0.4635
-5.8511 -2.8590 0.4823
-5.8562 -3.5407 0.5068
-5.8617 -4.3018 0.5384
-5.8681 -5.1718 0.5793
-13.7013 -14.4418 1.4742
-12.1561 -15.3503 1.4500
-10.5963 -16.1563 1.4308
-9.0201 -16.8627 1.4162
-7.4162 -17.4490 1.4041
-5.7903 -17.9165 1.3944
-4.1477 -18.2660 1.3871
-2.4935 -18.4985 1.3823
-0.8323 -18.6145 1.3799
0.8310 -18.6144 1.3799
2.4920 -18.4980 1.3822
4.1461 -18.2652 1.3870
5.7885 -17.9154 1.3942
7.4141 -17.4477 1.4039
8.2493 -15.4244 1.2953
9.0795 -13.8457 1.2261
10.2942 -13.0012 1.2281
10.2870 -10.8447 1.1069
10.2811 -9.0624 1.0149
2.5042 -1.8381 0.2300
2.5061 -1.5155 0.2169
2.5079 -1.2257 0.2067
2.5095 -0.9597 0.1990
2.5110 -0.7111 0.1933
2.5124 -0.4745 0.1893
2.5138 -0.2456 0.1870
2.5152 -0.0203 0.1863
2.5165 0.2048 0.1870
2.5179 0.4336 0.1892
2.5193 0.6697 0.1930
2.5208 0.9177 0.1987
2.5224 1.1826 0.2063
2.5242 1.4713 0.2164
2.5261 1.7921 0.2294
2.5283 2.1571 0.2461
19.8020 20.2112 2.0954
13.3235 16.2795 1.5579
11.9815 17.6428 1.5793
13.7373 24.7171 2.0941
11.4716 25.8287 2.0929
9.0970 26.6740 2.0871
3.6461 14.9401 1.1389
4.2233 27.9305 2.0919
0.7999 13.1466 0.9754
-0.3751 13.1456 0.9739
-3.3263 28.0987 2.0954
-5.8189 27.6901 2.0954
-5.4244 17.7600 1.3752
-5.5886 13.7625 1.1000
-6.3715 12.3885 1.0317
-7.8469 12.3964 1.0865
-10.2065 13.3252 1.2430
-17.7044 19.2757 1.9382
-19.3012 17.5731 1.9330
-20.7022 15.7140 1.9247
-21.4838 13.4682 1.8778
-21.4753 10.9267 1.7844
-21.4676 8.6084 1.7128
-21.4604 6.4523 1.6595
-22.3846 4.6020 1.6924
-22.3777 2.5500 1.6679
-23.4994 0.5679 1.7408
-10.7785 -0.7031 0.7999
-7.3948 -1.1512 0.5542
-5.8408 -1.4525 0.4457
-5.8450 -2.0219 0.4580
-5.8495 -2.6286 0.4749
-5.8543 -3.2872 0.4972
-5.8597 -4.0169 0.5261
-5.8657 -4.8436 0.5633
-14.2501 -14.0840 1.4837
-12.7161 -15.0373 1.4584
-11.1561 -15.8721 1.4367
-9.5914 -16.6221 1.4212
-7.9968 -17.2516 1.4081
-6.3781 -17.7617 1.3976
-4.7410 -18.1536 1.3895
-3.0904 -18.4282 1.3838
-1.4312 -18.5861 1.3805
0.2319 -18.6278 1.3796
1.8943 -18.5533 1.3811
3.5515 -18.3625 1.3850
5.1986 -18.0549 1.3914
6.8308 -17.6298 1.4001
8.2079 -16.6104 1.3721
9.1876 -15.0444 1.3054
10.2972 -13.9013 1.2811
10.2895 -11.5709 1.1467
9.2661 -13.4861 1.3131
10.2923 -12.4374 1.2956
10.2855 -10.3846 1.1730
2.5025 -2.1117 0.2628
2.5047 -1.7565 0.2455
2.5066 -1.4428 0.2321
2.5083 -1.1594 0.2218
2.5099 -0.8983 0.2139
2.5113 -0.6530 0.2082
2.5128 -0.4186 0.2044
2.5141 -0.1909 0.2023
2.5155 0.0340 0.2019
2.5169 0.2597 0.2031
2.5183 0.4898 0.2059
2.5197 0.7284 0.2105
2.5212 0.9800 0.2171
2.5229 1.2500 0.2259
2.5246 1.5455 0.2376
2.5266 1.8758 0.2525
2.5289 2.2537 0.2718
17.8661 19.0407 2.0954
12.8842 16.4552 1.6772
11.6506 17.9787 1.7193
12.1615 23.0395 2.0907
10.0328 23.9711 2.0854
7.8476 24.7470 2.0835
3.3059 14.9393 1.2279
3.3332 25.8001 2.0877
0.5153 13.1450 1.0557
-0.6593 13.1439 1.0561
-3.6205 25.7998 2.0908
-5.9072 25.3752 2.0909
-5.6867 17.2746 1.4595
-5.7381 13.2997 1.1624
-6.7137 12.3886 1.1308
-9.4943 14.3058 1.3779
-10.6724 13.3274 1.3702
-16.6692 17.3801 1.9326
-18.0752 15.7567 1.9243
-19.2748 13.9850 1.9111
-20.3003 12.1238 1.8976
-21.0491 10.1438 1.8751
-21.4658 8.0742 1.8405
-21.4587 5.9498 1.7871
-22.0997 4.0483 1.8030
-21.8766 2.0155 1.7631
-21.5673 0.0555 1.7308
-9.3350 -0.8116 0.7520
-6.5058 -1.1572 0.5303
-5.8418 -1.5874 0.4858
-5.8460 -2.1647 0.5003
-5.8506 -2.7825 0.5199
-5.8555 -3.4563 0.5457
-5.8610 -4.2067 0.5790
-5.8673 -5.0618 0.6219
-13.0161 -13.4323 1.5010
-11.5827 -14.3127 1.4776
-10.1188 -15.0779 1.4572
-8.6297 -15.7305 1.4399
-7.1322 -16.2997 1.4278
-5.6125 -16.7585 1.4183
-4.0748 -17.1052 1.4111
-2.5244 -17.3402 1.4062
-0.9661 -17.4642 1.4037
0.5951 -17.4771 1.4034
2.1545 -17.3792 1.4054
3.7071 -17.1702 1.4097
5.2481 -16.8498 1.4163
6.7722 -16.4174 1.4252
8.2012 -15.7323 1.4238
8.9642 -13.9904 1.3334
10.2952 -13.2888 1.3490
10.2878 -11.0778 1.2132
10.2818 -9.2581 1.1103
2.5039 -1.8790 0.2512
2.5059 -1.5518 0.2365
2.5077 -1.2586 0.2252
2.5093 -0.9902 0.2165
2.5108 -0.7399 0.2101
2.5123 -0.5021 0.2056
2.5136 -0.2724 0.2029
2.5150 -0.0469 0.2019
2.5164 0.1781 0.2024
2.5177 0.4062 0.2047
2.5192 0.6412 0.2086
2.5207 0.8875 0.2145
2.5222 1.1502 0.2225
2.5240 1.4356 0.2330
2.5259 1.7521 0.2467
2.5281 2.1110 0.2643
18.4692 18.4563 2.0954
13.4802 16.1202 1.6864
12.1424 17.4791 1.7080
10.7587 18.8847 1.7442
10.8112 23.6638 2.0879
8.6355 24.4708 2.0825
3.8138 14.9395 1.2374
4.1599 25.6717 2.0871
0.9395 13.1453 1.0576
-0.2360 13.1443 1.0550
-2.7887 25.9010 2.0906
-5.0881 25.5523 2.0909
-7.3459 24.9942 2.0907
-5.7923 14.7085 1.2686
-6.2054 12.3859 1.1118
-7.6627 12.3935 1.1694
-9.9836 13.3239 1.3361
-16.1245 17.9327 1.9353
-17.5875 16.3563 1.9275
-18.8663 14.6374 1.9163
-19.9427 12.7978 1.9016
-20.8018 10.8625 1.8833
-21.4525 8.8668 1.8628
-21.4612 6.7008 1.8043
-21.6903 4.6989 1.7811
-21.9776 2.7401 1.7774
-21.6424 0.7521 1.7379
-21.1715 -1.1563 1.7016
-9.3369 -1.3526 0.7571
-5.8403 -1.3870 0.4817
-5.8445 -1.9528 0.4945
-5.8489 -2.5544 0.5122
-5.8537 -3.2060 0.5356
-5.8590 -3.9260 0.5660
-5.8649 -4.7395 0.6051
-13.5238 -13.0864 1.5102
-12.1029 -14.0090 1.4857
-10.6493 -14.8154 1.4642
-9.1687 -15.5083 1.4458
-7.6741 -16.1068 1.4318
-6.1622 -16.6062 1.4215
-4.6304 -16.9932 1.4134
-3.0840 -17.2684 1.4077
-1.5280 -17.4323 1.4043
0.0327 -17.4852 1.4032
1.5933 -17.4273 1.4044
3.1489 -17.2583 1.4079
4.6947 -16.9781 1.4136
6.2255 -16.5861 1.4217
7.7361 -16.0817 1.4321
8.4726 -14.2093 1.3276
9.8304 -13.5687 1.3446
10.2903 -11.8212 1.2577
10.2838 -9.8770 1.1443
2.5032 -2.0074 0.2575
2.5052 -1.6652 0.2414
2.5071 -1.3609 0.2289
2.5087 -1.0845 0.2193
2.5103 -0.8283 0.2121
2.5118 -0.5866 0.2070
2.5131 -0.3545 0.2037
2.5145 -0.1279 0.2021
2.5159 0.0969 0.2021
2.5172 0.3234 0.2037
2.5187 0.5555 0.2070
2.5201 0.7972 0.2121
2.5217 1.0533 0.2193
2.5233 1.3297 0.2289
2.5252 1.6339 0.2414
2.5272 1.9760 0.2574
2.5296 2.3703 0.2782
17.3852 19.4808 2.0954
12.6284 16.9855 1.6986
11.1448 18.1771 1.7111
11.5808 23.3325 2.0904
9.4135 24.1689 2.0815
7.2297 24.9436 2.0841
3.1346 16.0550 1.3128
2.6886 25.8809 2.0882
0.1868 13.1447 1.0550
-1.9540 25.9748 2.0904
-4.2635 25.7021 2.0908
-6.5387 25.2191 2.0908
-5.7832 16.1949 1.3800
-5.8052 12.5819 1.1120
-7.1206 12.3907 1.1469
-9.5592 13.6513 1.3374
-11.2322 13.3303 1.3989
-17.0785 16.9393 1.9304
-18.4348 15.2772 1.9214
-19.5758 13.4704 1.9070
-20.5293 11.5752 1.8914
-21.2235 9.5825 1.8688
-21.4638 7.4673 1.8238
-20.7879 5.2086 1.7198
-22.0555 3.4735 1.7918
-20.7752 1.3920 1.6710
-21.4111 -0.4796 1.7187
-9.3358 -1.0471 0.7539
-5.8389 -1.1897 0.4782
-5.8430 -1.7455 0.4894
-5.8473 -2.3327 0.5052
-5.8519 -2.9645 0.5264
-5.8570 -3.6574 0.5541
-5.8627 -4.4338 0.5899
-5.8692 -5.3248 0.6360
-12.6188 -13.6902 1.4942
-11.1762 -14.5381 1.4716
-9.7048 -15.2717 1.4521
-8.2127 -15.8993 1.4361
-6.7094 -16.4393 1.4249
-5.1842 -16.8667 1.4161
-3.6424 -17.1821 1.4095
-2.0893 -17.3861 1.4053
-0.5297 -17.4789 1.4033
1.0315 -17.4609 1.4037
2.5895 -17.3320 1.4063
4.1393 -17.0919 1.4113
5.6762 -16.7402 1.4185
7.1947 -16.2764 1.4281
8.2165 -14.8453 1.3617
9.1242 -13.4866 1.3067
10.2930 -12.6220 1.3070
10.2860 -10.5357 1.1816
10.2802 -8.8020 1.0861
2.5045 -1.7834 0.2467
2.5064 -1.4668 0.2331
2.5082 -1.1814 0.2225
2.5097 -0.9187 0.2145
2.5112 -0.6723 0.2086
2.5127 -0.4372 0.2047
2.5140 -0.2091 0.2025
2.5154 0.0159 0.2019
2.5167 0.2414 0.2029
2.5181 0.4710 0.2056
2.5196 0.7088 0.2100
2.5211 0.9591 0.2165
2.5227 1.2274 0.2251
2.5245 1.5205 0.2365
2.5265 1.8476 0.2512
2.5287 2.2211 0.2701
18.0027 18.9116 2.0954
12.9678 16.3186 1.6727
11.7612 17.8664 1.7166
12.3274 22.9522 2.0908
10.2069 23.9026 2.0858
8.0247 24.6875 2.0832
3.4189 14.9394 1.2299
3.5186 25.7737 2.0876
0.6101 13.1451 1.0560
-0.5645 13.1440 1.0558
-3.4346 25.8248 2.0907
-5.7244 25.4171 2.0909
-5.5753 17.3558 1.4629
-5.6512 13.3617 1.1643
-6.5984 12.3880 1.1264
-9.5542 14.6234 1.4018
-10.5153 13.3266 1.3623
-16.5490 17.5053 1.9332
-17.9679 15.8922 1.9250
-19.1854 14.1321 1.9123
-20.2226 12.2757 1.8985
-20.9959 10.3050 1.8770
-21.4664 8.2513 1.8456
-21.4593 6.1166 1.7907
-22.1067 4.2142 1.8061
-21.9012 2.1769 1.7663
-21.5663 0.2107 1.7308
-9.3348 -0.7440 0.7515
-6.7800 -1.1557 0.5520
-5.8415 -1.5423 0.4849
-5.8457 -2.1168 0.4989
-5.8502 -2.7308 0.5181
-5.8551 -3.3995 0.5433
-5.8606 -4.1428 0.5760
-5.8668 -4.9881 0.6180
-13.1301 -13.3562 1.5031
-11.6995 -14.2460 1.4794
-10.2378 -15.0205 1.4588
-8.7505 -15.6821 1.4412
-7.2537 -16.2578 1.4287
-5.7357 -16.7257 1.4190
-4.1993 -17.0814 1.4116
-2.6497 -17.3254 1.4066
-1.0919 -17.4583 1.4038
0.4693 -17.4802 1.4033
2.0289 -17.3912 1.4051
3.5823 -17.1912 1.4092
5.1244 -16.8798 1.4157
6.6501 -16.4564 1.4244
8.1541 -15.9205 1.4355
8.8545 -14.0405 1.3321
10.2057 -13.3710 1.3499
10.2884 -11.2396 1.2228
10.2822 -9.3934 1.1177
2.5038 -1.9072 0.2526
2.5058 -1.5768 0.2376
2.5076 -1.2812 0.2260
2.5092 -1.0111 0.2171
2.5107 -0.7595 0.2105
2.5121 -0.5209 0.2059
2.5135 -0.2907 0.2031
2.5149 -0.0650 0.2019
2.5163 0.1599 0.2023
2.5176 0.3876 0.2044
2.5191 0.6219 0.2082
2.5205 0.8671 0.2139
2.5221 1.1283 0.2217
2.5238 1.4116 0.2321
2.5257 1.7252 0.2455
2.5279 2.0802 0.2627
18.6016 18.3228 2.0954
13.5868 16.0119 1.6852
12.2517 17.3682 1.7057
10.8726 18.7691 1.7407
10.9819 23.5870 2.0880
8.8105 24.4054 2.0823
6.6068 25.1243 2.0848
4.3443 25.6392 2.0869
2.0420 25.9453 2.0886
-0.1414 13.1444 1.0549
-2.6021 25.9200 2.0906
-4.9041 25.5882 2.0909
-7.1659 25.0468 2.0907
-5.7904 15.0199 1.2918
-6.0940 12.3853 1.1077
-7.5396 12.3929 1.1641
-9.8342 13.3231 1.3289
-15.9999 18.0538 1.9359
-17.4756 16.4883 1.9281
-18.7718 14.7817 1.9175
-19.8626 12.9493 1.9028
-20.7431 11.0225 1.8851
-21.3879 9.0209 1.8628
-21.4618 6.8709 1.8085
-20.9709 4.7013 1.7247
-21.9971 2.9035 1.7806
-21.6757 0.9095 1.7410
-21.2267 -1.0062 1.7054
-9.3366 -1.2840 0.7563
-5.8400 -1.3426 0.4809
-5.8441 -1.9060 0.4933
-5.8485 -2.5043 0.5106
-5.8533 -3.1512 0.5335
-5.8585 -3.8649 0.5632
-5.8644 -4.6697 0.6016
-13.6367 -13.0069 1.5123
-12.2187 -13.9389 1.4876
-10.7675 -14.7547 1.4659
-9.2889 -15.4566 1.4472
-7.7949 -16.0617 1.4327
-6.2849 -16.5701 1.4222
-4.7545 -16.9662 1.4140
-3.2091 -17.2503 1.4081
-1.6537 -17.4232 1.4045
-0.0931 -17.4851 1.4032
1.4676 -17.4361 1.4042
3.0238 -17.2761 1.4075
4.5706 -17.0048 1.4131
6.1028 -16.6219 1.4210
7.6152 -16.1265 1.4312
8.3622 -14.2564 1.3264
9.6224 -13.4849 1.3294
10.2909 -11.9951 1.2683
10.2843 -10.0208 1.1523
2.5030 -2.0370 0.2590
2.5051 -1.6912 0.2426
2.5069 -1.3843 0.2298
2.5086 -1.1059 0.2200
2.5102 -0.8484 0.2126
2.5116 -0.6056 0.2073
2.5130 -0.3729 0.2039
2.5144 -0.1460 0.2021
2.5158 0.0787 0.2020
2.5171 0.3050 0.2035
2.5185 0.5365 0.2067
2.5200 0.7773 0.2116
2.5215 1.0320 0.2186
2.5232 1.3065 0.2280
2.5250 1.6081 0.2402
2.5271 1.9467 0.2560
2.5294 2.3361 0.2763
17.5249 19.3552 2.0954
12.7364 16.8758 1.6967
11.3118 18.1548 1.7166
11.7489 23.2496 2.0905
9.5880 24.1026 2.0817
7.4084 24.8885 2.0839
3.1348 15.4634 1.2662
2.8747 25.8593 2.0880
0.2815 13.1448 1.0551
-0.8937 13.1437 1.0572
-4.0785 25.7320 2.0908
-6.3571 25.2657 2.0908
-5.7810 16.5641 1.4079
-5.8038 12.8205 1.1294
-7.0021 12.3901 1.1421
-9.5581 13.8610 1.3512
-11.0685 13.3294 1.3904
-16.9617 17.0674 1.9310
-18.3351 15.4185 1.9225
-19.4905 13.6195 1.9082
-20.4649 11.7338 1.8931
-21.1748 9.7446 1.8706
-21.4644 7.6411 1.8284
-20.7885 5.3681 1.7230
-22.0697 3.6386 1.7950
-20.7757 1.5423 1.6719
-21.4621 -0.3262 1.7226
-9.3356 -0.9792 0.7533
-5.9128 -1.1605 0.4836
-5.8426 -1.6997 0.4883
-5.8469 -2.2840 0.5038
-5.8515 -2.9115 0.5245
-5.8566 -3.5988 0.5516
-5.8622 -4.3675 0.5867
-5.8687 -5.2478 0.6318
-12.7336 -13.6168 1.4961
-11.2936 -14.4741 1.4733
-9.8243 -15.2167 1.4536
-8.3327 -15.8509 1.4371
-6.8314 -16.4000 1.4257
-5.3077 -16.8364 1.4167
-3.7671 -17.1608 1.4100
-2.2147 -17.3737 1.4055
-0.6554 -17.4756 1.4034
0.9058 -17.4665 1.4036
2.4641 -17.3465 1.4061
4.0149 -17.1154 1.4108
5.5529 -16.7727 1.4179
7.0731 -16.3179 1.4273
8.2122 -15.0930 1.3789
9.0262 -13.5507 1.3066
10.2936 -12.8099 1.3188
10.2865 -10.6890 1.1905
10.2807 -8.9314 1.0929
2.5044 -1.8106 0.2480
2.5063 -1.4911 0.2340
2.5080 -1.2034 0.2232
2.5096 -0.9391 0.2150
2.5111 -0.6917 0.2090
2.5125 -0.4559 0.2049
2.5139 -0.2273 0.2026
2.5153 -0.0022 0.2019
2.5166 0.2231 0.2028
2.5180 0.4523 0.2053
2.5195 0.6892 0.2096
2.5210 0.9383 0.2159
2.5226 1.2049 0.2243
2.5243 1.4958 0.2355
2.5263 1.8197 0.2499
2.5285 2.1889 0.2684
18.1383 18.7816 2.0954
13.0963 16.2390 1.6742
11.8715 17.7543 1.7140
12.4928 22.8638 2.0909
10.3826 23.8378 2.0866
8.2013 24.6266 2.0830
3.5322 14.9394 1.2320
3.7037 25.7460 2.0874
0.7049 13.1452 1.0564
-0.4698 13.1441 1.0555
-3.2487 25.8485 2.0907
-5.5414 25.4578 2.0909
-5.4769 17.4807 1.4701
-5.5753 13.4512 1.1685
-6.4841 12.3873 1.1221
-7.9716 12.3951 1.1827
-10.3600 13.3258 1.3546
-16.4279 17.6295 1.9338
-17.8595 16.0269 1.9257
-19.0949 14.2784 1.9134
-20.1352 12.4217 1.8986
-20.9416 10.4661 1.8788
-21.4670 8.4293 1.8508
-21.4598 6.2841 1.7945
-22.0749 4.3730 1.8060
-21.9246 2.3387 1.7695
-21.5642 0.3658 1.7308
-9.7453 -0.7062 0.7841
-7.0775 -1.1540 0.5755
-5.8411 -1.4973 0.4839
-5.8453 -2.0693 0.4976
-5.8498 -2.6796 0.5164
-5.8547 -3.3431 0.5411
-5.8601 -4.0795 0.5730
-5.8662 -4.9154 0.6142
-13.2439 -13.2794 1.5051
-11.8160 -14.1786 1.4812
-10.3566 -14.9623 1.4603
-8.8712 -15.6329 1.4425
-7.3750 -16.2152 1.4296
-5.8588 -16.6922 1.4197
-4.3237 -17.0569 1.4121
-2.7749 -17.3099 1.4069
-1.2176 -17.4517 1.4039
0.3435 -17.4825 1.4033
1.9034 -17.4025 1.4049
3.4575 -17.2114 1.4088
5.0007 -16.9090 1.4151
6.5279 -16.4947 1.4236
8.0339 -15.9678 1.4345
8.7446 -14.0900 1.3308
10.0977 -13.4288 1.3484
10.2889 -11.4038 1.2326
10.2827 -9.5304 1.1251
2.5036 -1.9357 0.2540
2.5056 -1.6020 0.2387
2.5074 -1.3040 0.2268
2.5091 -1.0321 0.2177
2.5106 -0.7792 0.2110
2.5120 -0.5397 0.2062
2.5134 -0.3091 0.2032
2.5148 -0.0831 0.2019
2.5162 0.1417 0.2022
2.5175 0.3690 0.2042
2.5189 0.6027 0.2079
2.5204 0.8469 0.2134
2.5220 1.1065 0.2210
2.5237 1.3877 0.2311
2.5256 1.6985 0.2443
2.5277 2.0497 0.2612
18.7329 18.1885 2.0954
13.6948 15.9058 1.6844
12.3605 17.2576 1.7035
10.9420 18.5795 1.7304
11.1546 23.5139 2.0886
8.9849 24.3389 2.0821
6.7868 25.0738 2.0846
4.5283 25.6054 2.0868
2.2286 25.9284 2.0885
-0.0468 13.1445 1.0549
-2.4155 25.9375 2.0905
-4.7198 25.6227 2.0909
-6.9857 25.0981 2.0907
-5.7884 15.3428 1.3160
-5.9834 12.3847 1.1038
-7.4176 12.3923 1.1590
-9.6863 13.3224 1.3219
-15.8714 18.1705 1.9362
-17.3625 16.6194 1.9288
-18.6761 14.9253 1.9186
-19.7814 13.1001 1.9040
-20.6830 11.1822 1.8869
-21.3383 9.1814 1.8642
-21.4624 7.0418 1.8127
-20.7866 4.8174 1.7124
-22.0154 3.0672 1.7838
-21.7078 1.0674 1.7442
-21.2810 -0.8553 1.7092
-9.3364 -1.2156 0.7556
-5.8397 -1.2983 0.4801
-5.8438 -1.8595 0.4921
-5.8482 -2.4544 0.5090
-5.8529 -3.0969 0.5314
-5.8581 -3.8044 0.5606
-5.8639 -4.6007 0.5981
-13.7492 -12.9267 1.5145
-12.3343 -13.8682 1.4894
-10.8855 -14.6932 1.4675
-9.4089 -15.4042 1.4486
-7.9155 -16.0158 1.4337
-6.4074 -16.5333 1.4230
-4.8785 -16.9384 1.4146
-3.3340 -17.2316 1.4085
-1.7792 -17.4134 1.4047
-0.2190 -17.4842 1.4032
1.3420 -17.4441 1.4040
2.8987 -17.2931 1.4071
4.4464 -17.0308 1.4126
5.9800 -16.6569 1.4203
7.4942 -16.1706 1.4303
8.2517 -14.3029 1.3252
9.4771 -13.4854 1.3227
10.2915 -12.1719 1.2792
10.2848 -10.1665 1.1606
2.5028 -2.0670 0.2605
2.5049 -1.7174 0.2437
2.5068 -1.4078 0.2307
2.5085 -1.1275 0.2207
2.5100 -0.8685 0.2132
2.5115 -0.6248 0.2077
2.5129 -0.3914 0.2041
2.5143 -0.1642 0.2022
2.5157 0.0606 0.2019
2.5170 0.2866 0.2033
2.5184 0.5176 0.2063
2.5199 0.7574 0.2112
2.5214 1.0109 0.2180
2.5231 1.2835 0.2272
2.5249 1.5826 0.2391
2.5269 1.9177 0.2546
2.5292 2.3024 0.2745
17.6638 19.2285 2.0954
12.8441 16.7663 1.6950
11.4874 18.1445 1.7234
11.9165 23.1654 2.0906
9.7716 24.0586 2.0839
7.5865 24.8322 2.0837
3.1406 14.9393 1.2251
3.0604 25.8364 2.0879
0.3761 13.1449 1.0553
-0.7987 13.1438 1.0568
-3.8933 25.7605 2.0908
-6.1752 25.3110 2.0908
-5.7787 16.9484 1.4370
-5.8023 13.0667 1.1474
-6.8847 12.3895 1.1375
-9.5570 14.0750 1.3653
-10.9067 13.3286 1.3821
-16.8440 17.1946 1.9317
-18.2343 15.5591 1.9237
-19.4040 13.7679 1.9094
-20.3992 11.8919 1.8949
-21.1248 9.9064 1.8725
-21.4649 7.8158 1.8332
-20.7890 5.5281 1.7263
-22.0828 3.8042 1.7983
-21.8385 1.7793 1.7584
-21.5122 -0.1722 1.7264
-9.3354 -0.9113 0.7527
-6.1399 -1.1592 0.5014
-5.8423 -1.6541 0.4873
-5.8466 -2.2355 0.5023
-5.8511 -2.8590 0.5226
-5.8561 -3.5407 0.5492
-5.8617 -4.3018 0.5835
-5.8681 -5.1718 0.6277
-12.8482 -13.5426 1.4981
-11.4109 -14.4092 1.4750
-9.9436 -15.1611 1.4550
-8.4526 -15.8017 1.4381
-6.9533 -16.3599 1.4266
-5.4312 -16.8054 1.4173
-3.8918 -17.1388 1.4104
-2.3402 -17.3607 1.4058
-0.7812 -17.4715 1.4035
0.7800 -17.4713 1.4035
2.3388 -17.3603 1.4058
3.8903 -17.1381 1.4103
5.4296 -16.8045 1.4172
6.9514 -16.3588 1.4264
8.2078 -15.3470 1.3967
9.0209 -13.7564 1.3202
10.2942 -13.0012 1.3308
10.2870 -10.8447 1.1996
10.2811 -9.0624 1.0998
2.5042 -1.8381 0.2493
2.5061 -1.5155 0.2350
2.5079 -1.2257 0.2240
2.5095 -0.9597 0.2156
2.5110 -0.7111 0.2094
2.5124 -0.4745 0.2052
2.5138 -0.2456 0.2027
2.5152 -0.0203 0.2019
2.5165 0.2048 0.2026
2.5179 0.4336 0.2050
2.5193 0.6697 0.2092
2.5208 0.9177 0.2153
2.5224 1.1827 0.2236
2.5242 1.4713 0.2345
2.5261 1.7921 0.2486
2.5283 2.1571 0.2667
18.2729 18.6506 2.0954
13.2832 16.2304 1.6831
11.9814 17.6426 1.7115
12.6575 22.7742 2.0910
10.5571 23.7698 2.0872
8.3776 24.5645 2.0828
3.6460 14.9394 1.2341
3.8886 25.7169 2.0873
0.7998 13.1452 1.0569
-0.3751 13.1442 1.0553
-3.0625 25.8708 2.0907
-5.3580 25.4970 2.0909
-5.4073 17.7041 1.4856
-5.5169 13.5858 1.1767
-6.3706 12.3867 1.1178
-7.8457 12.3945 1.1772
-10.2064 13.3250 1.3470
-16.3057 17.7529 1.9345
-17.7501 16.1608 1.9264
-19.0032 14.4243 1.9146
-20.0581 12.5744 1.8999
-20.8859 10.6268 1.8806
-21.4676 8.6084 1.8562
-21.4604 6.4523 1.7984
-22.0420 4.5316 1.8059
-21.9469 2.5009 1.7727
-21.5916 0.5218 1.7333
-10.8069 -0.7049 0.8691
-7.4015 -1.1522 0.6011
-5.8408 -1.4525 0.4830
-5.8450 -2.0219 0.4963
-5.8495 -2.6286 0.5146
-5.8543 -3.2872 0.5388
-5.8596 -4.0169 0.5701
-5.8657 -4.8435 0.6105
-13.3574 -13.2018 1.5072
-11.9323 -14.1105 1.4830
-10.4752 -14.9033 1.4619
-8.9918 -15.5829 1.4438
-7.4963 -16.1719 1.4305
-5.9817 -16.6579 1.4204
-4.4480 -17.0316 1.4126
-2.9002 -17.2936 1.4072
-1.3433 -17.4444 1.4041
0.2176 -17.4841 1.4032
1.7779 -17.4131 1.4047
3.3326 -17.2310 1.4084
4.8769 -16.9375 1.4145
6.4055 -16.5323 1.4228
7.9134 -16.0145 1.4335
8.6346 -14.1388 1.3295
9.9896 -13.4859 1.3468
10.2895 -11.5709 1.2426
8.9120 -12.9707 1.3605
10.1672 -12.2862 1.3787
10.2855 -10.3846 1.2636
2.5025 -2.1117 0.2831
2.5047 -1.7565 0.2645
2.5066 -1.4428 0.2500
2.5083 -1.1594 0.2389
2.5099 -0.8983 0.2305
2.5113 -0.6530 0.2243
2.5128 -0.4186 0.2202
2.5141 -0.1909 0.2180
2.5155 0.0340 0.2175
2.5169 0.2597 0.2187
2.5183 0.4898 0.2218
2.5197 0.7284 0.2268
2.5212 0.9800 0.2339
2.5229 1.2500 0.2434
2.5246 1.5455 0.2559
2.5266 1.8758 0.2721
2.5289 2.2537 0.2929
16.5843 17.6746 2.0954
12.8792 16.4488 1.8061
11.6505 17.9786 1.8521
11.2740 21.3581 2.0880
9.2765 22.1643 2.0773
7.2718 22.9312 2.0798
3.3058 14.9387 1.3228
3.0881 23.9034 2.0837
0.5152 13.1436 1.1372
-0.6593 13.1425 1.1377
-3.3540 23.9005 2.0865
-5.4723 23.5071 2.0866
-5.6864 17.2737 1.5722
-5.7162 13.2487 1.2475
-6.7127 12.3868 1.2180
-9.4137 14.1844 1.4718
-10.6723 13.3272 1.4761
-15.4214 16.0791 1.9261
-16.7034 14.5608 1.9157
-17.8135 12.9247 1.9027
-18.7338 11.1882 1.8865
-19.4425 9.3696 1.8659
-19.9458 7.5025 1.8424
-20.2164 5.6054 1.8137
-20.3771 3.7327 1.7910
-20.2063 1.8616 1.7543
-19.9302 0.0513 1.7231
-9.3350 -0.8116 0.8101
-6.5110 -1.1581 0.5717
-5.8418 -1.5874 0.5234
-5.8460 -2.1647 0.5390
-5.8506 -2.7825 0.5601
-5.8555 -3.4563 0.5878
-5.8610 -4.2067 0.6237
-5.8673 -5.0618 0.6699
-12.2511 -12.6427 1.5220
-10.9119 -13.4838 1.4996
-9.5404 -14.2161 1.4801
-8.1420 -14.8415 1.4635
-6.7217 -15.3617 1.4497
-5.2842 -15.7784 1.4386
-3.8377 -16.1095 1.4317
-2.3779 -16.3342 1.4270
-0.9101 -16.4527 1.4246
0.5607 -16.4651 1.4243
2.0295 -16.3715 1.4262
3.4915 -16.1717 1.4303
4.9415 -15.8656 1.4366
6.3807 -15.4683 1.4466
7.8051 -14.9726 1.4598
8.4534 -13.1931 1.3546
9.7183 -12.5442 1.3719
10.2878 -11.0778 1.3070
10.2818 -9.2581 1.1962
2.5040 -1.8790 0.2706
2.5059 -1.5518 0.2548
2.5077 -1.2586 0.2426
2.5093 -0.9902 0.2332
2.5108 -0.7399 0.2263
2.5123 -0.5021 0.2215
2.5136 -0.2724 0.2186
2.5150 -0.0469 0.2175
2.5164 0.1781 0.2181
2.5178 0.4062 0.2205
2.5192 0.6412 0.2247
2.5207 0.8875 0.2310
2.5222 1.1502 0.2397
2.5240 1.4356 0.2510
2.5259 1.7521 0.2658
2.5281 2.1110 0.2847
17.1441 17.1321 2.0954
13.4802 16.1201 1.8167
12.1424 17.4790 1.8400
11.9574 20.9887 2.0884
10.0068 21.9034 2.0819
8.0021 22.6759 2.0789
3.8137 14.9388 1.3329
3.8542 23.7849 2.0831
0.9394 13.1440 1.1393
-0.2360 13.1429 1.1364
-2.5835 23.9945 2.0864
-4.7135 23.6712 2.0867
-6.8051 23.1543 2.0865
-5.7923 14.7085 1.3667
-6.2046 12.3841 1.1975
-7.6616 12.3917 1.2595
-9.9835 13.3237 1.4394
-15.2265 16.9340 1.9688
-16.2645 15.1259 1.9202
-17.4323 13.5248 1.9075
-18.4349 11.8303 1.8937
-19.2078 10.0301 1.8734
-19.8040 8.1854 1.8526
-20.1396 6.2882 1.8241
-20.3575 4.4102 1.8008
-20.2870 2.5294 1.7675
-20.0119 0.6955 1.7312
-19.5757 -1.0692 1.6949
-9.3369 -1.3526 0.8156
-5.8403 -1.3870 0.5190
-5.8445 -1.9528 0.5327
-5.8489 -2.5544 0.5518
-5.8537 -3.2060 0.5770
-5.8590 -3.9260 0.6097
-5.8649 -4.7395 0.6519
-12.7243 -12.3128 1.5308
-11.3984 -13.1935 1.5074
-10.0378 -13.9647 1.4868
-8.6484 -14.6284 1.4692
-7.2355 -15.1863 1.4543
-5.8037 -15.6401 1.4422
-4.3605 -16.0025 1.4339
-2.9049 -16.2655 1.4285
-1.4394 -16.4222 1.4252
