ply
format ascii 1.0
element vertex 931
property float32 x
property float32 y
property float32 z
end_header
11.7751 -20.7576 -8.9087
11.8831 -20.9480 -8.8218
10.3229 -22.5083 -8.8978
11.8831 -20.9480 -8.6539
8.5807 -23.9520 -8.9656
10.3229 -22.5083 -8.7260
11.8831 -20.9480 -8.4868
8.5807 -23.9520 -8.7898
10.3229 -22.5083 -8.5549
11.8831 -20.9480 -8.3204
8.5807 -23.9520 -8.6148
10.3229 -22.5083 -8.3845
11.8689 -20.9229 -8.1449
6.8375 -25.9113 -8.8902
8.5807 -23.9520 -8.4404
10.2350 -22.3166 -8.1449
11.8831 -20.9480 -7.9896
6.8375 -25.9113 -8.7073
8.5807 -23.9520 -8.2668
10.3229 -22.5083 -8.0458
11.8831 -20.9480 -7.8253
6.8375 -25.9113 -8.5251
8.5807 -23.9520 -8.0939
10.3229 -22.5083 -7.8775
11.8831 -20.9480 -7.6616
0.0000 -25.0410 -7.7966
6.8375 -25.9113 -8.3437
8.5807 -23.9520 -7.9216
10.3229 -22.5083 -7.7099
11.8831 -20.9480 -7.4985
-0.0000 -25.0410 -7.6277
6.8224 -25.8538 -8.1449
8.5807 -23.9520 -7.7500
10.3229 -22.5083 -7.5429
11.7964 -20.7952 -7.2826
0.0000 -25.0759 -7.4698
6.8375 -25.9113 -7.9829
8.5807 -23.9520 -7.5791
10.2290 -22.3037 -7.3094
11.8831 -20.9480 -7.1743
-0.0000 -25.0687 -7.2999
6.8375 -25.9113 -7.8035
8.5807 -23.9520 -7.4088
10.3229 -22.5083 -7.2107
11.8831 -20.9480 -7.0131
-0.0000 -25.0616 -7.1306
6.8376 -25.9113 -7.6248
8.5807 -23.9520 -7.2390
10.3229 -22.5083 -7.0456
11.8831 -20.9480 -6.8524
0.0000 -25.0545 -6.9621
6.8375 -25.9113 -7.4466
8.5807 -23.9520 -7.0699
10.3229 -22.5083 -6.8810
10.9133 -19.2383 -6.1461
0.0000 -25.0474 -6.7942
6.8375 -25.9113 -7.2691
8.5807 -23.9520 -6.9014
9.5054 -20.7258 -6.1850
10.9133 -19.2383 -5.9996
-0.0000 -25.0445 -6.6281
6.8375 -25.9113 -7.0922
8.5807 -23.9520 -6.7334
9.5992 -20.9304 -6.0940
10.9387 -19.2831 -5.8672
-0.0000 -25.0416 -6.4625
6.8376 -25.9113 -6.9158
7.9813 -22.2787 -6.1073
9.5992 -20.9304 -5.9425
11.0501 -19.4795 -5.7796
-0.0000 -25.0024 -6.2884
6.8375 -25.9113 -6.7400
8.0524 -22.4772 -6.0051
9.5992 -20.9304 -5.7914
11.0501 -19.4795 -5.6327
0.0000 -25.0425 -6.1347
6.3610 -24.1055 -6.1073
8.0524 -22.4772 -5.8489
9.5992 -20.9304 -5.6408
11.0501 -19.4795 -5.4862
-0.0000 -25.0024 -5.9618
6.3742 -24.1554 -5.9570
8.0524 -22.4772 -5.6933
9.5992 -20.9304 -5.4907
11.0501 -19.4795 -5.3402
-0.0000 -25.0412 -5.8083
4.5065 -25.9417 -6.1073
6.3742 -24.1554 -5.7946
8.0524 -22.4772 -5.5380
9.5992 -20.9304 -5.3410
11.0501 -19.4795 -5.1946
-0.0000 -25.0405 -5.6458
4.5186 -26.0110 -5.9525
6.3742 -24.1554 -5.6327
8.0068 -22.3500 -5.3528
9.5992 -20.9304 -5.1918
11.0501 -19.4795 -5.0494
0.0000 -25.0398 -5.4838
4.5186 -26.0110 -5.7818
6.3742 -24.1554 -5.4712
8.0524 -22.4772 -5.2289
9.5992 -20.9304 -5.0429
11.0501 -19.4795 -4.9047
0.0000 -25.0392 -5.3222
4.5186 -26.0110 -5.6116
6.3742 -24.1554 -5.3101
8.0524 -22.4772 -5.0750
9.5992 -20.9304 -4.8945
11.0501 -19.4795 -4.7603
-0.0000 -25.0385 -5.1611
4.4744 -25.7567 -5.3887
6.3742 -24.1554 -5.1495
8.0524 -22.4772 -4.9215
9.5992 -20.9304 -4.7464
11.0501 -19.4795 -4.6163
-0.0000 -25.0378 -5.0004
4.5186 -26.0110 -5.2725
6.3742 -24.1554 -4.9893
8.0524 -22.4772 -4.7684
9.5992 -20.9304 -4.5987
11.0501 -19.4795 -4.4727
-0.0000 -25.0372 -4.8401
4.5186 -26.0110 -5.1036
6.3742 -24.1554 -4.8294
8.0524 -22.4772 -4.6156
9.5992 -20.9304 -4.4514
11.0501 -19.4795 -4.3294
-0.0000 -25.0365 -4.6801
4.5186 -26.0110 -4.9351
6.3742 -24.1554 -4.6700
8.0524 -22.4772 -4.4632
9.5992 -20.9304 -4.3044
11.0501 -19.4795 -4.1864
-0.0000 -25.0359 -4.5206
4.5186 -26.0110 -4.7670
6.3454 -24.0463 -4.4905
8.0524 -22.4772 -4.3112
9.5992 -20.9304 -4.1578
11.0501 -19.4795 -4.0438
-0.0000 -25.0352 -4.3614
4.5186 -26.0110 -4.5993
6.3742 -24.1554 -4.3522
8.0524 -22.4772 -4.1595
9.5992 -20.9304 -4.0115
10.6318 -18.7421 -3.7538
0.0000 -25.0346 -4.2026
4.5186 -26.0110 -4.4319
6.3742 -24.1554 -4.1938
8.0524 -22.4772 -4.0081
9.2715 -20.2160 -3.7335
10.6729 -18.8146 -3.6312
-0.0000 -25.0339 -4.0441
4.5186 -26.0110 -4.2648
6.3742 -24.1554 -4.0357
7.7775 -21.7100 -3.7254
9.2715 -20.2160 -3.5928
10.6729 -18.8146 -3.4943
0.0000 -25.0333 -3.8859
4.5186 -26.0110 -4.0981
6.1329 -23.2410 -3.7312
7.7775 -21.7100 -3.5797
9.2715 -20.2160 -3.4524
10.6729 -18.8146 -3.3578
0.0000 -25.0326 -3.7280
4.3475 -25.0264 -3.7829
6.1329 -23.2410 -3.5797
7.7775 -21.7100 -3.4344
9.2715 -20.2160 -3.3122
10.6729 -18.8146 -3.2214
-0.0000 -25.0320 -3.5704
4.3643 -25.1232 -3.6371
6.1329 -23.2410 -3.4285
7.7775 -21.7100 -3.2893
9.2715 -20.2160 -3.1723
10.6729 -18.8146 -3.0853
0.0000 -25.0313 -3.4132
2.3343 -27.0759 -3.7056
4.3643 -25.1232 -3.4770
6.1329 -23.2410 -3.2775
7.7775 -21.7100 -3.1445
9.2358 -20.1381 -3.0210
10.6729 -18.8146 -2.9495
0.0000 -25.0307 -3.2561
2.3343 -27.0759 -3.5353
4.3643 -25.1232 -3.3171
6.1329 -23.2410 -3.1268
7.7680 -21.6832 -2.9962
9.2715 -20.2160 -2.8932
10.6729 -18.8146 -2.8139
0.0000 -25.0301 -3.0994
2.3343 -27.0759 -3.3652
4.3643 -25.1232 -3.1575
6.1329 -23.2410 -2.9764
7.7775 -21.7100 -2.8556
9.2715 -20.2160 -2.7540
10.6729 -18.8146 -2.6785
-0.0000 -25.0294 -2.9429
2.3343 -27.0758 -3.1953
4.3615 -25.1071 -2.9962
6.1329 -23.2410 -2.8262
7.7775 -21.7100 -2.7115
9.2715 -20.2160 -2.6150
10.6729 -18.8146 -2.5433
-0.0000 -25.0288 -2.7866
2.3314 -27.0425 -3.0220
4.3643 -25.1232 -2.8390
6.1329 -23.2410 -2.6761
7.7775 -21.7100 -2.5675
9.2715 -20.2160 -2.4762
10.6729 -18.8146 -2.4083
-0.0000 -25.0281 -2.6306
2.3343 -27.0759 -2.8563
4.3643 -25.1232 -2.6801
6.1329 -23.2410 -2.5263
7.7775 -21.7100 -2.4238
9.2715 -20.2160 -2.3376
10.6729 -18.8146 -2.2735
0.0000 -25.0275 -2.4747
2.3343 -27.0759 -2.6872
4.3643 -25.1232 -2.5214
6.1329 -23.2410 -2.3767
7.7775 -21.7100 -2.2803
9.2715 -20.2160 -2.1992
10.6483 -18.7712 -2.1339
-0.0000 -25.0268 -2.3191
2.3343 -27.0758 -2.5183
4.3643 -25.1232 -2.3629
6.1329 -23.2410 -2.2273
7.7667 -21.6797 -2.1339
9.2715 -20.2160 -2.0609
10.6729 -18.8146 -2.0044
0.0000 -25.0262 -2.1636
2.3343 -27.0759 -2.3495
4.3643 -25.1232 -2.2045
6.1329 -23.2410 -2.0781
7.7775 -21.7100 -1.9937
9.2715 -20.2160 -1.9228
10.6729 -18.8146 -1.8701
-0.0000 -25.0256 -2.0083
2.3314 -27.0425 -2.1783
4.3643 -25.1232 -2.0464
6.1329 -23.2410 -1.9290
7.7775 -21.7100 -1.8507
9.2715 -20.2160 -1.7848
10.6729 -18.8146 -1.7359
0.0000 -25.0249 -1.8532
2.3343 -27.0758 -2.0125
4.3643 -25.1232 -1.8884
6.1329 -23.2410 -1.7800
7.7775 -21.7100 -1.7078
9.2715 -20.2160 -1.6470
10.6729 -18.8146 -1.6019
-0.0000 -25.0243 -1.6982
2.3343 -27.0758 -1.8443
4.3643 -25.1232 -1.7305
6.1329 -23.2410 -1.6312
7.7775 -21.7100 -1.5650
9.2715 -20.2160 -1.5093
10.6729 -18.8146 -1.4680
0.0000 -25.0237 -1.5434
2.3343 -27.0758 -1.6762
4.3643 -25.1232 -1.5728
6.1329 -23.2410 -1.4825
7.7476 -21.6263 -1.4169
9.2358 -20.1381 -1.3665
10.6318 -18.7421 -1.3290
-0.0000 -25.0230 -1.3887
2.3343 -27.0758 -1.5082
4.3475 -25.0264 -1.4097
6.1329 -23.2410 -1.3340
7.7476 -21.6263 -1.2749
9.2358 -20.1381 -1.2295
10.6318 -18.7421 -1.1958
-0.0000 -25.0224 -1.2341
2.3314 -27.0425 -1.3387
4.3475 -25.0264 -1.2528
6.1329 -23.2410 -1.1855
7.7476 -21.6264 -1.1330
9.2358 -20.1381 -1.0927
10.6318 -18.7421 -1.0627
-0.0000 -25.0218 -1.0796
2.3314 -27.0425 -1.1711
4.3475 -25.0264 -1.0960
6.1329 -23.2410 -1.0371
7.7476 -21.6264 -0.9912
9.2358 -20.1381 -0.9559
10.6318 -18.7421 -0.9297
0.0000 -25.0211 -0.9252
2.3314 -27.0425 -1.0037
4.3475 -25.0264 -0.9393
6.1329 -23.2410 -0.8888
7.7476 -21.6263 -0.8494
9.2358 -20.1381 -0.8192
10.6318 -18.7421 -0.7968
-0.0000 -25.0205 -0.7709
2.3314 -27.0425 -0.8363
4.3475 -25.0264 -0.7826
6.1329 -23.2410 -0.7406
7.7476 -21.6264 -0.7078
9.2358 -20.1381 -0.6826
10.6318 -18.7421 -0.6639
-0.0000 -25.0199 -0.6166
2.3314 -27.0425 -0.6689
4.3475 -25.0264 -0.6260
6.1329 -23.2410 -0.5924
7.7476 -21.6264 -0.5661
9.2358 -20.1381 -0.5460
10.6318 -18.7421 -0.5310
-0.0000 -25.0192 -0.4624
2.3314 -27.0425 -0.5017
4.3475 -25.0264 -0.4695
6.1329 -23.2410 -0.4442
7.7476 -21.6264 -0.4246
9.2358 -20.1381 -0.4095
10.6318 -18.7421 -0.3982
-0.0000 -25.0186 -0.3082
2.3314 -27.0425 -0.3344
4.3475 -25.0264 -0.3130
6.1329 -23.2410 -0.2961
7.7476 -21.6264 -0.2830
9.2358 -20.1381 -0.2730
10.6318 -18.7421 -0.2655
0.0000 -25.0180 -0.1541
2.3314 -27.0425 -0.1672
4.3475 -25.0264 -0.1565
6.1329 -23.2410 -0.1481
7.7476 -21.6264 -0.1415
9.2358 -20.1381 -0.1365
10.6318 -18.7421 -0.1327
-0.0000 -25.0173 -0.0000
2.3314 -27.0425 -0.0000
4.3475 -25.0264 -0.0000
6.1329 -23.2410 -0.0000
7.7476 -21.6264 -0.0000
9.2358 -20.1381 -0.0000
10.6318 -18.7421 -0.0000
-0.0000 -25.0167 0.1541
2.3314 -27.0425 0.1672
4.4874 -25.8316 0.1615
6.3302 -23.9888 0.1528
7.9969 -22.3222 0.1461
9.5330 -20.7860 0.1409
10.6318 -18.7421 0.1327
-0.0000 -25.0161 0.3082
2.3314 -27.0425 0.3344
4.4874 -25.8316 0.3230
6.3302 -23.9888 0.3057
7.9969 -22.3222 0.2921
9.5330 -20.7860 0.2817
10.6318 -18.7421 0.2655
-0.0000 -25.0154 0.4623
2.3314 -27.0425 0.5017
4.4874 -25.8317 0.4846
6.3302 -23.9888 0.4585
7.9969 -22.3222 0.4382
9.5330 -20.7860 0.4226
10.6318 -18.7421 0.3982
-0.0000 -25.0148 0.6165
2.3314 -27.0425 0.6689
4.4874 -25.8316 0.6462
6.3302 -23.9888 0.6114
7.9969 -22.3222 0.5844
9.5330 -20.7860 0.5636
10.6318 -18.7421 0.5310
-0.0000 -25.0142 0.7707
2.3314 -27.0425 0.8363
4.4874 -25.8316 0.8078
6.3302 -23.9888 0.7644
7.9969 -22.3222 0.7305
9.5330 -20.7860 0.7045
10.6318 -18.7421 0.6639
0.0000 -25.0136 0.9249
2.3314 -27.0425 1.0037
4.4874 -25.8316 0.9695
6.3302 -23.9888 0.9174
7.9969 -22.3222 0.8768
9.5330 -20.7860 0.8456
10.6318 -18.7421 0.7968
-0.0000 -25.0129 1.0792
2.3314 -27.0425 1.1711
4.4874 -25.8316 1.1312
6.3302 -23.9888 1.0705
7.9969 -22.3222 1.0231
9.5330 -20.7860 0.9867
10.6318 -18.7421 0.9297
-0.0000 -25.0123 1.2336
2.3314 -27.0425 1.3387
4.4874 -25.8316 1.2931
6.3302 -23.9888 1.2236
7.9969 -22.3222 1.1694
9.5330 -20.7860 1.1278
10.6318 -18.7421 1.0627
-0.0000 -25.0117 1.3881
2.3314 -27.0425 1.5063
4.4874 -25.8316 1.4550
6.3302 -23.9888 1.3769
7.9969 -22.3222 1.3159
9.5330 -20.7860 1.2691
10.6318 -18.7421 1.1958
-0.0000 -24.9173 1.5368
2.3314 -27.0425 1.6741
4.4874 -25.8316 1.6171
6.3302 -23.9888 1.5302
7.9969 -22.3222 1.4625
9.5330 -20.7860 1.4104
10.6318 -18.7421 1.3290
-0.0000 -24.8890 1.6891
2.3314 -27.0425 1.8420
4.4874 -25.8316 1.7793
6.3302 -23.9888 1.6837
7.9969 -22.3222 1.6091
9.5330 -20.7860 1.5519
10.6318 -18.7421 1.4623
0.0000 -24.8608 1.8411
2.3314 -27.0425 2.0101
4.4874 -25.8316 1.9416
6.3302 -23.9888 1.8373
7.9969 -22.3222 1.7559
9.5330 -20.7860 1.6935
10.6318 -18.7421 1.5957
-0.0000 -24.8326 1.9928
2.3314 -27.0425 2.1782
4.4874 -25.8316 2.1041
6.3302 -23.9888 1.9910
7.9969 -22.3222 1.9029
9.5330 -20.7860 1.8352
10.6318 -18.7421 1.7292
0.0000 -24.7952 2.1436
2.2215 -25.7670 2.2359
4.4050 -25.3574 2.2251
6.3302 -23.9888 2.1449
7.9969 -22.3222 2.0499
9.5330 -20.7860 1.9770
10.6318 -18.7421 1.8629
0.0000 -24.1606 2.2388
2.0677 -23.9837 2.2307
4.0947 -23.5708 2.2169
6.0662 -22.9881 2.2031
7.9396 -22.1623 2.1814
9.5330 -20.7860 2.1190
10.6318 -18.7421 1.9967
0.0000 -22.5858 2.2333
1.9307 -22.3943 2.2226
3.8249 -22.0179 2.2097
5.6604 -21.4506 2.1936
7.4134 -20.6936 2.1735
9.0676 -19.7712 2.1508
10.5927 -18.6733 2.1228
-0.0000 -21.4634 2.2559
1.8105 -21.0005 2.2154
3.5882 -20.6552 2.2035
5.3052 -20.1043 2.1854
6.9522 -19.4060 2.1666
8.4983 -18.5299 2.1426
9.9358 -17.5152 2.1165
0.0000 -21.3781 2.3802
1.7060 -19.7884 2.2113
3.3749 -19.4277 2.1954
4.9918 -18.9166 2.1782
6.5419 -18.2607 2.1596
7.9956 -17.4339 2.1354
9.3549 -16.4911 2.1109
0.0000 -20.1784 2.3725
1.7024 -19.7459 2.3303
3.1852 -18.3357 2.1882
4.7133 -17.8612 2.1720
6.1741 -17.2341 2.1524
7.5497 -16.4615 2.1293
8.8378 -15.5796 2.1060
0.0000 -19.0985 2.3649
1.6350 -18.9650 2.3571
3.1761 -18.2831 2.2978
4.4882 -17.0084 2.1782
5.8453 -16.3165 2.1462
7.1518 -15.5939 2.1243
8.3769 -14.7671 2.1023
0.0000 -18.1269 2.3581
1.5521 -18.0032 2.3507
3.0739 -17.6946 2.3363
4.4814 -16.9827 2.2848
5.6682 -15.8219 2.1863
6.7932 -14.8121 2.1198
7.9600 -14.0322 2.0986
0.0000 -17.2480 2.3519
1.4770 -17.1319 2.3447
2.9254 -16.8400 2.3306
4.3334 -16.4217 2.3158
5.6611 -15.8022 2.2888
6.7550 -14.7288 2.2095
7.7815 -13.7175 2.1504
-0.0000 -16.4492 2.3462
1.4085 -16.3368 2.3388
2.7904 -16.0629 2.3254
4.1321 -15.6589 2.3100
5.4154 -15.1165 2.2903
6.6351 -14.4674 2.2702
7.7723 -13.7014 2.2468
0.0000 -15.7198 2.3411
1.3459 -15.6109 2.3335
2.6671 -15.3532 2.3207
3.9482 -14.9618 2.3045
5.1763 -14.4490 2.2858
6.3446 -13.8339 2.2666
7.4381 -13.1122 2.2451
-0.0000 -15.0512 2.3364
1.2885 -14.9457 2.3286
2.5541 -14.7023 2.3164
3.7796 -14.3230 2.2995
4.9570 -13.8369 2.2816
6.0777 -13.2521 2.2631
7.1201 -12.5516 2.2400
0.0000 -14.4360 2.3320
1.2358 -14.3338 2.3241
2.4489 -14.0969 2.3114
3.6246 -13.7355 2.2948
4.7552 -13.2735 2.2777
5.8256 -12.7023 2.2575
6.8276 -12.0360 2.2354
-0.0000 -13.8673 2.3279
1.1871 -13.7689 2.3200
2.3515 -13.5365 2.3064
3.4815 -13.1932 2.2906
4.5663 -12.7462 2.2729
5.5931 -12.1954 2.2523
6.5577 -11.5602 2.2311
0.0000 -13.3402 2.3240
1.1420 -13.2458 2.3161
2.2614 -13.0179 2.3018
3.3484 -12.6888 2.2862
4.3892 -12.2518 2.2672
5.3781 -11.7265 2.2475
6.3087 -11.1212 2.2274
0.0000 -12.8503 2.3203
1.0996 -12.7543 2.3115
2.1777 -12.5361 2.2975
3.2221 -12.2102 2.2802
4.2249 -11.7933 2.2620
5.1793 -11.2930 2.2433
6.0810 -10.7197 2.2253
-0.0000 -12.3939 2.3168
1.0600 -12.2945 2.3068
2.0978 -12.0762 2.2912
3.1047 -11.7654 2.2746
4.0735 -11.3705 2.2578
4.9799 -10.8583 2.2330
5.8686 -10.3454 2.2234
0.0000 -11.9750 2.3150
1.0224 -11.8591 2.3010
2.0242 -11.6522 2.2863
2.9860 -11.3158 2.2624
3.9305 -10.9714 2.2529
4.8268 -10.5245 2.2383
5.6702 -9.9956 2.2216
0.0000 -11.5665 2.3100
0.9877 -11.4569 2.2966
1.9560 -11.2595 2.2823
2.8968 -10.9776 2.2674
3.7894 -10.5777 2.2440
4.6516 -10.1425 2.2285
5.4843 -9.6680 2.2198
0.0000 -11.1841 2.3053
0.9553 -11.0802 2.2924
1.8920 -10.8915 2.2786
2.8027 -10.6210 2.2642
3.6802 -10.2727 2.2493
4.5026 -9.8177 2.2264
5.3098 -9.3604 2.2182
0.0000 -10.8252 2.3010
0.9248 -10.7266 2.2885
1.8320 -10.5459 2.2752
2.7143 -10.2862 2.2612
3.5649 -9.9509 2.2468
4.3773 -9.5443 2.2319
5.1292 -9.0419 2.2096
-0.0000 -10.4878 2.2969
0.8961 -10.3940 2.2848
1.7755 -10.2208 2.2719
2.6312 -9.9709 2.2584
3.4563 -9.6478 2.2444
4.2448 -9.2555 2.2300
4.9910 -8.7984 2.2153
-0.0000 -10.1700 2.2930
0.8691 -10.0807 2.2813
1.7223 -9.9143 2.2688
2.5527 -9.6737 2.2558
3.3539 -9.3619 2.2422
4.1198 -8.9829 2.2282
4.8450 -8.5409 2.2140
0.0000 -9.8701 2.2894
0.8436 -9.7848 2.2780
1.6720 -9.6249 2.2659
2.4786 -9.3929 2.2533
3.2571 -9.0918 2.2401
4.0016 -8.7253 2.2265
4.7069 -8.2975 2.2127
0.0000 -9.5865 2.2859
0.8195 -9.5051 2.2749
1.6245 -9.3512 2.2632
2.4085 -9.1272 2.2509
3.1655 -8.8360 2.2381
3.8897 -8.4813 2.2249
4.5761 -8.0668 2.2115
0.0000 -1.4819 0.3630
0.7966 -9.2401 2.2720
1.5737 -9.0591 2.2524
2.3421 -8.8754 2.2486
3.0786 -8.5936 2.2362
3.7836 -8.2499 2.2234
4.4520 -7.8481 2.2103
0.0000 -1.4437 0.3631
0.7750 -8.9888 2.2692
1.5312 -8.8141 2.2500
2.2790 -8.6364 2.2465
2.9962 -8.3635 2.2344
3.6829 -8.0302 2.2220
4.3341 -7.6403 2.2093
-0.0000 -1.4073 0.3632
0.7544 -8.7501 2.2665
1.4960 -8.6119 2.2558
2.2114 -8.3802 2.2367
2.9178 -8.1447 2.2327
3.5870 -7.8213 2.2206
4.2219 -7.4426 2.2082
0.0000 -1.3726 0.3633
0.1180 -1.3685 0.3635
1.4574 -8.3895 2.2535
2.1556 -8.1688 2.2359
2.8337 -7.9099 2.2236
3.4958 -7.6223 2.2193
4.1151 -7.2543 2.2072
0.0000 -1.3394 0.3633
0.1151 -1.3354 0.3636
1.4206 -8.1776 2.2514
2.1005 -7.9598 2.2330
2.7629 -7.7122 2.2221
3.4088 -7.4326 2.2180
4.0133 -7.0747 2.2063
-0.0000 -1.3077 0.3634
0.1124 -1.3037 0.3636
0.2241 -1.2902 0.3639
2.0488 -7.7641 2.2313
2.7042 -7.5484 2.2281
3.3257 -7.2516 2.2169
3.9160 -6.9032 2.2054
-0.0000 -1.2774 0.3634
0.1098 -1.2735 0.3637
0.2189 -1.2602 0.3639
2.0063 -7.6029 2.2373
2.6393 -7.3674 2.2267
3.2464 -7.0785 2.2157
3.8230 -6.7394 2.2045
0.0000 -1.2483 0.3635
0.1073 -1.2445 0.3637
0.2139 -1.2315 0.3640
1.9523 -7.3984 2.2281
2.5773 -7.1943 2.2253
3.1705 -6.9130 2.2146
3.7341 -6.5825 2.2037
-0.0000 -1.2205 0.3636
0.1049 -1.2167 0.3638
0.2092 -1.2040 0.3640
0.3120 -1.1824 0.3643
2.5179 -7.0285 2.2240
3.0978 -6.7545 2.2136
3.6488 -6.4323 2.2029
-0.0000 -1.1937 0.3636
0.1026 -1.1900 0.3638
0.2046 -1.1776 0.3641
0.3052 -1.1565 0.3643
2.4610 -6.8697 2.2228
3.0281 -6.6025 2.2126
3.5671 -6.2883 2.2022
0.0000 -1.1680 0.3637
0.1004 -1.1644 0.3639
0.2002 -1.1522 0.3641
0.2986 -1.1315 0.3644
0.3950 -1.1025 0.3646
2.9612 -6.4567 2.2116
3.4887 -6.1500 2.2015
-0.0000 -1.1433 0.3637
0.0983 -1.1398 0.3639
0.1959 -1.1278 0.3642
0.2923 -1.1075 0.3644
0.3866 -1.0791 0.3646
0.4782 -1.0427 0.3649
3.4134 -6.0173 2.2008
-0.0000 -1.1196 0.3638
0.0962 -1.1161 0.3640
0.1918 -1.1043 0.3642
0.2862 -1.0845 0.3644
0.3785 -1.0566 0.3647
0.4682 -1.0209 0.3649
3.3410 -5.8896 2.2001
-0.0000 -1.0967 0.3638
0.0943 -1.0932 0.3640
0.1879 -1.0817 0.3642
0.2803 -1.0623 0.3645
0.3708 -1.0350 0.3647
0.4586 -1.0000 0.3650
0.5432 -0.9576 0.3652
0.0000 -1.0746 0.3639
0.0923 -1.0712 0.3641
0.1841 -1.0599 0.3643
0.2747 -1.0409 0.3645
0.3633 -1.0141 0.3647
0.4494 -0.9798 0.3650
0.5322 -0.9382 0.3652
0.0000 -1.0533 0.3639
0.0905 -1.0500 0.3641
0.1805 -1.0389 0.3643
0.2692 -1.0202 0.3645
0.3561 -0.9940 0.3648
0.4404 -0.9603 0.3650
0.5217 -0.9196 0.3653
0.0000 -1.0328 0.3639
0.0888 -1.0295 0.3641
0.1770 -1.0187 0.3643
0.2640 -1.0003 0.3646
0.3491 -0.9745 0.3648
0.4318 -0.9416 0.3650
0.5114 -0.9016 0.3653
0.0000 -1.0130 0.3640
0.0871 -1.0097 0.3642
0.1736 -0.9991 0.3644
0.2589 -0.9811 0.3646
0.3424 -0.9558 0.3648
0.4235 -0.9234 0.3650
0.5016 -0.8842 0.3653
0.0000 -0.9938 0.3640
0.0854 -0.9906 0.3642
0.1703 -0.9801 0.3644
0.2540 -0.9625 0.3646
0.3359 -0.9376 0.3648
0.4155 -0.9059 0.3651
0.4921 -0.8674 0.3653
-0.0000 -0.9752 0.3641
0.0838 -0.9721 0.3642
0.1671 -0.9618 0.3644
0.2492 -0.9445 0.3646
0.3296 -0.9201 0.3649
0.4077 -0.8889 0.3651
0.4829 -0.8512 0.3653
0.0000 -0.9573 0.3641
0.0823 -0.9542 0.3643
0.1640 -0.9441 0.3645
0.2446 -0.9271 0.3647
0.3236 -0.9032 0.3649
0.4002 -0.8726 0.3651
0.4739 -0.8355 0.3653
0.0000 -0.9399 0.3641
0.0808 -0.9369 0.3643
0.1610 -0.9270 0.3645
0.2402 -0.9102 0.3647
0.3177 -0.8867 0.3649
0.3929 -0.8567 0.3651
0.4653 -0.8203 0.3653
-0.0000 -0.9231 0.3642
0.0793 -0.9201 0.3643
0.1581 -0.9104 0.3645
0.2359 -0.8939 0.3647
0.3120 -0.8708 0.3649
0.3858 -0.8413 0.3651
0.4570 -0.8055 0.3654
-0.0000 -0.9068 0.3642
0.0779 -0.9038 0.3644
0.1553 -0.8942 0.3645
0.2317 -0.8781 0.3647
0.3064 -0.8554 0.3649
0.3790 -0.8264 0.3651
0.4488 -0.7912 0.3654
-0.0000 -0.8909 0.3642
0.0766 -0.8881 0.3644
0.1526 -0.8786 0.3646
0.2277 -0.8627 0.3648
0.3011 -0.8404 0.3650
0.3724 -0.8119 0.3652
0.4410 -0.7774 0.3654
-0.0000 -0.8756 0.3643
0.0752 -0.8727 0.3644
0.1500 -0.8635 0.3646
0.2237 -0.8478 0.3648
0.2959 -0.8259 0.3650
0.3659 -0.7979 0.3652
0.4334 -0.7639 0.3654
-0.0000 -0.8607 0.3643
0.0740 -0.8579 0.3644
0.1474 -0.8487 0.3646
0.2199 -0.8334 0.3648
0.2908 -0.8118 0.3650
0.3597 -0.7843 0.3652
0.4260 -0.7509 0.3654
0.0000 -0.8462 0.3643
0.0727 -0.8434 0.3645
0.1450 -0.8344 0.3646
0.2162 -0.8193 0.3648
0.2859 -0.7981 0.3650
0.3536 -0.7710 0.3652
0.4188 -0.7382 0.3654
-0.0000 -0.8321 0.3643
0.0715 -0.8294 0.3645
0.1425 -0.8205 0.3647
0.2126 -0.8056 0.3648
0.2812 -0.7848 0.3650
0.3477 -0.7582 0.3652
0.4118 -0.7259 0.3654
0.0000 -0.8184 0.3644
0.0703 -0.8157 0.3645
0.1402 -0.8070 0.3647
0.2091 -0.7924 0.3649
0.2765 -0.7719 0.3650
0.3420 -0.7456 0.3652
0.4050 -0.7139 0.3654
0.0000 -0.8051 0.3644
0.0692 -0.8024 0.3646
0.1379 -0.7939 0.3647
0.2057 -0.7795 0.3649
0.2720 -0.7593 0.3651
0.3364 -0.7335 0.3652
0.3984 -0.7022 0.3654
0.0000 -0.7921 0.3644
0.0681 -0.7895 0.3646
0.1357 -0.7811 0.3647
0.2024 -0.7669 0.3649
0.2676 -0.7470 0.3651
0.3310 -0.7216 0.3653
0.3919 -0.6909 0.3654
0.0000 -0.7795 0.3645
0.0670 -0.7769 0.3646
0.1335 -0.7686 0.3648
0.1991 -0.7546 0.3649
0.2633 -0.7351 0.3651
0.3257 -0.7101 0.3653
0.3857 -0.6799 0.3655
-0.0000 -0.7672 0.3645
0.0659 -0.7646 0.3646
0.1314 -0.7565 0.3648
0.1960 -0.7427 0.3649
0.2592 -0.7235 0.3651
0.3205 -0.6989 0.3653
0.3796 -0.6691 0.3655
-0.0000 -0.7552 0.3645
0.0649 -0.7527 0.3646
0.1294 -0.7446 0.3648
0.1929 -0.7311 0.3650
0.2551 -0.7122 0.3651
0.3155 -0.6879 0.3653
0.3736 -0.6586 0.3655
-0.0000 -0.7435 0.3645
0.0639 -0.7410 0.3647
0.1274 -0.7331 0.3648
0.1899 -0.7198 0.3650
0.2512 -0.7011 0.3651
0.3106 -0.6773 0.3653
0.3678 -0.6484 0.3655
0.0000 -0.7321 0.3645
0.0629 -0.7297 0.3647
0.1254 -0.7219 0.3648
0.1870 -0.7087 0.3650
0.2473 -0.6904 0.3651
0.3058 -0.6669 0.3653
0.3622 -0.6384 0.3655
0.0000 -0.7210 0.3646
0.0620 -0.7186 0.3647
0.1235 -0.7109 0.3648
0.1842 -0.6980 0.3650
0.2436 -0.6799 0.3652
0.3012 -0.6567 0.3653
0.3566 -0.6287 0.3655
0.0000 -0.7101 0.3646
0.0610 -0.7078 0.3647
0.1216 -0.7002 0.3649
0.1814 -0.6874 0.3650
0.2399 -0.6696 0.3652
0.2966 -0.6468 0.3653
0.3513 -0.6192 0.3655
-0.0000 -0.6995 0.3646
0.0601 -0.6972 0.3647
0.1198 -0.6897 0.3649
0.1787 -0.6772 0.3650
0.2363 -0.6596 0.3652
0.2922 -0.6371 0.3653
0.3460 -0.6100 0.3655
0.0000 -0.6892 0.3646
0.0592 -0.6869 0.3648
0.1180 -0.6795 0.3649
0.1760 -0.6671 0.3650
0.2328 -0.6498 0.3652
0.2879 -0.6277 0.3654
0.3409 -0.6009 0.3655
0.0000 -0.6791 0.3647
0.0584 -0.6768 0.3648
0.1163 -0.6695 0.3649
0.1735 -0.6573 0.3651
0.2294 -0.6403 0.3652
0.2836 -0.6185 0.3654
0.3359 -0.5921 0.3655
0.0000 -0.6692 0.3647
0.0575 -0.6670 0.3648
0.1146 -0.6598 0.3649
0.1709 -0.6478 0.3651
0.2260 -0.6309 0.3652
0.2795 -0.6094 0.3654
0.3310 -0.5834 0.3655
0.0000 -0.6595 0.3647
0.0567 -0.6573 0.3648
0.1130 -0.6502 0.3650
0.1685 -0.6384 0.3651
0.2228 -0.6218 0.3652
0.2755 -0.6006 0.3654
0.3262 -0.5750 0.3655
-0.0000 -0.6501 0.3647
0.0559 -0.6479 0.3648
0.1113 -0.6409 0.3650
0.1660 -0.6292 0.3651
0.2196 -0.6129 0.3652
0.2715 -0.5920 0.3654
0.3215 -0.5667 0.3656
0.0000 -0.6408 0.3647
0.0551 -0.6387 0.3649
0.1098 -0.6318 0.3650
0.1637 -0.6203 0.3651
0.2164 -0.6041 0.3653
0.2676 -0.5836 0.3654
0.3169 -0.5587 0.3656
-0.0000 -0.6318 0.3648
0.0543 -0.6296 0.3649
0.1082 -0.6229 0.3650
0.1614 -0.6115 0.3651
0.2134 -0.5956 0.3653
0.2638 -0.5753 0.3654
0.3124 -0.5507 0.3656
