6.837553024291992 -25.91130256652832 -6.915839672088623
7.981283187866211 -22.27872085571289 -6.107283592224121
9.599188804626465 -20.93036651611328 -5.942479133605957
11.050067901611328 -19.479475021362305 -5.77958345413208
-2.441406195430318e-06 -25.002391815185547 -6.28835391998291
6.837549209594727 -25.911300659179688 -6.740034580230713
8.052387237548828 -22.47718048095703 -6.005061626434326
9.599190711975098 -20.930370330810547 -5.791423797607422
11.050070762634277 -19.479475021362305 -5.632669448852539
0.0 -25.04249382019043 -6.134674072265625
6.361034870147705 -24.105525970458984 -6.107283592224121
8.052383422851562 -22.477182388305664 -5.848923683166504
9.599190711975098 -20.930362701416016 -5.640841007232666
11.050067901611328 -19.479475021362305 -5.486214637756348
-3.662109293145477e-06 -25.002391815185547 -5.9618353843688965
6.374189376831055 -24.1553897857666 -5.957037448883057
8.052385330200195 -22.477182388305664 -5.693253040313721
9.599187850952148 -20.93036651611328 -5.49070930480957
11.050070762634277 -19.47947883605957 -5.3401994705200195
-1.220703097715159e-06 -25.041156768798828 -5.808292865753174
4.506524562835693 -25.941673278808594 -6.107283592224121
6.3741960525512695 -24.155385971069336 -5.794628620147705
8.052383422851562 -22.477182388305664 -5.538040637969971
9.599188804626465 -20.93036651611328 -5.341017723083496
11.050070762634277 -19.47947883605957 -5.194609642028809
-3.662109293145477e-06 -25.04048728942871 -5.645821571350098
4.518570423126221 -26.01102066040039 -5.952476501464844
6.3741960525512695 -24.155385971069336 -5.6326904296875
8.006829261779785 -22.35003662109375 -5.352818489074707
9.599187850952148 -20.93036651611328 -5.191755294799805
11.050070762634277 -19.47947883605957 -5.049439430236816
2.441406195430318e-06 -25.03982925415039 -5.48380708694458
4.518574237823486 -26.011014938354492 -5.7818169593811035
6.374197959899902 -24.15538215637207 -5.471198558807373
8.052387237548828 -22.47718048095703 -5.228930950164795
9.599188804626465 -20.93036651611328 -5.042905330657959
11.050071716308594 -19.47947883605957 -4.904669284820557
1.220703097715159e-06 -25.03916358947754 -5.322239398956299
4.518566608428955 -26.011022567749023 -5.611616611480713
6.374192237854004 -24.15538787841797 -5.310141563415527
8.052383422851562 -22.477182388305664 -5.075007438659668
9.59919261932373 -20.930368423461914 -4.894455909729004
11.050071716308594 -19.47947883605957 -4.760290622711182
-3.662109293145477e-06 -25.03849983215332 -5.161102771759033
4.474399089813232 -25.756742477416992 -5.388666152954102
6.374194145202637 -24.155385971069336 -5.149508476257324
8.052383422851562 -22.477182388305664 -4.921486854553223
9.599187850952148 -20.93036651611328 -4.74639892578125
11.050071716308594 -19.47947883605957 -4.616290092468262
-2.441406195430318e-06 -25.037843704223633 -5.000383377075195
4.518574237823486 -26.011014938354492 -5.272540092468262
6.3741960525512695 -24.155385971069336 -4.98928165435791
8.052385330200195 -22.477182388305664 -4.768352508544922
9.599190711975098 -20.930370330810547 -4.598711967468262
11.050070762634277 -19.479475021362305 -4.472653865814209
-1.220703097715159e-06 -25.037187576293945 -4.840065002441406
4.518570423126221 -26.01102066040039 -5.1036295890808105
6.374194145202637 -24.155385971069336 -4.829446315765381
8.052382469177246 -22.477184295654297 -4.615595817565918
9.599188804626465 -20.93036651611328 -4.451390266418457
11.050067901611328 -19.479475021362305 -4.329370498657227
-1.220703097715159e-06 -25.03653335571289 -4.680141448974609
4.518569469451904 -26.01102066040039 -4.935126781463623
6.374192237854004 -24.15538787841797 -4.66999626159668
8.052383422851562 -22.477182388305664 -4.4632062911987305
9.599187850952148 -20.93036651611328 -4.304420471191406
11.050070762634277 -19.47947883605957 -4.186428070068359
-3.662109293145477e-06 -25.035879135131836 -4.520590305328369
4.518572807312012 -26.011024475097656 -4.767006874084473
6.345407962799072 -24.046293258666992 -4.490535736083984
8.052383422851562 -22.477182388305664 -4.311161994934082
9.59919261932373 -20.930368423461914 -4.157786846160889
11.050067901611328 -19.479475021362305 -4.043813228607178
-1.220703097715159e-06 -25.03522491455078 -4.361402988433838
4.518570423126221 -26.01102066040039 -4.599261283874512
6.374192237854004 -24.15538787841797 -4.352173328399658
8.052383422851562 -22.477182388305664 -4.159458637237549
9.59919261932373 -20.930368423461914 -4.01147985458374
10.631790161132812 -18.74211883544922 -3.7538328170776367
0.0 -25.034574508666992 -4.202566623687744
4.518570423126221 -26.01102066040039 -4.431879997253418
6.374192237854004 -24.15538787841797 -4.193783283233643
8.052382469177246 -22.477184295654297 -4.008079528808594
9.2715425491333 -20.21595573425293 -3.733548402786255
10.672901153564453 -18.814592361450195 -3.6312053203582764
-3.662109293145477e-06 -25.03392219543457 -4.044062614440918
4.518574237823486 -26.011014938354492 -4.264836311340332
6.374194145202637 -24.155385971069336 -4.035715103149414
7.777535438537598 -21.70997428894043 -3.7253613471984863
9.2715425491333 -20.21595573425293 -3.592827081680298
10.672900199890137 -18.814592361450195 -3.4943413734436035
0.0 -25.033275604248047 -3.8858842849731445
4.518574237823486 -26.011014938354492 -4.098129749298096
6.13291072845459 -23.24102783203125 -3.731171131134033
7.777536869049072 -21.70997428894043 -3.579742431640625
9.271544456481934 -20.215953826904297 -3.4523887634277344
10.672904014587402 -18.81458854675293 -3.3577513694763184
0.0 -25.032629013061523 -3.7280192375183105
4.347527980804443 -25.02642059326172 -3.7829136848449707
6.13291072845459 -23.24102783203125 -3.5796825885772705
7.777538299560547 -21.709972381591797 -3.434401750564575
9.271544456481934 -20.215953826904297 -3.3122191429138184
10.672904014587402 -18.81458854675293 -3.221423864364624
-2.441406195430318e-06 -25.031982421875 -3.5704472064971924
4.364343166351318 -25.12318992614746 -3.637125253677368
6.13291072845459 -23.24102783203125 -3.428469181060791
7.777536869049072 -21.70997428894043 -3.289325475692749
9.2715425491333 -20.21595573425293 -3.172304630279541
10.672901153564453 -18.814592361450195 -3.085345506668091
0.0 -25.03133773803711 -3.413163900375366
2.334299325942993 -27.075851440429688 -3.705639600753784
4.364340782165527 -25.123193740844727 -3.476994514465332
6.132911682128906 -23.241024017333984 -3.2775261402130127
7.777538299560547 -21.709972381591797 -3.14450740814209
9.235827445983887 -20.138086318969727 -3.02095627784729
10.672901153564453 -18.814592361450195 -2.949507474899292
0.0 -25.03069496154785 -3.256146192550659
2.334306478500366 -27.07585906982422 -3.535252571105957
4.364343166351318 -25.12318992614746 -3.3171262741088867
6.13291072845459 -23.24102783203125 -3.126833438873291
7.767955303192139 -21.683231353759766 -2.9962315559387207
9.271544456481934 -20.215953826904297 -2.893200635910034
10.672901153564453 -18.814592361450195 -2.813891649246216
2.441406195430318e-06 -25.03005027770996 -3.0993950366973877
2.334299325942993 -27.075851440429688 -3.365159749984741
4.3643479347229 -25.123186111450195 -3.157519578933716
6.132911682128906 -23.241024017333984 -2.976377487182617
7.777535438537598 -21.70997428894043 -2.8555822372436523
9.271544456481934 -20.215953826904297 -2.7539916038513184
10.672897338867188 -18.81458854675293 -2.678499698638916
-3.662109293145477e-06 -25.029409408569336 -2.9428868293762207
2.3342955112457275 -27.075849533081055 -3.195314884185791
4.361542701721191 -25.10707664489746 -2.9962315559387207
6.132908821105957 -23.241029739379883 -2.8261547088623047
7.777536869049072 -21.70997428894043 -2.7114551067352295
9.271544456481934 -20.215953826904297 -2.6149919033050537
10.672901153564453 -18.814592361450195 -2.5433099269866943
-4.882812390860636e-06 -25.028766632080078 -2.786616086959839
2.3314220905303955 -27.042537689208984 -3.021991491317749
4.364344596862793 -25.123188018798828 -2.8390214443206787
6.13291072845459 -23.24102783203125 -2.6761314868927
7.777535438537598 -21.70997428894043 -2.567540168762207
9.2715425491333 -20.21595573425293 -2.4761974811553955
10.672904014587402 -18.81458854675293 -2.408320188522339
-2.441406195430318e-06 -25.02812957763672 -2.6305651664733887
2.3343029022216797 -27.07585334777832 -2.856346368789673
4.364344596862793 -25.123188018798828 -2.6801037788391113
6.132911682128906 -23.241024017333984 -2.526348114013672
7.777535438537598 -21.70997428894043 -2.423818588256836
9.2715425491333 -20.21595573425293 -2.3375890254974365
10.672904014587402 -18.81458854675293 -2.2735116481781006
4.882812390860636e-06 -25.02749252319336 -2.474724769592285
2.3343029022216797 -27.07585334777832 -2.6871984004974365
4.364344596862793 -25.123188018798828 -2.5213921070098877
6.132911682128906 -23.241024017333984 -2.3767454624176025
7.777535438537598 -21.70997428894043 -2.2802844047546387
9.2715425491333 -20.21595573425293 -2.1991608142852783
10.648307800292969 -18.771230697631836 -2.13394832611084
-2.441406195430318e-06 -25.0268497467041 -2.3190832138061523
2.3342955112457275 -27.075849533081055 -2.5182583332061768
4.364344596862793 -25.123188018798828 -2.3628768920898438
6.13291072845459 -23.24102783203125 -2.2273125648498535
7.76669454574585 -21.679706573486328 -2.1339480876922607
9.2715425491333 -20.21595573425293 -2.0609030723571777
10.672901153564453 -18.814592361450195 -2.0044097900390625
3.662109293145477e-06 -25.026214599609375 -2.163623332977295
2.3343029022216797 -27.07585334777832 -2.34950590133667
4.364343166351318 -25.12318992614746 -2.204536199569702
6.132913589477539 -23.24102210998535 -2.078066110610962
7.777536869049072 -21.70997428894043 -1.9937280416488647
9.271544456481934 -20.215953826904297 -1.922798991203308
10.672904968261719 -18.81458854675293 -1.8700906038284302
-4.882812390860636e-06 -25.025575637817383 -2.00834059715271
2.331425666809082 -27.04253387451172 -2.178255558013916
4.364340782165527 -25.123193740844727 -2.046370267868042
6.132913589477539 -23.24102210998535 -1.9289681911468506
7.777535438537598 -21.70997428894043 -1.8506863117218018
9.2715425491333 -20.21595573425293 -1.7848458290100098
10.672904014587402 -18.81458854675293 -1.7359200716018677
0.0 -25.024940490722656 -1.8532204627990723
2.3342955112457275 -27.075849533081055 -2.012540578842163
4.364344596862793 -25.123188018798828 -1.8883605003356934
6.13291072845459 -23.24102783203125 -1.780029535293579
7.777536869049072 -21.70997428894043 -1.7077867984771729
9.2715425491333 -20.21595573425293 -1.6470305919647217
10.672901153564453 -18.814592361450195 -1.6018816232681274
-3.662109293145477e-06 -25.024303436279297 -1.6982464790344238
2.3342955112457275 -27.075849533081055 -1.8442803621292114
4.364340782165527 -25.123193740844727 -1.7304924726486206
6.132911682128906 -23.241024017333984 -1.6312185525894165
7.777535438537598 -21.70997428894043 -1.5650140047073364
9.2715425491333 -20.21595573425293 -1.5093364715576172
10.672901153564453 -18.814592361450195 -1.4679628610610962
0.0 -25.023672103881836 -1.5434072017669678
2.3342955112457275 -27.075849533081055 -1.676180362701416
4.364344596862793 -25.123188018798828 -1.5727523565292358
6.132913589477539 -23.24102210998535 -1.4825341701507568
7.7475762367248535 -21.626346588134766 -1.4168795347213745
9.235831260681152 -20.13808822631836 -1.3664724826812744
10.631790161132812 -18.74211883544922 -1.3290143013000488
-4.882812390860636e-06 -25.023035049438477 -1.3886955976486206
2.3342955112457275 -27.075849533081055 -1.508195161819458
4.347525596618652 -25.02642250061035 -1.4096847772598267
6.13291072845459 -23.24102783203125 -1.333951711654663
7.7475762367248535 -21.626346588134766 -1.27488374710083
9.235831260681152 -20.13808822631836 -1.2295281887054443
10.631790161132812 -18.74211883544922 -1.1958245038986206
-1.220703097715159e-06 -25.022401809692383 -1.2341015338897705
2.331423282623291 -27.04253578186035 -1.3386815786361694
4.347529411315918 -25.02642059326172 -1.252785325050354
6.132911682128906 -23.241024017333984 -1.1854815483093262
7.747574329376221 -21.62635040283203 -1.13298761844635
9.23582935333252 -20.13808250427246 -1.0926806926727295
10.631790161132812 -18.74211883544922 -1.062727928161621
-3.662109293145477e-06 -25.02176856994629 -1.0796078443527222
2.3314220905303955 -27.042537689208984 -1.1711267232894897
4.347527980804443 -25.02642059326172 -1.095981478691101
6.13291072845459 -23.24102783203125 -1.037087082862854
7.747574329376221 -21.62635040283203 -0.9911791682243347
9.23582935333252 -20.13808822631836 -0.9559158086776733
10.631790161132812 -18.74211883544922 -0.9297128319740295
4.882812390860636e-06 -25.02113914489746 -0.9252001643180847
2.3314268589019775 -27.04253387451172 -1.003653883934021
4.347529411315918 -25.02642059326172 -0.9392547607421875
6.132911682128906 -23.241024017333984 -0.8887942433357239
7.7475762367248535 -21.626346588134766 -0.8494387865066528
9.235827445983887 -20.138086318969727 -0.8192190527915955
10.631790161132812 -18.74211883544922 -0.7967617511749268
-1.220703097715159e-06 -25.0205020904541 -0.7708746194839478
2.3314220905303955 -27.042537689208984 -0.8362643122673035
4.347529411315918 -25.02642059326172 -0.7826052904129028
6.132908821105957 -23.241029739379883 -0.7405605912208557
7.747578144073486 -21.626354217529297 -0.7077688574790955
9.235831260681152 -20.13808822631836 -0.6825891137123108
10.631790161132812 -18.74211883544922 -0.6638781428337097
-2.441406195430318e-06 -25.01987075805664 -0.6166134476661682
2.3314244747161865 -27.04253387451172 -0.6689342856407166
4.347529411315918 -25.02642059326172 -0.6260122656822205
6.13291072845459 -23.24102783203125 -0.592380940914154
7.747574329376221 -21.62635040283203 -0.566149890422821
9.235831260681152 -20.13808822631836 -0.5460085868835449
10.631790161132812 -18.74211883544922 -0.5310418605804443
-1.220703097715159e-06 -25.019237518310547 -0.4624069035053253
2.331428289413452 -27.042531967163086 -0.5016555786132812
4.347525596618652 -25.02642250061035 -0.4694671630859375
6.132911682128906 -23.241024017333984 -0.4442459046840668
7.747574329376221 -21.62635040283203 -0.42457425594329834
9.235833168029785 -20.138086318969727 -0.4094696044921875
10.631790161132812 -18.74211883544922 -0.39824554324150085
-2.441406195430318e-06 -25.018606185913086 -0.30824583768844604
2.331428289413452 -27.042531967163086 -0.33441802859306335
4.347527980804443 -25.02642059326172 -0.3129602074623108
6.132908821105957 -23.241029739379883 -0.29614683985710144
7.747574329376221 -21.62635040283203 -0.28303343057632446
9.23582935333252 -20.13808250427246 -0.2729641795158386
10.631790161132812 -18.74211883544922 -0.2654818594455719
0.0 -25.017974853515625 -0.15411315858364105
2.331425666809082 -27.04253387451172 -0.16720275580883026
4.347535133361816 -25.026412963867188 -0.15647414326667786
6.132911682128906 -23.241024017333984 -0.14806777238845825
7.747574329376221 -21.62635040283203 -0.14151106774806976
9.235831260681152 -20.13808822631836 -0.13647688925266266
10.631790161132812 -18.74211883544922 -0.1327357441186905
-2.441406195430318e-06 -25.017343521118164 -3.0517576306010596e-06
2.3314220905303955 -27.042537689208984 -3.5095213206659537e-06
4.347529411315918 -25.02642059326172 -2.899169885495212e-06
6.132913589477539 -23.24102210998535 -2.899169885495212e-06
7.747574329376221 -21.62635040283203 -2.899169885495212e-06
9.235831260681152 -20.13808822631836 -2.593994167909841e-06
10.631792068481445 -18.742116928100586 -2.899169885495212e-06
-1.220703097715159e-06 -25.016714096069336 0.1541021764278412
2.331425666809082 -27.04253387451172 0.16719940304756165
4.487416744232178 -25.831642150878906 0.1615055799484253
6.330240249633789 -23.988807678222656 0.1528291255235672
7.996854782104492 -22.322181701660156 0.14606155455112457
9.53299331665039 -20.78603172302246 0.14086517691612244
10.631790161132812 -18.74211883544922 0.13273422420024872
-2.441406195430318e-06 -25.01607894897461 0.3082089126110077
2.3314318656921387 -27.04253387451172 0.33441147208213806
4.487411022186279 -25.831649780273438 0.3230235278606415
6.330236911773682 -23.988813400268555 0.3056693971157074
7.996854782104492 -22.322181701660156 0.29213425517082214
9.532995223999023 -20.786029815673828 0.28174132108688354
10.631790161132812 -18.74211883544922 0.26547348499298096
-1.220703097715159e-06 -25.01544952392578 0.46233367919921875
2.3314268589019775 -27.04253387451172 0.501652181148529
4.487407207489014 -25.831655502319336 0.4845687747001648
6.330240249633789 -23.988807678222656 0.45853620767593384
7.996854782104492 -22.322181701660156 0.43823209404945374
9.532995223999023 -20.786029815673828 0.42264142632484436
10.63178825378418 -18.74212074279785 0.3982456922531128
-2.441406195430318e-06 -25.014814376831055 0.6164858937263489
2.331425666809082 -27.04253387451172 0.6689309477806091
4.487411975860596 -25.831649780273438 0.6461511254310608
6.330236911773682 -23.988813400268555 0.6114376783370972
7.996854782104492 -22.322181701660156 0.5843629240989685
9.53299331665039 -20.78603172302246 0.56357342004776
10.631790161132812 -18.74211883544922 0.5310401916503906
-4.882812390860636e-06 -25.01418113708496 0.7706771492958069
2.3314220905303955 -27.042537689208984 0.8362604975700378
4.487414360046387 -25.83164405822754 0.8077822923660278
6.330236911773682 -23.988813400268555 0.7643858194351196
7.996854782104492 -22.322181701660156 0.7305381894111633
9.53299331665039 -20.78603172302246 0.7045486569404602
10.631790161132812 -18.74211883544922 0.66387540102005
2.441406195430318e-06 -25.013553619384766 0.9249162077903748
2.3314268589019775 -27.04253387451172 1.0036503076553345
4.487414360046387 -25.83164405822754 0.9694718718528748
6.330240249633789 -23.988807678222656 0.9173887372016907
7.996856689453125 -22.322181701660156 0.8767663240432739
9.53299331665039 -20.78603172302246 0.8455743193626404
10.631790161132812 -18.74211883544922 0.7967596054077148
-3.662109293145477e-06 -25.012914657592773 1.079217553138733
2.3314220905303955 -27.042537689208984 1.1711163520812988
4.487411975860596 -25.831649780273438 1.1312352418899536
6.330240249633789 -23.988807678222656 1.0704612731933594
7.996854782104492 -22.322181701660156 1.023060917854309
9.532991409301758 -20.786035537719727 0.9866644144058228
10.63178825378418 -18.74212074279785 0.9297053217887878
-4.882812390860636e-06 -25.01228141784668 1.2335991859436035
2.331425666809082 -27.04253387451172 1.338678002357483
4.487414360046387 -25.83164405822754 1.293090581893921
6.330240249633789 -23.988807678222656 1.2236214876174927
7.996850967407227 -22.322179794311523 1.1694387197494507
9.532995223999023 -20.786029815673828 1.1278345584869385
10.631790161132812 -18.74211883544922 1.0627259016036987
-1.220703097715159e-06 -25.01165008544922 1.3880609273910522
2.3314220905303955 -27.042537689208984 1.5063351392745972
4.48740816116333 -25.831649780273438 1.45503830909729
6.330238342285156 -23.98880958557129 1.3768686056137085
7.996854782104492 -22.322181701660156 1.315900206565857
9.532995223999023 -20.786029815673828 1.26908540725708
10.631790161132812 -18.742124557495117 1.1958235502243042
-1.220703097715159e-06 -24.917293548583984 1.536843180656433
2.3314244747161865 -27.04253387451172 1.6741100549697876
4.487414360046387 -25.83164405822754 1.6170995235443115
6.330240249633789 -23.988807678222656 1.5302236080169678
7.996856689453125 -22.322181701660156 1.462464690208435
9.53299331665039 -20.78603172302246 1.4104357957839966
10.631790161132812 -18.74211883544922 1.3290127515792847
-2.441406195430318e-06 -24.889028549194336 1.6890603303909302
2.331425666809082 -27.04253387451172 1.8420085906982422
4.487411022186279 -25.831649780273438 1.7792810201644897
6.330240249633789 -23.988807678222656 1.6836919784545898
7.996856689453125 -22.322181701660156 1.6091374158859253
9.53299331665039 -20.78603172302246 1.551890254020691
10.631790161132812 -18.74211883544922 1.4623006582260132
2.441406195430318e-06 -24.860807418823242 1.841063141822815
2.3314220905303955 -27.042537689208984 2.0100598335266113
4.487414360046387 -25.83164405822754 1.9416048526763916
6.330238342285156 -23.98880958557129 1.8372952938079834
7.996856689453125 -22.322181701660156 1.75593900680542
9.532991409301758 -20.786035537719727 1.6934696435928345
10.631793022155762 -18.74212074279785 1.5957064628601074
-6.103515261202119e-06 -24.832611083984375 1.9928444623947144
2.331428289413452 -27.042531967163086 2.1782491207122803
4.487411022186279 -25.831649780273438 2.104067087173462
6.3302435874938965 -23.988805770874023 1.9910290241241455
7.9968581199646 -22.322179794311523 1.9028655290603638
9.53299331665039 -20.78603172302246 1.8351690769195557
10.631790161132812 -18.74211883544922 1.7292273044586182
2.441406195430318e-06 -24.79522705078125 2.1436498165130615
2.2214598655700684 -25.766958236694336 2.2359235286712646
4.405023097991943 -25.357351303100586 2.2250802516937256
6.330242156982422 -23.988807678222656 2.1449244022369385
7.9968581199646 -22.322179794311523 2.0499465465545654
9.53299331665039 -20.78603172302246 1.9770175218582153
10.631793975830078 -18.74211311340332 1.8628853559494019
4.882812390860636e-06 -24.16060447692871 2.2388081550598145
2.067720890045166 -23.983749389648438 2.2306647300720215
4.0946760177612305 -23.570829391479492 2.216869354248047
6.066173076629639 -22.988094329833984 2.203077793121338
7.939590930938721 -22.162317276000977 2.1814465522766113
9.53299331665039 -20.78603172302246 2.119014263153076
10.631790161132812 -18.74211883544922 1.996684193611145
6.103515261202119e-06 -22.585805892944336 2.2332844734191895
1.9306914806365967 -22.39432144165039 2.222564697265625
3.8248960971832275 -22.01785659790039 2.2097320556640625
5.6604461669921875 -21.450590133666992 2.1936404705047607
7.413435459136963 -20.69363784790039 2.1735293865203857
9.067574501037598 -19.771207809448242 2.1507749557495117
10.592733383178711 -18.673250198364258 2.122804880142212
-1.0986327652062755e-05 -21.463403701782227 2.2558882236480713
1.810536503791809 -21.00049591064453 2.215423583984375
3.588177442550659 -20.655214309692383 2.203460216522217
5.3051981925964355 -20.104328155517578 2.1853771209716797
6.95216178894043 -19.406034469604492 2.166588306427002
8.498283386230469 -18.52989959716797 2.142622232437134
9.935791969299316 -17.51517105102539 2.116486072540283
2.441406195430318e-06 -21.378061294555664 2.3801536560058594
1.7060089111328125 -19.788410186767578 2.2113397121429443
3.3749449253082275 -19.427730560302734 2.195406436920166
4.991786956787109 -18.916629791259766 2.1782023906707764
6.541859149932861 -18.260746002197266 2.1596107482910156
7.995619773864746 -17.433879852294922 2.1354238986968994
9.354853630065918 -16.491073608398438 2.110898733139038
0.0 -20.17841148376465 2.372518301010132
1.7023510932922363 -19.74586296081543 2.3302714824676514
3.1852495670318604 -18.33574104309082 2.18815016746521
4.713283538818359 -17.861234664916992 2.17195987701416
6.174083709716797 -17.234140396118164 2.152446746826172
7.549678802490234 -16.4615421295166 2.1293463706970215
8.837834358215332 -15.579648971557617 2.1060168743133545
7.934570021461695e-06 -19.098535537719727 2.3649063110351562
1.6350414752960205 -18.965011596679688 2.357083797454834
3.1760997772216797 -18.2830753326416 2.2978363037109375
4.488243103027344 -17.0084171295166 2.178189277648926
5.845343112945557 -16.31650161743164 2.14615535736084
7.151778221130371 -15.593942642211914 2.1243362426757812
8.37686824798584 -14.76705551147461 2.102275848388672
0.0 -18.12689971923828 2.3580572605133057
1.5521234273910522 -18.003202438354492 2.3506529331207275
3.0738580226898193 -17.694555282592773 2.336289644241333
4.481446266174316 -16.982723236083984 2.2848384380340576
5.668169975280762 -15.82192325592041 2.18630313873291
6.793184757232666 -14.812056541442871 2.119821310043335
7.959997177124023 -14.032172203063965 2.098637342453003
0.0 -17.248022079467773 2.3518617153167725
1.4769989252090454 -17.131853103637695 2.344686269760132
2.9253971576690674 -16.839962005615234 2.330610752105713
4.33342170715332 -16.421741485595703 2.315845012664795
5.66108512878418 -15.802167892456055 2.288806676864624
6.755007266998291 -14.7288179397583 2.2094976902008057
7.78147554397583 -13.717473030090332 2.1504440307617188
-1.220703097715159e-06 -16.44916534423828 2.3462305068969727
1.4084502458572388 -16.33675193786621 2.338839530944824
2.7904069423675537 -16.06287956237793 2.3254470825195312
4.132125377655029 -15.658909797668457 2.309967517852783
5.415437698364258 -15.116485595703125 2.29032826423645
6.635110855102539 -14.467387199401855 2.270231246948242
7.772339820861816 -13.701364517211914 2.246840238571167
4.272460955689894e-06 -15.71979808807373 2.3410890102386475
1.3458776473999023 -15.61094856262207 2.3335025310516357
2.667121410369873 -15.353168487548828 2.3207309246063232
3.9481687545776367 -14.961827278137207 2.3044798374176025
5.176322937011719 -14.449018478393555 2.285752296447754
6.344596862792969 -13.833940505981445 2.266573667526245
7.438135147094727 -13.11221981048584 2.2450621128082275
-6.103515488575795e-07 -15.051186561584473 2.3363759517669678
1.2885174751281738 -14.945719718933105 2.328610897064209
2.554055690765381 -14.702345848083496 2.31640625
3.7796032428741455 -14.323015213012695 2.2994508743286133
4.957029342651367 -13.836902618408203 2.281555652618408
6.07774543762207 -13.252090454101562 2.263129949569702
7.12010383605957 -12.551575660705566 2.240020275115967
3.0517576306010596e-06 -14.43600845336914 2.3320395946502686
1.2357641458511353 -14.333751678466797 2.324110746383667
2.4488842487335205 -14.096903800964355 2.3113656044006348
3.624555826187134 -13.735453605651855 2.2948250770568848
4.7552056312561035 -13.27352523803711 2.277693033218384
5.825618267059326 -12.70234203338623 2.257488250732422
6.8276214599609375 -12.035981178283691 2.2353832721710205
-1.220703097715159e-06 -13.867329597473145 2.3279128074645996
1.1870598793029785 -13.768855094909668 2.3199567794799805
2.351529598236084 -13.53649616241455 2.3064093589782715
3.481450080871582 -13.193177223205566 2.290555953979492
4.566300392150879 -12.746230125427246 2.2728772163391113
5.593123435974121 -12.195412635803223 2.252286434173584
6.557718276977539 -11.560176849365234 2.2311041355133057
6.103515261202119e-06 -13.340168952941895 2.323998212814331
1.1419646739959717 -13.245759010314941 2.316110134124756
2.261444568634033 -13.017910957336426 2.3018226623535156
3.348374366760254 -12.688849449157715 2.286201000213623
4.389169692993164 -12.251795768737793 2.267223834991455
5.378054141998291 -11.72646713256836 2.247474193572998
6.30867338180542 -11.121160507202148 2.227440357208252
3.0517576306010596e-06 -12.85031509399414 2.3203094005584717
1.0995970964431763 -12.754308700561523 2.311516284942627
2.177748441696167 -12.536149978637695 2.2974841594696045
3.2220675945281982 -12.210214614868164 2.280200958251953
4.224928379058838 -11.7933349609375 2.261981964111328
5.179251670837402 -11.292996406555176 2.243338108062744
6.080950736999512 -10.719717025756836 2.2253432273864746
-1.2207030522404239e-05 -12.393916130065918 2.316817045211792
1.059950590133667 -12.294479370117188 2.3067610263824463
2.097839832305908 -12.076164245605469 2.291233539581299
3.1046955585479736 -11.765429496765137 2.274625539779663
4.073470592498779 -11.370537757873535 2.257800340652466
4.979872226715088 -10.858266830444336 2.2330479621887207
5.868631362915039 -10.345441818237305 2.2233879566192627
4.882812390860636e-06 -11.9750337600708 2.314953088760376
1.0224077701568604 -11.859074592590332 2.3010432720184326
2.0241951942443848 -11.652189254760742 2.2862796783447266
2.986039638519287 -11.315775871276855 2.262390613555908
3.930476188659668 -10.971414566040039 2.252932548522949
4.826783180236816 -10.524459838867188 2.23830246925354
5.670206546783447 -9.995644569396973 2.221560478210449
1.8310546465727384e-06 -11.566530227661133 2.309985876083374
0.9877398610115051 -11.456892013549805 2.296576738357544
1.9559667110443115 -11.259458541870117 2.2823383808135986
2.896790027618408 -10.977558135986328 2.2674081325531006
3.789421319961548 -10.577679634094238 2.2439684867858887
4.6515913009643555 -10.142474174499512 2.2284514904022217
5.484331130981445 -9.667977333068848 2.2198486328125
6.103515488575795e-07 -11.184074401855469 2.305335521697998
0.955259382724762 -11.080182075500488 2.292393207550049
1.8920458555221558 -10.891471862792969 2.2786452770233154
2.8027124404907227 -10.621049880981445 2.264223337173462
3.680173635482788 -10.272717475891113 2.2492597103118896
4.502636432647705 -9.81768798828125 2.226365804672241
5.3098344802856445 -9.360370635986328 2.2182419300079346
0.0 -10.825223922729492 2.3009719848632812
0.9247826933860779 -10.726605415344238 2.288466453552246
1.8320168256759644 -10.545929908752441 2.275177478790283
2.7143447399139404 -10.286154747009277 2.2612314224243164
3.5648722648620605 -9.950868606567383 2.246756076812744
4.377251148223877 -9.544282913208008 2.231879949569702
5.129180908203125 -9.041913032531738 2.209613561630249
-1.220703097715159e-06 -10.487824440002441 2.2968695163726807
0.8961016535758972 -10.394033432006836 2.284773111343384
1.7755413055419922 -10.220809936523438 2.2719147205352783
2.631160020828247 -9.970921516418457 2.258415460586548
3.45630145072937 -9.647811889648438 2.244398355484009
4.244792938232422 -9.255474090576172 2.229987382888794
4.991024017333984 -8.798357009887695 2.215305805206299
-9.155273232863692e-07 -10.169992446899414 2.2930047512054443
0.8690899610519409 -10.080653190612793 2.2812929153442383
1.722296118736267 -9.914328575134277 2.268839120864868
2.5527138710021973 -9.673662185668945 2.2557599544525146
3.353879928588867 -9.361919403076172 2.2421741485595703
4.119792461395264 -8.982913970947266 2.2282016277313232
4.844977855682373 -8.540903091430664 2.213960886001587
1.220703097715159e-06 -9.870063781738281 2.289357900619507
0.843585193157196 -9.784825325012207 2.2780075073242188
1.6720272302627563 -9.624937057495117 2.265934944152832
2.478626251220703 -9.39286994934082 2.253251552581787
3.2571053504943848 -9.091765403747559 2.24007248878479
4.001628875732422 -8.725260734558105 2.226513385772705
4.706883430480957 -8.297456741333008 2.212689161300659
3.0517576306010596e-06 -9.586522102355957 2.28590989112854
0.8194646835327148 -9.50508975982666 2.2749011516571045
1.6244653463363647 -9.351174354553223 2.2631874084472656
2.408506393432617 -9.12717056274414 2.250877857208252
3.1655197143554688 -8.83604621887207 2.2380828857421875
3.8897311687469482 -8.481298446655273 2.224915027618408
4.576065540313721 -8.066849708557129 2.211484432220459
2.593994167909841e-06 -1.4819375276565552 0.3630297780036926
0.7966256737709045 -9.240141868591309 2.271958827972412
1.5737195014953613 -9.059069633483887 2.2524406909942627
2.3420615196228027 -8.875361442565918 2.2486283779144287
3.078644037246704 -8.593613624572754 2.2361972332000732
3.7836272716522217 -8.249932289123535 2.2233991622924805
4.451972961425781 -7.848092079162598 2.210341691970825
9.155273232863692e-07 -1.4437114000320435 0.363107293844223
0.7749603390693665 -8.988832473754883 2.26916766166687
1.5311623811721802 -8.814095497131348 2.2500314712524414
2.2789831161499023 -8.63638687133789 2.2464940547943115
2.996192216873169 -8.363473892211914 2.2344069480895996
3.6828649044036865 -8.030224800109863 2.2219595909118652
4.334086894989014 -7.6402740478515625 2.2092559337615967
-2.593994167909841e-06 -1.407296061515808 0.36318114399909973
0.7543737888336182 -8.750109672546387 2.26651668548584
1.4960418939590454 -8.611934661865234 2.2557687759399414
2.2113940715789795 -8.38021183013916 2.2367100715637207
2.9178080558776855 -8.144673347473145 2.2327048778533936
3.5870361328125 -7.821279525756836 2.220590353012085
4.221940994262695 -7.442591190338135 2.2082231044769287
9.155273232863692e-07 -1.372572660446167 0.3632514774799347
0.11797691136598587 -1.3684519529342651 0.36350494623184204
1.4574031829833984 -8.389482498168945 2.2535364627838135
2.155613899230957 -8.168824195861816 2.235888719558716
2.8337113857269287 -7.909936904907227 2.223649024963379
3.495784282684326 -7.622314453125 2.2192866802215576
4.115115165710449 -7.254282474517822 2.2072393894195557
2.670288040462765e-06 -1.3394114971160889 0.36331862211227417
0.11512500792741776 -1.335368275642395 0.363566130399704
1.4205907583236694 -8.177556991577148 2.2514095306396484
2.1004579067230225 -7.959803104400635 2.233029365539551
2.762866497039795 -7.7121782302856445 2.2221412658691406
3.4087941646575928 -7.432628154754639 2.218043804168701
4.013256072998047 -7.074707508087158 2.20630145072937
-2.5177000679832418e-06 -1.3077071905136108 0.36338287591934204
0.11240092664957047 -1.3037453889846802 0.36362457275390625
0.2241310477256775 -1.2901954650878906 0.3638842701911926
2.048809766769409 -7.7640886306762695 2.231315851211548
2.7041919231414795 -7.5483903884887695 2.2280659675598145
3.325745105743408 -7.251554489135742 2.2168571949005127
3.915994882583618 -6.903247356414795 2.2054054737091064
-7.629394076502649e-07 -1.2773772478103638 0.3634442090988159
0.10979244112968445 -1.273484468460083 0.3636804223060608
0.21892444789409637 -1.2602262496948242 0.36393430829048157
2.0062813758850098 -7.602902889251709 2.2372615337371826
2.63934588432312 -7.367392539978027 2.2266578674316406
3.246394634246826 -7.078522205352783 2.2157235145568848
3.8230197429656982 -6.739358425140381 2.2045493125915527
9.91821252682712e-07 -1.2483179569244385 0.3635033965110779
0.10729270428419113 -1.2444958686828613 0.3637341260910034
0.21393531560897827 -1.2315173149108887 0.3639819324016571
1.9523024559020996 -7.398366451263428 2.228113889694214
2.5773239135742188 -7.194260120391846 2.225311040878296
3.1704721450805664 -6.912985801696777 2.2146389484405518
3.7340617179870605 -6.582526683807373 2.2037301063537598
-2.441406195430318e-06 -1.2204513549804688 0.36355987191200256
0.10489829629659653 -1.2167000770568848 0.36378538608551025
0.2091551125049591 -1.2039943933486938 0.36402785778045654
0.31202226877212524 -1.1824169158935547 0.364285409450531
2.5179450511932373 -7.028511047363281 2.2240216732025146
3.0977694988250732 -6.754462718963623 2.2136001586914062
3.6488468647003174 -6.43231201171875 2.2029454708099365
-6.866454782539222e-07 -1.1937122344970703 0.36361387372016907
0.10259883850812912 -1.1900248527526855 0.36383482813835144
0.20456653833389282 -1.1775779724121094 0.364071786403656
0.3051687180995941 -1.1564563512802124 0.3643237352371216
2.4610414505004883 -6.869664192199707 2.222785711288452
3.0280821323394775 -6.602509021759033 2.212604522705078
3.5671374797821045 -6.288278579711914 2.202193021774292
1.0299681889591739e-06 -1.168022632598877 0.3636660575866699
0.10038570314645767 -1.1643956899642944 0.3638821244239807
0.2001609057188034 -1.1522077322006226 0.36411407589912415
0.29858964681625366 -1.1315194368362427 0.36436066031455994
0.39496058225631714 -1.102475643157959 0.36461973190307617
2.961209535598755 -6.456697940826416 2.211649179458618
3.4887259006500244 -6.150049209594727 2.2014708518981934
-2.403259259153856e-06 -1.143318772315979 0.36371612548828125
0.09826057404279709 -1.1397557258605957 0.36392760276794434
0.19591757655143738 -1.1278077363967896 0.3641546666622162
0.2922626733779907 -1.1075458526611328 0.36439603567123413
0.38658446073532104 -1.0791010856628418 0.36464980244636536
0.47818723320961 -1.0426582098007202 0.36491408944129944
3.413400888442993 -6.01726770401001 2.200777053833008
-2.365112322877394e-06 -1.1195505857467651 0.36376434564590454
0.09622009098529816 -1.1160531044006348 0.3639712333679199
0.1918400526046753 -1.1043330430984497 0.364193856716156
0.28617560863494873 -1.0844786167144775 0.3644302189350128
0.37852758169174194 -1.0566086769104004 0.36467865109443665
0.4682193696498871 -1.0209167003631592 0.364937424659729
3.340989828109741 -5.889610290527344 2.2001101970672607
-6.484985419774603e-07 -1.096664547920227 0.3638107180595398
0.09425033628940582 -1.0932188034057617 0.36401334404945374
0.18791434168815613 -1.081728458404541 0.36423155665397644
0.2803112864494324 -1.0622657537460327 0.36446288228034973
0.3707677721977234 -1.0349518060684204 0.364706426858902
0.4586123526096344 -0.9999745488166809 0.36495986580848694
0.543202817440033 -0.957575798034668 0.3652215600013733
2.822876012942288e-06 -1.0746054649353027 0.3638552725315094
0.09234966337680817 -1.0712132453918457 0.36405426263809204
0.18413196504116058 -1.0599472522735596 0.36426788568496704
0.27466273307800293 -1.0408592224121094 0.3644946217536926
0.36329448223114014 -1.0140855312347412 0.36473312973976135
0.4493592083454132 -0.9797971844673157 0.3649815320968628
0.5322353839874268 -0.9382426142692566 0.3652380406856537
1.1062621751989354e-06 -1.0533249378204346 0.36389845609664917
0.09052146971225739 -1.049991488456726 0.36409345269203186
0.18047907948493958 -1.038934350013733 0.3643026649951935
0.2692178785800934 -1.0202157497406006 0.3645251393318176
0.3560801148414612 -0.9939547777175903 0.3647589087486267
0.44043582677841187 -0.9603396654129028 0.36500242352485657
0.5216512680053711 -0.9195895195007324 0.36525389552116394
1.1444091114753974e-06 -1.0327885150909424 0.36394011974334717
0.08875545114278793 -1.0295084714889526 0.3641311526298523
0.1769590675830841 -1.0186585187911987 0.3643365502357483
0.26396292448043823 -1.0002938508987427 0.36455458402633667
0.3491230309009552 -0.9745334982872009 0.36478391289711
0.4318265914916992 -0.9415623545646667 0.36502256989479065
0.5114434361457825 -0.9015958905220032 0.3652690052986145
2.86102294921875e-06 -1.012954592704773 0.36398041248321533
0.0870550125837326 -1.0097332000732422 0.3641677796840668
0.173553004860878 -0.9990698099136353 0.3643691837787628
0.25888577103614807 -0.9810503721237183 0.3645831346511841
0.34240245819091797 -0.9557734727859497 0.3648078739643097
0.42350393533706665 -0.9234236478805542 0.365042120218277
0.5015860795974731 -0.8842186331748962 0.3652838170528412
2.86102294921875e-06 -0.9937853813171387 0.36401915550231934
0.0854046642780304 -0.9906124472618103 0.36420318484306335
0.17026957869529724 -0.9801456928253174 0.36440062522888184
0.25397607684135437 -0.9624542593955994 0.36461058259010315
0.3359079658985138 -0.9376434087753296 0.36483123898506165
0.4154660701751709 -0.905897855758667 0.3650607168674469
0.49206534028053284 -0.8674300909042358 0.36529800295829773
-5.722045557376987e-07 -0.9752410650253296 0.36405670642852783
0.08380607515573502 -0.9721164703369141 0.3642372190952301
0.16708792746067047 -0.961837887763977 0.36443114280700684
0.24923041462898254 -0.9444676041603088 0.3646371364593506
0.3296275734901428 -0.920114278793335 0.3648536503314972
0.40769416093826294 -0.8889487385749817 0.36507904529571533
0.48285362124443054 -0.8511886596679688 0.3653118908405304
1.182556161438697e-06 -0.9572992324829102 0.36409300565719604
0.0822661966085434 -0.954224705696106 0.36427032947540283
0.1640133559703827 -0.9441275000572205 0.3644607365131378
0.24463489651679993 -0.9270626902580261 0.36466291546821594
0.32355260848999023 -0.9031530022621155 0.364875465631485
0.40017256140708923 -0.8725502490997314 0.36509671807289124
0.47394052147865295 -0.835477352142334 0.365325003862381
1.1444091114753974e-06 -0.9399254322052002 0.3641284108161926
0.08077121526002884 -0.9368957281112671 0.3643023669719696
0.16103199124336243 -0.9269728064537048 0.36448928713798523
0.2401895821094513 -0.9102119207382202 0.36468780040740967
0.31766581535339355 -0.8867217302322388 0.36489638686180115
0.3928908705711365 -0.8566714525222778 0.36511367559432983
0.4653071463108063 -0.8202596306800842 0.36533811688423157
-5.340576194612368e-07 -0.9230919480323792 0.3641624450683594
0.07932624965906143 -0.9201105833053589 0.3643333315849304
0.15814551711082458 -0.9103585481643677 0.36451688408851624
0.23588241636753082 -0.8938859105110168 0.3647119104862213
0.3119637370109558 -0.8708100914955139 0.3649168312549591
0.38583359122276306 -0.8412863612174988 0.36513030529022217
0.45695003867149353 -0.8055253624916077 0.36535048484802246
-2.2888182229507947e-06 -0.9067694544792175 0.3641955554485321
0.077921062707901 -0.9038381576538086 0.3643634021282196
0.15534888207912445 -0.8942484855651855 0.36454376578330994
0.23170813918113708 -0.8780624270439148 0.3647352457046509
0.30643945932388306 -0.855383574962616 0.364936500787735
0.3789938986301422 -0.8263742923736572 0.3651461601257324
0.4488396644592285 -0.7912347912788391 0.3653625547885895
-2.250671286674333e-06 -0.8909424543380737 0.3642275929450989
0.07656417787075043 -0.8880560398101807 0.3643926978111267
0.152633398771286 -0.8786234259605408 0.36456969380378723
0.22765472531318665 -0.8627117872238159 0.3647579848766327
0.30108267068862915 -0.8404248356819153 0.36495575308799744
0.3723647892475128 -0.8119145035743713 0.3651617467403412
0.4409831166267395 -0.7773809432983398 0.36537444591522217
-4.95910626341356e-07 -0.8755831718444824 0.36425870656967163
0.0752418115735054 -0.8727365136146545 0.36442092061042786
0.14999553561210632 -0.8634592890739441 0.3645950257778168
0.2237256020307541 -0.8478170037269592 0.3647799491882324
0.2958795130252838 -0.8259063363075256 0.36497434973716736
0.36592897772789 -0.7978828549385071 0.3651766777038574
0.4333544969558716 -0.7639344334602356 0.3653857409954071
-4.95910626341356e-07 -0.8606677055358887 0.36428892612457275
0.073959119617939 -0.8578606843948364 0.3644483983516693
0.1474405974149704 -0.8487370610237122 0.3646194338798523
0.21990694105625153 -0.8333503603935242 0.3648013174533844
0.2908248007297516 -0.8118057250976562 0.36499252915382385
0.3596813976764679 -0.7842568755149841 0.36519134044647217
0.4259519577026367 -0.7508834004402161 0.3653968870639801
1.220703097715159e-06 -0.8461785912513733 0.36431822180747986
0.07271617650985718 -0.8434147238731384 0.3644751012325287
0.14495982229709625 -0.8344378471374512 0.364643394947052
0.21619708836078644 -0.8192996978759766 0.36482205986976624
0.2859237492084503 -0.7981175780296326 0.3650100529193878
0.35360991954803467 -0.7710211277008057 0.36520567536354065
0.4187583327293396 -0.7382034659385681 0.3654075562953949
-4.95910626341356e-07 -0.832093358039856 0.3643469214439392
0.07150085270404816 -0.829369306564331 0.364501029253006
0.14253956079483032 -0.8205339908599854 0.36466658115386963
0.21259766817092896 -0.8056495189666748 0.36484235525131226
0.28115561604499817 -0.7848075032234192 0.36502715945243835
0.3477075397968292 -0.7581547498703003 0.3652194142341614
0.41177016496658325 -0.7258843183517456 0.36541807651519775
2.9754637580481358e-06 -0.8184036016464233 0.36437469720840454
0.07032348215579987 -0.8157139420509338 0.3645262122154236
0.14019690454006195 -0.8070219159126282 0.36468902230262756
0.20909492671489716 -0.7923722863197327 0.3648620545864105
0.27651694416999817 -0.77186518907547 0.36504364013671875
0.3419709801673889 -0.7456474304199219 0.3652328550815582
0.4049718379974365 -0.7139001488685608 0.3654281497001648
1.2588500339916209e-06 -0.8050779700279236 0.36440154910087585
0.06917720288038254 -0.802428126335144 0.36455076932907104
0.13790778815746307 -0.7938706874847412 0.3647109866142273
0.20568713545799255 -0.779455840587616 0.3648809790611267
0.2720077931880951 -0.759276807308197 0.3650597929954529
0.3363914489746094 -0.7334802150726318 0.3652459681034088
0.39836516976356506 -0.7022490501403809 0.3654380738735199
1.2588500339916209e-06 -0.7921097278594971 0.364427775144577
0.06806201487779617 -0.7894977927207947 0.3645745813846588
0.13568946719169617 -0.7810767889022827 0.3647323548793793
0.2023656815290451 -0.7668812274932861 0.36489957571029663
0.26761773228645325 -0.7470249533653259 0.3650755286216736
0.3309655785560608 -0.7216427326202393 0.36525848507881165
0.3919242024421692 -0.6909018754959106 0.36544767022132874
1.2588500339916209e-06 -0.7794868350028992 0.36445343494415283
0.06697788089513779 -0.7769094705581665 0.3645979166030884
0.13352464139461517 -0.7686161398887634 0.36475294828414917
0.19913573563098907 -0.7546432614326477 0.3649176061153412
0.26334503293037415 -0.7350976467132568 0.365090936422348
0.3256743550300598 -0.7101125121116638 0.3652710020542145
0.3856610655784607 -0.6798602342605591 0.3654569983482361
-4.577636616431846e-07 -0.7671831846237183 0.3644784390926361
0.06592479348182678 -0.7646490335464478 0.3646206557750702
0.13141334056854248 -0.7564747929573059 0.3647732436656952
0.19599036872386932 -0.7427211403846741 0.3649353086948395
0.2591880261898041 -0.7234829664230347 0.3651057481765747
0.32052475214004517 -0.6988826394081116 0.36528319120407104
0.3795584738254547 -0.6691000461578369 0.36546599864959717
-2.174377414121409e-06 -0.755197286605835 0.36450254917144775
0.06489421427249908 -0.7526975870132446 0.3646426200866699
0.12936075031757355 -0.7446476817131042 0.3647930920124054
0.1929260939359665 -0.7311046719551086 0.36495253443717957
0.2551276981830597 -0.712158203125 0.3651202321052551
0.3155045509338379 -0.6879376769065857 0.36529478430747986
0.37361472845077515 -0.6586228609085083 0.36547499895095825
-4.577636616431846e-07 -0.7435117363929749 0.3645263612270355
0.06388606876134872 -0.7410414218902588 0.36466413736343384
0.12735646963119507 -0.7331175208091736 0.36481231451034546
0.1899343580007553 -0.7197746634483337 0.3649691641330719
0.25117096304893494 -0.7011164426803589 0.36513441801071167
0.3106172978878021 -0.6772741675376892 0.36530637741088867
0.3678160011768341 -0.648401141166687 0.36548370122909546
1.2969970839549205e-06 -0.7321162223815918 0.3645493984222412
0.06291065365076065 -0.7296838164329529 0.36468520760536194
0.1254022717475891 -0.7218687534332275 0.3648309111595154
0.18701861798763275 -0.7087278366088867 0.3649856448173523
0.24731948971748352 -0.6903562545776367 0.3651481568813324
0.3058440089225769 -0.6668695211410522 0.36531737446784973
0.36216914653778076 -0.6384419798851013 0.3654920756816864
3.0517576306010596e-06 -0.7209968566894531 0.3645719885826111
0.061954304575920105 -0.7185972332954407 0.3647056519985199
0.12349296361207962 -0.7108926177024841 0.3648492395877838
0.18417707085609436 -0.6979520916938782 0.36500152945518494
0.24355606734752655 -0.6798532605171204 0.3651617467403412
0.3011881113052368 -0.6567203998565674 0.3653283715248108
0.356648325920105 -0.6287158131599426 0.36550047993659973
1.3351440202313825e-06 -0.7101433873176575 0.3645939528942108
0.061023786664009094 -0.7077748775482178 0.36472564935684204
0.12163367867469788 -0.7001842260360718 0.3648669421672821
0.1813994199037552 -0.6874300837516785 0.3650170862674713
0.23988591134548187 -0.6696022748947144 0.3651748597621918
0.2966478168964386 -0.6468147039413452 0.36533889174461365
0.35126563906669617 -0.6192244291305542 0.36550840735435486
-2.136230477844947e-06 -0.6995402574539185 0.36461547017097473
0.06011228263378143 -0.6972096562385559 0.364745169878006
0.11982104927301407 -0.6897330284118652 0.36488431692123413
0.1786942183971405 -0.6771670579910278 0.3650323450565338
0.23629514873027802 -0.6595895290374756 0.36518752574920654
0.2922076880931854 -0.6371402740478516 0.3653494119644165
0.3460124135017395 -0.6099627017974854 0.36551633477211
1.2969970839549205e-06 -0.6891925930976868 0.36463654041290283
0.05921979621052742 -0.6868879795074463 0.3647642433643341
0.1180463582277298 -0.6795200109481812 0.36490142345428467
0.17604780197143555 -0.6671352982521057 0.3650471270084381
0.23279587924480438 -0.6498167514801025 0.3652001917362213
0.28787288069725037 -0.6276921033859253 0.36535948514938354
0.3408851623535156 -0.6009200811386108 0.36552396416664124
3.0517576306010596e-06 -0.679081380367279 0.3646569848060608
0.05835141986608505 -0.6768044233322144 0.3647828698158264
0.11630795896053314 -0.6695331335067749 0.36491820216178894
0.17346175014972687 -0.6573331356048584 0.3650616407394409
0.22937601804733276 -0.6402683854103088 0.3652123808860779
0.2836467921733856 -0.6184665560722351 0.36536940932273865
0.33586326241493225 -0.5920761227607727 0.3655312955379486
1.3351440202313825e-06 -0.6691946983337402 0.3646771013736725
0.05750211700797081 -0.666950523853302 0.3648010194301605
0.11461961269378662 -0.6597862243652344 0.36493438482284546
