ply
format ascii 1.0
element vertex 2136
property float32 x
property float32 y
property float32 z
end_header
0.7729 -2.3125 0.3172
0.9805 -2.2443 0.3186
5.8391 -10.6571 1.5808
6.8266 -10.1831 1.5948
7.7867 -9.6309 1.6111
8.2058 -8.4753 1.5346
8.8266 -7.6209 1.5170
2.5027 -1.7976 0.4008
2.5049 -1.4796 0.3785
2.5069 -1.1932 0.3612
2.5088 -0.9297 0.3480
2.5105 -0.6828 0.3384
2.5122 -0.4473 0.3319
2.5138 -0.2190 0.3282
2.5154 0.0062 0.3272
2.5170 0.2317 0.3288
2.5186 0.4612 0.3331
2.5203 0.6987 0.3402
2.5220 0.9487 0.3505
2.5239 1.2165 0.3645
2.5260 1.5089 0.3828
2.5283 1.8349 0.4064
2.5309 2.2070 0.4368
10.1172 10.5526 1.9017
9.9367 12.4143 2.0686
8.7545 13.1984 2.0603
7.5498 13.9412 2.0624
6.2818 14.5727 2.0643
4.9607 15.0873 2.0660
3.5974 15.4806 2.0675
2.2027 15.7451 2.0682
0.6527 13.1332 1.7106
-0.5213 13.1333 1.7098
-2.0244 15.6051 2.0470
-3.4047 15.3448 2.0447
-4.7556 14.9656 2.0428
-5.6384 13.4481 1.8970
-7.3189 13.8432 2.0370
-8.5091 13.1109 2.0333
-9.6246 12.2736 2.0290
-10.7128 11.3996 2.0350
-11.6617 10.3759 2.0306
-12.4644 9.2374 2.0182
-13.1366 8.0261 2.0026
-13.6673 6.7563 1.9833
-14.0738 5.4551 1.9635
-14.3410 4.1307 1.9414
-14.4609 2.7978 1.9160
-14.4578 1.4766 1.8905
-14.3457 0.1785 1.8663
-9.3354 -0.7192 1.2180
-6.8918 -1.1563 0.9091
-5.8429 -1.5266 0.7856
-5.8477 -2.1008 0.8083
-5.8528 -2.7142 0.8393
-5.8584 -3.3821 0.8800
-5.8646 -4.1242 0.9327
-5.8716 -4.9680 1.0005
-8.8150 -8.9244 1.6318
-7.8914 -9.5634 1.6129
-6.9348 -10.1243 1.5964
-5.9503 -10.6071 1.5821
-1.0036 -2.2360 0.3188
-0.7965 -2.3060 0.3174
-0.5855 -2.3594 0.3162
-0.3717 -2.3963 0.3155
-0.1562 -2.4166 0.3150
0.0600 -2.4203 0.3149
0.2759 -2.4073 0.3152
0.4905 -2.3777 0.3158
0.7028 -2.3315 0.3168
0.9118 -2.2689 0.3181
5.5046 -10.7978 1.5766
6.5001 -10.3498 1.5899
7.4698 -9.8238 1.6054
8.1941 -8.9839 1.5818
8.5603 -7.8480 1.5107
2.5019 -1.9125 0.4097
2.5042 -1.5817 0.3853
2.5063 -1.2858 0.3664
2.5082 -1.0154 0.3520
2.5100 -0.7636 0.3413
2.5116 -0.5249 0.3338
2.5133 -0.2946 0.3292
2.5149 -0.0688 0.3273
2.5165 0.1562 0.3280
2.5181 0.3840 0.3314
2.5197 0.6184 0.3375
2.5214 0.8637 0.3467
2.5233 1.1248 0.3594
2.5253 1.4081 0.3761
2.5275 1.7218 0.3978
2.5300 2.0768 0.4258
10.4246 10.2442 1.9013
9.4725 11.1374 1.9020
9.1404 12.9270 2.0595
7.9591 13.7056 2.0617
6.7111 14.3748 2.0637
5.4065 14.9290 2.0655
4.0561 15.3632 2.0670
2.6709 15.6734 2.0683
1.0713 13.4551 1.7559
-0.1298 13.1333 1.7085
-1.5593 15.6650 2.0479
-2.9468 15.4432 2.0452
-4.3092 15.1059 2.0435
-5.6332 14.6443 2.0411
-6.9071 14.0629 2.0381
-8.1200 13.3672 2.0346
-9.2615 12.5640 2.0305
-10.3558 11.6994 2.0325
-11.3598 10.7303 2.0328
-12.2105 9.6257 2.0226
-12.9322 8.4403 2.0089
-13.5041 7.1839 1.9898
-13.9521 5.8918 1.9702
-14.2731 4.5758 1.9498
-14.4348 3.2416 1.9245
-14.4722 1.9152 1.8990
-14.3909 0.6081 1.8737
-14.1792 -0.6683 1.8466
-9.3379 -1.2820 1.2261
-5.8413 -1.3417 0.7797
-5.8460 -1.9056 0.7999
-5.8511 -2.5044 0.8279
-5.8565 -3.1522 0.8652
-5.8624 -3.8670 0.9136
-5.8692 -4.6732 0.9760
-9.1147 -8.6939 1.6386
-8.2033 -9.3590 1.6190
-7.2571 -9.9459 1.6016
-6.2814 -10.4548 1.5866
-1.0717 -2.2091 0.3194
-0.8660 -2.2845 0.3178
-0.6562 -2.3434 0.3166
-0.4432 -2.3859 0.3157
-0.2282 -2.4117 0.3151
-0.0121 -2.4209 0.3149
0.2040 -2.4135 0.3151
0.4192 -2.3894 0.3156
0.6323 -2.3488 0.3164
0.8425 -2.2916 0.3176
1.0487 -2.2180 0.3192
6.1707 -10.5079 1.5852
7.1496 -10.0079 1.6000
8.0995 -9.4297 1.6171
8.2896 -8.0672 1.5047
2.5010 -2.0327 0.4193
2.5034 -1.6876 0.3927
2.5056 -1.3812 0.3722
2.5076 -1.1032 0.3564
2.5094 -0.8459 0.3445
2.5111 -0.6033 0.3360
2.5127 -0.3707 0.3304
2.5143 -0.1438 0.3276
2.5159 0.0811 0.3275
2.5175 0.3075 0.3299
2.5192 0.5392 0.3351
2.5209 0.7804 0.3433
2.5227 1.0356 0.3547
2.5246 1.3107 0.3700
2.5267 1.6132 0.3900
2.5291 1.9529 0.4157
2.5319 2.3440 0.4488
9.8000 10.8501 1.9020
9.5457 12.6814 2.0648
8.3610 13.4578 2.0610
7.1341 14.1642 2.0631
5.8472 14.7573 2.0649
4.5108 15.2320 2.0665
3.1360 15.5839 2.0679
1.7318 15.7891 2.0663
0.2615 13.1333 1.7088
-0.9132 13.1333 1.7126
-2.4866 15.5310 2.0461
-3.8585 15.2324 2.0441
-5.1966 14.8118 2.0420
-6.0671 13.3430 1.9067
-7.7230 13.6115 2.0358
-8.8894 12.8434 2.0319
-9.9789 11.9741 2.0277
-11.0466 11.0754 2.0349
-11.9440 10.0066 2.0270
-12.7052 8.8428 2.0137
-13.3271 7.6075 1.9962
-13.8165 6.3259 1.9768
-14.1816 5.0170 1.9569
-14.3948 3.6863 1.9330
-14.4733 2.3559 1.9076
-14.4303 1.0411 1.8821
-14.2686 -0.2470 1.8564
-9.3366 -0.9995 1.2215
-5.8526 -1.1619 0.7762
-5.8445 -1.7143 0.7923
-5.8493 -2.3001 0.8176
-5.8546 -2.9297 0.8516
-5.8604 -3.6198 0.8961
-5.8668 -4.3923 0.9534
-5.8742 -5.2779 1.0273
-8.5114 -9.1458 1.6252
-7.5762 -9.7589 1.6072
-6.6098 -10.2938 1.5914
-5.6171 -10.7506 1.5779
-0.9351 -2.2612 0.3183
-0.7266 -2.3256 0.3169
-0.5145 -2.3735 0.3159
-0.3001 -2.4049 0.3153
-0.0843 -2.4197 0.3150
0.1320 -2.4178 0.3150
0.3476 -2.3993 0.3154
0.5615 -2.3642 0.3161
0.7728 -2.3125 0.3172
0.9804 -2.2444 0.3186
5.8387 -10.6573 1.5808
6.8262 -10.1833 1.5948
7.7863 -9.6312 1.6111
8.2058 -8.4760 1.5347
8.8262 -7.6212 1.5170
2.5027 -1.7978 0.4009
2.5049 -1.4798 0.3785
2.5069 -1.1933 0.3612
2.5088 -0.9298 0.3481
2.5105 -0.6829 0.3385
2.5122 -0.4474 0.3319
2.5138 -0.2191 0.3282
2.5154 0.0061 0.3272
2.5170 0.2316 0.3288
2.5186 0.4611 0.3331
2.5203 0.6986 0.3402
2.5220 0.9486 0.3505
2.5239 1.2163 0.3645
2.5260 1.5087 0.3827
2.5283 1.8347 0.4064
2.5309 2.2068 0.4368
10.1176 10.5522 1.9017
9.9373 12.4139 2.0686
8.7550 13.1980 2.0603
7.5504 13.9409 2.0624
6.2824 14.5724 2.0643
4.9613 15.0871 2.0660
3.5981 15.4804 2.0675
2.2033 15.7450 2.0682
0.6533 13.1332 1.7106
-0.5208 13.1333 1.7098
-2.0238 15.6052 2.0470
-3.4041 15.3449 2.0447
-4.7549 14.9658 2.0428
-5.6380 13.4487 1.8970
-7.3184 13.8436 2.0370
-8.5086 13.1113 2.0333
-9.6241 12.2741 2.0290
-10.7123 11.4001 2.0350
-11.6613 10.3764 2.0306
-12.4641 9.2379 2.0182
-13.1363 8.0266 2.0026
-13.6671 6.7569 1.9833
-14.0736 5.4558 1.9635
-14.3409 4.1314 1.9414
-14.4608 2.7984 1.9161
-14.4578 1.4772 1.8906
-14.3458 0.1791 1.8663
-9.3354 -0.7188 1.2180
-6.8935 -1.1563 0.9093
-5.8429 -1.5263 0.7856
-5.8477 -2.1005 0.8083
-5.8528 -2.7139 0.8392
-5.8584 -3.3817 0.8800
-5.8646 -4.1238 0.9326
-5.8716 -4.9676 1.0005
-8.8154 -8.9240 1.6318
-7.8918 -9.5631 1.6129
-6.9352 -10.1241 1.5964
-5.9508 -10.6069 1.5821
-1.0037 -2.2360 0.3188
-0.7966 -2.3059 0.3174
-0.5856 -2.3594 0.3162
-0.3718 -2.3963 0.3155
-0.1563 -2.4166 0.3150
0.0599 -2.4203 0.3149
0.2758 -2.4073 0.3152
0.4904 -2.3777 0.3158
0.7027 -2.3316 0.3168
0.9117 -2.2689 0.3181
5.5041 -10.7980 1.5766
6.4997 -10.3500 1.5899
7.4694 -9.8240 1.6054
8.1940 -8.9846 1.5818
8.5599 -7.8483 1.5107
2.5019 -1.9127 0.4097
2.5042 -1.5818 0.3853
2.5063 -1.2859 0.3664
2.5082 -1.0155 0.3520
2.5100 -0.7637 0.3413
2.5116 -0.5250 0.3338
2.5133 -0.2947 0.3292
2.5149 -0.0689 0.3273
2.5165 0.1561 0.3280
2.5181 0.3839 0.3313
2.5197 0.6183 0.3375
2.5214 0.8635 0.3467
2.5233 1.1247 0.3594
2.5253 1.4080 0.3761
2.5275 1.7216 0.3978
2.5300 2.0766 0.4258
10.4250 10.2438 1.9013
9.4730 11.1370 1.9020
9.1410 12.9266 2.0595
7.9597 13.7052 2.0617
6.7117 14.3745 2.0637
5.4071 14.9288 2.0655
4.0567 15.3630 2.0670
2.6715 15.6733 2.0683
1.0719 13.4557 1.7559
-0.1292 13.1333 1.7085
-1.5586 15.6650 2.0479
-2.9462 15.4433 2.0452
-4.3086 15.1061 2.0435
-5.6326 14.6446 2.0411
-6.9066 14.0631 2.0381
-8.1195 13.3675 2.0346
-9.2610 12.5645 2.0305
-10.3553 11.6998 2.0325
-11.3594 10.7308 2.0328
-12.2102 9.6262 2.0226
-12.9319 8.4409 2.0089
-13.5038 7.1845 1.9898
-13.9519 5.8924 1.9702
-14.2730 4.5764 1.9498
-14.4347 3.2422 1.9245
-14.4722 1.9158 1.8991
-14.3910 0.6087 1.8737
-14.1794 -0.6678 1.8466
-9.3379 -1.2816 1.2261
-5.8413 -1.3414 0.7797
-5.8460 -1.9053 0.7999
-5.8510 -2.5042 0.8279
-5.8565 -3.1519 0.8652
-5.8624 -3.8666 0.9136
-5.8692 -4.6728 0.9759
-9.1151 -8.6936 1.6386
-8.2037 -9.3586 1.6190
-7.2576 -9.9457 1.6016
-6.2819 -10.4546 1.5866
-1.0718 -2.2090 0.3194
-0.8661 -2.2844 0.3178
-0.6563 -2.3434 0.3166
-0.4433 -2.3858 0.3157
-0.2283 -2.4117 0.3151
-0.0123 -2.4209 0.3149
0.2039 -2.4135 0.3151
0.4191 -2.3894 0.3156
0.6322 -2.3488 0.3164
0.8424 -2.2916 0.3176
1.0486 -2.2180 0.3192
6.1703 -10.5081 1.5852
7.1492 -10.0081 1.6000
8.0991 -9.4300 1.6170
8.2892 -8.0675 1.5047
2.5010 -2.0329 0.4193
2.5034 -1.6877 0.3928
2.5056 -1.3813 0.3722
2.5076 -1.1033 0.3564
2.5094 -0.8460 0.3445
2.5111 -0.6034 0.3360
2.5127 -0.3708 0.3304
2.5143 -0.1439 0.3276
2.5159 0.0809 0.3275
2.5175 0.3074 0.3299
2.5191 0.5391 0.3351
2.5209 0.7803 0.3433
2.5227 1.0355 0.3547
2.5246 1.3106 0.3700
2.5267 1.6130 0.3900
2.5291 1.9528 0.4157
2.5319 2.3438 0.4488
9.8004 10.8497 1.9020
9.5463 12.6811 2.0648
8.3616 13.4574 2.0610
7.1347 14.1638 2.0631
5.8479 14.7570 2.0649
4.5114 15.2318 2.0665
3.1366 15.5838 2.0679
1.7325 15.7891 2.0663
0.2620 13.1333 1.7088
-0.9127 13.1333 1.7126
-2.4859 15.5311 2.0461
-3.8579 15.2326 2.0441
-5.1960 14.8121 2.0420
-6.0662 13.3425 1.9066
-7.7224 13.6118 2.0358
-8.8888 12.8438 2.0319
-9.9784 11.9745 2.0277
-11.0462 11.0759 2.0349
-11.9436 10.0071 2.0270
-12.7049 8.8433 2.0137
-13.3268 7.6081 1.9962
-13.8163 6.3265 1.9768
-14.1815 5.0176 1.9569
-14.3948 3.6869 1.9330
-14.4733 2.3565 1.9076
-14.4304 1.0418 1.8821
-14.2687 -0.2464 1.8564
-9.3366 -0.9991 1.2215
-5.8538 -1.1619 0.7764
-5.8444 -1.7140 0.7923
-5.8493 -2.2998 0.8176
-5.8546 -2.9294 0.8516
-5.8604 -3.6195 0.8960
-5.8668 -4.3919 0.9533
-5.8742 -5.2775 1.0273
-8.5118 -9.1455 1.6252
-7.5766 -9.7586 1.6072
-6.6102 -10.2935 1.5914
-5.6176 -10.7504 1.5779
-0.9352 -2.2611 0.3183
-0.7267 -2.3256 0.3169
-0.5146 -2.3735 0.3159
-0.3002 -2.4049 0.3153
-0.0844 -2.4197 0.3150
0.1319 -2.4178 0.3150
0.3475 -2.3993 0.3154
0.5614 -2.3642 0.3161
0.7727 -2.3125 0.3172
0.9804 -2.2444 0.3186
5.8382 -10.6575 1.5808
6.8257 -10.1835 1.5948
7.7859 -9.6315 1.6111
8.2057 -8.4767 1.5347
8.8259 -7.6215 1.5170
2.5027 -1.7979 0.4009
2.5049 -1.4799 0.3785
2.5069 -1.1934 0.3612
2.5088 -0.9299 0.3481
2.5105 -0.6830 0.3385
2.5122 -0.4475 0.3319
2.5138 -0.2192 0.3283
2.5154 0.0060 0.3272
2.5170 0.2315 0.3288
2.5186 0.4610 0.3331
2.5203 0.6985 0.3402
2.5220 0.9485 0.3505
2.5239 1.2162 0.3645
2.5260 1.5086 0.3827
2.5283 1.8346 0.4064
2.5309 2.2066 0.4368
10.1180 10.5518 1.9017
9.9378 12.4135 2.0686
8.7556 13.1977 2.0603
7.5510 13.9406 2.0624
6.2830 14.5722 2.0643
4.9619 15.0869 2.0660
3.5987 15.4802 2.0675
2.2040 15.7450 2.0682
0.6538 13.1332 1.7106
-0.5202 13.1333 1.7098
-2.0231 15.6053 2.0470
-3.4034 15.3451 2.0447
-4.7543 14.9660 2.0428
-5.6376 13.4493 1.8971
-7.3178 13.8439 2.0370
-8.5081 13.1117 2.0333
-9.6236 12.2745 2.0290
-10.7118 11.4005 2.0350
-11.6609 10.3769 2.0306
-12.4637 9.2385 2.0182
-13.1360 8.0272 2.0026
-13.6668 6.7576 1.9833
-14.0735 5.4563 1.9635
-14.3409 4.1320 1.9414
-14.4608 2.7990 1.9161
-14.4579 1.4778 1.8906
-14.3459 0.1797 1.8663
-9.3354 -0.7185 1.2180
-6.8952 -1.1562 0.9095
-5.8429 -1.5261 0.7856
-5.8477 -2.1003 0.8083
-5.8528 -2.7136 0.8392
-5.8584 -3.3814 0.8799
-5.8646 -4.1235 0.9326
-5.8716 -4.9672 1.0005
-8.8158 -8.9237 1.6318
-7.8922 -9.5628 1.6129
-6.9357 -10.1238 1.5964
-5.9512 -10.6067 1.5821
-1.0038 -2.2360 0.3188
-0.7966 -2.3059 0.3174
-0.5857 -2.3594 0.3162
-0.3719 -2.3963 0.3155
-0.1564 -2.4166 0.3150
0.0598 -2.4203 0.3149
0.2757 -2.4073 0.3152
0.4903 -2.3777 0.3158
0.7026 -2.3316 0.3168
0.9116 -2.2689 0.3181
5.5037 -10.7982 1.5766
6.4992 -10.3503 1.5899
7.4690 -9.8243 1.6054
8.1940 -8.9854 1.5819
8.5596 -7.8486 1.5107
2.5019 -1.9128 0.4097
2.5042 -1.5820 0.3853
2.5063 -1.2860 0.3664
2.5082 -1.0157 0.3520
2.5100 -0.7639 0.3413
2.5116 -0.5251 0.3338
2.5133 -0.2948 0.3292
2.5149 -0.0690 0.3273
2.5165 0.1560 0.3280
2.5181 0.3838 0.3313
2.5197 0.6182 0.3375
2.5214 0.8634 0.3467
2.5233 1.1246 0.3594
2.5253 1.4078 0.3761
2.5275 1.7215 0.3978
2.5300 2.0765 0.4258
10.4255 10.2433 1.9013
9.4734 11.1366 1.9020
9.1415 12.9263 2.0595
7.9602 13.7049 2.0617
6.7123 14.3743 2.0637
5.4078 14.9285 2.0655
4.0573 15.3628 2.0670
2.6722 15.6732 2.0683
1.0725 13.4562 1.7560
-0.1287 13.1333 1.7085
-1.5580 15.6651 2.0479
-2.9455 15.4434 2.0452
-4.3079 15.1063 2.0435
-5.6319 14.6448 2.0411
-6.9060 14.0634 2.0381
-8.1189 13.3679 2.0346
-9.2604 12.5649 2.0305
-10.3548 11.7001 2.0325
-11.3590 10.7313 2.0328
-12.2098 9.6268 2.0226
-12.9316 8.4414 2.0089
-13.5036 7.1851 1.9898
-13.9517 5.8930 1.9702
-14.2728 4.5770 1.9498
-14.4347 3.2428 1.9246
-14.4722 1.9163 1.8991
-14.3910 0.6093 1.8738
-14.1795 -0.6672 1.8466
-9.3379 -1.2812 1.2261
-5.8413 -1.3412 0.7796
-5.8460 -1.9051 0.7998
-5.8510 -2.5039 0.8279
-5.8565 -3.1515 0.8651
-5.8624 -3.8663 0.9135
-5.8692 -4.6724 0.9759
-9.1155 -8.6932 1.6386
-8.2042 -9.3584 1.6190
-7.2580 -9.9454 1.6016
-6.2823 -10.4544 1.5866
-1.0719 -2.2090 0.3194
-0.8662 -2.2844 0.3178
-0.6564 -2.3434 0.3166
-0.4434 -2.3858 0.3157
-0.2284 -2.4117 0.3151
-0.0123 -2.4209 0.3149
0.2038 -2.4135 0.3151
0.4189 -2.3894 0.3156
0.6321 -2.3488 0.3164
0.8423 -2.2917 0.3176
1.0485 -2.2181 0.3192
6.1698 -10.5083 1.5852
2.5082 -1.0153 0.3690
2.5100 -0.7635 0.3577
2.5117 -0.5248 0.3499
2.5133 -0.2945 0.3450
2.5149 -0.0687 0.3430
2.5165 0.1563 0.3438
2.5181 0.3841 0.3473
2.5197 0.6185 0.3538
2.5215 0.8638 0.3634
2.5233 1.1249 0.3767
2.5253 1.4083 0.3943
2.5275 1.7219 0.4170
2.5300 2.0770 0.4463
9.8494 9.6797 1.8830
8.9826 10.5622 1.8906
8.7149 12.3264 2.0584
7.5882 13.0680 2.0605
6.3979 13.7055 2.0624
5.1539 14.2332 2.0641
3.8627 14.6334 2.0637
2.5369 14.8912 2.0598
1.0754 13.5139 1.8485
-0.1489 15.0093 2.0467
-1.4849 14.9107 2.0432
-2.8068 14.7059 2.0414
-4.1043 14.3853 2.0398
-5.3654 13.9464 2.0375
-6.5791 13.3935 2.0347
-7.7349 12.7319 2.0313
-8.8229 11.9681 2.0274
-9.8472 11.1239 2.0257
-10.8099 10.2100 2.0275
-11.6188 9.1584 2.0173
-12.2994 8.0265 2.0026
-12.8491 6.8348 1.9845
-13.2817 5.6080 1.9659
-13.5728 4.3507 1.9435
-13.7353 3.0839 1.9195
-13.7797 1.8229 1.8953
-13.7257 0.5795 1.8732
-13.5325 -0.6384 1.8473
-9.3379 -1.2824 1.2852
-5.8413 -1.3419 0.8172
-5.8460 -1.9059 0.8384
-5.8510 -2.5047 0.8679
-5.8565 -3.1525 0.9069
-5.8624 -3.8673 0.9576
-5.8692 -4.6736 1.0230
-8.7497 -8.3465 1.6488
-7.8785 -8.9892 1.6299
-6.9727 -9.5570 1.6131
-6.0374 -10.0496 1.5986
-1.0283 -2.1199 0.3213
-0.8311 -2.1927 0.3197
-0.6298 -2.2496 0.3185
-0.4254 -2.2906 0.3177
-0.2190 -2.3155 0.3171
-0.0116 -2.3244 0.3170
0.1959 -2.3172 0.3171
0.4025 -2.2940 0.3176
0.6071 -2.2547 0.3184
0.8088 -2.1995 0.3195
1.0064 -2.1284 0.3210
5.9321 -10.1005 1.5972
6.8706 -9.6164 1.6115
7.7801 -9.0570 1.6281
8.2037 -7.9830 1.5608
2.5010 -2.0325 0.4394
2.5035 -1.6874 0.4117
2.5056 -1.3811 0.3901
2.5076 -1.1031 0.3735
2.5094 -0.8458 0.3611
2.5111 -0.6032 0.3521
2.5127 -0.3706 0.3463
2.5143 -0.1437 0.3434
2.5159 0.0812 0.3432
2.5175 0.3076 0.3458
2.5192 0.5393 0.3513
2.5209 0.7805 0.3598
2.5227 1.0357 0.3718
2.5246 1.3109 0.3879
2.5267 1.6133 0.4088
2.5291 1.9531 0.4357
2.5319 2.3442 0.4705
9.2869 10.2830 1.8893
9.0750 12.0570 2.0577
7.9715 12.8320 2.0598
6.8013 13.5048 2.0618
5.5741 14.0697 2.0636
4.2987 14.5180 2.0646
2.9816 14.8200 2.0613
1.6434 14.9894 2.0561
0.2986 15.0267 2.0494
-0.9335 13.4174 1.8340
-2.3679 14.7860 2.0418
-3.6750 14.5055 2.0404
-4.9495 14.1057 2.0384
-6.1802 13.5903 2.0357
-7.3565 12.9643 2.0325
-8.4682 12.2337 2.0288
-9.5060 11.4056 2.0246
-10.5114 10.5379 2.0295
-11.3640 9.5199 2.0214
-12.0903 8.4140 2.0085
-12.6787 7.2367 1.9906
-13.1505 6.0203 1.9721
-13.4919 4.7724 1.9514
-13.6944 3.5063 1.9275
-13.7778 2.2421 1.9034
-13.7544 0.9918 1.8804
-13.6144 -0.2362 1.8567
-9.3366 -0.9999 1.2804
-5.8556 -1.1627 0.8140
-5.8444 -1.7145 0.8305
-5.8493 -2.3003 0.8570
-5.8546 -2.9300 0.8927
-5.8604 -3.6201 0.9393
-5.8668 -4.3927 0.9994
-5.8742 -5.2784 1.0768
-8.1732 -8.7832 1.6360
-7.2783 -9.3760 1.6185
-6.3523 -9.8937 1.6032
-1.0930 -2.0921 0.3219
-0.8974 -2.1702 0.3202
-0.6973 -2.2324 0.3189
-0.4939 -2.2787 0.3179
-0.2880 -2.3090 0.3173
-0.0808 -2.3232 0.3170
0.1268 -2.3214 0.3170
0.3338 -2.3035 0.3174
0.5392 -2.2696 0.3181
0.7419 -2.2197 0.3191
0.9410 -2.1539 0.3205
5.6135 -10.2453 1.5929
6.5606 -9.7862 1.6065
7.4803 -9.2519 1.6223
8.1926 -8.4617 1.6060
8.4680 -7.3112 1.5255
2.5027 -1.7976 0.4202
2.5049 -1.4796 0.3967
2.5069 -1.1932 0.3786
2.5088 -0.9297 0.3648
2.5105 -0.6828 0.3548
2.5122 -0.4473 0.3479
2.5138 -0.2190 0.3441
2.5154 0.0062 0.3430
2.5170 0.2317 0.3447
2.5186 0.4612 0.3491
2.5203 0.6987 0.3566
2.5220 0.9487 0.3674
2.5239 1.2165 0.3820
2.5260 1.5089 0.4012
2.5283 1.8349 0.4260
2.5309 2.2070 0.4579
9.5808 9.9931 1.8877
9.4418 11.7960 2.0603
8.3473 12.5846 2.0591
7.1984 13.2922 2.0612
5.9891 13.8937 2.0630
4.7294 14.3838 2.0646
3.4239 14.7340 2.0626
2.0911 14.9475 2.0580
0.6677 13.4344 1.8341
-0.5381 13.5556 1.8498
-1.9270 14.8541 2.0424
-3.2422 14.6125 2.0410
-4.5288 14.2521 2.0391
-5.7754 13.7747 2.0367
-6.9709 13.1850 2.0337
-8.1052 12.4886 2.0301
-9.1686 11.6922 2.0260
-10.1910 10.8444 2.0292
-11.0974 9.8738 2.0254
-11.8613 8.7904 2.0131
-12.4954 7.6343 1.9967
-13.0063 6.4296 1.9783
-13.3974 5.1929 1.9592
-13.6402 3.9289 1.9355
-13.7630 2.6628 1.9115
-13.7709 1.4064 1.8875
-13.6851 0.1703 1.8662
-9.3354 -0.7192 1.2767
-6.8976 -1.1572 0.9537
-5.8429 -1.5266 0.8235
-5.8477 -2.1008 0.8473
-5.8528 -2.7142 0.8797
-5.8584 -3.3821 0.9224
-5.8646 -4.1242 0.9776
-5.8716 -4.9680 1.0488
-8.4638 -8.5688 1.6423
-7.5805 -9.1866 1.6240
-6.6643 -9.7294 1.6080
-5.7202 -10.1969 1.5942
-0.9632 -2.1459 0.3207
-0.7645 -2.2134 0.3193
-0.5620 -2.2650 0.3182
-0.3569 -2.3007 0.3175
-0.1500 -2.3203 0.3170
0.0576 -2.3238 0.3170
0.2649 -2.3113 0.3172
0.4709 -2.2827 0.3178
0.6747 -2.2381 0.3187
0.8751 -2.1776 0.3200
1.0712 -2.1013 0.3216
6.2476 -9.9477 1.6017
7.1769 -9.4385 1.6168
8.0757 -8.8541 1.6341
8.2241 -7.5398 1.5214
2.5019 -1.9125 0.4294
2.5042 -1.5817 0.4039
2.5063 -1.2858 0.3841
2.5082 -1.0154 0.3690
2.5100 -0.7636 0.3577
2.5117 -0.5249 0.3499
2.5133 -0.2946 0.3450
2.5149 -0.0688 0.3430
2.5165 0.1562 0.3438
2.5181 0.3840 0.3473
2.5197 0.6184 0.3538
2.5214 0.8637 0.3634
2.5233 1.1248 0.3767
2.5253 1.4081 0.3943
2.5275 1.7218 0.4170
2.5300 2.0768 0.4463
9.8498 9.6793 1.8830
8.9830 10.5618 1.8906
8.7154 12.3260 2.0584
7.5887 13.0677 2.0605
6.3985 13.7052 2.0624
5.1544 14.2330 2.0641
3.8634 14.6333 2.0637
2.5376 14.8911 2.0598
1.0761 13.5146 1.8486
-0.1483 15.0093 2.0467
-1.4842 14.9108 2.0432
-2.8061 14.7060 2.0414
-4.1037 14.3855 2.0398
-5.3648 13.9466 2.0375
-6.5785 13.3938 2.0347
-7.7343 12.7323 2.0313
-8.8224 11.9684 2.0274
-9.8467 11.1243 2.0257
-10.8095 10.2105 2.0275
-11.6184 9.1589 2.0173
-12.2991 8.0270 2.0026
-12.8489 6.8354 1.9845
-13.2815 5.6086 1.9659
-13.5727 4.3513 1.9435
-13.7352 3.0845 1.9195
-13.7797 1.8235 1.8953
-13.7258 0.5800 1.8733
-13.5326 -0.6378 1.8473
-9.3379 -1.2820 1.2852
-5.8413 -1.3417 0.8172
-5.8460 -1.9056 0.8384
-5.8510 -2.5044 0.8678
-5.8565 -3.1522 0.9069
-5.8624 -3.8670 0.9576
-5.8692 -4.6732 1.0230
-8.7501 -8.3462 1.6488
-7.8789 -8.9889 1.6299
-6.9731 -9.5567 1.6131
-6.0378 -10.0494 1.5986
-1.0284 -2.1199 0.3213
-0.8312 -2.1926 0.3197
-0.6299 -2.2496 0.3185
-0.4255 -2.2906 0.3177
-0.2191 -2.3155 0.3171
-0.0117 -2.3244 0.3170
0.1959 -2.3173 0.3171
0.4024 -2.2940 0.3176
0.6070 -2.2548 0.3184
0.8087 -2.1995 0.3195
1.0064 -2.1285 0.3210
5.9316 -10.1008 1.5972
6.8701 -9.6167 1.6115
7.7796 -9.0573 1.6281
8.2037 -7.9836 1.5609
2.5010 -2.0327 0.4395
2.5035 -1.6876 0.4117
2.5056 -1.3812 0.3901
2.5076 -1.1032 0.3735
2.5094 -0.8459 0.3611
2.5111 -0.6033 0.3521
2.5127 -0.3707 0.3463
2.5143 -0.1438 0.3434
2.5159 0.0811 0.3432
2.5175 0.3075 0.3458
2.5192 0.5392 0.3513
2.5209 0.7804 0.3598
2.5227 1.0356 0.3718
2.5246 1.3107 0.3879
2.5267 1.6132 0.4088
2.5291 1.9529 0.4357
2.5319 2.3440 0.4705
9.2874 10.2826 1.8893
9.0755 12.0566 2.0577
7.9720 12.8316 2.0598
6.8019 13.5046 2.0618
5.5747 14.0695 2.0636
4.2994 14.5179 2.0646
2.9822 14.8199 2.0613
1.6441 14.9893 2.0561
0.2992 15.0267 2.0494
-0.9330 13.4172 1.8339
-2.3673 14.7860 2.0418
-3.6744 14.5057 2.0404
-4.9490 14.1059 2.0384
-6.1797 13.5905 2.0357
-7.3559 12.9646 2.0325
-8.4677 12.2341 2.0288
-9.5055 11.4060 2.0246
-10.5110 10.5384 2.0295
-11.3637 9.5204 2.0214
-12.0900 8.4145 2.0085
-12.6785 7.2373 1.9906
-13.1503 6.0209 1.9721
-13.4917 4.7730 1.9514
-13.6943 3.5069 1.9276
-13.7777 2.2427 1.9034
-13.7544 0.9924 1.8804
-13.6145 -0.2357 1.8567
-9.3366 -0.9995 1.2804
-5.8569 -1.1627 0.8142
-5.8444 -1.7143 0.8305
-5.8493 -2.3001 0.8570
-5.8546 -2.9297 0.8927
-5.8604 -3.6198 0.9392
-5.8668 -4.3923 0.9993
-5.8742 -5.2779 1.0768
-8.1736 -8.7829 1.6360
-7.2787 -9.3757 1.6185
-6.3527 -9.8934 1.6032
-1.0931 -2.0921 0.3219
-0.8975 -2.1701 0.3202
-0.6974 -2.2324 0.3189
-0.4940 -2.2787 0.3179
-0.2881 -2.3090 0.3173
-0.0809 -2.3232 0.3170
0.1267 -2.3214 0.3170
0.3337 -2.3035 0.3174
0.5391 -2.2696 0.3181
0.7418 -2.2197 0.3191
0.9409 -2.1539 0.3205
5.6131 -10.2455 1.5929
6.5601 -9.7864 1.6065
7.4798 -9.2522 1.6223
8.1926 -8.4624 1.6060
8.4676 -7.3116 1.5255
2.5027 -1.7978 0.4202
2.5049 -1.4798 0.3967
2.5069 -1.1933 0.3786
2.5088 -0.9298 0.3648
2.5105 -0.6829 0.3548
2.5122 -0.4474 0.3479
2.5138 -0.2191 0.3441
2.5154 0.0061 0.3430
2.5170 0.2316 0.3447
2.5186 0.4611 0.3491
2.5203 0.6986 0.3566
2.5220 0.9486 0.3674
2.5239 1.2163 0.3820
2.5260 1.5087 0.4012
2.5283 1.8347 0.4260
2.5309 2.2068 0.4579
9.5812 9.9927 1.8877
9.4423 11.7957 2.0603
8.3478 12.5842 2.0591
7.1989 13.2919 2.0612
5.9897 13.8934 2.0630
4.7300 14.3836 2.0646
3.4246 14.7339 2.0626
2.0917 14.9474 2.0580
0.6683 13.4341 1.8341
-0.5375 13.5565 1.8500
-1.9264 14.8542 2.0424
-3.2416 14.6126 2.0410
-4.5282 14.2523 2.0391
-5.7748 13.7749 2.0367
-6.9703 13.1853 2.0337
-8.1047 12.4889 2.0301
-9.1681 11.6926 2.0260
-10.1906 10.8448 2.0292
-11.0970 9.8742 2.0254
-11.8610 8.7909 2.0131
-12.4951 7.6348 1.9967
-13.0060 6.4301 1.9784
-13.3972 5.1935 1.9592
-13.6401 3.9295 1.9356
-13.7630 2.6633 1.9115
-13.7709 1.4070 1.8875
-13.6852 0.1709 1.8662
-9.3354 -0.7188 1.2767
-6.8993 -1.1572 0.9539
-5.8429 -1.5263 0.8234
-5.8477 -2.1005 0.8472
-5.8528 -2.7139 0.8797
-5.8584 -3.3817 0.9224
-5.8646 -4.1238 0.9776
-5.8716 -4.9676 1.0487
-8.4642 -8.5685 1.6423
-7.5809 -9.1864 1.6241
-6.6647 -9.7291 1.6080
-5.7207 -10.1967 1.5942
-0.9633 -2.1458 0.3207
-0.7646 -2.2134 0.3193
-0.5621 -2.2650 0.3182
-0.3570 -2.3007 0.3175
-0.1501 -2.3203 0.3170
0.0575 -2.3238 0.3170
0.2648 -2.3113 0.3172
0.4708 -2.2827 0.3178
0.6746 -2.2381 0.3187
0.8750 -2.1776 0.3200
1.0711 -2.1013 0.3216
6.2471 -9.9479 1.6017
7.1765 -9.4387 1.6168
8.0753 -8.8544 1.6340
8.2241 -7.5403 1.5214
2.5019 -1.9127 0.4294
2.5042 -1.5818 0.4039
2.5063 -1.2859 0.3841
2.5082 -1.0156 0.3690
2.5100 -0.7637 0.3577
2.5116 -0.5250 0.3499
2.5133 -0.2947 0.3450
2.5149 -0.0689 0.3430
2.5165 0.1561 0.3438
2.5181 0.3839 0.3473
2.5197 0.6183 0.3538
2.5214 0.8635 0.3634
2.5233 1.1247 0.3767
2.5253 1.4080 0.3942
2.5275 1.7216 0.4170
2.5300 2.0766 0.4463
9.8502 9.6789 1.8830
8.9834 10.5615 1.8906
8.7160 12.3257 2.0584
7.5892 13.0674 2.0605
6.3990 13.7050 2.0624
5.1551 14.2328 2.0641
3.8640 14.6331 2.0637
2.5382 14.8910 2.0598
1.0767 13.5154 1.8487
-0.1477 15.0093 2.0467
-1.4836 14.9108 2.0432
-2.8056 14.7061 2.0414
-4.1031 14.3856 2.0398
-5.3642 13.9469 2.0375
-6.5780 13.3941 2.0347
-7.7338 12.7326 2.0313
-8.8219 11.9688 2.0274
-9.8462 11.1246 2.0257
-10.8091 10.2109 2.0275
-11.6181 9.1594 2.0173
-12.2988 8.0276 2.0026
-12.8487 6.8360 1.9845
-13.2814 5.6092 1.9659
-13.5726 4.3518 1.9435
-13.7352 3.0851 1.9195
-13.7797 1.8241 1.8953
-13.7258 0.5806 1.8733
-13.5327 -0.6373 1.8473
-9.3379 -1.2816 1.2852
-5.8413 -1.3414 0.8172
-5.8460 -1.9053 0.8384
-5.8510 -2.5041 0.8678
-5.8565 -3.1519 0.9069
-5.8624 -3.8666 0.9576
-5.8691 -4.6728 1.0230
-8.7505 -8.3459 1.6489
-7.8794 -8.9886 1.6299
-6.9736 -9.5565 1.6131
-6.0383 -10.0492 1.5986
-1.0285 -2.1198 0.3213
-0.8313 -2.1926 0.3197
-0.6300 -2.2496 0.3185
-0.4256 -2.2905 0.3177
-0.2192 -2.3155 0.3171
-0.0118 -2.3244 0.3170
0.1958 -2.3173 0.3171
0.4023 -2.2940 0.3176
0.6069 -2.2548 0.3184
0.8086 -2.1996 0.3195
1.0063 -2.1285 0.3210
5.9312 -10.1010 1.5972
6.8697 -9.6169 1.6115
7.7792 -9.0576 1.6280
8.2037 -7.9843 1.5610
2.5010 -2.0329 0.4395
2.5035 -1.6878 0.4117
2.5056 -1.3813 0.3901
2.5076 -1.1033 0.3736
2.5094 -0.8460 0.3611
2.5111 -0.6034 0.3521
2.5127 -0.3708 0.3463
2.5143 -0.1439 0.3434
2.5159 0.0809 0.3432
2.5175 0.3074 0.3458
2.5192 0.5391 0.3513
2.5209 0.7803 0.3598
2.5227 1.0355 0.3718
2.5246 1.3106 0.3879
2.5267 1.6130 0.4088
2.5291 1.9528 0.4357
2.5319 2.3438 0.4705
9.2878 10.2822 1.8893
9.0759 12.0563 2.0577
7.9725 12.8313 2.0598
6.8024 13.5043 2.0618
5.5753 14.0692 2.0636
4.2999 14.5177 2.0646
2.9829 14.8198 2.0613
1.6447 14.9893 2.0561
0.2998 15.0267 2.0494
-0.9324 13.4170 1.8339
-2.3667 14.7862 2.0418
-3.6738 14.5059 2.0404
-4.9484 14.1061 2.0384
-6.1791 13.5908 2.0357
-7.3554 12.9649 2.0325
-8.4671 12.2345 2.0288
-9.5050 11.4064 2.0246
-10.5105 10.5388 2.0295
-11.3633 9.5209 2.0214
-12.0896 8.4151 2.0085
-12.6783 7.2378 1.9906
-13.1501 6.0214 1.9721
-13.4916 4.7736 1.9514
-13.6942 3.5075 1.9276
-13.7777 2.2432 1.9034
-13.7544 0.9930 1.8804
-13.6146 -0.2351 1.8567
-9.3366 -0.9991 1.2804
-5.8581 -1.1627 0.8144
-5.8444 -1.7140 0.8305
-5.8493 -2.2998 0.8570
-5.8546 -2.9294 0.8927
-5.8604 -3.6195 0.9392
-5.8668 -4.3919 0.9993
-5.8742 -5.2775 1.0768
-8.1740 -8.7826 1.6360
-7.2792 -9.3755 1.6185
-6.3532 -9.8932 1.6032
-1.0932 -2.0920 0.3219
-0.8976 -2.1701 0.3202
-0.6975 -2.2323 0.3189
-0.4941 -2.2787 0.3179
-0.2882 -2.3090 0.3173
-0.0810 -2.3232 0.3170
0.1266 -2.3214 0.3170
0.3336 -2.3036 0.3174
0.5390 -2.2696 0.3181
0.7417 -2.2197 0.3191
0.9408 -2.1540 0.3205
5.6126 -10.2457 1.5929
6.5597 -9.7867 1.6065
7.4794 -9.2525 1.6223
8.1926 -8.4631 1.6061
8.4673 -7.3119 1.5255
2.5027 -1.7979 0.4202
2.5049 -1.4799 0.3967
2.5069 -1.1934 0.3786
2.5088 -0.9299 0.3648
2.5105 -0.6830 0.3548
2.5122 -0.4475 0.3479
2.5138 -0.2192 0.3441
2.5154 0.0060 0.3430
2.5170 0.2315 0.3447
2.5186 0.4610 0.3491
2.5203 0.6985 0.3566
2.5220 0.9485 0.3674
2.5239 1.2162 0.3820
2.5260 1.5086 0.4012
2.5283 1.8346 0.4259
2.5309 2.2066 0.4579
9.5815 9.9923 1.8877
9.4428 11.7953 2.0603
8.3484 12.5839 2.0591
7.1994 13.2916 2.0612
5.9902 13.8932 2.0630
4.7306 14.3834 2.0646
3.4252 14.7338 2.0626
2.0923 14.9473 2.0580
0.6688 13.4339 1.8341
-0.5370 13.5574 1.8501
-1.9257 14.8543 2.0424
-3.2410 14.6128 2.0410
-4.5277 14.2525 2.0391
-5.7742 13.7752 2.0367
-6.9698 13.1856 2.0337
-8.1042 12.4893 2.0301
-9.1677 11.6930 2.0260
-10.1901 10.8452 2.0292
-11.0966 9.8747 2.0254
-11.8606 8.7914 2.0131
-12.4948 7.6354 1.9967
-13.0058 6.4307 1.9784
-13.3971 5.1941 1.9593
-13.6400 3.9300 1.9356
-13.7629 2.6639 1.9115
-13.7709 1.4076 1.8875
-13.6853 0.1714 1.8662
-9.3354 -0.7185 1.2767
-6.9011 -1.1572 0.9541
-5.8429 -1.5261 0.8234
-5.8477 -2.1003 0.8472
-5.8528 -2.7136 0.8797
-5.8584 -3.3814 0.9223
-5.8646 -4.1235 0.9775
-5.8716 -4.9672 1.0487
-8.4646 -8.5682 1.6423
-7.5813 -9.1861 1.6241
-6.6652 -9.7289 1.6080
-5.7211 -10.1965 1.5942
-0.9633 -2.1458 0.3207
-0.7647 -2.2133 0.3193
-0.5622 -2.2650 0.3182
-0.3571 -2.3006 0.3175
-0.1502 -2.3203 0.3170
0.0574 -2.3238 0.3170
0.2647 -2.3113 0.3172
0.4707 -2.2827 0.3178
0.6745 -2.2382 0.3187
0.8749 -2.1777 0.3200
1.0710 -2.1013 0.3216
6.2467 -9.9481 1.6017
7.1760 -9.4390 1.6168
8.0748 -8.8547 1.6340
8.2240 -7.5408 1.5214
2.5019 -1.9129 0.4294
2.5042 -1.5820 0.4039
2.5063 -1.2860 0.3841
2.5082 -1.0157 0.3690
2.5100 -0.7639 0.3577
2.5116 -0.5251 0.3499
2.5133 -0.2948 0.3450
2.5149 -0.0690 0.3430
2.5165 0.1560 0.3438
2.5181 0.3838 0.3473
2.5197 0.6182 0.3538
2.5214 0.8634 0.3634
2.5233 1.1246 0.3767
2.5253 1.4078 0.3942
2.5275 1.7215 0.4170
2.5300 2.0765 0.4463
9.8505 9.6784 1.8830
8.9839 10.5611 1.8906
8.7164 12.3253 2.0584
7.5898 13.0671 2.0605
6.3996 13.7047 2.0624
5.1557 14.2326 2.0641
3.8646 14.6330 2.0637
2.5388 14.8909 2.0598
1.0773 13.5162 1.8489
-0.1470 15.0094 2.0467
-1.4830 14.9109 2.0432
-2.8049 14.7063 2.0414
-4.1024 14.3858 2.0398
-5.3636 13.9471 2.0375
-6.5774 13.3943 2.0347
-7.7333 12.7329 2.0313
-8.8214 11.9692 2.0274
-9.8458 11.1250 2.0257
-10.8087 10.2114 2.0275
-11.6177 9.1600 2.0173
-12.2985 8.0281 2.0026
-12.8485 6.8365 1.9845
-13.2812 5.6098 1.9659
-13.5725 4.3524 1.9435
-13.7351 3.0857 1.9195
-13.7797 1.8246 1.8953
-13.7258 0.5812 1.8733
-13.5328 -0.6367 1.8473
-9.3379 -1.2812 1.2852
-5.8413 -1.3412 0.8172
-5.8460 -1.9051 0.8384
-5.8510 -2.5039 0.8678
-5.8564 -3.1515 0.9068
-5.8624 -3.8663 0.9576
-5.8691 -4.6724 1.0229
-8.7509 -8.3455 1.6489
-7.8798 -8.9884 1.6299
-6.9740 -9.5563 1.6131
-6.0387 -10.0489 1.5986
-1.0286 -2.1198 0.3213
-0.8314 -2.1926 0.3197
-0.6301 -2.2495 0.3185
-0.4257 -2.2905 0.3177
-0.2193 -2.3155 0.3171
-0.0118 -2.3244 0.3170
0.1957 -2.3173 0.3171
0.4022 -2.2940 0.3176
0.6068 -2.2548 0.3184
0.8085 -2.1996 0.3195
1.0062 -2.1285 0.3210
5.9308 -10.1012 1.5972
2.5082 -1.0153 0.3860
2.5100 -0.7635 0.3742
2.5117 -0.5248 0.3660
2.5133 -0.2945 0.3609
2.5149 -0.0687 0.3588
2.5165 0.1563 0.3596
2.5181 0.3841 0.3633
2.5197 0.6185 0.3701
2.5215 0.8638 0.3802
2.5233 1.1249 0.3941
2.5253 1.4083 0.4124
2.5275 1.7219 0.4362
2.5300 2.0770 0.4669
9.3572 9.1960 1.8713
8.5422 10.0445 1.8807
8.3083 11.7513 2.0528
7.2368 12.4629 2.0556
6.0996 13.0665 2.0568
4.9084 13.5555 2.0563
3.6756 13.9245 2.0542
2.4142 14.1709 2.0504
1.1373 14.2919 2.0450
-0.1420 14.3069 2.0408
-1.4166 14.2247 2.0390
-2.6787 14.0348 2.0380
-3.9171 13.7294 2.0364
-5.1210 13.3111 2.0343
-6.2798 12.7843 2.0316
-7.3836 12.1537 2.0284
-8.4229 11.4255 2.0247
-9.3892 10.6065 2.0205
-10.3097 9.7375 2.0228
-11.0806 8.7342 2.0125
-11.7244 7.6513 1.9969
-12.2537 6.5180 1.9797
-12.6597 5.3454 1.9601
-12.9370 4.1469 1.9378
-13.0994 2.9411 1.9150
-13.1589 1.7408 1.8933
-13.1183 0.5538 1.8728
-12.9413 -0.6105 1.8479
-9.3379 -1.2824 1.3444
-5.8413 -1.3419 0.8549
-5.8460 -1.9059 0.8770
-5.8510 -2.5047 0.9078
-5.8564 -3.1525 0.9487
-5.8624 -3.8673 1.0017
-5.8691 -4.6736 1.0701
-8.4115 -8.0239 1.6581
-7.5784 -8.6468 1.6400
-6.7097 -9.1965 1.6238
-5.8117 -9.6738 1.6097
-0.9883 -2.0375 0.3230
-0.7989 -2.1078 0.3215
-0.6055 -2.1628 0.3204
-0.4091 -2.2025 0.3195
-0.2106 -2.2266 0.3190
-0.0111 -2.2352 0.3188
0.1884 -2.2283 0.3190
0.3870 -2.2058 0.3194
0.5837 -2.1678 0.3202
0.7775 -2.1144 0.3213
0.9673 -2.0457 0.3228
5.7105 -9.7232 1.6084
6.6117 -9.2540 1.6222
7.4840 -8.7124 1.6382
8.1910 -7.9706 1.6302
2.5010 -2.0325 0.4597
2.5035 -1.6874 0.4306
2.5056 -1.3811 0.4081
2.5076 -1.1031 0.3907
2.5094 -0.8458 0.3777
2.5111 -0.6032 0.3684
2.5127 -0.3706 0.3623
2.5143 -0.1437 0.3592
2.5159 0.0812 0.3590
2.5175 0.3076 0.3618
2.5192 0.5393 0.3675
2.5209 0.7805 0.3764
2.5227 1.0357 0.3890
2.5246 1.3109 0.4057
2.5267 1.6133 0.4276
2.5292 1.9531 0.4558
2.5319 2.3442 0.4922
8.8273 9.7741 1.8785
8.6492 11.4913 2.0515
7.6019 12.2372 2.0548
6.4854 12.8777 2.0566
5.3109 13.4055 2.0567
4.0906 13.8150 2.0551
2.8373 14.1025 2.0518
1.5641 14.2657 2.0470
0.2843 14.3078 2.0412
-0.9391 13.4976 1.9299
-2.2599 14.1111 2.0384
-3.5074 13.8439 2.0370
-4.7240 13.4629 2.0351
-5.8990 12.9718 2.0326
-7.0222 12.3752 2.0295
-8.0840 11.6788 2.0260
-9.0756 10.8893 2.0219
-10.0235 10.0488 2.0245
-10.8366 9.0781 2.0164
-11.5235 8.0196 2.0025
-12.0894 6.9004 1.9855
-12.5414 5.7415 1.9674
-12.8574 4.5479 1.9453
-13.0579 3.3433 1.9226
-13.1488 2.1397 1.9002
-13.1435 0.9478 1.8796
-13.0168 -0.2259 1.8569
-9.3366 -0.9999 1.3393
-5.8599 -1.1636 0.8521
-5.8444 -1.7145 0.8688
-5.8493 -2.3003 0.8965
-5.8546 -2.9300 0.9338
-5.8604 -3.6201 0.9825
-5.8668 -4.3927 1.0454
-5.8742 -5.2784 1.1264
-7.8607 -8.4474 1.6459
-7.0029 -9.0212 1.6289
-6.1141 -9.5227 1.6141
-1.0504 -2.0106 0.3236
-0.8626 -2.0860 0.3220
-0.6704 -2.1462 0.3207
-0.4749 -2.1910 0.3198
-0.2770 -2.2203 0.3191
-0.0777 -2.2341 0.3188
0.1219 -2.2323 0.3189
0.3210 -2.2150 0.3192
0.5184 -2.1822 0.3199
0.7133 -2.1339 0.3209
0.9045 -2.0703 0.3223
5.4043 -9.8635 1.6042
6.3141 -9.4186 1.6174
7.1966 -8.9011 1.6327
8.0470 -8.3113 1.6501
8.2112 -7.0895 1.5473
2.5027 -1.7976 0.4395
2.5049 -1.4797 0.4150
2.5069 -1.1932 0.3960
2.5088 -0.9297 0.3816
2.5105 -0.6828 0.3711
2.5122 -0.4473 0.3640
2.5138 -0.2190 0.3599
2.5154 0.0062 0.3588
2.5170 0.2317 0.3605
2.5186 0.4612 0.3652
2.5203 0.6988 0.3730
2.5220 0.9487 0.3843
2.5239 1.2165 0.3996
2.5260 1.5089 0.4197
2.5283 1.8349 0.4456
2.5309 2.2070 0.4790
9.0960 9.4875 1.8747
8.9856 11.2260 2.0510
7.9594 11.9998 2.0539
6.8648 12.6762 2.0562
5.7084 13.2424 2.0569
4.5019 13.6919 2.0558
3.2581 14.0203 2.0531
1.9901 14.2252 2.0488
0.6717 13.5146 1.9300
-0.5673 14.2927 2.0403
-1.8388 14.1744 2.0387
-3.0943 13.9458 2.0375
-4.3224 13.6024 2.0358
-5.5124 13.1475 2.0335
-6.6540 12.5855 2.0306
-7.7373 11.9217 2.0272
-8.7533 11.1624 2.0233
-9.7138 10.3366 2.0232
-10.5815 9.4148 2.0202
-11.3106 8.3823 2.0080
-11.9129 7.2784 1.9912
-12.4053 6.1325 1.9738
-12.7649 4.9478 1.9527
-13.0037 3.7455 1.9302
-13.1284 2.5400 1.9073
-13.1571 1.3437 1.8864
-13.0814 0.1628 1.8660
-9.3354 -0.7192 1.3355
-6.9035 -1.1582 0.9984
-5.8429 -1.5266 0.8614
-5.8477 -2.1008 0.8863
-5.8528 -2.7142 0.9202
-5.8584 -3.3821 0.9649
-5.8646 -4.1242 1.0226
-5.8716 -4.9680 1.0971
-8.1390 -8.2400 1.6520
-7.2927 -8.8379 1.6343
-6.4137 -9.3635 1.6188
-5.5069 -9.8167 1.6055
-0.9258 -2.0626 0.3225
-0.7349 -2.1278 0.3211
-0.5404 -2.1778 0.3200
-0.3432 -2.2122 0.3193
-0.1442 -2.2312 0.3189
0.0554 -2.2346 0.3188
0.2547 -2.2225 0.3191
0.4528 -2.1949 0.3197
0.6486 -2.1517 0.3206
0.8412 -2.0932 0.3218
1.0295 -2.0195 0.3233
6.0135 -9.5750 1.6127
6.9056 -9.0817 1.6273
7.7673 -8.5160 1.6440
8.2014 -7.5190 1.5870
2.5019 -1.9125 0.4492
2.5042 -1.5817 0.4225
2.5063 -1.2858 0.4018
2.5082 -1.0154 0.3860
2.5100 -0.7636 0.3742
2.5117 -0.5249 0.3660
2.5133 -0.2946 0.3609
2.5149 -0.0688 0.3588
2.5165 0.1562 0.3596
2.5181 0.3840 0.3633
2.5197 0.6184 0.3701
2.5215 0.8637 0.3802
2.5233 1.1248 0.3941
2.5253 1.4081 0.4124
2.5275 1.7218 0.4362
2.5300 2.0768 0.4669
9.3575 9.1956 1.8713
8.5427 10.0441 1.8807
8.3088 11.7510 2.0528
7.2373 12.4626 2.0556
6.1002 13.0663 2.0568
4.9090 13.5553 2.0563
3.6762 13.9244 2.0542
2.4148 14.1708 2.0504
1.1380 14.2919 2.0450
-0.1414 14.3069 2.0408
-1.4159 14.2248 2.0390
-2.6781 14.0350 2.0380
-3.9166 13.7295 2.0364
-5.1204 13.3114 2.0343
-6.2793 12.7845 2.0316
-7.3831 12.1540 2.0284
-8.4225 11.4259 2.0247
-9.3888 10.6069 2.0205
-10.3093 9.7380 2.0228
-11.0802 8.7347 2.0125
-11.7241 7.6518 1.9969
-12.2534 6.5186 1.9797
-12.6596 5.3460 1.9601
-12.9369 4.1474 1.9378
-13.0993 2.9417 1.9150
-13.1589 1.7414 1.8933
-13.1184 0.5544 1.8728
-12.9414 -0.6100 1.8479
-9.3379 -1.2820 1.3444
-5.8413 -1.3417 0.8549
-5.8460 -1.9056 0.8770
-5.8510 -2.5044 0.9078
-5.8564 -3.1522 0.9486
-5.8624 -3.8670 1.0017
-5.8691 -4.6732 1.0701
-8.4119 -8.0236 1.6581
-7.5788 -8.6465 1.6400
-6.7101 -9.1963 1.6238
-5.8121 -9.6736 1.6097
-0.9884 -2.0374 0.3230
-0.7990 -2.1078 0.3215
-0.6056 -2.1628 0.3204
-0.4092 -2.2025 0.3195
-0.2107 -2.2266 0.3190
-0.0112 -2.2352 0.3188
0.1883 -2.2283 0.3190
0.3869 -2.2058 0.3194
0.5836 -2.1678 0.3202
0.7774 -2.1144 0.3213
0.9672 -2.0458 0.3228
5.7100 -9.7234 1.6084
6.6113 -9.2543 1.6222
7.4836 -8.7127 1.6382
8.1910 -7.9712 1.6302
2.5010 -2.0327 0.4597
2.5035 -1.6876 0.4306
2.5056 -1.3812 0.4081
2.5076 -1.1032 0.3908
2.5094 -0.8459 0.3777
2.5111 -0.6033 0.3684
2.5127 -0.3707 0.3623
2.5143 -0.1438 0.3592
2.5159 0.0811 0.3590
2.5175 0.3075 0.3618
2.5192 0.5392 0.3675
2.5209 0.7804 0.3764
2.5227 1.0356 0.3890
2.5246 1.3107 0.4057
2.5267 1.6132 0.4276
2.5292 1.9529 0.4558
2.5319 2.3440 0.4921
8.8277 9.7737 1.8785
8.6497 11.4910 2.0515
7.6025 12.2369 2.0548
6.4860 12.8774 2.0566
5.3115 13.4053 2.0567
4.0911 13.8148 2.0551
2.8378 14.1024 2.0518
1.5647 14.2656 2.0470
0.2849 14.3078 2.0412
-0.9385 13.4973 1.9298
-2.2593 14.1112 2.0384
-3.5068 13.8441 2.0370
-4.7235 13.4631 2.0351
-5.8984 12.9720 2.0326
-7.0217 12.3754 2.0295
-8.0835 11.6791 2.0260
-9.0752 10.8897 2.0219
-10.0230 10.0492 2.0245
-10.8363 9.0785 2.0164
-11.5232 8.0201 2.0025
-12.0892 6.9009 1.9855
-12.5413 5.7420 1.9674
-12.8573 4.5485 1.9453
-13.0578 3.3439 1.9226
-13.1488 2.1403 1.9002
-13.1435 0.9483 1.8796
-13.0169 -0.2253 1.8569
-9.3366 -0.9995 1.3393
-5.8611 -1.1636 0.8523
-5.8444 -1.7143 0.8687
-5.8493 -2.3000 0.8965
-5.8546 -2.9297 0.9338
-5.8603 -3.6198 0.9825
-5.8668 -4.3923 1.0453
-5.8742 -5.2779 1.1264
-7.8611 -8.4471 1.6459
-7.0033 -9.0210 1.6289
-6.1145 -9.5225 1.6141
-1.0505 -2.0106 0.3236
-0.8627 -2.0860 0.3220
-0.6705 -2.1462 0.3207
-0.4750 -2.1910 0.3198
-0.2771 -2.2203 0.3191
-0.0778 -2.2341 0.3188
0.1218 -2.2323 0.3189
0.3209 -2.2150 0.3192
0.5183 -2.1822 0.3199
0.7132 -2.1340 0.3209
0.9044 -2.0704 0.3223
5.4039 -9.8637 1.6042
6.3137 -9.4188 1.6174
7.1962 -8.9013 1.6327
8.0466 -8.3116 1.6501
8.2111 -7.0901 1.5474
2.5027 -1.7978 0.4395
2.5049 -1.4798 0.4150
2.5069 -1.1933 0.3960
2.5088 -0.9298 0.3816
2.5105 -0.6829 0.3711
2.5122 -0.4474 0.3640
2.5138 -0.2191 0.3599
2.5154 0.0061 0.3588
2.5170 0.2316 0.3605
2.5186 0.4611 0.3652
2.5203 0.6986 0.3730
2.5220 0.9486 0.3843
2.5239 1.2164 0.3996
2.5260 1.5087 0.4197
2.5283 1.8347 0.4456
2.5309 2.2068 0.4790
9.0964 9.4871 1.8747
8.9860 11.2256 2.0510
7.9599 11.9995 2.0539
6.8654 12.6759 2.0562
5.7089 13.2422 2.0569
4.5024 13.6917 2.0558
3.2587 14.0202 2.0531
1.9906 14.2252 2.0488
0.6722 13.5142 1.9300
-0.5667 14.2928 2.0403
-1.8382 14.1745 2.0387
-3.0937 13.9460 2.0375
-4.3218 13.6026 2.0358
-5.5119 13.1478 2.0335
-6.6534 12.5858 2.0306
-7.7368 11.9220 2.0272
-8.7528 11.1628 2.0233
-9.7133 10.3369 2.0232
-10.5811 9.4152 2.0202
-11.3103 8.3828 2.0080
-11.9127 7.2790 1.9913
-12.4051 6.1330 1.9738
-12.7648 4.9484 1.9527
-13.0036 3.7461 1.9302
-13.1283 2.5405 1.9073
-13.1571 1.3443 1.8864
-13.0815 0.1633 1.8660
-9.3354 -0.7188 1.3355
-6.9052 -1.1582 0.9987
-5.8429 -1.5263 0.8614
-5.8477 -2.1005 0.8863
-5.8528 -2.7139 0.9202
-5.8584 -3.3817 0.9648
-5.8646 -4.1238 1.0226
-5.8716 -4.9676 1.0970
-8.1394 -8.2397 1.6520
-7.2931 -8.8376 1.6344
-6.4141 -9.3633 1.6188
-5.5073 -9.8165 1.6055
-0.9259 -2.0625 0.3225
-0.7350 -2.1278 0.3211
-0.5405 -2.1777 0.3200
-0.3432 -2.2122 0.3193
-0.1443 -2.2312 0.3189
0.0553 -2.2346 0.3188
0.2546 -2.2225 0.3191
0.4527 -2.1949 0.3197
0.6485 -2.1518 0.3206
0.8411 -2.0933 0.3218
1.0294 -2.0195 0.3233
6.0131 -9.5752 1.6127
6.9052 -9.0819 1.6273
7.7669 -8.5163 1.6440
8.2014 -7.5196 1.5871
2.5019 -1.9127 0.4492
2.5042 -1.5818 0.4225
2.5063 -1.2859 0.4018
2.5082 -1.0156 0.3860
2.5100 -0.7637 0.3742
2.5117 -0.5250 0.3660
2.5133 -0.2947 0.3609
2.5149 -0.0689 0.3588
2.5165 0.1561 0.3596
2.5181 0.3839 0.3633
2.5197 0.6183 0.3701
2.5215 0.8635 0.3802
2.5233 1.1247 0.3940
2.5253 1.4080 0.4124
2.5275 1.7216 0.4362
2.5300 2.0766 0.4669
9.3579 9.1952 1.8713
8.5431 10.0437 1.8807
8.3093 11.7506 2.0528
7.2378 12.4623 2.0556
6.1007 13.0660 2.0568
4.9096 13.5550 2.0563
3.6768 13.9242 2.0542
2.4154 14.1707 2.0504
1.1385 14.2919 2.0450
-0.1407 14.3069 2.0408
-1.4153 14.2248 2.0390
-2.6775 14.0351 2.0380
-3.9160 13.7297 2.0364
-5.1199 13.3116 2.0343
-6.2788 12.7848 2.0316
-7.3826 12.1543 2.0284
-8.4220 11.4262 2.0247
-9.3884 10.6073 2.0205
-10.3089 9.7384 2.0228
-11.0799 8.7352 2.0125
-11.7239 7.6523 1.9969
-12.2532 6.5191 1.9797
-12.6594 5.3465 1.9601
-12.9368 4.1480 1.9378
-13.0993 2.9423 1.9150
-13.1589 1.7419 1.8933
-13.1184 0.5549 1.8728
-12.9415 -0.6095 1.8480
-9.3379 -1.2816 1.3444
-5.8413 -1.3414 0.8549
-5.8460 -1.9053 0.8770
-5.8510 -2.5041 0.9078
-5.8564 -3.1519 0.9486
-5.8624 -3.8666 1.0017
-5.8691 -4.6728 1.0701
-8.4123 -8.0232 1.6581
-7.5792 -8.6462 1.6400
-6.7105 -9.1961 1.6238
-5.8125 -9.6734 1.6097
-0.9885 -2.0374 0.3230
-0.7991 -2.1077 0.3215
-0.6057 -2.1628 0.3204
-0.4093 -2.2024 0.3195
-0.2108 -2.2266 0.3190
-0.0113 -2.2352 0.3188
0.1882 -2.2283 0.3190
0.3869 -2.2058 0.3194
0.5835 -2.1679 0.3202
0.7773 -2.1145 0.3213
0.9672 -2.0458 0.3228
5.7096 -9.7236 1.6084
6.6108 -9.2545 1.6222
7.4832 -8.7129 1.6382
8.1909 -7.9718 1.6303
2.5010 -2.0329 0.4597
2.5035 -1.6878 0.4307
2.5056 -1.3813 0.4081
2.5076 -1.1033 0.3908
2.5094 -0.8460 0.3777
2.5111 -0.6035 0.3684
2.5127 -0.3708 0.3623
2.5143 -0.1439 0.3592
2.5159 0.0809 0.3590
2.5175 0.3074 0.3618
2.5192 0.5391 0.3675
2.5209 0.7803 0.3764
2.5227 1.0355 0.3890
2.5246 1.3106 0.4057
2.5267 1.6130 0.4276
2.5292 1.9528 0.4558
2.5319 2.3438 0.4921
8.8281 9.7733 1.8785
8.6501 11.4906 2.0515
7.6029 12.2366 2.0548
6.4865 12.8771 2.0566
5.3121 13.4051 2.0567
4.0917 13.8147 2.0551
2.8384 14.1023 2.0518
1.5653 14.2656 2.0470
0.2855 14.3078 2.0412
-0.9380 13.4969 1.9298
-2.2587 14.1113 2.0384
-3.5063 13.8442 2.0370
-4.7229 13.4633 2.0351
-5.8979 12.9723 2.0326
-7.0212 12.3758 2.0295
-8.0831 11.6795 2.0260
-9.0747 10.8900 2.0219
-10.0226 10.0496 2.0245
-10.8359 9.0790 2.0164
-11.5229 8.0206 2.0025
-12.0890 6.9014 1.9855
-12.5411 5.7426 1.9674
-12.8571 4.5491 1.9453
-13.0577 3.3445 1.9226
-13.1487 2.1408 1.9002
-13.1436 0.9489 1.8796
-13.0170 -0.2248 1.8570
-9.3366 -0.9991 1.3393
-5.8623 -1.1636 0.8525
-5.8444 -1.7140 0.8687
-5.8493 -2.2998 0.8965
-5.8546 -2.9294 0.9338
-5.8603 -3.6195 0.9825
-5.8668 -4.3919 1.0453
-5.8742 -5.2775 1.1263
-7.8615 -8.4468 1.6459
-7.0037 -9.0207 1.6290
-6.1150 -9.5223 1.6142
-1.0506 -2.0105 0.3236
-0.8628 -2.0860 0.3220
-0.6706 -2.1461 0.3207
-0.4751 -2.1909 0.3198
-0.2771 -2.2203 0.3191
-0.0779 -2.2341 0.3188
0.1217 -2.2323 0.3189
0.3208 -2.2150 0.3192
0.5182 -2.1822 0.3199
0.7131 -2.1340 0.3209
0.9043 -2.0704 0.3223
5.4035 -9.8639 1.6042
6.3133 -9.4190 1.6174
7.1958 -8.9016 1.6326
8.0462 -8.3119 1.6501
8.2111 -7.0907 1.5474
2.5027 -1.7979 0.4395
2.5049 -1.4799 0.4150
2.5069 -1.1934 0.3960
2.5088 -0.9299 0.3816
2.5105 -0.6830 0.3711
2.5122 -0.4475 0.3640
2.5138 -0.2192 0.3599
2.5154 0.0060 0.3588
2.5170 0.2315 0.3605
2.5186 0.4610 0.3652
2.5203 0.6985 0.3730
2.5220 0.9485 0.3843
2.5239 1.2162 0.3996
2.5260 1.5086 0.4197
2.5283 1.8346 0.4456
2.5309 2.2066 0.4789
9.0967 9.4867 1.8747
8.9865 11.2253 2.0510
7.9604 11.9991 2.0539
6.8658 12.6757 2.0562
5.7094 13.2419 2.0569
4.5030 13.6915 2.0558
3.2593 14.0201 2.0531
1.9912 14.2251 2.0488
0.6728 13.5138 1.9299
-0.5661 14.2928 2.0403
-1.8376 14.1746 2.0387
-3.0931 13.9461 2.0375
-4.3213 13.6028 2.0358
-5.5113 13.1480 2.0335
-6.6529 12.5861 2.0306
-7.7363 11.9224 2.0272
-8.7523 11.1632 2.0233
-9.7129 10.3373 2.0232
-10.5808 9.4157 2.0202
-11.3100 8.3833 2.0080
-11.9124 7.2795 1.9913
-12.4049 6.1336 1.9738
-12.7646 4.9489 1.9527
-13.0036 3.7467 1.9302
-13.1283 2.5411 1.9073
-13.1571 1.3448 1.8864
-13.0816 0.1638 1.8660
-9.3354 -0.7185 1.3355
-6.9070 -1.1582 0.9989
-5.8429 -1.5261 0.8614
-5.8477 -2.1003 0.8862
-5.8528 -2.7136 0.9202
-5.8584 -3.3814 0.9648
-5.8646 -4.1234 1.0226
-5.8716 -4.9672 1.0970
-8.1398 -8.2394 1.6520
-7.2935 -8.8374 1.6344
-6.4145 -9.3631 1.6189
-5.5077 -9.8163 1.6055
-0.9260 -2.0625 0.3225
-0.7351 -2.1278 0.3211
-0.5406 -2.1777 0.3200
-0.3433 -2.2122 0.3193
-0.1444 -2.2312 0.3189
0.0552 -2.2346 0.3188
0.2545 -2.2225 0.3191
0.4526 -2.1949 0.3197
0.6484 -2.1518 0.3206
0.8410 -2.0933 0.3218
1.0293 -2.0195 0.3233
6.0127 -9.5754 1.6127
6.9048 -9.0822 1.6273
7.7665 -8.5165 1.6440
8.2014 -7.5202 1.5871
2.5019 -1.9129 0.4492
2.5042 -1.5820 0.4225
2.5063 -1.2860 0.4018
2.5082 -1.0157 0.3860
2.5100 -0.7639 0.3742
2.5117 -0.5251 0.3660
2.5133 -0.2948 0.3609
2.5149 -0.0690 0.3588
2.5165 0.1560 0.3596
2.5181 0.3838 0.3633
2.5197 0.6182 0.3701
2.5215 0.8634 0.3801
2.5233 1.1246 0.3940
2.5253 1.4079 0.4124
2.5275 1.7215 0.4362
2.5300 2.0765 0.4668
9.3582 9.1947 1.8713
8.5435 10.0434 1.8807
8.3097 11.7503 2.0528
7.2383 12.4620 2.0556
6.1013 13.0658 2.0568
4.9102 13.5548 2.0563
3.6773 13.9241 2.0542
2.4160 14.1706 2.0504
1.1391 14.2918 2.0450
-0.1402 14.3069 2.0408
-1.4148 14.2249 2.0390
-2.6769 14.0352 2.0380
-3.9154 13.7299 2.0364
-5.1193 13.3118 2.0343
-6.2782 12.7851 2.0316
-7.3821 12.1546 2.0284
-8.4215 11.4266 2.0247
-9.3880 10.6077 2.0205
-10.3085 9.7389 2.0228
-11.0796 8.7356 2.0125
-11.7236 7.6529 1.9969
-12.2530 6.5196 1.9797
-12.6592 5.3471 1.9601
-12.9367 4.1485 1.9378
-13.0992 2.9428 1.9150
-13.1588 1.7424 1.8933
-13.1185 0.5555 1.8728
-12.9416 -0.6089 1.8480
-9.3379 -1.2812 1.3444
-5.8413 -1.3412 0.8549
-5.8460 -1.9051 0.8770
-5.8510 -2.5039 0.9078
-5.8564 -3.1515 0.9486
-5.8624 -3.8662 1.0017
-5.8691 -4.6724 1.0700
-8.4127 -8.0229 1.6581
-7.5796 -8.6459 1.6400
-6.7110 -9.1958 1.6238
-5.8129 -9.6732 1.6097
-0.9886 -2.0374 0.3230
-0.7992 -2.1077 0.3215
-0.6058 -2.1628 0.3204
-0.4093 -2.2024 0.3195
-0.2109 -2.2266 0.3190
-0.0114 -2.2352 0.3188
0.1881 -2.2283 0.3190
0.3868 -2.2058 0.3194
0.5834 -2.1679 0.3202
0.7772 -2.1145 0.3213
0.9671 -2.0458 0.3228
5.7092 -9.7238 1.6083
2.5082 -1.0153 0.4030
2.5100 -0.7635 0.3907
2.5117 -0.5248 0.3821
2.5133 -0.2945 0.3769
2.5149 -0.0687 0.3747
2.5165 0.1563 0.3755
2.5181 0.3841 0.3793
2.5197 0.6185 0.3864
2.5215 0.8638 0.3969
2.5233 1.1249 0.4114
2.5253 1.4083 0.4306
2.5275 1.7219 0.4555
2.5300 2.0770 0.4875
8.9181 8.7645 1.8622
8.4769 9.9676 1.9487
7.9238 11.2074 2.0441
6.9015 11.8854 2.0468
5.8168 12.4606 2.0480
4.6809 12.9271 2.0475
3.5055 13.2800 2.0455
2.3026 13.5158 2.0419
1.0855 13.6403 2.0378
-0.1357 13.6760 2.0368
-1.3546 13.6025 2.0358
-2.5616 13.4213 2.0349
-3.7460 13.1296 2.0334
-4.8975 12.7303 2.0313
-6.0061 12.2271 2.0288
-7.0623 11.6248 2.0257
-8.0570 10.9292 2.0221
-8.9822 10.1467 2.0181
-9.8529 9.3061 2.0184
-10.5862 8.3445 2.0075
-11.1999 7.3090 1.9917
-11.7045 6.2260 1.9744
-12.0860 5.1032 1.9538
-12.3571 3.9610 1.9325
-12.5251 2.8122 1.9118
-12.5945 1.6661 1.8920
-12.5615 0.5303 1.8724
-12.3987 -0.5849 1.8485
-9.3379 -1.2824 1.4037
-5.8413 -1.3419 0.8926
-5.8460 -1.9059 0.9157
-5.8510 -2.5047 0.9479
-5.8564 -3.1525 0.9905
-5.8624 -3.8673 1.0459
-5.8552 -4.6625 1.1147
-8.0964 -7.7232 1.6664
-7.2998 -8.3289 1.6494
-6.4654 -8.8617 1.6337
-5.6018 -9.3246 1.6200
-0.9513 -1.9611 0.3246
-0.7691 -2.0291 0.3232
-0.5830 -2.0824 0.3220
-0.3939 -2.1207 0.3212
-0.2028 -2.1441 0.3207
-0.0107 -2.1524 0.3206
0.1814 -2.1457 0.3207
0.3727 -2.1240 0.3211
0.5620 -2.0872 0.3219
0.7485 -2.0355 0.3230
0.9311 -1.9691 0.3244
5.5045 -9.3724 1.6187
6.3712 -8.9174 1.6322
7.2092 -8.3925 1.6477
8.0105 -7.7950 1.6646
2.5010 -2.0326 0.4800
2.5035 -1.6875 0.4496
2.5056 -1.3811 0.4261
2.5076 -1.1031 0.4080
2.5094 -0.8458 0.3944
2.5111 -0.6032 0.3846
2.5127 -0.3706 0.3783
2.5143 -0.1437 0.3751
2.5159 0.0812 0.3749
2.5175 0.3076 0.3777
2.5192 0.5394 0.3837
2.5209 0.7805 0.3930
2.5227 1.0357 0.4061
2.5246 1.3109 0.4236
2.5268 1.6133 0.4465
2.5292 1.9531 0.4759
2.5319 2.3442 0.5139
8.4156 9.3182 1.8699
8.2491 10.9598 2.0429
7.2499 11.6704 2.0461
6.1848 12.2806 2.0478
5.0647 12.7839 2.0478
3.9011 13.1752 2.0463
2.7061 13.4504 2.0433
1.4918 13.6060 2.0384
0.2718 13.6768 2.0372
-0.9489 13.6381 2.0360
-2.1610 13.4941 2.0352
-3.3542 13.2390 2.0339
-4.5178 12.8752 2.0321
-5.6417 12.4061 2.0297
-6.7164 11.8363 2.0268
-7.7326 11.1712 2.0234
-8.6819 10.4169 2.0195
-9.5778 9.6020 2.0198
-10.3551 8.6747 2.0118
-11.0066 7.6598 1.9970
-11.5516 6.5934 1.9808
-11.9710 5.4803 1.9607
-12.2789 4.3433 1.9397
-12.4787 3.1950 1.9184
-12.5828 2.0476 1.8986
-12.5837 0.9074 1.8789
-12.4684 -0.2163 1.8572
-9.3366 -0.9999 1.3984
-5.8642 -1.1644 0.8904
-5.8444 -1.7145 0.9071
-5.8493 -2.3003 0.9361
-5.8546 -2.9300 0.9750
-5.8603 -3.6201 1.0258
-5.8668 -4.3926 1.0915
-5.8742 -5.2784 1.1761
-7.5706 -8.1357 1.6550
-6.7472 -8.6918 1.6387
-5.8928 -9.1780 1.6243
-1.0110 -1.9351 0.3251
-0.8304 -2.0081 0.3236
-0.6454 -2.0663 0.3224
-0.4572 -2.1096 0.3215
-0.2667 -2.1380 0.3209
-0.0748 -2.1513 0.3206
0.1174 -2.1496 0.3206
0.3091 -2.1329 0.3210
0.4991 -2.1011 0.3216
0.6867 -2.0544 0.3226
0.8707 -1.9929 0.3239
1.0501 -1.9166 0.3255
6.0851 -9.0770 1.6275
6.9332 -8.5753 1.6423
7.7481 -8.0026 1.6589
8.1990 -7.0790 1.6132
2.5027 -1.7976 0.4589
2.5049 -1.4797 0.4333
2.5069 -1.1932 0.4135
2.5088 -0.9297 0.3985
2.5105 -0.6828 0.3875
2.5122 -0.4473 0.3800
2.5138 -0.2190 0.3758
2.5154 0.0062 0.3746
2.5170 0.2317 0.3764
2.5186 0.4612 0.3813
2.5203 0.6988 0.3895
2.5221 0.9487 0.4013
2.5239 1.2165 0.4173
2.5260 1.5089 0.4382
2.5283 1.8349 0.4652
2.5309 2.2070 0.5001
8.6719 9.0451 1.8661
8.5676 10.7038 2.0418
7.5909 11.4442 2.0452
6.5466 12.0887 2.0474
5.4436 12.6283 2.0480
4.2933 13.0574 2.0470
3.1073 13.3717 2.0445
1.8981 13.5677 2.0403
0.6792 13.6648 2.0376
-0.5423 13.6627 2.0363
-1.7584 13.5546 2.0355
-2.9590 13.3363 2.0344
-4.1337 13.0084 2.0328
-5.2719 12.5740 2.0305
-6.3641 12.0372 2.0278
-7.4008 11.4032 2.0245
-8.3732 10.6779 2.0208
-9.2766 9.8713 2.0174
-10.1105 8.9957 2.0154
-10.8019 8.0053 2.0023
-11.3814 6.9537 1.9863
-11.8438 5.8549 1.9676
