ply
format ascii 1.0
element vertex 2029
property float32 x
property float32 y
property float32 z
end_header
28.2610 25.7782 -19.0471
7.9264 8.6475 -5.8412
2.5955 8.5432 -4.4460
1.7884 8.5777 -4.3631
9.1985 -13.8514 -8.2795
13.6001 -5.1009 -7.2327
11.7184 -3.2360 -6.0535
11.3360 -2.0632 -5.7374
11.9058 -1.0821 -5.9528
11.9033 -0.0148 -5.9271
11.9008 1.0518 -5.9490
11.3300 2.0330 -5.7318
11.5980 3.1716 -5.9871
30.7291 22.1479 -18.8614
29.2289 25.3225 -19.2566
2.8494 8.5833 -4.5033
2.0144 8.5601 -4.3788
1.2385 8.6795 -4.3657
12.1429 -3.6899 -6.3194
11.3226 -2.3614 -5.7593
11.9065 -1.3900 -5.9690
11.9040 -0.3194 -5.9296
11.9015 0.7457 -5.9379
11.3424 1.7371 -5.7137
11.2909 2.7793 -5.7900
12.7507 4.3782 -6.7130
31.9221 21.7895 -19.2453
30.1573 24.8056 -19.4438
2.2432 8.5457 -4.3994
1.4589 8.6385 -4.3624
-2.4519 8.5375 -4.4230
12.6488 -4.1998 -6.6364
11.3072 -2.6616 -5.7842
11.3524 -1.6205 -5.7101
11.9047 -0.6243 -5.9360
11.9022 0.4406 -5.9307
11.8998 1.5121 -5.9730
11.3080 2.4787 -5.7644
12.2273 3.8519 -6.3834
9.3146 6.0147 -5.5210
29.5209 23.0422 -18.6474
29.4106 27.5175 -20.0553
2.4766 8.5392 -4.4272
1.6784 8.5938 -4.3600
-2.2266 8.5736 -4.4108
9.3838 -13.7492 -8.2888
13.2550 -4.7807 -7.0164
11.5337 -3.0282 -5.9378
11.3419 -1.9162 -5.7276
11.9054 -0.9302 -5.9463
11.9029 0.1360 -5.9274
11.9005 1.2039 -5.9560
11.3232 2.1802 -5.7419
11.7887 3.3849 -6.1073
29.8095 22.0644 -18.4671
28.7463 25.5491 -19.1504
2.7186 8.5502 -4.4675
1.9023 8.5688 -4.3706
1.1377 8.7664 -4.4018
11.9234 -3.4588 -6.1819
11.3294 -2.2135 -5.7480
11.9061 -1.2372 -5.9605
11.9037 -0.1685 -5.9279
11.9012 0.8972 -5.9429
11.3365 1.8835 -5.7223
11.4197 2.9650 -5.8749
13.0473 4.6657 -6.8997
32.2207 22.5970 -19.5963
29.2453 24.6832 -19.0559
2.1291 8.5506 -4.3877
1.3530 8.6798 -4.3742
-2.5663 8.5270 -4.4341
12.3869 -3.9393 -6.4724
11.3151 -2.5126 -5.7715
11.9068 -1.5460 -5.9787
11.9044 -0.4732 -5.9323
11.9019 0.5917 -5.9338
11.3479 1.5883 -5.7057
11.2998 2.6273 -5.7767
12.4749 4.1043 -6.5393
9.2028 6.1091 -5.5002
30.2015 24.1952 -19.2693
29.2103 28.0325 -20.1593
2.3606 8.5425 -4.4131
1.5684 8.6089 -4.3573
-2.3382 8.5562 -4.4167
12.9406 -4.4829 -6.8194
11.3641 -2.8303 -5.8315
11.3474 -1.7695 -5.7186
11.9051 -0.7785 -5.9407
11.9026 0.2869 -5.9285
11.9001 1.3564 -5.9639
11.3159 2.3278 -5.7527
11.9964 3.6097 -6.2381
30.5211 23.1953 -19.0885
28.2698 25.7741 -19.0490
7.9292 8.6465 -5.8417
2.5977 8.5434 -4.4464
1.7904 8.5774 -4.3631
9.1952 -13.8535 -8.2794
13.6068 -5.1070 -7.2369
11.7220 -3.2399 -6.0557
11.3358 -2.0659 -5.7376
11.9058 -1.0849 -5.9529
11.9033 -0.0176 -5.9271
11.9008 1.0490 -5.9489
11.3302 2.0302 -5.7316
11.5946 3.1678 -5.9850
30.7213 22.1313 -18.8534
29.2379 25.3183 -19.2586
2.8519 8.5841 -4.5041
2.0165 8.5599 -4.3790
1.2405 8.6795 -4.3658
13.5848 -5.6967 -7.2222
11.5029 -3.6552 -5.9175
11.3584 -2.5195 -5.7041
11.9068 -1.5432 -5.8865
11.9044 -0.4704 -5.8410
11.9019 0.5944 -5.8425
11.8994 1.6684 -5.8911
11.3428 2.6402 -5.7098
11.5841 3.8143 -5.9793
9.2015 6.1114 -5.4157
30.1170 24.1392 -18.9233
28.7792 27.6317 -19.5605
3.2163 8.5771 -4.4911
2.3675 8.5755 -4.3617
-16.6875 -2.1225 -8.2474
11.9709 -4.1438 -6.2108
11.3422 -2.8220 -5.7304
11.9076 -1.8540 -5.9083
11.9051 -0.7757 -5.8492
11.9026 0.2896 -5.8373
11.9001 1.3592 -5.8723
11.8976 2.4504 -5.9555
11.2940 3.4012 -5.7828
31.4040 23.8779 -19.3418
28.1776 25.7021 -18.6986
2.5986 8.5533 -4.3828
-2.1352 8.6717 -4.3785
12.5293 -4.6992 -6.5607
11.3240 -3.1271 -5.7597
11.9083 -2.1674 -5.9343
11.9058 -1.0821 -5.8612
11.9033 -0.0148 -5.8359
11.9008 1.0518 -5.8574
11.8983 2.1350 -5.9266
11.3151 3.0942 -5.7512
12.3422 4.5940 -6.4567
29.6285 21.3547 -17.9060
29.1417 25.2469 -18.9036
2.8365 8.5444 -4.4139
2.0342 8.6440 -4.3537
1.2385 8.6795 -4.2985
13.2008 -5.3400 -6.9815
11.3038 -3.4349 -5.7922
11.9090 -2.4837 -5.9644
11.9065 -1.3900 -5.8771
11.9040 -0.3194 -5.8384
11.9015 0.7457 -5.8465
11.8990 1.8223 -5.9018
11.3341 2.7901 -5.7227
11.8135 4.0564 -6.1238
31.7979 21.7047 -18.8754
30.3001 24.9231 -19.2352
28.5819 28.1469 -19.6672
3.0835 8.5510 -4.4566
2.2549 8.5903 -4.3543
11.7289 -3.8944 -6.0591
11.3505 -2.6718 -5.7170
11.9072 -1.6997 -5.8970
11.9047 -0.6243 -5.8446
11.9022 0.4406 -5.8394
11.8998 1.5121 -5.8811
11.8972 2.6079 -5.9714
11.3696 3.5817 -5.8443
9.3142 6.0145 -5.4358
29.4287 22.9702 -18.3030
28.9824 27.1168 -19.4591
2.4839 8.5646 -4.3721
-2.2520 8.6714 -4.3924
9.3817 -13.7461 -8.1594
12.2401 -4.4147 -6.3794
11.3333 -2.9756 -5.7448
11.9079 -2.0118 -5.9209
11.9054 -0.9302 -5.8547
11.9029 0.1360 -5.8361
11.9005 1.2039 -5.8643
11.8980 2.2909 -5.9404
11.3049 3.2459 -5.7665
30.5159 22.5872 -18.6137
28.6609 25.4732 -18.7996
8.1249 8.6375 -5.8139
2.7180 8.5482 -4.3977
1.1377 8.7664 -4.3340
12.8521 -5.0104 -6.7630
11.3141 -3.2820 -5.7757
11.9087 -2.3266 -5.9489
11.9061 -1.2372 -5.8687
11.9037 -0.1685 -5.8367
11.9012 0.8972 -5.8514
11.8987 1.9769 -5.9136
11.3249 2.9404 -5.7365
12.0637 4.3140 -6.2813
31.6008 22.1623 -18.9235
29.3811 24.7978 -18.8497
2.9590 8.5433 -4.4327
2.1439 8.6101 -4.3502
1.3530 8.6798 -4.3069
13.5922 -5.7035 -7.2269
11.5068 -3.6594 -5.9200
11.3583 -2.5222 -5.7043
11.9069 -1.5460 -5.8867
11.9044 -0.4732 -5.8410
11.9019 0.5917 -5.8424
11.8994 1.6655 -5.8909
11.3430 2.6374 -5.7095
11.5800 3.8099 -5.9768
9.2026 6.1089 -5.4154
30.1040 24.1172 -18.9115
28.7828 27.6223 -19.5585
3.2190 8.5780 -4.4919
2.3697 8.5753 -4.3619
-16.6970 -2.1197 -8.2519
11.9756 -4.1486 -6.2137
11.3421 -2.8248 -5.7306
11.9076 -1.8569 -5.9086
11.9051 -0.7785 -5.8492
11.9026 0.2869 -5.8373
11.9001 1.3564 -5.8721
11.8976 2.4475 -5.9553
11.2942 3.3983 -5.7825
31.4053 23.8672 -19.3391
28.1863 25.6979 -18.7004
2.6007 8.5531 -4.3830
-2.1330 8.6717 -4.3783
12.5349 -4.7047 -6.5642
11.3239 -3.1300 -5.7600
11.9083 -2.1703 -5.9345
11.9058 -1.0849 -5.8613
11.9033 -0.0176 -5.8359
11.9008 1.0490 -5.8573
11.8983 2.1321 -5.9264
11.3153 3.0915 -5.7509
12.3369 4.5887 -6.4533
29.6031 21.3257 -17.8876
29.1506 25.2427 -18.9055
2.8387 8.5443 -4.4142
2.0361 8.6428 -4.3534
1.2405 8.6795 -4.2986
12.5072 -5.2448 -6.5460
11.3369 -3.6025 -5.7415
11.9094 -2.6417 -5.8879
11.9068 -1.5432 -5.7950
11.9044 -0.4704 -5.7502
11.9019 0.5944 -5.7517
11.8994 1.6684 -5.7995
11.8968 2.7692 -5.8956
11.3147 3.7256 -5.7496
9.2013 6.1112 -5.3314
30.0207 24.0620 -18.5696
27.4584 26.3636 -18.3728
3.2055 8.5480 -4.4063
-16.8220 -2.1396 -8.1847
13.2574 -5.9624 -7.0162
11.3137 -3.9164 -5.7786
11.9101 -2.9633 -5.9238
11.9076 -1.8540 -5.8165
11.9051 -0.7757 -5.7583
11.9026 0.2896 -5.7466
11.9001 1.3592 -5.7810
11.8976 2.4504 -5.8630
11.3377 3.4143 -5.7150
11.9954 4.8177 -6.2392
34.9176 21.9254 -19.9003
29.6029 22.5085 -17.9492
28.0951 25.6268 -18.3542
3.4597 8.5540 -4.4536
2.6164 8.6120 -4.3443
-2.1352 8.6717 -4.3105
11.6198 -4.3581 -5.9899
11.9109 -3.2891 -5.9641
11.9083 -2.1674 -5.8421
11.9058 -1.0821 -5.7701
11.9033 -0.0148 -5.7452
11.9008 1.0518 -5.7664
11.8983 2.1350 -5.8345
11.8957 3.2531 -5.9524
11.4595 4.2655 -5.9018
31.2787 22.5440 -18.6095
29.0554 25.1722 -18.5548
8.3282 8.6319 -5.7893
2.8464 8.5743 -4.3606
1.2385 8.6795 -4.2317
12.1859 -4.9295 -6.3446
11.3476 -3.4482 -5.7243
11.9090 -2.4837 -5.8717
11.9065 -1.3900 -5.7858
11.9040 -0.3194 -5.7476
11.9015 0.7457 -5.7557
11.8990 1.8223 -5.8101
11.8965 2.9285 -5.9134
11.3025 3.8810 -5.7679
31.6755 21.6211 -18.5105
30.4434 25.0409 -19.0259
3.0841 8.5524 -4.3881
12.8673 -5.5921 -6.7717
11.3255 -3.7605 -5.7598
11.9098 -2.8035 -5.9055
11.9072 -1.6997 -5.8054
11.9047 -0.6243 -5.7538
11.9022 0.4406 -5.7487
11.8998 1.5121 -5.7897
11.8972 2.6079 -5.8786
11.3265 3.5681 -5.7317
9.3139 6.0142 -5.3512
30.5170 23.8197 -18.6850
28.5689 26.7299 -18.8834
3.3309 8.5455 -4.4268
2.5086 8.6497 -4.3469
-2.2520 8.6714 -4.3242
9.3795 -13.7430 -8.0308
13.6975 -6.3742 -7.2920
11.3745 -4.1025 -5.8362
11.9105 -3.1272 -5.9436
11.9079 -2.0118 -5.8289
11.9054 -0.9302 -5.7638
11.9029 0.1360 -5.7454
11.9005 1.2039 -5.7732
11.8980 2.2909 -5.8481
11.8953 3.4155 -5.9734
11.7131 4.5296 -6.0614
31.4562 23.2832 -18.8892
28.5766 25.3983 -18.4531
8.1999 8.7173 -5.7764
3.6026 8.5868 -4.4945
2.7306 8.5878 -4.3494
1.1377 8.7664 -4.2667
11.8927 -4.6364 -6.1609
11.3578 -3.2947 -5.7079
11.9087 -2.3266 -5.8565
11.9061 -1.2372 -5.7775
11.9037 -0.1685 -5.7460
11.9012 0.8972 -5.7605
11.8987 1.9769 -5.8217
11.8961 3.0887 -5.9321
11.2898 4.0372 -5.7871
29.4094 20.6254 -17.3376
29.5172 24.9127 -18.6428
2.9652 8.5613 -4.3730
1.3530 8.6798 -4.2400
12.5134 -5.2508 -6.5499
11.3367 -3.6053 -5.7418
11.9094 -2.6446 -5.8882
11.9069 -1.5460 -5.7952
11.9044 -0.4732 -5.7503
11.9019 0.5917 -5.7517
11.8994 1.6655 -5.7993
11.8969 2.7662 -5.8953
11.3149 3.7227 -5.7492
9.2023 6.1088 -5.3311
30.0078 24.0401 -18.5582
27.4716 26.3639 -18.3775
3.2077 8.5480 -4.4067
-16.8245 -2.1359 -8.1857
13.2649 -5.9696 -7.0209
11.3135 -3.9192 -5.7789
11.9101 -2.9663 -5.9241
11.9076 -1.8569 -5.8168
11.9051 -0.7785 -5.7584
11.9026 0.2869 -5.7466
11.9001 1.3564 -5.7809
11.8976 2.4475 -5.8627
11.3379 3.4115 -5.7147
11.9901 4.8122 -6.2358
34.9236 21.9178 -19.9008
29.5866 22.4850 -17.9361
28.1038 25.6227 -18.3559
3.4621 8.5541 -4.4541
2.6185 8.6116 -4.3444
-2.1330 8.6717 -4.3102
11.6246 -4.3630 -5.9929
11.9109 -3.2922 -5.9645
11.9083 -2.1703 -5.8423
11.9058 -1.0849 -5.7702
11.9033 -0.0176 -5.7452
11.9008 1.0490 -5.7663
11.8983 2.1320 -5.8343
11.8957 3.2501 -5.9520
11.4550 4.2607 -5.8989
30.8171 22.2003 -18.3318
29.0643 25.1680 -18.5567
8.3317 8.6315 -5.7903
2.8486 8.5741 -4.3608
1.2405 8.6795 -4.2318
11.5931 -4.8615 -5.9724
11.9120 -3.7852 -5.9381
11.9094 -2.6417 -5.7955
11.9068 -1.5432 -5.7041
11.9044 -0.4704 -5.6600
11.9019 0.5944 -5.6615
11.8994 1.6684 -5.7085
11.8968 2.7692 -5.8031
11.8942 3.9164 -5.9492
9.2010 6.1110 -5.2476
29.9255 23.9858 -18.2204
27.5331 26.4353 -18.1337
3.2174 8.5798 -4.3533
-16.9860 -2.1604 -8.1348
12.2242 -5.4978 -6.3679
11.3578 -3.9316 -5.7101
11.9101 -2.9633 -5.8309
11.9076 -1.8540 -5.7253
11.9051 -0.7757 -5.6679
11.9026 0.2896 -5.6564
11.9001 1.3592 -5.6903
11.8976 2.4504 -5.7710
11.8950 3.5822 -5.9018
11.2924 4.5353 -5.7814
35.0667 22.0190 -19.6717
31.3734 23.8546 -18.7243
28.0136 25.5525 -18.0138
3.4601 8.5551 -4.3842
-2.1352 8.6717 -4.2428
12.9899 -6.2463 -6.8478
11.3327 -4.2505 -5.7503
11.9109 -3.2891 -5.8705
11.9083 -2.1674 -5.7504
11.9058 -1.0821 -5.6796
11.9033 -0.0148 -5.6551
11.9008 1.0518 -5.6760
11.8983 2.1350 -5.7430
11.8957 3.2531 -5.8590
11.3205 4.2138 -5.7387
31.1587 22.4576 -18.2473
28.9702 25.0983 -18.2101
8.3822 8.6879 -5.7354
3.7152 8.5499 -4.4289
1.2385 8.6795 -4.1653
11.3207 -4.5795 -5.8017
11.9117 -3.6196 -5.9146
11.9090 -2.4837 -5.7796
11.9065 -1.3900 -5.6950
11.9040 -0.3194 -5.6575
11.9015 0.7457 -5.6653
11.8990 1.8223 -5.7190
11.8965 2.9285 -5.8206
11.8938 4.0840 -5.9744
31.5546 21.5387 -18.1506
30.5872 25.1592 -18.8158
3.1006 8.5982 -4.3424
11.8968 -5.1704 -6.1627
11.9124 -3.9553 -5.9632
11.9098 -2.8035 -5.8128
11.9072 -1.6997 -5.7143
11.9047 -0.6243 -5.6635
11.9022 0.4406 -5.6585
11.8998 1.5121 -5.6989
11.8972 2.6079 -5.7864
11.8946 3.7471 -5.9247
11.4149 4.7533 -5.8744
9.3136 6.0140 -5.2671
29.6540 23.1461 -17.8717
3.3385 8.5651 -4.3674
-2.2520 8.6714 -4.2563
9.3774 -13.7399 -7.9030
12.5915 -5.8595 -6.5981
11.3454 -4.0920 -5.7299
11.9105 -3.1272 -5.8503
11.9079 -2.0118 -5.7375
11.9054 -0.9302 -5.6733
11.9029 0.1360 -5.6553
11.9005 1.2039 -5.6826
11.8980 2.2909 -5.7564
11.8953 3.4155 -5.8797
11.3068 4.3725 -5.7594
31.4410 23.2720 -18.5838
28.4933 25.3242 -18.1106
3.5871 8.5501 -4.4050
1.1377 8.7664 -4.1997
13.4402 -6.6777 -7.1300
11.3192 -4.4127 -5.7718
11.9113 -3.4553 -5.8922
11.9087 -2.3266 -5.7646
11.9061 -1.2372 -5.6869
11.9037 -0.1685 -5.6558
11.9012 0.8972 -5.6701
11.8987 1.9769 -5.7304
11.8961 3.0887 -5.8391
11.3339 4.0530 -5.7185
30.5887 21.4525 -17.7499
27.5342 23.2390 -17.1175
8.5420 8.6279 -5.7680
3.8514 8.5594 -4.4592
2.9873 8.6251 -4.3365
1.3530 8.6798 -4.1734
11.5983 -4.8668 -5.9756
11.9121 -3.7883 -5.9385
11.9094 -2.6446 -5.7958
11.9069 -1.5460 -5.7043
11.9044 -0.4732 -5.6601
11.9019 0.5917 -5.6614
11.8994 1.6655 -5.7084
11.8969 2.7662 -5.8028
11.8942 3.9133 -5.9488
9.2020 6.1086 -5.2473
29.9127 23.9639 -18.2091
27.5463 26.4356 -18.1383
3.2195 8.5795 -4.3536
-16.9885 -2.1567 -8.1358
12.2305 -5.5041 -6.3718
11.3576 -3.9345 -5.7105
11.9101 -2.9663 -5.8312
11.9076 -1.8569 -5.7255
11.9051 -0.7785 -5.6680
11.9026 0.2869 -5.6564
11.9001 1.3564 -5.6902
11.8976 2.4475 -5.7707
11.8950 3.5792 -5.9014
11.2926 4.5323 -5.7809
35.0728 22.0114 -19.6723
31.3746 23.8439 -18.7216
28.0222 25.5484 -18.0155
3.4624 8.5550 -4.3846
-2.1330 8.6717 -4.2426
12.9976 -6.2537 -6.8526
11.3325 -4.2533 -5.7506
11.9109 -3.2922 -5.8709
11.9083 -2.1703 -5.7507
11.9058 -1.0849 -5.6797
11.9033 -0.0176 -5.6551
11.9008 1.0490 -5.6758
11.8983 2.1320 -5.7428
11.8957 3.2501 -5.8586
11.3208 4.2108 -5.7383
31.1624 22.4490 -18.2464
28.9791 25.0942 -18.2120
8.3844 8.6861 -5.7355
3.7176 8.5501 -4.4294
1.2405 8.6795 -4.1654
13.2311 -6.9973 -6.9982
11.3358 -4.7536 -5.7473
11.9120 -3.7852 -5.8440
11.9094 -2.6417 -5.7037
11.9068 -1.5432 -5.6137
11.9044 -0.4704 -5.5703
11.9019 0.5944 -5.5718
11.8994 1.6684 -5.6181
11.8968 2.7692 -5.7112
11.8942 3.9164 -5.8549
9.2007 6.1108 -5.1643
29.8315 23.9104 -17.8753
27.6077 26.5069 -17.8947
4.1139 8.5567 -4.4391
-17.1521 -2.1816 -8.0842
11.3452 -5.1025 -5.8163
11.9128 -4.1237 -5.8942
11.9101 -2.9633 -5.7385
11.9076 -1.8540 -5.6346
11.9051 -0.7757 -5.5781
11.9026 0.2896 -5.5668
11.9001 1.3592 -5.6002
11.8976 2.4504 -5.6796
11.8950 3.5822 -5.8083
11.3368 4.5531 -5.7122
32.0282 20.1111 -17.6825
30.5765 23.2487 -17.9595
29.5294 26.9352 -18.6877
3.4783 8.6001 -4.3375
-2.1352 8.6717 -4.1756
11.9909 -5.7659 -6.2209
11.9136 -4.4683 -5.9492
11.9109 -3.2891 -5.7775
11.9083 -2.1674 -5.6593
11.9058 -1.0821 -5.5896
11.9033 -0.0148 -5.5655
11.9008 1.0518 -5.5860
11.8983 2.1350 -5.6520
11.8957 3.2531 -5.7662
30.9248 22.2890 -17.8234
28.8860 25.0254 -17.8695
3.7215 8.5645 -4.3661
1.2385 8.6795 -4.0993
12.7766 -6.5512 -6.7133
11.3501 -4.5913 -5.7246
11.9117 -3.6196 -5.8208
11.9090 -2.4837 -5.6880
11.9065 -1.3900 -5.6048
11.9040 -0.3194 -5.5678
11.9015 0.7457 -5.5756
11.8990 1.8223 -5.6284
11.8965 2.9285 -5.7283
11.8938 4.0840 -5.8797
30.3483 20.7152 -17.1801
30.7315 25.2779 -18.6050
8.7688 8.6353 -5.7542
3.9784 8.5506 -4.4095
11.3207 -4.9201 -5.7714
11.9124 -3.9553 -5.8688
11.9098 -2.8035 -5.7207
11.9072 -1.6997 -5.6237
11.9047 -0.6243 -5.5738
11.9022 0.4406 -5.5688
11.8998 1.5121 -5.6086
11.8972 2.6079 -5.6947
11.8946 3.7471 -5.8308
11.3222 4.7147 -5.7344
9.3132 6.0138 -5.1834
29.9362 23.3663 -17.7559
9.1658 8.5758 -5.8688
4.2647 8.5848 -4.4819
3.3639 8.6301 -4.3308
-2.2520 8.6714 -4.1889
9.3753 -13.7368 -7.7760
11.6558 -5.4241 -6.0110
11.9132 -4.2968 -5.9214
11.9105 -3.1272 -5.7576
11.9079 -2.0118 -5.6466
11.9054 -0.9302 -5.5834
11.9029 0.1360 -5.5657
11.9005 1.2039 -5.5926
11.8980 2.2909 -5.6652
11.8953 3.4155 -5.7865
35.5536 21.6902 -19.4727
31.4259 23.2608 -18.2806
29.9578 26.6258 -18.7397
3.5999 8.5805 -4.3507
1.1377 8.7664 -4.1332
12.3674 -6.1447 -6.4569
11.9140 -4.6447 -5.9788
11.9113 -3.4553 -5.7988
11.9087 -2.3266 -5.6733
11.9061 -1.2372 -5.5968
11.9037 -0.1685 -5.5662
11.9012 0.8972 -5.5803
11.8987 1.9769 -5.6396
11.8961 3.0887 -5.7465
11.8934 4.2531 -5.9057
31.2396 21.9090 -17.8404
27.2965 23.0385 -16.7009
8.5808 8.6671 -5.7025
3.8499 8.5561 -4.3868
1.3530 8.6798 -4.1073
13.2400 -7.0060 -7.0037
11.3355 -4.7566 -5.7477
11.9121 -3.7883 -5.8444
11.9094 -2.6446 -5.7040
11.9068 -1.5460 -5.6139
11.9044 -0.4732 -5.5704
11.9019 0.5917 -5.5717
11.8994 1.6655 -5.6179
11.8969 2.7662 -5.7109
11.8942 3.9133 -5.8545
9.2017 6.1084 -5.1640
29.8188 23.8886 -17.8643
27.6210 26.5073 -17.8993
4.1165 8.5569 -4.4397
-17.1547 -2.1778 -8.0852
11.3506 -5.1081 -5.8197
11.9128 -4.1269 -5.8947
11.9101 -2.9663 -5.7388
11.9076 -1.8569 -5.6348
11.9051 -0.7785 -5.5782
11.9026 0.2869 -5.5668
11.9001 1.3564 -5.6000
11.8976 2.4475 -5.6793
11.8950 3.5792 -5.8079
11.3371 4.5502 -5.7118
32.0318 20.1030 -17.6819
30.5711 23.2333 -17.9531
29.5376 26.9300 -18.6888
3.4804 8.5995 -4.3376
-2.1330 8.6717 -4.1754
11.9974 -5.7725 -6.2250
11.9136 -4.4715 -5.9497
11.9109 -3.2922 -5.7779
11.9083 -2.1703 -5.6595
11.9058 -1.0849 -5.5897
11.9033 -0.0176 -5.5655
11.9008 1.0490 -5.5859
11.8983 2.1320 -5.6518
11.8957 3.2501 -5.7658
30.9206 22.2748 -17.8179
28.8948 25.0212 -17.8713
3.7238 8.5642 -4.3664
1.2405 8.6795 -4.0994
12.7845 -6.5590 -6.7183
12.1832 -6.4431 -6.3407
11.9149 -4.9964 -5.9442
11.9120 -3.7852 -5.7504
11.9094 -2.6417 -5.6124
11.9068 -1.5432 -5.5238
11.9044 -0.4704 -5.4812
11.9019 0.5944 -5.4826
11.8994 1.6684 -5.5281
11.8968 2.7692 -5.6197
11.8942 3.9164 -5.7612
9.2005 6.1107 -5.0814
30.1682 24.1803 -17.7877
9.1226 8.7589 -5.8184
4.1163 8.5616 -4.3706
-17.3318 -2.2044 -8.0381
11.3504 -5.1048 -5.7259
11.9128 -4.1237 -5.7999
11.9101 -2.9633 -5.6466
11.9076 -1.8540 -5.5444
11.9051 -0.7757 -5.4888
11.9026 0.2896 -5.4777
11.9001 1.3592 -5.5105
11.8976 2.4504 -5.5886
11.8950 3.5822 -5.7153
31.9091 20.0364 -17.3347
30.5990 23.2659 -17.6850
29.5924 26.9926 -18.4277
4.3860 8.5552 -4.4231
-2.1352 8.6717 -4.1088
11.3178 -5.4423 -5.7777
11.9136 -4.4683 -5.8540
11.9109 -3.2891 -5.6850
11.9083 -2.1674 -5.5687
11.9058 -1.0821 -5.5001
11.9033 -0.0148 -5.4764
11.9008 1.0518 -5.4966
11.8983 2.1350 -5.5615
11.8957 3.2531 -5.6739
31.1235 22.4322 -17.6507
29.2673 25.3557 -17.8155
3.7484 8.6264 -4.3273
1.2385 8.6795 -4.0337
11.8027 -6.0518 -6.1023
11.9144 -4.8197 -5.9130
11.9117 -3.6196 -5.7277
11.9090 -2.4837 -5.5969
11.9065 -1.3900 -5.5151
11.9040 -0.3194 -5.4787
11.9015 0.7457 -5.4863
11.8990 1.8223 -5.5383
11.8965 2.9285 -5.6366
11.8938 4.0840 -5.7856
31.3178 21.3770 -17.4451
28.1182 23.1284 -16.7504
8.7869 8.6532 -5.6738
3.9907 8.5770 -4.3523
12.6132 -6.8803 -6.6102
11.9153 -5.1784 -5.9772
11.9124 -3.9553 -5.7748
11.9098 -2.8035 -5.6291
11.9072 -1.6997 -5.5337
11.9047 -0.6243 -5.4846
11.9022 0.4406 -5.4797
11.8998 1.5121 -5.5188
11.8972 2.6079 -5.6035
11.8946 3.7471 -5.7375
9.3129 6.0136 -5.1003
29.6564 23.1480 -17.3084
9.1717 8.5813 -5.7786
4.2503 8.5559 -4.3953
-2.2520 8.6714 -4.1218
9.3732 -13.7337 -7.6498
11.3343 -5.2744 -5.7516
11.9132 -4.2968 -5.8266
11.9105 -3.1272 -5.6654
11.9079 -2.0118 -5.5562
11.9054 -0.9302 -5.4941
11.9029 0.1360 -5.4766
11.9005 1.2039 -5.5030
11.8980 2.2909 -5.5745
11.8953 3.4155 -5.6939
35.7052 21.7827 -19.2426
29.6121 21.9182 -16.9497
30.0449 26.7033 -18.4933
4.5337 8.5690 -4.4601
1.1377 8.7664 -4.0670
11.4581 -5.6929 -5.8864
11.9140 -4.6447 -5.8831
11.9113 -3.4553 -5.7060
11.9087 -2.3266 -5.5824
11.9061 -1.2372 -5.5072
11.9037 -0.1685 -5.4771
11.9012 0.8972 -5.4910
11.8987 1.9769 -5.5493
11.8961 3.0887 -5.6545
11.8934 4.2531 -5.8112
31.1225 21.8268 -17.4889
27.0644 22.8425 -16.2937
3.8670 8.5942 -4.3358
1.3530 8.6798 -4.0416
12.1906 -6.4507 -6.3454
11.9149 -4.9997 -5.9448
11.9121 -3.7883 -5.7509
11.9094 -2.6446 -5.6127
11.9068 -1.5460 -5.5240
11.9044 -0.4732 -5.4812
11.9019 0.5917 -5.4825
11.8994 1.6655 -5.5280
11.8969 2.7662 -5.6194
11.8942 3.9133 -5.7608
9.2015 6.1082 -5.0812
30.1237 24.1330 -17.7581
9.1212 8.7534 -5.8162
4.1187 8.5615 -4.3710
-17.3295 -2.2000 -8.0368
11.3501 -5.1079 -5.7263
11.9128 -4.1269 -5.8003
11.9101 -2.9663 -5.6469
11.9076 -1.8569 -5.5446
11.9051 -0.7785 -5.4889
11.9026 0.2869 -5.4777
11.9001 1.3564 -5.5104
11.8976 2.4475 -5.5884
11.8950 3.5792 -5.7149
31.9127 20.0282 -17.3341
30.5937 23.2504 -17.6787
29.6006 26.9873 -18.4288
4.3886 8.5554 -4.4238
-2.1330 8.6717 -4.1085
11.3175 -5.4453 -5.7782
11.9136 -4.4715 -5.8545
11.9109 -3.2922 -5.6854
11.9083 -2.1703 -5.5689
11.9058 -1.0849 -5.5002
11.9033 -0.0176 -5.4764
11.9008 1.0490 -5.4965
11.8983 2.1320 -5.5613
11.8957 3.2501 -5.6735
31.1231 22.4207 -17.6475
29.2806 25.3553 -17.8200
3.7506 8.6258 -4.3274
1.2405 8.6795 -4.0338
11.8094 -6.0587 -6.1065
11.3104 -5.9815 -5.7912
11.9149 -4.9964 -5.8480
11.9120 -3.7852 -5.6574
11.9094 -2.6417 -5.5216
11.9068 -1.5432 -5.4345
11.9044 -0.4704 -5.3925
11.9019 0.5944 -5.3939
11.8994 1.6684 -5.4387
11.8968 2.7692 -5.5288
11.8942 3.9164 -5.6680
9.2002 6.1105 -4.9991
28.9764 23.2250 -16.8086
8.9992 8.6403 -5.6468
4.1415 8.6140 -4.3262
-17.5306 -2.2297 -7.9988
11.9109 -6.6944 -6.1844
11.9157 -5.3590 -5.9138
11.9128 -4.1237 -5.7060
11.9101 -2.9633 -5.5552
11.9076 -1.8540 -5.4547
11.9051 -0.7757 -5.4000
11.9026 0.2896 -5.3891
11.9001 1.3592 -5.4214
11.8976 2.4504 -5.4982
11.8950 3.5822 -5.6229
31.7916 19.9625 -16.9915
29.5190 22.4447 -16.7848
29.5789 26.9803 -18.1213
4.3935 8.5698 -4.3590
-2.1352 8.6717 -4.0423
11.3633 -5.4641 -5.7071
11.9136 -4.4683 -5.7593
11.9109 -3.2891 -5.5930
11.9083 -2.1674 -5.4786
11.9058 -1.0821 -5.4111
11.9033 -0.0148 -5.3878
11.9008 1.0518 -5.4077
11.8983 2.1349 -5.4715
11.8957 3.2531 -5.5821
15.2894 9.0638 -8.0451
31.0969 22.4130 -17.3503
29.1128 25.2218 -17.4347
4.6676 8.5581 -4.4123
1.2385 8.6795 -3.9684
11.3285 -5.8086 -5.7624
11.9144 -4.8197 -5.8174
11.9117 -3.6196 -5.6350
11.9090 -2.4837 -5.5064
11.9065 -1.3900 -5.4258
11.9040 -0.3194 -5.3901
11.9015 0.7457 -5.3976
11.8990 1.8223 -5.4487
11.8965 2.9285 -5.5454
11.8938 4.0840 -5.6920
31.2017 21.2978 -17.0992
27.8758 22.9290 -16.3373
27.0407 26.6292 -17.1780
4.0285 8.6583 -4.3224
11.6562 -6.3582 -6.0098
11.9153 -5.1784 -5.8805
11.9124 -3.9553 -5.6814
11.9098 -2.8035 -5.5381
11.9072 -1.6997 -5.4442
11.9047 -0.6243 -5.3958
11.9022 0.4406 -5.3910
11.8998 1.5121 -5.4295
11.8972 2.6079 -5.5129
11.8946 3.7471 -5.6447
9.3126 6.0134 -5.0176
30.9154 24.1306 -17.7512
9.1625 8.5728 -5.6795
4.2664 8.5882 -4.3405
-2.2520 8.6714 -4.0551
9.3711 -13.7307 -7.5244
12.4968 -7.2374 -6.5366
11.9161 -5.5452 -5.9490
11.9132 -4.2968 -5.7323
11.9105 -3.1272 -5.5738
11.9079 -2.0118 -5.4663
11.9054 -0.9302 -5.4052
11.9029 0.1360 -5.3880
11.9005 1.2039 -5.4140
11.8980 2.2909 -5.4843
11.8953 3.4155 -5.6017
35.8572 21.8754 -19.0119
29.5246 21.8535 -16.6262
28.8394 25.6319 -17.4641
4.5291 8.5605 -4.3836
1.1377 8.7664 -4.0012
11.3461 -5.6373 -5.7345
11.9140 -4.6447 -5.7880
11.9113 -3.4553 -5.6137
11.9087 -2.3266 -5.4921
11.9061 -1.2372 -5.4181
11.9037 -0.1685 -5.3885
11.9012 0.8972 -5.4021
11.8987 1.9769 -5.4595
11.8961 3.0887 -5.5631
11.8934 4.2531 -5.7172
31.7747 22.2842 -17.5666
26.8373 22.6509 -15.8957
4.8288 8.5880 -4.4595
1.3530 8.6798 -3.9762
11.3100 -5.9848 -5.7918
11.9149 -4.9997 -5.8486
11.9121 -3.7883 -5.6578
11.9094 -2.6446 -5.5219
11.9068 -1.5460 -5.4346
11.9044 -0.4732 -5.3925
11.9019 0.5917 -5.3938
11.8994 1.6655 -5.4385
11.8969 2.7662 -5.5285
11.8942 3.9133 -5.6676
9.2012 6.1080 -4.9989
28.9975 23.2307 -16.8176
9.0021 8.6392 -5.6474
4.1437 8.6133 -4.3263
-17.5282 -2.2252 -7.9975
11.9109 -6.6981 -6.1852
11.9157 -5.3624 -5.9144
11.9128 -4.1269 -5.7065
11.9101 -2.9663 -5.5556
11.9076 -1.8569 -5.4549
11.9051 -0.7785 -5.4001
11.9026 0.2869 -5.3890
11.9001 1.3564 -5.4212
11.8976 2.4475 -5.4980
11.8950 3.5792 -5.6225
31.7952 19.9544 -16.9909
29.5191 22.4337 -16.7818
29.5818 26.9703 -18.1192
4.3959 8.5694 -4.3593
-2.1330 8.6717 -4.0421
11.3630 -5.4673 -5.7076
11.9136 -4.4715 -5.7598
11.9109 -3.2922 -5.5934
11.9083 -2.1703 -5.4788
11.9058 -1.0849 -5.4112
11.9033 -0.0176 -5.3878
11.9008 1.0490 -5.4076
11.8983 2.1320 -5.4713
11.8957 3.2501 -5.5817
15.2898 9.0592 -8.0442
31.0965 22.4016 -17.3471
29.1260 25.2214 -17.4391
4.6704 8.5583 -4.4130
1.2405 8.6795 -3.9685
11.3282 -5.8118 -5.7629
11.3564 -6.0059 -5.7198
11.9149 -4.9964 -5.7524
11.9120 -3.7852 -5.5649
11.9094 -2.6417 -5.4313
11.9068 -1.5432 -5.3456
11.9044 -0.4704 -5.3043
11.9019 0.5944 -5.3057
11.8994 1.6684 -5.3498
11.8968 2.7692 -5.4384
11.8942 3.9164 -5.5753
9.1999 6.1103 -4.9172
28.7231 23.0220 -16.3892
9.0601 8.6988 -5.5921
4.1763 8.6863 -4.2912
-17.7144 -2.2531 -7.9505
11.3182 -6.3612 -5.7805
11.9157 -5.3590 -5.8171
11.9128 -4.1237 -5.6127
11.9101 -2.9633 -5.4644
11.9076 -1.8540 -5.3655
11.9051 -0.7757 -5.3117
11.9026 0.2896 -5.3009
11.9001 1.3592 -5.3327
11.8976 2.4504 -5.4083
11.8950 3.5822 -5.5309
32.4108 20.3514 -17.0392
29.4317 22.3783 -16.4615
29.7180 27.1071 -17.9088
4.4257 8.6326 -4.3192
-2.1352 8.6717 -3.9762
11.9119 -7.1017 -6.1745
11.9166 -5.7302 -5.8871
11.9136 -4.4683 -5.6651
11.9109 -3.2891 -5.5016
11.9083 -2.1674 -5.3890
11.9058 -1.0821 -5.3226
11.9033 -0.0148 -5.2997
11.9008 1.0518 -5.3192
11.8983 2.1349 -5.3821
11.8957 3.2531 -5.4908
15.2894 9.0638 -7.9135
31.0705 22.3940 -17.0521
28.9607 25.0901 -17.0601
4.6760 8.5734 -4.3479
1.2385 8.6795 -3.9035
11.9174 -6.1106 -5.9628
11.9144 -4.8197 -5.7222
11.9117 -3.6196 -5.5429
11.9090 -2.4837 -5.4163
11.9065 -1.3900 -5.3371
11.9040 -0.3194 -5.3019
11.9015 0.7457 -5.3093
11.8990 1.8223 -5.3596
11.8965 2.9285 -5.4548
11.8938 4.0840 -5.5989
31.0871 21.2195 -16.7579
27.6388 22.7341 -15.9336
27.1124 26.6998 -16.9419
4.9605 8.5664 -4.4073
4.1290 8.8742 -4.3578
11.3375 -6.1844 -5.7499
11.9153 -5.1784 -5.7844
11.9124 -3.9553 -5.5885
11.9098 -2.8035 -5.4475
11.9072 -1.6997 -5.3552
11.9047 -0.6243 -5.3076
11.9022 0.4406 -5.3029
11.8998 1.5121 -5.3407
11.8972 2.6079 -5.4227
11.8946 3.7471 -5.5524
9.3123 6.0132 -4.9354
29.4261 22.9682 -16.6198
9.1625 8.5728 -5.5866
4.3153 8.6866 -4.3185
-2.2520 8.6714 -3.9888
9.3691 -13.7277 -7.3998
11.5490 -6.6885 -5.9420
11.9161 -5.5452 -5.8517
11.9132 -4.2968 -5.6386
11.9105 -3.1272 -5.4826
11.9079 -2.0118 -5.3769
11.9054 -0.9302 -5.3168
11.9029 0.1360 -5.2999
11.9005 1.2039 -5.3255
11.8980 2.2909 -5.3946
11.8953 3.4155 -5.5101
29.4382 21.7895 -16.3065
28.8939 25.6803 -17.2110
4.5482 8.5964 -4.3301
1.1377 8.7664 -3.9358
11.9170 -5.9209 -5.9246
11.9140 -4.6447 -5.6933
11.9113 -3.4553 -5.5219
11.9087 -2.3266 -5.4023
11.9061 -1.2372 -5.3295
11.9037 -0.1685 -5.3004
11.9012 0.8972 -5.3138
11.8987 1.9769 -5.3703
11.8961 3.0887 -5.4721
11.8934 4.2531 -5.6237
31.8018 22.3032 -17.2941
26.6153 22.4635 -15.5064
4.8145 8.5626 -4.3736
1.3530 8.6798 -3.9112
11.3561 -6.0091 -5.7203
11.9149 -4.9997 -5.7529
11.9121 -3.7883 -5.5653
11.9094 -2.6446 -5.4316
11.9068 -1.5460 -5.3458
11.9044 -0.4732 -5.3043
11.9019 0.5917 -5.3056
11.8994 1.6655 -5.3496
11.8969 2.7662 -5.4381
11.8942 3.9133 -5.5749
9.2009 6.1079 -4.9170
28.7439 23.0275 -16.3979
9.0619 8.6965 -5.5920
4.1788 8.6863 -4.2917
-17.7125 -2.2486 -7.9494
11.3178 -6.3645 -5.7811
11.9157 -5.3624 -5.8177
11.9128 -4.1269 -5.6132
11.9101 -2.9663 -5.4647
11.9076 -1.8569 -5.3657
11.9051 -0.7785 -5.3118
11.9026 0.2869 -5.3009
11.9001 1.3564 -5.3326
11.8976 2.4475 -5.4081
11.8950 3.5792 -5.5305
32.4068 20.3383 -17.0345
29.4319 22.3674 -16.4586
29.7262 27.1019 -17.9099
4.4279 8.6319 -4.3193
-2.1330 8.6717 -3.9760
11.9119 -7.1055 -6.1754
11.9166 -5.7336 -5.8878
11.9136 -4.4715 -5.6656
11.9109 -3.2922 -5.5019
11.9083 -2.1703 -5.3892
11.9058 -1.0849 -5.3228
11.9033 -0.0176 -5.2997
11.9008 1.0490 -5.3191
11.8983 2.1320 -5.3819
11.8957 3.2501 -5.4904
15.2898 9.0592 -7.9127
31.0701 22.3825 -17.0490
28.9739 25.0897 -17.0644
4.6784 8.5729 -4.3483
1.2405 8.6795 -3.9036
11.9174 -6.1141 -5.9635
11.9179 -6.3028 -5.9033
11.9149 -4.9964 -5.6573
11.9120 -3.7852 -5.4729
11.9094 -2.6417 -5.3415
11.9068 -1.5432 -5.2572
11.9049 -0.4704 -5.2168
11.9019 0.5944 -5.2179
11.8994 1.6684 -5.2613
11.8968 2.7692 -5.3485
11.8942 3.9164 -5.4831
9.1997 6.1101 -4.8358
28.4755 22.8235 -15.9793
9.1226 8.7589 -5.5376
5.1031 8.5607 -4.3639
4.1763 8.6863 -4.2202
-17.7120 -2.2528 -7.8180
11.3647 -6.3874 -5.7083
11.9157 -5.3590 -5.7209
11.9128 -4.1237 -5.5199
11.9101 -2.9633 -5.3741
11.9076 -1.8540 -5.2768
11.9055 -0.7757 -5.2241
11.9026 0.2896 -5.2133
11.9001 1.3592 -5.2446
11.8976 2.4504 -5.3189
11.8950 3.5822 -5.4395
32.6196 20.4825 -16.8654
29.3455 22.3127 -16.1419
29.7806 27.1643 -17.6498
-2.1352 8.6717 -3.9105
11.3240 -6.7512 -5.7728
11.9166 -5.7302 -5.7898
11.9136 -4.4683 -5.5714
11.9109 -3.2891 -5.4106
11.9083 -2.1674 -5.2999
11.9060 -1.0821 -5.2347
11.9034 -0.0148 -5.2121
11.9008 1.0518 -5.2313
11.8983 2.1350 -5.2931
11.8957 3.2531 -5.4000
15.3087 9.0752 -7.7925
31.0442 22.3751 -16.7560
28.8111 24.9605 -16.6913
4.7099 8.6357 -4.3071
1.2385 8.6795 -3.8390
11.9128 -7.5217 -6.1690
11.9174 -6.1106 -5.8642
11.9144 -4.8197 -5.6276
11.9117 -3.6196 -5.4512
11.9090 -2.4837 -5.3268
11.9065 -1.3900 -5.2489
11.9046 -0.3194 -5.2145
11.9015 0.7457 -5.2215
11.8990 1.8223 -5.2710
11.8965 2.9285 -5.3646
11.8938 4.0840 -5.5064
31.9672 21.8203 -16.9474
27.4072 22.5435 -15.5388
27.1840 26.7703 -16.7058
4.9625 8.5698 -4.3362
4.1290 8.8742 -4.2857
11.9183 -6.5012 -5.9446
11.9153 -5.1784 -5.6887
11.9124 -3.9553 -5.4961
11.9098 -2.8035 -5.3574
11.9072 -1.6997 -5.2666
11.9052 -0.6244 -5.2201
11.9022 0.4406 -5.2152
11.8998 1.5121 -5.2524
11.8972 2.6079 -5.3331
11.8946 3.7471 -5.4606
9.3120 6.0130 -4.8536
29.3390 22.9002 -16.2967
9.1717 8.5813 -5.4997
4.3153 8.6866 -4.2471
-2.2520 8.6714 -3.9229
9.3670 -13.7246 -7.2758
11.3445 -6.5701 -5.7403
11.9161 -5.5452 -5.7550
11.9132 -4.2968 -5.5453
11.9105 -3.1272 -5.3920
11.9079 -2.0118 -5.2880
11.9058 -0.9302 -5.2290
11.9029 0.1360 -5.2123
11.9005 1.2039 -5.2374
11.8980 2.2909 -5.3054
11.8953 3.4155 -5.4190
32.3943 19.7628 -16.6156
29.3527 21.7263 -15.9903
28.9482 25.7286 -16.9583
1.1377 8.7664 -3.8707
11.4798 -7.0465 -5.8981
11.9170 -5.9209 -5.8266
11.9140 -4.6447 -5.5992
11.9113 -3.4553 -5.4306
11.9087 -2.3266 -5.3130
11.9061 -1.2372 -5.2414
11.9043 -0.1685 -5.2130
11.9012 0.8972 -5.2259
11.8987 1.9769 -5.2815
11.8961 3.0887 -5.3816
11.8934 4.2531 -5.5307
31.8287 22.3221 -17.0225
26.3982 22.2802 -15.1256
4.8335 8.5965 -4.3183
1.3530 8.6798 -3.8465
11.9179 -6.3064 -5.9040
11.9149 -4.9997 -5.6578
11.9121 -3.7883 -5.4733
11.9094 -2.6446 -5.3418
11.9068 -1.5460 -5.2574
11.9049 -0.4732 -5.2169
11.9019 0.5917 -5.2179
11.8994 1.6655 -5.2612
11.8969 2.7662 -5.3482
11.8942 3.9133 -5.4827
9.2007 6.1077 -4.8355
28.4960 22.8289 -15.9877
9.1212 8.7534 -5.5355
5.1060 8.5610 -4.3647
4.1788 8.6863 -4.2207
-17.7101 -2.2483 -7.8169
11.3643 -6.3907 -5.7089
11.9157 -5.3624 -5.7215
11.9128 -4.1269 -5.5204
11.9101 -2.9663 -5.3744
11.9076 -1.8569 -5.2770
11.9055 -0.7785 -5.2242
11.9026 0.2869 -5.2133
11.9001 1.3564 -5.2444
11.8976 2.4475 -5.3187
11.8950 3.5792 -5.4391
32.6155 20.4693 -16.8608
29.3456 22.3019 -16.1391
29.7889 27.1591 -17.6510
-2.1330 8.6717 -3.9102
11.3237 -6.7547 -5.7734
11.9166 -5.7336 -5.7904
11.9136 -4.4715 -5.5719
11.9109 -3.2922 -5.4109
11.9083 -2.1703 -5.3001
11.9060 -1.0850 -5.2349
11.9035 -0.0176 -5.2121
11.9008 1.0490 -5.2312
11.8983 2.1321 -5.2929
11.8957 3.2501 -5.3997
15.3060 9.0688 -7.7901
31.0438 22.3636 -16.7530
28.8241 24.9600 -16.6955
4.7121 8.6348 -4.3072
1.2405 8.6795 -3.8391
11.9129 -7.5257 -6.1699
11.9174 -6.1141 -5.8649
11.9133 -7.7349 -6.1155
11.9179 -6.3028 -5.8046
11.9149 -4.9964 -5.5627
11.9120 -3.7852 -5.3814
11.9094 -2.6417 -5.2522
11.9068 -1.5432 -5.1693
11.9065 -0.4704 -5.1303
11.9019 0.5944 -5.1307
11.8994 1.6684 -5.1734
11.8968 2.7692 -5.2591
11.8942 3.9164 -5.3915
9.1994 6.1100 -4.7548
28.2334 22.6295 -15.5785
9.1226 8.7589 -5.4450
5.1162 8.5826 -4.3019
4.1763 8.6863 -4.1497
-17.7095 -2.2525 -7.6862
11.9188 -6.6988 -5.8866
11.9157 -5.3590 -5.6252
11.9128 -4.1237 -5.4276
11.9101 -2.9633 -5.2842
11.9076 -1.8540 -5.1885
11.9070 -0.7758 -5.1374
11.9026 0.2896 -5.1261
11.9001 1.3592 -5.1569
11.8976 2.4504 -5.2300
11.8950 3.5822 -5.3485
32.8300 20.6146 -16.6904
29.2602 22.2479 -15.8259
28.1072 25.6379 -16.3795
-2.1352 8.6717 -3.8451
9.2143 -13.8753 -7.1712
11.9800 -7.1424 -6.0051
11.9166 -5.7302 -5.6930
11.9136 -4.4683 -5.4783
11.9109 -3.2891 -5.3201
11.9083 -2.1674 -5.2113
11.9076 -1.0823 -5.1479
11.9034 -0.0148 -5.1250
11.9008 1.0518 -5.1438
11.8983 2.1349 -5.2046
11.8957 3.2531 -5.3097
15.3056 9.0734 -7.6607
29.2768 21.1012 -15.5378
28.6638 24.8329 -16.3284
1.2385 8.6795 -3.7748
11.3280 -7.1525 -5.7681
11.9174 -6.1106 -5.7662
11.9144 -4.8197 -5.5335
11.9117 -3.6196 -5.3601
11.9090 -2.4837 -5.2377
11.9065 -1.3900 -5.1611
11.9062 -0.3194 -5.1280
11.9015 0.7457 -5.1342
11.8990 1.8223 -5.1828
11.8965 2.9285 -5.2749
11.8938 4.0840 -5.4143
31.9940 21.8386 -16.6780
27.1805 22.3571 -15.1527
27.2556 26.8408 -16.4697
4.9904 8.6180 -4.2877
4.1290 8.8742 -4.2141
11.9139 -7.9556 -6.1680
11.9183 -6.5012 -5.8452
11.9153 -5.1784 -5.5936
11.9124 -3.9553 -5.4042
11.9098 -2.8035 -5.2679
11.9072 -1.6997 -5.1786
11.9068 -0.6244 -5.1335
11.9022 0.4406 -5.1280
11.8998 1.5121 -5.1646
11.8972 2.6079 -5.2439
11.8946 3.7471 -5.3693
9.3116 6.0128 -4.7723
29.2530 22.8330 -15.9772
9.1717 8.5813 -5.4078
5.2556 8.5633 -4.3259
4.3153 8.6866 -4.1761
-2.2520 8.6714 -3.8573
9.3501 -13.6998 -7.1412
12.0706 -6.9906 -6.0056
11.9161 -5.5452 -5.6587
11.9132 -4.2968 -5.4526
11.9105 -3.1272 -5.3018
11.9079 -2.0118 -5.1996
11.9073 -0.9303 -5.1423
11.9029 0.1360 -5.1251
11.9005 1.2039 -5.1499
11.8980 2.2908 -5.2167
11.8953 3.4155 -5.3284
32.6000 19.8883 -16.4416
29.2682 21.6637 -15.6777
29.0025 25.7768 -16.7060
1.1377 8.7664 -3.8060
11.3497 -6.9666 -5.7337
11.9170 -5.9209 -5.7292
11.9140 -4.6447 -5.5056
11.9113 -3.4553 -5.3398
11.9087 -2.3266 -5.2242
11.9061 -1.2372 -5.1537
11.9058 -0.1685 -5.1265
11.9012 0.8972 -5.1386
11.8987 1.9769 -5.1932
11.8961 3.0887 -5.2916
11.8934 4.2531 -5.4382
30.9983 21.7397 -16.3012
27.7583 23.4282 -15.6390
26.5497 26.8167 -16.2472
1.3530 8.6798 -3.7822
11.9133 -7.7389 -6.1165
11.9179 -6.3064 -5.8053
11.9149 -4.9997 -5.5632
11.9121 -3.7883 -5.3818
11.9094 -2.6446 -5.2524
11.9068 -1.5460 -5.1695
11.9065 -0.4732 -5.1303
11.9019 0.5917 -5.1306
11.8994 1.6655 -5.1732
11.8969 2.7662 -5.2588
11.8942 3.9133 -5.3910
9.2004 6.1075 -4.7546
28.2536 22.6347 -15.5867
9.1212 8.7534 -5.4429
5.1186 8.5821 -4.3023
4.1788 8.6863 -4.1501
-17.7077 -2.2480 -7.6852
11.9188 -6.7025 -5.8873
11.9157 -5.3624 -5.6258
11.9128 -4.1269 -5.4281
11.9101 -2.9663 -5.2845
11.9076 -1.8569 -5.1887
11.9070 -0.7787 -5.1375
11.9026 0.2869 -5.1261
11.9001 1.3564 -5.1567
11.8976 2.4475 -5.2297
11.8950 3.5792 -5.3482
32.8258 20.6012 -16.6858
29.2603 22.2371 -15.8231
28.1231 25.6403 -16.3853
-2.1330 8.6717 -3.8449
9.2201 -13.8911 -7.1783
11.9783 -7.1452 -6.0051
11.9166 -5.7336 -5.6936
11.9136 -4.4715 -5.4788
11.9109 -3.2922 -5.3205
11.9083 -2.1703 -5.2115
11.9076 -1.0851 -5.1480
11.9035 -0.0176 -5.1250
11.9008 1.0490 -5.1437
11.8983 2.1320 -5.2044
11.8957 3.2501 -5.3094
15.3029 9.0670 -7.6583
29.2769 21.0908 -15.5353
28.6767 24.8323 -16.3324
1.2405 8.6795 -3.7749
11.3276 -7.1559 -5.7687
11.9174 -6.1141 -5.7669
11.9133 -7.7349 -6.0121
11.9179 -6.3028 -5.7064
11.9149 -4.9964 -5.4686
11.9120 -3.7852 -5.2904
11.9094 -2.6417 -5.1633
11.9068 -1.5432 -5.0819
12.0196 -0.4749 -5.0914
11.9019 0.5944 -5.0439
11.9033 1.6689 -5.0875
11.8968 2.7692 -5.1701
11.8942 3.9164 -5.3003
9.1992 6.1098 -4.6742
27.9967 22.4398 -15.1866
9.1226 8.7589 -5.3529
5.1546 8.6471 -4.2610
4.1763 8.6863 -4.0795
-10.4250 17.5833 -8.6521
-17.7071 -2.2522 -7.5552
11.9144 -8.1761 -6.1161
11.9188 -6.6988 -5.7870
11.9157 -5.3590 -5.5301
11.9128 -4.1237 -5.3358
11.9101 -2.9633 -5.1948
11.9076 -1.8540 -5.1008
12.0203 -0.7832 -5.0986
11.9026 0.2896 -5.0394
11.9001 1.3592 -5.0696
11.8976 2.4504 -5.1415
11.8950 3.5822 -5.2581
33.0419 20.7477 -16.5140
29.1758 22.1838 -15.5133
28.1587 25.6848 -16.1320
5.4065 8.5639 -4.2867
-2.1352 8.6717 -3.7800
9.2670 -13.9546 -7.0902
12.0871 -7.2062 -5.9563
11.9166 -5.7302 -5.5967
11.9136 -4.4683 -5.3856
11.9109 -3.2891 -5.2301
11.9083 -2.1674 -5.1232
11.9081 -1.0823 -5.0610
11.9034 -0.0148 -5.0383
11.9008 1.0518 -5.0568
11.8983 2.1350 -5.1166
11.8957 3.2530 -5.2199
15.3026 9.0716 -7.5296
29.1939 21.0415 -15.2318
28.8723 25.0135 -16.1689
1.2385 8.6795 -3.7109
11.9966 -7.5746 -6.0052
11.9174 -6.1106 -5.6687
11.9144 -4.8196 -5.4399
11.9117 -3.6196 -5.2694
11.9090 -2.4837 -5.1491
11.9065 -1.3900 -5.0738
12.0193 -0.3225 -5.0891
11.9015 0.7457 -5.0474
11.8991 1.8223 -5.0952
11.8965 2.9285 -5.1857
11.8938 4.0840 -5.3227
32.0208 21.8568 -16.4096
26.9588 22.1747 -14.7748
27.3273 26.9114 -16.2337
4.1290 8.8742 -4.1428
11.9139 -7.9556 -6.0637
11.9183 -6.5012 -5.7463
11.9153 -5.1784 -5.4990
11.9124 -3.9553 -5.3128
11.9098 -2.8035 -5.1787
11.9072 -1.6997 -5.0910
12.0200 -0.6304 -5.0946
11.9022 0.4406 -5.0412
11.8998 1.5121 -5.0772
11.8972 2.6079 -5.1552
11.8946 3.7471 -5.2784
9.3113 6.0126 -4.6914
29.1678 22.7666 -15.6612
9.1717 8.5813 -5.3163
5.2717 8.5895 -4.2657
4.3153 8.6866 -4.1054
-2.2520 8.6714 -3.7920
9.3501 -13.6998 -7.0204
11.9149 -8.4047 -6.1716
12.0867 -6.9999 -5.9119
11.9161 -5.5452 -5.5630
11.9132 -4.2968 -5.3604
11.9105 -3.1272 -5.2122
11.9079 -2.0118 -5.1116
12.0207 -0.9392 -5.1034
11.9029 0.1360 -5.0384
11.9005 1.2039 -5.0627
11.8980 2.2908 -5.1285
11.8953 3.4155 -5.2383
15.9822 9.7502 -7.9242
29.1846 21.6019 -15.3685
29.0567 25.8250 -16.4541
1.1377 8.7664 -3.7416
12.0876 -7.4196 -6.0032
11.9170 -5.9209 -5.6323
11.9140 -4.6447 -5.4124
11.9113 -3.4553 -5.2494
11.9087 -2.3266 -5.1358
11.9061 -1.2372 -5.0666
12.0189 -0.1701 -5.0877
11.9012 0.8972 -5.0516
11.8987 1.9769 -5.1053
11.8961 3.0887 -5.2021
11.8934 4.2531 -5.3462
30.9726 21.7217 -16.0122
27.6634 23.3481 -15.3219
26.6185 26.8862 -16.0138
1.3530 8.6798 -3.7182
11.9133 -7.7389 -6.0130
11.9179 -6.3064 -5.7071
11.9149 -4.9997 -5.4691
11.9121 -3.7883 -5.2908
11.9094 -2.6446 -5.1636
11.9068 -1.5460 -5.0820
12.0196 -0.4777 -5.0915
11.9019 0.5917 -5.0439
11.9037 1.6661 -5.0875
11.8969 2.7662 -5.1698
11.8942 3.9133 -5.2999
9.2002 6.1074 -4.6740
28.0165 22.4449 -15.1945
9.1212 8.7534 -5.3509
5.1567 8.6460 -4.2610
4.1788 8.6863 -4.0799
-10.4200 17.5842 -8.6514
-17.7053 -2.2477 -7.5541
11.9144 -8.1802 -6.1171
11.9188 -6.7025 -5.7878
11.9157 -5.3624 -5.5307
11.9128 -4.1269 -5.3363
11.9101 -2.9663 -5.1951
11.9076 -1.8569 -5.1010
12.0203 -0.7861 -5.0986
11.9026 0.2869 -5.0394
11.9001 1.3564 -5.0695
11.8976 2.4475 -5.1413
11.8950 3.5792 -5.2577
33.0376 20.7342 -16.5094
29.1760 22.1730 -15.5106
28.1747 25.6873 -16.1377
5.4091 8.5636 -4.2872
-2.1330 8.6717 -3.7798
9.2637 -13.9568 -7.0902
12.0872 -7.2101 -5.9571
11.9166 -5.7336 -5.5973
11.9136 -4.4715 -5.3861
11.9109 -3.2922 -5.2305
11.9083 -2.1703 -5.1234
11.9081 -1.0851 -5.0611
11.9035 -0.0176 -5.0383
11.9008 1.0490 -5.0567
11.8983 2.1321 -5.1163
11.8957 3.2501 -5.2196
15.2999 9.0652 -7.5273
29.1941 21.0311 -15.2293
28.8834 25.0113 -16.1719
1.2405 8.6795 -3.7111
11.9948 -7.5774 -6.0052
11.9174 -6.1141 -5.6693
12.0886 -7.8487 -5.9961
11.9179 -6.3028 -5.6087
11.9149 -4.9964 -5.3750
11.9120 -3.7852 -5.1998
11.9094 -2.6417 -5.0750
11.9068 -1.5432 -4.9949
12.0196 -0.4749 -5.0043
11.9019 0.5944 -4.9576
12.0269 1.6862 -5.0523
11.9106 2.7724 -5.0875
11.8943 3.9164 -5.2096
9.1989 6.1096 -4.5941
27.7651 22.2541 -14.8032
9.1226 8.7589 -5.2613
4.1763 8.6863 -4.0096
-10.4784 17.6733 -8.5475
-17.7047 -2.2519 -7.4248
11.9144 -8.1761 -6.0115
11.9188 -6.6988 -5.6879
11.9157 -5.3590 -5.4354
11.9129 -4.1238 -5.2445
11.9101 -2.9633 -5.1059
11.9076 -1.8540 -5.0135
12.0203 -0.7832 -5.0113
11.9026 0.2896 -4.9532
11.9001 1.3592 -4.9829
11.9775 2.4669 -5.0875
11.8952 3.5822 -5.1681
33.2555 20.8818 -16.3362
29.0924 22.1203 -15.2042
27.1068 24.7254 -15.2635
5.4231 8.5902 -4.2263
-2.1352 8.6717 -3.7153
9.2143 -13.8753 -6.9293
11.9154 -8.6332 -6.1214
12.0871 -7.2062 -5.8543
11.9166 -5.7302 -5.5009
11.9136 -4.4683 -5.2934
11.9109 -3.2891 -5.1406
11.9083 -2.1674 -5.0355
11.9081 -1.0823 -4.9744
11.9034 -0.0148 -4.9520
11.9008 1.0518 -4.9703
12.0246 2.1576 -5.0823
11.8960 3.2531 -5.1307
15.2996 9.0699 -7.3993
29.1119 20.9824 -14.9290
28.8336 24.9800 -15.8709
1.2385 8.6795 -3.6474
12.0881 -7.6324 -5.9474
11.9174 -6.1106 -5.5716
11.9144 -4.8197 -5.3468
11.9117 -3.6196 -5.1792
11.9090 -2.4837 -5.0610
11.9065 -1.3900 -4.9870
12.0193 -0.3225 -5.0020
11.9015 0.7457 -4.9610
12.0261 1.8418 -5.0614
11.8968 2.9286 -5.0971
11.8938 4.0840 -5.2316
32.0475 21.8750 -16.1421
28.6537 23.5689 -15.4350
27.3989 26.9819 -15.9976
4.1290 8.8742 -4.0719
-10.7018 17.5396 -8.5478
12.0045 -8.0162 -6.0052
11.9183 -6.5012 -5.6480
11.9153 -5.1784 -5.4049
11.9124 -3.9553 -5.2218
11.9098 -2.8035 -5.0901
11.9072 -1.6997 -5.0038
12.0200 -0.6304 -5.0074
11.9022 0.4406 -4.9549
11.8998 1.5121 -4.9903
11.9454 2.6184 -5.0875
11.8947 3.7471 -5.1882
9.3110 6.0124 -4.6109
29.0836 22.7009 -15.3487
9.1717 8.5813 -5.2253
5.3103 8.6524 -4.2234
4.3153 8.6866 -4.0352
-2.2520 8.6714 -3.7271
-10.2528 17.8128 -8.5503
9.3501 -13.6998 -6.9003
11.9149 -8.4047 -6.0659
12.0867 -6.9999 -5.8107
11.9161 -5.5452 -5.4678
11.9132 -4.2968 -5.2686
11.9105 -3.1272 -5.1229
11.9079 -2.0118 -5.0241
12.0207 -0.9392 -5.0161
11.9029 0.1360 -4.9522
11.9005 1.2039 -4.9761
12.0083 2.3121 -5.0874
11.8956 3.4156 -5.1488
16.2708 9.9263 -7.9292
29.1020 21.5407 -15.0627
29.0118 25.7851 -16.1475
5.5624 8.5639 -4.2483
1.1377 8.7664 -3.6776
11.9160 -8.8703 -6.1800
12.0876 -7.4196 -5.9005
11.9170 -5.9209 -5.5359
11.9140 -4.6447 -5.3198
11.9113 -3.4553 -5.1596
11.9087 -2.3266 -5.0479
11.9061 -1.2372 -4.9798
12.0189 -0.1701 -5.0006
11.9012 0.8972 -4.9652
12.0253 1.9979 -5.0713
11.8964 3.0888 -5.1132
11.8934 4.2531 -5.2547
30.9472 21.7039 -15.7252
27.5696 23.2689 -15.0086
26.6874 26.9557 -15.7804
1.3530 8.6798 -3.6546
-11.0455 17.5974 -8.6435
12.0886 -7.8527 -5.9970
11.9179 -6.3064 -5.6094
11.9149 -4.9997 -5.3755
11.9121 -3.7883 -5.2002
11.9094 -2.6446 -5.0752
11.9068 -1.5460 -4.9951
12.0196 -0.4777 -5.0043
11.9019 0.5917 -4.9575
12.0269 1.6834 -5.0522
11.9113 2.7696 -5.0875
11.8943 3.9133 -5.2092
9.1999 6.1072 -4.5939
27.7847 22.2591 -14.8108
9.1212 8.7534 -5.2593
4.1788 8.6863 -4.0101
-10.4745 17.6761 -8.5478
-17.7029 -2.2474 -7.4238
11.9144 -8.1802 -6.0124
11.9188 -6.7025 -5.6887
11.9157 -5.3624 -5.4360
11.9129 -4.1269 -5.2449
11.9101 -2.9663 -5.1062
11.9076 -1.8569 -5.0136
12.0203 -0.7861 -5.0114
11.9026 0.2869 -4.9531
11.9001 1.3564 -4.9827
11.9781 2.4641 -5.0875
11.8952 3.5792 -5.1678
33.2511 20.8681 -16.3317
29.0926 22.1096 -15.2016
27.1306 24.7354 -15.2737
5.4254 8.5894 -4.2265
-2.1330 8.6717 -3.7151
9.2201 -13.8911 -6.9361
11.9154 -8.6375 -6.1225
12.0872 -7.2101 -5.8552
11.9166 -5.7336 -5.5015
11.9136 -4.4715 -5.2939
11.9109 -3.2922 -5.1410
11.9083 -2.1703 -5.0357
11.9081 -1.0851 -4.9745
11.9035 -0.0176 -4.9521
11.9008 1.0490 -4.9702
12.0246 2.1547 -5.0821
11.8960 3.2501 -5.1304
15.2971 9.0636 -7.3971
29.1121 20.9720 -14.9266
28.8447 24.9778 -15.8738
1.2405 8.6795 -3.6475
12.0881 -7.6364 -5.9483
11.9174 -6.1141 -5.5723
11.9171 -9.3496 -6.1923
12.0886 -7.8487 -5.8922
11.9179 -6.3028 -5.5115
11.9149 -4.9964 -5.2819
11.9120 -3.7852 -5.1097
11.9094 -2.6417 -4.9870
11.9068 -1.5432 -4.9084
12.0196 -0.4749 -4.9176
11.9019 0.5944 -4.8717
12.0269 1.6862 -4.9648
12.0214 2.7982 -5.0459
11.8948 3.9166 -5.1195
9.1986 6.1094 -4.5144
28.6221 22.9411 -14.9957
9.1226 8.7589 -5.1701
4.1763 8.6863 -3.9402
-10.6518 17.9657 -8.5384
-17.7023 -2.2516 -7.2952
12.0897 -8.2964 -5.9942
11.9188 -6.6988 -5.5894
11.9157 -5.3590 -5.3413
11.9142 -4.1242 -5.1542
11.9101 -2.9633 -5.0174
11.9076 -1.8540 -4.9266
12.0203 -0.7832 -4.9245
11.9026 0.2896 -4.8674
11.9001 1.3592 -4.8965
12.0229 2.4762 -5.0183
11.9160 3.5885 -5.0875
16.8417 10.5752 -8.1299
29.0099 22.0576 -14.8984
27.3139 24.9143 -15.1137
5.4628 8.6530 -4.1834
-2.1352 8.6717 -3.6510
9.2403 -13.9143 -6.8284
11.9154 -8.6332 -6.0154
12.0871 -7.2062 -5.7529
11.9166 -5.7302 -5.4056
11.9144 -4.4686 -5.2021
11.9109 -3.2891 -5.0515
11.9083 -2.1674 -4.9482
11.9081 -1.0823 -4.8882
11.9034 -0.0148 -4.8662
11.9008 1.0518 -4.8842
12.0245 2.1576 -4.9942
12.0037 3.2826 -5.0874
15.2966 9.0681 -7.2697
29.0308 20.9239 -14.6295
28.7952 24.9467 -15.5751
5.7180 8.5640 -4.2097
1.2385 8.6795 -3.5842
-11.3719 17.6087 -8.5693
11.9165 -9.1076 -6.1315
12.0881 -7.6324 -5.8444
11.9174 -6.1106 -5.4751
11.9144 -4.8196 -5.2542
11.9117 -3.6196 -5.0895
11.9090 -2.4837 -4.9733
11.9065 -1.3900 -4.9006
12.0193 -0.3225 -4.9154
11.9015 0.7457 -4.8750
12.0260 1.8418 -4.9737
12.0206 2.9590 -5.0609
11.8943 4.0842 -5.1412
30.9038 21.0944 -15.2964
28.5547 23.4874 -15.1151
27.4705 27.0524 -15.7616
4.1290 8.8742 -4.0013
-10.8643 17.8058 -8.5272
12.0892 -8.0727 -5.9428
11.9183 -6.5012 -5.5501
11.9153 -5.1784 -5.3112
11.9124 -3.9553 -5.1314
11.9098 -2.8035 -5.0019
11.9072 -1.6997 -4.9171
12.0200 -0.6304 -4.9206
11.9022 0.4406 -4.8691
11.8998 1.5121 -4.9039
12.0222 2.6353 -5.0315
11.8952 3.7473 -5.0985
9.3107 6.0122 -4.5309
29.0003 22.6359 -15.0396
9.1717 8.5813 -5.1348
4.3153 8.6866 -3.9652
-2.2520 8.6714 -3.6626
9.3684 -13.7267 -6.7940
12.0036 -8.4673 -6.0052
12.0867 -6.9999 -5.7100
11.9161 -5.5452 -5.3731
11.9145 -4.2973 -5.1779
11.9105 -3.1272 -5.0342
11.9079 -2.0118 -4.9371
12.0207 -0.9392 -4.9292
11.9029 0.1360 -4.8664
11.9005 1.2039 -4.8899
12.0237 2.3151 -5.0057
11.9613 3.4345 -5.0875
33.2267 20.2706 -15.9117
29.0202 21.4801 -14.7601
28.9628 25.7415 -15.8410
5.5789 8.5894 -4.1871
1.1377 8.7664 -3.6139
11.9160 -8.8703 -6.0729
12.0876 -7.4196 -5.7982
11.9170 -5.9209 -5.4400
11.9144 -4.6448 -5.2278
11.9113 -3.4553 -5.0702
11.9087 -2.3266 -4.9604
11.9061 -1.2372 -4.8936
12.0189 -0.1701 -4.9140
11.9012 0.8972 -4.8791
12.0253 1.9979 -4.9834
12.0198 3.1208 -5.0768
11.8938 4.2532 -5.1639
30.2924 21.2446 -15.1258
27.4769 23.1907 -14.6990
26.7562 27.0252 -15.5470
1.3530 8.6798 -3.5912
-11.0635 17.6261 -8.5076
11.9171 -9.3542 -6.1934
12.0886 -7.8527 -5.8931
11.9179 -6.3064 -5.5122
11.9149 -4.9997 -5.2824
11.9121 -3.7883 -5.1101
11.9094 -2.6446 -4.9873
11.9068 -1.5460 -4.9085
12.0196 -0.4777 -4.9176
11.9019 0.5917 -4.8716
12.0269 1.6834 -4.9646
12.0214 2.7952 -5.0456
11.8948 3.9135 -5.1191
9.1996 6.1070 -4.5142
28.6395 22.9439 -15.0020
9.1212 8.7534 -5.1682
4.1788 8.6863 -3.9406
-10.6478 17.9686 -8.5386
-17.7005 -2.2471 -7.2942
12.0897 -8.3006 -5.9952
11.9188 -6.7025 -5.5901
11.9157 -5.3624 -5.3418
11.9143 -4.1274 -5.1547
11.9101 -2.9663 -5.0177
11.9076 -1.8569 -4.9268
12.0203 -0.7861 -4.9245
11.9026 0.2869 -4.8673
11.9001 1.3564 -4.8964
12.0230 2.4733 -5.0180
11.9168 3.5858 -5.0875
16.8324 10.5639 -8.1242
29.0101 22.0469 -14.8958
27.3381 24.9246 -15.1238
5.4647 8.6516 -4.1833
-2.1330 8.6717 -3.6508
9.2370 -13.9165 -6.8284
11.9154 -8.6375 -6.0164
12.0872 -7.2101 -5.7537
11.9166 -5.7336 -5.4062
11.9144 -4.4718 -5.2025
11.9109 -3.2922 -5.0519
11.9083 -2.1703 -4.9484
11.9081 -1.0851 -4.8883
11.9035 -0.0176 -4.8663
11.9008 1.0490 -4.8841
12.0245 2.1547 -4.9940
12.0045 3.2798 -5.0874
15.2953 9.0625 -7.2681
29.0310 20.9136 -14.6271
28.8063 24.9446 -15.5780
5.7207 8.5637 -4.2102
1.2405 8.6795 -3.5843
-11.3654 17.6077 -8.5675
11.9165 -9.1121 -6.1326
12.0881 -7.6364 -5.8453
11.9174 -6.1141 -5.4758
11.9171 -9.3496 -6.0836
12.0886 -7.8487 -5.7889
11.9179 -6.3028 -5.4149
11.9159 -4.9968 -5.1897
11.9120 -3.7852 -5.0201
11.9094 -2.6417 -4.8995
11.9068 -1.5432 -4.8223
12.0196 -0.4749 -4.8313
11.9019 0.5944 -4.7862
12.0269 1.6862 -4.8777
12.0213 2.7981 -4.9573
12.0157 3.9564 -5.0809
9.1984 6.1093 -4.4350
29.8537 23.9282 -15.3666
9.1226 8.7589 -5.0794
4.1763 8.6863 -3.8710
-23.0069 1.2038 -9.2531
-23.0021 -0.8541 -9.2449
-17.7000 -2.2513 -7.1663
11.9183 -9.8532 -6.2109
12.0897 -8.2964 -5.8891
11.9188 -6.6988 -5.4913
11.9157 -5.3590 -5.2476
11.9142 -4.1242 -5.0638
11.9101 -2.9633 -4.9294
11.9076 -1.8540 -4.8402
12.0203 -0.7832 -4.8381
11.9026 0.2896 -4.7820
11.9001 1.3592 -4.8106
12.0229 2.4762 -4.9302
12.0174 3.6190 -5.0408
34.3287 21.5556 -16.2805
28.9282 21.9955 -14.5958
27.5232 25.1052 -14.9623
-2.1352 8.6717 -3.5869
-23.0083 1.7949 -9.2691
-23.0035 -0.2655 -9.2397
-22.9987 -2.3293 -9.2844
12.0907 -8.7602 -5.9968
12.0871 -7.2062 -5.6520
11.9166 -5.7302 -5.3108
11.9301 -4.4745 -5.1175
11.9109 -3.2891 -4.9629
11.9083 -2.1674 -4.8614
11.9081 -1.0823 -4.8025
11.9034 -0.0148 -4.7809
11.9008 1.0518 -4.7985
12.0244 2.1576 -4.9066
12.0190 3.2867 -5.0045
15.2936 9.0663 -7.1407
30.9157 22.2825 -15.3060
28.7572 24.9137 -15.2817
5.7346 8.5888 -4.1478
1.2510 8.7677 -3.5571
-11.4631 17.7500 -8.4865
-23.0048 0.3229 -9.2406
-23.0001 -1.7366 -9.2640
11.9165 -9.1076 -6.0240
12.0881 -7.6324 -5.7419
11.9174 -6.1106 -5.3791
11.9160 -4.8203 -5.1627
11.9117 -3.6196 -5.0002
11.9090 -2.4837 -4.8861
11.9065 -1.3900 -4.8146
12.0193 -0.3225 -4.8291
11.9015 0.7457 -4.7895
12.0260 1.8418 -4.8864
12.0205 2.9590 -4.9720
11.9802 4.1137 -5.0875
32.4498 22.1497 -15.7799
28.4568 23.4069 -14.7990
27.5421 27.1230 -15.5255
4.1290 8.8742 -3.9311
-23.0062 0.9117 -9.2475
-23.0014 -1.1461 -9.2497
11.9177 -9.6011 -6.1467
12.0892 -8.0727 -5.8385
11.9183 -6.5012 -5.4527
11.9153 -5.1784 -5.2181
11.9124 -3.9553 -5.0413
11.9098 -2.8035 -4.9142
11.9072 -1.6997 -4.8309
12.0200 -0.6304 -4.8343
11.9022 0.4406 -4.7837
11.8998 1.5121 -4.8178
12.0221 2.6353 -4.9432
