ply
format ascii 1.0
element vertex 2176
property float32 x
property float32 y
property float32 z
end_header
-0.7931 -0.2659 0.3602
-0.7632 -0.3343 0.3587
-0.7275 -0.3996 0.3574
-0.6864 -0.4612 0.3561
-0.6403 -0.5189 0.3548
-0.5896 -0.5722 0.3537
-0.5346 -0.6207 0.3527
-0.4758 -0.6642 0.3518
-0.4137 -0.7024 0.3510
-0.3487 -0.7351 0.3503
-0.2812 -0.7621 0.3497
-0.2118 -0.7831 0.3493
-0.1409 -0.7982 0.3490
-0.0691 -0.8071 0.3488
0.0033 -0.8099 0.3487
0.0756 -0.8066 0.3488
0.1473 -0.7971 0.3490
0.2181 -0.7815 0.3493
0.2873 -0.7599 0.3498
0.3546 -0.7324 0.3503
0.4194 -0.6992 0.3510
0.4812 -0.6605 0.3518
0.5397 -0.6165 0.3528
0.5943 -0.5675 0.3538
0.6446 -0.5138 0.3549
0.6902 -0.4558 0.3561
0.7308 -0.3938 0.3574
0.7660 -0.3282 0.3588
0.7954 -0.2596 0.3602
0.8188 -0.1883 0.3617
0.8359 -0.1150 0.3633
0.8465 -0.0401 0.3648
0.8503 0.0358 0.3664
0.8474 0.1120 0.3680
0.8377 0.1880 0.3696
0.8210 0.2632 0.3712
0.7976 0.3368 0.3728
0.7674 0.4083 0.3743
0.7307 0.4770 0.3757
0.6877 0.5423 0.3771
0.6387 0.6035 0.3784
0.5841 0.6602 0.3795
0.5244 0.7117 0.3806
0.4599 0.7576 0.3816
0.3913 0.7974 0.3824
0.3191 0.8307 0.3831
0.2441 0.8571 0.3837
0.1668 0.8764 0.3841
0.0880 0.8883 0.3843
0.0083 0.8929 0.3844
-0.0714 0.8899 0.3844
-0.1505 0.8795 0.3842
-0.2282 0.8617 0.3838
-0.3037 0.8368 0.3833
-0.3766 0.8049 0.3826
-0.4460 0.7665 0.3818
-0.5114 0.7218 0.3809
-0.5722 0.6715 0.3798
-0.6279 0.6158 0.3786
-0.6781 0.5554 0.3774
-0.7223 0.4909 0.3760
-0.7604 0.4229 0.3746
-0.7919 0.3519 0.3731
-0.8168 0.2787 0.3716
-0.8349 0.2038 0.3700
-0.8461 0.1279 0.3684
-0.8504 0.0517 0.3668
-0.8479 -0.0244 0.3652
-0.8387 -0.0995 0.3636
-0.8230 -0.1732 0.3621
-0.8009 -0.2450 0.3606
-0.7727 -0.3142 0.3591
-0.7387 -0.3805 0.3578
-0.6992 -0.4432 0.3564
-0.6546 -0.5021 0.3552
-0.6052 -0.5568 0.3540
-0.5514 -0.6067 0.3530
-0.4937 -0.6518 0.3521
-0.4326 -0.6916 0.3512
-0.3683 -0.7260 0.3505
-0.3016 -0.7546 0.3499
-0.2327 -0.7775 0.3494
-0.1622 -0.7943 0.3491
-0.0906 -0.8051 0.3488
-0.0183 -0.8098 0.3487
0.0540 -0.8082 0.3488
0.1260 -0.8005 0.3489
0.1971 -0.7867 0.3492
0.2669 -0.7669 0.3496
0.3348 -0.7412 0.3502
0.4004 -0.7097 0.3508
0.4631 -0.6726 0.3516
0.5226 -0.6301 0.3525
0.5784 -0.5826 0.3535
0.6301 -0.5303 0.3546
0.6771 -0.4735 0.3558
0.7193 -0.4127 0.3570
0.7561 -0.3481 0.3584
0.7873 -0.2804 0.3598
0.8125 -0.2098 0.3613
0.8315 -0.1371 0.3628
0.8440 -0.0626 0.3644
0.8499 0.0131 0.3660
0.8490 0.0893 0.3676
0.8413 0.1654 0.3692
0.8267 0.2409 0.3707
0.8053 0.3150 0.3723
0.7771 0.3872 0.3738
0.7423 0.4568 0.3753
0.7012 0.5232 0.3767
0.6539 0.5857 0.3780
0.6010 0.6438 0.3792
0.5427 0.6969 0.3803
0.4796 0.7446 0.3813
0.4122 0.7862 0.3822
0.3410 0.8214 0.3829
0.2667 0.8499 0.3835
0.1900 0.8714 0.3840
0.1116 0.8855 0.3843
0.0321 0.8923 0.3844
-0.0477 0.8916 0.3844
-0.1270 0.8834 0.3842
-0.2052 0.8678 0.3839
-0.2815 0.8449 0.3834
-0.3552 0.8151 0.3828
-0.4257 0.7786 0.3821
-0.4923 0.7358 0.3812
-0.5545 0.6871 0.3801
-0.6118 0.6329 0.3790
-0.6637 0.5739 0.3778
-0.7098 0.5106 0.3764
-0.7497 0.4435 0.3750
-0.7832 0.3734 0.3736
-0.8101 0.3007 0.3720
-0.8302 0.2263 0.3705
-0.8435 0.1506 0.3689
-0.8498 0.0744 0.3673
-0.8494 -0.0018 0.3657
-0.8422 -0.0772 0.3641
-0.8284 -0.1514 0.3626
-0.8081 -0.2238 0.3610
-0.7817 -0.2939 0.3596
-0.7494 -0.3611 0.3582
-0.7115 -0.4249 0.3568
-0.6684 -0.4850 0.3556
-0.6204 -0.5409 0.3544
-0.5679 -0.5923 0.3533
-0.5113 -0.6389 0.3523
-0.4511 -0.6803 0.3515
-0.3878 -0.7163 0.3507
-0.3217 -0.7467 0.3501
-0.2534 -0.7713 0.3495
-0.1833 -0.7899 0.3491
-0.1120 -0.8025 0.3489
-0.0399 -0.8090 0.3487
0.0325 -0.8093 0.3487
0.1046 -0.8035 0.3489
0.1760 -0.7915 0.3491
0.2462 -0.7735 0.3495
0.3148 -0.7495 0.3500
0.3811 -0.7197 0.3506
0.4447 -0.6842 0.3513
0.5053 -0.6433 0.3522
0.5622 -0.5973 0.3532
0.6151 -0.5464 0.3542
0.6636 -0.4909 0.3554
0.7073 -0.4312 0.3566
0.7457 -0.3677 0.3580
0.7786 -0.3009 0.3594
0.8056 -0.2311 0.3608
0.8265 -0.1590 0.3624
0.8409 -0.0849 0.3639
0.8488 -0.0096 0.3655
0.8500 0.0665 0.3671
0.8443 0.1428 0.3687
0.8318 0.2185 0.3703
0.8124 0.2931 0.3718
0.7862 0.3659 0.3734
0.7534 0.4364 0.3748
0.7141 0.5038 0.3763
0.6686 0.5675 0.3776
0.6173 0.6270 0.3788
0.5606 0.6817 0.3800
0.4989 0.7310 0.3810
0.4327 0.7744 0.3819
0.3626 0.8116 0.3827
0.2892 0.8422 0.3834
0.2131 0.8657 0.3839
0.1351 0.8821 0.3842
0.0559 0.8911 0.3844
-0.0239 0.8926 0.3844
-0.1034 0.8866 0.3843
-0.1820 0.8732 0.3840
-0.2590 0.8525 0.3836
-0.3335 0.8247 0.3830
-0.4050 0.7902 0.3823
-0.4729 0.7492 0.3814
-0.5365 0.7022 0.3805
-0.5953 0.6496 0.3794
-0.6488 0.5920 0.3781
-0.6967 0.5299 0.3768
-0.7385 0.4639 0.3755
-0.7739 0.3946 0.3740
-0.8028 0.3226 0.3725
-0.8249 0.2486 0.3709
-0.8402 0.1733 0.3694
-0.8487 0.0971 0.3678
-0.8502 0.0209 0.3662
-0.8450 -0.0548 0.3646
-0.8332 -0.1295 0.3630
-0.8148 -0.2025 0.3615
-0.7902 -0.2733 0.3600
-0.7597 -0.3414 0.3586
-0.7234 -0.4062 0.3572
-0.6818 -0.4675 0.3559
-0.6352 -0.5247 0.3547
-0.5840 -0.5775 0.3536
-0.5286 -0.6255 0.3526
-0.4694 -0.6685 0.3517
-0.4070 -0.7062 0.3509
-0.3417 -0.7382 0.3502
-0.2740 -0.7646 0.3497
-0.2044 -0.7850 0.3492
-0.1334 -0.7994 0.3489
-0.0615 -0.8077 0.3488
0.0109 -0.8099 0.3487
0.0832 -0.8059 0.3488
0.1548 -0.7957 0.3490
0.2255 -0.7795 0.3494
0.2945 -0.7572 0.3498
0.3616 -0.7291 0.3504
0.4261 -0.6954 0.3511
0.4876 -0.6561 0.3519
0.5456 -0.6116 0.3529
0.5998 -0.5621 0.3539
0.6496 -0.5079 0.3550
0.6948 -0.4494 0.3563
0.7348 -0.3870 0.3576
0.7694 -0.3211 0.3590
0.7982 -0.2522 0.3604
0.8209 -0.1807 0.3619
0.8373 -0.1072 0.3634
0.8472 -0.0321 0.3650
0.8504 0.0438 0.3666
0.8467 0.1201 0.3682
0.8362 0.1960 0.3698
0.8189 0.2710 0.3714
0.7947 0.3444 0.3729
0.7638 0.4157 0.3744
0.7265 0.4840 0.3758
0.6828 0.5489 0.3772
0.6332 0.6097 0.3785
0.5781 0.6659 0.3797
0.5178 0.7169 0.3807
0.4529 0.7621 0.3817
0.3838 0.8012 0.3825
0.3114 0.8338 0.3832
0.2360 0.8594 0.3837
0.1585 0.8780 0.3841
0.0796 0.8892 0.3844
-0.0001 0.8929 0.3844
-0.0798 0.8892 0.3844
-0.1587 0.8780 0.3841
-0.2362 0.8594 0.3837
-0.3116 0.8337 0.3832
-0.3841 0.8012 0.3825
-0.4531 0.7621 0.3817
-0.5180 0.7168 0.3808
-0.5783 0.6658 0.3797
-0.6334 0.6097 0.3785
-0.6830 0.5488 0.3772
-0.7267 0.4839 0.3759
-0.7640 0.4155 0.3744
-0.7949 0.3443 0.3730
-0.8190 0.2708 0.3714
-0.8364 0.1958 0.3698
-0.8469 0.1199 0.3682
-0.8505 0.0436 0.3667
-0.8473 -0.0323 0.3651
-0.8374 -0.1074 0.3635
-0.8210 -0.1809 0.3619
-0.7982 -0.2524 0.3604
-0.7694 -0.3214 0.3590
-0.7348 -0.3873 0.3576
-0.6947 -0.4496 0.3563
-0.6496 -0.5081 0.3551
-0.5997 -0.5623 0.3539
-0.5455 -0.6117 0.3529
-0.4874 -0.6562 0.3520
-0.4259 -0.6955 0.3511
-0.3614 -0.7293 0.3504
-0.2944 -0.7573 0.3498
-0.2253 -0.7795 0.3494
-0.1547 -0.7958 0.3490
-0.0830 -0.8059 0.3488
-0.0107 -0.8099 0.3487
0.0616 -0.8077 0.3488
0.1336 -0.7994 0.3489
0.2046 -0.7849 0.3492
0.2741 -0.7645 0.3497
0.3418 -0.7381 0.3502
0.4071 -0.7060 0.3509
0.4696 -0.6684 0.3517
0.5287 -0.6254 0.3526
0.5841 -0.5773 0.3536
0.6353 -0.5245 0.3547
0.6818 -0.4673 0.3559
0.7234 -0.4060 0.3572
0.7597 -0.3411 0.3585
0.7902 -0.2730 0.3600
0.8148 -0.2023 0.3614
0.8331 -0.1293 0.3630
0.8449 -0.0546 0.3645
0.8501 0.0211 0.3661
0.8485 0.0973 0.3677
0.8401 0.1734 0.3693
0.8248 0.2488 0.3709
0.8026 0.3228 0.3725
0.7737 0.3947 0.3740
0.7383 0.4640 0.3754
0.6965 0.5300 0.3768
0.6486 0.5921 0.3781
0.5951 0.6497 0.3793
0.5363 0.7022 0.3804
0.4727 0.7492 0.3814
0.4048 0.7902 0.3823
0.3333 0.8248 0.3830
0.2587 0.8525 0.3836
0.1818 0.8732 0.3840
0.1032 0.8866 0.3843
0.0237 0.8926 0.3844
-0.0561 0.8911 0.3844
-0.1353 0.8821 0.3842
-0.2133 0.8657 0.3839
-0.2894 0.8421 0.3834
-0.3628 0.8116 0.3827
-0.4329 0.7744 0.3820
-0.4991 0.7309 0.3811
-0.5608 0.6816 0.3800
-0.6176 0.6269 0.3789
-0.6688 0.5674 0.3776
-0.7143 0.5037 0.3763
-0.7536 0.4362 0.3749
-0.7864 0.3658 0.3734
-0.8125 0.2929 0.3719
-0.8319 0.2183 0.3703
-0.8445 0.1426 0.3687
-0.8501 0.0663 0.3671
-0.8489 -0.0098 0.3655
-0.8410 -0.0851 0.3639
-0.8265 -0.1592 0.3624
-0.8056 -0.2313 0.3609
-0.7786 -0.3011 0.3594
-0.7457 -0.3680 0.3580
-0.7072 -0.4314 0.3567
-0.6636 -0.4911 0.3554
-0.6151 -0.5466 0.3543
-0.5621 -0.5975 0.3532
-0.5051 -0.6435 0.3522
-0.4446 -0.6844 0.3514
-0.3809 -0.7198 0.3506
-0.3146 -0.7496 0.3500
-0.2461 -0.7735 0.3495
-0.1759 -0.7916 0.3491
-0.1044 -0.8035 0.3489
-0.0323 -0.8093 0.3487
0.0401 -0.8090 0.3487
0.1122 -0.8025 0.3489
0.1835 -0.7899 0.3491
0.2536 -0.7712 0.3495
0.3219 -0.7466 0.3500
0.3879 -0.7162 0.3507
0.4513 -0.6801 0.3514
0.5114 -0.6387 0.3523
0.5680 -0.5922 0.3533
0.6205 -0.5407 0.3543
0.6684 -0.4848 0.3555
0.7116 -0.4247 0.3568
0.7494 -0.3608 0.3581
0.7817 -0.2937 0.3595
0.8081 -0.2236 0.3610
0.8283 -0.1512 0.3625
0.8421 -0.0770 0.3641
0.8493 -0.0016 0.3657
0.8497 0.0746 0.3672
0.8433 0.1508 0.3688
0.8301 0.2264 0.3704
0.8099 0.3009 0.3720
0.7830 0.3735 0.3735
0.7495 0.4436 0.3750
0.7096 0.5107 0.3764
0.6635 0.5740 0.3777
0.6116 0.6330 0.3790
0.5543 0.6871 0.3801
0.4921 0.7358 0.3811
0.4255 0.7787 0.3820
0.3550 0.8152 0.3828
0.2813 0.8450 0.3834
0.2050 0.8678 0.3839
0.1268 0.8834 0.3842
0.0475 0.8916 0.3844
-0.0323 0.8923 0.3844
-0.1118 0.8855 0.3843
-0.1902 0.8714 0.3840
-0.2669 0.8499 0.3835
-0.3412 0.8214 0.3830
-0.4124 0.7862 0.3822
-0.4798 0.7445 0.3813
-0.5429 0.6969 0.3803
-0.6012 0.6437 0.3792
-0.6541 0.5856 0.3780
-0.7014 0.5231 0.3767
-0.7425 0.4567 0.3753
-0.7773 0.3871 0.3739
-0.8054 0.3149 0.3723
-0.8269 0.2407 0.3708
-0.8414 0.1652 0.3692
-0.8492 0.0891 0.3676
-0.8500 0.0129 0.3660
-0.8441 -0.0628 0.3644
-0.8315 -0.1373 0.3629
-0.8125 -0.2101 0.3613
-0.7873 -0.2806 0.3598
-0.7561 -0.3484 0.3584
-0.7193 -0.4129 0.3571
-0.6771 -0.4737 0.3558
-0.6300 -0.5305 0.3546
-0.5783 -0.5828 0.3535
-0.5225 -0.6303 0.3525
-0.4630 -0.6727 0.3516
-0.4002 -0.7098 0.3508
-0.3346 -0.7413 0.3502
-0.2667 -0.7670 0.3496
-0.1969 -0.7868 0.3492
-0.1258 -0.8006 0.3489
-0.0538 -0.8082 0.3488
0.0185 -0.8097 0.3487
0.0908 -0.8051 0.3488
0.1624 -0.7943 0.3490
0.2328 -0.7774 0.3494
0.3017 -0.7545 0.3499
0.3685 -0.7258 0.3505
0.4327 -0.6915 0.3512
0.4939 -0.6516 0.3520
0.5515 -0.6066 0.3530
0.6053 -0.5566 0.3540
0.6546 -0.5019 0.3552
0.6992 -0.4430 0.3564
0.7387 -0.3802 0.3577
0.7727 -0.3140 0.3591
0.8009 -0.2448 0.3606
0.8229 -0.1730 0.3621
0.8387 -0.0993 0.3636
0.8478 -0.0242 0.3652
0.8503 0.0518 0.3668
0.8459 0.1281 0.3684
0.8347 0.2040 0.3700
0.8167 0.2788 0.3715
0.7918 0.3521 0.3731
0.7602 0.4230 0.3746
0.7221 0.4911 0.3760
0.6779 0.5555 0.3773
0.6277 0.6159 0.3786
0.5720 0.6715 0.3798
0.5112 0.7219 0.3808
0.4458 0.7665 0.3818
0.3764 0.8050 0.3826
0.3035 0.8368 0.3833
0.2279 0.8617 0.3838
0.1503 0.8795 0.3842
0.0712 0.8899 0.3844
-0.0085 0.8929 0.3844
-0.0882 0.8883 0.3843
-0.1670 0.8763 0.3841
-0.2443 0.8570 0.3837
-0.3194 0.8306 0.3831
-0.3915 0.7973 0.3824
-0.4601 0.7576 0.3816
-0.5246 0.7117 0.3807
-0.5844 0.6601 0.3796
-0.6389 0.6034 0.3784
-0.6879 0.5422 0.3771
-0.7309 0.4769 0.3757
-0.7676 0.4081 0.3743
-0.7977 0.3366 0.3728
-0.8212 0.2630 0.3713
-0.8378 0.1879 0.3697
-0.8476 0.1118 0.3681
-0.8505 0.0356 0.3665
-0.8465 -0.0403 0.3649
-0.8360 -0.1152 0.3633
-0.8189 -0.1886 0.3618
-0.7954 -0.2598 0.3603
-0.7660 -0.3285 0.3588
-0.7308 -0.3940 0.3575
-0.6902 -0.4560 0.3562
-0.6445 -0.5140 0.3549
-0.5942 -0.5677 0.3538
-0.5396 -0.6167 0.3528
-0.4811 -0.6606 0.3519
-0.4192 -0.6993 0.3511
-0.3544 -0.7325 0.3504
-0.2872 -0.7600 0.3498
-0.2179 -0.7815 0.3493
-0.1471 -0.7971 0.3490
-0.0754 -0.8066 0.3488
-0.0031 -0.8099 0.3487
0.0693 -0.8071 0.3488
0.1411 -0.7981 0.3490
0.2120 -0.7831 0.3493
0.2814 -0.7620 0.3497
0.3488 -0.7350 0.3503
0.4138 -0.7023 0.3510
0.4760 -0.6641 0.3518
0.5347 -0.6205 0.3527
0.4672 -0.6541 0.3520
0.5251 -0.6114 0.3529
0.5792 -0.5636 0.3539
0.6291 -0.5113 0.3550
0.6745 -0.4546 0.3562
0.7149 -0.3940 0.3574
0.7500 -0.3298 0.3588
0.7795 -0.2626 0.3602
0.8031 -0.1927 0.3616
0.8205 -0.1208 0.3632
0.8315 -0.0473 0.3647
0.8360 0.0273 0.3663
0.8338 0.1022 0.3678
0.8249 0.1770 0.3694
0.8091 0.2510 0.3710
0.7867 0.3235 0.3725
0.7577 0.3940 0.3740
0.7223 0.4618 0.3754
0.6806 0.5263 0.3767
0.6330 0.5870 0.3780
0.5799 0.6431 0.3792
0.5217 0.6943 0.3803
0.4588 0.7399 0.3812
0.3918 0.7796 0.3821
0.3212 0.8130 0.3828
0.2477 0.8396 0.3833
0.1720 0.8593 0.3837
0.0946 0.8718 0.3840
0.0164 0.8771 0.3841
-0.0619 0.8749 0.3841
-0.1397 0.8655 0.3839
-0.2162 0.8488 0.3835
-0.2907 0.8250 0.3830
-0.3626 0.7945 0.3824
-0.4312 0.7574 0.3816
-0.4959 0.7142 0.3807
-0.5562 0.6653 0.3797
-0.6115 0.6111 0.3785
-0.6614 0.5523 0.3773
-0.7056 0.4894 0.3760
-0.7437 0.4229 0.3746
-0.7755 0.3534 0.3731
-0.8007 0.2816 0.3716
-0.8192 0.2082 0.3701
-0.8310 0.1337 0.3685
-0.8360 0.0587 0.3670
-0.8343 -0.0161 0.3654
-0.8260 -0.0901 0.3638
-0.8113 -0.1628 0.3623
-0.7903 -0.2336 0.3608
-0.7632 -0.3020 0.3594
-0.7304 -0.3675 0.3580
-0.6922 -0.4297 0.3567
-0.6488 -0.4881 0.3555
-0.6007 -0.5423 0.3544
-0.5483 -0.5920 0.3533
-0.4919 -0.6369 0.3524
-0.4321 -0.6766 0.3515
-0.3692 -0.7110 0.3508
-0.3038 -0.7399 0.3502
-0.2362 -0.7630 0.3497
-0.1670 -0.7802 0.3493
-0.0966 -0.7914 0.3491
-0.0256 -0.7966 0.3490
0.0457 -0.7958 0.3490
0.1166 -0.7888 0.3492
0.1866 -0.7759 0.3494
0.2554 -0.7570 0.3498
0.3225 -0.7322 0.3503
0.3872 -0.7018 0.3510
0.4493 -0.6659 0.3517
0.5082 -0.6246 0.3526
0.5635 -0.5784 0.3536
0.6147 -0.5273 0.3546
0.6615 -0.4719 0.3558
0.7034 -0.4124 0.3570
0.7401 -0.3493 0.3584
0.7714 -0.2829 0.3598
0.7967 -0.2138 0.3612
0.8160 -0.1424 0.3627
0.8289 -0.0693 0.3642
0.8354 0.0050 0.3658
0.8352 0.0799 0.3674
0.8282 0.1548 0.3689
0.8145 0.2290 0.3705
0.7941 0.3021 0.3720
0.7670 0.3732 0.3735
0.7335 0.4419 0.3750
0.6937 0.5075 0.3763
0.6478 0.5693 0.3776
0.5963 0.6269 0.3788
0.5396 0.6796 0.3799
0.4780 0.7269 0.3809
0.4121 0.7684 0.3818
0.3426 0.8037 0.3826
0.2699 0.8324 0.3832
0.1947 0.8542 0.3836
0.1178 0.8689 0.3839
0.0398 0.8763 0.3841
-0.0386 0.8763 0.3841
-0.1166 0.8691 0.3839
-0.1936 0.8545 0.3836
-0.2687 0.8328 0.3832
-0.3415 0.8043 0.3826
-0.4111 0.7691 0.3819
-0.4770 0.7277 0.3810
-0.5387 0.6804 0.3800
-0.5955 0.6278 0.3789
-0.6471 0.5703 0.3777
-0.6931 0.5085 0.3764
-0.7330 0.4430 0.3750
-0.7667 0.3744 0.3736
-0.7938 0.3032 0.3721
-0.8144 0.2302 0.3706
-0.8282 0.1559 0.3690
-0.8352 0.0811 0.3674
-0.8355 0.0062 0.3659
-0.8292 -0.0682 0.3643
-0.8164 -0.1413 0.3628
-0.7972 -0.2127 0.3613
-0.7719 -0.2819 0.3598
-0.7408 -0.3483 0.3584
-0.7041 -0.4115 0.3571
-0.6622 -0.4711 0.3558
-0.6155 -0.5266 0.3547
-0.5643 -0.5777 0.3536
-0.5091 -0.6240 0.3526
-0.4503 -0.6653 0.3518
-0.3883 -0.7013 0.3510
-0.3235 -0.7319 0.3504
-0.2565 -0.7567 0.3498
-0.1877 -0.7757 0.3494
-0.1177 -0.7887 0.3492
-0.0468 -0.7957 0.3490
0.0244 -0.7967 0.3490
0.0955 -0.7915 0.3491
0.1659 -0.7804 0.3493
0.2351 -0.7632 0.3497
0.3027 -0.7402 0.3502
0.3682 -0.7115 0.3508
0.4311 -0.6771 0.3515
0.4910 -0.6375 0.3523
0.5474 -0.5927 0.3533
0.5999 -0.5430 0.3543
0.6480 -0.4889 0.3554
0.6914 -0.4306 0.3567
0.7298 -0.3685 0.3580
0.7626 -0.3030 0.3593
0.7898 -0.2347 0.3608
0.8109 -0.1639 0.3622
0.8258 -0.0913 0.3638
0.8341 -0.0173 0.3653
0.8359 0.0575 0.3669
0.8310 0.1325 0.3685
0.8193 0.2070 0.3700
0.8009 0.2805 0.3716
0.7758 0.3522 0.3731
0.7442 0.4217 0.3745
0.7062 0.4883 0.3759
0.6621 0.5513 0.3773
0.6122 0.6102 0.3785
0.5570 0.6644 0.3796
0.4968 0.7134 0.3807
0.4322 0.7567 0.3816
0.3637 0.7939 0.3824
0.2918 0.8246 0.3830
0.2174 0.8484 0.3835
0.1409 0.8653 0.3839
0.0631 0.8748 0.3841
-0.0152 0.8771 0.3841
-0.0934 0.8720 0.3840
-0.1708 0.8596 0.3837
-0.2465 0.8400 0.3833
-0.3201 0.8135 0.3828
-0.3907 0.7803 0.3821
-0.4578 0.7407 0.3813
-0.5208 0.6951 0.3803
-0.5791 0.6440 0.3792
-0.6323 0.5879 0.3781
-0.6800 0.5274 0.3768
-0.7217 0.4629 0.3754
-0.7573 0.3951 0.3740
-0.7864 0.3247 0.3725
-0.8090 0.2521 0.3710
-0.8248 0.1782 0.3695
-0.8338 0.1034 0.3679
-0.8361 0.0285 0.3663
-0.8318 -0.0461 0.3648
-0.8209 -0.1197 0.3632
-0.8035 -0.1916 0.3617
-0.7801 -0.2615 0.3602
-0.7506 -0.3288 0.3588
-0.7156 -0.3930 0.3575
-0.6752 -0.4537 0.3562
-0.6299 -0.5105 0.3550
-0.5800 -0.5629 0.3539
-0.5260 -0.6107 0.3529
-0.4682 -0.6535 0.3520
-0.4071 -0.6912 0.3512
-0.3431 -0.7233 0.3505
-0.2767 -0.7499 0.3500
-0.2084 -0.7706 0.3496
-0.1387 -0.7854 0.3492
-0.0680 -0.7943 0.3491
0.0032 -0.7970 0.3490
0.0743 -0.7937 0.3491
0.1450 -0.7843 0.3493
0.2146 -0.7690 0.3496
0.2827 -0.7477 0.3500
0.3489 -0.7206 0.3506
0.4127 -0.6880 0.3513
0.4735 -0.6498 0.3521
0.5310 -0.6065 0.3530
0.5847 -0.5583 0.3540
0.6341 -0.5055 0.3551
0.6790 -0.4484 0.3563
0.7189 -0.3874 0.3576
0.7534 -0.3229 0.3589
0.7823 -0.2553 0.3603
0.8052 -0.1852 0.3618
0.8220 -0.1131 0.3633
0.8323 -0.0394 0.3649
0.8361 0.0352 0.3664
0.8332 0.1101 0.3680
0.8235 0.1848 0.3696
0.8071 0.2587 0.3711
0.7840 0.3311 0.3726
0.7543 0.4013 0.3741
0.7182 0.4688 0.3755
0.6759 0.5329 0.3769
0.6277 0.5931 0.3781
0.5740 0.6488 0.3793
0.5153 0.6994 0.3804
0.4519 0.7444 0.3813
0.3845 0.7835 0.3821
0.3136 0.8161 0.3828
0.2398 0.8420 0.3834
0.1639 0.8610 0.3838
0.0864 0.8727 0.3840
0.0082 0.8772 0.3841
-0.0702 0.8743 0.3841
-0.1478 0.8641 0.3838
-0.2242 0.8466 0.3835
-0.2984 0.8221 0.3830
-0.3700 0.7909 0.3823
-0.4382 0.7531 0.3815
-0.5025 0.7093 0.3806
-0.5622 0.6598 0.3796
-0.6170 0.6052 0.3784
-0.6664 0.5459 0.3772
-0.7099 0.4825 0.3759
-0.7474 0.4157 0.3745
-0.7784 0.3459 0.3730
-0.8029 0.2740 0.3715
-0.8208 0.2004 0.3699
-0.8318 0.1258 0.3684
-0.8362 0.0508 0.3668
-0.8338 -0.0239 0.3652
-0.8248 -0.0979 0.3637
-0.8094 -0.1704 0.3622
-0.7877 -0.2409 0.3607
-0.7600 -0.3091 0.3592
-0.7266 -0.3742 0.3579
-0.6878 -0.4360 0.3566
-0.6439 -0.4940 0.3554
-0.5954 -0.5477 0.3542
-0.5425 -0.5969 0.3532
-0.4858 -0.6413 0.3523
-0.4256 -0.6805 0.3514
-0.3624 -0.7143 0.3507
-0.2967 -0.7426 0.3501
-0.2289 -0.7650 0.3497
-0.1596 -0.7816 0.3493
-0.0891 -0.7923 0.3491
-0.0180 -0.7968 0.3490
0.0532 -0.7953 0.3490
0.1240 -0.7878 0.3492
0.1940 -0.7742 0.3495
0.2626 -0.7546 0.3499
0.3294 -0.7293 0.3504
0.3939 -0.6983 0.3511
0.4557 -0.6618 0.3518
0.5142 -0.6200 0.3527
0.5691 -0.5732 0.3537
0.6198 -0.5217 0.3547
0.6661 -0.4658 0.3559
0.7075 -0.4059 0.3572
0.7437 -0.3424 0.3585
0.7743 -0.2758 0.3599
0.7990 -0.2064 0.3614
0.8177 -0.1348 0.3629
0.8299 -0.0615 0.3644
0.8357 0.0129 0.3660
0.8347 0.0878 0.3675
0.8271 0.1626 0.3691
0.8127 0.2368 0.3707
0.7916 0.3097 0.3722
0.7638 0.3806 0.3737
0.7296 0.4490 0.3751
0.6891 0.5142 0.3765
0.6426 0.5756 0.3778
0.5906 0.6327 0.3790
0.5333 0.6848 0.3801
0.4712 0.7316 0.3810
0.4050 0.7725 0.3819
0.3350 0.8071 0.3826
0.2621 0.8350 0.3832
0.1867 0.8561 0.3837
0.1096 0.8700 0.3840
0.0315 0.8766 0.3841
-0.0468 0.8759 0.3841
-0.1248 0.8679 0.3839
-0.2016 0.8526 0.3836
-0.2765 0.8301 0.3831
-0.3490 0.8009 0.3825
-0.4182 0.7650 0.3818
-0.4837 0.7230 0.3809
-0.5449 0.6751 0.3799
-0.6012 0.6220 0.3788
-0.6522 0.5640 0.3776
-0.6976 0.5018 0.3763
-0.7369 0.4359 0.3749
-0.7698 0.3670 0.3734
-0.7963 0.2956 0.3719
-0.8162 0.2224 0.3704
-0.8292 0.1481 0.3688
-0.8356 0.0731 0.3673
-0.8352 -0.0017 0.3657
-0.8282 -0.0759 0.3641
-0.8146 -0.1489 0.3626
-0.7948 -0.2201 0.3611
-0.7689 -0.2890 0.3597
-0.7372 -0.3551 0.3583
-0.6999 -0.4180 0.3570
-0.6575 -0.4771 0.3557
-0.6103 -0.5322 0.3546
-0.5587 -0.5828 0.3535
-0.5031 -0.6286 0.3525
-0.4439 -0.6694 0.3517
-0.3816 -0.7048 0.3509
-0.3165 -0.7347 0.3503
-0.2493 -0.7590 0.3498
-0.1804 -0.7773 0.3494
-0.1102 -0.7897 0.3491
-0.0393 -0.7961 0.3490
0.0319 -0.7964 0.3490
0.1029 -0.7906 0.3491
0.1732 -0.7789 0.3494
0.2423 -0.7611 0.3497
0.3097 -0.7375 0.3502
0.3750 -0.7081 0.3508
0.4376 -0.6732 0.3516
0.4971 -0.6330 0.3524
0.5531 -0.5877 0.3534
0.6052 -0.5375 0.3544
0.6528 -0.4829 0.3556
0.6957 -0.4242 0.3568
0.7335 -0.3617 0.3581
0.7658 -0.2959 0.3595
0.7923 -0.2273 0.3609
0.8128 -0.1563 0.3624
0.8269 -0.0835 0.3639
0.8346 -0.0094 0.3655
0.8357 0.0654 0.3671
0.8301 0.1404 0.3686
0.8177 0.2148 0.3702
0.7986 0.2881 0.3717
0.7728 0.3597 0.3732
0.7405 0.4289 0.3747
0.7018 0.4951 0.3761
0.6571 0.5577 0.3774
0.6067 0.6161 0.3786
0.5509 0.6698 0.3797
0.4902 0.7182 0.3808
0.4251 0.7609 0.3817
0.3562 0.7974 0.3824
0.2841 0.8274 0.3831
0.2094 0.8505 0.3835
0.1327 0.8666 0.3839
0.0549 0.8754 0.3841
-0.0235 0.8769 0.3841
-0.1016 0.8710 0.3840
-0.1788 0.8579 0.3837
-0.2544 0.8376 0.3833
-0.3277 0.8103 0.3827
-0.3980 0.7764 0.3820
-0.4646 0.7361 0.3812
-0.5272 0.6900 0.3802
-0.5850 0.6383 0.3791
-0.6376 0.5817 0.3779
-0.6847 0.5207 0.3767
-0.7258 0.4559 0.3753
-0.7607 0.3878 0.3739
-0.7891 0.3171 0.3724
-0.8109 0.2444 0.3709
-0.8261 0.1703 0.3693
-0.8344 0.0955 0.3677
-0.8360 0.0206 0.3662
-0.8309 -0.0539 0.3646
-0.8193 -0.1273 0.3631
-0.8014 -0.1991 0.3616
-0.7772 -0.2688 0.3601
-0.7472 -0.3358 0.3587
-0.7116 -0.3996 0.3573
-0.6707 -0.4599 0.3561
-0.6249 -0.5162 0.3549
-0.5745 -0.5682 0.3538
-0.5201 -0.6155 0.3528
-0.4619 -0.6578 0.3519
-0.4004 -0.6948 0.3511
-0.3362 -0.7264 0.3505
-0.2696 -0.7523 0.3499
-0.2011 -0.7725 0.3495
-0.1312 -0.7867 0.3492
-0.0605 -0.7948 0.3490
0.0107 -0.7970 0.3490
0.0818 -0.7930 0.3491
0.1524 -0.7830 0.3493
0.2219 -0.7670 0.3496
0.2898 -0.7451 0.3501
0.3558 -0.7174 0.3506
0.4192 -0.6842 0.3513
0.4797 -0.6455 0.3522
0.5368 -0.6017 0.3531
0.5901 -0.5530 0.3541
0.6391 -0.4997 0.3552
0.6834 -0.4421 0.3564
0.7228 -0.3807 0.3577
0.7567 -0.3159 0.3591
0.7850 -0.2480 0.3605
0.8073 -0.1777 0.3620
0.8234 -0.1054 0.3635
0.8330 -0.0316 0.3650
0.8361 0.0431 0.3666
0.8325 0.1180 0.3682
0.8221 0.1927 0.3697
0.8050 0.2664 0.3713
0.7812 0.3386 0.3728
0.7508 0.4086 0.3743
0.7140 0.4757 0.3757
0.6710 0.5395 0.3770
0.6223 0.5992 0.3783
0.5680 0.6543 0.3794
0.5088 0.7044 0.3805
0.4450 0.7488 0.3814
0.3771 0.7872 0.3822
0.3059 0.8192 0.3829
0.2319 0.8444 0.3834
0.1558 0.8626 0.3838
0.0782 0.8736 0.3840
-0.0001 0.8772 0.3841
-0.0784 0.8736 0.3840
-0.1560 0.8626 0.3838
-0.2321 0.8444 0.3834
-0.3061 0.8191 0.3829
-0.3774 0.7872 0.3822
-0.4452 0.7488 0.3814
-0.5090 0.7043 0.3805
-0.5682 0.6543 0.3795
-0.6225 0.5991 0.3783
-0.6712 0.5394 0.3770
-0.7142 0.4756 0.3757
-0.7509 0.4084 0.3743
-0.7813 0.3384 0.3728
-0.8051 0.2663 0.3713
-0.8222 0.1925 0.3698
-0.8326 0.1179 0.3682
-0.8362 0.0429 0.3666
-0.8331 -0.0318 0.3651
-0.8235 -0.1056 0.3635
-0.8074 -0.1779 0.3620
-0.7851 -0.2483 0.3605
-0.7568 -0.3161 0.3591
-0.7228 -0.3809 0.3577
-0.6834 -0.4423 0.3565
-0.6390 -0.4999 0.3552
-0.5900 -0.5532 0.3541
-0.5367 -0.6019 0.3531
-0.4796 -0.6457 0.3522
-0.4191 -0.6843 0.3514
-0.3556 -0.7176 0.3507
-0.2897 -0.7452 0.3501
-0.2217 -0.7671 0.3496
-0.1522 -0.7831 0.3493
-0.0816 -0.7930 0.3491
-0.0105 -0.7970 0.3490
0.0607 -0.7948 0.3490
0.1314 -0.7866 0.3492
0.2013 -0.7724 0.3495
0.2698 -0.7522 0.3499
0.3363 -0.7263 0.3505
0.4006 -0.6947 0.3511
0.4620 -0.6576 0.3519
0.5202 -0.6153 0.3528
0.5746 -0.5680 0.3538
0.6249 -0.5160 0.3549
0.6707 -0.4597 0.3560
0.7116 -0.3994 0.3573
0.7472 -0.3355 0.3586
0.7772 -0.2686 0.3601
0.8013 -0.1989 0.3615
0.8193 -0.1271 0.3630
0.8308 -0.0537 0.3646
0.8359 0.0208 0.3661
0.8343 0.0957 0.3677
0.8259 0.1705 0.3693
0.8108 0.2446 0.3708
0.7890 0.3173 0.3723
0.7605 0.3880 0.3738
0.7256 0.4560 0.3753
0.6845 0.5209 0.3766
0.6374 0.5818 0.3779
0.5848 0.6384 0.3791
0.5269 0.6900 0.3802
0.4644 0.7362 0.3811
0.3978 0.7764 0.3820
0.3275 0.8103 0.3827
0.2542 0.8376 0.3833
0.1786 0.8579 0.3837
0.1014 0.8710 0.3840
0.0233 0.8769 0.3841
-0.0551 0.8754 0.3841
-0.1329 0.8666 0.3839
-0.2096 0.8505 0.3836
-0.2843 0.8274 0.3831
-0.3564 0.7974 0.3824
-0.4253 0.7609 0.3817
-0.4904 0.7182 0.3808
-0.5511 0.6698 0.3798
-0.6069 0.6161 0.3787
-0.6573 0.5576 0.3774
-0.7020 0.4950 0.3761
-0.7406 0.4288 0.3747
-0.7730 0.3596 0.3733
-0.7987 0.2880 0.3718
-0.8179 0.2146 0.3702
-0.8302 0.1402 0.3687
-0.8358 0.0652 0.3671
-0.8347 -0.0096 0.3655
-0.8270 -0.0837 0.3640
-0.8128 -0.1565 0.3625
-0.7923 -0.2275 0.3610
-0.7658 -0.2962 0.3595
-0.7335 -0.3619 0.3581
-0.6957 -0.4244 0.3568
-0.6528 -0.4831 0.3556
-0.6051 -0.5377 0.3544
-0.5530 -0.5878 0.3534
-0.4970 -0.6331 0.3524
-0.4375 -0.6734 0.3516
-0.3748 -0.7082 0.3509
-0.3096 -0.7376 0.3502
-0.2421 -0.7612 0.3498
-0.1730 -0.7789 0.3494
-0.1028 -0.7907 0.3491
-0.0318 -0.7964 0.3490
0.0395 -0.7961 0.3490
0.1104 -0.7897 0.3491
0.1806 -0.7773 0.3494
0.2495 -0.7589 0.3498
0.3167 -0.7346 0.3503
0.3817 -0.7047 0.3509
0.4440 -0.6692 0.3517
0.5032 -0.6284 0.3525
0.5588 -0.5826 0.3535
0.6104 -0.5320 0.3545
0.6576 -0.4769 0.3557
0.7000 -0.4178 0.3569
0.7372 -0.3549 0.3582
0.7689 -0.2888 0.3596
0.7948 -0.2199 0.3611
0.8146 -0.1487 0.3626
0.8281 -0.0757 0.3641
0.8351 -0.0015 0.3657
0.8354 0.0733 0.3672
0.8291 0.1482 0.3688
0.8160 0.2226 0.3704
0.7962 0.2958 0.3719
0.7697 0.3671 0.3734
0.7367 0.4360 0.3748
0.6974 0.5019 0.3762
0.6520 0.5641 0.3775
0.6010 0.6220 0.3787
0.5447 0.6752 0.3799
0.4835 0.7230 0.3809
0.4180 0.7651 0.3817
0.3488 0.8009 0.3825
0.2763 0.8302 0.3831
0.2014 0.8526 0.3836
0.1246 0.8679 0.3839
0.0466 0.8759 0.3841
-0.0317 0.8766 0.3841
-0.1098 0.8700 0.3840
-0.1869 0.8561 0.3837
-0.2623 0.8350 0.3832
-0.3352 0.8070 0.3826
-0.4052 0.7724 0.3819
-0.4714 0.7315 0.3811
-0.5335 0.6848 0.3801
-0.5908 0.6326 0.3790
-0.6428 0.5755 0.3778
-0.6893 0.5141 0.3765
-0.7298 0.4489 0.3751
-0.7640 0.3805 0.3737
-0.7917 0.3095 0.3722
-0.8129 0.2366 0.3707
-0.8272 0.1625 0.3691
-0.8349 0.0876 0.3676
-0.8358 0.0127 0.3660
-0.8300 -0.0617 0.3644
-0.8177 -0.1350 0.3629
-0.7991 -0.2066 0.3614
-0.7743 -0.2760 0.3599
-0.7437 -0.3426 0.3585
-0.7075 -0.4061 0.3572
-0.6661 -0.4660 0.3560
-0.6198 -0.5219 0.3548
-0.5690 -0.5734 0.3537
-0.5141 -0.6202 0.3527
-0.4555 -0.6619 0.3518
-0.3938 -0.6984 0.3511
-0.3293 -0.7294 0.3504
-0.2624 -0.7547 0.3499
-0.1938 -0.7742 0.3495
-0.1238 -0.7878 0.3492
-0.0530 -0.7953 0.3490
0.0182 -0.7968 0.3490
0.0893 -0.7922 0.3491
0.1598 -0.7816 0.3493
0.2291 -0.7650 0.3497
0.2969 -0.7425 0.3501
0.3626 -0.7142 0.3507
0.4257 -0.6804 0.3514
0.4859 -0.6411 0.3522
0.5426 -0.5968 0.3532
0.5955 -0.5475 0.3542
0.6440 -0.4938 0.3553
0.6878 -0.4358 0.3565
0.7266 -0.3740 0.3578
0.7600 -0.3088 0.3592
0.7876 -0.2407 0.3606
0.8093 -0.1702 0.3621
0.8247 -0.0977 0.3636
0.8337 -0.0238 0.3652
0.8360 0.0510 0.3668
0.8317 0.1259 0.3683
0.8206 0.2005 0.3699
0.8028 0.2741 0.3714
0.7783 0.3461 0.3729
0.7472 0.4158 0.3744
0.7097 0.4826 0.3758
0.6662 0.5460 0.3771
0.6168 0.6052 0.3784
0.5620 0.6599 0.3795
0.5023 0.7093 0.3806
0.4380 0.7532 0.3815
0.3698 0.7909 0.3823
0.2982 0.8222 0.3829
0.2239 0.8466 0.3835
0.1476 0.8641 0.3838
0.0699 0.8743 0.3840
-0.0084 0.8772 0.3841
-0.0866 0.8727 0.3840
-0.1641 0.8610 0.3838
-0.2400 0.8420 0.3834
-0.3138 0.8161 0.3828
-0.3847 0.7834 0.3822
-0.4521 0.7444 0.3813
-0.5155 0.6993 0.3804
-0.5742 0.6487 0.3793
-0.6279 0.5930 0.3782
-0.6761 0.5328 0.3769
-0.7183 0.4687 0.3756
-0.7545 0.4012 0.3741
-0.7841 0.3309 0.3727
-0.8073 0.2585 0.3712
-0.8237 0.1847 0.3696
-0.8333 0.1099 0.3680
-0.8362 0.0350 0.3665
-0.8324 -0.0396 0.3649
-0.8221 -0.1133 0.3634
-0.8053 -0.1854 0.3618
-0.7823 -0.2555 0.3604
-0.7534 -0.3231 0.3590
-0.7189 -0.3876 0.3576
-0.6790 -0.4486 0.3563
-0.6341 -0.5057 0.3551
-0.5846 -0.5585 0.3540
-0.5309 -0.6067 0.3530
-0.4734 -0.6500 0.3521
-0.4125 -0.6881 0.3513
-0.3488 -0.7208 0.3506
-0.2826 -0.7478 0.3500
-0.2144 -0.7690 0.3496
-0.1448 -0.7844 0.3493
-0.0742 -0.7937 0.3491
-0.0030 -0.7970 0.3490
0.0681 -0.7942 0.3490
0.1389 -0.7854 0.3492
0.2086 -0.7705 0.3495
0.2769 -0.7498 0.3500
0.3432 -0.7232 0.3505
0.4072 -0.6910 0.3512
0.4683 -0.6534 0.3520
0.5261 -0.6105 0.3529
0.4598 -0.6437 0.3522
0.5167 -0.6016 0.3531
0.5699 -0.5546 0.3541
0.6190 -0.5031 0.3551
0.6636 -0.4473 0.3563
0.7034 -0.3876 0.3576
0.7379 -0.3245 0.3589
0.7668 -0.2583 0.3603
0.7900 -0.1896 0.3617
0.8071 -0.1188 0.3632
0.8178 -0.0465 0.3647
0.8222 0.0268 0.3662
0.8199 0.1005 0.3678
0.8111 0.1740 0.3693
0.7956 0.2468 0.3709
0.7735 0.3181 0.3724
0.7449 0.3873 0.3738
0.7100 0.4540 0.3752
0.6690 0.5174 0.3765
0.6222 0.5769 0.3778
0.5700 0.6321 0.3790
0.5127 0.6824 0.3800
0.4509 0.7272 0.3810
0.3850 0.7662 0.3818
0.3156 0.7989 0.3825
0.2434 0.8251 0.3830
0.1690 0.8444 0.3834
0.0930 0.8567 0.3837
0.0162 0.8619 0.3838
-0.0608 0.8598 0.3837
-0.1373 0.8505 0.3836
-0.2124 0.8341 0.3832
-0.2857 0.8108 0.3827
-0.3563 0.7807 0.3821
-0.4237 0.7443 0.3813
-0.4874 0.7019 0.3804
-0.5466 0.6539 0.3794
-0.6010 0.6007 0.3783
-0.6502 0.5429 0.3771
-0.6936 0.4810 0.3758
-0.7311 0.4157 0.3745
-0.7624 0.3474 0.3730
-0.7872 0.2769 0.3715
-0.8055 0.2047 0.3700
-0.8171 0.1314 0.3685
-0.8221 0.0577 0.3669
-0.8206 -0.0158 0.3654
-0.8125 -0.0886 0.3639
-0.7980 -0.1601 0.3624
-0.7774 -0.2298 0.3609
-0.7508 -0.2971 0.3595
-0.7186 -0.3616 0.3581
-0.6810 -0.4227 0.3569
-0.6384 -0.4802 0.3557
-0.5911 -0.5336 0.3545
-0.5395 -0.5825 0.3535
-0.4841 -0.6267 0.3526
-0.4252 -0.6659 0.3518
-0.3634 -0.6997 0.3510
-0.2989 -0.7281 0.3504
-0.2324 -0.7509 0.3500
-0.1643 -0.7678 0.3496
-0.0951 -0.7789 0.3494
-0.0251 -0.7841 0.3493
0.0449 -0.7832 0.3493
0.1147 -0.7764 0.3494
0.1837 -0.7636 0.3497
0.2514 -0.7450 0.3501
0.3174 -0.7206 0.3506
0.3811 -0.6907 0.3512
0.4422 -0.6553 0.3520
0.5001 -0.6147 0.3528
0.5544 -0.5691 0.3538
0.6048 -0.5189 0.3548
0.6508 -0.4643 0.3560
0.6920 -0.4058 0.3572
0.7282 -0.3436 0.3585
0.7588 -0.2783 0.3598
0.7837 -0.2103 0.3613
0.8026 -0.1401 0.3627
0.8153 -0.0682 0.3643
0.8216 0.0049 0.3658
0.8213 0.0785 0.3673
0.8144 0.1522 0.3689
0.8009 0.2252 0.3704
0.7808 0.2970 0.3719
0.7541 0.3669 0.3734
0.7211 0.4344 0.3748
0.6819 0.4988 0.3762
0.6368 0.5596 0.3774
0.5861 0.6161 0.3786
0.5303 0.6679 0.3797
0.4698 0.7144 0.3807
0.4050 0.7552 0.3815
0.3366 0.7898 0.3823
0.2652 0.8180 0.3829
0.1914 0.8394 0.3833
0.1158 0.8538 0.3836
0.0391 0.8611 0.3838
-0.0379 0.8611 0.3838
-0.1146 0.8540 0.3836
-0.1902 0.8397 0.3833
-0.2641 0.8184 0.3829
-0.3356 0.7904 0.3823
-0.4040 0.7558 0.3816
-0.4688 0.7152 0.3807
-0.5294 0.6687 0.3798
-0.5853 0.6171 0.3787
-0.6361 0.5606 0.3775
-0.6813 0.4999 0.3762
-0.7206 0.4355 0.3749
-0.7537 0.3681 0.3735
-0.7805 0.2981 0.3720
-0.8007 0.2264 0.3705
-0.8144 0.1533 0.3690
-0.8213 0.0797 0.3674
-0.8217 0.0060 0.3659
-0.8155 -0.0670 0.3643
-0.8030 -0.1390 0.3628
-0.7842 -0.2093 0.3613
-0.7593 -0.2773 0.3599
-0.7288 -0.3427 0.3585
-0.6927 -0.4049 0.3572
-0.6516 -0.4635 0.3560
-0.6056 -0.5181 0.3549
-0.5553 -0.5684 0.3538
-0.5010 -0.6140 0.3528
-0.4431 -0.6547 0.3520
-0.3821 -0.6902 0.3512
-0.3184 -0.7202 0.3506
-0.2525 -0.7447 0.3501
-0.1848 -0.7634 0.3497
-0.1158 -0.7762 0.3494
-0.0460 -0.7832 0.3493
0.0241 -0.7841 0.3493
0.0940 -0.7790 0.3494
0.1632 -0.7680 0.3496
0.2314 -0.7512 0.3499
0.2979 -0.7285 0.3504
0.3624 -0.7002 0.3510
0.4243 -0.6664 0.3517
0.4832 -0.6273 0.3525
0.5386 -0.5832 0.3535
0.5903 -0.5343 0.3545
0.6376 -0.4810 0.3556
0.6803 -0.4236 0.3568
0.7179 -0.3625 0.3581
0.7503 -0.2981 0.3594
0.7769 -0.2308 0.3608
0.7976 -0.1612 0.3623
0.8122 -0.0898 0.3638
0.8204 -0.0170 0.3653
0.8221 0.0566 0.3669
0.8172 0.1303 0.3684
0.8056 0.2035 0.3700
0.7875 0.2757 0.3715
0.7627 0.3463 0.3730
0.7316 0.4146 0.3744
0.6942 0.4800 0.3758
0.6508 0.5419 0.3771
0.6018 0.5998 0.3783
0.5475 0.6530 0.3794
0.4883 0.7011 0.3804
0.4247 0.7437 0.3813
0.3574 0.7802 0.3821
0.2868 0.8103 0.3827
0.2136 0.8337 0.3832
0.1384 0.8502 0.3835
0.0620 0.8597 0.3837
-0.0149 0.8619 0.3838
-0.0918 0.8569 0.3837
-0.1678 0.8447 0.3834
-0.2423 0.8255 0.3830
-0.3145 0.7994 0.3825
-0.3840 0.7668 0.3818
-0.4499 0.7279 0.3810
-0.5118 0.6832 0.3801
-0.5692 0.6330 0.3790
-0.6215 0.5779 0.3779
-0.6684 0.5184 0.3766
-0.7095 0.4551 0.3753
-0.7445 0.3885 0.3739
-0.7732 0.3192 0.3724
-0.7954 0.2479 0.3709
-0.8110 0.1752 0.3694
-0.8200 0.1017 0.3679
-0.8223 0.0280 0.3663
-0.8181 -0.0453 0.3648
-0.8074 -0.1177 0.3633
-0.7904 -0.1885 0.3618
-0.7673 -0.2573 0.3603
-0.7385 -0.3235 0.3589
-0.7040 -0.3867 0.3576
-0.6644 -0.4464 0.3564
-0.6198 -0.5023 0.3552
-0.5708 -0.5539 0.3541
-0.5176 -0.6009 0.3531
-0.4607 -0.6431 0.3522
-0.4006 -0.6802 0.3515
-0.3376 -0.7119 0.3508
-0.2723 -0.7380 0.3502
-0.2051 -0.7584 0.3498
-0.1365 -0.7730 0.3495
-0.0669 -0.7817 0.3493
0.0031 -0.7844 0.3493
0.0732 -0.7812 0.3493
0.1427 -0.7719 0.3495
0.2112 -0.7568 0.3498
0.2783 -0.7359 0.3503
0.3434 -0.7092 0.3508
0.4061 -0.6770 0.3515
0.4659 -0.6395 0.3523
0.5225 -0.5969 0.3532
0.5753 -0.5494 0.3542
0.6239 -0.4974 0.3553
0.6681 -0.4411 0.3564
0.7073 -0.3811 0.3577
0.7412 -0.3176 0.3590
0.7696 -0.2512 0.3604
0.7921 -0.1822 0.3619
0.8085 -0.1112 0.3634
0.8186 -0.0388 0.3649
0.8222 0.0346 0.3664
0.8193 0.1083 0.3680
0.8098 0.1818 0.3695
0.7936 0.2544 0.3710
0.7708 0.3255 0.3725
0.7415 0.3945 0.3740
0.7060 0.4608 0.3754
0.6644 0.5238 0.3767
0.6170 0.5830 0.3779
0.5642 0.6376 0.3791
0.5064 0.6873 0.3801
0.4441 0.7316 0.3810
0.3778 0.7699 0.3818
0.3081 0.8020 0.3825
0.2357 0.8275 0.3831
0.1610 0.8461 0.3835
0.0849 0.8576 0.3837
0.0080 0.8620 0.3838
-0.0689 0.8591 0.3837
-0.1453 0.8491 0.3835
-0.2203 0.8319 0.3832
-0.2933 0.8079 0.3827
-0.3636 0.7772 0.3820
-0.4306 0.7401 0.3812
-0.4938 0.6971 0.3803
-0.5526 0.6485 0.3793
-0.6065 0.5948 0.3782
-0.6550 0.5366 0.3770
-0.6979 0.4743 0.3757
-0.7347 0.4086 0.3743
-0.7653 0.3401 0.3729
-0.7895 0.2694 0.3714
-0.8070 0.1970 0.3699
-0.8180 0.1237 0.3683
-0.8223 0.0499 0.3668
-0.8200 -0.0236 0.3652
-0.8112 -0.0963 0.3637
-0.7961 -0.1676 0.3622
-0.7748 -0.2370 0.3608
-0.7477 -0.3040 0.3594
-0.7149 -0.3682 0.3580
-0.6767 -0.4290 0.3567
-0.6336 -0.4860 0.3555
-0.5858 -0.5390 0.3544
-0.5339 -0.5874 0.3534
-0.4781 -0.6311 0.3525
-0.4188 -0.6697 0.3517
-0.3567 -0.7030 0.3510
-0.2920 -0.7308 0.3504
-0.2253 -0.7529 0.3499
-0.1571 -0.7693 0.3496
-0.0877 -0.7797 0.3494
-0.0178 -0.7842 0.3493
0.0523 -0.7828 0.3493
0.1220 -0.7753 0.3494
0.1909 -0.7619 0.3497
0.2585 -0.7427 0.3501
0.3242 -0.7177 0.3506
0.3877 -0.6872 0.3513
0.4484 -0.6512 0.3520
0.5060 -0.6101 0.3529
0.5600 -0.5640 0.3539
0.6099 -0.5133 0.3549
0.6554 -0.4583 0.3561
0.6961 -0.3994 0.3573
0.7316 -0.3369 0.3586
0.7617 -0.2713 0.3600
0.7860 -0.2030 0.3614
0.8042 -0.1326 0.3629
0.8163 -0.0605 0.3644
0.8218 0.0126 0.3660
0.8209 0.0863 0.3675
0.8133 0.1599 0.3690
0.7991 0.2328 0.3706
0.7783 0.3045 0.3721
0.7509 0.3742 0.3735
0.7172 0.4414 0.3749
0.6774 0.5054 0.3763
0.6317 0.5658 0.3776
0.5805 0.6218 0.3787
0.5241 0.6731 0.3798
0.4631 0.7190 0.3808
0.3980 0.7591 0.3816
0.3292 0.7931 0.3823
0.2575 0.8206 0.3829
0.1835 0.8412 0.3834
0.1077 0.8549 0.3836
0.0310 0.8614 0.3838
-0.0460 0.8607 0.3838
-0.1226 0.8528 0.3836
-0.1981 0.8378 0.3833
-0.2718 0.8158 0.3828
-0.3429 0.7870 0.3822
-0.4110 0.7518 0.3815
-0.4754 0.7105 0.3806
-0.5356 0.6635 0.3796
-0.5909 0.6113 0.3786
-0.6411 0.5544 0.3774
-0.6857 0.4933 0.3761
-0.7244 0.4285 0.3747
-0.7569 0.3608 0.3733
-0.7829 0.2906 0.3718
-0.8025 0.2187 0.3703
-0.8154 0.1456 0.3688
-0.8217 0.0719 0.3672
-0.8214 -0.0017 0.3657
-0.8145 -0.0747 0.3642
-0.8013 -0.1465 0.3627
-0.7818 -0.2165 0.3612
-0.7564 -0.2843 0.3598
-0.7252 -0.3494 0.3584
-0.6886 -0.4112 0.3571
-0.6470 -0.4694 0.3559
-0.6005 -0.5236 0.3547
-0.5498 -0.5735 0.3537
-0.4951 -0.6186 0.3527
-0.4368 -0.6587 0.3519
-0.3755 -0.6936 0.3512
-0.3115 -0.7231 0.3506
-0.2454 -0.7469 0.3500
-0.1776 -0.7650 0.3497
-0.1085 -0.7773 0.3494
-0.0387 -0.7835 0.3493
0.0314 -0.7838 0.3493
0.1013 -0.7782 0.3494
0.1705 -0.7665 0.3496
0.2385 -0.7490 0.3500
0.3048 -0.7258 0.3505
0.3690 -0.6969 0.3511
0.4306 -0.6625 0.3518
0.4892 -0.6229 0.3526
0.5443 -0.5783 0.3536
0.5955 -0.5289 0.3546
0.6423 -0.4752 0.3557
0.6845 -0.4173 0.3569
0.7216 -0.3559 0.3582
0.7533 -0.2911 0.3596
0.7794 -0.2236 0.3610
0.7995 -0.1538 0.3625
0.8133 -0.0821 0.3640
0.8209 -0.0092 0.3655
0.8219 0.0643 0.3670
0.8163 0.1380 0.3686
0.8040 0.2112 0.3701
0.7852 0.2833 0.3716
0.7597 0.3536 0.3731
0.7279 0.4216 0.3745
0.6899 0.4867 0.3759
0.6459 0.5482 0.3772
0.5963 0.6056 0.3784
0.5414 0.6583 0.3795
0.4818 0.7059 0.3805
0.4178 0.7478 0.3814
0.3501 0.7837 0.3821
0.2792 0.8131 0.3828
0.2057 0.8358 0.3832
0.1304 0.8516 0.3836
0.0539 0.8602 0.3838
-0.0231 0.8617 0.3838
-0.0999 0.8559 0.3837
-0.1757 0.8430 0.3834
-0.2500 0.8231 0.3830
-0.3220 0.7963 0.3824
-0.3911 0.7630 0.3817
-0.4566 0.7235 0.3809
-0.5181 0.6781 0.3799
-0.5750 0.6274 0.3789
-0.6267 0.5718 0.3777
-0.6730 0.5119 0.3765
-0.7135 0.4482 0.3751
-0.7478 0.3813 0.3737
-0.7758 0.3118 0.3723
-0.7973 0.2403 0.3708
-0.8123 0.1675 0.3692
-0.8205 0.0939 0.3677
-0.8222 0.0202 0.3662
-0.8172 -0.0530 0.3646
-0.8059 -0.1252 0.3631
-0.7882 -0.1959 0.3616
-0.7646 -0.2644 0.3602
-0.7351 -0.3303 0.3588
-0.7001 -0.3932 0.3575
-0.6599 -0.4525 0.3562
-0.6148 -0.5079 0.3551
-0.5653 -0.5591 0.3540
-0.5118 -0.6056 0.3530
-0.4545 -0.6473 0.3521
-0.3941 -0.6838 0.3514
-0.3309 -0.7149 0.3507
-0.2653 -0.7404 0.3502
-0.1979 -0.7603 0.3498
-0.1292 -0.7742 0.3495
-0.0595 -0.7823 0.3493
0.0105 -0.7844 0.3493
0.0805 -0.7805 0.3493
0.1500 -0.7706 0.3495
0.2184 -0.7549 0.3499
0.2852 -0.7333 0.3503
0.3501 -0.7061 0.3509
0.4125 -0.6733 0.3516
0.4721 -0.6352 0.3524
0.5282 -0.5921 0.3533
0.5806 -0.5441 0.3543
0.6288 -0.4916 0.3554
0.6724 -0.4350 0.3566
0.7111 -0.3746 0.3578
0.7445 -0.3107 0.3592
0.7722 -0.2440 0.3606
0.7941 -0.1748 0.3620
0.8099 -0.1036 0.3635
0.8193 -0.0311 0.3650
0.8222 0.0424 0.3666
0.8186 0.1161 0.3681
0.8084 0.1895 0.3697
0.7915 0.2619 0.3712
0.7680 0.3329 0.3727
0.7381 0.4016 0.3741
0.7019 0.4676 0.3755
0.6596 0.5303 0.3768
0.6116 0.5890 0.3780
0.5583 0.6431 0.3792
0.5000 0.6923 0.3802
0.4373 0.7359 0.3811
0.3706 0.7736 0.3819
0.3006 0.8050 0.3826
0.2279 0.8298 0.3831
0.1530 0.8476 0.3835
0.0768 0.8584 0.3837
-0.0001 0.8620 0.3838
-0.0770 0.8584 0.3837
-0.1533 0.8476 0.3835
-0.2281 0.8297 0.3831
-0.3008 0.8050 0.3826
-0.3708 0.7736 0.3819
-0.4375 0.7359 0.3812
-0.5002 0.6922 0.3802
-0.5585 0.6431 0.3792
-0.6118 0.5889 0.3781
-0.6598 0.5302 0.3769
-0.7020 0.4675 0.3755
-0.7382 0.4015 0.3742
-0.7682 0.3327 0.3727
-0.7916 0.2618 0.3712
-0.8085 0.1893 0.3697
-0.8188 0.1159 0.3682
-0.8224 0.0422 0.3666
-0.8194 -0.0313 0.3651
-0.8099 -0.1039 0.3636
-0.7942 -0.1750 0.3621
-0.7722 -0.2442 0.3606
-0.7445 -0.3110 0.3592
-0.7111 -0.3748 0.3579
-0.6724 -0.4352 0.3566
-0.6288 -0.4918 0.3554
-0.5805 -0.5443 0.3543
-0.5281 -0.5922 0.3533
-0.4720 -0.6354 0.3524
-0.4124 -0.6735 0.3516
-0.3500 -0.7062 0.3509
-0.2851 -0.7334 0.3503
-0.2182 -0.7549 0.3499
-0.1498 -0.7707 0.3495
-0.0803 -0.7805 0.3493
-0.0104 -0.7844 0.3493
0.0597 -0.7823 0.3493
0.1294 -0.7742 0.3495
0.1981 -0.7602 0.3498
0.2655 -0.7403 0.3502
0.3310 -0.7148 0.3507
0.3942 -0.6836 0.3514
0.4547 -0.6471 0.3521
0.5119 -0.6055 0.3530
0.5654 -0.5589 0.3540
0.6149 -0.5077 0.3550
0.6599 -0.4523 0.3562
0.7001 -0.3929 0.3574
0.7351 -0.3301 0.3588
0.7645 -0.2642 0.3601
0.7882 -0.1957 0.3616
0.8058 -0.1250 0.3631
0.8171 -0.0528 0.3646
0.8221 0.0204 0.3661
0.8204 0.0941 0.3677
0.8121 0.1677 0.3692
0.7972 0.2405 0.3707
0.7757 0.3119 0.3722
0.7477 0.3814 0.3737
0.7133 0.4483 0.3751
0.6728 0.5120 0.3764
0.6265 0.5719 0.3777
0.5747 0.6275 0.3789
0.5179 0.6782 0.3799
0.4564 0.7235 0.3809
0.3909 0.7630 0.3817
0.3218 0.7963 0.3824
0.2498 0.8231 0.3830
0.1755 0.8430 0.3834
0.0997 0.8559 0.3837
0.0229 0.8617 0.3838
-0.0541 0.8602 0.3838
-0.1306 0.8516 0.3836
-0.2060 0.8358 0.3832
-0.2794 0.8131 0.3828
-0.3503 0.7836 0.3822
-0.4180 0.7478 0.3814
-0.4820 0.7058 0.3805
-0.5416 0.6583 0.3795
-0.5965 0.6055 0.3784
-0.6461 0.5481 0.3772
-0.6901 0.4866 0.3759
-0.7281 0.4215 0.3746
-0.7599 0.3535 0.3731
-0.7853 0.2831 0.3717
-0.8042 0.2110 0.3702
-0.8164 0.1378 0.3686
-0.8220 0.0641 0.3671
-0.8210 -0.0094 0.3655
-0.8134 -0.0823 0.3640
-0.7995 -0.1540 0.3625
-0.7794 -0.2238 0.3610
-0.7534 -0.2913 0.3596
-0.7216 -0.3561 0.3583
-0.6845 -0.4175 0.3570
-0.6423 -0.4754 0.3558
-0.5954 -0.5291 0.3546
-0.5442 -0.5784 0.3536
-0.4891 -0.6230 0.3527
-0.4305 -0.6626 0.3518
-0.3689 -0.6970 0.3511
-0.3047 -0.7259 0.3505
-0.2383 -0.7491 0.3500
-0.1703 -0.7666 0.3496
-0.1011 -0.7782 0.3494
-0.0313 -0.7838 0.3493
0.0388 -0.7835 0.3493
0.1087 -0.7772 0.3494
0.1777 -0.7650 0.3497
0.2456 -0.7469 0.3500
0.3117 -0.7230 0.3505
0.3756 -0.6935 0.3512
0.4369 -0.6586 0.3519
0.4952 -0.6184 0.3527
0.5499 -0.5733 0.3537
0.6006 -0.5234 0.3547
0.6470 -0.4692 0.3558
0.6886 -0.4110 0.3571
0.7252 -0.3492 0.3584
0.7564 -0.2841 0.3597
0.7818 -0.2163 0.3611
0.8012 -0.1463 0.3626
0.8144 -0.0745 0.3641
0.8213 -0.0015 0.3657
0.8216 0.0721 0.3672
0.8153 0.1458 0.3687
0.8023 0.2189 0.3703
0.7828 0.2908 0.3718
0.7567 0.3609 0.3733
0.7242 0.4287 0.3747
0.6855 0.4934 0.3760
0.6409 0.5545 0.3773
0.5907 0.6114 0.3785
0.5354 0.6636 0.3796
0.4752 0.7106 0.3806
0.4108 0.7519 0.3815
0.3427 0.7871 0.3822
0.2715 0.8158 0.3828
0.1979 0.8378 0.3833
0.1224 0.8528 0.3836
0.0458 0.8607 0.3838
-0.0312 0.8614 0.3838
-0.1079 0.8549 0.3836
-0.1837 0.8412 0.3834
-0.2577 0.8206 0.3829
-0.3294 0.7931 0.3824
-0.3982 0.7591 0.3816
-0.4633 0.7189 0.3808
-0.5243 0.6730 0.3798
-0.5807 0.6218 0.3788
-0.6319 0.5657 0.3776
-0.6776 0.5053 0.3763
-0.7174 0.4413 0.3750
-0.7511 0.3740 0.3736
-0.7784 0.3043 0.3721
-0.7992 0.2327 0.3706
-0.8134 0.1597 0.3691
-0.8210 0.0861 0.3675
-0.8219 0.0125 0.3660
-0.8163 -0.0607 0.3645
-0.8043 -0.1328 0.3629
-0.7860 -0.2032 0.3615
-0.7617 -0.2715 0.3600
-0.7317 -0.3371 0.3587
-0.6961 -0.3996 0.3573
-0.6554 -0.4585 0.3561
-0.6098 -0.5135 0.3550
-0.5599 -0.5642 0.3539
-0.5059 -0.6103 0.3529
-0.4483 -0.6514 0.3521
-0.3875 -0.6873 0.3513
-0.3240 -0.7179 0.3507
-0.2583 -0.7428 0.3501
-0.1907 -0.7620 0.3497
-0.1219 -0.7754 0.3494
-0.0521 -0.7828 0.3493
0.0179 -0.7842 0.3493
0.0879 -0.7797 0.3494
0.1572 -0.7692 0.3496
0.2255 -0.7529 0.3499
0.2922 -0.7307 0.3504
0.3568 -0.7029 0.3510
0.4190 -0.6695 0.3517
0.4782 -0.6309 0.3525
0.5340 -0.5872 0.3534
0.5859 -0.5388 0.3544
0.6336 -0.4858 0.3555
0.6767 -0.4288 0.3567
0.7149 -0.3680 0.3580
0.7477 -0.3038 0.3593
0.7748 -0.2368 0.3607
0.7961 -0.1674 0.3622
0.8112 -0.0960 0.3637
0.8199 -0.0234 0.3652
0.8222 0.0501 0.3667
0.8179 0.1238 0.3683
0.8069 0.1972 0.3698
0.7893 0.2695 0.3713
0.7651 0.3402 0.3728
0.7345 0.4087 0.3743
0.6977 0.4744 0.3756
0.6548 0.5367 0.3769
0.6063 0.5949 0.3782
0.5524 0.6486 0.3793
0.4936 0.6972 0.3803
0.4304 0.7402 0.3812
0.3634 0.7772 0.3820
0.2931 0.8079 0.3826
0.2201 0.8320 0.3832
0.1451 0.8491 0.3835
0.0687 0.8591 0.3837
-0.0082 0.8620 0.3838
-0.0851 0.8576 0.3837
-0.1612 0.8460 0.3835
-0.2359 0.8274 0.3831
-0.3083 0.8020 0.3825
-0.3780 0.7699 0.3819
-0.4443 0.7315 0.3811
-0.5066 0.6873 0.3801
-0.5644 0.6376 0.3791
-0.6172 0.5829 0.3780
-0.6645 0.5237 0.3767
-0.7061 0.4607 0.3754
-0.7417 0.3944 0.3740
-0.7709 0.3253 0.3726
-0.7937 0.2542 0.3711
-0.8099 0.1816 0.3695
-0.8194 0.1081 0.3680
-0.8224 0.0344 0.3665
-0.8187 -0.0390 0.3649
-0.8086 -0.1114 0.3634
-0.7921 -0.1824 0.3619
-0.7696 -0.2514 0.3605
-0.7412 -0.3178 0.3591
-0.7072 -0.3813 0.3577
-0.6680 -0.4414 0.3565
-0.6239 -0.4976 0.3553
-0.5752 -0.5496 0.3542
-0.5224 -0.5970 0.3532
-0.4658 -0.6397 0.3523
-0.4060 -0.6772 0.3515
-0.3432 -0.7093 0.3508
-0.2781 -0.7360 0.3503
-0.2110 -0.7569 0.3498
-0.1425 -0.7720 0.3495
-0.0730 -0.7812 0.3493
-0.0030 -0.7844 0.3493
0.0671 -0.7817 0.3493
0.1367 -0.7730 0.3495
0.2053 -0.7584 0.3498
0.2725 -0.7379 0.3502
0.3378 -0.7118 0.3508
0.4007 -0.6800 0.3514
0.4608 -0.6430 0.3522
0.5177 -0.6008 0.3531
0.4525 -0.6336 0.3524
0.5085 -0.5921 0.3533
0.5609 -0.5458 0.3542
0.6092 -0.4951 0.3553
0.6531 -0.4401 0.3565
0.6921 -0.3814 0.3577
0.7260 -0.3193 0.3590
0.7545 -0.2541 0.3604
0.7772 -0.1865 0.3618
0.7939 -0.1169 0.3632
0.8045 -0.0457 0.3647
0.8087 0.0264 0.3662
0.8065 0.0989 0.3678
0.7977 0.1712 0.3693
0.7824 0.2427 0.3708
0.7606 0.3128 0.3722
0.7325 0.3809 0.3737
0.6981 0.4464 0.3751
0.6578 0.5087 0.3764
0.6117 0.5672 0.3776
0.5603 0.6214 0.3787
0.5040 0.6708 0.3798
0.4432 0.7148 0.3807
0.3784 0.7531 0.3815
0.3102 0.7853 0.3822
0.2393 0.8110 0.3827
0.1661 0.8300 0.3831
0.0914 0.8420 0.3834
0.0159 0.8471 0.3835
-0.0598 0.8450 0.3834
-0.1349 0.8359 0.3832
-0.2088 0.8198 0.3829
-0.2808 0.7969 0.3824
-0.3502 0.7674 0.3818
-0.4165 0.7316 0.3811
-0.4791 0.6900 0.3802
-0.5373 0.6428 0.3792
-0.5909 0.5905 0.3781
-0.6392 0.5338 0.3769
-0.6820 0.4730 0.3757
-0.7189 0.4087 0.3743
-0.7497 0.3416 0.3729
-0.7741 0.2723 0.3714
-0.7922 0.2013 0.3700
-0.8037 0.1293 0.3684
-0.8087 0.0568 0.3669
-0.8072 -0.0156 0.3654
-0.7992 -0.0872 0.3639
-0.7851 -0.1575 0.3624
-0.7648 -0.2261 0.3610
-0.7387 -0.2923 0.3596
-0.7071 -0.3558 0.3583
-0.6701 -0.4160 0.3570
-0.6282 -0.4726 0.3558
-0.5817 -0.5251 0.3547
-0.5310 -0.5733 0.3537
-0.4765 -0.6168 0.3528
-0.4185 -0.6554 0.3520
-0.3577 -0.6887 0.3513
-0.2943 -0.7167 0.3507
-0.2288 -0.7391 0.3502
-0.1618 -0.7558 0.3499
-0.0936 -0.7667 0.3496
-0.0248 -0.7718 0.3495
0.0442 -0.7710 0.3495
0.1129 -0.7642 0.3497
0.1808 -0.7517 0.3499
0.2475 -0.7333 0.3503
0.3124 -0.7093 0.3508
0.3751 -0.6798 0.3514
0.4352 -0.6450 0.3522
0.4922 -0.6050 0.3530
0.5457 -0.5601 0.3539
0.5952 -0.5107 0.3550
0.6405 -0.4569 0.3561
0.6810 -0.3993 0.3573
0.7165 -0.3381 0.3586
0.7466 -0.2738 0.3599
0.7710 -0.2069 0.3613
0.7896 -0.1378 0.3628
0.8020 -0.0671 0.3643
0.8081 0.0048 0.3658
0.8078 0.0773 0.3673
0.8010 0.1497 0.3688
0.7876 0.2215 0.3703
0.7678 0.2920 0.3718
0.7415 0.3608 0.3733
0.7090 0.4271 0.3746
0.6704 0.4905 0.3760
0.6260 0.5502 0.3772
0.5762 0.6057 0.3784
0.5213 0.6566 0.3795
0.4618 0.7023 0.3804
0.3981 0.7423 0.3813
0.3309 0.7763 0.3820
0.2607 0.8040 0.3826
0.1881 0.8250 0.3830
0.1138 0.8392 0.3833
0.0384 0.8463 0.3835
-0.0373 0.8464 0.3835
-0.1126 0.8394 0.3833
-0.1869 0.8253 0.3830
-0.2596 0.8044 0.3826
-0.3298 0.7769 0.3820
-0.3971 0.7429 0.3813
-0.4608 0.7030 0.3805
-0.5204 0.6574 0.3795
-0.5754 0.6066 0.3785
-0.6254 0.5511 0.3773
-0.6698 0.4915 0.3760
-0.7085 0.4282 0.3747
-0.7411 0.3619 0.3733
-0.7675 0.2932 0.3719
-0.7875 0.2226 0.3704
-0.8009 0.1508 0.3689
-0.8079 0.0784 0.3674
-0.8083 0.0060 0.3659
-0.8023 -0.0659 0.3644
-0.7899 -0.1367 0.3629
-0.7715 -0.2059 0.3614
-0.7471 -0.2728 0.3600
-0.7171 -0.3372 0.3587
-0.6817 -0.3984 0.3574
-0.6412 -0.4561 0.3562
-0.5960 -0.5099 0.3550
-0.5465 -0.5594 0.3540
-0.4931 -0.6044 0.3530
-0.4361 -0.6444 0.3522
-0.3761 -0.6794 0.3515
-0.3134 -0.7090 0.3508
-0.2485 -0.7330 0.3503
-0.1819 -0.7515 0.3500
-0.1140 -0.7641 0.3497
-0.0453 -0.7709 0.3495
0.0237 -0.7718 0.3495
0.0925 -0.7669 0.3496
0.1607 -0.7560 0.3498
0.2278 -0.7394 0.3502
0.2932 -0.7171 0.3507
0.3567 -0.6892 0.3512
0.4176 -0.6559 0.3519
0.4755 -0.6174 0.3527
0.5301 -0.5740 0.3537
0.5809 -0.5259 0.3547
0.6274 -0.4734 0.3558
0.6694 -0.4169 0.3569
0.7064 -0.3567 0.3582
0.7382 -0.2933 0.3595
0.7644 -0.2271 0.3609
0.7847 -0.1586 0.3624
0.7990 -0.0883 0.3638
0.8070 -0.0167 0.3653
0.8086 0.0556 0.3669
0.8037 0.1281 0.3684
0.7923 0.2002 0.3699
0.7744 0.2712 0.3714
0.7500 0.3405 0.3728
0.7193 0.4077 0.3742
0.6825 0.4719 0.3756
0.6398 0.5328 0.3769
0.5916 0.5896 0.3781
0.5382 0.6419 0.3792
0.4800 0.6892 0.3802
0.4175 0.7310 0.3810
0.3513 0.7669 0.3818
0.2819 0.7964 0.3824
0.2099 0.8195 0.3829
0.1361 0.8357 0.3832
0.0610 0.8449 0.3834
-0.0147 0.8471 0.3835
-0.0902 0.8422 0.3834
-0.1649 0.8302 0.3831
-0.2381 0.8114 0.3827
-0.3092 0.7858 0.3822
-0.3774 0.7537 0.3815
-0.4422 0.7155 0.3807
-0.5031 0.6716 0.3798
-0.5595 0.6223 0.3788
-0.6110 0.5681 0.3776
-0.6571 0.5097 0.3764
-0.6976 0.4474 0.3751
-0.7321 0.3820 0.3737
-0.7603 0.3139 0.3723
-0.7822 0.2438 0.3708
-0.7976 0.1723 0.3693
-0.8065 0.1000 0.3678
-0.8088 0.0275 0.3663
-0.8047 -0.0446 0.3648
-0.7943 -0.1158 0.3633
-0.7776 -0.1855 0.3618
-0.7550 -0.2531 0.3604
-0.7266 -0.3183 0.3591
-0.6928 -0.3805 0.3577
-0.6538 -0.4393 0.3565
-0.6100 -0.4943 0.3554
-0.5617 -0.5451 0.3543
-0.5094 -0.5915 0.3533
-0.4535 -0.6330 0.3524
-0.3943 -0.6695 0.3517
-0.3323 -0.7007 0.3510
-0.2681 -0.7264 0.3505
-0.2019 -0.7466 0.3501
-0.1343 -0.7609 0.3498
-0.0658 -0.7695 0.3496
0.0031 -0.7722 0.3495
0.0720 -0.7690 0.3496
0.1405 -0.7599 0.3498
0.2079 -0.7450 0.3501
0.2739 -0.7243 0.3505
0.3380 -0.6981 0.3511
0.3997 -0.6664 0.3517
0.4586 -0.6294 0.3525
0.5142 -0.5874 0.3534
0.5662 -0.5407 0.3544
0.6140 -0.4895 0.3554
0.6574 -0.4341 0.3566
0.6959 -0.3750 0.3578
0.7293 -0.3125 0.3591
0.7572 -0.2471 0.3605
0.7793 -0.1793 0.3619
0.7954 -0.1094 0.3634
0.8052 -0.0381 0.3649
0.8088 0.0340 0.3664
0.8058 0.1065 0.3679
0.7964 0.1788 0.3694
0.7804 0.2501 0.3709
0.7579 0.3201 0.3724
0.7291 0.3879 0.3738
0.6941 0.4531 0.3752
0.6532 0.5150 0.3765
0.6065 0.5731 0.3777
0.5546 0.6268 0.3788
0.4978 0.6757 0.3799
0.4365 0.7191 0.3808
0.3714 0.7568 0.3816
0.3029 0.7883 0.3822
0.2316 0.8133 0.3828
0.1583 0.8316 0.3831
0.0835 0.8429 0.3834
0.0079 0.8472 0.3835
-0.0678 0.8444 0.3834
-0.1428 0.8345 0.3832
-0.2165 0.8177 0.3829
-0.2882 0.7941 0.3824
-0.3574 0.7639 0.3817
-0.4233 0.7275 0.3810
-0.4854 0.6852 0.3801
-0.5432 0.6375 0.3791
-0.5962 0.5848 0.3780
-0.6440 0.5275 0.3768
-0.6862 0.4663 0.3755
