ply
format ascii 1.0
element vertex 2176
property float32 x
property float32 y
property float32 z
end_header
6.6109 3.7740 1.9146
6.2763 4.3686 1.9233
5.8867 4.9323 1.9316
1.0742 1.0771 0.3826
0.9776 1.1732 0.3841
0.8721 1.2602 0.3854
0.7585 1.3371 0.3866
0.6379 1.4031 0.3877
0.5112 1.4576 0.3885
0.3798 1.5000 0.3892
0.2447 1.5297 0.3896
0.1073 1.5464 0.3899
-0.0311 1.5500 0.3899
-0.1692 1.5405 0.3898
-0.3057 1.5179 0.3894
-0.4393 1.4824 0.3889
-0.5687 1.4346 0.3881
-0.6928 1.3748 0.3872
-0.8103 1.3038 0.3861
-0.9204 1.2222 0.3848
-1.0220 1.1311 0.3834
-2.3447 2.1697 0.8035
-2.3464 1.8110 0.7455
-2.3480 1.4983 0.7005
-2.3494 1.2190 0.6657
-2.3506 0.9643 0.6390
-2.3518 0.7273 0.6191
-2.3529 0.5030 0.6051
-2.3539 0.2868 0.5964
-2.3550 0.0752 0.5926
-2.3560 -0.1355 0.5935
-2.3571 -0.3485 0.5993
-2.3581 -0.5674 0.6100
-2.3592 -0.7962 0.6263
-2.3604 -1.0394 0.6487
-2.3617 -1.3030 0.6784
-2.3632 -1.5942 0.7170
-1.0861 -0.8834 0.3521
-0.9990 -0.9729 0.3507
-0.9049 -1.0544 0.3495
-0.8047 -1.1273 0.3483
-0.6989 -1.1912 0.3473
-0.5884 -1.2457 0.3465
-0.4739 -1.2907 0.3458
-0.3563 -1.3257 0.3453
-0.2363 -1.3507 0.3449
-0.1148 -1.3655 0.3447
0.0075 -1.3701 0.3446
0.1297 -1.3643 0.3447
0.2511 -1.3483 0.3449
0.3709 -1.3220 0.3453
0.4882 -1.2858 0.3459
0.6022 -1.2397 0.3466
0.7122 -1.1839 0.3475
0.8173 -1.1189 0.3485
0.9169 -1.0450 0.3497
1.0102 -0.9625 0.3509
5.5833 -4.4406 1.7942
5.9815 -3.9407 1.8015
6.3367 -3.4060 1.8094
6.6456 -2.8400 1.8177
6.9053 -2.2464 1.8263
7.1132 -1.6293 1.8354
7.2670 -0.9932 1.8447
7.3644 -0.3426 1.8542
7.4041 0.3175 1.8639
7.3846 0.9820 1.8736
7.3052 1.6455 1.8834
7.1657 2.3024 1.8930
6.9663 2.9472 1.9025
6.7078 3.5742 1.9116
6.3916 4.1778 1.9205
6.0197 4.7521 1.9289
5.5945 5.2919 1.9368
1.0102 1.1428 0.3836
0.9074 1.2329 0.3850
0.7964 1.3132 0.3863
0.6779 1.3828 0.3873
0.5531 1.4412 0.3882
0.4231 1.4875 0.3890
0.2891 1.5214 0.3895
0.1523 1.5424 0.3898
0.0141 1.5503 0.3899
-0.1242 1.5450 0.3898
-0.2614 1.5267 0.3896
-0.3961 1.4954 0.3891
-0.5270 1.4515 0.3884
-0.6529 1.3956 0.3875
-0.7728 1.3281 0.3865
-0.8854 1.2499 0.3852
-0.9898 1.1618 0.3839
-1.0853 1.0646 0.3824
-2.3459 1.9222 0.7628
-2.3475 1.5961 0.7140
-2.3489 1.3070 0.6761
-2.3502 1.0451 0.6469
-2.3514 0.8030 0.6249
-2.3525 0.5751 0.6091
-2.3536 0.3567 0.5987
-2.3546 0.1440 0.5933
-2.3557 -0.0666 0.5927
-2.3567 -0.2785 0.5969
-2.3578 -0.4951 0.6059
-2.3589 -0.7202 0.6203
-2.3600 -0.9581 0.6406
-2.3613 -1.2144 0.6678
-2.3627 -1.4956 0.7033
-2.3642 -1.8111 0.7490
-1.0282 -0.9446 0.3512
-0.9364 -1.0287 0.3499
-0.8380 -1.1045 0.3487
-0.7339 -1.1713 0.3477
-0.6249 -1.2290 0.3468
-0.5116 -1.2771 0.3460
-0.3950 -1.3154 0.3454
-0.2757 -1.3437 0.3450
-0.1546 -1.3618 0.3447
-0.0324 -1.3697 0.3446
0.0899 -1.3673 0.3446
0.2117 -1.3546 0.3448
0.3320 -1.3317 0.3452
0.4502 -1.2987 0.3457
0.5654 -1.2558 0.3464
0.6768 -1.2032 0.3472
0.7836 -1.1411 0.3482
0.8851 -1.0701 0.3493
0.9805 -0.9903 0.3505
1.0691 -0.9024 0.3519
5.8561 -4.1078 1.7991
6.2257 -3.5841 1.8068
6.5501 -3.0279 1.8149
6.8261 -2.4428 1.8235
7.0513 -1.8330 1.8324
7.2229 -1.2025 1.8416
7.3389 -0.5561 1.8511
7.3976 0.1014 1.8607
7.3975 0.7651 1.8705
7.3377 1.4295 1.8802
7.2178 2.0891 1.8899
7.0379 2.7385 1.8994
6.7986 3.3720 1.9087
6.5010 3.9838 1.9177
6.1470 4.5683 1.9262
5.7389 5.1199 1.9343
1.0417 1.1115 0.3831
0.9419 1.2045 0.3846
0.8335 1.2881 0.3859
0.7173 1.3613 0.3870
0.5945 1.4234 0.3880
0.4660 1.4737 0.3888
0.3332 1.5117 0.3893
0.1972 1.5370 0.3897
0.0593 1.5492 0.3899
-0.0792 1.5482 0.3899
-0.2169 1.5341 0.3897
-0.3525 1.5070 0.3893
-0.4848 1.4672 0.3886
-0.6125 1.4151 0.3878
-0.7344 1.3513 0.3868
-0.8495 1.2766 0.3857
-0.9567 1.1916 0.3843
-1.0552 1.0973 0.3829
-2.3453 2.0389 0.7816
-2.3470 1.6978 0.7286
-2.3485 1.3979 0.6874
-2.3498 1.1281 0.6556
-2.3510 0.8802 0.6314
-2.3522 0.6482 0.6136
-2.3532 0.4271 0.6015
-2.3543 0.2130 0.5945
-2.3553 0.0020 0.5924
-2.3564 -0.2090 0.5950
-2.3574 -0.4237 0.6024
-2.3585 -0.6455 0.6150
-2.3597 -0.8788 0.6333
-2.3609 -1.1284 0.6581
-2.3622 -1.4006 0.6907
-2.3637 -1.7037 0.7328
-1.0567 -0.9154 0.3516
-0.9671 -1.0022 0.3503
-0.8708 -1.0807 0.3491
-0.7685 -1.1505 0.3480
-0.6610 -1.2112 0.3470
-0.5490 -1.2625 0.3462
-0.4334 -1.3040 0.3456
-0.3148 -1.3356 0.3451
-0.1942 -1.3570 0.3448
-0.0723 -1.3683 0.3446
0.0500 -1.3692 0.3446
0.1721 -1.3599 0.3447
0.2930 -1.3403 0.3451
0.4119 -1.3106 0.3455
0.5282 -1.2709 0.3461
0.6409 -1.2214 0.3469
0.7493 -1.1624 0.3478
0.8526 -1.0942 0.3489
0.9501 -1.0173 0.3501
1.0410 -0.9319 0.3514
5.7263 -4.2710 1.7967
6.1100 -3.7587 1.8042
6.4494 -3.2127 1.8122
6.7416 -2.6366 1.8206
6.9836 -2.0344 1.8295
7.1729 -1.4102 1.8386
7.3073 -0.7685 1.8480
7.3848 -0.1140 1.8576
7.4040 0.5482 1.8673
7.3638 1.2129 1.8770
7.2636 1.8748 1.8867
7.1032 2.5281 1.8963
6.8831 3.1674 1.9057
6.6044 3.7869 1.9148
6.2686 4.3809 1.9235
5.8778 4.9439 1.9317
1.0723 1.0793 0.3826
0.9755 1.1752 0.3841
0.8698 1.2619 0.3855
0.7560 1.3386 0.3867
0.6352 1.4044 0.3877
0.5085 1.4587 0.3885
0.3769 1.5007 0.3892
0.2418 1.5301 0.3896
0.1044 1.5466 0.3899
-0.0340 1.5500 0.3899
-0.1721 1.5401 0.3898
-0.3086 1.5172 0.3894
-0.4421 1.4815 0.3889
-0.5714 1.4334 0.3881
-0.6953 1.3734 0.3872
-0.8128 1.3021 0.3861
-0.9227 1.2204 0.3848
-1.0241 1.1290 0.3834
-2.3447 2.1615 0.8021
-2.3465 1.8039 0.7444
-2.3480 1.4920 0.6997
-2.3494 1.2134 0.6650
-2.3506 0.9591 0.6385
-2.3518 0.7225 0.6188
-2.3529 0.4983 0.6049
-2.3540 0.2823 0.5963
-2.3550 0.0707 0.5926
-2.3560 -0.1399 0.5936
-2.3571 -0.3530 0.5994
-2.3581 -0.5721 0.6103
-2.3593 -0.8012 0.6267
-2.3605 -1.0448 0.6492
-2.3618 -1.3088 0.6791
-2.3632 -1.6008 0.7179
-1.0843 -0.8854 0.3521
-0.9971 -0.9748 0.3507
-0.9029 -1.0560 0.3494
-0.8025 -1.1287 0.3483
-0.6966 -1.1924 0.3473
-0.5860 -1.2468 0.3465
-0.4715 -1.2915 0.3458
-0.3538 -1.3264 0.3453
-0.2338 -1.3512 0.3449
-0.1122 -1.3657 0.3446
0.0101 -1.3700 0.3446
0.1323 -1.3641 0.3447
0.2537 -1.3478 0.3449
0.3734 -1.3214 0.3453
0.4906 -1.2849 0.3459
0.6046 -1.2386 0.3466
0.7144 -1.1827 0.3475
0.8195 -1.1174 0.3485
0.9190 -1.0433 0.3497
1.0121 -0.9607 0.3510
5.5922 -4.4303 1.7944
5.9895 -3.9297 1.8017
6.3437 -3.3943 1.8095
6.6516 -2.8276 1.8178
6.9103 -2.2335 1.8265
7.1171 -1.6160 1.8356
7.2696 -0.9795 1.8449
7.3659 -0.3286 1.8544
7.4043 0.3316 1.8641
7.3835 0.9961 1.8739
7.3029 1.6595 1.8836
7.1621 2.3163 1.8932
6.9615 2.9607 1.9027
6.7017 3.5873 1.9118
6.3843 4.1903 1.9207
6.0112 4.7640 1.9291
5.5850 5.3030 1.9370
1.0081 1.1449 0.3837
0.9052 1.2347 0.3851
0.7939 1.3148 0.3863
0.6753 1.3842 0.3874
0.5504 1.4423 0.3883
0.4203 1.4884 0.3890
0.2862 1.5220 0.3895
0.1494 1.5427 0.3898
0.0112 1.5503 0.3899
-0.1272 1.5448 0.3898
-0.2643 1.5261 0.3896
-0.3989 1.4946 0.3891
-0.5297 1.4504 0.3884
-0.6556 1.3942 0.3875
-0.7752 1.3266 0.3864
-0.8877 1.2482 0.3852
-0.9920 1.1598 0.3838
-1.0872 1.0625 0.3823
-2.3459 1.9148 0.7616
-2.3475 1.5896 0.7131
-2.3489 1.3012 0.6754
-2.3502 1.0398 0.6464
-2.3514 0.7980 0.6245
-2.3525 0.5703 0.6088
-2.3536 0.3521 0.5985
-2.3547 0.1395 0.5933
-2.3557 -0.0711 0.5928
-2.3567 -0.2830 0.5970
-2.3578 -0.4998 0.6062
-2.3589 -0.7251 0.6207
-2.3601 -0.9634 0.6411
-2.3613 -1.2200 0.6685
-2.3627 -1.5019 0.7041
-2.3643 -1.8182 0.7501
-1.0264 -0.9465 0.3511
-0.9343 -1.0304 0.3498
-0.8359 -1.1060 0.3487
-0.7317 -1.1727 0.3476
-0.6225 -1.2301 0.3467
-0.5092 -1.2780 0.3460
-0.3925 -1.3161 0.3454
-0.2731 -1.3442 0.3450
-0.1520 -1.3621 0.3447
-0.0298 -1.3698 0.3446
0.0925 -1.3671 0.3446
0.2143 -1.3542 0.3448
0.3346 -1.3311 0.3452
0.4527 -1.2979 0.3457
0.5678 -1.2548 0.3464
0.6791 -1.2019 0.3472
0.7858 -1.1397 0.3482
0.8872 -1.0684 0.3493
0.9825 -0.9885 0.3505
1.0709 -0.9004 0.3519
5.8645 -4.0970 1.7993
6.2331 -3.5726 1.8069
6.5564 -3.0157 1.8151
6.8315 -2.4301 1.8237
7.0555 -1.8198 1.8326
7.2259 -1.1890 1.8418
7.3408 -0.5423 1.8513
7.3982 0.1155 1.8609
7.3968 0.7792 1.8707
7.3358 1.4435 1.8804
7.2146 2.1031 1.8901
7.0335 2.7522 1.8996
6.7929 3.3852 1.9089
6.4941 3.9965 1.9178
6.1389 4.5804 1.9264
5.7297 5.1313 1.9345
1.0397 1.1136 0.3832
0.9397 1.2064 0.3846
0.8311 1.2898 0.3859
0.7148 1.3628 0.3870
0.5918 1.4246 0.3880
0.4633 1.4747 0.3888
0.3303 1.5124 0.3894
0.1943 1.5374 0.3897
0.0563 1.5493 0.3899
-0.0821 1.5480 0.3899
-0.2198 1.5336 0.3897
-0.3554 1.5063 0.3892
-0.4875 1.4662 0.3886
-0.6151 1.4139 0.3878
-0.7369 1.3499 0.3868
-0.8519 1.2749 0.3856
-0.9589 1.1897 0.3843
-1.0572 1.0952 0.3828
-2.3454 2.0311 0.7803
-2.3470 1.6911 0.7276
-2.3485 1.3919 0.6866
-2.3498 1.1226 0.6550
-2.3510 0.8751 0.6309
-2.3522 0.6434 0.6133
-2.3533 0.4225 0.6013
-2.3543 0.2085 0.5945
-2.3554 -0.0024 0.5924
-2.3564 -0.2135 0.5951
-2.3574 -0.4283 0.6026
-2.3585 -0.6504 0.6153
-2.3597 -0.8839 0.6338
-2.3609 -1.1339 0.6587
-2.3622 -1.4067 0.6915
-2.3637 -1.7106 0.7338
-1.0549 -0.9173 0.3516
-0.9651 -1.0039 0.3502
-0.8686 -1.0823 0.3490
-0.7662 -1.1519 0.3480
-0.6586 -1.2124 0.3470
-0.5466 -1.2635 0.3462
-0.4309 -1.3048 0.3456
-0.3123 -1.3361 0.3451
-0.1917 -1.3574 0.3448
-0.0697 -1.3684 0.3446
0.0526 -1.3691 0.3446
0.1746 -1.3596 0.3448
0.2955 -1.3398 0.3451
0.4144 -1.3098 0.3455
0.5306 -1.2699 0.3462
0.6432 -1.2202 0.3469
0.7515 -1.1610 0.3478
0.8547 -1.0927 0.3489
0.9521 -1.0155 0.3501
1.0428 -0.9300 0.3514
5.7349 -4.2605 1.7969
6.1177 -3.7474 1.8044
6.4561 -3.2007 1.8124
6.7472 -2.6241 1.8208
6.9882 -2.0214 1.8296
7.1764 -1.3967 1.8388
7.3095 -0.7547 1.8482
7.3859 -0.1000 1.8578
7.4038 0.5623 1.8675
7.3623 1.2270 1.8772
7.2608 1.8887 1.8869
7.0991 2.5419 1.8965
6.8779 3.1808 1.9059
6.5979 3.7998 1.9150
6.2609 4.3932 1.9237
5.8690 4.9555 1.9319
1.0703 1.0814 0.3827
0.9733 1.1771 0.3842
0.8674 1.2637 0.3855
0.7535 1.3401 0.3867
0.6326 1.4057 0.3877
0.5057 1.4597 0.3885
0.3741 1.5015 0.3892
0.2389 1.5306 0.3896
0.1015 1.5468 0.3899
-0.0370 1.5499 0.3899
-0.1750 1.5398 0.3898
-0.3114 1.5166 0.3894
-0.4449 1.4806 0.3888
-0.5741 1.4323 0.3881
-0.6979 1.3720 0.3871
-0.8152 1.3005 0.3860
-0.9249 1.2186 0.3848
-1.0261 1.1270 0.3833
-2.3448 2.1533 0.8007
-2.3465 1.7969 0.7433
-2.3480 1.4858 0.6989
-2.3494 1.2077 0.6644
-2.3507 0.9539 0.6380
-2.3518 0.7176 0.6184
-2.3529 0.4936 0.6047
-2.3540 0.2778 0.5962
-2.3550 0.0662 0.5925
-2.3561 -0.1444 0.5937
-2.3571 -0.3576 0.5996
-2.3582 -0.5769 0.6106
-2.3593 -0.8062 0.6271
-2.3605 -1.0502 0.6498
-2.3618 -1.3147 0.6798
-2.3632 -1.6074 0.7188
-1.0826 -0.8874 0.3521
-0.9952 -0.9766 0.3507
-0.9008 -1.0577 0.3494
-0.8003 -1.1302 0.3483
-0.6943 -1.1937 0.3473
-0.5836 -1.2479 0.3465
-0.4690 -1.2924 0.3458
-0.3513 -1.3270 0.3452
-0.2312 -1.3516 0.3449
-0.1096 -1.3659 0.3446
0.0127 -1.3700 0.3446
0.1349 -1.3638 0.3447
0.2563 -1.3473 0.3449
0.3759 -1.3207 0.3454
0.4931 -1.2840 0.3459
0.6069 -1.2375 0.3467
0.7167 -1.1814 0.3475
0.8217 -1.1160 0.3485
0.9210 -1.0416 0.3497
1.0140 -0.9588 0.3510
5.6010 -4.4201 1.7945
5.9975 -3.9187 1.8019
6.3507 -3.3826 1.8097
6.6576 -2.8153 1.8180
6.9152 -2.2206 1.8267
7.1209 -1.6027 1.8358
7.2723 -0.9658 1.8451
7.3673 -0.3147 1.8546
7.4044 0.3457 1.8643
7.3824 1.0102 1.8741
7.3005 1.6736 1.8838
7.1585 2.3301 1.8934
6.9566 2.9743 1.9028
6.6956 3.6004 1.9120
6.3770 4.2028 1.9209
6.0027 4.7758 1.9293
5.5754 5.3140 1.9372
1.0060 1.1469 0.3837
0.9029 1.2365 0.3851
0.7915 1.3163 0.3863
0.6728 1.3856 0.3874
0.5477 1.4434 0.3883
0.4175 1.4892 0.3890
0.2833 1.5225 0.3895
0.1465 1.5430 0.3898
0.0082 1.5503 0.3899
-0.1301 1.5445 0.3898
-0.2672 1.5256 0.3895
-0.4017 1.4938 0.3890
-0.5325 1.4494 0.3884
-0.6582 1.3929 0.3875
-0.7777 1.3250 0.3864
-0.8900 1.2464 0.3852
-0.9941 1.1579 0.3838
-1.0891 1.0603 0.3823
-2.3460 1.9075 0.7605
-2.3476 1.5832 0.7122
-2.3490 1.2954 0.6747
-2.3503 1.0345 0.6458
-2.3514 0.7931 0.6241
-2.3526 0.5656 0.6086
-2.3536 0.3476 0.5984
-2.3547 0.1350 0.5932
-2.3557 -0.0756 0.5928
-2.3568 -0.2876 0.5971
-2.3578 -0.5044 0.6064
-2.3589 -0.7300 0.6211
-2.3601 -0.9686 0.6416
-2.3614 -1.2257 0.6691
-2.3627 -1.5082 0.7050
-2.3643 -1.8254 0.7513
-1.0245 -0.9483 0.3511
-0.9323 -1.0321 0.3498
-0.8337 -1.1075 0.3486
-0.7294 -1.1740 0.3476
-0.6202 -1.2312 0.3467
-0.5067 -1.2789 0.3460
-0.3900 -1.3168 0.3454
-0.2706 -1.3447 0.3450
-0.1494 -1.3624 0.3447
-0.0272 -1.3698 0.3446
0.0951 -1.3670 0.3446
0.2168 -1.3538 0.3448
0.3371 -1.3305 0.3452
0.4552 -1.2971 0.3457
0.5702 -1.2537 0.3464
0.6814 -1.2007 0.3472
0.7880 -1.1383 0.3482
0.8893 -1.0668 0.3493
0.9844 -0.9868 0.3506
1.0727 -0.8985 0.3519
5.8727 -4.0862 1.7994
6.2404 -3.5611 1.8071
6.5628 -3.0036 1.8153
6.8368 -2.4174 1.8238
7.0597 -1.8066 1.8328
7.2290 -1.1754 1.8420
7.3426 -0.5284 1.8515
7.3988 0.1295 1.8612
7.3962 0.7933 1.8709
7.3339 1.4576 1.8806
7.1195 1.5894 1.8826
6.9839 2.2294 1.8919
6.7900 2.8575 1.9011
6.5386 3.4682 1.9101
6.2311 4.0560 1.9187
5.8694 4.6154 1.9269
1.0762 1.0142 0.3816
0.9853 1.1105 0.3831
0.8854 1.1982 0.3845
0.7774 1.2764 0.3857
0.6622 1.3444 0.3867
0.5409 1.4013 0.3876
0.4144 1.4465 0.3883
0.2841 1.4797 0.3888
0.1511 1.5004 0.3892
0.0166 1.5083 0.3893
-0.1180 1.5035 0.3892
-0.2515 1.4859 0.3889
-0.3826 1.4558 0.3885
-0.5101 1.4134 0.3878
-0.6328 1.3593 0.3870
-0.7496 1.2940 0.3859
-0.8595 1.2182 0.3848
-0.9614 1.1328 0.3834
-1.0546 1.0385 0.3820
-2.3459 1.9297 0.7839
-2.3475 1.6026 0.7335
-2.3489 1.3129 0.6944
-2.3502 1.0505 0.6643
-2.3514 0.8080 0.6416
-2.3525 0.5798 0.6253
-2.3536 0.3612 0.6145
-2.3546 0.1484 0.6089
-2.3556 -0.0622 0.6081
-2.3567 -0.2740 0.6123
-2.3577 -0.4904 0.6215
-2.3589 -0.7153 0.6361
-2.3600 -0.9529 0.6568
-2.3613 -1.2087 0.6846
-2.3626 -1.4893 0.7208
-1.0873 -0.8296 0.3530
-1.0049 -0.9197 0.3516
-0.9155 -1.0020 0.3503
-0.8198 -1.0762 0.3491
-0.7184 -1.1417 0.3481
-0.6121 -1.1982 0.3472
-0.5017 -1.2455 0.3465
-0.3879 -1.2831 0.3459
-0.2716 -1.3109 0.3455
-0.1534 -1.3289 0.3452
-0.0342 -1.3368 0.3451
0.0852 -1.3347 0.3451
0.2041 -1.3225 0.3453
0.3216 -1.3003 0.3457
0.4370 -1.2682 0.3462
0.5494 -1.2265 0.3468
0.6582 -1.1753 0.3476
0.7625 -1.1149 0.3486
0.8615 -1.0456 0.3496
0.9547 -0.9679 0.3508
1.0412 -0.8822 0.3522
5.7039 -4.0171 1.8004
6.0647 -3.5067 1.8079
6.3812 -2.9645 1.8158
6.6507 -2.3943 1.8242
6.8705 -1.7999 1.8329
7.0380 -1.1855 1.8419
7.1514 -0.5556 1.8511
7.2088 0.0852 1.8605
7.2090 0.7317 1.8700
7.1510 1.3790 1.8795
7.0346 2.0216 1.8889
6.8596 2.6542 1.8982
6.6269 3.2712 1.9072
6.3375 3.8671 1.9159
5.9932 4.4363 1.9243
5.5963 4.9737 1.9322
1.0160 1.0799 0.3826
0.9189 1.1706 0.3841
0.8135 1.2520 0.3853
0.7005 1.3234 0.3864
0.5811 1.3840 0.3874
0.4562 1.4331 0.3881
0.3270 1.4702 0.3887
0.1947 1.4950 0.3891
0.0605 1.5071 0.3893
-0.0742 1.5065 0.3893
-0.2082 1.4930 0.3890
-0.3402 1.4670 0.3886
-0.4690 1.4286 0.3880
-0.5934 1.3782 0.3872
-0.7122 1.3165 0.3863
-0.8245 1.2441 0.3852
-0.9291 1.1617 0.3839
-1.0252 1.0702 0.3825
-2.3453 2.0467 0.8033
-2.3470 1.7046 0.7486
-2.3484 1.4040 0.7061
-2.3498 1.1336 0.6733
-2.3510 0.8853 0.6483
-2.3521 0.6530 0.6300
-2.3532 0.4317 0.6174
-2.3543 0.2175 0.6102
-2.3553 0.0065 0.6078
-2.3563 -0.2045 0.6104
-2.3574 -0.4191 0.6179
-2.3585 -0.6407 0.6307
-2.3596 -0.8737 0.6494
-2.3608 -1.1229 0.6747
-2.3622 -1.3945 0.7079
-2.3637 -1.6969 0.7509
-1.0326 -0.8911 0.3520
-0.9454 -0.9761 0.3507
-0.8517 -1.0529 0.3495
-0.7520 -1.1213 0.3484
-0.6473 -1.1808 0.3475
-0.5381 -1.2311 0.3467
-0.4254 -1.2719 0.3461
-0.3098 -1.3029 0.3456
-0.1921 -1.3241 0.3453
-0.0731 -1.3353 0.3451
0.0463 -1.3365 0.3451
0.1654 -1.3275 0.3452
0.2835 -1.3086 0.3455
0.3996 -1.2798 0.3460
0.5131 -1.2412 0.3466
0.6231 -1.1930 0.3473
0.7290 -1.1356 0.3482
0.8298 -1.0692 0.3493
0.9250 -0.9942 0.3504
1.0137 -0.9110 0.3517
5.5772 -4.1762 1.7981
5.9517 -3.6769 1.8054
6.2830 -3.1447 1.8132
6.5681 -2.5832 1.8214
6.8044 -1.9962 1.8300
6.9892 -1.3879 1.8389
7.1205 -0.7625 1.8481
7.1963 -0.1247 1.8574
7.2153 0.5205 1.8669
7.1764 1.1681 1.8764
7.0790 1.8128 1.8858
6.9231 2.4493 1.8952
6.7091 3.0719 1.9043
6.4380 3.6753 1.9131
6.1114 4.2538 1.9216
5.7314 4.8022 1.9297
1.0457 1.0485 0.3822
0.9516 1.1420 0.3836
0.8488 1.2265 0.3849
0.7382 1.3012 0.3861
0.6207 1.3654 0.3871
0.4975 1.4183 0.3879
0.3695 1.4595 0.3885
0.2381 1.4883 0.3890
0.1044 1.5046 0.3892
-0.0302 1.5081 0.3893
-0.1646 1.4988 0.3891
-0.2974 1.4769 0.3888
-0.4274 1.4424 0.3882
-0.5534 1.3959 0.3875
-0.6742 1.3379 0.3866
-0.7886 1.2688 0.3855
-0.8958 1.1896 0.3843
-0.9948 1.1010 0.3829
-1.0848 1.0038 0.3814
-2.3464 1.8110 0.7649
-2.3480 1.4983 0.7188
-2.3493 1.2190 0.6831
-2.3506 0.9643 0.6557
-2.3518 0.7273 0.6353
-2.3529 0.5030 0.6209
-2.3539 0.2868 0.6120
-2.3550 0.0752 0.6081
-2.3560 -0.1355 0.6090
-2.3571 -0.3485 0.6149
-2.3581 -0.5674 0.6259
-2.3592 -0.7962 0.6426
-2.3604 -1.0394 0.6656
-2.3617 -1.3030 0.6961
-2.3632 -1.5942 0.7357
-1.0595 -0.8618 0.3525
-0.9746 -0.9492 0.3511
-0.8829 -1.0288 0.3499
-0.7851 -1.1000 0.3488
-0.6820 -1.1624 0.3478
-0.5742 -1.2157 0.3470
-0.4625 -1.2596 0.3463
-0.3477 -1.2939 0.3458
-0.2307 -1.3183 0.3454
-0.1120 -1.3328 0.3452
0.0073 -1.3372 0.3451
0.1266 -1.3316 0.3452
0.2451 -1.3159 0.3454
0.3620 -1.2903 0.3458
0.4764 -1.2548 0.3464
0.5877 -1.2098 0.3471
0.6949 -1.1553 0.3479
0.7975 -1.0918 0.3489
0.8946 -1.0196 0.3500
0.9855 -0.9390 0.3513
1.0696 -0.8507 0.3527
5.8341 -3.8436 1.8030
6.1798 -3.3217 1.8106
6.4804 -2.7694 1.8187
6.7328 -2.1903 1.8272
6.9347 -1.5884 1.8360
7.0837 -0.9681 1.8451
7.1778 -0.3339 1.8544
7.2154 0.3094 1.8638
7.1955 0.9569 1.8733
7.1172 1.6031 1.8828
6.9804 2.2429 1.8921
6.7853 2.8706 1.9013
6.5327 3.4809 1.9103
6.2240 4.0682 1.9189
5.8611 4.6269 1.9271
1.0744 1.0163 0.3817
0.9833 1.1124 0.3832
0.8832 1.2000 0.3845
0.7750 1.2780 0.3857
0.6597 1.3457 0.3868
0.5382 1.4024 0.3876
0.4117 1.4474 0.3883
0.2813 1.4803 0.3889
0.1482 1.5007 0.3892
0.0137 1.5084 0.3893
-0.1209 1.5033 0.3892
-0.2544 1.4854 0.3889
-0.3854 1.4550 0.3884
-0.5128 1.4124 0.3878
-0.6354 1.3580 0.3869
-0.7520 1.2925 0.3859
-0.8617 1.2165 0.3847
-0.9635 1.1309 0.3834
-1.0565 1.0364 0.3819
-2.3459 1.9222 0.7827
-2.3475 1.5961 0.7326
-2.3489 1.3070 0.6937
-2.3502 1.0451 0.6638
-2.3514 0.8030 0.6412
-2.3525 0.5751 0.6250
-2.3536 0.3567 0.6143
-2.3546 0.1440 0.6088
-2.3557 -0.0666 0.6082
-2.3567 -0.2785 0.6124
-2.3578 -0.4951 0.6217
-2.3589 -0.7202 0.6365
-2.3600 -0.9581 0.6573
-2.3613 -1.2144 0.6852
-2.3627 -1.4956 0.7216
-1.0856 -0.8316 0.3529
-1.0031 -0.9215 0.3515
-0.9136 -1.0037 0.3503
-0.8177 -1.0777 0.3491
-0.7162 -1.1430 0.3481
-0.6098 -1.1993 0.3472
-0.4993 -1.2463 0.3465
-0.3855 -1.2838 0.3459
-0.2691 -1.3114 0.3455
-0.1509 -1.3292 0.3452
-0.0317 -1.3369 0.3451
0.0878 -1.3345 0.3451
0.2066 -1.3221 0.3453
0.3241 -1.2997 0.3457
0.4394 -1.2675 0.3462
0.5518 -1.2255 0.3468
0.6604 -1.1741 0.3476
0.7646 -1.1135 0.3486
0.8636 -1.0441 0.3497
0.9566 -0.9662 0.3509
1.0429 -0.8803 0.3522
5.7120 -4.0066 1.8006
6.0718 -3.4955 1.8081
6.3874 -2.9527 1.8160
6.6559 -2.3819 1.8244
6.8746 -1.7870 1.8331
7.0410 -1.1722 1.8421
7.1532 -0.5421 1.8513
7.2094 0.0989 1.8607
7.2084 0.7455 1.8702
7.1492 1.3927 1.8797
7.0315 2.0352 1.8891
6.8553 2.6675 1.8984
6.6213 3.2840 1.9074
6.3307 3.8794 1.9161
5.9853 4.4481 1.9245
5.5873 4.9847 1.9323
1.0140 1.0820 0.3827
0.9168 1.1724 0.3841
0.8112 1.2536 0.3853
0.6981 1.3248 0.3864
0.5785 1.3851 0.3874
0.4535 1.4340 0.3881
0.3242 1.4709 0.3887
0.1918 1.4954 0.3891
0.0577 1.5073 0.3893
-0.0770 1.5063 0.3892
-0.2110 1.4926 0.3890
-0.3430 1.4663 0.3886
-0.4717 1.4276 0.3880
-0.5960 1.3770 0.3872
-0.7147 1.3151 0.3863
-0.8268 1.2424 0.3851
-0.9312 1.1598 0.3838
-1.0271 1.0681 0.3824
-2.3453 2.0389 0.8020
-2.3470 1.6978 0.7476
-2.3485 1.3979 0.7053
-2.3498 1.1281 0.6727
-2.3510 0.8802 0.6479
-2.3522 0.6482 0.6296
-2.3532 0.4271 0.6172
-2.3543 0.2130 0.6101
-2.3553 0.0020 0.6078
-2.3564 -0.2090 0.6105
-2.3574 -0.4237 0.6181
-2.3585 -0.6455 0.6310
-2.3597 -0.8788 0.6498
-2.3609 -1.1284 0.6753
-2.3622 -1.4006 0.7087
-2.3637 -1.7037 0.7519
-1.0308 -0.8930 0.3520
-0.9435 -0.9778 0.3507
-0.8496 -1.0545 0.3495
-0.7499 -1.1227 0.3484
-0.6450 -1.1820 0.3475
-0.5358 -1.2321 0.3467
-0.4229 -1.2726 0.3461
-0.3073 -1.3035 0.3456
-0.1896 -1.3245 0.3453
-0.0706 -1.3355 0.3451
0.0488 -1.3364 0.3451
0.1679 -1.3273 0.3453
0.2859 -1.3081 0.3456
0.4020 -1.2791 0.3460
0.5155 -1.2402 0.3466
0.6254 -1.1919 0.3474
0.7312 -1.1343 0.3483
0.8319 -1.0677 0.3493
0.9269 -0.9925 0.3505
1.0155 -0.9092 0.3518
5.5856 -4.1660 1.7983
5.9592 -3.6659 1.8056
6.2895 -3.1330 1.8134
6.5737 -2.5710 1.8216
6.8089 -1.9835 1.8302
6.9926 -1.3748 1.8391
7.1227 -0.7491 1.8483
7.1973 -0.1111 1.8576
7.2150 0.5342 1.8671
7.1749 1.1818 1.8766
7.0763 1.8264 1.8860
6.9191 2.4626 1.8954
6.7040 3.0850 1.9045
6.4317 3.6879 1.9133
6.1039 4.2658 1.9218
5.7228 4.8135 1.9298
1.0438 1.0506 0.3822
0.9495 1.1439 0.3836
0.8465 1.2282 0.3849
0.7357 1.3027 0.3861
0.6181 1.3667 0.3871
0.4948 1.4193 0.3879
0.3668 1.4602 0.3885
0.2353 1.4888 0.3890
0.1016 1.5048 0.3892
-0.0331 1.5080 0.3893
-0.1675 1.4985 0.3891
-0.3002 1.4763 0.3888
-0.4301 1.4416 0.3882
-0.5560 1.3948 0.3875
-0.6767 1.3365 0.3866
-0.7910 1.2673 0.3855
-0.8980 1.1878 0.3843
-0.9968 1.0990 0.3829
-1.0866 1.0017 0.3814
-2.3465 1.8039 0.7638
-2.3480 1.4920 0.7179
-2.3494 1.2134 0.6824
-2.3506 0.9591 0.6552
-2.3518 0.7225 0.6349
-2.3529 0.4983 0.6207
-2.3540 0.2823 0.6118
-2.3550 0.0707 0.6080
-2.3560 -0.1399 0.6091
-2.3571 -0.3530 0.6151
-2.3581 -0.5721 0.6262
-2.3593 -0.8012 0.6430
-2.3605 -1.0448 0.6662
-2.3618 -1.3088 0.6968
-2.3632 -1.6008 0.7366
-1.0578 -0.8637 0.3524
-0.9728 -0.9510 0.3511
-0.8809 -1.0304 0.3498
-0.7830 -1.1014 0.3487
-0.6797 -1.1636 0.3478
-0.5718 -1.2167 0.3470
-0.4601 -1.2605 0.3463
-0.3453 -1.2945 0.3458
-0.2282 -1.3187 0.3454
-0.1095 -1.3330 0.3452
0.0099 -1.3372 0.3451
0.1292 -1.3313 0.3452
0.2476 -1.3155 0.3454
0.3644 -1.2896 0.3458
0.4788 -1.2540 0.3464
0.5900 -1.2087 0.3471
0.6972 -1.1541 0.3480
0.7996 -1.0904 0.3489
0.8966 -1.0179 0.3501
0.9874 -0.9372 0.3513
1.0713 -0.8487 0.3527
5.8419 -3.8328 1.8031
6.1867 -3.3103 1.8108
6.4862 -2.7573 1.8189
6.7377 -2.1777 1.8274
6.9384 -1.5754 1.8362
7.0862 -0.9548 1.8453
7.1791 -0.3203 1.8546
7.2156 0.3232 1.8640
7.1944 0.9706 1.8735
7.1149 1.6168 1.8830
6.9768 2.2563 1.8923
6.7805 2.8838 1.9015
6.5267 3.4936 1.9105
6.2168 4.0803 1.9191
5.8528 4.6384 1.9273
1.0726 1.0184 0.3817
0.9812 1.1144 0.3832
0.8810 1.2017 0.3845
0.7727 1.2795 0.3857
0.6572 1.3470 0.3868
0.5356 1.4034 0.3877
0.4090 1.4482 0.3884
0.2785 1.4808 0.3889
0.1454 1.5010 0.3892
0.0109 1.5084 0.3893
-0.1237 1.5030 0.3892
-0.2572 1.4849 0.3889
-0.3881 1.4542 0.3884
-0.5155 1.4114 0.3878
-0.6379 1.3568 0.3869
-0.7544 1.2910 0.3859
-0.8640 1.2148 0.3847
-0.9655 1.1289 0.3834
-1.0583 1.0343 0.3819
-2.3459 1.9148 0.7815
-2.3475 1.5896 0.7317
-2.3489 1.3012 0.6930
-2.3502 1.0398 0.6632
-2.3514 0.7980 0.6408
-2.3525 0.5703 0.6247
-2.3536 0.3521 0.6142
-2.3547 0.1395 0.6087
-2.3557 -0.0711 0.6082
-2.3567 -0.2830 0.6126
-2.3578 -0.4998 0.6220
-2.3589 -0.7251 0.6369
-2.3601 -0.9634 0.6579
-2.3613 -1.2200 0.6859
-2.3627 -1.5019 0.7225
-1.0840 -0.8336 0.3529
-1.0013 -0.9234 0.3515
-0.9116 -1.0054 0.3502
-0.8156 -1.0792 0.3491
-0.7140 -1.1443 0.3481
-0.6075 -1.2004 0.3472
-0.4969 -1.2472 0.3465
-0.3830 -1.2845 0.3459
-0.2666 -1.3119 0.3455
-0.1483 -1.3294 0.3452
-0.0291 -1.3369 0.3451
0.0903 -1.3344 0.3451
0.2091 -1.3217 0.3453
0.3265 -1.2991 0.3457
0.4418 -1.2667 0.3462
0.5541 -1.2245 0.3469
0.6627 -1.1729 0.3477
0.7668 -1.1121 0.3486
0.8656 -1.0425 0.3497
0.9585 -0.9644 0.3509
1.0447 -0.8784 0.3522
5.7201 -3.9961 1.8007
6.0790 -3.4843 1.8082
6.3936 -2.9408 1.8162
6.6611 -2.3695 1.8245
6.8787 -1.7742 1.8333
7.0440 -1.1590 1.8423
7.1550 -0.5285 1.8515
7.2100 0.1126 1.8609
7.2077 0.7592 1.8704
7.1473 1.4064 1.8799
7.0283 2.0487 1.8893
6.8509 2.6807 1.8986
6.6157 3.2969 1.9076
6.3240 3.8918 1.9163
5.9774 4.4598 1.9246
5.5783 4.9957 1.9325
1.0120 1.0840 0.3827
0.9146 1.1742 0.3841
0.8088 1.2552 0.3854
0.6956 1.3262 0.3865
0.5759 1.3863 0.3874
0.4508 1.4349 0.3882
0.3214 1.4716 0.3887
0.1890 1.4958 0.3891
0.0548 1.5074 0.3893
-0.0799 1.5062 0.3892
-0.2138 1.4922 0.3890
-0.3458 1.4656 0.3886
-0.4744 1.4267 0.3880
-0.5986 1.3758 0.3872
-0.7172 1.3136 0.3862
-0.8291 1.2408 0.3851
-0.9333 1.1580 0.3838
-1.0291 1.0661 0.3824
-2.3454 2.0311 0.8007
-2.3470 1.6911 0.7465
-2.3485 1.3919 0.7045
-2.3498 1.1226 0.6721
-2.3510 0.8751 0.6474
-2.3522 0.6434 0.6293
-2.3533 0.4225 0.6170
-2.3543 0.2085 0.6100
-2.3554 -0.0024 0.6078
-2.3564 -0.2135 0.6106
-2.3574 -0.4283 0.6183
-2.3585 -0.6504 0.6314
-2.3597 -0.8839 0.6503
-2.3609 -1.1339 0.6759
-2.3622 -1.4067 0.7095
-2.3637 -1.7106 0.7530
-1.0291 -0.8949 0.3519
-0.9416 -0.9795 0.3506
-0.8476 -1.0560 0.3494
-0.7477 -1.1240 0.3484
-0.6427 -1.1831 0.3475
-0.5334 -1.2330 0.3467
-0.4205 -1.2734 0.3461
-0.3048 -1.3040 0.3456
-0.1871 -1.3248 0.3453
-0.0681 -1.3356 0.3451
0.0514 -1.3363 0.3451
0.1705 -1.3270 0.3453
0.2884 -1.3076 0.3456
0.4045 -1.2783 0.3460
0.5178 -1.2393 0.3466
0.6277 -1.1908 0.3474
0.7333 -1.1329 0.3483
0.8340 -1.0662 0.3493
0.9289 -0.9908 0.3505
1.0174 -0.9073 0.3518
5.5939 -4.1558 1.7984
5.9666 -3.6549 1.8057
6.2960 -3.1214 1.8135
6.5792 -2.5588 1.8218
6.8133 -1.9708 1.8304
6.9959 -1.3616 1.8393
7.1248 -0.7356 1.8485
7.1983 -0.0975 1.8578
7.2148 0.5479 1.8673
7.1734 1.1956 1.8768
7.0736 1.8400 1.8862
6.9152 2.4760 1.8955
6.6988 3.0980 1.9047
6.4253 3.7004 1.9135
6.0963 4.2778 1.9220
5.7141 4.8247 1.9300
1.0419 1.0527 0.3822
0.9474 1.1457 0.3837
0.8442 1.2299 0.3850
0.7333 1.3042 0.3861
0.6156 1.3679 0.3871
0.4921 1.4203 0.3879
0.3640 1.4609 0.3886
0.2325 1.4893 0.3890
0.0987 1.5050 0.3892
-0.0360 1.5080 0.3893
-0.1703 1.4982 0.3891
-0.3030 1.4756 0.3888
-0.4329 1.4407 0.3882
-0.5586 1.3937 0.3875
-0.6792 1.3351 0.3866
-0.7933 1.2657 0.3855
-0.9002 1.1860 0.3843
-0.9988 1.0970 0.3829
-1.0884 0.9995 0.3814
-2.3465 1.7969 0.7627
-2.3480 1.4858 0.7171
-2.3494 1.2077 0.6817
-2.3507 0.9539 0.6547
-2.3518 0.7176 0.6346
-2.3529 0.4936 0.6204
-2.3540 0.2778 0.6117
-2.3550 0.0662 0.6080
-2.3561 -0.1444 0.6092
-2.3571 -0.3576 0.6153
-2.3582 -0.5769 0.6265
-2.3593 -0.8062 0.6434
-2.3605 -1.0502 0.6667
-2.3618 -1.3147 0.6976
-2.3632 -1.6074 0.7376
-1.0561 -0.8656 0.3524
-0.9709 -0.9528 0.3510
-0.8789 -1.0320 0.3498
-0.7809 -1.1028 0.3487
-0.6775 -1.1648 0.3478
-0.5695 -1.2178 0.3469
-0.4577 -1.2613 0.3463
-0.3428 -1.2951 0.3457
-0.2257 -1.3191 0.3454
-0.1070 -1.3332 0.3452
0.0124 -1.3372 0.3451
0.1317 -1.3311 0.3452
0.2501 -1.3150 0.3454
0.3669 -1.2890 0.3459
0.4812 -1.2531 0.3464
0.5923 -1.2076 0.3471
0.6994 -1.1528 0.3480
0.8018 -1.0889 0.3490
0.8986 -1.0163 0.3501
0.9892 -0.9354 0.3514
1.0730 -0.8467 0.3527
5.8496 -3.8221 1.8033
6.1935 -3.2988 1.8109
6.4921 -2.7453 1.8190
6.7425 -2.1651 1.8275
6.9421 -1.5624 1.8364
7.0888 -0.9414 1.8455
7.1805 -0.3067 1.8548
7.2157 0.3369 1.8642
7.1933 0.9844 1.8737
7.1126 1.6305 1.8832
6.9733 2.2698 1.8925
6.7757 2.8969 1.9017
6.5207 3.5063 1.9107
6.2096 4.0925 1.9193
5.8445 4.6500 1.9274
1.0707 1.0205 0.3817
0.9792 1.1163 0.3832
0.8788 1.2035 0.3846
0.7703 1.2811 0.3858
0.6547 1.3483 0.3868
0.5330 1.4045 0.3877
0.4062 1.4490 0.3884
0.2757 1.4814 0.3889
0.1425 1.5013 0.3892
0.0080 1.5084 0.3893
-0.1266 1.5028 0.3892
-0.2600 1.4844 0.3889
-0.3909 1.4534 0.3884
-0.5181 1.4103 0.3877
-0.6405 1.3555 0.3869
-0.7568 1.2895 0.3859
-0.8662 1.2131 0.3847
-0.9676 1.1270 0.3833
-1.0602 1.0322 0.3819
-2.3460 1.9075 0.7803
-2.3476 1.5832 0.7307
-2.3490 1.2954 0.6923
-2.3503 1.0345 0.6627
-2.3514 0.7931 0.6404
-2.3526 0.5656 0.6244
-2.3536 0.3476 0.6140
-2.3547 0.1350 0.6087
-2.3557 -0.0756 0.6083
-2.3568 -0.2876 0.6127
-2.3578 -0.5044 0.6223
-2.3589 -0.7300 0.6372
-2.3601 -0.9686 0.6584
-2.3614 -1.2257 0.6866
-2.3627 -1.5082 0.7234
-1.0823 -0.8356 0.3529
-0.9994 -0.9252 0.3515
-0.9096 -1.0070 0.3502
-0.8135 -1.0806 0.3491
-0.7118 -1.1456 0.3481
-0.6052 -1.2015 0.3472
-0.4945 -1.2481 0.3465
-0.3806 -1.2852 0.3459
-0.2641 -1.3124 0.3455
-0.1458 -1.3297 0.3452
-0.0266 -1.3370 0.3451
0.0928 -1.3342 0.3451
0.2116 -1.3214 0.3453
0.3290 -1.2985 0.3457
0.4442 -1.2659 0.3462
0.5565 -1.2235 0.3469
0.6649 -1.1717 0.3477
0.7689 -1.1107 0.3486
0.8677 -1.0409 0.3497
0.9604 -0.9627 0.3509
1.0465 -0.8765 0.3523
5.7281 -3.9856 1.8009
6.0862 -3.4730 1.8084
6.3998 -2.9290 1.8164
6.6662 -2.3571 1.8247
6.8827 -1.7613 1.8335
7.0469 -1.1458 1.8425
7.1567 -0.5150 1.8517
7.2105 0.1262 1.8611
7.2070 0.7730 1.8706
7.1454 1.4201 1.8801
6.9403 1.5494 1.8820
6.8073 2.1730 1.8911
6.6175 2.7849 1.9001
6.3717 3.3796 1.9088
6.0713 3.9520 1.9172
5.7182 4.4966 1.9252
1.0483 0.9879 0.3812
0.9597 1.0816 0.3827
0.8623 1.1669 0.3840
0.7571 1.2430 0.3852
0.6449 1.3091 0.3862
0.5266 1.3644 0.3871
0.4035 1.4084 0.3877
0.2766 1.4407 0.3882
0.1471 1.4608 0.3885
0.0161 1.4685 0.3887
-0.1149 1.4638 0.3886
-0.2449 1.4467 0.3883
-0.3726 1.4174 0.3879
-0.4967 1.3762 0.3872
-0.6162 1.3236 0.3864
-0.7300 1.2601 0.3854
-0.8370 1.1864 0.3843
-0.9364 1.1033 0.3830
-1.0272 1.0116 0.3815
-2.3459 1.9297 0.8039
-2.3475 1.6026 0.7522
-2.3489 1.3129 0.7121
-2.3502 1.0505 0.6813
-2.3514 0.8080 0.6580
-2.3525 0.5798 0.6412
-2.3536 0.3612 0.6302
-2.3546 0.1484 0.6244
-2.3556 -0.0622 0.6236
-2.3567 -0.2740 0.6279
-2.3577 -0.4904 0.6373
-2.3588 -0.7153 0.6523
-2.3600 -0.9529 0.6736
-2.3613 -1.2087 0.7020
-2.3626 -1.4893 0.7391
-1.0612 -0.8097 0.3533
-0.9809 -0.8977 0.3519
-0.8937 -0.9782 0.3507
-0.8003 -1.0506 0.3495
-0.7014 -1.1147 0.3485
-0.5977 -1.1699 0.3477
-0.4899 -1.2161 0.3470
-0.3788 -1.2529 0.3464
-0.2652 -1.2801 0.3460
-0.1498 -1.2977 0.3457
-0.0334 -1.3054 0.3456
0.0832 -1.3033 0.3456
0.1993 -1.2914 0.3458
0.3140 -1.2697 0.3461
0.4267 -1.2384 0.3466
0.5364 -1.1976 0.3473
0.6426 -1.1475 0.3481
0.7444 -1.0884 0.3490
0.8410 -1.0207 0.3500
0.9319 -0.9448 0.3512
1.0162 -0.8611 0.3525
5.5665 -3.9203 1.8019
5.9179 -3.4218 1.8091
6.2262 -2.8925 1.8169
6.4884 -2.3359 1.8250
6.7020 -1.7557 1.8335
6.8646 -1.1563 1.8423
6.9743 -0.5418 1.8513
7.0294 0.0830 1.8605
7.0287 0.7135 1.8697
6.9714 1.3444 1.8790
6.8569 1.9706 1.8881
6.6856 2.5868 1.8972
6.4580 3.1878 1.9060
6.1752 3.7680 1.9145
5.8391 4.3223 1.9226
1.0753 0.9557 0.3807
0.9896 1.0519 0.3822
0.8950 1.1401 0.3836
0.7922 1.2193 0.3848
0.6822 1.2887 0.3859
0.5658 1.3476 0.3868
0.4442 1.3953 0.3875
0.3183 1.4315 0.3881
0.1895 1.4555 0.3885
0.0589 1.4673 0.3886
-0.0722 1.4667 0.3886
-0.2027 1.4536 0.3884
-0.3312 1.4283 0.3880
-0.4567 1.3909 0.3874
-0.5778 1.3420 0.3867
-0.6936 1.2820 0.3858
-0.8029 1.2115 0.3847
-0.9049 1.1314 0.3834
-0.9986 1.0424 0.3820
-1.0833 0.9454 0.3805
-2.3470 1.7046 0.7677
-2.3484 1.4040 0.7241
-2.3498 1.1336 0.6904
-2.3510 0.8853 0.6648
-2.3521 0.6530 0.6460
-2.3532 0.4317 0.6332
-2.3543 0.2175 0.6257
-2.3553 0.0065 0.6233
-2.3563 -0.2045 0.6260
-2.3574 -0.4191 0.6337
-2.3585 -0.6407 0.6468
-2.3596 -0.8737 0.6659
-2.3608 -1.1229 0.6919
-2.3622 -1.3945 0.7260
-1.0858 -0.7795 0.3537
-1.0079 -0.8698 0.3523
-0.9229 -0.9528 0.3510
-0.8314 -1.0279 0.3499
-0.7342 -1.0947 0.3488
-0.6320 -1.1529 0.3479
-0.5254 -1.2020 0.3472
-0.4154 -1.2419 0.3466
-0.3025 -1.2723 0.3461
-0.1876 -1.2930 0.3458
-0.0714 -1.3040 0.3456
0.0452 -1.3051 0.3456
0.1615 -1.2964 0.3457
0.2768 -1.2778 0.3460
0.3902 -1.2496 0.3465
0.5010 -1.2119 0.3471
0.6084 -1.1648 0.3478
0.7117 -1.1087 0.3487
0.8101 -1.0438 0.3497
0.9029 -0.9705 0.3508
0.9895 -0.8892 0.3521
1.0690 -0.8005 0.3535
5.8079 -3.5880 1.8067
6.1305 -3.0684 1.8143
6.4081 -2.5202 1.8223
6.6378 -1.9473 1.8307
6.8173 -1.3537 1.8394
6.9445 -0.7436 1.8484
7.0176 -0.1217 1.8575
7.0352 0.5075 1.8667
6.9963 1.1388 1.8760
6.9005 1.7671 1.8852
6.7477 2.3872 1.8943
6.5384 2.9937 1.9031
6.2735 3.5813 1.9118
5.9545 4.1446 1.9200
5.5836 4.6784 1.9279
1.0186 1.0213 0.3817
0.9268 1.1122 0.3831
0.8266 1.1944 0.3844
0.7188 1.2671 0.3856
0.6044 1.3295 0.3865
0.4844 1.3810 0.3873
0.3598 1.4210 0.3879
0.2318 1.4490 0.3884
0.1017 1.4648 0.3886
-0.0294 1.4683 0.3887
-0.1603 1.4592 0.3885
-0.2896 1.4379 0.3882
-0.4162 1.4044 0.3877
-0.5388 1.3592 0.3870
-0.6565 1.3028 0.3861
-0.7680 1.2356 0.3850
-0.8725 1.1586 0.3838
-0.9690 1.0723 0.3825
-1.0567 0.9778 0.3810
-2.3464 1.8110 0.7844
-2.3480 1.4983 0.7371
-2.3493 1.2190 0.7005
-2.3506 0.9643 0.6724
-2.3518 0.7273 0.6515
-2.3529 0.5030 0.6368
-2.3539 0.2868 0.6276
-2.3550 0.0752 0.6236
-2.3560 -0.1355 0.6245
-2.3571 -0.3485 0.6306
-2.3581 -0.5674 0.6419
-2.3592 -0.7962 0.6590
-2.3604 -1.0394 0.6826
-2.3617 -1.3030 0.7138
-2.3632 -1.5942 0.7544
-1.0341 -0.8411 0.3528
-0.9514 -0.9265 0.3515
-0.8619 -1.0043 0.3502
-0.7665 -1.0739 0.3492
-0.6658 -1.1349 0.3482
-0.5606 -1.1870 0.3474
-0.4516 -1.2299 0.3468
-0.3396 -1.2634 0.3462
-0.2252 -1.2873 0.3459
-0.1094 -1.3015 0.3456
0.0071 -1.3058 0.3456
0.1237 -1.3003 0.3457
0.2394 -1.2850 0.3459
0.3534 -1.2599 0.3463
0.4652 -1.2252 0.3468
0.5738 -1.1812 0.3475
0.6785 -1.1280 0.3484
0.7786 -1.0659 0.3493
0.8733 -0.9953 0.3504
0.9620 -0.9166 0.3516
1.0439 -0.8302 0.3530
5.6933 -3.7508 1.8043
6.0301 -3.2412 1.8118
6.3227 -2.7020 1.8197
6.5683 -2.1367 1.8280
6.7644 -1.5494 1.8366
6.9088 -0.9442 1.8454
6.9997 -0.3256 1.8545
7.0356 0.3017 1.8637
7.0152 0.9329 1.8729
6.9381 1.5628 1.8822
6.8038 2.1861 1.8913
6.6128 2.7977 1.9003
6.3659 3.3920 1.9090
6.0644 3.9639 1.9174
5.7102 4.5078 1.9254
1.0466 0.9900 0.3813
0.9577 1.0835 0.3827
0.8602 1.1686 0.3840
0.7548 1.2445 0.3852
0.6424 1.3104 0.3862
0.5241 1.3655 0.3871
0.4009 1.4092 0.3878
0.2739 1.4412 0.3882
0.1443 1.4610 0.3885
0.0134 1.4685 0.3887
-0.1177 1.4636 0.3886
-0.2476 1.4462 0.3883
-0.3752 1.4167 0.3878
-0.4993 1.3752 0.3872
-0.6187 1.3224 0.3864
-0.7323 1.2587 0.3854
-0.8392 1.1848 0.3842
-0.9384 1.1014 0.3829
-1.0291 1.0095 0.3815
-2.3459 1.9222 0.8026
-2.3475 1.5961 0.7513
-2.3489 1.3070 0.7114
-2.3502 1.0451 0.6807
-2.3514 0.8030 0.6576
-2.3525 0.5751 0.6409
-2.3536 0.3567 0.6300
-2.3546 0.1440 0.6243
-2.3557 -0.0666 0.6237
-2.3567 -0.2785 0.6280
-2.3578 -0.4951 0.6376
-2.3589 -0.7202 0.6527
-2.3600 -0.9581 0.6741
-2.3613 -1.2143 0.7027
-2.3627 -1.4956 0.7400
-1.0596 -0.8117 0.3532
-0.9791 -0.8995 0.3519
-0.8918 -0.9798 0.3506
-0.7983 -1.0521 0.3495
-0.6992 -1.1159 0.3485
-0.5954 -1.1710 0.3477
-0.4875 -1.2170 0.3470
-0.3764 -1.2536 0.3464
-0.2627 -1.2806 0.3460
-0.1473 -1.2979 0.3457
-0.0309 -1.3055 0.3456
0.0857 -1.3032 0.3456
0.2017 -1.2910 0.3458
0.3164 -1.2691 0.3462
0.4290 -1.2376 0.3467
0.5387 -1.1966 0.3473
0.6448 -1.1463 0.3481
0.7465 -1.0871 0.3490
0.8430 -1.0192 0.3501
0.9338 -0.9431 0.3512
1.0180 -0.8592 0.3525
5.5744 -3.9101 1.8020
5.9249 -3.4109 1.8093
6.2322 -2.8809 1.8171
6.4935 -2.3238 1.8252
6.7060 -1.7432 1.8337
6.8675 -1.1434 1.8425
6.9761 -0.5286 1.8515
7.0300 0.0964 1.8607
7.0281 0.7269 1.8699
6.9695 1.3577 1.8792
6.8539 1.9838 1.8883
6.6813 2.5998 1.8974
6.4525 3.2003 1.9062
6.1687 3.7801 1.9147
5.8314 4.3337 1.9228
1.0736 0.9578 0.3808
0.9877 1.0539 0.3822
0.8929 1.1418 0.3836
0.7900 1.2208 0.3848
0.6798 1.2900 0.3859
0.5633 1.3487 0.3868
0.4415 1.3962 0.3875
0.3156 1.4321 0.3881
0.1868 1.4559 0.3885
0.0562 1.4675 0.3886
-0.0750 1.4665 0.3886
-0.2054 1.4532 0.3884
-0.3339 1.4276 0.3880
-0.4593 1.3900 0.3874
-0.5803 1.3408 0.3867
-0.6960 1.2806 0.3857
-0.8051 1.2099 0.3846
-0.9069 1.1296 0.3834
-1.0005 1.0404 0.3820
-1.0850 0.9432 0.3805
-2.3470 1.6978 0.7666
-2.3485 1.3979 0.7233
-2.3498 1.1281 0.6898
-2.3510 0.8802 0.6644
-2.3522 0.6482 0.6457
-2.3532 0.4271 0.6330
-2.3543 0.2130 0.6256
-2.3553 0.0020 0.6233
-2.3564 -0.2090 0.6261
-2.3574 -0.4237 0.6339
-2.3585 -0.6455 0.6471
-2.3596 -0.8788 0.6664
-2.3609 -1.1284 0.6925
-2.3622 -1.4006 0.7268
-1.0842 -0.7815 0.3537
-1.0062 -0.8716 0.3523
-0.9210 -0.9544 0.3510
-0.8294 -1.0294 0.3499
-0.7321 -1.0960 0.3488
-0.6298 -1.1540 0.3479
-0.5231 -1.2030 0.3472
-0.4130 -1.2427 0.3466
-0.3001 -1.2728 0.3461
-0.1851 -1.2933 0.3458
-0.0689 -1.3041 0.3456
0.0477 -1.3050 0.3456
0.1640 -1.2961 0.3457
0.2792 -1.2773 0.3460
0.3926 -1.2489 0.3465
0.5033 -1.2110 0.3471
0.6106 -1.1637 0.3478
0.7138 -1.1074 0.3487
0.8121 -1.0423 0.3497
0.9048 -0.9688 0.3508
0.9912 -0.8874 0.3521
1.0707 -0.7986 0.3535
5.8152 -3.5773 1.8069
6.1369 -3.0570 1.8145
6.4135 -2.5083 1.8225
6.6421 -1.9350 1.8309
6.8205 -1.3409 1.8396
6.9466 -0.7305 1.8486
7.0185 -0.1084 1.8577
7.0349 0.5209 1.8669
6.9949 1.1522 1.8761
6.8979 1.7804 1.8854
6.7439 2.4003 1.8944
6.5333 3.0064 1.9033
6.2672 3.5936 1.9119
5.9472 4.1563 1.9202
5.5752 4.6894 1.9280
1.0167 1.0233 0.3818
0.9247 1.1141 0.3832
0.8244 1.1961 0.3844
0.7165 1.2686 0.3856
0.6019 1.3308 0.3865
0.4818 1.3820 0.3873
0.3571 1.4217 0.3879
0.2291 1.4495 0.3884
0.0989 1.4651 0.3886
-0.0322 1.4682 0.3887
-0.1630 1.4589 0.3885
-0.2923 1.4373 0.3882
-0.4188 1.4036 0.3876
-0.5414 1.3581 0.3869
-0.6589 1.3014 0.3861
-0.7703 1.2341 0.3850
-0.8746 1.1568 0.3838
-0.9709 1.0704 0.3825
-1.0585 0.9757 0.3810
-2.3465 1.8039 0.7833
-2.3480 1.4920 0.7362
-2.3494 1.2134 0.6998
-2.3506 0.9591 0.6719
-2.3518 0.7225 0.6511
-2.3529 0.4983 0.6365
-2.3540 0.2823 0.6274
-2.3550 0.0707 0.6235
-2.3560 -0.1399 0.6246
-2.3571 -0.3530 0.6308
-2.3581 -0.5721 0.6422
-2.3593 -0.8012 0.6594
-2.3605 -1.0448 0.6832
-2.3618 -1.3088 0.7146
-2.3632 -1.6008 0.7554
-1.0324 -0.8430 0.3527
-0.9495 -0.9283 0.3514
-0.8600 -1.0058 0.3502
-0.7644 -1.0752 0.3491
-0.6637 -1.1361 0.3482
-0.5583 -1.1880 0.3474
-0.4493 -1.2307 0.3467
-0.3372 -1.2640 0.3462
-0.2228 -1.2877 0.3459
-0.1069 -1.3017 0.3456
0.0096 -1.3058 0.3456
0.1261 -1.3001 0.3457
0.2418 -1.2845 0.3459
0.3558 -1.2593 0.3463
0.4675 -1.2244 0.3469
0.5760 -1.1802 0.3475
0.6807 -1.1267 0.3484
0.7806 -1.0645 0.3493
0.8753 -0.9937 0.3504
0.9638 -0.9148 0.3517
1.0456 -0.8283 0.3530
5.7009 -3.7403 1.8045
6.0368 -3.2301 1.8120
6.3284 -2.6902 1.8199
6.5730 -2.1245 1.8281
6.7680 -1.5367 1.8368
6.9114 -0.9312 1.8456
7.0011 -0.3124 1.8547
7.0357 0.3151 1.8639
7.0142 0.9463 1.8731
6.9358 1.5761 1.8824
6.8004 2.1993 1.8915
6.6082 2.8105 1.9005
6.3601 3.4044 1.9092
6.0574 3.9757 1.9175
5.7021 4.5190 1.9255
1.0448 0.9920 0.3813
0.9557 1.0854 0.3827
0.8580 1.1703 0.3841
0.7524 1.2460 0.3852
0.6399 1.3116 0.3862
0.5215 1.3665 0.3871
0.3982 1.4100 0.3878
0.2711 1.4418 0.3883
0.1415 1.4613 0.3886
0.0106 1.4685 0.3887
-0.1205 1.4633 0.3886
-0.2504 1.4457 0.3883
-0.3779 1.4159 0.3878
-0.5019 1.3742 0.3872
-0.6212 1.3211 0.3864
-0.7347 1.2572 0.3854
-0.8414 1.1831 0.3842
-0.9404 1.0996 0.3829
-1.0309 1.0075 0.3815
-2.3459 1.9148 0.8014
-2.3475 1.5896 0.7503
-2.3489 1.3012 0.7107
-2.3502 1.0398 0.6801
-2.3514 0.7980 0.6572
-2.3525 0.5703 0.6406
-2.3536 0.3521 0.6298
-2.3547 0.1395 0.6243
-2.3557 -0.0711 0.6237
-2.3567 -0.2830 0.6282
-2.3578 -0.4998 0.6379
-2.3589 -0.7251 0.6531
-2.3601 -0.9634 0.6746
-2.3613 -1.2200 0.7034
-2.3627 -1.5019 0.7409
-1.0579 -0.8136 0.3532
-0.9773 -0.9013 0.3518
-0.8899 -0.9814 0.3506
-0.7962 -1.0535 0.3495
-0.6971 -1.1172 0.3485
-0.5932 -1.1721 0.3476
-0.4852 -1.2178 0.3469
-0.3740 -1.2542 0.3464
-0.2603 -1.2811 0.3460
-0.1449 -1.2982 0.3457
-0.0284 -1.3055 0.3456
0.0882 -1.3030 0.3456
0.2042 -1.2907 0.3458
0.3189 -1.2686 0.3462
0.4314 -1.2368 0.3467
0.5410 -1.1956 0.3473
0.6470 -1.1452 0.3481
0.7486 -1.0857 0.3490
0.8450 -1.0177 0.3501
0.9356 -0.9414 0.3513
1.0197 -0.8574 0.3526
5.5822 -3.8998 1.8022
5.9319 -3.4000 1.8095
6.2383 -2.8694 1.8172
6.4985 -2.3117 1.8254
6.7100 -1.7306 1.8339
6.8704 -1.1305 1.8427
6.9778 -0.5155 1.8517
7.0306 0.1098 1.8609
7.0275 0.7403 1.8701
6.9676 1.3711 1.8794
6.8508 1.9970 1.8885
6.6771 2.6127 1.8976
6.4471 3.2129 1.9064
6.1621 3.7921 1.9149
5.8237 4.3452 1.9230
1.0718 0.9599 0.3808
0.9858 1.0558 0.3823
0.8908 1.1436 0.3836
0.7877 1.2224 0.3849
0.6774 1.2914 0.3859
0.5607 1.3498 0.3868
0.4389 1.3971 0.3876
0.3129 1.4327 0.3881
0.1840 1.4563 0.3885
0.0534 1.4676 0.3886
-0.0778 1.4664 0.3886
-0.2082 1.4528 0.3884
-0.3366 1.4269 0.3880
-0.4619 1.3891 0.3874
-0.5828 1.3397 0.3866
-0.6983 1.2792 0.3857
-0.8074 1.2083 0.3846
-0.9090 1.1278 0.3834
-1.0024 1.0384 0.3820
-1.0867 0.9411 0.3804
-2.3470 1.6911 0.7656
-2.3485 1.3919 0.7225
-2.3498 1.1226 0.6892
-2.3510 0.8751 0.6639
-2.3522 0.6434 0.6454
-2.3533 0.4225 0.6328
-2.3543 0.2085 0.6255
-2.3554 -0.0024 0.6233
-2.3564 -0.2135 0.6262
-2.3574 -0.4283 0.6341
-2.3585 -0.6504 0.6475
-2.3597 -0.8839 0.6669
-2.3609 -1.1339 0.6931
-2.3622 -1.4067 0.7276
-1.0826 -0.7835 0.3537
-1.0044 -0.8735 0.3523
-0.9191 -0.9561 0.3510
-0.8274 -1.0309 0.3498
-0.7300 -1.0974 0.3488
-0.6275 -1.1552 0.3479
-0.5208 -1.2039 0.3472
-0.4106 -1.2434 0.3465
-0.2976 -1.2734 0.3461
-0.1827 -1.2937 0.3458
-0.0665 -1.3042 0.3456
0.0502 -1.3049 0.3456
0.1665 -1.2958 0.3457
0.2816 -1.2768 0.3460
0.3950 -1.2482 0.3465
0.5056 -1.2101 0.3471
0.6129 -1.1626 0.3478
0.7160 -1.1061 0.3487
0.8142 -1.0408 0.3497
0.9067 -0.9672 0.3509
0.9930 -0.8856 0.3521
1.0723 -0.7966 0.3535
5.8224 -3.5666 1.8070
6.1433 -3.0456 1.8147
6.4188 -2.4964 1.8227
6.6465 -1.9225 1.8311
6.8238 -1.3281 1.8398
6.9487 -0.7174 1.8488
7.0194 -0.0951 1.8579
7.0347 0.5343 1.8671
6.9934 1.1656 1.8763
6.8952 1.7937 1.8855
6.7400 2.4133 1.8946
6.5282 3.0191 1.9035
6.2610 3.6058 1.9121
5.9398 4.1679 1.9204
5.5668 4.7003 1.9282
1.0148 1.0254 0.3818
0.9227 1.1159 0.3832
0.8222 1.1977 0.3845
0.7141 1.2700 0.3856
0.5994 1.3320 0.3866
0.4792 1.3829 0.3873
0.3544 1.4224 0.3880
0.2263 1.4500 0.3884
0.0961 1.4653 0.3886
-0.0350 1.4681 0.3887
-0.1658 1.4586 0.3885
-0.2950 1.4367 0.3882
-0.4215 1.4027 0.3876
-0.5439 1.3571 0.3869
-0.6613 1.3001 0.3860
-0.7726 1.2326 0.3850
-0.8767 1.1551 0.3838
-0.9729 1.0685 0.3824
-1.0602 0.9737 0.3810
-2.3465 1.7969 0.7822
-2.3480 1.4858 0.7354
-2.3494 1.2077 0.6991
-2.3507 0.9539 0.6714
-2.3518 0.7176 0.6507
-2.3529 0.4936 0.6363
-2.3540 0.2778 0.6273
-2.3550 0.0662 0.6235
-2.3560 -0.1444 0.6247
-2.3571 -0.3576 0.6309
-2.3582 -0.5769 0.6425
-2.3593 -0.8062 0.6598
-2.3605 -1.0502 0.6837
-2.3618 -1.3147 0.7154
-2.3632 -1.6074 0.7564
-1.0307 -0.8449 0.3527
-0.9477 -0.9300 0.3514
-0.8580 -1.0074 0.3502
-0.7623 -1.0766 0.3491
-0.6615 -1.1373 0.3482
-0.5561 -1.1890 0.3474
-0.4469 -1.2316 0.3467
-0.3347 -1.2647 0.3462
-0.2203 -1.2881 0.3459
-0.1045 -1.3019 0.3456
0.0121 -1.3058 0.3456
0.1286 -1.2998 0.3457
0.2442 -1.2841 0.3459
0.3582 -1.2586 0.3463
0.4699 -1.2236 0.3469
0.5783 -1.1791 0.3476
0.6828 -1.1255 0.3484
0.7827 -1.0630 0.3494
0.8772 -0.9921 0.3505
0.9656 -0.9131 0.3517
1.0472 -0.8264 0.3530
5.7085 -3.7298 1.8046
6.0434 -3.2189 1.8121
6.3341 -2.6784 1.8200
6.5776 -2.1122 1.8283
6.7716 -1.5241 1.8369
6.9138 -0.9182 1.8458
7.0024 -0.2991 1.8549
7.0359 0.3285 1.8641
7.0131 0.9597 1.8733
6.9335 1.5894 1.8826
6.7969 2.2124 1.8917
6.6035 2.8233 1.9006
6.3542 3.4168 1.9093
6.0504 3.9875 1.9177
5.6940 4.5302 1.9257
1.0430 0.9941 0.3813
0.9537 1.0873 0.3828
0.8558 1.1721 0.3841
0.7501 1.2475 0.3852
0.6375 1.3129 0.3863
0.5189 1.3676 0.3871
0.3955 1.4108 0.3878
0.2684 1.4423 0.3883
0.1388 1.4616 0.3886
0.0078 1.4686 0.3887
-0.1232 1.4631 0.3886
-0.2531 1.4452 0.3883
-0.3806 1.4151 0.3878
-0.5045 1.3732 0.3872
-0.6237 1.3199 0.3863
-0.7370 1.2557 0.3853
-0.8436 1.1814 0.3842
-0.9424 1.0977 0.3829
-1.0327 1.0054 0.3815
-2.3460 1.9075 0.8002
-2.3476 1.5832 0.7494
-2.3490 1.2954 0.7099
-2.3503 1.0345 0.6796
-2.3514 0.7931 0.6568
-2.3526 0.5656 0.6404
-2.3536 0.3476 0.6296
-2.3547 0.1350 0.6242
-2.3557 -0.0756 0.6238
-2.3568 -0.2876 0.6283
-2.3578 -0.5044 0.6381
-2.3589 -0.7300 0.6535
-2.3601 -0.9686 0.6752
-2.3613 -1.2257 0.7041
-2.3627 -1.5082 0.7418
-1.0563 -0.8155 0.3532
-0.9756 -0.9031 0.3518
-0.8879 -0.9830 0.3506
-0.7942 -1.0550 0.3495
-0.6949 -1.1185 0.3485
-0.5909 -1.1731 0.3476
-0.4829 -1.2187 0.3469
-0.3716 -1.2549 0.3464
-0.2579 -1.2815 0.3460
-0.1424 -1.2985 0.3457
-0.0260 -1.3056 0.3456
0.0906 -1.3028 0.3456
0.2066 -1.2903 0.3458
0.3213 -1.2680 0.3462
0.4338 -1.2360 0.3467
0.5433 -1.1946 0.3473
0.6492 -1.1440 0.3481
0.7507 -1.0844 0.3490
0.8470 -1.0161 0.3501
0.9375 -0.9397 0.3513
1.0214 -0.8555 0.3526
5.5901 -3.8896 1.8023
5.9389 -3.3890 1.8096
6.2443 -2.8578 1.8174
6.5035 -2.2996 1.8256
6.7139 -1.7181 1.8341
6.8732 -1.1175 1.8429
6.9795 -0.5023 1.8519
7.0311 0.1231 1.8611
7.0268 0.7537 1.8703
6.9658 1.3844 1.8796
6.7694 1.5113 1.8814
6.6388 2.1192 1.8903
6.4530 2.7156 1.8991
6.2126 3.2952 1.9076
5.9191 3.8529 1.9158
5.5743 4.3834 1.9235
1.0218 0.9629 0.3808
0.9353 1.0541 0.3822
0.8403 1.1371 0.3835
0.7377 1.2112 0.3847
0.6283 1.2755 0.3857
0.5131 1.3293 0.3865
0.3931 1.3721 0.3872
0.2695 1.4035 0.3877
0.1433 1.4231 0.3880
0.0157 1.4306 0.3881
-0.1120 1.4260 0.3880
-0.2386 1.4094 0.3877
-0.3630 1.3809 0.3873
-0.4839 1.3408 0.3867
-0.6004 1.2896 0.3859
-0.7113 1.2279 0.3849
-0.8156 1.1561 0.3838
-0.9125 1.0752 0.3825
-1.0012 0.9859 0.3811
-1.0809 0.8891 0.3796
-2.3475 1.6026 0.7710
-2.3489 1.3129 0.7299
-2.3502 1.0505 0.6983
-2.3514 0.8080 0.6744
-2.3525 0.5798 0.6572
-2.3536 0.3612 0.6459
-2.3546 0.1484 0.6400
-2.3556 -0.0622 0.6392
-2.3567 -0.2740 0.6436
-2.3577 -0.4904 0.6532
-2.3588 -0.7153 0.6686
-2.3600 -0.9529 0.6904
-2.3613 -1.2087 0.7195
-2.3626 -1.4893 0.7576
-1.0362 -0.7907 0.3536
-0.9579 -0.8767 0.3522
-0.8728 -0.9553 0.3510
-0.7817 -1.0262 0.3499
-0.6851 -1.0888 0.3489
-0.5838 -1.1428 0.3481
-0.4786 -1.1880 0.3474
-0.3701 -1.2240 0.3468
-0.2591 -1.2506 0.3464
-0.1463 -1.2678 0.3462
-0.0326 -1.2754 0.3461
0.0813 -1.2733 0.3461
0.1947 -1.2616 0.3463
0.3068 -1.2404 0.3466
0.4168 -1.2098 0.3471
0.5240 -1.1698 0.3477
0.6277 -1.1209 0.3485
0.7271 -1.0631 0.3494
0.8214 -0.9970 0.3504
0.9101 -0.9227 0.3515
0.9924 -0.8409 0.3528
1.0676 -0.7519 0.3542
5.7777 -3.3407 1.8103
6.0780 -2.8237 1.8179
6.3333 -2.2800 1.8259
6.5411 -1.7136 1.8342
6.6991 -1.1284 1.8427
6.8053 -0.5287 1.8515
6.8583 0.0810 1.8605
6.8567 0.6960 1.8695
6.7999 1.3113 1.8785
6.6875 1.9219 1.8874
6.5197 2.5226 1.8962
6.2970 3.1083 1.9048
6.0206 3.6737 1.9131
5.6923 4.2136 1.9210
1.0481 0.9315 0.3803
0.9645 1.0252 0.3818
0.8722 1.1110 0.3831
0.7720 1.1881 0.3843
0.6647 1.2556 0.3854
0.5513 1.3129 0.3863
0.4327 1.3594 0.3870
0.3101 1.3946 0.3875
0.1846 1.4180 0.3879
0.0574 1.4295 0.3881
-0.0704 1.4288 0.3880
-0.1975 1.4161 0.3878
-0.3227 1.3915 0.3875
-0.4449 1.3551 0.3869
-0.5630 1.3075 0.3862
-0.6758 1.2491 0.3852
-0.7824 1.1806 0.3842
-0.8818 1.1026 0.3830
-0.9732 1.0159 0.3816
-1.0559 0.9215 0.3801
-2.3470 1.7046 0.7868
-2.3484 1.4040 0.7422
-2.3498 1.1336 0.7077
-2.3510 0.8853 0.6814
-2.3521 0.6530 0.6622
-2.3532 0.4317 0.6490
-2.3543 0.2175 0.6413
-2.3553 0.0065 0.6389
-2.3563 -0.2045 0.6416
-2.3574 -0.4191 0.6495
-2.3585 -0.6407 0.6629
-2.3596 -0.8737 0.6825
-2.3608 -1.1229 0.7091
-2.3622 -1.3945 0.7441
-1.0602 -0.7611 0.3540
-0.9842 -0.8494 0.3526
-0.9013 -0.9305 0.3514
-0.8121 -1.0039 0.3503
-0.7172 -1.0693 0.3492
-0.6173 -1.1262 0.3484
-0.5133 -1.1742 0.3476
-0.4058 -1.2132 0.3470
-0.2955 -1.2430 0.3466
-0.1833 -1.2632 0.3462
-0.0698 -1.2739 0.3461
0.0442 -1.2750 0.3461
0.1578 -1.2665 0.3462
0.2704 -1.2484 0.3465
0.3812 -1.2208 0.3469
0.4894 -1.1839 0.3475
0.5943 -1.1378 0.3482
0.6952 -1.0829 0.3491
0.7912 -1.0195 0.3500
0.8818 -0.9478 0.3512
0.9663 -0.8684 0.3524
1.0439 -0.7817 0.3537
5.6704 -3.5031 1.8080
5.9849 -2.9955 1.8154
6.2551 -2.4601 1.8232
6.4787 -1.9007 1.8314
6.6531 -1.3211 1.8399
6.7764 -0.7257 1.8486
6.8469 -0.1187 1.8575
6.8633 0.4951 1.8665
6.8246 1.1108 1.8755
6.7303 1.7235 1.8845
6.5805 2.3281 1.8934
6.3756 2.9192 1.9021
6.1166 3.4918 1.9105
5.8050 4.0405 1.9185
1.0734 0.8993 0.3798
0.9927 0.9954 0.3813
0.9032 1.0839 0.3827
0.8055 1.1639 0.3839
0.7004 1.2347 0.3850
0.5889 1.2954 0.3860
0.4719 1.3455 0.3868
0.3505 1.3844 0.3874
0.2258 1.4116 0.3878
0.0990 1.4270 0.3880
-0.0287 1.4304 0.3881
-0.1561 1.4216 0.3879
-0.2821 1.4008 0.3876
-0.4054 1.3683 0.3871
-0.5250 1.3243 0.3864
-0.6396 1.2693 0.3856
-0.7484 1.2040 0.3845
-0.8502 1.1290 0.3834
-0.9443 1.0451 0.3821
-1.0299 0.9531 0.3806
-2.3464 1.8110 0.8040
-2.3480 1.4983 0.7555
-2.3493 1.2190 0.7179
-2.3506 0.9643 0.6892
-2.3518 0.7273 0.6677
-2.3529 0.5030 0.6526
-2.3539 0.2868 0.6432
-2.3550 0.0752 0.6391
-2.3560 -0.1355 0.6401
-2.3570 -0.3485 0.6463
-2.3581 -0.5674 0.6579
-2.3592 -0.7962 0.6754
-2.3604 -1.0394 0.6996
-2.3617 -1.3030 0.7317
-1.0834 -0.7309 0.3545
-1.0098 -0.8214 0.3531
-0.9291 -0.9049 0.3518
-0.8418 -0.9808 0.3506
-0.7487 -1.0489 0.3496
-0.6504 -1.1086 0.3486
-0.5476 -1.1595 0.3478
-0.4412 -1.2015 0.3472
-0.3317 -1.2343 0.3467
-0.2200 -1.2577 0.3463
-0.1069 -1.2715 0.3461
0.0070 -1.2757 0.3460
0.1208 -1.2703 0.3461
0.2338 -1.2553 0.3464
0.3453 -1.2308 0.3468
0.4544 -1.1969 0.3473
0.5605 -1.1538 0.3480
0.6627 -1.1018 0.3488
0.7605 -1.0411 0.3497
0.8529 -0.9721 0.3508
0.9395 -0.8951 0.3520
1.0194 -0.8107 0.3533
5.5587 -3.6622 1.8056
5.8870 -3.1643 1.8129
6.1720 -2.6376 1.8206
6.4110 -2.0856 1.8287
6.6017 -1.5122 1.8371
6.7419 -0.9214 1.8458
