18.44208335876465 32.883811950683594 -3.493610143661499
16.113075256347656 35.909481048583984 -3.647125244140625
-16.748659133911133 32.84596252441406 -3.416471481323242
-19.417461395263672 30.91064453125 -3.3825390338897705
-22.423561096191406 29.48355484008789 -3.432424306869507
-29.262102127075195 32.07634735107422 -4.0233049392700195
-34.96662902832031 32.05062484741211 -4.395324230194092
-18.537513732910156 14.16790771484375 -2.1619973182678223
-9.455490112304688 5.97097635269165 -1.036252737045288
-2.34951114654541 1.205060601234436 -0.24468016624450684
-2.3507559299468994 0.9514293670654297 -0.234994038939476
-2.3519139289855957 0.7153036594390869 -0.22779326140880585
-2.3530099391937256 0.4914829134941101 -0.22274428606033325
-2.3540687561035156 0.2756898105144501 -0.21962767839431763
-2.3551080226898193 0.06418883800506592 -0.21831420063972473
-2.3561410903930664 -0.1464722454547882 -0.2187507599592209
-2.357187509536743 -0.35967734456062317 -0.2209542840719223
-2.358264684677124 -0.5789910554885864 -0.22501586377620697
-2.359394073486328 -0.8083783388137817 -0.23110702633857727
-2.3605940341949463 -1.0525318384170532 -0.23950012028217316
-2.361891269683838 -1.3172814846038818 -0.25060102343559265
-2.363330364227295 -1.6102159023284912 -0.2649957239627838
-2.364961862564087 -1.9416474103927612 -0.2835444509983063
-2.366851806640625 -2.3262741565704346 -0.30752134323120117
-2.3691117763519287 -2.785966634750366 -0.3388816714286804
22.488969802856445 -37.015499114990234 -4.013425350189209
32.53669738769531 -36.753021240234375 -4.548483848571777
34.26128005981445 -27.004899978637695 -4.042415142059326
34.24024963378906 -22.343873977661133 -3.788628339767456
31.925270080566406 -16.981035232543945 -3.3507652282714844
31.907649993896484 -13.471807479858398 -3.2094171047210693
34.99668502807617 -11.217133522033691 -3.405423164367676
41.996864318847656 -1.7722246646881104 -3.895043134689331
41.979949951171875 1.9812138080596924 -3.894341230392456
26.74988555908203 3.674009084701538 -2.5020101070404053
26.73874855041504 6.1431145668029785 -2.542257308959961
24.432445526123047 7.965622425079346 -2.3812692165374756
19.99338150024414 8.559146881103516 -2.015286922454834
18.545270919799805 9.983154296875 -1.9516396522521973
18.53515625 12.227556228637695 -2.057598829269409
18.523786544799805 14.750845909118652 -2.194223642349243
22.65601921081543 21.612348556518555 -2.9014008045196533
22.637020111083984 25.828779220581055 -3.1825010776519775
21.07919692993164 28.892229080200195 -3.3140501976013184
19.61239242553711 32.646568298339844 -3.5290539264678955
-16.754316329956055 35.432430267333984 -3.6318395137786865
-18.246200561523438 31.06792640686035 -3.3386340141296387
-21.06954574584961 29.49034881591797 -3.358469247817993
-25.261293411254883 29.407779693603516 -3.59237003326416
-32.96255874633789 32.07593536376953 -4.261919975280762
-18.541580200195312 15.06865406036377 -2.2139666080474854
-18.52993392944336 12.490234375 -2.0706992149353027
-18.519620895385742 10.208104133605957 -1.9595229625701904
-2.350351572036743 1.0339466333389282 -0.237933948636055
-2.351534605026245 0.7926058769226074 -0.2299462854862213
-2.3526484966278076 0.5651913285255432 -0.22420775890350342
-2.353721857070923 0.34715205430984497 -0.2204638570547104
-2.3547613620758057 0.13460615277290344 -0.2185574322938919
-2.355794906616211 -0.07596216350793839 -0.21841049194335938
-2.3568367958068848 -0.287931889295578 -0.22001738846302032
-2.357900857925415 -0.5047845840454102 -0.22344298660755157
-2.359008550643921 -0.7303289771080017 -0.22883117198944092
-2.36018443107605 -0.968964695930481 -0.23641784489154816
-2.361442804336548 -1.2260921001434326 -0.24655883014202118
-2.3628311157226562 -1.5086158514022827 -0.25977233052253723
-2.3643901348114014 -1.8258037567138672 -0.2768150269985199
-2.3661835193634033 -2.190669059753418 -0.2988024950027466
-2.3683066368103027 -2.62221622467041 -0.3274192810058594
-2.3708999156951904 -3.1498382091522217 -0.3653217852115631
-9.395432472229004 -31.727806091308594 -3.066220283508301
19.880826950073242 -35.038692474365234 -3.7330503463745117
34.2695198059082 -28.71055030822754 -4.142699718475342
34.24697494506836 -23.83546257019043 -3.8664073944091797
33.34717559814453 -19.035564422607422 -3.5580813884735107
31.913373947143555 -14.61145305633545 -3.2524235248565674
32.268760681152344 -11.415689468383789 -3.1717355251312256
45.24019241333008 -11.585248947143555 -4.327392101287842
42.002532958984375 -3.030571222305298 -3.9022233486175537
41.98560333251953 0.7266952991485596 -3.8911192417144775
26.7535343170166 2.863851308822632 -2.493241310119629
26.74250602722168 5.308948040008545 -2.5264155864715576
26.731090545654297 7.8404412269592285 -2.5813448429107666
20.3903751373291 8.017678260803223 -2.030261754989624
18.63397979736328 9.32453441619873 -1.930810809135437
18.538658142089844 11.450626373291016 -2.01912522315979
18.527751922607422 13.870914459228516 -2.1446733474731445
18.515295028686523 16.635578155517578 -2.3064796924591064
22.553064346313477 24.23381805419922 -3.0675957202911377
21.217187881469727 27.329208374023438 -3.206014394760132
19.92696189880371 31.032514572143555 -3.417381525039673
18.431310653686523 35.2747802734375 -3.687981367111206
-16.767623901367188 38.38547134399414 -3.88149094581604
-16.993362426757812 31.01946449279785 -3.2774314880371094
-20.499408721923828 30.58280372619629 -3.411639928817749
-23.778589248657227 29.414459228515625 -3.504875421524048
-31.167848587036133 32.19580841064453 -4.152318477630615
-18.545852661132812 16.01460075378418 -2.270568609237671
-18.533655166625977 13.314175605773926 -2.114602565765381
-18.5229434967041 10.943207740783691 -1.993562936782837
-2.3499372005462646 1.118636965751648 -0.24116607010364532
-2.3511476516723633 0.871461033821106 -0.23234954476356506
-2.3522822856903076 0.6399398446083069 -0.22589324414730072
-2.353367805480957 0.41922467947006226 -0.22150465846061707
-2.3544154167175293 0.20524805784225464 -0.21899627149105072
-2.3554527759552 -0.005603459198027849 -0.21826568245887756
-2.3564887046813965 -0.21672843396663666 -0.2192828357219696
-2.3575422763824463 -0.4315498173236847 -0.2220887690782547
-2.358635902404785 -0.6537347435951233 -0.22679977118968964
-2.3597803115844727 -0.8874531984329224 -0.23361876606941223
-2.361011028289795 -1.1377201080322266 -0.24285674095153809
-2.362353563308716 -1.4108636379241943 -0.2549740672111511
-2.3638482093811035 -1.7152436971664429 -0.2706342935562134
-2.3655552864074707 -2.06241774559021 -0.2908152639865875
-2.367551326751709 -2.469052314758301 -0.3169810473918915
-2.369966506958008 -2.960381507873535 -0.351399689912796
-9.354893684387207 -14.10102367401123 -1.568052887916565
34.09856033325195 -30.344755172729492 -4.229690074920654
34.25399398803711 -25.390913009643555 -3.951038122177124
33.31583786010742 -20.359601974487305 -3.617955446243286
31.91925621032715 -15.783123016357422 -3.2995946407318115
31.902116775512695 -12.369301795959473 -3.1705920696258545
45.38738250732422 -13.078303337097168 -4.376876354217529
41.99125289916992 -0.5269784927368164 -3.891366481781006
31.052093505859375 2.3890790939331055 -2.885901927947998
26.74622344970703 4.484401226043701 -2.512995481491089
26.734960556030273 6.9820756912231445 -2.5604465007781982
22.16860580444336 7.961422443389893 -2.1826770305633545
19.03022003173828 8.822690963745117 -1.9437041282653809
18.542034149169922 10.701624870300293 -1.9838030338287354
18.531545639038086 13.029027938842773 -2.0991368293762207
18.519664764404297 15.66606616973877 -2.2477409839630127
22.5251407623291 22.79951286315918 -2.969862699508667
21.73271369934082 26.33142852783203 -3.163686990737915
19.996347427368164 29.186161041259766 -3.2783520221710205
18.442161560058594 32.866477966308594 -3.492213726043701
16.125112533569336 35.91453170776367 -3.6480090618133545
-16.748743057250977 32.86457061767578 -3.4180102348327637
-19.40766143798828 30.910688400268555 -3.382059335708618
-22.413002014160156 29.48360824584961 -3.4318315982818604
-29.248746871948242 32.07640838623047 -4.022475719451904
-34.950706481933594 32.05069351196289 -4.394242286682129
-18.53754234313965 14.174670219421387 -2.162379741668701
-9.45720386505127 5.975056171417236 -1.0365893840789795
-2.3495094776153564 1.205734372138977 -0.24470840394496918
-2.3507540225982666 0.9520494341850281 -0.23501555621623993
-2.3519115447998047 0.7158846855163574 -0.22780883312225342
-2.3530075550079346 0.49204444885253906 -0.22275450825691223
-2.3540663719177246 0.2762318253517151 -0.2196333259344101
-2.3551056385040283 0.06472597271203995 -0.21831542253494263
-2.3561387062072754 -0.1459302455186844 -0.21874724328517914
-2.357184886932373 -0.3591255843639374 -0.22094634175300598
-2.358262538909912 -0.5784246921539307 -0.22500304877758026
-2.359391927719116 -0.8077777624130249 -0.23108886182308197
-2.3605871200561523 -1.0518872737884521 -0.23947569727897644
-2.361889600753784 -1.3165735006332397 -0.25056883692741394
-2.3633289337158203 -1.609419822692871 -0.2649540603160858
-2.3649561405181885 -1.940744161605835 -0.28349074721336365
-2.366846799850464 -2.325209617614746 -0.30745193362236023
-2.369102954864502 -2.784672737121582 -0.33878982067108154
32.525814056396484 -36.757591247558594 -4.548131465911865
34.26133346557617 -27.017608642578125 -4.043148517608643
34.24029541015625 -22.355098724365234 -3.7891998291015625
31.925312042236328 -16.990339279174805 -3.3511736392974854
31.907699584960938 -13.480347633361816 -3.209721088409424
34.96987533569336 -11.217286109924316 -3.4030613899230957
41.996910095214844 -1.7818143367767334 -3.8950841426849365
41.97999572753906 1.971638798713684 -3.8943052291870117
26.74991226196289 3.6677980422973633 -2.501934766769409
26.738779067993164 6.136679172515869 -2.5421266555786133
24.45171356201172 7.965709686279297 -2.382993698120117
19.993093490600586 8.553657531738281 -2.0150105953216553
18.54529571533203 9.977739334106445 -1.9514037370681763
18.535184860229492 12.221501350402832 -2.0572924613952637
18.523818969726562 14.743980407714844 -2.1938295364379883
22.656063079833984 21.6025333404541 -2.9007763862609863
22.637075424194336 25.81694793701172 -3.181680202484131
21.089313507080078 28.892274856567383 -3.314605712890625
19.62260627746582 32.64661407470703 -3.529545783996582
-16.754411697387695 35.45340347290039 -3.633618116378784
-18.23674774169922 31.067968368530273 -3.33819317817688
-21.05948257446289 29.490400314331055 -3.3579254150390625
-25.24968147277832 29.4078311920166 -3.591672897338867
-32.951168060302734 32.079471588134766 -4.26138973236084
-18.54161262512207 15.075690269470215 -2.2143800258636475
-18.52996253967285 12.496391296386719 -2.07102108001709
-18.5196475982666 10.213641166687012 -1.9597725868225098
-2.3503494262695312 1.0345911979675293 -0.23795776069164276
-2.351532459259033 0.7932015657424927 -0.22996367514133453
-2.3526463508605957 0.5657529234886169 -0.22421981394290924
-2.353719472885132 0.34769406914711 -0.22047103941440582
-2.3547587394714355 0.13514328002929688 -0.21856002509593964
-2.35579252243042 -0.07542014867067337 -0.2184085100889206
-2.3568344116210938 -0.2873849868774414 -0.22001098096370697
-2.357898473739624 -0.5042230486869812 -0.2234320044517517
-2.359006404876709 -0.7297381162643433 -0.22881469130516052
-2.360177516937256 -0.9683347344398499 -0.2363949567079544
-2.361440896987915 -1.2254035472869873 -0.24652907252311707
-2.3628294467926025 -1.5078541040420532 -0.25973373651504517
-2.364388942718506 -1.824939489364624 -0.2767660319805145
-2.366178274154663 -2.1896533966064453 -0.29873794317245483
-2.368302345275879 -2.62099552154541 -0.3273353576660156
-2.37089204788208 -3.148319721221924 -0.3652082681655884
-9.4014892578125 -31.721914291381836 -3.065855026245117
19.86717987060547 -35.03324890136719 -3.7319865226745605
34.26958084106445 -28.724010467529297 -4.143505096435547
34.247032165527344 -23.84697723388672 -3.867020845413208
33.347225189208984 -19.04558563232422 -3.5585453510284424
31.913421630859375 -14.620211601257324 -3.252769708633423
32.26108169555664 -11.421168327331543 -3.171233654022217
45.24024200439453 -11.596152305603027 -4.327648639678955
42.00257873535156 -3.0401878356933594 -3.9022910594940186
41.98564910888672 0.7171152830123901 -3.8911077976226807
26.75356101989746 2.857684373855591 -2.49318265914917
26.742536544799805 5.302615165710449 -2.526304006576538
26.731122970581055 7.833829879760742 -2.5811784267425537
20.396286010742188 8.014643669128418 -2.030668020248413
18.635406494140625 9.319940567016602 -1.9307368993759155
18.53868293762207 11.444806098937988 -2.01884388923645
18.527782440185547 13.864263534545898 -2.1443066596984863
18.515331268310547 16.62792205810547 -2.3060083389282227
22.563522338867188 24.23386573791504 -3.0682640075683594
21.217254638671875 27.316307067871094 -3.2050695419311523
19.927032470703125 31.01719093322754 -3.4161906242370605
18.431396484375 35.25554275512695 -3.686405658721924
-16.767732620239258 38.40962219238281 -3.883547306060791
-16.98699378967285 31.02463150024414 -3.277567148208618
-20.49947738647461 30.597990036010742 -3.4128129482269287
-23.76753807067871 29.414508819580078 -3.5042357444763184
-31.147592544555664 32.189720153808594 -4.150606155395508
-18.545886993408203 16.022077560424805 -2.271024465560913
-18.5336856842041 13.32066535949707 -2.114955425262451
-18.52297019958496 10.948984146118164 -1.993837594985962
-2.3499302864074707 1.119286298751831 -0.24119170010089874
-2.3511455059051514 0.8720664978027344 -0.23236876726150513
-2.3522801399230957 0.640511155128479 -0.22590698301792145
-2.353365421295166 0.41977161169052124 -0.22151321172714233
-2.3544130325317383 0.20578032732009888 -0.21900054812431335
-2.355450391769409 -0.005066333804279566 -0.21826507151126862
-2.3564863204956055 -0.21618641912937164 -0.21927794814109802
-2.3575398921966553 -0.43099313974380493 -0.22207945585250854
-2.358628749847412 -0.653153657913208 -0.22678527235984802
-2.3597781658172607 -0.8868379592895508 -0.23359832167625427
-2.361009120941162 -1.1370559930801392 -0.24283020198345184
-2.36234712600708 -1.4101312160491943 -0.2549388110637665
-2.363847255706787 -1.7144184112548828 -0.27058929204940796
-2.3655498027801514 -2.0614607334136963 -0.2907569706439972
-2.367546796798706 -2.467904567718506 -0.31690412759780884
-2.3699629306793213 -2.958980083465576 -0.3512977659702301
-9.347373962402344 -14.082650184631348 -1.5662490129470825
34.09862518310547 -30.358861923217773 -4.230563640594482
34.254051208496094 -25.403167724609375 -3.95171856880188
33.31528854370117 -20.36979866027832 -3.6183760166168213
31.91929817199707 -15.792293548583984 -3.299966335296631
31.902164459228516 -12.377599716186523 -3.170872688293457
45.38736343383789 -13.08938217163086 -4.37716007232666
41.99129867553711 -0.5364705920219421 -3.8913798332214355
31.052125930786133 2.381964921951294 -2.8858537673950195
26.746252059936523 4.4781413078308105 -2.5129024982452393
26.734989166259766 6.975552082061768 -2.5602967739105225
22.18470001220703 7.961495399475098 -2.184072256088257
19.0355167388916 8.819887161254883 -1.9440405368804932
18.542057037353516 10.69599437713623 -1.9835442304611206
18.531574249267578 13.022744178771973 -2.098803997039795
18.519697189331055 15.65886402130127 -2.247312068939209
22.52518653869629 22.789167404174805 -2.9691734313964844
21.742938995361328 26.33147430419922 -3.164296865463257
20.001699447631836 29.1795654296875 -3.278127908706665
18.442241668701172 32.84885787963867 -3.490793466567993
16.137365341186523 35.919677734375 -3.648909330368042
-16.74882698059082 32.88323211669922 -3.4195544719696045
-19.39788246154785 30.91073226928711 -3.3815813064575195
-22.402441024780273 29.483659744262695 -3.4312427043914795
-29.235397338867188 32.07646560668945 -4.021646022796631
-34.93478775024414 32.0507698059082 -4.393158912658691
-18.537572860717773 14.181384086608887 -2.16275954246521
-9.458945274353027 5.979208469390869 -1.0369309186935425
-2.3495025634765625 1.2064180374145508 -0.2447369396686554
-2.3507471084594727 0.9526793956756592 -0.2350369244813919
-2.3519093990325928 0.7164754271507263 -0.22782424092292786
-2.3530051708221436 0.49259620904922485 -0.22276489436626434
-2.3540639877319336 0.2767738401889801 -0.21963897347450256
-2.355103015899658 0.0652582123875618 -0.21831649541854858
-2.3561363220214844 -0.14539800584316254 -0.21874389052391052
-2.357182502746582 -0.35857871174812317 -0.22093871235847473
-2.358259916305542 -0.5778533220291138 -0.22499023377895355
-2.3593850135803223 -0.8071771860122681 -0.2310703992843628
-2.3605852127075195 -1.051242709159851 -0.23945143818855286
-2.3618879318237305 -1.315865397453308 -0.25053679943084717
-2.3633227348327637 -1.6086336374282837 -0.2649127244949341
-2.36495041847229 -1.939835786819458 -0.2834373414516449
-2.366842031478882 -2.3241450786590576 -0.3073824942111969
-2.3690989017486572 -2.783378839492798 -0.33869796991348267
32.5149040222168 -36.76216506958008 -4.547779560089111
34.26139450073242 -27.03032875061035 -4.043882369995117
34.24034881591797 -22.366268157958984 -3.7897698879241943
31.925365447998047 -16.99981117248535 -3.351590156555176
31.907737731933594 -13.489022254943848 -3.210038900375366
34.9427375793457 -11.217439651489258 -3.40067195892334
41.996952056884766 -1.7913161516189575 -3.8951263427734375
41.980037689208984 1.9621318578720093 -3.8942668437957764
26.749940872192383 3.6616456508636475 -2.5018599033355713
26.738807678222656 6.130326271057129 -2.5419986248016357
24.47073745727539 7.965795040130615 -2.384660243988037
19.992794036865234 8.548138618469238 -2.0148277282714844
18.545318603515625 9.97230052947998 -1.9511669874191284
18.53521156311035 12.215460777282715 -2.0569863319396973
18.523849487304688 14.737114906311035 -2.1934354305267334
22.65610694885254 21.592695236206055 -2.9001498222351074
22.63712501525879 25.80515480041504 -3.1808624267578125
21.09943962097168 28.892318725585938 -3.315167188644409
19.632753372192383 32.64665985107422 -3.5300352573394775
-16.754507064819336 35.474544525146484 -3.6353759765625
-18.22725486755371 31.068012237548828 -3.3377513885498047
-21.049379348754883 29.49045181274414 -3.3573858737945557
-25.23809051513672 29.407882690429688 -3.590975761413574
-32.93977355957031 32.08301544189453 -4.260863780975342
-18.541643142700195 15.082741737365723 -2.2147951126098633
-18.52998924255371 12.502558708190918 -2.071342945098877
-18.519670486450195 10.219157218933105 -1.960022211074829
-2.3503427505493164 1.0352308750152588 -0.23798125982284546
-2.3515303134918213 0.7938021421432495 -0.22998107969760895
-2.3526439666748047 0.5663290619850159 -0.224232017993927
-2.353717088699341 0.34825071692466736 -0.22047820687294006
-2.3547563552856445 0.1356852948665619 -0.21856261789798737
-2.355790138244629 -0.07488790899515152 -0.2184068262577057
-2.3568320274353027 -0.2868430018424988 -0.22000472247600555
-2.357896089553833 -0.5036664009094238 -0.2234208583831787
-2.359004259109497 -0.7291522026062012 -0.2287985235452652
-2.360175371170044 -0.9677097201347351 -0.23637282848358154
-2.3614392280578613 -1.2247248888015747 -0.24649932980537415
-2.362828254699707 -1.5070972442626953 -0.25969603657722473
-2.3643829822540283 -1.824084997177124 -0.2767173647880554
-2.366173028945923 -2.188657283782959 -0.2986750602722168
-2.368293046951294 -2.6197991371154785 -0.32725295424461365
-2.3708841800689697 -3.1468327045440674 -0.3650974929332733
-9.407633781433105 -31.71592903137207 -3.0654866695404053
19.856769561767578 -35.03329849243164 -3.7315142154693604
34.2696418762207 -28.73723793029785 -4.1442975997924805
34.2470817565918 -23.858707427978516 -3.8676464557647705
33.34727096557617 -19.05577850341797 -3.5590176582336426
31.913461685180664 -14.629128456115723 -3.253113269805908
32.25325393676758 -11.426750183105469 -3.170725107192993
45.240291595458984 -11.607255935668945 -4.327908039093018
42.002620697021484 -3.0499069690704346 -3.902360200881958
41.98569107055664 0.7074523568153381 -3.891096830368042
26.753591537475586 2.8515710830688477 -2.4931254386901855
26.742565155029297 5.296350479125977 -2.526193380355835
26.731151580810547 7.827291488647461 -2.5810110569000244
20.40216064453125 8.01162338256836 -2.0310723781585693
18.636823654174805 9.315386772155762 -1.930666208267212
18.53870964050293 11.43903923034668 -2.0185654163360596
18.527812957763672 13.85776424407959 -2.1439480781555176
18.515363693237305 16.620403289794922 -2.3055453300476074
22.573776245117188 24.23391342163086 -3.0689074993133545
21.21731185913086 27.303646087646484 -3.20414662361145
19.927101135253906 31.00165367126465 -3.414982795715332
18.431486129760742 35.2359619140625 -3.6848015785217285
-16.767839431762695 38.433528900146484 -3.885579824447632
-16.98067855834961 31.02974510192871 -3.2777018547058105
-20.49954605102539 30.613039016723633 -3.413975238800049
-23.756595611572266 29.414560317993164 -3.5036022663116455
-31.12775993347168 32.18375778198242 -4.1489386558532715
-18.54591941833496 16.029420852661133 -2.271470546722412
-18.533714294433594 13.327032089233398 -2.1153018474578857
-18.522994995117188 10.954628944396973 -1.994106650352478
-2.349928379058838 1.1199504137039185 -0.2412179559469223
-2.3511433601379395 0.8726768493652344 -0.23238830268383026
-2.3522777557373047 0.6410921812057495 -0.22592085599899292
-2.353363037109375 0.420328289270401 -0.22152221202850342
-2.3544106483459473 0.20632722973823547 -0.21900466084480286
-2.355448007583618 -0.004524325020611286 -0.21826492249965668
-2.3564839363098145 -0.21563953161239624 -0.21927306056022644
-2.3575377464294434 -0.4304315745830536 -0.22206969559192657
-2.3586266040802 -0.6525824069976807 -0.22677092254161835
-2.359776020050049 -0.8862276077270508 -0.2335781753063202
-2.361002206802368 -1.1363967657089233 -0.24280379712581635
-2.3623454570770264 -1.409403681755066 -0.2549043297767639
-2.3638410568237305 -1.713602900505066 -0.27054426074028015
-2.365544319152832 -2.060518503189087 -0.2906988561153412
-2.367542028427124 -2.4667816162109375 -0.3168289065361023
-2.3699545860290527 -2.9575982093811035 -0.3511970341205597
-9.346939086914062 -14.075088500976562 -1.565643548965454
34.098690032958984 -30.37273597717285 -4.231423377990723
34.25410461425781 -25.415218353271484 -3.9523870944976807
33.31475830078125 -20.379817962646484 -3.6188342571258545
31.919349670410156 -15.80128002166748 -3.300339698791504
31.90220069885254 -12.386054039001465 -3.1711599826812744
45.38733673095703 -13.100704193115234 -4.377448558807373
26.731061935424805 7.847047328948975 -2.4085280895233154
20.38445281982422 8.020723342895508 -1.8938344717025757
18.632553100585938 9.329137802124023 -1.8014947175979614
18.538631439208984 11.456465721130371 -1.8840878009796143
18.52772331237793 13.877437591552734 -2.001296043395996
18.515260696411133 16.64314079284668 -2.1523587703704834
22.54275131225586 24.233760833740234 -2.861428737640381
21.217119216918945 27.341981887817383 -2.9920458793640137
19.92689323425293 31.047943115234375 -3.1895036697387695
18.49324607849121 35.413002014160156 -3.4539220333099365
-16.767515182495117 38.36140060424805 -3.619450092315674
-16.999731063842773 31.01430320739746 -3.0576860904693604
-20.499330520629883 30.56757926940918 -3.181931734085083
-23.83983612060547 29.476444244384766 -3.2775073051452637
-31.18779754638672 32.20180892944336 -3.8756420612335205
-18.545820236206055 16.00722885131836 -2.117999792098999
-18.533628463745117 13.307765007019043 -1.9725786447525024
-2.348616361618042 1.3868242502212524 -0.23580367863178253
-2.3499391078948975 1.1179826259613037 -0.2249813824892044
-2.351149797439575 0.8708505630493164 -0.2167617678642273
-2.3522846698760986 0.6393636465072632 -0.21074309945106506
-2.353365421295166 0.41866806149482727 -0.20665313303470612
-2.3544180393218994 0.204706072807312 -0.20431731641292572
-2.355450391769409 -0.006140563171356916 -0.2036396712064743
-2.3564910888671875 -0.21727044880390167 -0.20459288358688354
-2.3575446605682373 -0.4321015775203705 -0.20721526443958282
-2.358633279800415 -0.6543108820915222 -0.21161529421806335
-2.3597822189331055 -0.888068437576294 -0.2179829329252243
-2.3610129356384277 -1.1383841037750244 -0.2266082763671875
-2.3623552322387695 -1.4115960597991943 -0.23792022466659546
-2.363849401473999 -1.7160688638687134 -0.25254103541374207
-2.365556001663208 -2.0633702278137207 -0.27138230204582214
-2.367556095123291 -2.470175266265869 -0.2958106994628906
-2.3699748516082764 -2.9617631435394287 -0.3279457092285156
-9.361230850219727 -14.117557525634766 -1.464471697807312
34.0984992980957 -30.33083152770996 -3.9454522132873535
34.25394058227539 -25.378822326660156 -3.6856460571289062
33.31637954711914 -20.349529266357422 -3.375103712081909
31.919206619262695 -15.774065971374512 -3.078131675720215
31.840456008911133 -12.337041854858398 -2.9521493911743164
45.38740921020508 -13.067106246948242 -4.083317279815674
41.9912109375 -0.5173838138580322 -3.6305880546569824
31.05206298828125 2.3961639404296875 -2.692558765411377
26.74619483947754 4.4906463623046875 -2.34468412399292
26.73493194580078 6.988550186157227 -2.3890085220336914
22.152570724487305 7.961350440979004 -2.0351109504699707
19.0248966217041 8.825504302978516 -1.8131389617919922
18.542007446289062 10.707249641418457 -1.8511102199554443
18.531517028808594 13.035320281982422 -1.9587860107421875
18.519630432128906 15.673307418823242 -2.097519874572754
22.52509307861328 22.80988883972168 -2.771486520767212
21.72261619567871 26.33138084411621 -2.9511311054229736
19.9910831451416 29.192655563354492 -3.058877468109131
18.505374908447266 32.99666976928711 -3.270691394805908
16.11251449584961 35.908241271972656 -3.402616500854492
-16.748659133911133 32.84595489501953 -3.187534809112549
-19.41746711730957 30.91064453125 -3.155876398086548
-22.423566818237305 29.48355484008789 -3.2024149894714355
-29.2620906829834 32.07634735107422 -3.75369930267334
-34.966636657714844 32.05062484741211 -4.100791931152344
-18.537513732910156 14.16790771484375 -2.017120122909546
-9.455099105834961 5.970729351043701 -0.9667739868164062
-2.34951114654541 1.205060601234436 -0.22828398644924164
-2.3507559299468994 0.9514293670654297 -0.219246968626976
-2.3519139289855957 0.7153036594390869 -0.21252867579460144
-2.3530099391937256 0.4914829134941101 -0.20781798660755157
-2.3540687561035156 0.2756898105144501 -0.20491011440753937
-2.3551080226898193 0.06418395787477493 -0.20368468761444092
-2.3561410903930664 -0.1464722454547882 -0.20409178733825684
-2.357187509536743 -0.35967734456062317 -0.2061479091644287
-2.358264684677124 -0.5789910554885864 -0.20993712544441223
-2.359389305114746 -0.8083783388137817 -0.21562011539936066
-2.360589027404785 -1.0525318384170532 -0.22345153987407684
-2.361891269683838 -1.3172814846038818 -0.2338079810142517
-2.363330364227295 -1.6102110147476196 -0.24723784625530243
-2.364956855773926 -1.9416474103927612 -0.26454344391822815
-2.366851806640625 -2.3262741565704346 -0.2869143486022949
-2.3691067695617676 -2.785961866378784 -0.31617292761802673
22.485397338867188 -37.00962448120117 -3.7438910007476807
32.535892486572266 -36.75210952758789 -4.243582248687744
34.26128005981445 -27.004894256591797 -3.7715251445770264
34.24024963378906 -22.34387969970703 -3.5347464084625244
31.925270080566406 -16.981040954589844 -3.126224994659424
31.84545135498047 -13.445541381835938 -2.988511800765991
34.996673583984375 -11.217133522033691 -3.17722225189209
41.996864318847656 -1.7722344398498535 -3.634033203125
41.979949951171875 1.9812138080596924 -3.6333794593811035
26.74988555908203 3.674004077911377 -2.334348201751709
26.73874855041504 6.1431145668029785 -2.371899127960205
24.432445526123047 7.965622425079346 -2.221709966659546
19.99338150024414 8.559146881103516 -1.8802629709243774
18.545270919799805 9.983154296875 -1.8208612203598022
18.53515625 12.227556228637695 -1.9197198152542114
18.523786544799805 14.750845909118652 -2.0471889972686768
22.65601921081543 21.61235809326172 -2.7069756984710693
22.637020111083984 25.828773498535156 -2.9692392349243164
21.07919692993164 28.892229080200195 -3.0919768810272217
19.612382888793945 32.64656066894531 -3.292574405670166
-16.754316329956055 35.43240737915039 -3.388491153717041
-18.246206283569336 31.06792640686035 -3.114915132522583
-21.069549560546875 29.49034881591797 -3.133415460586548
-25.313920974731445 29.469051361083984 -3.3586246967315674
-32.96255874633789 32.07593536376953 -3.976321220397949
-18.541580200195312 15.068649291992188 -2.0656068325042725
-18.52993392944336 12.490234375 -1.931943655014038
-2.3490707874298096 1.2948193550109863 -0.2318948358297348
-2.350346565246582 1.0339466333389282 -0.22198989987373352
-2.351534605026245 0.7926058769226074 -0.2145373523235321
-2.3526484966278076 0.5651913285255432 -0.20918335020542145
-2.353717088699341 0.34715208411216736 -0.20569030940532684
-2.3547613620758057 0.13460615277290344 -0.2039114385843277
-2.355794906616211 -0.07596216350793839 -0.20377440750598907
-2.3568367958068848 -0.287931889295578 -0.20527373254299164
-2.357900857925415 -0.5047845840454102 -0.20846983790397644
-2.359008550643921 -0.7303289771080017 -0.21349699795246124
-2.3601794242858887 -0.968964695930481 -0.22057509422302246
-2.361442804336548 -1.2260921001434326 -0.2300361543893814
-2.3628311157226562 -1.5086158514022827 -0.24236449599266052
-2.3643901348114014 -1.8258037567138672 -0.2582653760910034
-2.3661835193634033 -2.190669059753418 -0.2787797451019287
-2.3683066368103027 -2.622211217880249 -0.30547896027565
-2.3708999156951904 -3.1498358249664307 -0.3408409059047699
-9.395437240600586 -31.72780418395996 -2.860748767852783
19.88006019592285 -35.03736877441406 -3.4827635288238525
35.591087341308594 -29.81773567199707 -4.014143466949463
34.24697494506836 -23.835458755493164 -3.607313871383667
33.34717559814453 -19.035566329956055 -3.3196489810943604
31.850576400756836 -14.582612991333008 -3.028510332107544
32.195743560791016 -11.38985824584961 -2.9524998664855957
45.240203857421875 -11.585248947143555 -4.037410259246826
42.002532958984375 -3.030568838119507 -3.6407310962677
41.98560333251953 0.7266952991485596 -3.630371570587158
26.7535343170166 2.8638463020324707 -2.326167583465576
26.74250602722168 5.308953285217285 -2.3571181297302246
26.731090545654297 7.8404459953308105 -2.408370018005371
20.390363693237305 8.017683982849121 -1.894214153289795
18.63397979736328 9.32453441619873 -1.8014272451400757
18.538658142089844 11.450626373291016 -1.8838244676589966
18.527751922607422 13.870914459228516 -2.000960111618042
18.515295028686523 16.635587692260742 -2.1519219875335693
22.553064346313477 24.233808517456055 -2.862043619155884
21.217187881469727 27.32920265197754 -2.9911766052246094
19.92696189880371 31.032508850097656 -3.1883842945098877
18.493343353271484 35.39350891113281 -3.452432155609131
-16.767623901367188 38.38547134399414 -3.621380567550659
-16.99336814880371 31.01946449279785 -3.057812452316284
-20.499399185180664 30.582794189453125 -3.1830265522003174
-23.828746795654297 29.47650146484375 -3.2769083976745605
-31.16783332824707 32.19580841064453 -3.87406849861145
-18.545852661132812 16.014606475830078 -2.1184160709381104
-18.533655166625977 13.314175605773926 -1.9729037284851074
-2.3486146926879883 1.3875421285629272 -0.23583495616912842
-2.3499324321746826 1.118636965751648 -0.22500549256801605
-2.3511476516723633 0.871461033821106 -0.21677978336811066
-2.3522822856903076 0.6399398446083069 -0.21075591444969177
-2.353363037109375 0.41922473907470703 -0.2066613733768463
-2.3544154167175293 0.20524805784225464 -0.20432128012180328
-2.355448007583618 -0.005603437777608633 -0.20363937318325043
-2.3564887046813965 -0.21672843396663666 -0.20458830893039703
-2.3575422763824463 -0.4315498173236847 -0.20720641314983368
-2.358631134033203 -0.6537347435951233 -0.21160155534744263
-2.3597803115844727 -0.8874531984329224 -0.2179635614156723
-2.361011028289795 -1.1377201080322266 -0.22658294439315796
-2.362353563308716 -1.4108636379241943 -0.23788726329803467
-2.3638482093811035 -1.7152436971664429 -0.2524987757205963
-2.3655505180358887 -2.062412977218628 -0.2713271975517273
-2.367551326751709 -2.4690473079681396 -0.2957403361797333
-2.369966506958008 -2.960381507873535 -0.3278520107269287
-9.353778839111328 -14.09935188293457 -1.4628041982650757
34.09856033325195 -30.3447322845459 -3.9462554454803467
34.25399398803711 -25.390907287597656 -3.686272144317627
33.31583786010742 -20.359596252441406 -3.3756103515625
31.91925621032715 -15.783121109008789 -3.0784828662872314
31.84049415588379 -12.345401763916016 -2.9524171352386475
45.38738250732422 -13.078303337097168 -4.083581924438477
41.99125289916992 -0.526983380317688 -3.630601644515991
31.052093505859375 2.3890740871429443 -2.6925151348114014
26.74622344970703 4.484401226043701 -2.344597816467285
26.734960556030273 6.98206090927124 -2.388868570327759
22.168624877929688 7.961422443389893 -2.036407709121704
19.030210494995117 8.8226957321167 -1.8134582042694092
18.542034149169922 10.701629638671875 -1.850869059562683
18.531545639038086 13.029027938842773 -1.9584746360778809
18.519664764404297 15.666071891784668 -2.0971202850341797
22.5251407623291 22.799509048461914 -2.7708494663238525
21.732704162597656 26.33142852783203 -2.9516854286193848
19.996356964111328 29.1861572265625 -3.058671236038208
18.505462646484375 32.9792366027832 -3.2693822383880615
16.124561309814453 35.91329574584961 -3.4034423828125
-16.748743057250977 32.864540100097656 -3.1889684200286865
-19.40766716003418 30.910688400268555 -3.155428409576416
-22.41299819946289 29.48360824584961 -3.2018656730651855
-29.248741149902344 32.07640838623047 -3.7529265880584717
-34.95069885253906 32.05069351196289 -4.099780082702637
-18.53754234313965 14.174665451049805 -2.017479181289673
-9.456816673278809 5.974813938140869 -0.9670881628990173
-2.3495044708251953 1.2057344913482666 -0.2283102422952652
-2.3507492542266846 0.9520495533943176 -0.21926681697368622
-2.3519115447998047 0.7158846855163574 -0.21254302561283112
-2.3530075550079346 0.49204444885253906 -0.20782744884490967
-2.3540663719177246 0.2762318253517151 -0.20491531491279602
-2.3551056385040283 0.06472597271203995 -0.2036859095096588
-2.3561387062072754 -0.1459302455186844 -0.2040887475013733
-2.357184886932373 -0.3591255843639374 -0.2061404436826706
-2.358262538909912 -0.5784246921539307 -0.20992538332939148
-2.359387159347534 -0.8077777624130249 -0.21560317277908325
-2.3605871200561523 -1.0518872737884521 -0.22342848777770996
-2.361889600753784 -1.3165735006332397 -0.2337774634361267
-2.3633289337158203 -1.609419822692871 -0.24719923734664917
-2.3649561405181885 -1.9407392740249634 -0.26449325680732727
-2.366842031478882 -2.325209379196167 -0.28684982657432556
-2.369102954864502 -2.78466796875 -0.31608688831329346
32.52500534057617 -36.756675720214844 -4.2432541847229
34.26133346557617 -27.01760482788086 -3.772209882736206
34.24029541015625 -22.355104446411133 -3.535280704498291
31.925312042236328 -16.990360260009766 -3.1266069412231445
31.845489501953125 -13.45406723022461 -2.988802194595337
34.96986770629883 -11.217286109924316 -3.175018548965454
41.996910095214844 -1.7818143367767334 -3.6340718269348145
41.97999572753906 1.971629023551941 -3.633343458175659
26.74991226196289 3.6678078174591064 -2.334277629852295
26.738779067993164 6.136679172515869 -2.371777057647705
24.45171356201172 7.965709686279297 -2.2233078479766846
19.993093490600586 8.5536527633667 -1.8800451755523682
18.54529571533203 9.977739334106445 -1.8206411600112915
18.535184860229492 12.221501350402832 -1.9194329977035522
18.523818969726562 14.743980407714844 -2.046821355819702
22.656063079833984 21.602514266967773 -2.7063920497894287
22.637075424194336 25.816951751708984 -2.968473434448242
21.089323043823242 28.892274856567383 -3.092496156692505
19.62260627746582 32.6466064453125 -3.293032646179199
-16.754411697387695 35.45340347290039 -3.3901188373565674
-18.23674774169922 31.067968368530273 -3.1145031452178955
-21.059473037719727 29.490400314331055 -3.1329126358032227
-25.302297592163086 29.46910858154297 -3.357973575592041
-32.951171875 32.079471588134766 -3.975830554962158
-18.54161262512207 15.075700759887695 -2.065995693206787
-18.52996253967285 12.4963960647583 -1.9322441816329956
-2.349064350128174 1.2955175638198853 -0.2319236695766449
-2.350344657897949 1.0345911979675293 -0.2220120131969452
-2.351532459259033 0.7932015657424927 -0.21455352008342743
-2.3526463508605957 0.5657529234886169 -0.2091943323612213
-2.3537144660949707 0.34769406914711 -0.20569701492786407
-2.3547587394714355 0.13514328002929688 -0.20391403138637543
-2.35579252243042 -0.07542014867067337 -0.2037728875875473
-2.3568344116210938 -0.2873849868774414 -0.2052677869796753
-2.357898473739624 -0.5042230486869812 -0.20845946669578552
-2.359006404876709 -0.7297381162643433 -0.21348173916339874
-2.360177516937256 -0.9683347344398499 -0.22055435180664062
-2.361440896987915 -1.2254035472869873 -0.23000869154930115
-2.3628294467926025 -1.5078492164611816 -0.242328941822052
-2.364384174346924 -1.824939489364624 -0.25821930170059204
-2.366178274154663 -2.1896486282348633 -0.27871963381767273
-2.3682973384857178 -2.620990514755249 -0.30540022253990173
-2.37089204788208 -3.1483170986175537 -0.3407353162765503
-9.401484489440918 -31.7219181060791 -2.860409736633301
19.866432189941406 -35.03193283081055 -3.48177433013916
35.591148376464844 -29.83172607421875 -4.014925003051758
34.247032165527344 -23.84697723388672 -3.6078855991363525
33.347225189208984 -19.045576095581055 -3.3200809955596924
31.850614547729492 -14.591458320617676 -3.028826951980591
32.18792724609375 -11.395272254943848 -2.952018976211548
45.24024200439453 -11.596147537231445 -4.0376482009887695
42.00257873535156 -3.0401854515075684 -3.640794515609741
41.98564910888672 0.7171152830123901 -3.6303608417510986
26.75356101989746 2.857684373855591 -2.3261125087738037
26.742536544799805 5.302615165710449 -2.357013702392578
26.731122970581055 7.833829879760742 -2.4082112312316895
20.396286010742188 8.014638900756836 -1.894594669342041
18.635406494140625 9.319940567016602 -1.80135977268219
18.53868293762207 11.444806098937988 -1.8835619688034058
18.527782440185547 13.864273071289062 -2.000617742538452
18.515331268310547 16.62792205810547 -2.1514804363250732
22.563512802124023 24.233856201171875 -2.8626439571380615
21.217254638671875 27.316307067871094 -2.9902992248535156
19.927032470703125 31.017221450805664 -3.187274694442749
18.493440628051758 35.37420654296875 -3.4509575366973877
-16.767732620239258 38.40965270996094 -3.6232995986938477
-16.986989974975586 31.02463150024414 -3.057939291000366
-20.499467849731445 30.597965240478516 -3.184119701385498
-23.817678451538086 29.47655487060547 -3.276310920715332
-31.147602081298828 32.18972396850586 -3.872476816177368
-18.5458927154541 16.022077560424805 -2.1188433170318604
-18.5336856842041 13.32066535949707 -1.9732335805892944
-2.3486130237579346 1.3882696628570557 -0.23586684465408325
-2.3499302864074707 1.119286298751831 -0.22502928972244263
-2.3511455059051514 0.8720664978027344 -0.21679778397083282
-2.3522799015045166 0.6405062675476074 -0.21076872944831848
-2.353360652923584 0.41977164149284363 -0.20666930079460144
-2.3544130325317383 0.20578032732009888 -0.20432494580745697
-2.355445384979248 -0.005066311452537775 -0.20363906025886536
-2.3564813137054443 -0.21618640422821045 -0.20458373427391052
-2.3575398921966553 -0.43099313974380493 -0.20719756186008453
-2.358628749847412 -0.653153657913208 -0.2115882784128189
-2.3597781658172607 -0.8868379592895508 -0.21794448792934418
-2.361004114151001 -1.1370511054992676 -0.2265579104423523
-2.36234712600708 -1.4101312160491943 -0.23785491287708282
-2.363842248916626 -1.7144184112548828 -0.25245603919029236
-2.3655498027801514 -2.0614607334136963 -0.27127304673194885
-2.367546796798706 -2.467904567718506 -0.2956680357456207
-2.3699581623077393 -2.958975076675415 -0.32775741815567017
-9.346258163452148 -14.080977439880371 -1.46112060546875
34.09862518310547 -30.358869552612305 -3.9470672607421875
34.254051208496094 -25.40317726135254 -3.68690824508667
33.31528854370117 -20.369800567626953 -3.3759961128234863
31.91929817199707 -15.792293548583984 -3.0788371562957764
31.840532302856445 -12.353687286376953 -2.9526748657226562
45.38736343383789 -13.08938217163086 -4.0838446617126465
41.99129867553711 -0.5364657044410706 -3.6306166648864746
31.052125930786133 2.381964921951294 -2.692473888397217
26.746252059936523 4.4781365394592285 -2.3445098400115967
26.734989166259766 6.975552082061768 -2.3887295722961426
22.18470001220703 7.961495399475098 -2.037717580795288
19.0355167388916 8.8198823928833 -1.8137692213058472
18.542057037353516 10.695999145507812 -1.8506274223327637
18.531574249267578 13.02273941040039 -1.9581639766693115
18.519697189331055 15.658869743347168 -2.096717596054077
22.52518653869629 22.789152145385742 -2.770195245742798
21.742929458618164 26.33147430419922 -2.9522507190704346
20.001689910888672 29.179569244384766 -3.058461904525757
18.505552291870117 32.96162414550781 -3.268057107925415
16.136804580688477 35.91843795776367 -3.404279947280884
-16.74882698059082 32.883235931396484 -3.190413236618042
-19.39786720275879 30.91073226928711 -3.1549816131591797
-22.40243148803711 29.483659744262695 -3.2013158798217773
-29.235403060913086 32.07646560668945 -3.752152681350708
-34.934783935546875 32.0507698059082 -4.0987701416015625
-18.537572860717773 14.181384086608887 -2.017833709716797
-9.458559036254883 5.978960990905762 -0.9674069285392761
-2.3495025634765625 1.2064180374145508 -0.22833694517612457
-2.3507471084594727 0.9526793956756592 -0.21928709745407104
-2.3519046306610107 0.7164754867553711 -0.21255767345428467
-2.3530051708221436 0.49259620904922485 -0.20783720910549164
-2.3540639877319336 0.2767738401889801 -0.20492064952850342
-2.355103015899658 0.0652582123875618 -0.20368681848049164
-2.3561363220214844 -0.14539800584316254 -0.20408569276332855
-2.357182502746582 -0.35857871174812317 -0.20613326132297516
-2.358259916305542 -0.5778533220291138 -0.2099134773015976
-2.3593850135803223 -0.8071771860122681 -0.21558624505996704
-2.3605852127075195 -1.051242709159851 -0.22340545058250427
-2.3618829250335693 -1.315865397453308 -0.2337477058172226
-2.3633227348327637 -1.608628749847412 -0.2471601814031601
-2.36495041847229 -1.939835786819458 -0.26444366574287415
-2.3668370246887207 -2.3241400718688965 -0.28678449988365173
-2.369094133377075 -2.7833786010742188 -0.31600141525268555
32.51409912109375 -36.76124954223633 -4.242926120758057
34.26139450073242 -27.030336380004883 -3.7728960514068604
34.24034881591797 -22.366262435913086 -3.5358119010925293
31.925365447998047 -16.99981117248535 -3.1269946098327637
31.845529556274414 -13.462721824645996 -2.98909592628479
34.94266891479492 -11.217438697814941 -3.1727850437164307
41.996952056884766 -1.7913161516189575 -3.6341099739074707
41.980037689208984 1.9621318578720093 -3.633307933807373
26.749940872192383 3.6616408824920654 -2.33420729637146
26.738807678222656 6.130321502685547 -2.3716561794281006
24.470727920532227 7.965795040130615 -2.2248613834381104
19.992794036865234 8.548133850097656 -1.879841923713684
18.545318603515625 9.97230052947998 -1.820420503616333
18.53521156311035 12.215456008911133 -1.9191482067108154
18.523849487304688 14.737114906311035 -2.0464515686035156
22.65610694885254 21.59270477294922 -2.7058093547821045
22.63712501525879 25.80515480041504 -2.9677093029022217
21.099430084228516 28.892318725585938 -3.09301495552063
19.632762908935547 32.64665603637695 -3.2934892177581787
-16.754507064819336 35.47454833984375 -3.391775369644165
-18.22724151611328 31.068012237548828 -3.1140904426574707
-21.049373626708984 29.49045181274414 -3.1324095726013184
-25.290679931640625 29.469167709350586 -3.357322931289673
-32.93977355957031 32.08301544189453 -3.97533917427063
-18.541643142700195 15.082741737365723 -2.0663816928863525
-18.52998924255371 12.50255298614502 -1.9325432777404785
-2.349062442779541 1.2962108850479126 -0.231952503323555
-2.3503427505493164 1.0352259874343872 -0.22203414142131805
-2.35152530670166 0.7938022613525391 -0.21457000076770782
-2.3526439666748047 0.5663290619850159 -0.2092057764530182
-2.353712320327759 0.34825077652931213 -0.2057037353515625
-2.3547563552856445 0.1356852948665619 -0.20391647517681122
-2.355790138244629 -0.07488790899515152 -0.20377105474472046
-2.3568320274353027 -0.2868430018424988 -0.20526184141635895
-2.357896089553833 -0.5036664009094238 -0.2084490954875946
-2.359004259109497 -0.7291522026062012 -0.21346648037433624
-2.360175371170044 -0.9677097201347351 -0.22053344547748566
-2.3614392280578613 -1.2247248888015747 -0.22998107969760895
-2.362823247909546 -1.5070972442626953 -0.24229370057582855
-2.3643829822540283 -1.824084997177124 -0.2581741213798523
-2.366173028945923 -2.188652515411377 -0.2786605656147003
-2.368293046951294 -2.6197991371154785 -0.30532363057136536
-2.3708841800689697 -3.1468279361724854 -0.3406321704387665
-9.407644271850586 -31.715919494628906 -2.8600640296936035
19.85629653930664 -35.032470703125 -3.48138165473938
35.591209411621094 -29.845458984375 -4.015697002410889
34.2470817565918 -23.858720779418945 -3.6084694862365723
33.34727096557617 -19.0557804107666 -3.3205223083496094
31.850656509399414 -14.600374221801758 -3.0291507244110107
32.17997360229492 -11.400785446166992 -2.9515299797058105
45.240291595458984 -11.607255935668945 -4.037890911102295
42.002620697021484 -3.0499043464660645 -3.640859365463257
41.98569107055664 0.7074523568153381 -3.630350351333618
26.753591537475586 2.8515710830688477 -2.326059103012085
26.742565155029297 5.2963361740112305 -2.3569107055664062
26.731151580810547 7.827286720275879 -2.4080543518066406
20.40216064453125 8.011618614196777 -1.8949710130691528
18.636823654174805 9.31538200378418 -1.8012911081314087
18.53870964050293 11.43903923034668 -1.8833022117614746
18.527812957763672 13.85777473449707 -2.0002806186676025
18.515363693237305 16.620403289794922 -2.1510491371154785
22.573776245117188 24.233903884887695 -2.8632586002349854
21.21731185913086 27.303646087646484 -2.989439010620117
19.927101135253906 31.001625061035156 -3.1861443519592285
18.49353790283203 35.354610443115234 -3.4494590759277344
-16.767839431762695 38.433528900146484 -3.625197172164917
-16.98067855834961 31.029741287231445 -3.058065176010132
-20.499540328979492 30.6130428314209 -3.185206174850464
-23.806720733642578 29.47661590576172 -3.27571964263916
-31.127750396728516 32.183753967285156 -3.87091064453125
-18.54592514038086 16.029417037963867 -2.1192572116851807
-18.533714294433594 13.327032089233398 -1.9735561609268188
-2.348606586456299 1.3889825344085693 -0.2358979731798172
-2.349928379058838 1.1199455261230469 -0.22505371272563934
-2.3511385917663574 0.8726768493652344 -0.21681594848632812
-2.3522777557373047 0.6410921812057495 -0.2107815444469452
-2.353358268737793 0.420328289270401 -0.20667754113674164
-2.3544106483459473 0.20632722973823547 -0.20432890951633453
-2.355443000793457 -0.00452430360019207 -0.20363876223564148
-2.3564789295196533 -0.21563951671123505 -0.20457930862903595
-2.3575377464294434 -0.4304315745830536 -0.20718856155872345
-2.3586266040802 -0.6525824069976807 -0.2115747034549713
-2.359776020050049 -0.8862276077270508 -0.21792586147785187
-2.361002206802368 -1.1363967657089233 -0.2265332043170929
-2.3623454570770264 -1.409403681755066 -0.23782241344451904
-2.3638410568237305 -1.713602900505066 -0.2524145543575287
-2.365544319152832 -2.060518503189087 -0.2712191641330719
-2.367542028427124 -2.4667816162109375 -0.29559752345085144
-2.3699545860290527 -2.9575982093811035 -0.3276634216308594
-9.346673011779785 -14.074689865112305 -1.4606878757476807
34.098690032958984 -30.37273597717285 -3.947874069213867
34.25410461425781 -25.41522216796875 -3.687532663345337
33.31475830078125 -20.379817962646484 -3.3764262199401855
31.919349670410156 -15.80128288269043 -3.079185724258423
31.8405704498291 -12.36213207244873 -2.952942132949829
