ply
format ascii 1.0
element vertex 2097
property float32 x
property float32 y
property float32 z
end_header
10.9144 -10.3208 1.2987
10.8537 -8.5658 1.1954
10.6278 -6.9446 1.0976
12.3862 -6.5980 1.2133
16.6339 -7.0351 1.5614
17.4075 -5.5913 1.5807
18.0700 -4.0686 1.6013
18.7713 -2.4947 1.6371
19.1575 -0.8204 1.6578
19.4042 0.9037 1.6794
19.5039 2.6664 1.7019
19.4499 4.4558 1.7251
19.2363 6.2582 1.7489
18.8582 8.0593 1.7730
18.3121 9.8428 1.7974
10.4166 -14.1027 1.6246
8.0616 -9.0900 1.1258
10.8943 -10.2709 1.3874
10.8496 -8.5361 1.2792
10.6243 -6.9196 1.1749
12.4240 -6.5942 1.3034
16.3868 -6.9016 1.6476
16.3282 -5.2176 1.5884
16.9335 -3.7859 1.6079
17.4247 -2.2891 1.6285
17.9190 -0.7403 1.6619
18.1320 0.8717 1.6821
18.2068 2.5170 1.7031
18.1374 4.1838 1.7248
17.9190 5.8595 1.7470
17.5476 7.5304 1.7694
17.0204 9.1816 1.7920
16.3362 10.7975 1.8145
15.5709 12.4218 1.8457
14.5889 13.9412 1.8699
13.4520 15.3758 1.8931
12.7804 17.5497 2.0117
11.7054 19.5233 2.1094
10.0135 20.6891 2.1299
8.1941 21.6753 2.1472
6.2652 22.4546 2.1602
4.2580 23.0376 2.1709
2.1941 23.4148 2.1792
0.0967 23.5794 2.1850
-2.0102 23.5280 2.1881
-4.1021 23.2601 2.1886
-6.1548 22.7787 2.1865
-8.1444 22.0900 2.1816
-10.0486 21.2034 2.1743
-11.0807 18.8300 2.0246
-12.4179 17.3491 1.9770
-13.7398 15.9672 1.9520
-2.7548 2.6761 0.3559
-2.6848 2.1781 0.3204
-2.6270 1.7675 0.2934
-2.5779 1.4181 0.2726
-2.5349 1.1125 0.2565
-2.4965 0.8391 0.2440
-2.4613 0.5891 0.2345
-2.4285 0.3561 0.2274
-2.3974 0.1350 0.2225
-2.3674 -0.0784 0.2195
-2.3380 -0.2877 0.2183
-2.3086 -0.4963 0.2188
-2.2789 -0.7077 0.2211
-2.2483 -0.9253 0.2253
-2.2163 -1.1531 0.2315
-2.1821 -1.3958 0.2400
-2.1450 -1.6594 0.2513
-2.1040 -1.9512 0.2659
-2.0575 -2.2820 0.2847
-2.0034 -2.6663 0.3090
-1.9387 -3.1265 0.3409
-7.2899 -14.5047 1.5043
-6.0466 -15.2991 1.5244
-4.9467 -16.7569 1.6190
-3.4160 -17.0516 1.6115
-1.8744 -17.2258 1.6056
-0.3293 -17.2802 1.6015
1.2119 -17.2154 1.5992
2.7419 -17.0321 1.5986
4.2534 -16.7313 1.5997
5.7394 -16.3144 1.6026
7.1926 -15.7825 1.6072
8.6057 -15.1373 1.6135
9.9713 -14.3806 1.6216
8.1636 -9.7790 1.1804
8.4196 -8.4273 1.1039
10.9345 -9.1452 1.3209
10.6292 -7.3846 1.1993
11.7403 -6.6887 1.2521
16.4713 -7.5247 1.6780
16.2281 -5.7257 1.5946
16.7432 -4.2727 1.6012
17.2735 -2.7969 1.6215
16.8171 -1.1993 1.5623
18.0758 0.3279 1.6752
18.1975 1.9633 1.6960
18.1770 3.6242 1.7175
18.0090 5.2984 1.7395
17.6892 6.9725 1.7619
17.2143 8.6320 1.7845
16.5827 10.2615 1.8070
15.7942 11.8448 1.8294
14.9351 13.4412 1.8619
13.8494 14.9062 1.8854
12.9187 16.6685 1.9542
12.2414 19.0982 2.1020
10.5944 20.3169 2.1232
8.8182 21.3715 2.1423
6.9206 22.2150 2.1561
4.9373 22.8649 2.1676
2.8899 23.3119 2.1767
0.8010 23.5483 2.1833
-1.3054 23.5694 2.1874
-3.4051 23.3738 2.1888
-5.4735 22.9633 2.1875
-7.4869 22.3431 2.1835
-9.4221 21.5216 2.1770
-11.2576 20.5098 2.1680
-11.9227 17.7560 1.9818
-13.3282 16.4596 1.9625
-14.5051 14.9592 1.9308
-2.7066 2.3334 0.3311
-2.6453 1.8970 0.3016
-2.5936 1.5294 0.2790
-2.5487 1.2107 0.2615
-2.5089 0.9276 0.2479
-2.4728 0.6706 0.2374
-2.4393 0.4325 0.2296
-2.4077 0.2079 0.2239
-2.3774 -0.0076 0.2203
-2.3478 -0.2178 0.2185
-2.3185 -0.4263 0.2184
-2.2889 -0.6364 0.2201
-2.2587 -0.8515 0.2237
-2.2272 -1.0754 0.2292
-2.1938 -1.3126 0.2369
-2.1578 -1.5684 0.2472
-2.1183 -1.8498 0.2606
-2.0738 -2.1661 0.2779
-2.0225 -2.5305 0.3002
-1.9618 -2.9622 0.3292
-7.7393 -14.3154 1.5080
-6.3863 -14.8441 1.4974
-5.4552 -16.6314 1.6219
-3.9300 -16.9664 1.6138
-2.3912 -17.1809 1.6074
-0.8464 -17.2754 1.6027
0.6969 -17.2503 1.5998
2.2314 -17.1065 1.5986
3.7499 -16.8450 1.5991
5.2453 -16.4668 1.6014
6.7103 -15.9732 1.6054
8.1376 -15.3657 1.6112
9.5200 -14.6461 1.6187
10.8499 -13.8164 1.6279
8.0311 -8.5342 1.0859
11.0252 -9.7959 1.3666
10.7708 -7.9708 1.2416
11.1078 -6.7761 1.2057
16.4382 -8.1121 1.6986
16.3060 -6.3076 1.6201
16.5404 -4.7520 1.5947
17.1089 -3.2980 1.6146
16.3819 -1.6618 1.5258
18.0043 -0.2118 1.6685
18.1723 1.4125 1.6890
18.2001 3.0661 1.7102
18.0820 4.7374 1.7321
17.8133 6.4130 1.7544
17.3907 8.0791 1.7769
16.8116 9.7204 1.7995
16.0756 11.3210 1.8219
15.2637 12.9322 1.8538
14.2300 14.4257 1.8777
13.0581 15.8467 1.9027
12.6352 18.4727 2.0739
11.1609 19.9264 2.1164
9.4261 21.0378 2.1362
7.5665 21.9539 2.1518
5.6094 22.6695 2.1640
3.5810 23.1854 2.1739
1.5034 23.4929 2.1814
-0.5998 23.5864 2.1863
-2.7045 23.4633 2.1886
-4.7861 23.1244 2.1882
-6.8205 22.5736 2.1852
-8.7844 21.8184 2.1795
-10.6556 20.8688 2.1713
-11.4127 18.1463 1.9864
-12.8917 16.9317 1.9720
-13.0830 14.3258 1.7978
-2.7300 2.4996 0.3430
-2.6646 2.0342 0.3106
-2.6100 1.6462 0.2859
-2.5631 1.3129 0.2669
-2.5218 1.0191 0.2520
-2.4845 0.7542 0.2406
-2.4502 0.5104 0.2319
-2.4181 0.2819 0.2256
-2.3874 0.0638 0.2213
-2.3577 -0.1478 0.2189
-2.3283 -0.3565 0.2183
-2.2989 -0.5657 0.2194
-2.2689 -0.7787 0.2223
-2.2379 -0.9992 0.2271
-2.2052 -1.2314 0.2340
-2.1702 -1.4803 0.2434
-2.1320 -1.7523 0.2557
-2.0893 -2.0556 0.2716
-2.0406 -2.4022 0.2921
-1.9834 -2.8087 0.3186
-1.9142 -3.3008 0.3536
-6.8426 -14.6794 1.5008
-5.8844 -16.2791 1.6040
-4.4425 -16.8676 1.6163
-2.9073 -17.1225 1.6093
-1.3637 -17.2571 1.6041
0.1809 -17.2719 1.6006
1.7192 -17.1678 1.5988
3.2439 -16.9456 1.5988
4.7478 -16.6062 1.6005
6.2237 -16.1512 1.6039
7.6645 -15.5817 1.6091
9.0627 -14.8994 1.6160
10.4110 -14.1063 1.6246
8.0628 -9.0982 1.1265
10.8990 -10.2831 1.3885
10.8506 -8.5435 1.2797
10.6252 -6.9258 1.1753
12.4151 -6.5954 1.3027
16.3878 -6.9093 1.6480
16.3254 -5.2235 1.5883
16.9312 -3.7921 1.6078
17.4229 -2.2955 1.6284
17.9178 -0.7470 1.6618
18.1314 0.8649 1.6820
18.2067 2.5100 1.7031
18.1380 4.1768 1.7247
17.9203 5.8525 1.7469
17.5495 7.5234 1.7693
17.0230 9.1747 1.7919
16.3394 10.7908 1.8144
15.5747 12.4152 1.8456
14.5933 13.9350 1.8698
13.4571 15.3700 1.8930
12.7822 17.5382 2.0110
11.7122 19.5181 2.1093
10.0208 20.6845 2.1298
8.2020 21.6716 2.1472
6.2735 22.4517 2.1602
4.2666 23.0355 2.1709
2.2029 23.4136 2.1792
0.1056 23.5792 2.1850
-2.0014 23.5287 2.1881
-4.0934 23.2617 2.1886
-6.1462 22.7812 2.1865
-8.1362 22.0934 2.1817
-10.0408 21.2076 2.1743
-11.0836 18.8510 2.0264
-12.4117 17.3543 1.9771
-13.7348 15.9735 1.9521
-2.7552 2.6784 0.3561
-2.6851 2.1800 0.3205
-2.6273 1.7691 0.2935
-2.5781 1.4194 0.2727
-2.5351 1.1138 0.2566
-2.4966 0.8402 0.2441
-2.4614 0.5901 0.2345
-2.4287 0.3570 0.2275
-2.3976 0.1359 0.2225
-2.3675 -0.0775 0.2195
-2.3381 -0.2868 0.2183
-2.3088 -0.4954 0.2188
-2.2790 -0.7068 0.2211
-2.2484 -0.9243 0.2253
-2.2164 -1.1521 0.2315
-2.1823 -1.3948 0.2400
-2.1452 -1.6582 0.2512
-2.1042 -1.9499 0.2658
-2.0577 -2.2805 0.2846
-2.0037 -2.6646 0.3089
-1.9390 -3.1244 0.3407
-7.2956 -14.5024 1.5043
-6.0485 -15.2872 1.5234
-4.9531 -16.7554 1.6190
-3.4225 -17.0506 1.6115
-1.8809 -17.2254 1.6057
-0.3358 -17.2803 1.6016
1.2054 -17.2159 1.5992
2.7355 -17.0331 1.5986
4.2471 -16.7328 1.5997
5.7332 -16.3163 1.6026
7.1866 -15.7849 1.6071
8.5998 -15.1402 1.6135
9.9657 -14.3840 1.6215
8.1649 -9.7881 1.1811
8.4207 -8.4348 1.1044
10.9356 -9.1531 1.3214
10.6269 -7.3889 1.1994
11.7320 -6.6898 1.2515
16.4723 -7.5327 1.6784
16.2287 -5.7328 1.5949
16.7408 -4.2788 1.6011
17.2715 -2.8033 1.6214
16.7945 -1.2041 1.5602
18.0750 0.3211 1.6752
18.1973 1.9563 1.6959
18.1774 3.6172 1.7174
18.0100 5.2914 1.7394
17.6908 6.9655 1.7618
17.2166 8.6251 1.7844
16.5857 10.2548 1.8069
15.7978 11.8383 1.8293
14.9393 13.4348 1.8618
13.8544 14.9002 1.8853
12.9203 16.6577 1.9535
12.2480 19.0928 2.1020
10.6016 20.3121 2.1231
8.8259 21.3674 2.1422
6.9288 22.2119 2.1561
4.9458 22.8626 2.1675
2.8986 23.3105 2.1767
0.8099 23.5477 2.1833
-1.2965 23.5697 2.1874
-3.3963 23.3750 2.1888
-5.4650 22.9655 2.1875
-7.4786 22.3462 2.1836
-9.4141 21.5254 2.1770
-11.2501 20.5144 2.1680
-11.9164 17.7610 1.9819
-13.3229 16.4657 1.9627
-14.5005 14.9657 1.9310
-2.7069 2.3354 0.3313
-2.6455 1.8987 0.3017
-2.5938 1.5308 0.2791
-2.5489 1.2120 0.2615
-2.5091 0.9288 0.2479
-2.4729 0.6716 0.2374
-2.4394 0.4335 0.2296
-2.4078 0.2089 0.2240
-2.3775 -0.0067 0.2203
-2.3479 -0.2170 0.2185
-2.3186 -0.4255 0.2184
-2.2891 -0.6355 0.2201
-2.2588 -0.8506 0.2237
-2.2273 -1.0745 0.2292
-2.1940 -1.3116 0.2369
-2.1580 -1.5673 0.2471
-2.1184 -1.8486 0.2605
-2.0740 -2.1647 0.2778
-2.0227 -2.5289 0.3001
-1.9621 -2.9602 0.3291
-7.7449 -14.3130 1.5080
-6.3920 -14.8421 1.4974
-5.4616 -16.6297 1.6219
-3.9365 -16.9652 1.6138
-2.3977 -17.1802 1.6074
-0.8529 -17.2752 1.6027
0.6904 -17.2507 1.5998
2.2250 -17.1074 1.5986
3.7436 -16.8463 1.5991
5.2391 -16.4686 1.6014
6.7042 -15.9755 1.6054
8.1317 -15.3685 1.6112
9.5142 -14.6494 1.6186
10.8444 -13.8202 1.6278
8.0322 -8.5418 1.0865
11.0263 -9.8043 1.3672
10.7718 -7.9778 1.2421
11.1001 -6.7771 1.2051
16.4344 -8.1179 1.6985
16.3070 -6.3150 1.6204
16.5378 -4.7580 1.5946
17.1067 -3.3043 1.6145
16.3828 -1.6682 1.5259
18.0033 -0.2186 1.6684
18.1719 1.4055 1.6889
18.2002 3.0591 1.7102
18.0828 4.7303 1.7320
17.8148 6.4060 1.7543
17.3928 8.0721 1.7768
16.8144 9.7136 1.7994
16.0790 11.3144 1.8218
15.2678 12.9258 1.8537
14.2346 14.4196 1.8776
13.0600 15.8368 1.9021
12.6371 18.4605 2.0730
11.1679 19.9214 2.1163
9.4337 21.0335 2.1361
7.5745 21.9505 2.1517
5.6178 22.6669 2.1639
3.5897 23.1837 2.1739
1.5122 23.4921 2.1814
-0.5910 23.5865 2.1863
-2.6957 23.4643 2.1886
-4.7774 23.1262 2.1882
-6.8121 22.5764 2.1852
-8.7763 21.8220 2.1795
-10.6479 20.8732 2.1713
-11.4063 18.1510 1.9865
-12.8858 16.9371 1.9720
-13.0702 14.3226 1.7967
-2.7303 2.5018 0.3432
-2.6648 2.0360 0.3108
-2.6102 1.6477 0.2860
-2.5633 1.3142 0.2669
-2.5219 1.0203 0.2521
-2.4847 0.7552 0.2406
-2.4504 0.5114 0.2320
-2.4182 0.2828 0.2256
-2.3875 0.0647 0.2213
-2.3578 -0.1469 0.2189
-2.3284 -0.3557 0.2183
-2.2990 -0.5648 0.2194
-2.2690 -0.7778 0.2223
-2.2380 -0.9983 0.2271
-2.2054 -1.2304 0.2340
-2.1704 -1.4792 0.2434
-2.1321 -1.7511 0.2557
-2.0895 -2.0543 0.2715
-2.0408 -2.4006 0.2920
-1.9836 -2.8068 0.3185
-1.9145 -3.2985 0.3534
-6.8483 -14.6773 1.5008
-5.8866 -16.2661 1.6029
-4.4488 -16.8663 1.6163
-2.9137 -17.1216 1.6094
-1.3701 -17.2568 1.6041
0.1745 -17.2721 1.6006
1.7127 -17.1685 1.5988
3.2375 -16.9468 1.5987
4.7415 -16.6080 1.6004
6.2176 -16.1533 1.6039
7.6585 -15.5843 1.6090
9.0569 -14.9025 1.6159
10.4055 -14.1098 1.6246
8.0640 -9.1064 1.1271
10.9044 -10.2959 1.3897
10.8516 -8.5508 1.2802
10.6260 -6.9321 1.1756
12.4062 -6.5967 1.3020
16.3889 -6.9169 1.6484
16.3227 -5.2293 1.5882
16.9289 -3.7982 1.6077
17.4211 -2.3019 1.6283
17.9166 -0.7537 1.6617
18.1308 0.8581 1.6819
18.2067 2.5031 1.7030
18.1386 4.1697 1.7246
17.9215 5.8454 1.7468
17.5514 7.5164 1.7692
17.0255 9.1679 1.7918
16.3426 10.7841 1.8144
15.5785 12.4087 1.8455
14.5977 13.9289 1.8697
13.4621 15.3642 1.8929
12.7839 17.5270 2.0102
11.7191 19.5129 2.1092
10.0282 20.6800 2.1297
8.2099 21.6680 2.1471
6.2818 22.4488 2.1601
4.2751 23.0335 2.1708
2.2116 23.4125 2.1791
0.1143 23.5790 2.1849
-1.9926 23.5293 2.1881
-4.0848 23.2632 2.1886
-6.1377 22.7836 2.1865
-8.1280 22.0967 2.1817
-10.0330 21.2117 2.1743
-11.0863 18.8718 2.0282
-12.4056 17.3595 1.9771
-13.7297 15.9797 1.9522
-2.7555 2.6808 0.3562
-2.6853 2.1818 0.3206
-2.6275 1.7706 0.2936
-2.5783 1.4208 0.2728
-2.5353 1.1150 0.2566
-2.4968 0.8413 0.2441
-2.4616 0.5911 0.2346
-2.4288 0.3580 0.2275
-2.3977 0.1368 0.2225
-2.3677 -0.0766 0.2195
-2.3382 -0.2859 0.2183
-2.3089 -0.4946 0.2188
-2.2792 -0.7059 0.2211
-2.2486 -0.9234 0.2252
-2.2165 -1.1511 0.2314
-2.1824 -1.3937 0.2399
-2.1454 -1.6570 0.2512
-2.1044 -1.9487 0.2658
-2.0579 -2.2790 0.2845
-2.0039 -2.6628 0.3088
-1.9393 -3.1223 0.3406
-7.3011 -14.5001 1.5043
-6.0505 -15.2754 1.5225
-4.9595 -16.7539 1.6191
-3.4289 -17.0496 1.6115
-1.8873 -17.2249 1.6057
-0.3422 -17.2803 1.6016
1.1990 -17.2164 1.5992
2.7291 -17.0341 1.5986
4.2409 -16.7343 1.5997
5.7271 -16.3183 1.6025
7.1805 -15.7874 1.6071
8.5940 -15.1432 1.6134
9.9601 -14.3874 1.6215
8.1663 -9.7971 1.1819
8.4218 -8.4421 1.1050
10.9367 -9.1609 1.3220
10.6246 -7.3932 1.1994
11.7239 -6.6909 1.2508
16.4734 -7.5405 1.6788
16.2294 -5.7399 1.5952
16.7383 -4.2848 1.6010
17.2695 -2.8096 1.6213
16.7723 -1.2088 1.5582
18.0742 0.3143 1.6751
18.1971 1.9494 1.6959
18.1778 3.6102 1.7173
18.0110 5.2844 1.7393
17.6925 6.9586 1.7617
17.2190 8.6182 1.7843
16.5887 10.2480 1.8068
15.8015 11.8318 1.8292
14.9435 13.4285 1.8617
13.8592 14.8943 1.8852
12.9220 16.6471 1.9528
12.2545 19.0874 2.1019
10.6088 20.3074 2.1231
8.8335 21.3634 2.1422
6.9370 22.2087 2.1560
4.9543 22.8603 2.1675
2.9073 23.3090 2.1766
0.8187 23.5472 2.1833
-1.2877 23.5701 2.1874
-3.3876 23.3763 2.1888
-5.4564 22.9676 2.1875
-7.4703 22.3492 2.1836
-9.4063 21.5292 2.1771
-11.2427 20.5191 2.1681
-11.9101 17.7660 1.9820
-13.3176 16.4719 1.9628
-14.4959 14.9721 1.9311
-2.7072 2.3374 0.3314
-2.6457 1.9004 0.3019
-2.5940 1.5323 0.2792
-2.5491 1.2132 0.2616
-2.5092 0.9299 0.2480
-2.4730 0.6726 0.2375
-2.4395 0.4344 0.2296
-2.4079 0.2098 0.2240
-2.3776 -0.0058 0.2203
-2.3481 -0.2161 0.2185
-2.3187 -0.4246 0.2184
-2.2892 -0.6346 0.2201
-2.2589 -0.8497 0.2236
-2.2274 -1.0735 0.2291
-2.1941 -1.3105 0.2368
-2.1582 -1.5662 0.2471
-2.1186 -1.8473 0.2605
-2.0742 -2.1633 0.2777
-2.0230 -2.5272 0.3000
-1.9623 -2.9583 0.3289
-7.7505 -14.3105 1.5081
-6.3977 -14.8402 1.4975
-5.4679 -16.6280 1.6220
-3.9428 -16.9640 1.6139
-2.4041 -17.1796 1.6074
-0.8594 -17.2751 1.6027
0.6840 -17.2510 1.5998
2.2186 -17.1082 1.5986
3.7373 -16.8477 1.5991
5.2329 -16.4704 1.6014
6.6981 -15.9778 1.6054
8.1258 -15.3713 1.6111
9.5086 -14.6526 1.6186
10.8389 -13.8238 1.6278
8.0334 -8.5494 1.0871
11.0275 -9.8128 1.3678
10.7727 -7.9847 1.2425
11.0926 -6.7782 1.2046
16.4306 -8.1237 1.6985
16.3080 -6.3223 1.6207
16.5352 -4.7639 1.5945
17.1046 -3.3104 1.6144
16.3838 -1.6745 1.5261
18.0023 -0.2253 1.6683
18.1715 1.3987 1.6888
18.2004 3.0522 1.7101
18.0836 4.7233 1.7319
17.8162 6.3990 1.7542
17.3949 8.0652 1.7767
16.8171 9.7068 1.7993
16.0824 11.3078 1.8218
15.2718 12.9193 1.8536
14.2393 14.4135 1.8775
13.0620 15.8269 1.9015
12.6390 18.4485 2.0722
11.1749 19.9164 2.1162
9.4412 21.0292 2.1360
7.5825 21.9471 2.1517
5.6261 22.6643 2.1639
3.5982 23.1819 2.1738
1.5210 23.4913 2.1813
-0.5821 23.5865 2.1863
-2.6869 23.4653 2.1886
-4.7688 23.1281 2.1882
-6.8037 22.5791 2.1852
-8.7682 21.8255 2.1795
-10.6403 20.8776 2.1714
-11.3998 18.1558 1.9865
-12.8799 16.9424 1.9721
-13.0575 14.3194 1.7957
-2.7306 2.5040 0.3433
-2.6651 2.0378 0.3109
-2.6104 1.6492 0.2861
-2.5635 1.3155 0.2670
-2.5221 1.0214 0.2521
-2.4848 0.7563 0.2407
-2.4505 0.5124 0.2320
-2.4184 0.2837 0.2256
-2.3877 0.0656 0.2213
-2.3579 -0.1461 0.2189
-2.3285 -0.3548 0.2183
-2.2991 -0.5639 0.2194
-2.2692 -0.7769 0.2223
-2.2382 -0.9974 0.2271
-2.2055 -1.2294 0.2340
-2.1705 -1.4781 0.2433
-2.1323 -1.7499 0.2556
-2.0897 -2.0529 0.2714
-2.0410 -2.3990 0.2919
-1.9839 -2.8049 0.3184
-1.9148 -3.2962 0.3532
-6.8540 -14.6752 1.5009
-5.8887 -16.2530 1.6019
-4.4552 -16.8650 1.6164
-2.9202 -17.1208 1.6094
-1.3766 -17.2564 1.6041
0.1680 -17.2723 1.6006
1.7063 -17.1692 1.5988
3.2311 -16.9480 1.5987
4.7353 -16.6096 1.6004
6.2115 -16.1555 1.6039
7.6525 -15.5869 1.6090
9.0512 -14.9056 1.6159
10.4000 -14.1134 1.6245
8.0653 -9.1147 1.1278
10.9112 -10.3100 1.3910
10.8527 -8.5583 1.2807
10.6269 -6.9383 1.1760
12.3973 -6.5979 1.3013
16.3899 -6.9247 1.6487
16.3199 -5.2351 1.5882
16.9266 -3.8043 1.6076
17.4193 -2.3083 1.6282
17.9155 -0.7603 1.6616
18.1302 0.8513 1.6819
18.2067 2.4961 1.7029
18.1392 4.1627 1.7245
17.9227 5.8384 1.7467
17.5532 7.5094 1.7691
17.0280 9.1610 1.7917
16.3458 10.7774 1.8143
15.5823 12.4022 1.8454
14.6022 13.9226 1.8696
13.4672 15.3584 1.8928
12.7857 17.5155 2.0095
11.7259 19.5076 2.1091
10.0356 20.6754 2.1296
8.2178 21.6643 2.1471
6.2901 22.4459 2.1601
4.2837 23.0315 2.1708
2.2203 23.4113 2.1791
0.1232 23.5787 2.1849
-1.9838 23.5300 2.1881
-4.0759 23.2648 2.1886
-6.1292 22.7861 2.1865
-8.1199 22.1000 2.1817
-10.0252 21.2158 2.1744
-11.0892 18.8928 2.0300
-12.3995 17.3647 1.9772
-13.7247 15.9859 1.9524
-2.7558 2.6831 0.3564
-2.6856 2.1837 0.3207
-2.6277 1.7722 0.2937
-2.5785 1.4222 0.2729
-2.5354 1.1162 0.2567
-2.4969 0.8424 0.2442
-2.4617 0.5921 0.2346
-2.4289 0.3589 0.2275
-2.3978 0.1377 0.2226
-2.3678 -0.0757 0.2195
-2.3384 -0.2850 0.2183
-2.3090 -0.4937 0.2188
-2.2793 -0.7050 0.2211
-2.2487 -0.9225 0.2252
-2.2167 -1.1502 0.2314
-2.1826 -1.3927 0.2399
-2.1455 -1.6559 0.2511
-2.1045 -1.9474 0.2657
-2.0581 -2.2775 0.2844
-2.0041 -2.6611 0.3087
-1.9396 -3.1202 0.3404
-7.3069 -14.4978 1.5044
-6.0524 -15.2636 1.5215
-4.9659 -16.7524 1.6191
-3.4354 -17.0486 1.6115
-1.8938 -17.2244 1.6057
-0.3487 -17.2803 1.6016
1.1926 -17.2169 1.5992
2.7227 -17.0351 1.5986
4.2346 -16.7358 1.5997
5.7209 -16.3203 1.6025
7.1745 -15.7899 1.6071
8.5882 -15.1461 1.6134
9.9545 -14.3908 1.6214
8.1676 -9.8062 1.1826
8.4229 -8.4496 1.1055
10.9378 -9.1688 1.3225
10.6224 -7.3976 1.1995
11.7156 -6.6921 1.2502
16.4745 -7.5486 1.6792
16.2301 -5.7470 1.5954
16.7358 -4.2909 1.6010
17.2675 -2.8159 1.6212
16.7500 -1.2135 1.5562
18.0734 0.3075 1.6750
18.1968 1.9425 1.6958
18.1782 3.6032 1.7172
18.0121 5.2774 1.7392
17.6942 6.9515 1.7616
17.2213 8.6112 1.7842
16.5917 10.2412 1.8067
15.8051 11.8252 1.8291
14.9477 13.4222 1.8616
13.8641 14.8884 1.8851
12.9237 16.6364 1.9521
12.2612 19.0819 2.1018
10.6160 20.3026 2.1230
8.8413 21.3593 2.1421
6.9451 22.2056 2.1559
4.9627 22.8580 2.1675
2.9160 23.3076 2.1766
0.8275 23.5466 2.1833
-1.2789 23.5705 2.1873
-3.3788 23.3776 2.1888
-5.4478 22.9698 2.1875
-7.4620 22.3522 2.1836
-9.3983 21.5331 2.1771
-11.2352 20.5237 2.1681
-11.9038 17.7710 1.9820
-13.3123 16.4780 1.9629
-14.4913 14.9786 1.9312
-2.7075 2.3394 0.3316
-2.6460 1.9021 0.3020
-2.5942 1.5337 0.2793
-2.5493 1.2145 0.2617
-2.5094 0.9310 0.2480
-2.4732 0.6737 0.2375
-2.4397 0.4354 0.2296
-2.4081 0.2107 0.2240
-2.3778 -0.0049 0.2203
-2.3482 -0.2152 0.2185
-2.3188 -0.4237 0.2184
-2.2893 -0.6337 0.2201
-2.2591 -0.8488 0.2236
-2.2276 -1.0726 0.2291
-2.1943 -1.3095 0.2368
-2.1583 -1.5650 0.2470
-2.1188 -1.8461 0.2604
-2.0744 -2.1619 0.2776
-2.0232 -2.5256 0.2999
-1.9626 -2.9563 0.3288
-7.7561 -14.3081 1.5081
-6.4035 -14.8382 1.4975
-5.4743 -16.6264 1.6220
-3.9493 -16.9629 1.6139
-2.4106 -17.1789 1.6075
-0.8659 -17.2749 1.6028
0.6775 -17.2514 1.5998
2.2122 -17.1091 1.5986
3.7310 -16.8490 1.5991
5.2267 -16.4723 1.6014
6.6921 -15.9801 1.6054
8.1199 -15.3741 1.6111
9.5028 -14.6559 1.6186
10.8335 -13.8276 1.6277
8.0345 -8.5571 1.0877
11.0287 -9.8212 1.3684
10.7737 -7.9917 1.2430
11.0849 -6.7792 1.2040
16.4269 -8.1295 1.6984
16.3090 -6.3298 1.6211
16.5326 -4.7698 1.5945
17.1025 -3.3167 1.6143
16.3847 -1.6808 1.5262
18.0013 -0.2321 1.6682
18.1711 1.3918 1.6887
18.2006 3.0452 1.7100
18.0844 4.7163 1.7318
17.8177 6.3920 1.7541
17.3969 8.0583 1.7766
16.8199 9.7000 1.7992
16.0858 11.3012 1.8217
15.2758 12.9129 1.8535
14.2440 14.4075 1.8774
13.0639 15.8170 1.9009
12.6409 18.4364 2.0714
11.1819 19.9114 2.1161
9.4488 21.0249 2.1359
7.5905 21.9437 2.1516
5.6346 22.6617 2.1639
3.6070 23.1802 2.1738
1.5298 23.4904 2.1813
-0.5732 23.5866 2.1863
-2.6781 23.4662 2.1886
-4.7601 23.1300 2.1882
-6.7951 22.5819 2.1852
-8.7601 21.8291 2.1796
-10.6325 20.8820 2.1714
-11.3932 18.1606 1.9866
-12.8738 16.9480 1.9722
-13.0448 14.3163 1.7947
-2.7309 2.5062 0.3435
-2.6653 2.0395 0.3110
-2.6106 1.6507 0.2862
-2.5637 1.3168 0.2671
-2.5223 1.0226 0.2522
-2.4850 0.7574 0.2407
-2.4507 0.5134 0.2320
-2.4185 0.2847 0.2257
-2.3878 0.0665 0.2213
-2.3580 -0.1452 0.2189
-2.3287 -0.3539 0.2183
-2.2992 -0.5630 0.2194
-2.2693 -0.7760 0.2222
-2.2383 -0.9964 0.2270
-2.2057 -1.2284 0.2339
-2.1707 -1.4770 0.2433
-2.1325 -1.7486 0.2555
-2.0899 -2.0516 0.2714
-2.0412 -2.3974 0.2918
-1.9842 -2.8031 0.3182
-1.9151 -3.2939 0.3531
-6.8598 -14.6730 1.5009
-5.8909 -16.2397 1.6008
-4.4618 -16.8636 1.6164
-2.9267 -17.1200 1.6094
-1.3833 -17.2561 1.6041
0.1615 -17.2725 1.6006
1.6998 -17.1699 1.5988
3.2248 -16.9491 1.5987
4.7289 -16.6113 1.6004
6.2053 -16.1576 1.6038
7.6465 -15.5895 1.6090
9.0453 -14.9087 1.6159
10.3943 -14.1170 1.6245
8.0665 -9.1232 1.1284
10.9198 -10.3260 1.3926
10.8537 -8.5659 1.2812
10.6278 -6.9446 1.1764
12.3883 -6.5991 1.3007
16.3909 -6.9323 1.6491
16.3239 -5.2441 1.5887
16.9242 -3.8106 1.6075
17.4174 -2.3148 1.6282
17.9142 -0.7672 1.6615
18.1295 0.8443 1.6818
18.2067 2.4890 1.7028
18.1398 4.1557 1.7244
17.9240 5.8313 1.7466
17.5551 7.5024 1.7690
17.0306 9.1541 1.7916
9.8374 -13.3186 1.6372
8.0615 -9.0899 1.2014
10.9569 -10.3299 1.4890
10.8496 -8.5361 1.3650
10.6243 -6.9196 1.2537
12.4261 -6.5953 1.3910
16.0240 -6.7488 1.7193
16.1289 -5.1538 1.6743
15.9226 -3.5599 1.6133
16.3719 -2.1508 1.6328
16.7053 -0.6902 1.6532
16.9158 0.8133 1.6746
16.9972 2.3498 1.6967
16.9436 3.9084 1.7194
16.7500 5.4772 1.7425
16.4122 7.0432 1.7660
15.9275 8.5920 1.7895
15.2944 10.1089 1.8128
14.5131 11.5779 1.8358
13.5857 12.9827 1.8581
13.1515 15.0324 1.9750
12.3259 16.9256 2.0704
10.8742 18.1370 2.0910
9.2960 19.2067 2.1099
7.6056 20.1187 2.1267
5.8199 20.8587 2.1413
3.9546 21.3958 2.1515
2.0372 21.7402 2.1591
0.0898 21.8889 2.1644
-1.8659 21.8389 2.1673
-3.8076 21.5899 2.1678
-5.7132 21.1446 2.1658
-7.5614 20.5086 2.1613
-9.3315 19.6902 2.1545
-11.0044 18.7003 2.1455
-11.5186 16.0928 1.9569
-12.8045 14.8803 1.9411
-2.7548 2.6761 0.3798
-2.6848 2.1781 0.3418
-2.6270 1.7675 0.3131
-2.5779 1.4180 0.2909
-2.5349 1.1125 0.2737
-2.4965 0.8391 0.2604
-2.4613 0.5891 0.2502
-2.4285 0.3561 0.2427
-2.3974 0.1350 0.2374
-2.3674 -0.0784 0.2342
-2.3380 -0.2877 0.2329
-2.3086 -0.4963 0.2335
-2.2789 -0.7077 0.2360
-2.2483 -0.9253 0.2404
-2.2163 -1.1531 0.2470
-2.1821 -1.3958 0.2561
-2.1450 -1.6594 0.2682
-2.1040 -1.9512 0.2837
-2.0575 -2.2820 0.3038
-2.0034 -2.6663 0.3298
-1.9387 -3.1265 0.3638
-6.8811 -13.6914 1.5152
-6.0332 -15.2652 1.6230
-4.6726 -15.8283 1.6319
-3.2276 -16.1108 1.6247
-1.7713 -16.2787 1.6191
-0.3112 -16.3324 1.6152
1.1455 -16.2724 1.6130
2.5917 -16.0995 1.6124
4.0204 -15.8146 1.6135
5.4244 -15.4190 1.6162
6.7968 -14.9139 1.6206
8.1303 -14.3011 1.6266
9.4179 -13.5825 1.6343
8.1635 -9.7789 1.2596
8.4196 -8.4272 1.1779
10.9345 -9.1452 1.4095
10.6022 -7.3659 1.2765
11.7422 -6.6898 1.3363
15.7601 -7.1998 1.7133
16.2058 -5.7179 1.6993
15.9814 -4.0783 1.6309
16.2341 -2.6286 1.6261
16.6070 -1.1843 1.6463
16.8594 0.3058 1.6673
16.9847 1.8324 1.6892
16.9769 3.3849 1.7117
16.8306 4.9517 1.7348
16.5415 6.5202 1.7581
16.1062 8.0764 1.7816
15.5229 9.6057 1.8050
14.7911 11.0925 1.8281
13.9122 12.5206 1.8507
13.2690 14.2815 1.9276
12.7814 16.4914 2.0631
11.3749 17.7465 2.0843
9.8375 18.8654 2.1038
8.1829 19.8319 2.1214
6.4272 20.6310 2.1367
4.5859 21.2378 2.1484
2.6834 21.6465 2.1568
0.7436 21.8612 2.1629
-1.2117 21.8779 2.1666
-3.1606 21.6953 2.1679
-5.0807 21.3152 2.1667
-6.9504 20.7423 2.1631
-8.7488 19.9838 2.1571
-10.4564 19.0500 2.1488
-11.0574 16.4673 1.9613
-12.3934 15.3052 1.9473
-13.5277 13.9512 1.9215
-2.7066 2.3334 0.3534
-2.6453 1.8970 0.3219
-2.5936 1.5294 0.2977
-2.5487 1.2107 0.2790
-2.5089 0.9276 0.2645
-2.4728 0.6706 0.2533
-2.4393 0.4325 0.2450
-2.4077 0.2079 0.2390
-2.3774 -0.0076 0.2351
-2.3478 -0.2178 0.2331
-2.3185 -0.4263 0.2331
-2.2889 -0.6364 0.2349
-2.2587 -0.8515 0.2387
-2.2272 -1.0754 0.2446
-2.1938 -1.3126 0.2528
-2.1578 -1.5684 0.2638
-2.1183 -1.8498 0.2781
-2.0738 -2.1661 0.2965
-2.0225 -2.5305 0.3203
-1.9618 -2.9622 0.3513
-7.3043 -13.5109 1.5187
-6.1820 -14.3695 1.5468
-5.1524 -15.7081 1.6346
-3.7128 -16.0290 1.6269
-2.2596 -16.2353 1.6208
-0.7999 -16.3271 1.6164
0.6587 -16.3051 1.6136
2.1093 -16.1699 1.6124
3.5445 -15.9224 1.6129
4.9576 -15.5636 1.6151
6.3414 -15.0950 1.6190
7.6887 -14.5181 1.6244
8.9925 -13.8347 1.6316
10.2455 -13.0468 1.6403
8.0310 -8.5341 1.1587
11.0252 -9.7959 1.4583
10.7708 -7.9708 1.3249
11.1096 -6.7771 1.2868
15.4850 -7.6418 1.7075
16.2733 -6.2949 1.7253
16.0548 -4.6125 1.6517
16.0835 -3.1003 1.6196
16.3134 -1.6549 1.6214
16.7888 -0.1975 1.6602
16.9573 1.3180 1.6818
16.9947 2.8631 1.7041
16.8953 4.4265 1.7270
16.6544 5.9958 1.7503
16.2684 7.5577 1.7737
15.7347 9.0977 1.7972
15.0525 10.6005 1.8204
14.2226 12.0501 1.8432
13.3809 13.5650 1.8841
13.0293 15.8113 2.0259
11.8609 17.3407 2.0774
10.3659 18.5071 2.0975
8.7489 19.5263 2.1157
7.0250 20.3830 2.1318
5.2108 21.0587 2.1451
3.3254 21.5310 2.1542
1.3958 21.8112 2.1611
-0.5568 21.8945 2.1656
-2.5103 21.7786 2.1677
-4.4425 21.4642 2.1674
-6.3315 20.9551 2.1646
-8.1560 20.2578 2.1593
-9.8961 19.3814 2.1518
-10.8443 17.2425 2.0141
-11.9604 15.7085 1.9522
-13.1720 14.4232 1.9314
-2.7300 2.4996 0.3660
-2.6645 2.0342 0.3315
-2.6100 1.6462 0.3051
-2.5631 1.3129 0.2848
-2.5218 1.0191 0.2689
-2.4845 0.7542 0.2567
-2.4502 0.5104 0.2475
-2.4181 0.2819 0.2407
-2.3874 0.0638 0.2362
-2.3577 -0.1478 0.2336
-2.3283 -0.3565 0.2329
-2.2989 -0.5657 0.2341
-2.2689 -0.7787 0.2372
-2.2379 -0.9992 0.2423
-2.2052 -1.2314 0.2497
-2.1702 -1.4803 0.2598
-2.1320 -1.7523 0.2729
-2.0893 -2.0556 0.2898
-2.0406 -2.4022 0.3117
-1.9834 -2.8087 0.3400
-1.9142 -3.3008 0.3773
-6.4597 -13.8582 1.5119
-5.6299 -15.5751 1.6376
-4.1967 -15.9343 1.6293
-2.7471 -16.1790 1.6227
-1.2888 -16.3091 1.6177
0.1710 -16.3251 1.6143
1.6250 -16.2277 1.6126
3.0662 -16.0177 1.6126
4.4875 -15.6960 1.6142
5.8818 -15.2641 1.6175
7.2422 -14.7232 1.6224
8.5614 -14.0752 1.6290
9.8322 -13.3220 1.6372
8.0627 -9.0981 1.2020
10.9875 -10.3666 1.4937
10.8506 -8.5435 1.3656
10.6252 -6.9258 1.2541
12.4172 -6.5966 1.3903
16.0208 -6.7545 1.7192
16.1298 -5.1609 1.6746
15.9228 -3.5656 1.6135
16.3702 -2.1569 1.6327
16.7041 -0.6964 1.6531
16.9152 0.8069 1.6745
16.9972 2.3432 1.6966
16.9441 3.9018 1.7193
16.7511 5.4706 1.7424
16.4139 7.0366 1.7659
15.9298 8.5856 1.7894
15.2974 10.1026 1.8127
14.5167 11.5718 1.8357
13.5899 12.9769 1.8580
13.1530 15.0227 1.9743
12.3318 16.9202 2.0703
10.8806 18.1322 2.0909
9.3029 19.2025 2.1098
7.6129 20.1152 2.1267
5.8277 20.8560 2.1412
3.9625 21.3939 2.1514
2.0453 21.7391 2.1591
0.0980 21.8887 2.1644
-1.8577 21.8395 2.1673
-3.7995 21.5914 2.1678
-5.7053 21.1469 2.1658
-7.5537 20.5116 2.1614
-9.3242 19.6940 2.1546
-10.9976 18.7048 2.1455
-11.5129 16.0976 1.9569
-12.7998 14.8861 1.9413
-2.7552 2.6784 0.3800
-2.6850 2.1800 0.3420
-2.6273 1.7691 0.3132
-2.5781 1.4194 0.2910
-2.5351 1.1138 0.2738
-2.4966 0.8402 0.2605
-2.4614 0.5901 0.2503
-2.4287 0.3570 0.2427
-2.3976 0.1359 0.2375
-2.3675 -0.0775 0.2342
-2.3381 -0.2868 0.2329
-2.3088 -0.4954 0.2335
-2.2790 -0.7068 0.2359
-2.2484 -0.9243 0.2404
-2.2164 -1.1521 0.2470
-2.1823 -1.3948 0.2561
-2.1452 -1.6582 0.2681
-2.1042 -1.9499 0.2837
-2.0577 -2.2805 0.3037
-2.0037 -2.6646 0.3296
-1.9390 -3.1244 0.3636
-6.8865 -13.6892 1.5152
-6.0352 -15.2534 1.6220
-4.6786 -15.8269 1.6319
-3.2337 -16.1098 1.6247
-1.7775 -16.2782 1.6192
-0.3174 -16.3324 1.6153
1.1394 -16.2729 1.6130
2.5857 -16.1004 1.6124
4.0144 -15.8160 1.6135
5.4186 -15.4209 1.6162
6.7911 -14.9163 1.6206
8.1248 -14.3039 1.6266
9.4126 -13.5857 1.6343
8.1649 -9.7880 1.2604
8.4207 -8.4347 1.1785
10.9356 -9.1531 1.4101
10.5999 -7.3701 1.2766
11.7339 -6.6909 1.3356
15.7567 -7.2054 1.7132
16.2068 -5.7251 1.6996
15.9823 -4.0850 1.6311
16.2323 -2.6346 1.6261
16.6057 -1.1905 1.6462
16.8586 0.2995 1.6672
16.9845 1.8259 1.6891
16.9772 3.3784 1.7116
16.8316 4.9451 1.7347
16.5430 6.5136 1.7580
16.1084 8.0699 1.7815
15.5256 9.5993 1.8049
14.7944 11.0864 1.8280
13.9162 12.5147 1.8506
13.2705 14.2723 1.9270
12.7870 16.4859 2.0630
11.3811 17.7415 2.0842
9.8442 18.8610 2.1037
8.1902 19.8282 2.1213
6.4347 20.6280 2.1366
4.5938 21.2357 2.1484
2.6915 21.6451 2.1568
0.7519 21.8607 2.1629
-1.2035 21.8782 2.1666
-3.1524 21.6965 2.1679
-5.0727 21.3172 2.1667
-6.9427 20.7450 2.1631
-8.7414 19.9874 2.1571
-10.4494 19.0543 2.1488
-11.0515 16.4719 1.9614
-12.3880 15.3103 1.9474
-13.5233 13.9572 1.9216
-2.7069 2.3354 0.3535
-2.6455 1.8987 0.3220
-2.5938 1.5308 0.2978
-2.5489 1.2120 0.2791
-2.5091 0.9288 0.2646
-2.4729 0.6716 0.2534
-2.4394 0.4335 0.2450
-2.4078 0.2088 0.2390
-2.3775 -0.0067 0.2351
-2.3479 -0.2170 0.2332
-2.3186 -0.4255 0.2331
-2.2891 -0.6355 0.2349
-2.2588 -0.8506 0.2387
-2.2273 -1.0745 0.2445
-2.1940 -1.3116 0.2527
-2.1580 -1.5673 0.2637
-2.1184 -1.8486 0.2780
-2.0740 -2.1647 0.2964
-2.0227 -2.5288 0.3202
-1.9621 -2.9602 0.3512
-7.3096 -13.5086 1.5187
-6.1838 -14.3587 1.5459
-5.1585 -15.7065 1.6347
-3.7190 -16.0279 1.6269
-2.2657 -16.2346 1.6208
-0.8061 -16.3270 1.6164
0.6526 -16.3054 1.6136
2.1032 -16.1707 1.6124
3.5386 -15.9236 1.6129
4.9517 -15.5654 1.6151
6.3356 -15.0972 1.6189
7.6831 -14.5208 1.6244
8.9871 -13.8378 1.6315
10.2403 -13.0503 1.6403
8.0322 -8.5417 1.1594
11.0264 -9.8043 1.4590
10.7718 -7.9778 1.3254
11.1019 -6.7782 1.2862
15.4815 -7.6473 1.7074
16.2702 -6.3007 1.7252
16.0557 -4.6193 1.6520
16.0815 -3.1062 1.6195
16.3144 -1.6612 1.6215
16.7878 -0.2038 1.6601
16.9569 1.3116 1.6817
16.9948 2.8565 1.7040
16.8960 4.4199 1.7269
16.6557 5.9892 1.7502
16.2703 7.5512 1.7736
15.7372 9.0913 1.7971
15.0557 10.5943 1.8203
14.2264 12.0442 1.8431
13.3822 13.5561 1.8835
13.0309 15.8012 2.0252
11.8669 17.3354 2.0773
10.3725 18.5025 2.0974
8.7560 19.5224 2.1156
7.0325 20.3797 2.1318
5.2186 21.0564 2.1451
3.3335 21.5294 2.1542
1.4040 21.8104 2.1611
-0.5486 21.8945 2.1656
-2.5021 21.7794 2.1677
-4.4344 21.4660 2.1674
-6.3236 20.9577 2.1646
-8.1485 20.2611 2.1594
-9.8890 19.3854 2.1518
-10.8468 17.2607 2.0158
-11.9548 15.7135 1.9523
-13.1674 14.4291 1.9315
-2.7303 2.5018 0.3662
-2.6648 2.0360 0.3316
-2.6102 1.6477 0.3052
-2.5633 1.3142 0.2848
-2.5219 1.0203 0.2690
-2.4847 0.7552 0.2568
-2.4504 0.5114 0.2475
-2.4182 0.2828 0.2407
-2.3875 0.0647 0.2362
-2.3578 -0.1469 0.2336
-2.3284 -0.3557 0.2329
-2.2990 -0.5648 0.2341
-2.2690 -0.7778 0.2372
-2.2380 -0.9983 0.2423
-2.2054 -1.2304 0.2497
-2.1704 -1.4792 0.2597
-2.1321 -1.7511 0.2728
-2.0895 -2.0543 0.2897
-2.0408 -2.4006 0.3116
-1.9836 -2.8068 0.3398
-1.9145 -3.2985 0.3771
-6.4651 -13.8561 1.5119
-5.6359 -15.5734 1.6376
-4.2027 -15.9331 1.6294
-2.7532 -16.1782 1.6227
-1.2949 -16.3088 1.6177
0.1649 -16.3253 1.6143
1.6190 -16.2283 1.6126
3.0602 -16.0188 1.6126
4.4816 -15.6976 1.6142
5.8761 -15.2661 1.6175
7.2366 -14.7257 1.6224
8.5560 -14.0781 1.6290
9.8270 -13.3254 1.6372
8.0640 -9.1064 1.2027
12.1946 -11.5140 1.6584
10.8517 -8.5509 1.3661
10.6260 -6.9321 1.2545
12.4083 -6.5978 1.3896
16.0175 -6.7602 1.7191
16.1308 -5.1678 1.6749
15.9235 -3.5723 1.6137
16.3686 -2.1628 1.6326
16.7030 -0.7026 1.6531
16.9146 0.8005 1.6744
16.9971 2.3368 1.6965
16.9446 3.8953 1.7192
16.7522 5.4641 1.7423
16.4157 7.0300 1.7658
15.9322 8.5792 1.7893
15.3003 10.0964 1.8126
14.5203 11.5658 1.8356
13.5941 12.9712 1.8579
13.1545 15.0132 1.9737
12.3375 16.9149 2.0702
10.8870 18.1274 2.0909
9.3097 19.1983 2.1098
7.6202 20.1117 2.1266
5.8353 20.8532 2.1412
3.9705 21.3921 2.1514
2.0534 21.7381 2.1590
0.1061 21.8885 2.1644
-1.8495 21.8402 2.1673
-3.7915 21.5928 2.1678
-5.6974 21.1491 2.1658
-7.5461 20.5147 2.1614
-9.3170 19.6978 2.1546
-10.9909 18.7093 2.1456
-11.5072 16.1024 1.9570
-12.7950 14.8918 1.9414
-2.7555 2.6808 0.3801
-2.6853 2.1818 0.3421
-2.6275 1.7706 0.3133
-2.5783 1.4208 0.2911
-2.5353 1.1150 0.2739
-2.4968 0.8413 0.2605
-2.4616 0.5911 0.2503
-2.4288 0.3580 0.2428
-2.3977 0.1368 0.2375
-2.3677 -0.0766 0.2342
-2.3382 -0.2859 0.2329
-2.3089 -0.4946 0.2335
-2.2792 -0.7059 0.2359
-2.2486 -0.9234 0.2404
-2.2165 -1.1511 0.2470
-2.1824 -1.3937 0.2560
-2.1454 -1.6570 0.2680
-2.1044 -1.9487 0.2836
-2.0579 -2.2790 0.3036
-2.0039 -2.6628 0.3295
-1.9393 -3.1223 0.3634
-6.8918 -13.6871 1.5153
-6.0371 -15.2417 1.6210
-4.6846 -15.8254 1.6319
-3.2397 -16.1089 1.6247
-1.7835 -16.2778 1.6192
-0.3234 -16.3324 1.6153
1.1333 -16.2734 1.6130
2.5797 -16.1014 1.6124
4.0085 -15.8174 1.6135
5.4128 -15.4227 1.6162
6.7854 -14.9186 1.6206
8.1193 -14.3067 1.6266
9.4073 -13.5889 1.6342
8.1662 -9.7970 1.2611
8.4217 -8.4421 1.1791
10.9367 -9.1609 1.4107
10.5976 -7.3744 1.2766
11.7258 -6.6920 1.3350
15.7534 -7.2110 1.7131
16.2078 -5.7322 1.6999
15.9832 -4.0916 1.6314
16.2305 -2.6405 1.6260
16.6044 -1.1967 1.6461
16.8578 0.2932 1.6672
16.9843 1.8195 1.6890
16.9776 3.3719 1.7115
16.8325 4.9386 1.7346
16.5445 6.5071 1.7579
16.1105 8.0634 1.7814
15.5284 9.5930 1.8048
14.7978 11.0803 1.8279
13.9202 12.5089 1.8505
13.2719 14.2632 1.9265
12.7926 16.4804 2.0629
11.3872 17.7365 2.0841
9.8509 18.8567 2.1037
8.1972 19.8245 2.1212
6.4423 20.6250 2.1366
4.6017 21.2335 2.1483
2.6996 21.6438 2.1567
0.7600 21.8602 2.1628
-1.1953 21.8786 2.1666
-3.1443 21.6977 2.1679
-5.0648 21.3192 2.1667
-6.9350 20.7478 2.1631
-8.7341 19.9909 2.1571
-10.4424 19.0585 2.1489
-11.0456 16.4765 1.9614
-12.3827 15.3155 1.9475
-13.5190 13.9631 1.9218
-2.7072 2.3374 0.3537
-2.6457 1.9004 0.3221
-2.5940 1.5323 0.2979
-2.5491 1.2132 0.2791
-2.5092 0.9299 0.2646
-2.4730 0.6726 0.2534
-2.4395 0.4344 0.2450
-2.4079 0.2098 0.2390
-2.3776 -0.0058 0.2351
-2.3481 -0.2161 0.2332
-2.3187 -0.4246 0.2331
-2.2892 -0.6346 0.2349
-2.2589 -0.8497 0.2386
-2.2274 -1.0735 0.2445
-2.1941 -1.3105 0.2527
-2.1582 -1.5662 0.2637
-2.1186 -1.8473 0.2779
-2.0742 -2.1633 0.2963
-2.0230 -2.5272 0.3201
-1.9623 -2.9582 0.3510
-7.3149 -13.5062 1.5188
-6.1856 -14.3481 1.5450
-5.1644 -15.7049 1.6347
-3.7250 -16.0268 1.6270
-2.2718 -16.2340 1.6209
-0.8122 -16.3268 1.6164
0.6465 -16.3058 1.6136
2.0971 -16.1715 1.6124
3.5326 -15.9249 1.6129
4.9459 -15.5671 1.6151
6.3299 -15.0994 1.6189
7.6776 -14.5234 1.6244
8.9818 -13.8408 1.6315
10.2352 -13.0538 1.6402
8.0333 -8.5494 1.1600
11.0275 -9.8128 1.4596
10.7727 -7.9847 1.3259
11.0943 -6.7792 1.2856
15.4780 -7.6527 1.7073
16.2671 -6.3065 1.7251
16.0566 -4.6260 1.6523
16.0796 -3.1120 1.6195
16.3153 -1.6675 1.6217
16.7868 -0.2101 1.6600
16.9565 1.3051 1.6816
16.9950 2.8500 1.7039
16.8967 4.4133 1.7268
16.6570 5.9827 1.7501
16.2722 7.5447 1.7735
15.7398 9.0850 1.7970
15.0588 10.5882 1.8203
14.2302 12.0382 1.8430
13.3836 13.5473 1.8830
13.0325 15.7910 2.0245
11.8729 17.3303 2.0772
10.3790 18.4979 2.0973
8.7629 19.5185 2.1156
7.0399 20.3765 2.1317
5.2264 21.0540 2.1450
3.3414 21.5278 2.1542
1.4121 21.8097 2.1611
-0.5404 21.8946 2.1656
-2.4940 21.7804 2.1677
-4.4264 21.4677 2.1674
-6.3159 20.9602 2.1646
-8.1411 20.2644 2.1594
-9.8819 19.3894 2.1519
-10.8492 17.2788 2.0174
-11.9494 15.7184 1.9524
-13.1628 14.4349 1.9317
-2.7306 2.5040 0.3663
-2.6650 2.0378 0.3317
-2.6104 1.6492 0.3053
-2.5635 1.3155 0.2849
-2.5221 1.0214 0.2691
-2.4848 0.7563 0.2568
-2.4505 0.5124 0.2475
-2.4183 0.2837 0.2408
-2.3877 0.0656 0.2362
-2.3579 -0.1461 0.2336
-2.3285 -0.3548 0.2329
-2.2991 -0.5639 0.2341
-2.2692 -0.7769 0.2372
-2.2382 -0.9974 0.2423
-2.2055 -1.2294 0.2497
-2.1705 -1.4781 0.2597
-2.1323 -1.7499 0.2728
-2.0897 -2.0529 0.2897
-2.0410 -2.3990 0.3114
-1.9839 -2.8049 0.3397
-1.9148 -3.2962 0.3769
-6.4705 -13.8541 1.5119
-5.6418 -15.5716 1.6377
-4.2087 -15.9318 1.6294
-2.7593 -16.1774 1.6227
-1.3010 -16.3085 1.6177
0.1588 -16.3254 1.6143
1.6129 -16.2290 1.6126
3.0542 -16.0199 1.6126
4.4757 -15.6992 1.6142
5.8703 -15.2681 1.6175
7.2309 -14.7282 1.6224
8.5505 -14.0811 1.6289
9.8218 -13.3287 1.6371
8.0652 -9.1146 1.2034
12.1899 -11.5182 1.6583
10.8527 -8.5584 1.3666
10.6269 -6.9383 1.2549
12.3994 -6.5990 1.3889
16.0143 -6.7660 1.7190
16.1317 -5.1747 1.6752
15.9241 -3.5787 1.6139
16.3669 -2.1689 1.6325
16.7018 -0.7088 1.6530
16.9140 0.7942 1.6743
16.9970 2.3302 1.6964
16.9451 3.8887 1.7191
16.7533 5.4575 1.7422
16.4174 7.0235 1.7657
15.9345 8.5727 1.7892
15.3033 10.0901 1.8125
14.5239 11.5598 1.8355
13.5983 12.9655 1.8578
13.1560 15.0035 1.9731
12.3433 16.9095 2.0701
10.8933 18.1226 2.0908
9.3166 19.1942 2.1097
7.6275 20.1083 2.1266
5.8430 20.8505 2.1411
3.9784 21.3902 2.1513
2.0616 21.7371 2.1590
0.1144 21.8883 2.1644
-1.8413 21.8408 2.1673
-3.7833 21.5943 2.1678
-5.6895 21.1514 2.1658
-7.5385 20.5177 2.1614
-9.3097 19.7016 2.1546
-10.9841 18.7138 2.1456
-11.5015 16.1072 1.9570
-12.7902 14.8975 1.9415
-2.7558 2.6831 0.3803
-2.6856 2.1837 0.3423
-2.6277 1.7722 0.3134
-2.5785 1.4222 0.2912
-2.5354 1.1162 0.2739
-2.4969 0.8423 0.2606
-2.4617 0.5921 0.2504
-2.4289 0.3589 0.2428
-2.3978 0.1377 0.2375
-2.3678 -0.0757 0.2342
-2.3384 -0.2850 0.2329
-2.3090 -0.4937 0.2335
-2.2793 -0.7050 0.2359
-2.2487 -0.9225 0.2403
-2.2167 -1.1502 0.2469
-2.1826 -1.3927 0.2560
-2.1455 -1.6559 0.2680
-2.1045 -1.9474 0.2835
-2.0581 -2.2775 0.3035
-2.0041 -2.6611 0.3294
-1.9396 -3.1201 0.3633
-6.8972 -13.6848 1.5153
-6.0391 -15.2299 1.6200
-4.6907 -15.8240 1.6320
-3.2458 -16.1079 1.6248
-1.7897 -16.2773 1.6192
-0.3296 -16.3324 1.6153
1.1272 -16.2739 1.6130
2.5736 -16.1024 1.6124
4.0026 -15.8189 1.6135
5.4069 -15.4246 1.6162
6.7797 -14.9210 1.6205
8.1138 -14.3095 1.6266
9.4021 -13.5922 1.6342
8.1675 -9.8061 1.2619
8.4229 -8.4495 1.1797
10.9378 -9.1688 1.4113
10.5953 -7.3787 1.2767
11.7176 -6.6932 1.3343
15.7500 -7.2166 1.7131
16.2088 -5.7394 1.7002
15.9841 -4.0982 1.6316
16.2286 -2.6465 1.6259
16.6030 -1.2028 1.6460
16.8570 0.2868 1.6671
16.9840 1.8130 1.6889
16.9779 3.3653 1.7114
16.8334 4.9320 1.7345
16.5461 6.5004 1.7578
16.1126 8.0569 1.7813
15.5312 9.5866 1.8047
14.8012 11.0741 1.8278
13.9242 12.5031 1.8504
13.2733 14.2540 1.9259
12.7982 16.4749 2.0628
11.3934 17.7315 2.0840
9.8576 18.8523 2.1036
8.2045 19.8207 2.1211
6.4498 20.6220 2.1365
4.6096 21.2314 2.1483
2.7077 21.6425 2.1567
0.7682 21.8597 2.1628
-1.1871 21.8789 2.1666
-3.1362 21.6988 2.1679
-5.0568 21.3212 2.1667
-6.9273 20.7506 2.1631
-8.7268 19.9945 2.1572
-10.4355 19.0628 2.1489
-11.0397 16.4811 1.9615
-12.3773 15.3206 1.9475
-13.5146 13.9691 1.9219
-2.7075 2.3394 0.3538
-2.6460 1.9021 0.3222
-2.5942 1.5337 0.2980
-2.5493 1.2145 0.2792
-2.5094 0.9310 0.2647
-2.4732 0.6737 0.2535
-2.4397 0.4354 0.2450
-2.4081 0.2107 0.2390
-2.3777 -0.0049 0.2351
-2.3482 -0.2152 0.2332
-2.3188 -0.4237 0.2331
-2.2893 -0.6337 0.2349
-2.2591 -0.8488 0.2386
-2.2276 -1.0726 0.2445
-2.1943 -1.3095 0.2527
-2.1583 -1.5650 0.2636
-2.1188 -1.8461 0.2779
-2.0744 -2.1619 0.2963
-2.0232 -2.5256 0.3200
-1.9626 -2.9563 0.3509
-7.3202 -13.5039 1.5188
-6.1874 -14.3375 1.5441
-5.1704 -15.7034 1.6348
-3.7311 -16.0257 1.6270
-2.2779 -16.2334 1.6209
-0.8183 -16.3267 1.6164
0.6404 -16.3061 1.6136
2.0911 -16.1723 1.6124
3.5266 -15.9262 1.6129
4.9400 -15.5688 1.6151
6.3242 -15.1016 1.6189
7.6720 -14.5260 1.6244
8.9764 -13.8439 1.6315
10.2301 -13.0574 1.6402
8.0344 -8.5570 1.1606
11.0287 -9.8213 1.4602
10.7737 -7.9917 1.3264
11.0867 -6.7803 1.2850
15.4745 -7.6582 1.7072
16.2640 -6.3123 1.7251
16.0575 -4.6327 1.6525
16.0776 -3.1180 1.6194
16.3162 -1.6737 1.6218
16.7859 -0.2164 1.6599
16.9560 1.2987 1.6815
16.9951 2.8435 1.7038
16.8974 4.4067 1.7267
16.6584 5.9761 1.7500
16.2741 7.5382 1.7734
15.7423 9.0786 1.7969
15.0620 10.5819 1.8202
14.2340 12.0323 1.8429
13.3850 13.5386 1.8825
13.0341 15.7809 2.0238
11.8789 17.3250 2.0771
10.3855 18.4933 2.0972
8.7700 19.5144 2.1155
7.0473 20.3733 2.1316
5.2343 21.0516 2.1450
3.3496 21.5262 2.1541
1.4203 21.8089 2.1610
-0.5321 21.8946 2.1656
-2.4858 21.7813 2.1677
-4.4183 21.4694 2.1674
-6.3079 20.9628 2.1646
-8.1335 20.2677 2.1594
-9.8746 19.3936 2.1519
-10.8517 17.2973 2.0191
-11.9437 15.7235 1.9524
-13.1582 14.4408 1.9318
-2.7309 2.5062 0.3665
-2.6653 2.0395 0.3319
-2.6106 1.6507 0.3054
-2.5637 1.3168 0.2850
-2.5223 1.0226 0.2691
-2.4850 0.7574 0.2569
-2.4507 0.5134 0.2476
-2.4185 0.2847 0.2408
-2.3878 0.0665 0.2362
-2.3580 -0.1452 0.2336
-2.3287 -0.3539 0.2329
-2.2992 -0.5630 0.2341
-2.2693 -0.7760 0.2371
-2.2383 -0.9964 0.2423
-2.2057 -1.2284 0.2496
-2.1707 -1.4770 0.2596
-2.1325 -1.7486 0.2727
-2.0899 -2.0516 0.2896
-2.0412 -2.3974 0.3113
-1.9842 -2.8031 0.3396
-1.9151 -3.2939 0.3767
-6.4760 -13.8520 1.5120
-5.6479 -15.5698 1.6377
-4.2149 -15.9305 1.6294
-2.7655 -16.1766 1.6227
-1.3073 -16.3081 1.6177
0.1526 -16.3256 1.6143
1.6067 -16.2296 1.6126
3.0482 -16.0210 1.6126
4.4697 -15.7008 1.6142
5.8645 -15.2702 1.6174
7.2253 -14.7307 1.6223
8.5449 -14.0841 1.6289
9.8165 -13.3322 1.6371
8.0664 -9.1231 1.2041
12.1851 -11.5225 1.6583
10.8537 -8.5659 1.3672
10.6278 -6.9446 1.2553
12.3904 -6.6003 1.3881
16.0110 -6.7717 1.7189
16.1327 -5.1818 1.6755
15.9248 -3.5856 1.6141
16.3653 -2.1750 1.6324
16.7006 -0.7152 1.6529
16.9134 0.7877 1.6742
16.9969 2.3237 1.6963
16.9457 3.8821 1.7190
16.7544 5.4508 1.7421
16.4191 7.0169 1.7656
15.9369 8.5662 1.7891
9.2814 -12.5659 1.6419
8.0614 -9.0898 1.2770
11.5525 -10.8915 1.6688
10.8496 -8.5361 1.4510
10.6243 -6.9196 1.3326
12.4283 -6.5965 1.4789
15.1391 -6.3761 1.7265
15.8086 -5.0515 1.7443
15.8902 -3.5527 1.7114
15.6834 -2.0604 1.6626
15.7411 -0.6503 1.6559
15.9276 0.7658 1.6760
15.9920 2.2108 1.6968
15.9289 3.6744 1.7182
15.7342 5.1451 1.7399
15.4043 6.6106 1.7618
14.9372 8.0578 1.7838
14.3318 9.4727 1.8056
13.7615 10.9783 1.8503
13.4676 12.8698 1.9579
12.7512 14.5748 2.0354
11.5153 15.8126 2.0560
10.1525 16.9332 2.0751
8.6738 17.9211 2.0926
7.0928 18.7621 2.1082
5.4250 19.4432 2.1216
3.6880 19.9536 2.1327
1.9008 20.2847 2.1414
0.0838 20.4230 2.1466
-1.7408 20.3745 2.1492
-3.5522 20.1419 2.1497
-5.3304 19.7277 2.1478
-7.0556 19.1369 2.1437
-8.7042 18.3666 2.1362
-10.2588 17.4331 2.1260
-10.7400 15.0049 1.9394
-11.9515 13.8889 1.9259
-2.7548 2.6761 0.4037
-2.6848 2.1781 0.3634
-2.6270 1.7675 0.3328
-2.5779 1.4180 0.3092
-2.5349 1.1125 0.2910
-2.4965 0.8391 0.2768
-2.4613 0.5891 0.2660
-2.4285 0.3561 0.2580
-2.3974 0.1350 0.2524
-2.3674 -0.0784 0.2490
-2.3380 -0.2877 0.2476
-2.3086 -0.4963 0.2482
-2.2789 -0.7077 0.2508
-2.2483 -0.9253 0.2555
-2.2162 -1.1531 0.2626
-2.1821 -1.3958 0.2723
-2.1450 -1.6593 0.2850
-2.1040 -1.9512 0.3016
-2.0575 -2.2820 0.3229
-2.0034 -2.6663 0.3505
-1.9387 -3.1265 0.3867
-6.5154 -12.9637 1.5249
-5.7766 -14.6158 1.6518
-4.4269 -14.9963 1.6434
-3.0586 -15.2675 1.6366
-1.6789 -15.4293 1.6313
-0.2950 -15.4822 1.6275
1.0860 -15.4264 1.6254
2.4570 -15.2628 1.6248
3.8113 -14.9922 1.6259
5.1419 -14.6158 1.6285
6.4418 -14.1351 1.6327
7.7043 -13.5516 1.6384
8.8865 -12.8160 1.6391
8.1634 -9.7788 1.3389
8.4195 -8.4272 1.2520
10.9345 -9.1452 1.4982
10.5911 -7.3581 1.3554
11.7441 -6.6909 1.4206
14.8926 -6.8035 1.7209
15.5959 -5.5027 1.7382
15.9618 -4.0733 1.7314
15.7516 -2.5505 1.6771
15.6523 -1.1162 1.6493
15.8785 0.2880 1.6692
15.9844 1.7245 1.6898
15.9645 3.1831 1.7110
15.8142 4.6527 1.7326
15.5300 6.1214 1.7545
15.1089 7.5763 1.7765
14.5499 9.0036 1.7984
13.8628 10.3958 1.8212
13.5701 12.2127 1.9188
13.1348 14.1371 2.0282
11.9436 15.4105 2.0492
10.6222 16.5721 2.0689
9.1808 17.6061 2.0870
7.6325 18.4978 2.1032
5.9919 19.2337 2.1174
4.2760 19.8024 2.1293
2.5034 20.1943 2.1388
0.6939 20.3980 2.1452
-1.1305 20.4113 2.1486
-2.9486 20.2401 2.1498
-4.7401 19.8863 2.1487
-6.4852 19.3539 2.1453
-8.1621 18.6435 2.1391
-9.7499 17.7629 2.1297
-10.6350 15.8383 2.0051
-11.5594 14.2753 1.9306
-12.6728 13.0694 1.9134
-2.7066 2.3334 0.3756
-2.6453 1.8970 0.3421
-2.5935 1.5294 0.3165
-2.5487 1.2107 0.2966
-2.5089 0.9276 0.2811
-2.4728 0.6706 0.2693
-2.4393 0.4325 0.2604
-2.4077 0.2079 0.2540
-2.3774 -0.0076 0.2499
-2.3478 -0.2178 0.2478
-2.3185 -0.4263 0.2478
-2.2889 -0.6364 0.2497
-2.2587 -0.8515 0.2537
-2.2272 -1.0754 0.2599
-2.1938 -1.3126 0.2687
-2.1578 -1.5684 0.2804
-2.1183 -1.8498 0.2956
-2.0738 -2.1661 0.3152
-2.0225 -2.5305 0.3405
-1.9618 -2.9622 0.3734
-6.9152 -12.7912 1.5283
-6.1690 -14.3392 1.6407
-4.8812 -14.8811 1.6461
-3.5182 -15.1889 1.6387
-2.1415 -15.3873 1.6329
-0.7583 -15.4766 1.6286
0.6245 -15.4571 1.6259
1.9996 -15.3295 1.6248
3.3603 -15.0946 1.6253
4.6995 -14.7535 1.6274
6.0105 -14.3075 1.6311
7.2863 -13.7583 1.6363
8.4858 -13.0551 1.6365
9.7043 -12.3576 1.6515
8.0310 -8.5340 1.2317
11.1402 -9.8981 1.5663
10.7708 -7.9708 1.4083
11.1113 -6.7782 1.3680
14.6354 -7.2225 1.7154
15.3716 -5.9461 1.7323
16.0070 -4.5988 1.7505
15.8208 -3.0496 1.6934
15.6230 -1.5853 1.6505
15.8159 -0.1861 1.6624
15.9627 1.2407 1.6828
15.9854 2.6931 1.7038
15.8793 4.1603 1.7253
15.6402 5.6307 1.7471
15.2652 7.0917 1.7691
14.7524 8.5298 1.7911
14.1014 9.9308 1.8128
13.6683 11.5806 1.8829
13.3620 13.5458 1.9998
12.3573 14.9959 2.0423
11.0784 16.1967 2.0625
9.6759 17.2751 2.0811
8.1618 18.2160 2.0980
6.5503 19.0054 2.1129
4.8576 19.6313 2.1256
3.1018 20.0833 2.1359
1.3024 20.3525 2.1435
-0.5195 20.4274 2.1477
-2.3420 20.3179 2.1496
-4.1446 20.0249 2.1493
-5.9074 19.5516 2.1467
-7.6101 18.9019 2.1416
-9.2292 18.0754 2.1331
-10.7492 17.0912 2.1221
-11.1536 14.6489 1.9352
-12.3248 13.4956 1.9209
-2.7300 2.4996 0.3890
-2.6645 2.0342 0.3523
-2.6100 1.6462 0.3243
-2.5631 1.3129 0.3027
-2.5218 1.0191 0.2859
-2.4845 0.7542 0.2729
-2.4502 0.5104 0.2631
-2.4181 0.2819 0.2559
-2.3874 0.0638 0.2510
-2.3576 -0.1478 0.2483
-2.3283 -0.3565 0.2476
-2.2989 -0.5657 0.2488
-2.2689 -0.7787 0.2521
-2.2379 -0.9992 0.2576
-2.2052 -1.2314 0.2655
-2.1702 -1.4803 0.2761
-2.1320 -1.7522 0.2901
-2.0893 -2.0556 0.3081
-2.0406 -2.4022 0.3313
-1.9834 -2.8087 0.3614
-1.9142 -3.3008 0.4010
-6.3048 -13.5257 1.5685
-5.3330 -14.7537 1.6489
-3.9764 -15.0980 1.6410
-2.6035 -15.3331 1.6346
-1.2216 -15.4589 1.6299
0.1621 -15.4757 1.6266
1.5406 -15.3842 1.6250
2.9068 -15.1851 1.6250
4.2540 -14.8794 1.6265
5.5752 -14.4684 1.6297
6.8636 -13.9535 1.6344
8.1121 -13.3365 1.6407
9.2765 -12.5691 1.6419
8.0627 -9.0981 1.2777
11.5481 -10.8955 1.6687
10.8506 -8.5435 1.4515
10.6252 -6.9258 1.3330
12.4193 -6.5977 1.4781
15.1361 -6.3816 1.7265
15.8060 -5.0573 1.7442
15.8911 -3.5591 1.7116
15.6843 -2.0665 1.6627
15.7401 -0.6562 1.6558
15.9271 0.7597 1.6759
15.9920 2.2047 1.6967
15.9295 3.6682 1.7181
15.7353 5.1389 1.7398
15.4060 6.6045 1.7618
14.9395 8.0518 1.7837
14.3347 9.4668 1.8055
13.7627 10.9707 1.8499
13.4690 12.8614 1.9574
12.7561 14.5693 2.0353
11.5208 15.8076 2.0559
10.1584 16.9287 2.0750
8.6802 17.9173 2.0925
7.0996 18.7589 2.1081
5.4322 19.4407 2.1216
3.6954 19.9518 2.1327
1.9084 20.2837 2.1413
0.0914 20.4228 2.1465
-1.7331 20.3751 2.1492
-3.5446 20.1432 2.1497
-5.3230 19.7298 2.1478
-7.0485 19.1397 2.1437
-8.6975 18.3702 2.1363
-10.2524 17.4374 2.1261
-10.7346 15.0094 1.9395
-11.9466 13.8939 1.9259
-2.7552 2.6784 0.4039
-2.6850 2.1799 0.3635
-2.6273 1.7691 0.3329
-2.5781 1.4194 0.3093
-2.5351 1.1138 0.2910
-2.4966 0.8402 0.2769
-2.4614 0.5901 0.2660
-2.4287 0.3570 0.2580
-2.3976 0.1359 0.2524
-2.3675 -0.0775 0.2490
-2.3381 -0.2868 0.2476
-2.3088 -0.4954 0.2482
-2.2790 -0.7068 0.2508
-2.2484 -0.9243 0.2555
-2.2164 -1.1521 0.2625
-2.1823 -1.3948 0.2722
-2.1452 -1.6582 0.2850
-2.1042 -1.9499 0.3015
-2.0577 -2.2805 0.3228
-2.0036 -2.6646 0.3504
-1.9390 -3.1244 0.3865
-6.5204 -12.9616 1.5250
-5.7822 -14.6140 1.6519
-4.4327 -14.9949 1.6434
-3.0644 -15.2665 1.6366
-1.6847 -15.4289 1.6313
-0.3008 -15.4822 1.6275
1.0802 -15.4269 1.6254
2.4513 -15.2637 1.6248
3.8056 -14.9935 1.6259
5.1363 -14.6176 1.6285
6.4364 -14.1373 1.6326
7.6990 -13.5543 1.6384
8.8815 -12.8191 1.6391
8.1648 -9.7879 1.3397
8.4206 -8.4346 1.2527
10.9356 -9.1531 1.4989
10.5887 -7.3623 1.3555
11.7359 -6.6920 1.4199
14.8895 -6.8089 1.7208
15.5932 -5.5083 1.7382
15.9627 -4.0799 1.7317
15.7525 -2.5567 1.6773
15.6511 -1.1221 1.6492
15.8778 0.2821 1.6691
15.9842 1.7184 1.6897
15.9648 3.1769 1.7109
15.8152 4.6465 1.7325
15.5314 6.1153 1.7544
15.1110 7.5702 1.7764
14.5525 8.9977 1.7983
13.8639 10.3896 1.8209
13.5713 12.2046 1.9184
13.1396 14.1315 2.0281
11.9489 15.4053 2.0491
10.6280 16.5675 2.0688
9.1871 17.6021 2.0869
7.6392 18.4943 2.1031
5.9990 19.2309 2.1173
4.2833 19.8003 2.1292
2.5109 20.1930 2.1387
0.7016 20.3976 2.1451
-1.1228 20.4116 2.1486
-2.9409 20.2412 2.1498
-4.7326 19.8881 2.1487
-6.4780 19.3565 2.1454
-8.1552 18.6469 2.1391
-9.7434 17.7669 2.1297
-10.6372 15.8544 2.0067
-11.5544 14.2801 1.9307
-12.6686 13.0750 1.9135
-2.7069 2.3354 0.3758
-2.6455 1.8987 0.3423
-2.5938 1.5308 0.3166
-2.5489 1.2120 0.2966
-2.5091 0.9288 0.2812
-2.4729 0.6716 0.2693
-2.4394 0.4335 0.2604
-2.4078 0.2088 0.2540
-2.3775 -0.0067 0.2499
-2.3479 -0.2170 0.2478
-2.3186 -0.4255 0.2478
-2.2891 -0.6355 0.2497
-2.2588 -0.8506 0.2537
-2.2273 -1.0745 0.2599
-2.1940 -1.3116 0.2687
-2.1580 -1.5673 0.2803
-2.1184 -1.8486 0.2955
-2.0740 -2.1647 0.3151
-2.0227 -2.5288 0.3404
-1.9621 -2.9602 0.3733
-6.9202 -12.7889 1.5283
-6.1708 -14.3285 1.6397
-4.8869 -14.8796 1.6461
-3.5240 -15.1878 1.6387
-2.1474 -15.3867 1.6329
-0.7641 -15.4764 1.6286
0.6187 -15.4574 1.6259
1.9939 -15.3303 1.6248
3.3546 -15.0958 1.6253
4.6940 -14.7551 1.6274
6.0051 -14.3096 1.6311
7.2810 -13.7608 1.6363
8.4807 -13.0581 1.6365
9.6994 -12.3610 1.6514
8.0321 -8.5417 1.2323
11.1339 -9.9000 1.5659
10.7718 -7.9778 1.4089
11.1037 -6.7793 1.3674
14.6321 -7.2277 1.7153
15.3688 -5.9516 1.7322
16.0045 -4.6046 1.7504
