459 4.550853565335274 -77.98506927490234 -44.03977966308594 2.0970168113708496 -2.404817223577993e-06 -6.830188794992864e-06 89.84152221679688 0.6361788511276245 256
9.031606674194336 -23.739973068237305 -8.426260948181152
9.177963256835938 -24.124643325805664 -8.386658668518066
14.51691722869873 -23.929567337036133 -7.963451862335205
22.402706146240234 -36.92845153808594 -8.074074745178223
22.416744232177734 -36.95158004760742 -7.803913593292236
22.41387939453125 -36.94685363769531 -7.52833890914917
22.411014556884766 -36.94213104248047 -7.253423690795898
22.408170700073242 -36.93742370605469 -6.979147911071777
22.40531349182129 -36.9327392578125 -6.705494403839111
22.40634536743164 -36.9344482421875 -6.433537483215332
19.805152893066406 -40.542030334472656 -6.435835838317871
22.40568733215332 -36.933345794677734 -6.161588191986084
-3.604888888730784e-06 -31.675703048706055 -4.319145202636719
22.40502166748047 -36.932247161865234 -5.890137195587158
22.40436553955078 -36.93115997314453 -5.61915397644043
22.403696060180664 -36.93007278442383 -5.348621845245361
22.403039932250977 -36.92898941040039 -5.078517436981201
22.402381896972656 -36.92789840698242 -4.8088226318359375
22.40172576904297 -36.926815032958984 -4.5395097732543945
19.60214614868164 -40.12648010253906 -4.415827751159668
22.40106964111328 -36.92573547363281 -4.270561218261719
19.60214614868164 -40.12644577026367 -4.1382036209106445
22.400409698486328 -36.92465591430664 -4.001956462860107
19.60214614868164 -40.12648010253906 -3.860908031463623
22.399763107299805 -36.9235725402832 -3.733677864074707
19.69527244567871 -40.31708526611328 -3.6009178161621094
22.399105072021484 -36.92249298095703 -3.4656896591186523
22.398448944091797 -36.92143249511719 -3.198000431060791
22.39780044555664 -36.92034149169922 -2.9305529594421387
22.39714241027832 -36.91926574707031 -2.663355588912964
22.396495819091797 -36.91818618774414 -2.3963706493377686
22.39583969116211 -36.917118072509766 -2.129584789276123
22.395193099975586 -36.91604232788086 -1.8629810810089111
22.394542694091797 -36.91496658325195 -1.5965293645858765
22.39388656616211 -36.913902282714844 -1.330220103263855
22.393239974975586 -36.91283416748047 -1.0640223026275635
22.39259147644043 -36.91175079345703 -0.797919750213623
22.39193344116211 -36.91069030761719 -0.5318943858146667
22.391286849975586 -36.90961456298828 -0.2659296989440918
22.39063835144043 -36.90855026245117 4.882812390860636e-06
22.389991760253906 -36.907474517822266 0.2659187316894531
22.389345169067383 -36.906410217285156 0.5318424701690674
-5.369186055759201e-06 -35.31516647338867 0.6527007818222046
22.388696670532227 -36.905330657958984 0.7977859377861023
-4.110336249141255e-06 -35.31562042236328 0.8703516721725464
15.376962661743164 -40.41900634765625 1.0657768249511719
19.462507247924805 -39.84056854248047 1.092764973640442
22.388038635253906 -36.90427017211914 1.0637799501419067
-1.0108947208209429e-06 -33.50904846191406 1.0324047803878784
15.37574291229248 -40.41578674316406 1.3322668075561523
19.4625186920166 -39.84059524536133 1.3661143779754639
22.30661392211914 -36.77003860473633 1.3250402212142944
-4.692077709478326e-06 -33.509483337402344 1.23907470703125
15.374513626098633 -40.41259765625 1.5988167524337769
19.46249771118164 -39.84061813354492 1.6395612955093384
22.282203674316406 -36.729793548583984 1.588525652885437
-3.499984586596838e-06 -33.50991439819336 1.4458444118499756
4.414708137512207 -48.44193649291992 2.098773956298828
8.796882629394531 -47.86263656616211 2.099708318710327
13.115995407104492 -46.90790557861328 2.101552963256836
17.29123878479004 -45.45069122314453 2.0981717109680176
19.481000900268555 -39.87846755981445 1.9149587154388428
22.228187561035156 -36.640769958496094 1.8491014242172241
-2.2983549570199102e-06 -33.51034927368164 1.6527297496795654
3.8881895542144775 -42.66472244262695 2.112942695617676
7.746629238128662 -42.14844512939453 2.113579034805298
11.5488862991333 -41.30336380004883 2.1152141094207764
15.267348289489746 -40.130863189697266 2.1176466941833496
17.492557525634766 -35.80803680419922 1.965513825416565
20.890748977661133 -34.43610382080078 1.9864797592163086
0.00012080192391294986 -38.39890670776367 2.1310222148895264
3.4902102947235107 -38.29755401611328 2.1342008113861084
6.955789566040039 -37.84550476074219 2.1354856491088867
10.352239608764648 -37.02361297607422 2.1335017681121826
13.668441772460938 -35.92810821533203 2.1333136558532715
15.878923416137695 -32.50483322143555 2.0076537132263184
18.96485137939453 -31.261491775512695 2.0292012691497803
3.433227391269611e-07 -34.72761535644531 2.141929864883423
3.1532235145568848 -34.59989547729492 2.1428961753845215
6.29080867767334 -34.227378845214844 2.146437168121338
9.38831615447998 -33.5762939453125 2.1503498554229736
12.442344665527344 -32.705223083496094 2.1582396030426025
15.199978828430176 -31.11498260498047 2.135859251022339
17.19944953918457 -28.351417541503906 2.0452780723571777
1.1253356433371664e-06 -31.94927215576172 2.168201446533203
2.901294469833374 -31.83561897277832 2.1694416999816895
5.7837419509887695 -31.468557357788086 2.171349048614502
8.630188941955566 -30.86488914489746 2.1749510765075684
11.434014320373535 -30.054777145385742 2.1822497844696045
14.175294876098633 -29.01743507385254 2.191645860671997
15.792298316955566 -26.031877517700195 2.0662906169891357
3.4046172459056834e-06 -29.62162971496582 2.1936280727386475
2.688920259475708 -29.505252838134766 2.1940643787384033
5.358552932739258 -29.15508270263672 2.195246696472168
7.9947509765625 -28.592355728149414 2.198619842529297
10.58341121673584 -27.818918228149414 2.2041776180267334
13.110305786132812 -26.837369918823242 2.2119057178497314
15.20406723022461 -25.062232971191406 2.170806884765625
1.4162063735057018e-06 -27.608442306518555 2.2156198024749756
2.504725456237793 -27.48402976989746 2.214776039123535
4.991286277770996 -27.15690040588379 2.2158873081207275
7.4460296630859375 -26.629892349243164 2.2190589904785156
9.855293273925781 -25.905040740966797 2.2242825031280518
12.20704460144043 -24.988388061523438 2.231842517852783
14.512649536132812 -23.92253303527832 2.2454724311828613
4.863738922722405e-06 -25.83730125427246 2.2337474822998047
2.343982219696045 -25.72032356262207 2.232849359512329
4.670827388763428 -25.413373947143555 2.2338979244232178
6.967336654663086 -24.917903900146484 2.236889600753784
9.22031307220459 -24.235986709594727 2.2418158054351807
11.433981895446777 -23.405874252319336 2.2520811557769775
13.58834457397461 -22.398881912231445 2.264958381652832
5.83171822654549e-06 -24.277101516723633 2.2496087551116943
2.2024998664855957 -24.167768478393555 2.2487587928771973
4.3887786865234375 -23.878671646118164 2.249750852584839
6.546029090881348 -23.411224365234375 2.252581834793091
8.671859741210938 -22.794363021850586 2.2599031925201416
10.752327919006348 -22.010454177856445 2.269927501678467
12.773865699768066 -21.05632781982422 2.2821285724639893
9.965896197172697e-07 -22.893102645874023 2.263678550720215
2.0769858360290527 -22.79050064086914 2.2628719806671143
4.138547420501709 -22.51730728149414 2.2638134956359863
6.178722381591797 -22.097501754760742 2.2688167095184326
8.185470581054688 -21.515846252441406 2.276254177093506
10.146708488464355 -20.77074432373047 2.2857820987701416
6.619856357574463 -10.91212272644043 1.262020230293274
-4.925727807858493e-06 -21.656999588012695 2.276244878768921
1.9650330543518066 -21.56212615966797 2.275665521621704
3.919116497039795 -21.3233642578125 2.2787179946899414
5.8512139320373535 -20.926204681396484 2.2837960720062256
7.750254154205322 -20.37183952331543 2.2908849716186523
9.60506534576416 -19.66197395324707 2.299962282180786
6.6057000160217285 -10.888777732849121 1.3385881185531616
9.012222108140122e-06 -20.555179595947266 2.288544178009033
1.8663387298583984 -20.479053497314453 2.2895169258117676
3.7220089435577393 -20.250925064086914 2.292433261871338
5.55630350112915 -19.871511459350586 2.2972846031188965
7.35847806930542 -19.34206199645996 2.3040547370910645
9.117713928222656 -18.664344787597656 2.312721014022827
6.608946800231934 -10.894124984741211 1.4186569452285767
7.06672653905116e-06 -19.571191787719727 2.3011281490325928
1.7769607305526733 -19.498315811157227 2.3020591735839844
3.543550729751587 -19.279924392700195 2.3048512935638428
5.289344787597656 -18.916780471801758 2.3094944953918457
7.0039567947387695 -18.41016387939453 2.3159728050231934
8.68049144744873 -17.76933479309082 2.3252382278442383
6.612194061279297 -10.899492263793945 1.498914122581482
1.3923644246460753e-06 -18.675884246826172 2.312577962875366
1.695639729499817 -18.60599136352539 2.3134710788726807
3.3811848163604736 -18.396574020385742 2.316148281097412
5.047616958618164 -18.052255630493164 2.321094512939453
6.68533992767334 -17.57267951965332 2.3281211853027344
8.284497261047363 -16.958698272705078 2.3371174335479736
6.615461349487305 -10.904871940612793 1.5793663263320923
6.623267836403102e-06 -17.86396026611328 2.3238565921783447
1.621968150138855 -17.797666549682617 2.324826955795288
3.2346034049987793 -17.599008560180664 2.327737331390381
4.82851505279541 -17.26865005493164 2.3325772285461426
6.39431619644165 -16.80768585205078 2.3393313884735107
7.922494888305664 -16.217702865600586 2.347975969314575
6.618727684020996 -10.910257339477539 1.660021185874939
1.1682510603350238e-06 -17.122314453125 2.3347244262695312
1.5546058416366577 -17.058475494384766 2.3356590270996094
3.1000986099243164 -16.867197036743164 2.33846116065979
4.627325057983398 -16.54914093017578 2.34312105178833
0.8990792036056519 -2.363269329071045 0.344775527715683
7.568604946136475 -15.493209838867188 2.3511886596679688
6.622004985809326 -10.915661811828613 1.7408862113952637
-1.4305114426349519e-08 -16.43870735168457 2.3447420597076416
1.492521047592163 -16.377153396606445 2.3456432819366455
2.97613263130188 -16.192737579345703 2.348344564437866
0.6514615416526794 -2.3298866748809814 0.34506896138191223
0.8616929650306702 -2.264998197555542 0.3456568717956543
1.0660057067871094 -2.1821670532226562 0.34640610218048096
6.625290870666504 -10.9210786819458 1.8219660520553589
-5.334615593710623e-07 -2.3176796436309814 0.34516188502311707
0.21040019392967224 -2.308689594268799 0.3452478051185608
0.41936445236206055 -2.281705379486084 0.34549590945243835
0.6254521608352661 -2.2368626594543457 0.34590378403663635
0.8272333145141602 -2.174419403076172 0.3464697301387787
1.0232880115509033 -2.094716787338257 0.3471907079219818
6.62858772277832 -10.926514625549316 1.9032701253890991
2.4563073566241655e-06 -2.228729248046875 0.3459608256816864
0.20232301950454712 -2.2200639247894287 0.3460438549518585
0.4032527804374695 -2.194049119949341 0.34628233313560486
0.6013957262039185 -2.150834798812866 0.34667572379112244
0.7953706979751587 -2.0906643867492676 0.3472212255001068
0.9837917685508728 -2.013868570327759 0.3479156494140625
6.631893634796143 -10.931967735290527 1.984804391860962
-1.220703097715159e-06 -2.1461946964263916 0.34670209884643555
0.19482989609241486 -2.137833595275879 0.34678220748901367
0.3883061408996582 -2.1127328872680664 0.34701278805732727
0.579085111618042 -2.071033239364624 0.34739211201667786
0.7658149003982544 -2.012972593307495 0.3479180932044983
0.9471633434295654 -1.9388865232467651 0.3485882580280304
6.635210037231445 -10.937429428100586 2.0665767192840576
1.246333113158471e-06 -2.0694122314453125 0.34739166498184204
0.1878555864095688 -2.061328887939453 0.34746918082237244
0.3744054436683655 -2.0370776653289795 0.34769147634506226
0.5583279132843018 -1.9967981576919556 0.34805816411972046
0.7383248209953308 -1.9407142400741577 0.3485662639141083
0.9131032228469849 -1.8691611289978027 0.34921371936798096
6.638535022735596 -10.942911148071289 2.1485936641693115
-1.5431642168550752e-06 -1.997790813446045 0.3480352759361267
0.18135447800159454 -1.9899746179580688 0.3481098711490631
0.36143675446510315 -1.9665175676345825 0.3483251929283142
0.5389664173126221 -1.9275596141815186 0.34867966175079346
0.7126843333244324 -1.873323917388916 0.34917113184928894
0.8813362717628479 -1.8041415214538574 0.3497968912124634
1.0436931848526 -1.7204155921936035 0.3505529761314392
-1.2266635849300656e-06 -1.9308228492736816 0.3486364781856537
0.17527146637439728 -1.9232529401779175 0.3487091064453125
0.34931090474128723 -1.9005448818206787 0.3489173948764801
0.5208673477172852 -1.8628290891647339 0.34926071763038635
0.6887209415435791 -1.8103333711624146 0.3497363328933716
0.8516514897346497 -1.7433687448501587 0.35034194588661194
1.0084640979766846 -1.6623438596725464 0.3510737419128418
9.655951771492255e-07 -1.8680638074874878 0.3492002785205841
0.16957604885101318 -1.8607293367385864 0.34927061200141907
0.33794355392456055 -1.838720679283142 0.3494723439216614
0.5039075613021851 -1.8021775484085083 0.34980499744415283
0.6662675142288208 -1.7513130903244019 0.3502659499645233
0.8238376379013062 -1.6864337921142578 0.3508526384830475
0.9754619598388672 -1.607947826385498 0.351561576128006
-9.286403610531124e-07 -1.809123158454895 0.3497294485569
0.16422316431999207 -1.8020086288452148 0.3497978150844574
0.3272751271724701 -1.7806639671325684 0.34999358654022217
0.487983375787735 -1.745219349861145 0.3503158390522003
0.6451814770698547 -1.6958880424499512 0.35076308250427246
0.7977278232574463 -1.632980465888977 0.3513320982456207
0.9444856643676758 -1.5568807125091553 0.35201919078826904
1.923739773701527e-06 -1.7536638975143433 0.35022780299186707
0.15918751060962677 -1.7467538118362427 0.3502938747406006
0.3172362744808197 -1.7260334491729736 0.3504840135574341
0.47299620509147644 -1.6916279792785645 0.35079681873321533
0.6253448128700256 -1.6437503099441528 0.3512309193611145
0.773159921169281 -1.582696557044983 0.3517831265926361
0.9153438210487366 -1.5088508129119873 0.3524499535560608
-1.1071562084907782e-06 -1.70137357711792 0.3506973087787628
0.15443892776966095 -1.69466233253479 0.3507617115974426
0.3077675998210907 -1.674531102180481 0.3509463369846344
0.4588720500469208 -1.6411100625991821 0.3512502908706665
0.6066492199897766 -1.5946024656295776 0.3516717553138733
0.7500112056732178 -1.5353045463562012 0.35220807790756226
0.8878846764564514 -1.4635848999023438 0.3528558313846588
-9.71555664364132e-07 -1.6519936323165894 0.3511408865451813
0.14995715022087097 -1.645470380783081 0.351203590631485
0.2988293468952179 -1.6258983612060547 0.3513830602169037
0.44553691148757935 -1.5934075117111206 0.35167860984802246
0.588996410369873 -1.5481960773468018 0.35208815336227417
0.7281489968299866 -1.4905552864074707 0.35260939598083496
0.8619606494903564 -1.4208537340164185 0.353238970041275
1.655518985899107e-06 -1.6052794456481934 0.35156065225601196
0.1457170695066452 -1.5989341735839844 0.35162124037742615
0.2903768718242645 -1.579891324043274 0.3517959415912628
0.43291693925857544 -1.5482810735702515 0.3520834147930145
0.5722928643226624 -1.50430166721344 0.3524821400642395
0.7074752449989319 -1.4482342004776 0.35298919677734375
0.8374444246292114 -1.3804378509521484 0.3536013662815094
1.2966989970664144e-06 -1.5610166788101196 0.3519580066204071
0.14169861376285553 -1.5548385381698608 0.35201704502105713
0.2823607623577118 -1.5363001823425293 0.3521871864795685
0.42096269130706787 -1.505530834197998 0.3524673283100128
0.5564746856689453 -1.462719202041626 0.3528549075126648
0.6878916621208191 -1.408146619796753 0.35334885120391846
0.8142232298851013 -1.3421621322631836 0.3539445400238037
-2.5609135718696052e-06 -1.5190194845199585 0.3523353636264801
0.13788658380508423 -1.512998342514038 0.35239288210868835
0.27476099133491516 -1.4949439764022827 0.35255858302116394
0.4096200168132782 -1.4649711847305298 0.352831095457077
0.5414680242538452 -1.423268437385559 0.3532089293003082
0.6693147420883179 -1.3701168298721313 0.35368987917900085
0.7921990156173706 -1.305855631828308 0.35427016019821167
-6.386637778632576e-07 -1.4791120290756226 0.3526937663555145
0.13426098227500916 -1.4732426404953003 0.352749764919281
0.26753801107406616 -1.4556424617767334 0.35291120409965515
0.398844450712204 -1.426426649093628 0.353177011013031
0.5272042155265808 -1.385783314704895 0.3535453677177429
0.6516609787940979 -1.3339838981628418 0.3540138304233551
0.7712734341621399 -1.2713627815246582 0.35457944869995117
1.7496943200967507e-06 -1.4411382675170898 0.35303449630737305
0.1308164745569229 -1.4354102611541748 0.35308974981307983
0.26066696643829346 -1.4182493686676025 0.35324689745903015
0.38859161734580994 -1.3897557258605957 0.3535061478614807
0.5136386752128601 -1.3501224517822266 0.35386520624160767
0.6348714828491211 -1.299611210823059 0.3543221950531006
0.7513681650161743 -1.2385514974594116 0.3548736572265625
-6.711482569699001e-07 -1.4049564599990845 0.3533596694469452
0.12752830982208252 -1.3993693590164185 0.3534133732318878
0.2541182041168213 -1.3826225996017456 0.3535667359828949
0.37882205843925476 -1.3548215627670288 0.35381972789764404
0.5007126331329346 -1.3161494731903076 0.3541700541973114
0.6188775300979614 -1.2668672800064087 0.3546157777309418
0.7324095964431763 -1.207300066947937 0.3551536500453949
1.5264748753907043e-06 -1.3704447746276855 0.3536697328090668
0.12439610064029694 -1.3649932146072388 0.3537219166755676
0.24787184596061707 -1.3486406803131104 0.35387176275253296
0.36950621008872986 -1.3214976787567139 0.3541186451911926
0.4883866310119629 -1.2837467193603516 0.3544608950614929
0.6036202311515808 -1.2356398105621338 0.3548959195613861
0.7143288850784302 -1.1774964332580566 0.3554209768772125
-1.7461180732425419e-06 -1.337485671043396 0.3539656102657318
0.12140488624572754 -1.3321595191955566 0.35401687026023865
0.2419080287218094 -1.316186547279358 0.35416334867477417
0.36060959100723267 -1.2896764278411865 0.35440459847450256
0.4766164720058441 -1.2528074979782104 0.35473862290382385
0.5890552401542664 -1.2058216333389282 0.35516324639320374
0.6970675587654114 -1.149043083190918 0.3556761145591736
-1.0079145340569085e-06 -1.3059765100479126 0.3542487919330597
0.11854461580514908 -1.30077064037323 0.35429853200912476
0.23620696365833282 -1.2851622104644775 0.3544415235519409
0.3521025478839874 -1.2592555284500122 0.3546772599220276
0.4653627276420593 -1.223229169845581 0.3550036549568176
0.5751336216926575 -1.177319884300232 0.35541900992393494
0.6805664896965027 -1.1218425035476685 0.3559199571609497
-1.4245509873944684e-06 -1.2758153676986694 0.354519784450531
0.1158052533864975 -1.2707245349884033 0.35456833243370056
0.23074886202812195 -1.2554700374603271 0.3547082543373108
0.3439604938030243 -1.2301421165466309 0.35493865609169006
0.4545958936214447 -1.1949238777160645 0.3552580177783966
0.5618061423301697 -1.1500471830368042 0.35566359758377075
0.6647766828536987 -1.095816731452942 0.3561533987522125
1.6698240870027803e-06 -1.2469236850738525 0.35477903485298157
0.11318168044090271 -1.2419426441192627 0.35482680797576904
0.22551877796649933 -1.2270176410675049 0.3549635112285614
0.33616358041763306 -1.2022534608840942 0.3551890552043915
0.44427672028541565 -1.1678038835525513 0.3555012345314026
0.5490434169769287 -1.1239203214645386 0.35589781403541565
0.649653971195221 -1.070887804031372 0.3563769459724426
-1.7327070054307114e-06 -1.219213604927063 0.3550279140472412
0.11066880822181702 -1.2143421173095703 0.35507461428642273
0.22050677239894867 -1.1997413635253906 0.3552085757255554
0.3286823332309723 -1.1755064725875854 0.355429083108902
0.43438541889190674 -1.141800880432129 0.35573455691337585
0.5368061065673828 -1.0988661050796509 0.35612258315086365
0.6351541876792908 -1.0469874143600464 0.35659101605415344
-2.0560621578624705e-06 -1.1926168203353882 0.35526686906814575
0.10825177282094955 -1.187849760055542 0.3553123474121094
0.2156931310892105 -1.1735533475875854 0.3554435670375824
0.3215067982673645 -1.149832844734192 0.3556593358516693
0.4248925447463989 -1.1168465614318848 0.35595840215682983
0.5250598788261414 -1.0748213529586792 0.35633817315101624
0.6212381720542908 -1.0240472555160522 0.3567970097064972
5.108117875352036e-07 -1.1670650243759155 0.35549652576446533
0.10593525320291519 -1.1623921394348145 0.3555412292480469
0.2110678255558014 -1.1483951807022095 0.35566940903663635
0.31460753083229065 -1.125169277191162 0.3558807373046875
0.415768563747406 -1.0928726196289062 0.35617339611053467
0.5137752294540405 -1.051722526550293 0.3565455675125122
0.6078714728355408 -1.002013921737671 0.35699447989463806
9.095668360714626e-07 -1.1424946784973145 0.3557170033454895
0.10370445996522903 -1.1379157304763794 0.35576096177101135
0.20662103593349457 -1.1242082118988037 0.35588666796684265
0.30797940492630005 -1.1014569997787476 0.3560934364795685
0.40699875354766846 -1.0698206424713135 0.3563801348209381
0.5029276609420776 -1.0295161008834839 0.3567446768283844
0.5950198769569397 -0.9808287024497986 0.3571842908859253
-1.0216235750704072e-06 -1.1188470125198364 0.3559297025203705
0.10155434161424637 -1.1143620014190674 0.35597243905067444
0.20234277844429016 -1.1009289026260376 0.3560955822467804
0.30159786343574524 -1.0786328315734863 0.3562983572483063
0.3985584080219269 -1.0476369857788086 0.35657942295074463
0.4924876391887665 -1.0081485509872437 0.3569364845752716
0.5826587677001953 -0.9604477286338806 0.3573670983314514
-5.358457428883412e-07 -1.0960735082626343 0.35613417625427246
0.09948962926864624 -1.091677188873291 0.3561759889125824
0.19822312891483307 -1.0785086154937744 0.3562968373298645
0.2954530715942383 -1.0566575527191162 0.3564956486225128
0.3904328942298889 -1.0262726545333862 0.356770783662796
0.48243555426597595 -0.9875707626342773 0.3571211099624634
0.5707489848136902 -0.9408175349235535 0.3575431704521179
2.219080897702952e-06 -1.074120283126831 0.3563311696052551
0.09749555587768555 -1.069812536239624 0.3563723564147949
0.19425220787525177 -1.0568983554840088 0.35649093985557556
0.2895302176475525 -1.0354726314544678 0.3566857874393463
0.3826024532318115 -1.0056838989257812 0.35695570707321167
0.472746878862381 -0.9677391052246094 0.35729873180389404
0.5592756867408752 -0.9219039082527161 0.3577125370502472
2.238452452729689e-06 -1.052943468093872 0.35652145743370056
0.09557197242975235 -1.0487191677093506 0.35656172037124634
0.19042010605335236 -1.0360543727874756 0.3566780090332031
0.2838144898414612 -1.015039086341858 0.35686904191970825
0.3750426471233368 -0.9858219027519226 0.3571339249610901
0.4634019434452057 -0.9486095905303955 0.3574705421924591
0.5482046604156494 -0.903662919998169 0.35787612199783325
-5.850195634593547e-07 -1.0325039625167847 0.3567050099372864
0.09371877461671829 -1.028357982635498 0.3567446768283844
0.18672187626361847 -1.0159326791763306 0.3568585216999054
0.278300940990448 -0.9953179955482483 0.3570461869239807
0.36775320768356323 -0.966652512550354 0.35730573534965515
0.45438602566719055 -0.9301480650901794 0.3576359450817108
0.5375260710716248 -0.8860556483268738 0.3580338954925537
-1.477897171753284e-06 -1.0127626657485962 0.3568824827671051
0.09192607551813126 -1.0086899995803833 0.3569212257862091
0.1831524819135666 -0.9964991807937622 0.3570330739021301
0.27297478914260864 -0.9762653112411499 0.3572169542312622
0.3607097864151001 -0.9481368064880371 0.3574720621109009
0.4456745386123657 -0.9123156666755676 0.3577958643436432
0.5272104740142822 -0.869047999382019 0.3581864833831787
-5.605816681963915e-07 -0.9936756491661072 0.3570536673069
0.09019381552934647 -0.98968106508255 0.3570918142795563
0.1796972006559372 -0.9777146577835083 0.3572016954421997
0.2678261995315552 -0.9578565955162048 0.357382208108902
0.3539024889469147 -0.9302453398704529 0.357632577419281
0.43725284934043884 -0.8950830698013306 0.3579504191875458
0.517238199710846 -0.8526155948638916 0.35833388566970825
2.098679487971822e-06 -0.9752185344696045 0.35721954703330994
0.08851698786020279 -0.9712969064712524 0.3572569191455841
0.17636077105998993 -0.9595451354980469 0.3573646545410156
0.2628452479839325 -0.9400431513786316 0.3575422465801239
0.34731653332710266 -0.9129392504692078 0.3577876091003418
0.42911097407341003 -0.8784160614013672 0.35810011625289917
0.5075994729995728 -0.8367241621017456 0.3584764003753662
1.5231967154250015e-06 -0.9573571681976318 0.357380211353302
0.08689549565315247 -0.9535034894943237 0.3574168384075165
0.17312854528427124 -0.9419612884521484 0.35752272605895996
0.2580270767211914 -0.9228103160858154 0.35769668221473694
0.34094691276550293 -0.896189272403717 0.35793808102607727
0.4212343096733093 -0.8622854351997375 0.3582446277141571
0.4982697665691376 -0.8213397860527039 0.35861435532569885
-2.382397497058264e-06 -0.9400572776794434 0.3575352430343628
0.08532439172267914 -0.9362714886665344 0.357571542263031
0.16999551653862 -0.9249337315559387 0.3576754629611969
0.2533617615699768 -0.9061239957809448 0.35784652829170227
0.3347741365432739 -0.879970908164978 0.3580836355686188
0.41360318660736084 -0.8466668725013733 0.3583846986293793
0.48923441767692566 -0.8064526319503784 0.35874801874160767
8.076429480752267e-08 -0.9232946038246155 0.35768598318099976
0.08380358666181564 -0.9195764064788818 0.35772138833999634
0.16696645319461823 -0.9084332585334778 0.35782378911972046
0.24883946776390076 -0.8899498581886292 0.3579917848110199
0.32879799604415894 -0.8642549514770508 0.358224481344223
0.4062126874923706 -0.8315358757972717 0.35852035880088806
0.4804835319519043 -0.7920235991477966 0.3588772416114807
-9.208917504111014e-07 -0.907044529914856 0.3578318655490875
0.08232814818620682 -0.903389036655426 0.3578668236732483
0.16402669250965118 -0.8924403190612793 0.35796722769737244
0.2444552779197693 -0.874273419380188 0.3581324815750122
0.3229990005493164 -0.8490219712257385 0.3583613634109497
0.3990480303764343 -0.8168681263923645 0.35865187644958496
0.47199755907058716 -0.7780382633209229 0.3590025305747986
-5.719065256926115e-07 -0.8912826180458069 0.35797348618507385
0.0808979943394661 -0.8876898288726807 0.35800763964653015
0.1611761450767517 -0.8769257068634033 0.35810622572898865
0.24020421504974365 -0.859070360660553 0.35826873779296875
0.3173770606517792 -0.8342474102973938 0.3584938049316406
0.39209461212158203 -0.8026393055915833 0.3587794303894043
0.4637666642665863 -0.7644721269607544 0.3591243028640747
1.0600685982353752e-06 -0.875984787940979 0.35811081528663635
0.07950818538665771 -0.8724493980407715 0.3581446707248688
0.15840502083301544 -0.8618698716163635 0.3582417070865631
0.2360764592885971 -0.8443111777305603 0.35840147733688354
0.3119223415851593 -0.8199069499969482 0.3586224317550659
0.3853522837162018 -0.7888298034667969 0.3589036464691162
0.4557810127735138 -0.7513105869293213 0.35924237966537476
-9.75280954662594e-07 -0.8611263036727905 0.3582443296909332
0.0781586617231369 -0.8576532602310181 0.35827744007110596
0.15571805834770203 -0.8472434878349304 0.3583729565143585
0.23207196593284607 -0.8299813866615295 0.35852980613708496
0.30662500858306885 -0.8059812188148499 0.3587473928928375
0.37880149483680725 -0.7754249572753906 0.35902372002601624
0.4480307698249817 -0.7385292053222656 0.35935699939727783
-1.8355250404056278e-06 -0.8466927409172058 0.35837385058403015
0.07684935629367828 -0.8432769775390625 0.35840651392936707
0.15310552716255188 -0.8330416083335876 0.3585003614425659
0.2281809002161026 -0.816056489944458 0.3586549162864685
0.30148014426231384 -0.79245525598526 0.35886871814727783
0.37243735790252686 -0.7624005079269409 0.35914045572280884
0.44049638509750366 -0.726113498210907 0.3594682216644287
-1.5749036492707091e-06 -0.8326643109321594 0.3584999144077301
0.0755753442645073 -0.8293009996414185 0.3585321009159088
0.15057219564914703 -0.8192301988601685 0.3586243987083435
0.22439347207546234 -0.8025268912315369 0.35877639055252075
0.29647794365882874 -0.7793050408363342 0.3589867949485779
0.3662548363208771 -0.7497417330741882 0.35925400257110596
0.4331778287887573 -0.7140437960624695 0.3595762550830841
-2.47359281502213e-07 -0.8190216422080994 0.358622282743454
0.07433659583330154 -0.815715491771698 0.3586541712284088
0.14810341596603394 -0.8058043718338013 0.35874494910240173
0.22071446478366852 -0.7893680930137634 0.35889434814453125
0.29161345958709717 -0.766520619392395 0.35910141468048096
0.36023929715156555 -0.7374292612075806 0.35936444997787476
0.42605552077293396 -0.7023105621337891 0.35968154668807983
2.106577085214667e-06 -0.8057501912117004 0.3587416112422943
0.07313302159309387 -0.8024911880493164 0.358772873878479
0.14569909870624542 -0.7927396297454834 0.35886213183403015
0.21713413298130035 -0.776565432548523 0.3590092360973358
0.28688177466392517 -0.7540823817253113 0.35921308398246765
0.3543907403945923 -0.72545325756073 0.3594718873500824
0.419134259223938 -0.6908940672874451 0.35978376865386963
5.502998874362675e-07 -0.7928301095962524 0.35885757207870483
0.0719597265124321 -0.7896233201026917 0.3588883876800537
0.14336411654949188 -0.780026376247406 0.358976274728775
0.2136523723602295 -0.7641043663024902 0.3591212332248688
0.2822779715061188 -0.7419760227203369 0.3593217432498932
0.34869930148124695 -0.7137989401817322 0.35957640409469604
0.41239452362060547 -0.6797847747802734 0.359883576631546
-7.420778302957842e-08 -0.7802470922470093 0.3589707911014557
0.07082154601812363 -0.7770922183990479 0.3590008318424225
0.14108864963054657 -0.7676449418067932 0.35908737778663635
0.21025940775871277 -0.751970112323761 0.3592301905155182
0.27779221534729004 -0.7301865220069885 0.35942748188972473
0.3431552052497864 -0.7024520039558411 0.35967817902565
0.40583139657974243 -0.6689679026603699 0.3599804639816284
2.1964311258670932e-07 -0.7679961323738098 0.3590809404850006
0.0697086825966835 -0.7648882269859314 0.359110563993454
0.1388726681470871 -0.7555855512619019 0.3591957092285156
0.20695523917675018 -0.7401530146598816 0.35933607816696167
0.27342450618743896 -0.7187044620513916 0.3595304787158966
0.3377534747123718 -0.691397488117218 0.3597773611545563
0.3994399309158325 -0.6584337949752808 0.360074907541275
1.350939214717073e-06 -0.756047785282135 0.3591880798339844
0.06862109154462814 -0.752991795539856 0.35921722650527954
0.1367112398147583 -0.7438287734985352 0.35930129885673523
0.20373490452766418 -0.7286336421966553 0.35943952202796936
0.2691650092601776 -0.707510232925415 0.35963088274002075
0.3324893116950989 -0.6806210279464722 0.35987409949302673
0.3932103216648102 -0.6481629610061646 0.36016708612442017
-1.563280761729402e-06 -0.744402289390564 0.35929274559020996
0.06756361573934555 -0.7413930892944336 0.3593214452266693
0.1346043348312378 -0.7323697209358215 0.35940414667129517
0.2005934715270996 -0.7174020409584045 0.35954025387763977
0.2650136947631836 -0.6965987086296082 0.3597288429737091
0.327357679605484 -0.6701175570487976 0.35996824502944946
0.38713768124580383 -0.6381552815437317 0.36025679111480713
1.2022256896671024e-06 -0.7330447435379028 0.3593946695327759
0.06653621792793274 -0.7300775051116943 0.35942307114601135
0.13255192339420319 -0.7211888432502747 0.3595045506954193
0.19753094017505646 -0.7064485549926758 0.35963866114616394
0.2609657049179077 -0.6859605312347412 0.35982435941696167
0.3223537802696228 -0.6598775386810303 0.3600599467754364
0.3812122344970703 -0.6283913254737854 0.36034438014030457
-1.4543533666255826e-07 -0.7219656109809875 0.359494149684906
0.06552912294864655 -0.7190402150154114 0.3595222532749176
0.13054421544075012 -0.7102861404418945 0.3596023619174957
0.19454236328601837 -0.6957585215568542 0.3597344756126404
0.2570160925388336 -0.675575852394104 0.35991743206977844
0.31747257709503174 -0.6498811841011047 0.36014968156814575
0.37543392181396484 -0.6188662648200989 0.3604298233985901
-7.77095522153104e-07 -0.7111452221870422 0.35959136486053467
0.06454717367887497 -0.70826655626297 0.35961899161338806
0.128590926527977 -0.699637234210968 0.35969802737236023
0.19162777066230774 -0.6853270530700684 0.35982802510261536
0.25315991044044495 -0.665440022945404 0.3600083887577057
0.312709242105484 -0.6401237845420837 0.3602372705936432
0.36979782581329346 -0.609570324420929 0.3605131506919861
-6.930529821147502e-07 -0.7005836963653564 0.35968610644340515
0.06358545273542404 -0.6977466940879822 0.35971328616142273
0.12667740881443024 -0.6892421841621399 0.3597913980484009
0.18877732753753662 -0.6751444935798645 0.35991957783699036
0.2493971586227417 -0.6555479764938354 0.360097199678421
0.30805397033691406 -0.6306005120277405 0.3603227138519287
0.3642892837524414 -0.6004937291145325 0.3605944812297821
6.631016447045113e-08 -0.6902662515640259 0.35977888107299805
0.06265369057655334 -0.6874660849571228 0.35980573296546936
0.12481338530778885 -0.6790909171104431 0.35988250374794006
0.18599586188793182 -0.6651912331581116 0.36000868678092957
0.2457180768251419 -0.6458805203437805 0.36018386483192444
0.3035116195678711 -0.6212967038154602 0.3604060411453247
0.3589131534099579 -0.5916267037391663 0.3606739640235901
1.473873794566316e-06 -0.6801832318305969 0.3598695397377014
0.061737239360809326 -0.6774246096611023 0.3598957657814026
0.12298905849456787 -0.6691692471504211 0.35997146368026733
0.18327856063842773 -0.6554720997810364 0.3600959777832031
0.24212749302387238 -0.6364372372627258 0.3602687120437622
0.29906752705574036 -0.6122073531150818 0.36048752069473267
0.35365480184555054 -0.5829644799232483 0.36075177788734436
-1.366436436001095e-06 -0.6703296303749084 0.3599580228328705
0.06084095686674118 -0.667612612247467 0.35998398065567017
0.12120441347360611 -0.6594719290733337 0.36005857586860657
0.18062041699886322 -0.6459677815437317 0.36018142104148865
0.23861074447631836 -0.6272037625312805 0.36035141348838806
0.29472652077674866 -0.6033228635787964 0.3605671525001526
0.34851905703544617 -0.5744971632957458 0.36082762479782104
1.2701749483312597e-06 -0.66069096326828 0.36004453897476196
0.059964798390865326 -0.6580153703689575 0.3600701689720154
0.11946431547403336 -0.6499893665313721 0.36014387011528015
0.17802146077156067 -0.6366779804229736 0.36026471853256226
0.23517754673957825 -0.618179976940155 0.3604322671890259
0.2904837429523468 -0.5946382284164429 0.3606452941894531
0.343496173620224 -0.5662199854850769 0.36090177297592163
-3.8176773387021967e-07 -0.6512670516967773 0.3601292371749878
0.05911363288760185 -0.6486280560493469 0.36015427112579346
0.11775895953178406 -0.6407119035720825 0.3602270483970642
0.1754816621541977 -0.6275882720947266 0.3603462278842926
0.23182304203510284 -0.6093513369560242 0.3605116307735443
0.28633424639701843 -0.5861389636993408 0.36072126030921936
0.3385860323905945 -0.5581232309341431 0.36097443103790283
-1.4664232139693922e-06 -0.6420482993125916 0.36021193861961365
0.058272793889045715 -0.6394408941268921 0.36023664474487305
0.1160932332277298 -0.631639301776886 0.36030837893486023
0.1729961335659027 -0.6186986565589905 0.3604261577129364
0.2285374253988266 -0.6007129549980164 0.3605891466140747
0.28227314352989197 -0.5778249502182007 0.3607960343360901
0.333778977394104 -0.550201952457428 0.36104536056518555
-2.0244717688910896e-06 -0.6330199837684631 0.3602929711341858
0.05745691806077957 -0.6304538249969482 0.36031752824783325
0.11445733159780502 -0.622757077217102 0.36038801074028015
0.17055994272232056 -0.6099944114685059 0.36050429940223694
0.22532065212726593 -0.5922598838806152 0.36066481471061707
0.2783004641532898 -0.5696913599967957 0.36086899042129517
0.3290797770023346 -0.5424512624740601 0.3611149489879608
-2.0422041870915564e-06 -0.6241869330406189 0.3603724539279938
0.056651320308446884 -0.6216523051261902 0.3603965640068054
0.11286100745201111 -0.6140602827072144 0.3604661524295807
0.16817797720432281 -0.6014755964279175 0.3605807423591614
0.22217276692390442 -0.5839873552322388 0.3607392907142639
0.2744063138961792 -0.5617284774780273 0.3609403967857361
0.3244738280773163 -0.5348613858222961 0.3611830174922943
