ply
format ascii 1.0
element vertex 2176
property float32 x
property float32 y
property float32 z
end_header
-2.3571 -0.3597 0.6310
-2.3582 -0.5790 0.6426
-2.3593 -0.8083 0.6600
-2.3605 -1.0525 0.6840
-2.3618 -1.3172 0.7157
-2.3632 -1.6101 0.7568
-1.0300 -0.8457 0.3527
-0.9469 -0.9307 0.3514
-0.8572 -1.0080 0.3502
-0.7615 -1.0772 0.3491
-0.6606 -1.1377 0.3482
-0.5552 -1.1894 0.3474
-0.4460 -1.2319 0.3467
-0.3338 -1.2649 0.3462
-0.2194 -1.2883 0.3459
-0.1036 -1.3019 0.3456
0.0130 -1.3058 0.3456
0.1295 -1.2997 0.3457
0.2451 -1.2839 0.3459
0.3591 -1.2584 0.3463
0.4707 -1.2233 0.3469
0.5791 -1.1788 0.3476
0.6836 -1.1251 0.3484
0.7834 -1.0626 0.3494
0.8778 -0.9916 0.3505
0.9662 -0.9125 0.3517
1.0477 -0.8258 0.3531
5.7108 -3.7266 1.8047
6.0454 -3.2156 1.8122
6.3357 -2.6750 1.8201
6.5789 -2.1087 1.8284
6.7726 -1.5205 1.8370
6.9145 -0.9146 1.8459
7.0027 -0.2955 1.8549
7.0359 0.3321 1.8641
7.0128 0.9632 1.8734
6.9329 1.5928 1.8826
6.7960 2.2157 1.8917
6.6023 2.8265 1.9007
6.3528 3.4198 1.9094
6.0487 3.9903 1.9178
5.6922 4.5328 1.9257
1.0426 0.9945 0.3813
0.9533 1.0877 0.3828
0.8554 1.1724 0.3841
0.7496 1.2478 0.3853
0.6370 1.3132 0.3863
0.5184 1.3678 0.3871
0.3950 1.4110 0.3878
0.2679 1.4424 0.3883
0.1382 1.4617 0.3886
0.0073 1.4686 0.3887
-0.1237 1.4630 0.3886
-0.2536 1.4451 0.3883
-0.3810 1.4150 0.3878
-0.5049 1.3731 0.3872
-0.6240 1.3197 0.3863
-0.7374 1.2555 0.3853
-0.8439 1.1812 0.3842
-0.9427 1.0974 0.3829
-1.0330 1.0052 0.3814
-2.3460 1.9066 0.8000
-2.3476 1.5824 0.7492
-2.3490 1.2948 0.7098
-2.3503 1.0339 0.6795
-2.3514 0.7926 0.6567
-2.3526 0.5652 0.6403
-2.3536 0.3471 0.6296
-2.3547 0.1346 0.6242
-2.3557 -0.0760 0.6238
-2.3568 -0.2879 0.6284
-2.3578 -0.5048 0.6381
-2.3589 -0.7303 0.6535
-2.3601 -0.9689 0.6752
-2.3614 -1.2260 0.7041
-2.3627 -1.5086 0.7419
-1.0562 -0.8156 0.3532
-0.9755 -0.9031 0.3518
-0.8879 -0.9831 0.3506
-0.7941 -1.0550 0.3495
-0.6949 -1.1185 0.3485
-0.5909 -1.1732 0.3476
-0.4829 -1.2187 0.3469
-0.3716 -1.2549 0.3464
-0.2579 -1.2815 0.3460
-0.1424 -1.2984 0.3457
-0.0260 -1.3056 0.3456
0.0906 -1.3028 0.3456
0.2066 -1.2903 0.3458
0.3212 -1.2680 0.3462
0.4337 -1.2361 0.3467
0.5432 -1.1947 0.3473
0.6491 -1.1440 0.3481
0.7506 -1.0844 0.3490
0.8469 -1.0162 0.3501
0.9374 -0.9398 0.3513
1.0213 -0.8556 0.3526
5.5896 -3.8903 1.8023
5.9384 -3.3898 1.8096
6.2438 -2.8587 1.8174
6.5031 -2.3006 1.8256
6.7135 -1.7192 1.8341
6.8730 -1.1187 1.8429
6.9793 -0.5036 1.8519
7.0310 0.1217 1.8610
7.0268 0.7522 1.8703
6.9660 1.3829 1.8795
6.8481 2.0086 1.8887
6.6733 2.6240 1.8977
6.4423 3.2238 1.9065
6.1563 3.8025 1.9150
5.8170 4.3550 1.9231
1.0704 0.9617 0.3808
0.9841 1.0575 0.3823
0.8890 1.1451 0.3837
0.7858 1.2237 0.3849
0.6753 1.2925 0.3859
0.5586 1.3508 0.3868
0.4367 1.3978 0.3876
0.3107 1.4332 0.3881
0.1818 1.4566 0.3885
0.0511 1.4676 0.3886
-0.0800 1.4663 0.3886
-0.2104 1.4525 0.3884
-0.3388 1.4264 0.3880
-0.4640 1.3884 0.3874
-0.5848 1.3388 0.3866
-0.7002 1.2781 0.3857
-0.8091 1.2071 0.3846
-0.9106 1.1264 0.3833
-1.0038 1.0369 0.3819
-1.0880 0.9395 0.3804
-2.3470 1.6861 0.7648
-2.3485 1.3875 0.7219
-2.3498 1.1186 0.6888
-2.3511 0.8714 0.6636
-2.3522 0.6399 0.6451
-2.3533 0.4192 0.6326
-2.3543 0.2052 0.6254
-2.3554 -0.0056 0.6234
-2.3564 -0.2167 0.6263
-2.3575 -0.4315 0.6343
-2.3585 -0.6537 0.6477
-2.3597 -0.8874 0.6672
-2.3609 -1.1377 0.6936
-2.3623 -1.4108 0.7282
-1.0816 -0.7848 0.3537
-1.0033 -0.8747 0.3523
-0.9179 -0.9572 0.3510
-0.8261 -1.0319 0.3498
-0.7286 -1.0982 0.3488
-0.6261 -1.1559 0.3479
-0.5194 -1.2045 0.3471
-0.4091 -1.2439 0.3465
-0.2961 -1.2737 0.3461
-0.1811 -1.2939 0.3458
-0.0649 -1.3043 0.3456
0.0517 -1.3049 0.3456
0.1680 -1.2956 0.3457
0.2831 -1.2765 0.3460
0.3964 -1.2478 0.3465
0.5070 -1.2095 0.3471
0.6142 -1.1620 0.3478
0.7172 -1.1053 0.3487
0.8153 -1.0400 0.3497
0.9078 -0.9662 0.3509
0.9940 -0.8846 0.3521
1.0732 -0.7955 0.3535
5.8265 -3.5606 1.8071
6.1467 -3.0394 1.8147
6.4217 -2.4899 1.8228
6.6488 -1.9158 1.8312
6.8255 -1.3213 1.8399
6.9498 -0.7105 1.8489
7.0199 -0.0881 1.8580
7.0345 0.5412 1.8672
6.9927 1.1724 1.8764
6.8938 1.8004 1.8856
6.7380 2.4198 1.8947
6.5257 3.0254 1.9036
6.2579 3.6118 1.9122
5.9362 4.1736 1.9205
5.5627 4.7056 1.9283
1.0140 1.0263 0.3818
0.9217 1.1168 0.3832
0.8211 1.1985 0.3845
0.7130 1.2707 0.3856
0.5983 1.3325 0.3866
0.4780 1.3834 0.3874
0.3532 1.4227 0.3880
0.2251 1.4502 0.3884
0.0949 1.4653 0.3886
-0.0362 1.4681 0.3887
-0.1670 1.4585 0.3885
-0.2962 1.4365 0.3882
-0.4226 1.4024 0.3876
-0.5450 1.3566 0.3869
-0.6623 1.2996 0.3860
-0.7735 1.2319 0.3850
-0.8776 1.1544 0.3838
-0.9736 1.0677 0.3824
-1.0609 0.9729 0.3809
-2.3465 1.7943 0.7818
-2.3480 1.4835 0.7350
-2.3494 1.2057 0.6989
-2.3507 0.9520 0.6712
-2.3518 0.7159 0.6506
-2.3529 0.4920 0.6362
-2.3540 0.2762 0.6273
-2.3550 0.0647 0.6235
-2.3561 -0.1459 0.6247
-2.3571 -0.3591 0.6310
-2.3582 -0.5784 0.6426
-2.3593 -0.8077 0.6600
-2.3605 -1.0518 0.6839
-2.3618 -1.3165 0.7156
-2.3632 -1.6094 0.7567
-1.0302 -0.8455 0.3527
-0.9472 -0.9305 0.3514
-0.8574 -1.0078 0.3502
-0.7618 -1.0770 0.3491
-0.6609 -1.1376 0.3482
-0.5555 -1.1893 0.3474
-0.4463 -1.2318 0.3467
-0.3341 -1.2648 0.3462
-0.2197 -1.2882 0.3459
-0.1039 -1.3019 0.3456
0.0127 -1.3058 0.3456
0.1292 -1.2998 0.3457
0.2448 -1.2840 0.3459
0.3588 -1.2585 0.3463
0.4704 -1.2234 0.3469
0.5788 -1.1789 0.3476
0.6833 -1.1252 0.3484
0.7831 -1.0628 0.3494
0.8776 -0.9918 0.3505
0.9659 -0.9127 0.3517
1.0475 -0.8261 0.3531
5.7099 -3.7279 1.8047
6.0446 -3.2169 1.8121
6.3351 -2.6764 1.8201
6.5784 -2.1101 1.8284
6.7722 -1.5220 1.8370
6.9142 -0.9161 1.8458
7.0026 -0.2971 1.8549
7.0359 0.3305 1.8641
7.0130 0.9616 1.8734
6.9332 1.5912 1.8826
6.7964 2.2141 1.8917
6.6029 2.8249 1.9007
6.3535 3.4183 1.9094
6.0496 3.9889 1.9177
5.6931 4.5314 1.9257
1.0428 0.9943 0.3813
0.9535 1.0875 0.3828
0.8556 1.1722 0.3841
0.7499 1.2477 0.3852
0.6373 1.3130 0.3863
0.5187 1.3676 0.3871
0.3953 1.4109 0.3878
0.2682 1.4423 0.3883
0.1386 1.4616 0.3886
0.0076 1.4686 0.3887
-0.1234 1.4631 0.3886
-0.2532 1.4452 0.3883
-0.3807 1.4151 0.3878
-0.5046 1.3732 0.3872
-0.6237 1.3199 0.3863
-0.7371 1.2557 0.3853
-0.8436 1.1814 0.3842
-0.9425 1.0977 0.3829
-1.0327 1.0054 0.3814
-2.3460 1.9074 0.8002
-2.3476 1.5832 0.7494
-2.3490 1.2955 0.7099
-2.3503 1.0346 0.6796
-2.3514 0.7932 0.6568
-2.3526 0.5657 0.6404
-2.3536 0.3477 0.6297
-2.3547 0.1351 0.6242
-2.3557 -0.0754 0.6238
-2.3568 -0.2874 0.6283
-2.3578 -0.5042 0.6381
-2.3589 -0.7297 0.6535
-2.3601 -0.9683 0.6751
-2.3613 -1.2254 0.7041
-2.3627 -1.5078 0.7418
-1.0564 -0.8154 0.3532
-0.9757 -0.9029 0.3518
-0.8881 -0.9829 0.3506
-0.7944 -1.0548 0.3495
-0.6951 -1.1183 0.3485
-0.5911 -1.1730 0.3476
-0.4831 -1.2186 0.3469
-0.3719 -1.2548 0.3464
-0.2582 -1.2815 0.3460
-0.1427 -1.2984 0.3457
-0.0263 -1.3056 0.3456
0.0903 -1.3029 0.3456
0.2063 -1.2903 0.3458
0.3209 -1.2681 0.3462
0.4334 -1.2362 0.3467
0.5430 -1.1948 0.3473
0.6489 -1.1442 0.3481
0.7503 -1.0846 0.3490
0.8467 -1.0164 0.3501
0.9371 -0.9400 0.3513
1.0211 -0.8558 0.3526
5.5886 -3.8915 1.8023
5.9375 -3.3911 1.8096
6.2431 -2.8601 1.8174
6.5025 -2.3020 1.8255
6.7131 -1.7207 1.8341
6.8726 -1.1203 1.8428
6.9791 -0.5051 1.8519
7.0310 0.1201 1.8610
7.0269 0.7506 1.8703
6.9662 1.3813 1.8795
6.8485 2.0070 1.8887
6.6738 2.6225 1.8977
6.4430 3.2223 1.9065
6.1571 3.8011 1.9150
5.8180 4.3536 1.9231
1.0706 0.9614 0.3808
0.9844 1.0572 0.3823
0.8893 1.1449 0.3837
0.7861 1.2235 0.3849
0.6756 1.2923 0.3859
0.5589 1.3506 0.3868
0.4370 1.3977 0.3876
0.3110 1.4332 0.3881
0.1821 1.4566 0.3885
0.0515 1.4676 0.3886
-0.0797 1.4663 0.3886
-0.2100 1.4525 0.3884
-0.3384 1.4265 0.3880
-0.4636 1.3885 0.3874
-0.5845 1.3389 0.3866
-0.6999 1.2783 0.3857
-0.8088 1.2073 0.3846
-0.9103 1.1266 0.3833
-1.0036 1.0371 0.3819
-1.0878 0.9397 0.3804
-2.3470 1.6869 0.7649
-2.3485 1.3882 0.7220
-2.3498 1.1192 0.6888
-2.3511 0.8720 0.6636
-2.3522 0.6405 0.6452
-2.3533 0.4198 0.6326
-2.3543 0.2058 0.6255
-2.3554 -0.0051 0.6234
-2.3564 -0.2162 0.6262
-2.3575 -0.4310 0.6342
-2.3585 -0.6531 0.6477
-2.3597 -0.8868 0.6671
-2.3609 -1.1370 0.6935
-2.3622 -1.4101 0.7281
-1.0818 -0.7846 0.3537
-1.0035 -0.8745 0.3523
-0.9181 -0.9570 0.3510
-0.8263 -1.0317 0.3498
-0.7288 -1.0981 0.3488
-0.6264 -1.1557 0.3479
-0.5196 -1.2044 0.3471
-0.4094 -1.2438 0.3465
-0.2964 -1.2736 0.3461
-0.1814 -1.2938 0.3458
-0.0652 -1.3043 0.3456
0.0514 -1.3049 0.3456
0.1677 -1.2956 0.3457
0.2828 -1.2766 0.3460
0.3961 -1.2479 0.3465
0.5067 -1.2097 0.3471
0.6139 -1.1621 0.3478
0.7170 -1.1055 0.3487
0.8151 -1.0401 0.3497
0.9076 -0.9664 0.3509
0.9938 -0.8848 0.3521
1.0730 -0.7957 0.3535
5.8256 -3.5619 1.8071
6.1460 -3.0408 1.8147
6.4211 -2.4913 1.8228
6.6483 -1.9173 1.8312
6.8251 -1.3228 1.8399
6.9495 -0.7121 1.8488
7.0198 -0.0897 1.8579
7.0346 0.5396 1.8672
6.9928 1.1708 1.8764
6.8942 1.7988 1.8856
6.7385 2.4183 1.8947
6.5263 3.0239 1.9036
6.2587 3.6103 1.9122
5.9371 4.1722 1.9204
5.5637 4.7043 1.9282
1.0142 1.0261 0.3818
0.9220 1.1165 0.3832
0.8214 1.1983 0.3845
0.7133 1.2705 0.3856
0.5986 1.3324 0.3866
0.4783 1.3833 0.3873
0.3535 1.4227 0.3880
0.2255 1.4501 0.3884
0.0952 1.4653 0.3886
-0.0359 1.4681 0.3887
-0.1666 1.4585 0.3885
-0.2958 1.4365 0.3882
-0.4222 1.4025 0.3876
-0.5447 1.3567 0.3869
-0.6620 1.2997 0.3860
-0.7732 1.2321 0.3850
-0.8773 1.1546 0.3838
-0.9734 1.0680 0.3824
-1.0607 0.9731 0.3809
-2.3465 1.7951 0.7819
-2.3480 1.4842 0.7352
-2.3494 1.2064 0.6990
-2.3507 0.9526 0.6713
-2.3518 0.7165 0.6507
-2.3529 0.4926 0.6362
-2.3540 0.2768 0.6273
-2.3550 0.0653 0.6235
-2.3561 -0.1454 0.6247
-2.3571 -0.3586 0.6310
-2.3582 -0.5778 0.6426
-2.3593 -0.8071 0.6599
-2.3605 -1.0512 0.6839
-2.3618 -1.3158 0.7155
-2.3632 -1.6086 0.7566
-1.0305 -0.8452 0.3527
-0.9474 -0.9303 0.3514
-0.8577 -1.0076 0.3502
-0.7620 -1.0768 0.3491
-0.6611 -1.1375 0.3482
-0.5557 -1.1892 0.3474
-0.4466 -1.2317 0.3467
-0.3344 -1.2647 0.3462
-0.2200 -1.2882 0.3459
-0.1041 -1.3019 0.3456
0.0124 -1.3058 0.3456
0.1289 -1.2998 0.3457
0.2445 -1.2840 0.3459
0.3585 -1.2586 0.3463
0.4701 -1.2235 0.3469
0.5785 -1.1790 0.3476
0.6830 -1.1254 0.3484
0.7829 -1.0629 0.3494
0.8774 -0.9920 0.3505
0.9657 -0.9129 0.3517
1.0473 -0.8263 0.3531
5.7089 -3.7292 1.8047
6.0438 -3.2182 1.8121
6.3344 -2.6778 1.8200
6.5778 -2.1116 1.8283
6.7717 -1.5235 1.8369
6.9139 -0.9177 1.8458
7.0024 -0.2987 1.8549
7.0359 0.3289 1.8641
7.0131 0.9600 1.8733
6.9335 1.5896 1.8826
6.7968 2.2125 1.8917
6.6035 2.8234 1.9006
6.3542 3.4168 1.9093
6.0504 3.9875 1.9177
5.6941 4.5301 1.9257
1.0430 0.9940 0.3813
0.9538 1.0872 0.3828
0.8559 1.1720 0.3841
0.7502 1.2475 0.3852
0.6376 1.3129 0.3863
0.5190 1.3675 0.3871
0.3957 1.4108 0.3878
0.2686 1.4423 0.3883
0.1389 1.4616 0.3886
0.0080 1.4686 0.3887
-0.1231 1.4631 0.3886
-0.2529 1.4452 0.3883
-0.3804 1.4152 0.3878
-0.5043 1.3733 0.3872
-0.6234 1.3200 0.3863
-0.7368 1.2559 0.3853
-0.8434 1.1816 0.3842
-0.9422 1.0979 0.3829
-1.0325 1.0057 0.3815
-2.3460 1.9083 0.8003
-2.3476 1.5839 0.7495
-2.3490 1.2962 0.7100
-2.3503 1.0352 0.6797
-2.3514 0.7938 0.6568
-2.3526 0.5663 0.6404
-2.3536 0.3482 0.6297
-2.3547 0.1357 0.6242
-2.3557 -0.0749 0.6238
-2.3567 -0.2868 0.6283
-2.3578 -0.5036 0.6381
-2.3589 -0.7291 0.6534
-2.3601 -0.9677 0.6751
-2.3613 -1.2247 0.7040
-2.3627 -1.5070 0.7417
-1.0566 -0.8152 0.3532
-0.9759 -0.9027 0.3518
-0.8883 -0.9827 0.3506
-0.7946 -1.0547 0.3495
-0.6954 -1.1182 0.3485
-0.5914 -1.1729 0.3476
-0.4834 -1.2185 0.3469
-0.3722 -1.2547 0.3464
-0.2585 -1.2814 0.3460
-0.1430 -1.2984 0.3457
-0.0266 -1.3056 0.3456
0.0900 -1.3029 0.3456
0.2060 -1.2904 0.3458
0.3206 -1.2681 0.3462
0.4331 -1.2363 0.3467
0.5427 -1.1949 0.3473
0.6486 -1.1443 0.3481
0.7501 -1.0848 0.3490
0.8464 -1.0166 0.3501
0.9369 -0.9402 0.3513
1.0209 -0.8561 0.3526
5.5877 -3.8927 1.8023
5.9367 -3.3924 1.8096
6.2424 -2.8615 1.8174
6.5019 -2.3035 1.8255
6.7126 -1.7222 1.8340
6.8723 -1.1219 1.8428
6.9789 -0.5067 1.8518
7.0309 0.1185 1.8610
7.0270 0.7490 1.8702
6.9664 1.3797 1.8795
6.8488 2.0055 1.8887
6.6743 2.6209 1.8977
6.4436 3.2208 1.9065
6.1579 3.7997 1.9150
5.8189 4.3522 1.9231
1.0708 0.9612 0.3808
0.9846 1.0570 0.3823
0.8895 1.1447 0.3837
0.7863 1.2233 0.3849
0.6759 1.2922 0.3859
0.5593 1.3505 0.3868
0.4374 1.3976 0.3876
0.3114 1.4331 0.3881
0.1824 1.4565 0.3885
0.0518 1.4676 0.3886
-0.0793 1.4663 0.3886
-0.2097 1.4526 0.3884
-0.3381 1.4266 0.3880
-0.4633 1.3886 0.3874
-0.5842 1.3391 0.3866
-0.6996 1.2785 0.3857
-0.8086 1.2075 0.3846
-0.9101 1.1268 0.3833
-1.0033 1.0374 0.3819
-1.0876 0.9400 0.3804
-2.3470 1.6877 0.7651
-2.3485 1.3889 0.7221
-2.3498 1.1199 0.6889
-2.3511 0.8726 0.6637
-2.3522 0.6411 0.6452
-2.3533 0.4203 0.6327
-2.3543 0.2063 0.6255
-2.3554 -0.0045 0.6233
-2.3564 -0.2156 0.6262
-2.3574 -0.4304 0.6342
-2.3585 -0.6526 0.6476
-2.3597 -0.8862 0.6671
-2.3609 -1.1363 0.6934
-2.3622 -1.4093 0.7280
-1.0819 -0.7843 0.3537
-1.0037 -0.8743 0.3523
-0.9183 -0.9568 0.3510
-0.8266 -1.0315 0.3498
-0.7291 -1.0979 0.3488
-0.6266 -1.1556 0.3479
-0.5199 -1.2043 0.3471
-0.4097 -1.2437 0.3465
-0.2967 -1.2736 0.3461
-0.1817 -1.2938 0.3458
-0.0655 -1.3043 0.3456
0.0511 -1.3049 0.3456
0.1674 -1.2957 0.3457
0.2825 -1.2767 0.3460
0.3958 -1.2480 0.3465
0.5064 -1.2098 0.3471
0.6137 -1.1622 0.3478
0.7167 -1.1056 0.3487
0.8149 -1.0403 0.3497
0.9074 -0.9666 0.3509
0.9936 -0.8850 0.3521
1.0728 -0.7960 0.3535
5.8247 -3.5632 1.8071
6.1452 -3.0421 1.8147
6.4205 -2.4927 1.8228
6.6478 -1.9188 1.8312
6.8247 -1.3244 1.8399
6.6785 1.9605 1.8880
6.5071 2.5604 1.8968
6.2810 3.1448 1.9054
6.0013 3.7087 1.9136
5.6698 4.2468 1.9215
1.0431 0.9376 0.3804
0.9589 1.0308 0.3819
0.8661 1.1161 0.3832
0.7654 1.1926 0.3844
0.6577 1.2595 0.3854
0.5440 1.3162 0.3863
0.4252 1.3619 0.3870
0.3024 1.3964 0.3875
0.1768 1.4191 0.3879
0.0495 1.4298 0.3881
-0.0783 1.4284 0.3880
-0.2053 1.4149 0.3878
-0.3304 1.3896 0.3874
-0.4523 1.3525 0.3869
-0.5701 1.3042 0.3861
-0.6825 1.2452 0.3852
-0.7887 1.1761 0.3841
-0.8876 1.0975 0.3829
-0.9785 1.0104 0.3815
-1.0607 0.9155 0.3801
-2.3471 1.6853 0.7838
-2.3485 1.3868 0.7398
-2.3498 1.1179 0.7059
-2.3511 0.8708 0.6801
-2.3522 0.6393 0.6612
-2.3533 0.4187 0.6484
-2.3543 0.2047 0.6410
-2.3554 -0.0061 0.6389
-2.3564 -0.2173 0.6419
-2.3575 -0.4321 0.6501
-2.3586 -0.6543 0.6639
-2.3597 -0.8880 0.6839
-2.3609 -1.1383 0.7110
-2.3623 -1.4115 0.7464
-1.0559 -0.7666 0.3539
-0.9795 -0.8544 0.3526
-0.8962 -0.9350 0.3513
-0.8066 -1.0080 0.3502
-0.7114 -1.0729 0.3492
-0.6113 -1.1292 0.3483
-0.5071 -1.1768 0.3476
-0.3994 -1.2152 0.3470
-0.2890 -1.2444 0.3465
-0.1767 -1.2641 0.3462
-0.0632 -1.2743 0.3461
0.0508 -1.2748 0.3461
0.1644 -1.2657 0.3462
0.2769 -1.2471 0.3465
0.3875 -1.2189 0.3469
0.4955 -1.1815 0.3475
0.6002 -1.1349 0.3482
0.7008 -1.0795 0.3491
0.7966 -1.0156 0.3501
0.8868 -0.9435 0.3512
0.9709 -0.8636 0.3525
1.0481 -0.7765 0.3538
5.6894 -3.4751 1.8084
6.0014 -2.9658 1.8158
6.2691 -2.4290 1.8237
6.4899 -1.8684 1.8319
6.6614 -1.2879 1.8404
6.7818 -0.6918 1.8491
6.8493 -0.0844 1.8580
6.8626 0.5296 1.8670
6.8208 1.1452 1.8760
6.7234 1.7575 1.8850
6.5705 2.3614 1.8939
6.3626 2.9516 1.9025
6.1006 3.5229 1.9109
5.7862 4.0701 1.9189
1.0692 0.9048 0.3799
0.9880 1.0005 0.3814
0.8980 1.0885 0.3828
0.7999 1.1681 0.3840
0.6945 1.2383 0.3851
0.5826 1.2984 0.3860
0.4654 1.3479 0.3868
0.3438 1.3862 0.3874
0.2190 1.4128 0.3878
0.0921 1.4275 0.3880
-0.0356 1.4302 0.3881
-0.1630 1.4208 0.3879
-0.2888 1.3994 0.3876
-0.4120 1.3662 0.3871
-0.5313 1.3216 0.3864
-0.6456 1.2661 0.3855
-0.7540 1.2003 0.3845
-0.8554 1.1248 0.3833
-0.9491 1.0404 0.3820
-1.0342 0.9480 0.3806
-2.3465 1.7934 0.8011
-2.3480 1.4828 0.7533
-2.3494 1.2050 0.7162
-2.3507 0.9514 0.6879
-2.3518 0.7153 0.6668
-2.3529 0.4915 0.6520
-2.3540 0.2757 0.6429
-2.3550 0.0642 0.6390
-2.3561 -0.1465 0.6403
-2.3571 -0.3597 0.6468
-2.3582 -0.5790 0.6587
-2.3593 -0.8083 0.6765
-2.3605 -1.0525 0.7011
-2.3618 -1.3172 0.7335
-1.0798 -0.7357 0.3544
-1.0059 -0.8258 0.3530
-0.9248 -0.9089 0.3517
-0.8372 -0.9845 0.3506
-0.7438 -1.0521 0.3495
-0.6453 -1.1114 0.3486
-0.5423 -1.1619 0.3478
-0.4357 -1.2034 0.3472
-0.3261 -1.2357 0.3467
-0.2144 -1.2586 0.3463
-0.1012 -1.2719 0.3461
0.0127 -1.2757 0.3461
0.1265 -1.2698 0.3461
0.2394 -1.2543 0.3464
0.3508 -1.2294 0.3468
0.4598 -1.1950 0.3473
0.5657 -1.1515 0.3480
0.6677 -1.0990 0.3488
0.7652 -1.0379 0.3498
0.8573 -0.9684 0.3508
0.9435 -0.8911 0.3520
1.0231 -0.8064 0.3534
5.5758 -3.6385 1.8060
5.9019 -3.1392 1.8133
6.1847 -2.6112 1.8210
6.4214 -2.0582 1.8291
6.6097 -1.4839 1.8375
6.7474 -0.8925 1.8462
6.8327 -0.2883 1.8550
6.8642 0.3240 1.8640
6.8409 0.9396 1.8730
6.7621 1.5536 1.8820
6.6278 2.1608 1.8909
6.4381 2.7562 1.8997
6.1941 3.3344 1.9081
5.8970 3.8902 1.9163
5.5488 4.4186 1.9241
1.0162 0.9693 0.3809
0.9290 1.0600 0.3823
0.8335 1.1425 0.3836
0.7304 1.2159 0.3848
0.6206 1.2795 0.3857
0.5051 1.3326 0.3866
0.3848 1.3746 0.3872
0.2610 1.4052 0.3877
0.1347 1.4239 0.3880
0.0071 1.4307 0.3881
-0.1205 1.4253 0.3880
-0.2470 1.4078 0.3877
-0.3712 1.3786 0.3873
-0.4919 1.3377 0.3866
-0.6080 1.2858 0.3858
-0.7185 1.2234 0.3848
-0.8223 1.1510 0.3837
-0.9187 1.0695 0.3824
-1.0068 0.9797 0.3811
-1.0858 0.8825 0.3795
-2.3476 1.5824 0.7679
-2.3490 1.2948 0.7276
-2.3503 1.0339 0.6965
-2.3514 0.7926 0.6731
-2.3526 0.5652 0.6563
-2.3536 0.3471 0.6453
-2.3547 0.1346 0.6398
-2.3557 -0.0760 0.6393
-2.3568 -0.2879 0.6440
-2.3578 -0.5048 0.6541
-2.3589 -0.7303 0.6698
-2.3601 -0.9689 0.6920
-2.3614 -1.2260 0.7217
-1.1028 -0.7041 0.3549
-1.0314 -0.7964 0.3535
-0.9526 -0.8820 0.3521
-0.8672 -0.9601 0.3509
-0.7756 -1.0304 0.3498
-0.6787 -1.0925 0.3489
-0.5772 -1.1460 0.3481
-0.4717 -1.1906 0.3474
-0.3630 -1.2259 0.3468
-0.2519 -1.2520 0.3464
-0.1391 -1.2685 0.3462
-0.0254 -1.2755 0.3461
0.0885 -1.2729 0.3461
0.2018 -1.2606 0.3463
0.3138 -1.2388 0.3466
0.4237 -1.2075 0.3471
0.5307 -1.1670 0.3477
0.6341 -1.1175 0.3485
0.7331 -1.0592 0.3494
0.8272 -0.9925 0.3505
0.9154 -0.9178 0.3516
0.9973 -0.8355 0.3529
1.0721 -0.7461 0.3543
5.7976 -3.3094 1.8108
6.0952 -2.7907 1.8184
6.3476 -2.2456 1.8264
6.5523 -1.6779 1.8347
6.7071 -1.0917 1.8433
6.8101 -0.4914 1.8521
6.8598 0.1187 1.8610
6.8548 0.7338 1.8700
6.7947 1.3489 1.8790
6.6789 1.9590 1.8880
6.5076 2.5589 1.8968
6.2816 3.1434 1.9053
6.0021 3.7073 1.9136
5.6707 4.2454 1.9215
1.0433 0.9374 0.3804
0.9591 1.0306 0.3819
0.8663 1.1159 0.3832
0.7657 1.1924 0.3844
0.6580 1.2594 0.3854
0.5443 1.3160 0.3863
0.4255 1.3618 0.3870
0.3027 1.3963 0.3875
0.1771 1.4190 0.3879
0.0498 1.4298 0.3881
-0.0779 1.4284 0.3880
-0.2050 1.4150 0.3878
-0.3300 1.3896 0.3874
-0.4520 1.3526 0.3869
-0.5698 1.3044 0.3861
-0.6823 1.2454 0.3852
-0.7884 1.1762 0.3841
-0.8874 1.0977 0.3829
-0.9783 1.0106 0.3815
-1.0605 0.9157 0.3801
-2.3470 1.6861 0.7839
-2.3485 1.3875 0.7399
-2.3498 1.1186 0.7059
-2.3511 0.8714 0.6801
-2.3522 0.6399 0.6612
-2.3533 0.4192 0.6484
-2.3543 0.2052 0.6410
-2.3554 -0.0056 0.6389
-2.3564 -0.2167 0.6419
-2.3575 -0.4315 0.6501
-2.3585 -0.6537 0.6639
-2.3597 -0.8874 0.6838
-2.3609 -1.1377 0.7109
-2.3623 -1.4108 0.7463
-1.0561 -0.7663 0.3539
-0.9797 -0.8542 0.3526
-0.8964 -0.9349 0.3513
-0.8068 -1.0078 0.3502
-0.7117 -1.0727 0.3492
-0.6116 -1.1291 0.3483
-0.5073 -1.1767 0.3476
-0.3997 -1.2152 0.3470
-0.2893 -1.2443 0.3465
-0.1770 -1.2641 0.3462
-0.0634 -1.2743 0.3461
0.0505 -1.2748 0.3461
0.1641 -1.2657 0.3462
0.2766 -1.2471 0.3465
0.3872 -1.2190 0.3469
0.4953 -1.1816 0.3475
0.6000 -1.1350 0.3482
0.7006 -1.0797 0.3491
0.7963 -1.0157 0.3501
0.8866 -0.9437 0.3512
0.9707 -0.8638 0.3525
1.0479 -0.7768 0.3538
5.6886 -3.4763 1.8084
6.0006 -2.9671 1.8158
6.2684 -2.4304 1.8237
6.4893 -1.8699 1.8319
6.6611 -1.2894 1.8404
6.7816 -0.6933 1.8491
6.8492 -0.0860 1.8580
6.8626 0.5280 1.8670
6.8209 1.1436 1.8760
6.7237 1.7560 1.8850
6.5710 2.3598 1.8939
6.3632 2.9501 1.9025
6.1014 3.5215 1.9109
5.7871 4.0688 1.9189
1.0694 0.9046 0.3799
0.9882 1.0003 0.3814
0.8983 1.0883 0.3828
0.8002 1.1679 0.3840
0.6947 1.2381 0.3851
0.5829 1.2983 0.3860
0.4657 1.3478 0.3868
0.3441 1.3861 0.3874
0.2193 1.4127 0.3878
0.0925 1.4275 0.3880
-0.0353 1.4302 0.3881
-0.1627 1.4208 0.3879
-0.2885 1.3994 0.3876
-0.4117 1.3663 0.3871
-0.5310 1.3217 0.3864
-0.6453 1.2663 0.3855
-0.7537 1.2004 0.3845
-0.8552 1.1250 0.3833
-0.9489 1.0406 0.3820
-1.0340 0.9482 0.3806
-2.3465 1.7943 0.8013
-2.3480 1.4835 0.7534
-2.3494 1.2057 0.7163
-2.3507 0.9520 0.6879
-2.3518 0.7159 0.6668
-2.3529 0.4920 0.6520
-2.3540 0.2762 0.6429
-2.3550 0.0647 0.6390
-2.3561 -0.1459 0.6403
-2.3571 -0.3591 0.6467
-2.3582 -0.5784 0.6586
-2.3593 -0.8077 0.6764
-2.3605 -1.0518 0.7010
-2.3618 -1.3165 0.7335
-1.0800 -0.7354 0.3544
-1.0061 -0.8256 0.3530
-0.9250 -0.9087 0.3517
-0.8374 -0.9843 0.3506
-0.7441 -1.0520 0.3495
-0.6455 -1.1112 0.3486
-0.5426 -1.1618 0.3478
-0.4360 -1.2033 0.3472
-0.3264 -1.2356 0.3467
-0.2147 -1.2585 0.3463
-0.1015 -1.2719 0.3461
0.0124 -1.2757 0.3461
0.1262 -1.2698 0.3461
0.2392 -1.2544 0.3464
0.3505 -1.2294 0.3468
0.4595 -1.1951 0.3473
0.5654 -1.1516 0.3480
0.6674 -1.0991 0.3488
0.7649 -1.0380 0.3498
0.8571 -0.9686 0.3508
0.9433 -0.8913 0.3520
1.0229 -0.8066 0.3534
5.5749 -3.6398 1.8060
5.9011 -3.1405 1.8133
6.1840 -2.6126 1.8210
6.4209 -2.0596 1.8291
6.6093 -1.4854 1.8375
6.7471 -0.8940 1.8462
6.8326 -0.2899 1.8550
6.8642 0.3224 1.8640
6.8410 0.9380 1.8730
6.7624 1.5520 1.8820
6.6282 2.1593 1.8909
6.4387 2.7547 1.8996
6.1948 3.3329 1.9081
5.8978 3.8889 1.9163
5.5498 4.4173 1.9240
1.0164 0.9691 0.3809
0.9293 1.0598 0.3823
0.8338 1.1423 0.3836
0.7307 1.2157 0.3848
0.6209 1.2793 0.3857
0.5054 1.3325 0.3866
0.3852 1.3745 0.3872
0.2613 1.4051 0.3877
0.1350 1.4239 0.3880
0.0074 1.4307 0.3881
-0.1202 1.4253 0.3880
-0.2467 1.4079 0.3877
-0.3709 1.3786 0.3873
-0.4916 1.3379 0.3866
-0.6077 1.2860 0.3858
-0.7182 1.2235 0.3848
-0.8221 1.1512 0.3837
-0.9185 1.0697 0.3825
-1.0066 0.9799 0.3811
-1.0856 0.8827 0.3795
-2.3476 1.5832 0.7681
-2.3490 1.2955 0.7276
-2.3503 1.0345 0.6965
-2.3514 0.7932 0.6731
-2.3526 0.5657 0.6563
-2.3536 0.3477 0.6454
-2.3547 0.1351 0.6398
-2.3557 -0.0754 0.6393
-2.3568 -0.2874 0.6440
-2.3578 -0.5042 0.6540
-2.3589 -0.7297 0.6698
-2.3601 -0.9683 0.6920
-2.3613 -1.2254 0.7216
-1.1030 -0.7039 0.3549
-1.0316 -0.7962 0.3535
-0.9528 -0.8818 0.3521
-0.8674 -0.9599 0.3509
-0.7759 -1.0303 0.3498
-0.6790 -1.0924 0.3489
-0.5774 -1.1459 0.3481
-0.4720 -1.1904 0.3474
-0.3633 -1.2259 0.3468
-0.2522 -1.2519 0.3464
-0.1394 -1.2685 0.3462
-0.0257 -1.2755 0.3461
0.0882 -1.2729 0.3461
0.2016 -1.2606 0.3463
0.3135 -1.2388 0.3466
0.4234 -1.2076 0.3471
0.5304 -1.1671 0.3477
0.6338 -1.1176 0.3485
0.7329 -1.0594 0.3494
0.8269 -0.9927 0.3505
0.9152 -0.9180 0.3516
0.9971 -0.8357 0.3529
1.0719 -0.7464 0.3543
5.7968 -3.3107 1.8108
6.0945 -2.7920 1.8184
6.3470 -2.2470 1.8264
6.5519 -1.6794 1.8347
6.7068 -1.0933 1.8433
6.8099 -0.4929 1.8520
6.8597 0.1172 1.8610
6.8549 0.7322 1.8700
6.7949 1.3473 1.8790
6.6792 1.9574 1.8880
6.5081 2.5574 1.8968
6.2823 3.1419 1.9053
6.0029 3.7059 1.9136
5.6716 4.2441 1.9215
1.0435 0.9371 0.3804
0.9593 1.0304 0.3819
0.8666 1.1157 0.3832
0.7660 1.1922 0.3844
0.6583 1.2592 0.3854
0.5446 1.3159 0.3863
0.4258 1.3617 0.3870
0.3030 1.3962 0.3875
0.1774 1.4190 0.3879
0.0501 1.4297 0.3881
-0.0776 1.4284 0.3880
-0.2046 1.4150 0.3878
-0.3297 1.3897 0.3874
-0.4517 1.3527 0.3869
-0.5695 1.3045 0.3861
-0.6820 1.2455 0.3852
-0.7882 1.1764 0.3841
-0.8871 1.0979 0.3829
-0.9781 1.0108 0.3815
-1.0603 0.9160 0.3801
-2.3470 1.6869 0.7840
-2.3485 1.3882 0.7400
-2.3498 1.1192 0.7060
-2.3511 0.8720 0.6802
-2.3522 0.6405 0.6613
-2.3533 0.4198 0.6484
-2.3543 0.2058 0.6411
-2.3554 -0.0051 0.6389
-2.3564 -0.2162 0.6419
-2.3575 -0.4310 0.6501
-2.3585 -0.6531 0.6638
-2.3597 -0.8868 0.6838
-2.3609 -1.1370 0.7108
-2.3622 -1.4101 0.7462
-1.0563 -0.7661 0.3539
-0.9799 -0.8540 0.3526
-0.8966 -0.9347 0.3513
-0.8071 -1.0077 0.3502
-0.7119 -1.0726 0.3492
-0.6119 -1.1290 0.3483
-0.5076 -1.1766 0.3476
-0.3999 -1.2151 0.3470
-0.2896 -1.2443 0.3465
-0.1772 -1.2640 0.3462
-0.0637 -1.2742 0.3461
0.0502 -1.2748 0.3461
0.1638 -1.2658 0.3462
0.2763 -1.2472 0.3465
0.3870 -1.2191 0.3469
0.4950 -1.1817 0.3475
0.5997 -1.1352 0.3482
0.7003 -1.0798 0.3491
0.7961 -1.0159 0.3501
0.8864 -0.9438 0.3512
0.9705 -0.8640 0.3525
1.0477 -0.7770 0.3538
5.6877 -3.4776 1.8083
5.9999 -2.9685 1.8158
6.2678 -2.4318 1.8236
6.4889 -1.8713 1.8319
6.6607 -1.2909 1.8404
6.7813 -0.6948 1.8491
6.8491 -0.0875 1.8580
6.8627 0.5264 1.8670
6.8211 1.1421 1.8760
6.7241 1.7544 1.8850
6.5714 2.3583 1.8938
6.3638 2.9486 1.9025
6.1021 3.5200 1.9109
5.7880 4.0674 1.9189
1.0695 0.9043 0.3799
0.9885 1.0000 0.3814
0.8985 1.0881 0.3828
0.8004 1.1677 0.3840
0.6950 1.2379 0.3851
0.5832 1.2981 0.3860
0.4660 1.3477 0.3868
0.3444 1.3860 0.3874
0.2196 1.4127 0.3878
0.0928 1.4275 0.3880
-0.0349 1.4302 0.3881
-0.1623 1.4209 0.3879
-0.2882 1.3995 0.3876
-0.4114 1.3664 0.3871
-0.5307 1.3219 0.3864
-0.6450 1.2664 0.3855
-0.7534 1.2006 0.3845
-0.8549 1.1252 0.3833
-0.9486 1.0408 0.3820
-1.0338 0.9485 0.3806
-2.3465 1.7951 0.8014
-2.3480 1.4842 0.7535
-2.3494 1.2064 0.7164
-2.3507 0.9526 0.6880
-2.3518 0.7165 0.6669
-2.3529 0.4926 0.6521
-2.3540 0.2768 0.6429
-2.3550 0.0653 0.6391
-2.3561 -0.1454 0.6403
-2.3571 -0.3586 0.6467
-2.3582 -0.5778 0.6586
-2.3593 -0.8071 0.6764
-2.3605 -1.0512 0.7009
-2.3618 -1.3158 0.7334
-1.0801 -0.7352 0.3544
-1.0063 -0.8254 0.3530
-0.9252 -0.9085 0.3517
-0.8377 -0.9842 0.3506
-0.7443 -1.0518 0.3495
-0.6458 -1.1111 0.3486
-0.5429 -1.1617 0.3478
-0.4363 -1.2032 0.3472
-0.3267 -1.2356 0.3467
-0.2149 -1.2585 0.3463
-0.1018 -1.2719 0.3461
0.0121 -1.2757 0.3461
0.1259 -1.2699 0.3461
0.2389 -1.2544 0.3464
0.3502 -1.2295 0.3468
0.4592 -1.1952 0.3473
0.5651 -1.1517 0.3480
0.6672 -1.0993 0.3488
0.7647 -1.0382 0.3498
0.8569 -0.9688 0.3508
0.9431 -0.8915 0.3520
1.0227 -0.8069 0.3534
5.5740 -3.6410 1.8059
5.9004 -3.1419 1.8133
6.1834 -2.6140 1.8210
6.4203 -2.0611 1.8291
6.6089 -1.4869 1.8375
6.7468 -0.8955 1.8461
6.8324 -0.2914 1.8550
6.8642 0.3208 1.8640
6.8411 0.9364 1.8730
6.7627 1.5505 1.8820
6.6286 2.1578 1.8909
6.4392 2.7532 1.8996
6.1955 3.3315 1.9081
5.8987 3.8875 1.9163
5.5507 4.4160 1.9240
1.0166 0.9689 0.3809
0.9295 1.0596 0.3823
0.8340 1.1421 0.3836
0.7310 1.2155 0.3847
0.6212 1.2792 0.3857
0.5057 1.3323 0.3866
0.3855 1.3745 0.3872
0.2616 1.4051 0.3877
0.1353 1.4239 0.3880
0.0078 1.4306 0.3881
-0.1199 1.4253 0.3880
-0.2464 1.4080 0.3877
-0.3706 1.3787 0.3873
-0.4913 1.3380 0.3866
-0.6074 1.2861 0.3858
-0.7179 1.2237 0.3848
-0.8218 1.1514 0.3837
-0.9182 1.0700 0.3825
-1.0064 0.9802 0.3811
-1.0855 0.8830 0.3795
-2.3476 1.5839 0.7682
-2.3490 1.2962 0.7277
-2.3502 1.0352 0.6966
-2.3514 0.7938 0.6732
-2.3526 0.5663 0.6564
-2.3536 0.3482 0.6454
-2.3547 0.1357 0.6398
-2.3557 -0.0749 0.6393
-2.3567 -0.2868 0.6440
-2.3578 -0.5036 0.6540
-2.3589 -0.7291 0.6697
-2.3601 -0.9677 0.6919
-2.3613 -1.2247 0.7215
-1.1031 -0.7036 0.3549
-1.0318 -0.7960 0.3535
-0.9530 -0.8815 0.3522
-0.8676 -0.9597 0.3509
-0.7761 -1.0301 0.3498
-0.6792 -1.0922 0.3489
-0.5777 -1.1457 0.3481
-0.4722 -1.1903 0.3474
-0.3636 -1.2258 0.3468
-0.2525 -1.2519 0.3464
-0.1397 -1.2685 0.3462
-0.0260 -1.2755 0.3461
0.0879 -1.2729 0.3461
0.2013 -1.2607 0.3463
0.3132 -1.2389 0.3466
0.4231 -1.2077 0.3471
0.5301 -1.1673 0.3477
0.6336 -1.1178 0.3485
0.7326 -1.0595 0.3494
0.8267 -0.9929 0.3505
0.9150 -0.9182 0.3516
0.9969 -0.8360 0.3529
1.0717 -0.7466 0.3543
5.7960 -3.3120 1.8108
6.0938 -2.7934 1.8184
6.3464 -2.2484 1.8263
6.5514 -1.6809 1.8346
6.7065 -1.0948 1.8432
6.8097 -0.4945 1.8520
6.8596 0.1156 1.8610
6.8550 0.7307 1.8700
6.7951 1.3458 1.8790
6.6796 1.9559 1.8879
6.5086 2.5558 1.8967
6.2829 3.1405 1.9053
6.0037 3.7045 1.9136
5.6725 4.2428 1.9215
1.0437 0.9369 0.3804
0.9596 1.0301 0.3819
0.8668 1.1155 0.3832
0.7662 1.1921 0.3844
0.6586 1.2590 0.3854
0.5449 1.3158 0.3863
0.4261 1.3616 0.3870
0.3033 1.3961 0.3875
0.1777 1.4189 0.3879
0.0505 1.4297 0.3881
-0.0773 1.4285 0.3880
-0.2043 1.4151 0.3878
-0.3294 1.3898 0.3874
-0.4514 1.3529 0.3869
-0.5692 1.3047 0.3861
-0.6817 1.2457 0.3852
-0.7879 1.1766 0.3841
-0.8869 1.0981 0.3829
-0.9779 1.0110 0.3815
-1.0601 0.9162 0.3801
-2.3470 1.6877 0.7841
-2.3485 1.3889 0.7401
-2.3498 1.1199 0.7061
-2.3511 0.8726 0.6802
-2.3522 0.6411 0.6613
-2.3533 0.4203 0.6484
-2.3543 0.2063 0.6411
-2.3554 -0.0045 0.6389
-2.3564 -0.2156 0.6419
-2.3574 -0.4304 0.6500
-2.3585 -0.6526 0.6638
-2.3597 -0.8862 0.6837
-2.3609 -1.1363 0.7107
-2.3622 -1.4093 0.7461
-1.0565 -0.7659 0.3539
-0.9801 -0.8538 0.3526
-0.8969 -0.9345 0.3513
-0.8073 -1.0075 0.3502
-0.7122 -1.0724 0.3492
-0.6121 -1.1288 0.3483
-0.5079 -1.1764 0.3476
-0.4002 -1.2150 0.3470
-0.2899 -1.2442 0.3465
-0.1775 -1.2640 0.3462
-0.0640 -1.2742 0.3461
0.0499 -1.2748 0.3461
0.1635 -1.2658 0.3462
0.2760 -1.2472 0.3465
0.3867 -1.2192 0.3469
0.4947 -1.1818 0.3475
0.5994 -1.1353 0.3482
0.7001 -1.0800 0.3491
0.7959 -1.0161 0.3501
0.8862 -0.9440 0.3512
0.9703 -0.8643 0.3525
1.0475 -0.7772 0.3538
5.6869 -3.4789 1.8083
5.9992 -2.9698 1.8158
6.2672 -2.4332 1.8236
6.4883 -1.8728 1.8318
6.6603 -1.2925 1.8403
6.5169 1.9131 1.8873
6.3489 2.4981 1.8959
6.1277 3.0681 1.9042
5.8542 3.6178 1.9123
1.0904 0.8167 0.3786
1.0172 0.9144 0.3801
0.9351 1.0052 0.3815
0.8445 1.0883 0.3828
0.7463 1.1628 0.3839
0.6412 1.2279 0.3849
0.5303 1.2831 0.3858
0.4145 1.3276 0.3865
0.2948 1.3612 0.3870
0.1723 1.3832 0.3873
0.0482 1.3937 0.3875
-0.0763 1.3923 0.3875
-0.2001 1.3792 0.3873
-0.3220 1.3545 0.3869
-0.4409 1.3185 0.3863
-0.5558 1.2715 0.3856
-0.6654 1.2140 0.3847
-0.7690 1.1467 0.3836
-0.8655 1.0702 0.3825
-0.9542 0.9853 0.3811
-1.0344 0.8928 0.3797
-2.3471 1.6853 0.8029
-2.3485 1.3868 0.7579
-2.3498 1.1179 0.7231
-2.3511 0.8708 0.6967
-2.3522 0.6393 0.6773
-2.3533 0.4187 0.6642
-2.3543 0.2047 0.6567
-2.3554 -0.0061 0.6545
-2.3564 -0.2173 0.6576
-2.3575 -0.4321 0.6660
-2.3585 -0.6543 0.6801
-2.3597 -0.8880 0.7006
-2.3609 -1.1383 0.7283
-1.0987 -0.6565 0.3556
-1.0315 -0.7489 0.3542
-0.9570 -0.8348 0.3529
-0.8757 -0.9136 0.3517
-0.7882 -0.9850 0.3505
-0.6952 -1.0484 0.3496
-0.5974 -1.1036 0.3487
-0.4956 -1.1501 0.3480
-0.3903 -1.1877 0.3474
-0.2825 -1.2163 0.3470
-0.1727 -1.2356 0.3467
-0.0617 -1.2455 0.3465
0.0496 -1.2460 0.3465
0.1607 -1.2371 0.3467
0.2706 -1.2189 0.3469
0.3787 -1.1913 0.3474
0.4843 -1.1547 0.3479
0.5866 -1.1091 0.3486
0.6848 -1.0549 0.3495
0.7784 -0.9924 0.3505
0.8665 -0.9218 0.3516
0.9486 -0.8438 0.3528
1.0239 -0.7586 0.3541
5.5574 -3.3944 1.8096
5.8616 -2.8967 1.8168
6.1224 -2.3722 1.8245
6.3374 -1.8245 1.8325
6.5042 -1.2575 1.8408
6.6210 -0.6754 1.8494
6.6861 -0.0824 1.8581
6.6983 0.5169 1.8668
6.6568 1.1177 1.8757
6.5610 1.7151 1.8844
6.4110 2.3041 1.8930
6.2075 2.8796 1.9015
5.9513 3.4366 1.9097
5.6440 3.9701 1.9175
1.0427 0.8825 0.3796
0.9635 0.9757 0.3810
0.8756 1.0614 0.3824
0.7799 1.1389 0.3836
0.6770 1.2072 0.3846
0.5680 1.2658 0.3855
0.4537 1.3140 0.3863
0.3351 1.3512 0.3868
0.2135 1.3771 0.3872
0.0898 1.3915 0.3875
-0.0347 1.3941 0.3875
-0.1589 1.3849 0.3874
-0.2816 1.3641 0.3870
-0.4016 1.3318 0.3865
-0.5179 1.2884 0.3859
-0.6294 1.2343 0.3850
-0.7351 1.1702 0.3840
-0.8341 1.0967 0.3829
-0.9255 1.0145 0.3816
-1.0086 0.9245 0.3802
-1.0828 0.8275 0.3787
-2.3480 1.4828 0.7717
-2.3494 1.2050 0.7337
-2.3507 0.9514 0.7047
-2.3518 0.7153 0.6831
-2.3529 0.4915 0.6679
-2.3540 0.2757 0.6586
-2.3550 0.0642 0.6547
-2.3561 -0.1465 0.6560
-2.3571 -0.3597 0.6626
-2.3582 -0.5790 0.6747
-2.3593 -0.8083 0.6930
-2.3605 -1.0525 0.7182
-2.3618 -1.3172 0.7515
-1.0548 -0.7187 0.3547
-0.9827 -0.8068 0.3533
-0.9036 -0.8881 0.3520
-0.8181 -0.9620 0.3509
-0.7268 -1.0281 0.3499
-0.6306 -1.0861 0.3490
-0.5300 -1.1355 0.3482
-0.4258 -1.1762 0.3476
-0.3188 -1.2078 0.3471
-0.2095 -1.2302 0.3468
-0.0989 -1.2432 0.3466
0.0124 -1.2469 0.3465
0.1236 -1.2411 0.3466
0.2340 -1.2260 0.3468
0.3429 -1.2016 0.3472
0.4494 -1.1679 0.3477
0.5528 -1.1253 0.3484
0.6525 -1.0740 0.3492
0.7477 -1.0142 0.3501
0.8377 -0.9463 0.3512
0.9219 -0.8707 0.3524
0.9995 -0.7878 0.3536
1.0700 -0.6983 0.3550
5.7646 -3.0662 1.8144
6.0402 -2.5503 1.8219
6.2708 -2.0099 1.8298
6.4539 -1.4489 1.8380
6.5877 -0.8713 1.8465
6.6702 -0.2815 1.8551
6.7002 0.3162 1.8639
6.6767 0.9170 1.8727
6.5990 1.5161 1.8815
6.4672 2.1085 1.8902
6.2814 2.6891 1.8987
6.0427 3.2529 1.9070
5.7523 3.7947 1.9149
1.0672 0.8498 0.3791
0.9910 0.9453 0.3806
0.9059 1.0336 0.3819
0.8127 1.1140 0.3832
0.7122 1.1854 0.3843
0.6051 1.2474 0.3852
0.4924 1.2991 0.3860
0.3751 1.3400 0.3867
0.2544 1.3698 0.3871
0.1313 1.3880 0.3874
0.0069 1.3945 0.3875
-0.1175 1.3893 0.3874
-0.2408 1.3723 0.3872
-0.3618 1.3438 0.3867
-0.4795 1.3041 0.3861
-0.5927 1.2535 0.3853
-0.7005 1.1927 0.3844
-0.8018 1.1223 0.3833
-0.8958 1.0429 0.3820
-0.9818 0.9554 0.3807
-1.0590 0.8607 0.3792
-2.3476 1.5824 0.7867
-2.3490 1.2948 0.7453
-2.3503 1.0339 0.7135
-2.3514 0.7926 0.6895
-2.3526 0.5652 0.6723
-2.3536 0.3471 0.6611
-2.3547 0.1346 0.6554
-2.3557 -0.0760 0.6549
-2.3567 -0.2879 0.6598
-2.3578 -0.5048 0.6700
-2.3589 -0.7303 0.6862
-2.3601 -0.9689 0.7089
-2.3613 -1.2260 0.7393
-1.0773 -0.6878 0.3552
-1.0076 -0.7781 0.3538
-0.9308 -0.8617 0.3525
-0.8473 -0.9381 0.3513
-0.7579 -1.0069 0.3502
-0.6633 -1.0677 0.3493
-0.5641 -1.1200 0.3485
-0.4610 -1.1636 0.3478
-0.3548 -1.1982 0.3472
-0.2462 -1.2237 0.3469
-0.1360 -1.2399 0.3466
-0.0248 -1.2467 0.3465
0.0865 -1.2441 0.3465
0.1973 -1.2321 0.3467
0.3067 -1.2107 0.3471
0.4141 -1.1802 0.3475
0.5186 -1.1406 0.3482
0.6197 -1.0921 0.3489
0.7164 -1.0351 0.3498
0.8083 -0.9698 0.3508
0.8944 -0.8968 0.3520
0.9743 -0.8163 0.3532
1.0473 -0.7289 0.3546
5.6629 -3.2326 1.8119
5.9530 -2.7256 1.8194
6.1989 -2.1930 1.8271
6.3981 -1.6384 1.8353
6.5486 -1.0659 1.8437
6.6484 -0.4797 1.8522
6.6961 0.1159 1.8610
6.6905 0.7162 1.8698
6.6310 1.3164 1.8786
6.5172 1.9116 1.8873
6.3494 2.4967 1.8959
6.1283 3.0666 1.9042
5.8550 3.6164 1.9123
1.0906 0.8165 0.3786
1.0174 0.9141 0.3801
0.9353 1.0050 0.3815
0.8447 1.0881 0.3828
0.7465 1.1626 0.3839
0.6415 1.2278 0.3849
0.5306 1.2830 0.3858
0.4148 1.3275 0.3865
0.2951 1.3611 0.3870
0.1726 1.3832 0.3873
0.0486 1.3937 0.3875
-0.0760 1.3923 0.3875
-0.1998 1.3793 0.3873
-0.3217 1.3546 0.3869
-0.4406 1.3186 0.3863
-0.5555 1.2716 0.3856
-0.6652 1.2142 0.3847
-0.7687 1.1468 0.3837
-0.8653 1.0704 0.3825
-0.9540 0.9855 0.3811
-1.0342 0.8931 0.3797
-2.3470 1.6861 0.8030
-2.3485 1.3875 0.7580
-2.3498 1.1186 0.7232
-2.3511 0.8714 0.6967
-2.3522 0.6399 0.6774
-2.3533 0.4192 0.6642
-2.3543 0.2052 0.6567
-2.3554 -0.0056 0.6545
-2.3564 -0.2167 0.6576
-2.3575 -0.4315 0.6660
-2.3585 -0.6537 0.6801
-2.3597 -0.8874 0.7005
-2.3609 -1.1377 0.7282
-1.0988 -0.6562 0.3556
-1.0317 -0.7486 0.3542
-0.9572 -0.8345 0.3529
-0.8759 -0.9134 0.3517
-0.7884 -0.9848 0.3506
-0.6954 -1.0483 0.3496
-0.5977 -1.1034 0.3487
-0.4958 -1.1500 0.3480
-0.3906 -1.1876 0.3474
-0.2827 -1.2162 0.3470
-0.1730 -1.2355 0.3467
-0.0620 -1.2455 0.3465
0.0493 -1.2460 0.3465
0.1604 -1.2372 0.3467
0.2703 -1.2189 0.3469
0.3785 -1.1914 0.3474
0.4840 -1.1548 0.3479
0.5863 -1.1093 0.3486
0.6846 -1.0551 0.3495
0.7782 -0.9925 0.3505
0.8663 -0.9220 0.3516
0.9484 -0.8440 0.3528
1.0237 -0.7588 0.3541
5.5566 -3.3957 1.8095
5.8609 -2.8980 1.8168
6.1218 -2.3736 1.8245
6.3369 -1.8260 1.8325
6.5039 -1.2590 1.8408
6.6208 -0.6769 1.8494
6.6860 -0.0839 1.8580
6.6983 0.5154 1.8668
6.6569 1.1161 1.8756
6.5613 1.7135 1.8844
6.4115 2.3026 1.8930
6.2081 2.8782 1.9015
5.9520 3.4352 1.9096
5.6448 3.9687 1.9175
1.0429 0.8822 0.3796
0.9637 0.9754 0.3810
0.8759 1.0612 0.3824
0.7802 1.1387 0.3836
0.6773 1.2071 0.3846
0.5683 1.2657 0.3855
0.4540 1.3139 0.3863
0.3354 1.3511 0.3868
0.2138 1.3771 0.3872
0.0901 1.3915 0.3875
-0.0344 1.3941 0.3875
-0.1586 1.3850 0.3874
-0.2812 1.3641 0.3870
-0.4013 1.3319 0.3865
-0.5176 1.2885 0.3859
-0.6291 1.2345 0.3850
-0.7348 1.1704 0.3840
-0.8338 1.0969 0.3829
-0.9253 1.0147 0.3816
-1.0084 0.9247 0.3802
-1.0826 0.8278 0.3787
-2.3480 1.4835 0.7718
-2.3494 1.2057 0.7338
-2.3507 0.9520 0.7047
-2.3518 0.7159 0.6831
-2.3529 0.4920 0.6680
-2.3540 0.2762 0.6586
-2.3550 0.0647 0.6547
-2.3561 -0.1459 0.6559
-2.3571 -0.3591 0.6625
-2.3582 -0.5784 0.6747
-2.3593 -0.8077 0.6930
-2.3605 -1.0518 0.7181
-2.3618 -1.3165 0.7514
-1.0550 -0.7185 0.3547
-0.9829 -0.8066 0.3533
-0.9038 -0.8879 0.3521
-0.8183 -0.9618 0.3509
-0.7271 -1.0280 0.3499
-0.6309 -1.0860 0.3490
-0.5303 -1.1354 0.3482
-0.4261 -1.1761 0.3476
-0.3190 -1.2077 0.3471
-0.2098 -1.2301 0.3468
-0.0992 -1.2432 0.3466
0.0121 -1.2469 0.3465
0.1234 -1.2412 0.3466
0.2338 -1.2260 0.3468
0.3426 -1.2016 0.3472
0.4491 -1.1680 0.3477
0.5526 -1.1255 0.3484
0.6523 -1.0741 0.3492
0.7475 -1.0143 0.3501
0.8375 -0.9465 0.3512
0.9217 -0.8709 0.3524
0.9993 -0.7880 0.3536
1.0698 -0.6985 0.3550
5.7639 -3.0675 1.8143
6.0396 -2.5516 1.8219
6.2703 -2.0113 1.8298
6.4535 -1.4504 1.8380
6.5874 -0.8728 1.8465
6.6700 -0.2830 1.8551
6.7002 0.3147 1.8639
6.6768 0.9155 1.8727
6.5993 1.5146 1.8815
6.4676 2.1070 1.8902
6.2820 2.6876 1.8987
6.0433 3.2515 1.9069
5.7531 3.7934 1.9149
1.0673 0.8496 0.3791
0.9912 0.9451 0.3806
0.9061 1.0334 0.3819
0.8130 1.1138 0.3832
0.7124 1.1853 0.3843
0.6053 1.2472 0.3852
0.4927 1.2989 0.3860
0.3755 1.3399 0.3867
0.2547 1.3697 0.3871
0.1316 1.3880 0.3874
0.0073 1.3945 0.3875
-0.1172 1.3893 0.3874
-0.2405 1.3724 0.3872
-0.3615 1.3439 0.3867
-0.4792 1.3042 0.3861
-0.5925 1.2537 0.3853
-0.7002 1.1929 0.3844
-0.8016 1.1225 0.3833
-0.8956 1.0431 0.3820
-0.9816 0.9556 0.3807
-1.0588 0.8609 0.3792
-2.3476 1.5832 0.7868
-2.3490 1.2955 0.7454
-2.3503 1.0345 0.7136
-2.3514 0.7932 0.6896
-2.3526 0.5657 0.6724
-2.3536 0.3477 0.6611
-2.3547 0.1351 0.6554
-2.3557 -0.0754 0.6549
-2.3567 -0.2874 0.6597
-2.3578 -0.5042 0.6700
-2.3589 -0.7297 0.6861
-2.3601 -0.9683 0.7089
-2.3613 -1.2253 0.7392
-1.0774 -0.6876 0.3552
-1.0078 -0.7779 0.3538
-0.9310 -0.8615 0.3525
-0.8475 -0.9380 0.3513
-0.7582 -1.0068 0.3502
-0.6635 -1.0675 0.3493
-0.5643 -1.1198 0.3485
-0.4613 -1.1635 0.3478
-0.3551 -1.1981 0.3472
-0.2465 -1.2236 0.3469
-0.1363 -1.2399 0.3466
-0.0251 -1.2467 0.3465
0.0862 -1.2441 0.3465
0.1970 -1.2321 0.3467
0.3064 -1.2108 0.3471
0.4138 -1.1803 0.3475
0.5184 -1.1407 0.3482
0.6194 -1.0922 0.3489
0.7162 -1.0352 0.3498
0.8080 -0.9700 0.3508
0.8942 -0.8970 0.3519
0.9741 -0.8165 0.3532
1.0471 -0.7291 0.3546
5.6621 -3.2338 1.8119
5.9524 -2.7269 1.8193
6.1983 -2.1943 1.8271
6.3977 -1.6399 1.8352
6.5483 -1.0674 1.8436
6.6482 -0.4812 1.8522
6.6960 0.1144 1.8609
6.6906 0.7147 1.8697
6.6312 1.3149 1.8785
6.5176 1.9101 1.8873
6.3499 2.4952 1.8958
6.1289 3.0652 1.9042
5.8557 3.6150 1.9123
1.0907 0.8162 0.3786
1.0176 0.9139 0.3801
0.9355 1.0048 0.3815
0.8450 1.0879 0.3828
0.7468 1.1624 0.3839
0.6418 1.2276 0.3849
0.5309 1.2828 0.3858
0.4151 1.3275 0.3865
0.2954 1.3610 0.3870
0.1729 1.3832 0.3873
0.0489 1.3936 0.3875
-0.0757 1.3924 0.3875
-0.1995 1.3793 0.3873
-0.3214 1.3547 0.3869
-0.4403 1.3187 0.3863
-0.5552 1.2717 0.3856
-0.6649 1.2143 0.3847
-0.7685 1.1470 0.3837
-0.8650 1.0706 0.3825
-0.9538 0.9857 0.3811
-1.0340 0.8933 0.3797
-2.3470 1.6869 0.8032
-2.3485 1.3882 0.7581
-2.3498 1.1192 0.7233
-2.3511 0.8720 0.6968
-2.3522 0.6405 0.6774
-2.3533 0.4198 0.6642
-2.3543 0.2058 0.6567
-2.3554 -0.0051 0.6545
-2.3564 -0.2162 0.6575
-2.3575 -0.4310 0.6659
-2.3585 -0.6531 0.6800
-2.3597 -0.8868 0.7005
-2.3609 -1.1370 0.7282
-1.0990 -0.6560 0.3556
-1.0319 -0.7484 0.3542
-0.9574 -0.8343 0.3529
-0.8761 -0.9132 0.3517
-0.7886 -0.9846 0.3506
-0.6957 -1.0481 0.3496
-0.5979 -1.1033 0.3487
-0.4961 -1.1499 0.3480
-0.3909 -1.1876 0.3474
-0.2830 -1.2162 0.3470
-0.1732 -1.2355 0.3467
-0.0623 -1.2455 0.3465
0.0491 -1.2460 0.3465
0.1601 -1.2372 0.3467
0.2701 -1.2190 0.3469
0.3782 -1.1915 0.3474
0.4838 -1.1549 0.3479
0.5861 -1.1094 0.3486
0.6844 -1.0552 0.3495
0.7779 -0.9927 0.3505
0.8661 -0.9222 0.3516
0.9482 -0.8442 0.3528
1.0235 -0.7591 0.3541
5.5557 -3.3969 1.8095
5.8601 -2.8993 1.8168
6.1212 -2.3749 1.8245
6.3364 -1.8274 1.8325
6.5035 -1.2605 1.8408
6.6206 -0.6784 1.8493
6.6859 -0.0854 1.8580
6.6984 0.5138 1.8668
6.6571 1.1146 1.8756
6.5616 1.7120 1.8844
6.4120 2.3011 1.8930
6.2087 2.8767 1.9014
5.9527 3.4338 1.9096
5.6457 3.9674 1.9174
1.0431 0.8820 0.3796
0.9639 0.9752 0.3810
0.8761 1.0610 0.3824
0.7804 1.1385 0.3836
0.6776 1.2069 0.3846
0.5686 1.2655 0.3855
0.4543 1.3137 0.3863
0.3357 1.3510 0.3868
0.2141 1.3770 0.3872
0.0904 1.3914 0.3875
-0.0341 1.3941 0.3875
-0.1582 1.3850 0.3874
-0.2809 1.3642 0.3870
-0.4010 1.3320 0.3865
-0.5173 1.2886 0.3859
-0.6289 1.2346 0.3850
-0.7346 1.1706 0.3840
-0.8336 1.0971 0.3829
-0.9251 1.0150 0.3816
-1.0082 0.9250 0.3802
-1.0824 0.8280 0.3787
-2.3480 1.4842 0.7719
-2.3494 1.2064 0.7339
-2.3507 0.9526 0.7048
-2.3518 0.7165 0.6832
-2.3529 0.4926 0.6680
-2.3540 0.2768 0.6586
-2.3550 0.0653 0.6547
-2.3561 -0.1454 0.6559
-2.3571 -0.3586 0.6625
-2.3582 -0.5778 0.6747
-2.3593 -0.8071 0.6929
-2.3605 -1.0512 0.7180
-2.3618 -1.3158 0.7513
-1.0552 -0.7182 0.3547
-0.9831 -0.8064 0.3533
-0.9040 -0.8877 0.3521
-0.8185 -0.9616 0.3509
-0.7273 -1.0278 0.3499
-0.6311 -1.0858 0.3490
-0.5305 -1.1353 0.3482
-0.4264 -1.1760 0.3476
-0.3193 -1.2076 0.3471
-0.2101 -1.2301 0.3468
-0.0995 -1.2432 0.3466
0.0118 -1.2469 0.3465
0.1231 -1.2412 0.3466
0.2335 -1.2261 0.3468
0.3423 -1.2017 0.3472
0.4488 -1.1681 0.3477
0.5523 -1.1256 0.3484
0.6520 -1.0743 0.3492
0.7472 -1.0145 0.3501
0.8373 -0.9466 0.3512
0.9215 -0.8711 0.3524
0.9991 -0.7883 0.3536
1.0697 -0.6987 0.3550
5.7631 -3.0688 1.8143
6.0389 -2.5530 1.8219
6.2697 -2.0127 1.8298
6.4531 -1.4518 1.8380
6.5871 -0.8743 1.8465
6.6699 -0.2845 1.8551
6.7002 0.3132 1.8639
6.6769 0.9140 1.8727
6.5995 1.5131 1.8814
6.4680 2.1055 1.8901
6.2825 2.6862 1.8986
6.0440 3.2500 1.9069
5.7539 3.7920 1.9149
1.0675 0.8493 0.3791
0.9914 0.9448 0.3806
0.9064 1.0332 0.3819
0.8132 1.1136 0.3832
0.7127 1.1851 0.3843
0.6056 1.2471 0.3852
0.4930 1.2988 0.3860
0.3758 1.3398 0.3867
0.2550 1.3696 0.3871
0.1319 1.3879 0.3874
0.0076 1.3945 0.3875
-0.1169 1.3893 0.3874
-0.2402 1.3724 0.3872
-0.3612 1.3440 0.3867
-0.4789 1.3043 0.3861
-0.5922 1.2538 0.3853
-0.7000 1.1931 0.3844
-0.8013 1.1227 0.3833
-0.8954 1.0433 0.3820
-0.9814 0.9559 0.3807
-1.0586 0.8612 0.3792
-2.3476 1.5839 0.7869
-2.3490 1.2962 0.7455
-2.3502 1.0352 0.7136
-2.3514 0.7938 0.6896
-2.3526 0.5663 0.6724
-2.3536 0.3482 0.6611
-2.3547 0.1357 0.6554
-2.3557 -0.0749 0.6549
-2.3567 -0.2868 0.6597
-2.3578 -0.5036 0.6700
-2.3589 -0.7291 0.6861
-2.3601 -0.9677 0.7088
-2.3613 -1.2247 0.7392
-1.0776 -0.6873 0.3552
-1.0080 -0.7776 0.3538
-0.9312 -0.8613 0.3525
-0.8477 -0.9378 0.3513
-0.7584 -1.0066 0.3502
-0.6638 -1.0674 0.3493
-0.5646 -1.1197 0.3485
-0.4615 -1.1634 0.3478
-0.3554 -1.1981 0.3472
-0.2468 -1.2236 0.3469
-0.1365 -1.2398 0.3466
-0.0254 -1.2467 0.3465
0.0860 -1.2441 0.3465
0.1967 -1.2322 0.3467
0.3062 -1.2109 0.3471
0.4135 -1.1804 0.3475
0.5181 -1.1408 0.3482
0.6192 -1.0924 0.3489
0.7160 -1.0354 0.3498
0.8078 -0.9702 0.3508
0.8940 -0.8972 0.3519
0.9739 -0.8167 0.3532
1.0469 -0.7294 0.3546
5.6613 -3.2351 1.8119
5.9517 -2.7282 1.8193
6.1978 -2.1958 1.8271
6.3973 -1.6413 1.8352
6.5480 -1.0689 1.8436
6.6480 -0.4827 1.8522
6.6960 0.1128 1.8609
6.6907 0.7131 1.8697
6.6314 1.3134 1.8785
6.5180 1.9086 1.8872
6.3504 2.4937 1.8958
6.1295 3.0638 1.9042
5.8565 3.6137 1.9122
1.0909 0.8159 0.3786
1.0178 0.9137 0.3801
0.9357 1.0045 0.3815
0.8452 1.0877 0.3828
0.7471 1.1622 0.3839
0.6421 1.2275 0.3849
0.5312 1.2827 0.3858
0.4154 1.3273 0.3865
0.2957 1.3609 0.3870
0.1733 1.3831 0.3873
0.0492 1.3936 0.3875
-0.0753 1.3924 0.3875
-0.1991 1.3794 0.3873
-0.3211 1.3548 0.3869
-0.4400 1.3188 0.3863
-0.5549 1.2719 0.3856
-0.6646 1.2145 0.3847
-0.7682 1.1472 0.3837
-0.8648 1.0708 0.3825
-0.9536 0.9859 0.3811
-1.0338 0.8936 0.3797
-2.3470 1.6877 0.8033
-2.3485 1.3889 0.7582
-2.3498 1.1199 0.7233
-2.3511 0.8726 0.6969
-2.3522 0.6411 0.6775
-2.3533 0.4203 0.6643
-2.3543 0.2063 0.6567
-2.3554 -0.0045 0.6545
-2.3564 -0.2156 0.6575
-2.3574 -0.4304 0.6659
-2.3585 -0.6526 0.6800
-2.3597 -0.8862 0.7004
-2.3609 -1.1363 0.7281
-1.0991 -0.6558 0.3557
-1.0321 -0.7482 0.3542
-0.9576 -0.8341 0.3529
-0.8763 -0.9130 0.3517
-0.7889 -0.9845 0.3506
-0.6959 -1.0480 0.3496
-0.5982 -1.1032 0.3487
-0.4964 -1.1498 0.3480
-0.3912 -1.1875 0.3474
-0.2833 -1.2161 0.3470
-0.1735 -1.2355 0.3467
-0.0626 -1.2455 0.3465
0.0488 -1.2460 0.3465
0.1598 -1.2372 0.3467
0.2698 -1.2190 0.3469
0.3779 -1.1916 0.3474
0.4835 -1.1550 0.3479
0.5858 -1.1095 0.3486
0.6841 -1.0554 0.3495
0.7777 -0.9929 0.3505
0.8659 -0.9224 0.3516
0.9480 -0.8444 0.3528
1.0234 -0.7593 0.3541
5.5549 -3.3981 1.8095
5.8594 -2.9006 1.8168
6.1206 -2.3763 1.8245
6.3359 -1.8288 1.8325
6.5031 -1.2619 1.8408
6.3624 1.8677 1.8866
6.1978 2.4387 1.8950
5.9811 2.9947 1.9032
5.7136 3.5309 1.9110
1.0641 0.7970 0.3783
0.9926 0.8922 0.3797
0.9123 0.9807 0.3811
0.8239 1.0617 0.3824
0.7280 1.1343 0.3835
0.6255 1.1978 0.3845
0.5173 1.2515 0.3853
0.4043 1.2949 0.3860
0.2875 1.3276 0.3865
0.1680 1.3491 0.3868
0.0470 1.3592 0.3870
-0.0744 1.3579 0.3869
-0.1951 1.3452 0.3867
-0.3141 1.3211 0.3864
-0.4301 1.2860 0.3858
-0.5421 1.2402 0.3851
-0.6491 1.1842 0.3842
-0.7502 1.1186 0.3832
-0.8444 1.0440 0.3821
-0.9310 0.9613 0.3808
-1.0094 0.8712 0.3794
-1.0788 0.7746 0.3779
-2.3485 1.3868 0.7760
-2.3498 1.1179 0.7404
-2.3511 0.8708 0.7133
-2.3522 0.6393 0.6935
-2.3533 0.4187 0.6801
-2.3543 0.2047 0.6724
-2.3554 -0.0061 0.6702
-2.3564 -0.2173 0.6733
-2.3575 -0.4321 0.6819
-2.3585 -0.6543 0.6964
-2.3597 -0.8880 0.7174
-2.3609 -1.1383 0.7457
-1.0737 -0.6416 0.3559
-1.0082 -0.7319 0.3545
-0.9354 -0.8159 0.3532
-0.8560 -0.8931 0.3520
-0.7705 -0.9629 0.3509
-0.6797 -1.0250 0.3499
-0.5841 -1.0790 0.3491
-0.4845 -1.1245 0.3484
-0.3817 -1.1614 0.3478
-0.2762 -1.1893 0.3474
-0.1688 -1.2082 0.3471
-0.0604 -1.2179 0.3469
0.0485 -1.2184 0.3469
0.1571 -1.2097 0.3471
0.2646 -1.1918 0.3474
0.3703 -1.1649 0.3478
0.4735 -1.1290 0.3483
0.5735 -1.0844 0.3490
0.6696 -1.0314 0.3499
0.7610 -0.9701 0.3508
0.8471 -0.9011 0.3519
0.9272 -0.8247 0.3531
1.0007 -0.7414 0.3544
1.0671 -0.6518 0.3558
5.7277 -2.8306 1.8178
5.9820 -2.3178 1.8253
6.1914 -1.7825 1.8332
6.3538 -1.2285 1.8413
6.4671 -0.6597 1.8496
6.5300 -0.0804 1.8581
6.5412 0.5048 1.8667
6.4999 1.0913 1.8753
6.4057 1.6745 1.8838
6.2586 2.2493 1.8922
6.0593 2.8109 1.9005
5.8086 3.3542 1.9084
1.0859 0.7638 0.3777
1.0175 0.8611 0.3793
0.9401 0.9520 0.3807
0.8543 1.0355 0.3820
0.7608 1.1110 0.3831
0.6604 1.1776 0.3842
0.5540 1.2347 0.3850
0.4425 1.2816 0.3858
0.3269 1.3179 0.3863
0.2082 1.3431 0.3867
0.0876 1.3571 0.3869
-0.0338 1.3596 0.3870
-0.1549 1.3507 0.3868
-0.2746 1.3304 0.3865
-0.3917 1.2989 0.3860
-0.5052 1.2567 0.3854
-0.6140 1.2040 0.3845
-0.7171 1.1416 0.3836
-0.8137 1.0699 0.3825
-0.9030 0.9898 0.3812
-0.9841 0.9021 0.3798
-1.0566 0.8075 0.3784
-2.3480 1.4828 0.7901
-2.3494 1.2050 0.7513
-2.3507 0.9514 0.7215
-2.3518 0.7153 0.6994
-2.3529 0.4915 0.6839
-2.3540 0.2757 0.6743
-2.3550 0.0642 0.6703
-2.3561 -0.1465 0.6716
-2.3571 -0.3597 0.6784
-2.3582 -0.5790 0.6909
-2.3593 -0.8083 0.7096
-2.3605 -1.0525 0.7354
-1.0939 -0.6101 0.3564
-1.0309 -0.7024 0.3549
-0.9605 -0.7886 0.3536
-0.8832 -0.8681 0.3524
-0.7997 -0.9404 0.3512
-0.7106 -1.0051 0.3502
-0.6165 -1.0619 0.3494
-0.5182 -1.1102 0.3486
-0.4164 -1.1500 0.3480
-0.3117 -1.1810 0.3475
-0.2049 -1.2029 0.3472
-0.0967 -1.2157 0.3470
0.0121 -1.2193 0.3469
0.1209 -1.2136 0.3470
0.2288 -1.1988 0.3472
0.3352 -1.1749 0.3476
0.4394 -1.1420 0.3481
0.5405 -1.1003 0.3488
0.6379 -1.0500 0.3496
0.7310 -0.9915 0.3505
0.8189 -0.9250 0.3515
0.9011 -0.8511 0.3527
0.9769 -0.7700 0.3539
1.0457 -0.6824 0.3553
5.6332 -2.9963 1.8154
5.9019 -2.4919 1.8228
6.1266 -1.9637 1.8305
6.3049 -1.4154 1.8385
6.4348 -0.8511 1.8468
6.5147 -0.2749 1.8552
6.5433 0.3088 1.8638
6.5196 0.8954 1.8724
6.4431 1.4803 1.8810
6.3136 2.0584 1.8894
6.1317 2.6250 1.8978
5.8980 3.1750 1.9058
5.6139 3.7035 1.9136
1.0414 0.8293 0.3788
0.9669 0.9224 0.3802
0.8838 1.0085 0.3815
0.7929 1.0867 0.3828
0.6947 1.1564 0.3838
0.5902 1.2167 0.3848
0.4803 1.2671 0.3855
0.3659 1.3070 0.3862
0.2481 1.3359 0.3866
0.1280 1.3537 0.3869
0.0068 1.3601 0.3870
-0.1146 1.3550 0.3869
-0.2348 1.3384 0.3866
-0.3529 1.3107 0.3862
-0.4677 1.2720 0.3856
-0.5782 1.2227 0.3848
-0.6833 1.1635 0.3839
-0.7822 1.0948 0.3828
-0.8740 1.0175 0.3816
-0.9580 0.9322 0.3803
-1.0334 0.8398 0.3789
-2.3476 1.5824 0.8055
-2.3490 1.2948 0.7631
-2.3503 1.0339 0.7306
-2.3514 0.7926 0.7060
-2.3526 0.5652 0.6884
-2.3536 0.3471 0.6769
-2.3547 0.1346 0.6711
-2.3557 -0.0760 0.6706
-2.3567 -0.2879 0.6755
-2.3578 -0.5048 0.6861
-2.3589 -0.7303 0.7026
-2.3601 -0.9689 0.7259
-2.3613 -1.2260 0.7570
-1.0528 -0.6722 0.3554
-0.9848 -0.7605 0.3540
-0.9098 -0.8423 0.3528
-0.8283 -0.9171 0.3516
