ply
format ascii 1.0
element vertex 2176
property float32 x
property float32 y
property float32 z
end_header
1.0718 -0.2957 0.3612
5.5844 -1.0151 1.8442
5.6751 -0.5147 1.8515
5.7213 -0.0061 1.8590
5.7221 0.5066 1.8665
5.6768 1.0193 1.8740
5.5853 1.5280 1.8815
1.0731 0.3995 0.3720
1.0373 0.4957 0.3735
0.9927 0.5885 0.3750
0.9397 0.6773 0.3764
0.8785 0.7610 0.3777
0.8097 0.8391 0.3789
0.7337 0.9107 0.3800
0.6512 0.9751 0.3810
0.5629 1.0317 0.3819
0.4695 1.0799 0.3826
0.3718 1.1193 0.3832
0.2708 1.1495 0.3837
0.1672 1.1700 0.3840
0.0622 1.1808 0.3842
-0.0435 1.1817 0.3842
-0.1487 1.1727 0.3841
-0.2526 1.1538 0.3838
-0.3542 1.1254 0.3833
-0.4525 1.0876 0.3828
-0.5467 1.0409 0.3820
-0.6360 0.9858 0.3812
-0.7196 0.9227 0.3802
-0.7968 0.8523 0.3791
-0.8670 0.7754 0.3779
-0.9295 0.6926 0.3766
-0.9841 0.6046 0.3753
-1.0301 0.5124 0.3738
-1.0675 0.4168 0.3724
-1.0959 0.3185 0.3708
-2.3543 0.4613 0.7795
-2.3548 0.2461 0.7693
-2.3552 0.0347 0.7653
-2.3557 -0.1761 0.7675
-2.3562 -0.3899 0.7760
-1.0772 -0.2789 0.3616
-1.0438 -0.3724 0.3601
-1.0025 -0.4623 0.3587
-0.9537 -0.5479 0.3574
-0.8978 -0.6286 0.3561
-0.8354 -0.7039 0.3549
-0.7669 -0.7733 0.3539
-0.6929 -0.8364 0.3529
-0.6139 -0.8926 0.3520
-0.5307 -0.9418 0.3512
-0.4437 -0.9836 0.3506
-0.3536 -1.0177 0.3501
-0.2610 -1.0440 0.3497
-0.1667 -1.0623 0.3494
-0.0712 -1.0724 0.3492
0.0248 -1.0744 0.3492
0.1206 -1.0682 0.3493
0.2156 -1.0538 0.3495
0.3091 -1.0314 0.3498
0.4005 -1.0010 0.3503
0.4890 -0.9629 0.3509
0.5742 -0.9172 0.3516
0.6553 -0.8643 0.3524
0.7317 -0.8045 0.3534
0.8029 -0.7381 0.3544
0.8684 -0.6656 0.3555
0.9275 -0.5875 0.3567
0.9797 -0.5042 0.3580
1.0247 -0.4163 0.3594
1.0620 -0.3245 0.3608
5.5479 -1.1660 1.8420
5.6520 -0.6689 1.8493
5.7120 -0.1624 1.8567
5.7267 0.3495 1.8642
5.6956 0.8627 1.8717
5.6182 1.3730 1.8792
1.0822 0.3696 0.3716
1.0492 0.4665 0.3731
1.0073 0.5605 0.3745
0.9568 0.6506 0.3759
0.8981 0.7360 0.3773
0.8315 0.8159 0.3785
0.7577 0.8895 0.3797
0.6771 0.9562 0.3807
0.5905 1.0152 0.3816
0.4985 1.0661 0.3824
0.4021 1.1082 0.3831
0.3020 1.1412 0.3836
0.1991 1.1648 0.3839
0.0944 1.1785 0.3842
-0.0111 1.1825 0.3842
-0.1166 1.1765 0.3841
-0.2210 1.1606 0.3839
-0.3234 1.1351 0.3835
-0.4228 1.1002 0.3830
-0.5184 1.0562 0.3823
-0.6093 1.0035 0.3815
-0.6947 0.9428 0.3805
-0.7739 0.8746 0.3795
-0.8463 0.7996 0.3783
-0.9112 0.7185 0.3770
-0.9682 0.6320 0.3757
-1.0170 0.5411 0.3743
-1.0570 0.4464 0.3728
-1.0882 0.3488 0.3713
-2.3541 0.5285 0.7839
-2.3546 0.3113 0.7717
-2.3551 0.0992 0.7659
-2.3555 -0.1114 0.7662
-2.3560 -0.3239 0.7727
-1.0858 -0.2497 0.3620
-1.0549 -0.3442 0.3605
-1.0160 -0.4352 0.3591
-0.9694 -0.5222 0.3578
-0.9156 -0.6045 0.3565
-0.8552 -0.6815 0.3553
-0.7885 -0.7527 0.3542
-0.7161 -0.8178 0.3532
-0.6386 -0.8761 0.3523
-0.5566 -0.9275 0.3515
-0.4707 -0.9716 0.3508
-0.3814 -1.0081 0.3502
-0.2896 -1.0368 0.3498
-0.1957 -1.0575 0.3494
-0.1005 -1.0702 0.3492
-0.0046 -1.0746 0.3492
0.0914 -1.0709 0.3492
0.1867 -1.0591 0.3494
0.2807 -1.0391 0.3497
0.3728 -1.0111 0.3502
0.4623 -0.9754 0.3507
0.5485 -0.9320 0.3514
0.6309 -0.8813 0.3522
0.7089 -0.8235 0.3531
0.7817 -0.7591 0.3541
0.8490 -0.6885 0.3552
0.9101 -0.6120 0.3563
0.9645 -0.5302 0.3576
1.0117 -0.4437 0.3589
1.0514 -0.3530 0.3604
1.0831 -0.2588 0.3618
5.6248 -0.8222 1.8470
5.6984 -0.3181 1.8544
5.7271 0.1925 1.8619
5.7100 0.7057 1.8694
5.6468 1.2174 1.8769
5.5374 1.7233 1.8843
1.0602 0.4371 0.3726
1.0210 0.5321 0.3741
0.9731 0.6235 0.3755
0.9169 0.7104 0.3769
0.8527 0.7921 0.3781
0.7810 0.8677 0.3793
0.7024 0.9366 0.3804
0.6176 0.9980 0.3813
0.5272 1.0514 0.3822
0.4320 1.0963 0.3829
0.3330 1.1321 0.3834
0.2308 1.1586 0.3838
0.1266 1.1754 0.3841
0.0212 1.1823 0.3842
-0.0844 1.1793 0.3842
-0.1892 1.1665 0.3840
-0.2923 1.1439 0.3836
-0.3927 1.1118 0.3831
-0.4896 1.0706 0.3825
-0.5820 1.0205 0.3817
-0.6692 0.9622 0.3808
-0.7504 0.8962 0.3798
-0.8249 0.8232 0.3787
-0.8921 0.7439 0.3774
-0.9517 0.6590 0.3761
-1.0029 0.5693 0.3747
-1.0457 0.4757 0.3733
-1.0796 0.3789 0.3718
-2.3540 0.5965 0.7890
-2.3545 0.3771 0.7748
-2.3549 0.1638 0.7670
-2.3554 -0.0469 0.7655
-2.3559 -0.2585 0.7701
-1.0936 -0.2202 0.3625
-1.0652 -0.3156 0.3610
-1.0287 -0.4078 0.3595
-0.9844 -0.4961 0.3582
-0.9328 -0.5798 0.3569
-0.8744 -0.6585 0.3557
-0.8095 -0.7316 0.3545
-0.7388 -0.7985 0.3535
-0.6628 -0.8590 0.3525
-0.5821 -0.9126 0.3517
-0.4973 -0.9589 0.3510
-0.4091 -0.9978 0.3504
-0.3179 -1.0289 0.3499
-0.2246 -1.0520 0.3495
-0.1297 -1.0672 0.3493
-0.0340 -1.0741 0.3492
0.0620 -1.0729 0.3492
0.1576 -1.0636 0.3493
0.2521 -1.0460 0.3496
0.3449 -1.0205 0.3500
0.4352 -0.9871 0.3505
0.5225 -0.9461 0.3512
0.6062 -0.8976 0.3519
0.6855 -0.8419 0.3528
0.7600 -0.7795 0.3537
0.8290 -0.7107 0.3548
0.8921 -0.6360 0.3560
0.9486 -0.5557 0.3572
0.9981 -0.4706 0.3585
1.0401 -0.3811 0.3599
1.0743 -0.2879 0.3614
5.5935 -0.9745 1.8448
5.6806 -0.4733 1.8521
5.7231 0.0358 1.8596
5.7201 0.5486 1.8671
5.6711 1.0612 1.8746
5.5758 1.5693 1.8821
1.0705 0.4075 0.3722
1.0340 0.5034 0.3737
0.9887 0.5960 0.3751
0.9350 0.6843 0.3765
0.8732 0.7677 0.3778
0.8037 0.8452 0.3790
0.7272 0.9162 0.3801
0.6442 0.9800 0.3811
0.5554 1.0360 0.3819
0.4616 1.0835 0.3827
0.3636 1.1222 0.3833
0.2624 1.1515 0.3837
0.1587 1.1713 0.3840
0.0535 1.1812 0.3842
-0.0521 1.1813 0.3842
-0.1573 1.1715 0.3841
-0.2610 1.1519 0.3838
-0.3623 1.1226 0.3833
-0.4604 1.0841 0.3827
-0.5542 1.0367 0.3820
-0.6431 0.9809 0.3811
-0.7262 0.9172 0.3801
-0.8028 0.8463 0.3790
-0.8724 0.7688 0.3778
-0.9343 0.6855 0.3765
-0.9881 0.5972 0.3752
-1.0335 0.5047 0.3737
-1.0702 0.4088 0.3722
-2.3538 0.6655 0.7948
-2.3543 0.4434 0.7784
-2.3548 0.2287 0.7687
-2.3553 0.0175 0.7653
-2.3557 -0.1935 0.7680
-2.3562 -0.4076 0.7769
-1.0748 -0.2867 0.3614
-1.0407 -0.3799 0.3600
-0.9988 -0.4695 0.3586
-0.9494 -0.5547 0.3573
-0.8930 -0.6350 0.3560
-0.8300 -0.7098 0.3549
-0.7610 -0.7787 0.3538
-0.6866 -0.8412 0.3528
-0.6073 -0.8969 0.3519
-0.5237 -0.9455 0.3512
-0.4364 -0.9867 0.3505
-0.3461 -1.0202 0.3500
-0.2534 -1.0458 0.3496
-0.1589 -1.0634 0.3494
-0.0633 -1.0729 0.3492
0.0327 -1.0742 0.3492
0.1285 -1.0673 0.3493
0.2233 -1.0523 0.3495
0.3167 -1.0292 0.3499
0.4078 -0.9982 0.3504
0.4961 -0.9594 0.3510
0.5810 -0.9132 0.3517
0.6617 -0.8597 0.3525
0.7378 -0.7993 0.3534
0.8085 -0.7324 0.3545
0.8734 -0.6594 0.3556
0.9320 -0.5808 0.3568
0.9837 -0.4971 0.3581
1.0280 -0.4089 0.3595
1.0647 -0.3168 0.3609
5.5580 -1.1258 1.8426
5.6586 -0.6277 1.8499
5.7149 -0.1206 1.8573
5.7259 0.3915 1.8648
5.6910 0.9046 1.8723
5.6099 1.4145 1.8798
1.0799 0.3776 0.3717
1.0461 0.4744 0.3732
1.0035 0.5680 0.3747
0.9523 0.6578 0.3761
0.8929 0.7427 0.3774
0.8257 0.8221 0.3786
0.7513 0.8952 0.3797
0.6702 0.9613 0.3808
0.5831 1.0197 0.3817
0.4908 1.0699 0.3825
0.3940 1.1113 0.3831
0.2937 1.1435 0.3836
0.1906 1.1663 0.3840
0.0858 1.1792 0.3842
-0.0198 1.1823 0.3842
-0.1252 1.1755 0.3841
-0.2295 1.1589 0.3839
-0.3316 1.1326 0.3835
-0.4308 1.0969 0.3829
-0.5260 1.0522 0.3822
-0.6165 0.9989 0.3814
-0.7014 0.9375 0.3804
-0.7801 0.8687 0.3794
-0.8519 0.7932 0.3782
-0.9162 0.7116 0.3769
-0.9725 0.6247 0.3756
-1.0206 0.5334 0.3742
-1.0599 0.4385 0.3727
-1.0904 0.3407 0.3712
-2.3542 0.5104 0.7827
-2.3547 0.2938 0.7710
-2.3551 0.0820 0.7657
-2.3556 -0.1287 0.7665
-2.3561 -0.3415 0.7735
-1.0836 -0.2575 0.3619
-1.0520 -0.3518 0.3604
-1.0124 -0.4425 0.3590
-0.9653 -0.5291 0.3577
-0.9109 -0.6110 0.3564
-0.8499 -0.6875 0.3552
-0.7827 -0.7583 0.3541
-0.7099 -0.8228 0.3531
-0.6320 -0.8806 0.3522
-0.5497 -0.9314 0.3514
-0.4635 -0.9749 0.3507
-0.3740 -1.0107 0.3502
-0.2820 -1.0388 0.3497
-0.1880 -1.0589 0.3494
-0.0926 -1.0708 0.3492
0.0033 -1.0746 0.3492
0.0992 -1.0703 0.3492
0.1944 -1.0577 0.3494
0.2883 -1.0371 0.3497
0.3802 -1.0085 0.3502
0.4695 -0.9721 0.3508
0.5554 -0.9281 0.3514
0.6375 -0.8768 0.3522
0.7150 -0.8185 0.3531
0.7875 -0.7536 0.3541
0.8542 -0.6824 0.3552
0.9148 -0.6055 0.3564
0.9686 -0.5233 0.3577
1.0153 -0.4364 0.3591
1.0543 -0.3454 0.3605
1.0853 -0.2509 0.3619
5.6325 -0.7813 1.8476
5.7025 -0.2765 1.8550
5.7274 0.2345 1.8625
5.7066 0.7477 1.8700
0.9452 0.6227 0.3755
0.8890 0.7071 0.3768
0.8250 0.7861 0.3780
0.7538 0.8592 0.3792
0.6760 0.9256 0.3802
0.5921 0.9846 0.3811
0.5029 1.0356 0.3819
0.4092 1.0783 0.3826
0.3117 1.1120 0.3831
0.2114 1.1365 0.3835
0.1092 1.1516 0.3837
0.0060 1.1570 0.3838
-0.0972 1.1527 0.3838
-0.1996 1.1388 0.3835
-0.3002 1.1154 0.3832
-0.3980 1.0827 0.3827
-0.4922 1.0411 0.3820
-0.5820 0.9910 0.3813
-0.6665 0.9329 0.3804
-0.7451 0.8674 0.3793
-0.8172 0.7950 0.3782
-0.8820 0.7166 0.3770
-0.9392 0.6329 0.3757
-0.9883 0.5445 0.3743
-1.0290 0.4524 0.3729
-1.0611 0.3573 0.3714
-1.0843 0.2601 0.3699
-2.3545 0.3465 0.7895
-2.3550 0.1337 0.7825
-2.3555 -0.0769 0.7818
-1.0885 -0.1335 0.3638
-1.0679 -0.2291 0.3623
-1.0390 -0.3222 0.3609
-1.0022 -0.4121 0.3595
-0.9578 -0.4980 0.3581
-0.9064 -0.5795 0.3569
-0.8482 -0.6559 0.3557
-0.7838 -0.7267 0.3546
-0.7138 -0.7915 0.3536
-0.6387 -0.8499 0.3527
-0.5590 -0.9014 0.3519
-0.4754 -0.9459 0.3512
-0.3884 -0.9829 0.3506
-0.2988 -1.0123 0.3501
-0.2070 -1.0339 0.3498
-0.1139 -1.0476 0.3496
-0.0199 -1.0533 0.3495
0.0742 -1.0510 0.3495
0.1678 -1.0407 0.3497
0.2602 -1.0224 0.3500
0.3508 -0.9962 0.3504
0.4390 -0.9624 0.3509
0.5241 -0.9210 0.3515
0.6055 -0.8724 0.3523
0.6826 -0.8169 0.3532
0.7548 -0.7548 0.3541
0.8216 -0.6864 0.3552
0.8825 -0.6124 0.3563
0.9368 -0.5330 0.3576
0.9842 -0.4489 0.3589
1.0243 -0.3606 0.3602
1.0565 -0.2688 0.3617
1.0807 -0.1742 0.3631
5.5728 -0.3930 1.8533
5.6076 0.1064 1.8606
5.5978 0.6088 1.8680
5.5429 1.1104 1.8754
1.0718 0.3164 0.3707
1.0435 0.4125 0.3722
1.0064 0.5059 0.3737
0.9609 0.5960 0.3751
0.9070 0.6818 0.3764
0.8454 0.7625 0.3777
0.7763 0.8375 0.3788
0.7005 0.9060 0.3799
0.6184 0.9673 0.3809
0.5307 1.0209 0.3817
0.4383 1.0661 0.3824
0.3419 1.1026 0.3830
0.2424 1.1300 0.3834
0.1407 1.1480 0.3837
0.0377 1.1563 0.3838
-0.0657 1.1550 0.3838
-0.1684 1.1441 0.3836
-0.2697 1.1235 0.3833
-0.3684 1.0937 0.3828
-0.4638 1.0548 0.3822
-0.5550 1.0072 0.3815
-0.6413 0.9515 0.3806
-0.7218 0.8882 0.3797
-0.7959 0.8179 0.3786
-0.8629 0.7412 0.3774
-0.9225 0.6590 0.3761
-0.9742 0.5720 0.3748
-1.0175 0.4809 0.3733
-1.0522 0.3867 0.3719
-1.0781 0.2901 0.3704
-1.0952 0.1919 0.3689
-2.3549 0.1985 0.7840
-2.3553 -0.0125 0.7814
-1.0931 -0.1038 0.3643
-1.0751 -0.2001 0.3628
-1.0487 -0.2941 0.3613
-1.0143 -0.3850 0.3599
-0.9722 -0.4722 0.3585
-0.9229 -0.5551 0.3573
-0.8667 -0.6331 0.3560
-0.8042 -0.7056 0.3549
-0.7358 -0.7723 0.3539
-0.6622 -0.8327 0.3529
-0.5838 -0.8864 0.3521
-0.5014 -0.9330 0.3514
-0.4154 -0.9724 0.3508
-0.3265 -1.0041 0.3503
-0.2353 -1.0282 0.3499
-0.1425 -1.0443 0.3496
-0.0487 -1.0525 0.3495
0.0454 -1.0526 0.3495
0.1392 -1.0447 0.3496
0.2321 -1.0288 0.3499
0.3233 -1.0051 0.3502
0.4123 -0.9735 0.3507
0.4984 -0.9345 0.3513
0.5810 -0.8881 0.3521
0.6595 -0.8346 0.3529
0.7333 -0.7745 0.3538
0.8018 -0.7080 0.3548
0.8645 -0.6356 0.3560
0.9209 -0.5578 0.3572
0.9705 -0.4751 0.3585
1.0128 -0.3880 0.3598
1.0475 -0.2972 0.3612
1.0742 -0.2034 0.3627
5.5533 -0.5446 1.8511
5.6017 -0.0470 1.8584
5.6056 0.4550 1.8657
5.5645 0.9572 1.8731
1.0788 0.2866 0.3703
1.0531 0.3833 0.3718
1.0187 0.4777 0.3733
0.9757 0.5688 0.3747
0.9244 0.6560 0.3760
0.8651 0.7384 0.3773
0.7982 0.8152 0.3785
0.7244 0.8858 0.3796
0.6441 0.9494 0.3806
0.5581 1.0053 0.3815
0.4670 1.0532 0.3822
0.3718 1.0924 0.3828
0.2731 1.1226 0.3833
0.1720 1.1435 0.3836
0.0693 1.1548 0.3838
-0.0341 1.1565 0.3838
-0.1371 1.1484 0.3837
-0.2389 1.1308 0.3834
-0.3385 1.1038 0.3830
-0.4350 1.0676 0.3824
-0.5276 1.0227 0.3818
-0.6154 0.9694 0.3809
-0.6978 0.9083 0.3800
-0.7739 0.8401 0.3789
-0.8432 0.7653 0.3778
-0.9051 0.6847 0.3765
-0.9592 0.5991 0.3752
-1.0051 0.5092 0.3738
-1.0425 0.4158 0.3723
-1.0711 0.3198 0.3708
-1.0909 0.2221 0.3693
-2.3547 0.2635 0.7860
-2.3552 0.0520 0.7815
-1.0970 -0.0739 0.3647
-1.0815 -0.1708 0.3632
-1.0576 -0.2656 0.3618
-1.0256 -0.3575 0.3603
-0.9859 -0.4459 0.3590
-0.9387 -0.5302 0.3576
-0.8846 -0.6097 0.3564
-0.8239 -0.6840 0.3553
-0.7573 -0.7526 0.3542
-0.6852 -0.8149 0.3532
-0.6083 -0.8707 0.3524
-0.5270 -0.9195 0.3516
-0.4420 -0.9611 0.3509
-0.3539 -0.9952 0.3504
-0.2634 -1.0216 0.3500
-0.1710 -1.0402 0.3497
-0.0775 -1.0508 0.3495
0.0166 -1.0534 0.3495
0.1106 -1.0480 0.3496
0.2038 -1.0345 0.3498
0.2956 -1.0132 0.3501
0.3854 -0.9840 0.3506
0.4724 -0.9472 0.3511
0.5561 -0.9030 0.3518
0.6359 -0.8517 0.3526
0.7112 -0.7936 0.3535
0.7814 -0.7290 0.3545
0.8460 -0.6584 0.3556
0.9044 -0.5822 0.3568
0.9561 -0.5009 0.3581
1.0007 -0.4151 0.3594
1.0377 -0.3254 0.3608
1.0669 -0.2324 0.3622
5.5297 -0.6954 1.8489
5.5916 -0.1999 1.8561
5.6092 0.3011 1.8635
5.5819 0.8037 1.8709
1.0848 0.2567 0.3698
1.0619 0.3540 0.3713
1.0302 0.4491 0.3728
0.9898 0.5413 0.3742
0.9409 0.6298 0.3756
0.8840 0.7137 0.3769
0.8194 0.7923 0.3781
0.7477 0.8649 0.3793
0.6693 0.9307 0.3803
0.5850 0.9891 0.3812
0.4954 1.0395 0.3820
0.4013 1.0814 0.3826
0.3036 1.1144 0.3832
0.2031 1.1381 0.3835
0.1008 1.1524 0.3838
-0.0024 1.1570 0.3838
-0.1057 1.1519 0.3837
-0.2079 1.1372 0.3835
-0.3083 1.1130 0.3831
-0.4059 1.0796 0.3826
-0.4997 1.0373 0.3820
-0.5891 0.9865 0.3812
-0.6732 0.9278 0.3803
-0.7513 0.8617 0.3793
-0.8227 0.7888 0.3781
-0.8870 0.7100 0.3769
-0.9435 0.6258 0.3756
-0.9920 0.5371 0.3742
-1.0320 0.4447 0.3728
-1.0633 0.3494 0.3713
-1.0858 0.2521 0.3698
-2.3546 0.3289 0.7887
-2.3550 0.1165 0.7822
-2.3555 -0.0942 0.7820
-1.0871 -0.1414 0.3637
-1.0658 -0.2369 0.3622
-1.0363 -0.3297 0.3608
-0.9988 -0.4193 0.3594
-0.9539 -0.5049 0.3580
-0.9018 -0.5859 0.3568
-0.8432 -0.6619 0.3556
-0.7783 -0.7322 0.3545
-0.7078 -0.7965 0.3535
-0.6323 -0.8543 0.3526
-0.5523 -0.9053 0.3518
-0.4684 -0.9492 0.3511
-0.3812 -0.9856 0.3506
-0.2913 -1.0144 0.3501
-0.1994 -1.0354 0.3498
-0.1062 -1.0484 0.3496
-0.0122 -1.0535 0.3495
0.0819 -1.0505 0.3495
0.1754 -1.0395 0.3497
0.2677 -1.0205 0.3500
0.3581 -0.9937 0.3504
0.4461 -0.9593 0.3510
0.5309 -0.9173 0.3516
0.6120 -0.8682 0.3524
0.6887 -0.8121 0.3532
0.7605 -0.7494 0.3542
0.8269 -0.6806 0.3553
0.8872 -0.6060 0.3564
0.9410 -0.5263 0.3577
0.9878 -0.4418 0.3590
1.0272 -0.3532 0.3604
1.0588 -0.2612 0.3618
1.0823 -0.1663 0.3633
5.5773 -0.3523 1.8539
5.6085 0.1474 1.8612
5.5950 0.6500 1.8686
5.5364 1.1513 1.8760
1.0699 0.3244 0.3709
1.0408 0.4202 0.3724
1.0030 0.5135 0.3738
0.9568 0.6032 0.3752
0.9023 0.6886 0.3765
0.8400 0.7689 0.3778
0.7704 0.8434 0.3789
0.6940 0.9113 0.3800
0.6114 0.9720 0.3809
0.5233 1.0249 0.3818
0.4305 1.0695 0.3825
0.3339 1.1052 0.3830
0.2341 1.1318 0.3834
0.1323 1.1490 0.3837
0.0292 1.1566 0.3838
-0.0741 1.1545 0.3838
-0.1768 1.1427 0.3836
-0.2778 1.1214 0.3833
-0.3764 1.0908 0.3828
-0.4715 1.0512 0.3822
-0.5623 1.0030 0.3814
-0.6481 0.9466 0.3806
-0.7281 0.8827 0.3796
-0.8016 0.8118 0.3785
-0.8681 0.7347 0.3773
-0.9271 0.6521 0.3760
-0.9780 0.5647 0.3746
-1.0206 0.4733 0.3732
-1.0547 0.3789 0.3718
-1.0799 0.2821 0.3703
-1.0962 0.1838 0.3687
-2.3549 0.1811 0.7835
-2.3554 -0.0297 0.7814
-1.0920 -0.1117 0.3641
-1.0732 -0.2079 0.3627
-1.0462 -0.3016 0.3612
-1.0111 -0.3923 0.3598
-0.9684 -0.4791 0.3584
-0.9185 -0.5616 0.3572
-0.8618 -0.6392 0.3560
-0.7988 -0.7113 0.3548
-0.7300 -0.7775 0.3538
-0.6559 -0.8374 0.3529
-0.5772 -0.8905 0.3520
-0.4944 -0.9365 0.3513
-0.4082 -0.9752 0.3507
-0.3191 -1.0064 0.3502
-0.2277 -1.0298 0.3499
-0.1348 -1.0453 0.3496
-0.0410 -1.0528 0.3495
0.0531 -1.0522 0.3495
0.1469 -1.0437 0.3496
0.2396 -1.0272 0.3499
0.3307 -1.0028 0.3503
0.4195 -0.9706 0.3508
0.5053 -0.9309 0.3514
0.5876 -0.8840 0.3521
0.6657 -0.8299 0.3530
0.7391 -0.7693 0.3539
0.8072 -0.7023 0.3549
0.8694 -0.6294 0.3561
0.9252 -0.5512 0.3573
0.9742 -0.4681 0.3586
1.0160 -0.3807 0.3599
1.0500 -0.2897 0.3613
1.0760 -0.1956 0.3628
5.5589 -0.5041 1.8517
5.6037 -0.0060 1.8590
5.6040 0.4961 1.8663
5.5592 0.9982 1.8737
1.0770 0.2946 0.3704
1.0506 0.3912 0.3719
1.0155 0.4853 0.3734
0.9718 0.5761 0.3748
0.9198 0.6629 0.3761
0.8599 0.7449 0.3774
0.7924 0.8212 0.3786
0.7180 0.8912 0.3797
0.6373 0.9542 0.3807
0.5508 1.0096 0.3815
0.4594 1.0567 0.3823
0.3638 1.0952 0.3829
0.2649 1.1247 0.3833
0.1636 1.1448 0.3836
0.0608 1.1553 0.3838
-0.0425 1.1562 0.3838
-0.1455 1.1474 0.3837
-0.2471 1.1290 0.3834
-0.3465 1.1012 0.3830
-0.4428 1.0643 0.3824
-0.5350 1.0186 0.3817
-0.6224 0.9647 0.3809
-0.7042 0.9030 0.3799
-0.7798 0.8342 0.3788
-0.8485 0.7589 0.3777
-0.9099 0.6779 0.3764
-0.9633 0.5919 0.3751
-1.0085 0.5017 0.3737
-1.0452 0.4081 0.3722
-1.0731 0.3119 0.3707
-1.0922 0.2140 0.3692
-2.3548 0.2461 0.7854
-2.3552 0.0347 0.7814
-1.0960 -0.0819 0.3646
-1.0799 -0.1787 0.3631
-1.0553 -0.2732 0.3616
-1.0227 -0.3649 0.3602
-0.9823 -0.4530 0.3588
-0.9345 -0.5369 0.3575
-0.8798 -0.6160 0.3563
-0.8187 -0.6899 0.3552
-0.7516 -0.7579 0.3541
-0.6791 -0.8197 0.3531
-0.6018 -0.8750 0.3523
-0.5202 -0.9232 0.3515
-0.4349 -0.9642 0.3509
-0.3466 -0.9977 0.3504
-0.2559 -1.0234 0.3500
-0.1634 -1.0414 0.3497
-0.0698 -1.0513 0.3495
0.0243 -1.0533 0.3495
0.1183 -1.0472 0.3496
0.2114 -1.0331 0.3498
0.3030 -1.0111 0.3502
0.3926 -0.9813 0.3506
0.4794 -0.9439 0.3512
0.5628 -0.8991 0.3519
0.6423 -0.8472 0.3527
0.7172 -0.7885 0.3536
0.7869 -0.7234 0.3546
0.8510 -0.6523 0.3557
0.9088 -0.5757 0.3569
0.9600 -0.4940 0.3582
1.0040 -0.4079 0.3595
1.0404 -0.3179 0.3609
1.0689 -0.2247 0.3623
5.5364 -0.6552 1.8495
5.5947 -0.1590 1.8567
5.6086 0.3423 1.8641
5.5777 0.8448 1.8715
1.0833 0.2647 0.3699
1.0596 0.3618 0.3715
1.0272 0.4568 0.3729
0.9861 0.5487 0.3744
0.9366 0.6369 0.3757
0.8790 0.7204 0.3770
0.8138 0.7985 0.3782
0.7415 0.8705 0.3794
0.6626 0.9357 0.3804
0.5778 0.9935 0.3813
0.4878 1.0432 0.3820
0.3934 1.0844 0.3827
0.2955 1.1167 0.3832
0.1948 1.1396 0.3836
0.0924 1.1531 0.3838
-0.0109 1.1569 0.3838
-0.1141 1.1511 0.3837
-0.2162 1.1356 0.3835
-0.3164 1.1107 0.3831
-0.4137 1.0765 0.3826
-0.5072 1.0335 0.3819
-0.5962 0.9820 0.3811
-0.6798 0.9227 0.3802
-0.7574 0.8560 0.3792
-0.8283 0.7826 0.3780
-0.8919 0.7033 0.3768
-0.9478 0.6187 0.3755
-0.9956 0.5297 0.3741
-1.0349 0.4370 0.3727
-1.0655 0.3415 0.3712
-1.0873 0.2441 0.3697
-2.3546 0.3113 0.7879
-2.3551 0.0992 0.7820
-2.3555 -0.1114 0.7823
-1.0857 -0.1493 0.3636
-1.0637 -0.2446 0.3621
-1.0335 -0.3372 0.3606
-0.9954 -0.4264 0.3593
-0.9499 -0.5117 0.3579
-0.8973 -0.5924 0.3567
-0.8381 -0.6679 0.3555
-0.7727 -0.7377 0.3544
-0.7019 -0.8015 0.3534
-0.6259 -0.8588 0.3525
-0.5456 -0.9092 0.3518
-0.4614 -0.9524 0.3511
-0.3739 -0.9882 0.3505
-0.2839 -1.0164 0.3501
-0.1919 -1.0367 0.3498
-0.0985 -1.0491 0.3496
-0.0045 -1.0535 0.3495
0.0896 -1.0499 0.3496
0.1830 -1.0382 0.3497
0.2752 -1.0186 0.3500
0.3654 -0.9912 0.3505
0.4532 -0.9561 0.3510
0.5377 -0.9136 0.3517
0.6184 -0.8638 0.3524
0.6948 -0.8072 0.3533
0.7662 -0.7440 0.3543
0.8320 -0.6747 0.3554
0.8918 -0.5997 0.3565
0.9451 -0.5195 0.3578
0.9913 -0.4347 0.3591
1.0301 -0.3458 0.3605
1.0610 -0.2535 0.3619
1.0838 -0.1584 0.3634
5.5815 -0.3116 1.8545
5.6091 0.1885 1.8618
5.5919 0.6911 1.8692
5.5296 1.1921 1.8765
1.0678 0.3323 0.3710
1.0380 0.4280 0.3725
0.9996 0.5209 0.3739
0.9526 0.6103 0.3753
0.8975 0.6954 0.3766
0.8346 0.7752 0.3779
0.7644 0.8492 0.3790
0.6874 0.9165 0.3801
0.6044 0.9766 0.3810
0.5159 1.0289 0.3818
0.4228 1.0727 0.3825
0.3258 1.1078 0.3831
0.2259 1.1336 0.3835
0.1239 1.1500 0.3837
0.0207 1.1568 0.3838
-0.0826 1.1539 0.3838
-0.1851 1.1414 0.3836
-0.2860 1.1193 0.3832
-0.3843 1.0879 0.3828
-0.4791 1.0476 0.3821
-0.5695 0.9986 0.3814
-0.6548 0.9416 0.3805
-0.7343 0.8771 0.3795
-0.8073 0.8057 0.3784
-0.8732 0.7281 0.3772
-0.9315 0.6451 0.3759
-0.9818 0.5573 0.3745
-1.0238 0.4657 0.3731
-1.0570 0.3710 0.3716
-1.0815 0.2741 0.3701
-1.0971 0.1757 0.3686
-2.3549 0.1638 0.7831
-2.3554 -0.0469 0.7815
-1.0908 -0.1197 0.3640
-1.0713 -0.2157 0.3625
-1.0436 -0.3092 0.3611
-1.0079 -0.3995 0.3597
-0.9646 -0.4861 0.3583
-0.9141 -0.5682 0.3571
-0.8569 -0.6453 0.3559
-0.7934 -0.7170 0.3547
-0.7241 -0.7827 0.3537
-0.6497 -0.8420 0.3528
-0.5706 -0.8945 0.3520
-0.4875 -0.9400 0.3513
-0.4010 -0.9781 0.3507
-0.3117 -1.0086 0.3502
-0.2202 -1.0313 0.3498
-0.1272 -1.0462 0.3496
-0.0333 -1.0530 0.3495
0.0608 -1.0518 0.3495
0.1545 -1.0426 0.3497
0.2472 -1.0255 0.3499
0.3381 -1.0004 0.3503
0.4266 -0.9677 0.3508
0.5122 -0.9274 0.3514
0.5942 -0.8798 0.3522
0.6719 -0.8252 0.3530
0.7449 -0.7640 0.3540
0.8125 -0.6965 0.3550
0.8742 -0.6232 0.3562
0.9295 -0.5446 0.3574
0.9779 -0.4611 0.3587
1.0190 -0.3734 0.3600
1.0524 -0.2821 0.3615
1.0777 -0.1878 0.3629
5.5642 -0.4636 1.8523
5.6054 0.0350 1.8596
5.6020 0.5373 1.8669
5.5535 1.0392 1.8743
1.0752 0.3026 0.3705
1.0481 0.3990 0.3720
1.0122 0.4928 0.3735
0.9678 0.5834 0.3749
0.9152 0.6698 0.3762
0.8546 0.7514 0.3775
0.7866 0.8272 0.3787
0.7117 0.8967 0.3798
0.6304 0.9591 0.3807
0.5435 1.0138 0.3816
0.4517 1.0602 0.3823
0.3558 1.0980 0.3829
0.2567 1.1267 0.3833
0.1552 1.1460 0.3837
0.0524 1.1557 0.3838
-0.0510 1.1558 0.3838
-0.1539 1.1462 0.3837
-0.2554 1.1270 0.3834
-0.3545 1.0985 0.3829
-0.4505 1.0608 0.3823
-0.5423 1.0145 0.3816
-0.6293 0.9599 0.3808
-0.7107 0.8976 0.3798
-0.7857 0.8283 0.3787
-0.8539 0.7525 0.3776
-0.9145 0.6710 0.3763
-0.9673 0.5846 0.3750
-1.0118 0.4941 0.3736
-1.0478 0.4003 0.3721
-1.0750 0.3039 0.3706
-1.0933 0.2059 0.3691
-2.3548 0.2287 0.7849
-2.3553 0.0175 0.7814
-1.0950 -0.0899 0.3645
-1.0782 -0.1865 0.3630
-1.0529 -0.2809 0.3615
-1.0197 -0.3723 0.3601
-0.9786 -0.4600 0.3587
-0.9303 -0.5436 0.3574
-0.8751 -0.6223 0.3562
-0.8134 -0.6957 0.3551
-0.7459 -0.7632 0.3540
-0.6730 -0.8245 0.3531
-0.5953 -0.8792 0.3522
-0.5133 -0.9268 0.3515
-0.4278 -0.9672 0.3508
-0.3393 -1.0001 0.3503
-0.2484 -1.0252 0.3499
-0.1558 -1.0425 0.3497
-0.0621 -1.0518 0.3495
0.0320 -1.0531 0.3495
0.1259 -1.0463 0.3496
0.2190 -1.0316 0.3498
0.3105 -1.0089 0.3502
0.3998 -0.9785 0.3507
0.4864 -0.9405 0.3512
0.5695 -0.8951 0.3519
0.6486 -0.8426 0.3528
0.7231 -0.7834 0.3537
0.7924 -0.7178 0.3547
0.8560 -0.6463 0.3558
0.9133 -0.5692 0.3570
0.9639 -0.4871 0.3583
1.0073 -0.4007 0.3596
1.0431 -0.3104 0.3610
1.0709 -0.2169 0.3625
5.5428 -0.6148 1.8501
5.5975 -0.1181 1.8573
5.6078 0.3834 1.8647
5.5731 0.8859 1.8721
1.0817 0.2727 0.3701
1.0573 0.3697 0.3716
1.0241 0.4644 0.3730
0.9823 0.5561 0.3745
0.9322 0.6439 0.3758
0.8740 0.7270 0.3771
0.8082 0.8047 0.3783
0.7353 0.8761 0.3794
0.6559 0.9408 0.3805
0.5706 0.9979 0.3813
0.4803 1.0469 0.3821
0.3855 1.0874 0.3827
0.2873 1.1189 0.3832
0.1865 1.1411 0.3836
0.0839 1.1538 0.3838
-0.0194 1.1568 0.3838
-0.1225 1.1502 0.3837
-0.2245 1.1339 0.3835
-0.3245 1.1082 0.3831
-0.4215 1.0733 0.3825
-0.5147 1.0296 0.3819
-0.6033 0.9775 0.3811
-0.6864 0.9175 0.3801
-0.7635 0.8502 0.3791
-0.8338 0.7763 0.3779
-0.8968 0.6965 0.3767
-0.9520 0.6116 0.3754
-0.9991 0.5222 0.3740
-1.0377 0.4293 0.3725
-1.0676 0.3336 0.3711
-1.0887 0.2360 0.3695
-2.3547 0.2938 0.7872
-2.3551 0.0820 0.7818
-1.0985 -0.0600 0.3650
-1.0842 -0.1572 0.3634
-1.0615 -0.2523 0.3620
-1.0307 -0.3446 0.3605
-0.9920 -0.4336 0.3591
-0.9458 -0.5185 0.3578
-0.8927 -0.5987 0.3566
-0.8329 -0.6738 0.3554
-0.7671 -0.7432 0.3543
-0.6958 -0.8064 0.3534
-0.6195 -0.8632 0.3525
-0.5388 -0.9130 0.3517
-0.4543 -0.9556 0.3510
-0.3666 -0.9908 0.3505
-0.2764 -1.0183 0.3501
-0.1843 -1.0380 0.3497
-0.0908 -1.0498 0.3496
0.0032 -1.0535 0.3495
0.0973 -1.0492 0.3496
0.1906 -1.0369 0.3498
0.2827 -1.0167 0.3501
0.3727 -0.9886 0.3505
0.4602 -0.9529 0.3511
0.5444 -0.9098 0.3517
0.6248 -0.8594 0.3525
0.7008 -0.8022 0.3534
0.7718 -0.7386 0.3544
0.8372 -0.6688 0.3555
0.8964 -0.5933 0.3566
0.9491 -0.5127 0.3579
0.9948 -0.4276 0.3592
1.0329 -0.3384 0.3606
1.0632 -0.2458 0.3620
1.0853 -0.1505 0.3635
5.5854 -0.2709 1.8551
5.6094 0.2296 1.8624
5.5885 0.7322 1.8698
0.9256 0.6098 0.3753
0.8705 0.6923 0.3766
0.8078 0.7697 0.3778
0.7380 0.8412 0.3789
0.6618 0.9061 0.3799
0.5796 0.9638 0.3808
0.4923 1.0138 0.3816
0.4005 1.0555 0.3822
0.3051 1.0885 0.3828
0.2070 1.1124 0.3831
0.1069 1.1271 0.3834
0.0059 1.1324 0.3834
-0.0952 1.1283 0.3834
-0.1954 1.1147 0.3832
-0.2938 1.0918 0.3828
-0.3896 1.0598 0.3823
-0.4818 1.0191 0.3817
-0.5697 0.9701 0.3809
-0.6525 0.9133 0.3801
-0.7295 0.8492 0.3791
-0.8001 0.7784 0.3780
-0.8636 0.7017 0.3768
-0.9197 0.6197 0.3755
-0.9679 0.5332 0.3742
-1.0078 0.4431 0.3728
-1.0393 0.3500 0.3713
-1.0621 0.2548 0.3698
-1.0763 0.1584 0.3683
-1.0817 0.0614 0.3668
-1.0784 -0.0352 0.3653
-1.0666 -0.1308 0.3639
-1.0465 -0.2246 0.3624
-1.0182 -0.3158 0.3610
-0.9823 -0.4039 0.3596
-0.9389 -0.4882 0.3583
-0.8885 -0.5680 0.3571
-0.8315 -0.6430 0.3559
-0.7685 -0.7124 0.3548
-0.6998 -0.7760 0.3538
-0.6262 -0.8333 0.3529
-0.5481 -0.8839 0.3521
-0.4661 -0.9275 0.3515
-0.3809 -0.9638 0.3509
-0.2930 -0.9927 0.3505
-0.2030 -1.0139 0.3501
-0.1116 -1.0274 0.3499
-0.0195 -1.0330 0.3498
0.0728 -1.0307 0.3499
0.1645 -1.0205 0.3500
0.2552 -1.0026 0.3503
0.3440 -0.9769 0.3507
0.4305 -0.9437 0.3512
0.5139 -0.9031 0.3518
0.5937 -0.8554 0.3526
0.6693 -0.8009 0.3534
0.7400 -0.7400 0.3544
0.8055 -0.6730 0.3554
0.8651 -0.6003 0.3565
0.9183 -0.5224 0.3577
0.9647 -0.4400 0.3590
1.0039 -0.3534 0.3603
1.0354 -0.2634 0.3617
1.0590 -0.1707 0.3632
1.0743 -0.0758 0.3647
1.0812 0.0205 0.3662
1.0795 0.1174 0.3677
1.0690 0.2141 0.3692
1.0499 0.3100 0.3706
1.0220 0.4040 0.3721
0.9856 0.4955 0.3735
0.9409 0.5836 0.3749
0.8882 0.6676 0.3762
0.8277 0.7466 0.3774
0.7601 0.8200 0.3786
0.6857 0.8870 0.3796
0.6053 0.9470 0.3806
0.5195 0.9993 0.3814
0.4290 1.0436 0.3821
0.3347 1.0793 0.3826
0.2373 1.1061 0.3830
0.1377 1.1236 0.3833
0.0369 1.1318 0.3834
-0.0643 1.1305 0.3834
-0.1649 1.1198 0.3833
-0.2639 1.0997 0.3829
-0.3606 1.0705 0.3825
-0.4540 1.0325 0.3819
-0.5433 0.9860 0.3812
-0.6278 0.9315 0.3803
-0.7066 0.8695 0.3794
-0.7792 0.8007 0.3783
-0.8449 0.7258 0.3771
-0.9034 0.6453 0.3759
-0.9540 0.5601 0.3746
-0.9965 0.4710 0.3732
-1.0306 0.3787 0.3718
-1.0561 0.2841 0.3703
-1.0729 0.1880 0.3688
-1.0809 0.0911 0.3673
-1.0803 -0.0057 0.3658
-1.0711 -0.1017 0.3643
-1.0535 -0.1961 0.3628
-1.0277 -0.2882 0.3614
-0.9941 -0.3773 0.3600
-0.9529 -0.4628 0.3587
-0.9046 -0.5441 0.3574
-0.8496 -0.6206 0.3562
-0.7884 -0.6918 0.3551
-0.7214 -0.7572 0.3541
-0.6492 -0.8164 0.3532
-0.5725 -0.8691 0.3524
-0.4916 -0.9149 0.3517
-0.4073 -0.9535 0.3511
-0.3201 -0.9847 0.3506
-0.2307 -1.0082 0.3502
-0.1397 -1.0241 0.3500
-0.0478 -1.0321 0.3498
0.0446 -1.0322 0.3498
0.1365 -1.0245 0.3499
0.2276 -1.0089 0.3502
0.3171 -0.9856 0.3505
0.4043 -0.9546 0.3510
0.4887 -0.9163 0.3516
0.5697 -0.8708 0.3523
0.6466 -0.8183 0.3531
0.7189 -0.7593 0.3541
0.7861 -0.6941 0.3551
0.8475 -0.6231 0.3562
0.9027 -0.5468 0.3573
0.9512 -0.4657 0.3586
0.9927 -0.3803 0.3599
1.0266 -0.2913 0.3613
1.0526 -0.1993 0.3627
1.0705 -0.1050 0.3642
1.0800 -0.0091 0.3657
1.0809 0.0877 0.3672
1.0732 0.1846 0.3687
1.0567 0.2808 0.3702
1.0315 0.3754 0.3717
0.9977 0.4678 0.3731
0.9555 0.5570 0.3745
0.9051 0.6424 0.3758
0.8470 0.7230 0.3771
0.7815 0.7982 0.3782
0.7092 0.8672 0.3793
0.6306 0.9294 0.3803
0.5463 0.9842 0.3811
0.4572 1.0310 0.3819
0.3639 1.0693 0.3825
0.2673 1.0988 0.3829
0.1683 1.1192 0.3832
0.0678 1.1303 0.3834
-0.0334 1.1319 0.3834
-0.1342 1.1241 0.3833
-0.2338 1.1069 0.3831
-0.3313 1.0804 0.3826
-0.4258 1.0450 0.3821
-0.5165 1.0011 0.3814
-0.6025 0.9490 0.3806
-0.6831 0.8892 0.3797
-0.7577 0.8225 0.3786
-0.8256 0.7493 0.3775
-0.8863 0.6705 0.3763
-0.9393 0.5867 0.3750
-0.9843 0.4987 0.3736
-1.0210 0.4073 0.3722
-1.0492 0.3133 0.3707
-1.0686 0.2175 0.3693
-1.0794 0.1208 0.3678
-1.0814 0.0239 0.3663
-1.0748 -0.0725 0.3648
-1.0598 -0.1674 0.3633
-1.0365 -0.2603 0.3618
-1.0052 -0.3504 0.3604
-0.9663 -0.4371 0.3591
-0.9201 -0.5197 0.3578
-0.8671 -0.5977 0.3566
-0.8077 -0.6706 0.3555
-0.7425 -0.7378 0.3544
-0.6718 -0.7990 0.3535
-0.5964 -0.8537 0.3526
-0.5167 -0.9016 0.3519
-0.4334 -0.9424 0.3512
-0.3471 -0.9759 0.3507
-0.2583 -1.0018 0.3503
-0.1677 -1.0201 0.3500
-0.0760 -1.0305 0.3499
0.0163 -1.0330 0.3498
0.1085 -1.0277 0.3499
0.1999 -1.0145 0.3501
0.2899 -0.9935 0.3504
0.3779 -0.9649 0.3509
0.4632 -0.9288 0.3514
0.5453 -0.8854 0.3521
0.6235 -0.8351 0.3529
0.6973 -0.7780 0.3538
0.7661 -0.7147 0.3547
0.8293 -0.6454 0.3558
0.8865 -0.5707 0.3570
0.9371 -0.4910 0.3582
0.9808 -0.4068 0.3595
1.0170 -0.3189 0.3609
1.0455 -0.2277 0.3623
1.0659 -0.1341 0.3638
1.0780 -0.0385 0.3652
1.0816 0.0581 0.3667
1.0765 0.1550 0.3682
1.0626 0.2515 0.3697
1.0401 0.3467 0.3712
1.0089 0.4398 0.3727
0.9693 0.5301 0.3741
0.9214 0.6167 0.3754
0.8656 0.6989 0.3767
0.8023 0.7758 0.3779
0.7320 0.8468 0.3790
0.6552 0.9111 0.3800
0.5727 0.9682 0.3809
0.4849 1.0175 0.3816
0.3928 1.0585 0.3823
0.2972 1.0908 0.3828
0.1988 1.1140 0.3832
0.0987 1.1279 0.3834
-0.0024 1.1324 0.3834
-0.1034 1.1275 0.3834
-0.2035 1.1131 0.3831
-0.3018 1.0895 0.3828
-0.3973 1.0568 0.3823
-0.4892 1.0154 0.3816
-0.5767 0.9658 0.3809
-0.6591 0.9083 0.3800
-0.7355 0.8436 0.3790
-0.8055 0.7724 0.3779
-0.8685 0.6952 0.3767
-0.9239 0.6128 0.3754
-0.9714 0.5260 0.3740
-1.0107 0.4356 0.3726
-1.0415 0.3423 0.3712
-1.0636 0.2470 0.3697
-1.0770 0.1504 0.3682
-1.0817 0.0535 0.3667
-1.0777 -0.0431 0.3652
-1.0653 -0.1385 0.3637
-1.0445 -0.2321 0.3623
-1.0156 -0.3232 0.3609
-0.9790 -0.4109 0.3595
-0.9350 -0.4949 0.3582
-0.8840 -0.5744 0.3570
-0.8266 -0.6489 0.3558
-0.7630 -0.7179 0.3547
-0.6940 -0.7809 0.3537
-0.6200 -0.8377 0.3529
-0.5415 -0.8877 0.3521
-0.4593 -0.9307 0.3514
-0.3738 -0.9665 0.3509
-0.2857 -0.9947 0.3504
-0.1956 -1.0153 0.3501
-0.1041 -1.0281 0.3499
-0.0120 -1.0331 0.3498
0.0803 -1.0301 0.3499
0.1720 -1.0194 0.3500
0.2625 -1.0008 0.3503
0.3512 -0.9745 0.3507
0.4374 -0.9406 0.3512
0.5206 -0.8995 0.3519
0.6000 -0.8512 0.3526
0.6752 -0.7962 0.3535
0.7456 -0.7347 0.3544
0.8106 -0.6672 0.3555
0.8697 -0.5941 0.3566
0.9224 -0.5159 0.3578
0.9682 -0.4330 0.3591
1.0067 -0.3462 0.3605
1.0376 -0.2559 0.3619
1.0605 -0.1630 0.3633
1.0752 -0.0679 0.3648
1.0814 0.0284 0.3663
1.0789 0.1253 0.3678
1.0678 0.2220 0.3693
1.0479 0.3177 0.3708
1.0194 0.4116 0.3722
0.9823 0.5028 0.3736
0.9369 0.5907 0.3750
0.8835 0.6742 0.3763
0.8225 0.7528 0.3775
0.7542 0.8257 0.3787
0.6794 0.8922 0.3797
0.5985 0.9515 0.3806
0.5123 1.0033 0.3814
0.4214 1.0469 0.3821
0.3268 1.0818 0.3827
0.2292 1.1079 0.3831
0.1295 1.1247 0.3833
0.0286 1.1321 0.3834
-0.0726 1.1300 0.3834
-0.1730 1.1185 0.3832
-0.2720 1.0977 0.3829
-0.3684 1.0677 0.3824
-0.4615 1.0290 0.3818
-0.5504 0.9818 0.3811
-0.6344 0.9267 0.3803
-0.7128 0.8642 0.3793
-0.7848 0.7948 0.3782
-0.8500 0.7194 0.3770
-0.9078 0.6385 0.3758
-0.9578 0.5530 0.3745
-0.9996 0.4636 0.3731
-1.0330 0.3711 0.3716
-1.0578 0.2763 0.3702
-1.0739 0.1801 0.3687
-1.0812 0.0832 0.3672
-1.0799 -0.0136 0.3657
-1.0700 -0.1095 0.3642
-1.0517 -0.2037 0.3627
-1.0253 -0.2956 0.3613
-0.9910 -0.3845 0.3599
-0.9492 -0.4696 0.3586
-0.9003 -0.5505 0.3573
-0.8448 -0.6266 0.3561
-0.7831 -0.6974 0.3550
-0.7157 -0.7623 0.3540
-0.6431 -0.8210 0.3531
-0.5660 -0.8731 0.3523
-0.4848 -0.9183 0.3516
-0.4003 -0.9563 0.3510
-0.3129 -0.9869 0.3505
-0.2233 -1.0098 0.3502
-0.1322 -1.0250 0.3499
-0.0402 -1.0324 0.3498
0.0521 -1.0319 0.3498
0.1440 -1.0235 0.3500
0.2350 -1.0073 0.3502
0.3243 -0.9833 0.3506
0.4113 -0.9518 0.3511
0.4955 -0.9128 0.3517
0.5761 -0.8667 0.3524
0.6527 -0.8137 0.3532
0.7246 -0.7542 0.3541
0.7913 -0.6885 0.3552
0.8523 -0.6170 0.3563
0.9069 -0.5403 0.3574
0.9549 -0.4588 0.3587
0.9957 -0.3731 0.3600
1.0290 -0.2839 0.3614
1.0544 -0.1917 0.3629
1.0716 -0.0972 0.3643
1.0804 -0.0012 0.3658
1.0806 0.0957 0.3673
1.0721 0.1925 0.3688
1.0549 0.2886 0.3703
1.0290 0.3831 0.3718
0.9945 0.4752 0.3732
0.9517 0.5642 0.3746
0.9007 0.6492 0.3759
0.8419 0.7294 0.3772
0.7759 0.8041 0.3783
0.7030 0.8725 0.3794
0.6239 0.9342 0.3804
0.5392 0.9883 0.3812
0.4497 1.0344 0.3819
0.3561 1.0721 0.3825
0.2593 1.1009 0.3829
0.1601 1.1205 0.3833
0.0595 1.1308 0.3834
-0.0416 1.1317 0.3834
-0.1424 1.1230 0.3833
-0.2419 1.1050 0.3830
-0.3392 1.0779 0.3826
-0.4334 1.0418 0.3820
-0.5237 0.9971 0.3814
-0.6093 0.9444 0.3805
-0.6895 0.8840 0.3796
-0.7635 0.8167 0.3786
-0.8308 0.7431 0.3774
-0.8909 0.6638 0.3762
-0.9433 0.5796 0.3749
-0.9877 0.4913 0.3735
-1.0237 0.3997 0.3721
-1.0511 0.3055 0.3706
-1.0699 0.2096 0.3691
-1.0799 0.1128 0.3676
-1.0812 0.0159 0.3661
-1.0739 -0.0803 0.3646
-1.0582 -0.1751 0.3632
-1.0342 -0.2678 0.3617
-1.0023 -0.3576 0.3603
-0.9628 -0.4440 0.3590
-0.9160 -0.5263 0.3577
-0.8625 -0.6039 0.3565
-0.8026 -0.6763 0.3554
-0.7369 -0.7431 0.3543
-0.6658 -0.8037 0.3534
-0.5900 -0.8579 0.3526
-0.5101 -0.9052 0.3518
-0.4265 -0.9455 0.3512
-0.3399 -0.9783 0.3507
-0.2509 -1.0036 0.3503
-0.1602 -1.0212 0.3500
-0.0684 -1.0310 0.3499
0.0239 -1.0329 0.3498
0.1160 -1.0269 0.3499
0.2073 -1.0131 0.3501
0.2972 -0.9915 0.3505
0.3850 -0.9622 0.3509
0.4701 -0.9255 0.3515
0.5519 -0.8816 0.3522
0.6297 -0.8307 0.3529
0.7031 -0.7731 0.3538
0.7715 -0.7092 0.3548
0.8342 -0.6395 0.3559
0.8909 -0.5643 0.3571
0.9410 -0.4842 0.3583
0.9840 -0.3998 0.3596
1.0196 -0.3115 0.3610
1.0475 -0.2202 0.3624
1.0672 -0.1263 0.3639
1.0786 -0.0307 0.3654
1.0815 0.0660 0.3669
1.0757 0.1629 0.3684
1.0611 0.2593 0.3699
1.0379 0.3544 0.3713
1.0060 0.4473 0.3728
0.9657 0.5374 0.3742
0.9171 0.6236 0.3755
0.8607 0.7054 0.3768
0.7968 0.7818 0.3780
0.7260 0.8523 0.3791
0.6487 0.9161 0.3801
0.5657 0.9726 0.3809
0.4775 1.0212 0.3817
0.3851 1.0615 0.3823
0.2892 1.0930 0.3828
0.1907 1.1155 0.3832
0.0904 1.1287 0.3834
-0.0107 1.1324 0.3834
-0.1117 1.1267 0.3834
-0.2117 1.1115 0.3831
-0.3097 1.0871 0.3827
-0.4050 1.0537 0.3822
-0.4965 1.0117 0.3816
-0.5836 0.9613 0.3808
-0.6655 0.9033 0.3799
-0.7415 0.8380 0.3789
-0.8110 0.7662 0.3778
-0.8733 0.6886 0.3766
-0.9281 0.6058 0.3753
-0.9750 0.5187 0.3739
-1.0135 0.4280 0.3725
-1.0436 0.3345 0.3711
-1.0650 0.2391 0.3696
-1.0777 0.1425 0.3681
-1.0817 0.0456 0.3666
-1.0770 -0.0510 0.3651
-1.0639 -0.1463 0.3636
-1.0424 -0.2397 0.3622
-1.0129 -0.3305 0.3607
-0.9757 -0.4180 0.3594
-0.9311 -0.5016 0.3581
-0.8796 -0.5807 0.3569
-0.8216 -0.6547 0.3557
-0.7576 -0.7233 0.3546
-0.6881 -0.7858 0.3537
-0.6137 -0.8420 0.3528
-0.5349 -0.8915 0.3520
-0.4524 -0.9339 0.3514
-0.3667 -0.9691 0.3508
-0.2784 -0.9967 0.3504
-0.1881 -1.0166 0.3501
-0.0966 -1.0288 0.3499
-0.0044 -1.0331 0.3498
0.0878 -1.0296 0.3499
0.1795 -1.0181 0.3500
0.2699 -0.9989 0.3503
0.3584 -0.9720 0.3508
0.4443 -0.9375 0.3513
0.5272 -0.8958 0.3519
0.6064 -0.8470 0.3527
0.6812 -0.7914 0.3536
0.7511 -0.7294 0.3545
0.8157 -0.6614 0.3556
0.8742 -0.5879 0.3567
0.9264 -0.5092 0.3579
0.9716 -0.4261 0.3592
1.0095 -0.3389 0.3606
1.0398 -0.2484 0.3620
1.0620 -0.1552 0.3634
1.0760 -0.0601 0.3649
1.0815 0.0363 0.3664
1.0784 0.1333 0.3679
1.0665 0.2299 0.3694
1.0459 0.3255 0.3709
1.0167 0.4192 0.3723
0.9789 0.5102 0.3738
0.9328 0.5977 0.3751
0.8788 0.6809 0.3764
0.8171 0.7590 0.3776
0.7484 0.8314 0.3788
0.6730 0.8973 0.3798
0.5916 0.9561 0.3807
0.5050 1.0072 0.3815
0.4138 1.0500 0.3822
0.3189 1.0843 0.3827
0.2211 1.1096 0.3831
0.1212 1.1256 0.3833
0.0203 1.1323 0.3834
-0.0808 1.1294 0.3834
-0.1812 1.1172 0.3832
-0.2800 1.0956 0.3829
-0.3762 1.0649 0.3824
-0.4689 1.0254 0.3818
-0.5575 0.9776 0.3811
-0.6411 0.9218 0.3802
-0.7189 0.8587 0.3792
-0.7904 0.7889 0.3781
-0.8550 0.7129 0.3769
-0.9122 0.6317 0.3757
-0.9615 0.5458 0.3744
-1.0026 0.4561 0.3730
-1.0353 0.3634 0.3715
-1.0594 0.2685 0.3701
-1.0748 0.1721 0.3686
-1.0814 0.0752 0.3671
-1.0794 -0.0215 0.3655
-1.0688 -0.1173 0.3641
-1.0498 -0.2113 0.3626
-1.0228 -0.3030 0.3612
-0.9878 -0.3916 0.3598
-0.9455 -0.4764 0.3585
-0.8960 -0.5570 0.3572
-0.8400 -0.6326 0.3561
-0.7778 -0.7029 0.3550
-0.7099 -0.7673 0.3540
-0.6370 -0.8255 0.3531
-0.5595 -0.8771 0.3523
-0.4780 -0.9217 0.3516
-0.3932 -0.9591 0.3510
-0.3056 -0.9890 0.3505
-0.2159 -1.0114 0.3502
-0.1247 -1.0259 0.3499
-0.0326 -1.0327 0.3498
0.0597 -1.0315 0.3498
0.1515 -1.0225 0.3500
0.2424 -1.0056 0.3502
0.3315 -0.9810 0.3506
0.4183 -0.9489 0.3511
0.5022 -0.9093 0.3517
0.5826 -0.8626 0.3525
0.6588 -0.8091 0.3533
0.7303 -0.7490 0.3542
0.7965 -0.6828 0.3552
0.8570 -0.6109 0.3564
0.9111 -0.5338 0.3576
0.9585 -0.4520 0.3588
0.9987 -0.3660 0.3602
1.0314 -0.2764 0.3615
1.0561 -0.1840 0.3630
1.0726 -0.0894 0.3644
1.0807 0.0068 0.3659
1.0802 0.1036 0.3674
1.0711 0.2004 0.3689
1.0531 0.2964 0.3704
1.0265 0.3908 0.3719
0.9913 0.4827 0.3733
0.9478 0.5713 0.3747
0.8961 0.6559 0.3760
0.8368 0.7357 0.3773
0.7701 0.8099 0.3784
0.6967 0.8779 0.3795
0.6171 0.9389 0.3804
0.5320 0.9924 0.3813
0.4422 1.0378 0.3820
0.3483 1.0748 0.3825
0.2513 1.1028 0.3830
0.1520 1.1217 0.3833
0.0513 1.1312 0.3834
-0.0499 1.1313 0.3834
-0.1506 1.1219 0.3833
-0.2500 1.1032 0.3830
-0.3470 1.0752 0.3826
-0.4410 1.0384 0.3820
-0.5309 0.9931 0.3813
-0.6161 0.9397 0.3805
-0.6958 0.8788 0.3795
-0.7693 0.8109 0.3785
-0.8360 0.7368 0.3773
-0.8955 0.6571 0.3761
-0.9473 0.5725 0.3748
-0.9909 0.4839 0.3734
-1.0262 0.3920 0.3720
-1.0530 0.2977 0.3705
-1.0710 0.2017 0.3690
-1.0803 0.1049 0.3675
-1.0809 0.0080 0.3660
-1.0729 -0.0881 0.3645
-1.0565 -0.1828 0.3630
-1.0319 -0.2753 0.3616
-0.9993 -0.3648 0.3602
-0.9592 -0.4509 0.3589
-0.9119 -0.5328 0.3576
-0.8578 -0.6100 0.3564
-0.7974 -0.6820 0.3553
-0.7313 -0.7483 0.3543
-0.6598 -0.8084 0.3533
-0.5836 -0.8620 0.3525
-0.5033 -0.9088 0.3518
-0.4195 -0.9484 0.3511
-0.3327 -0.9807 0.3506
-0.2436 -1.0053 0.3503
-0.1528 -1.0223 0.3500
-0.0609 -1.0314 0.3498
0.0314 -1.0327 0.3498
0.1235 -1.0261 0.3499
0.2147 -1.0116 0.3501
0.3044 -0.9894 0.3505
0.3920 -0.9595 0.3510
0.4769 -0.9222 0.3515
0.5584 -0.8777 0.3522
0.6359 -0.8262 0.3530
0.7089 -0.7681 0.3539
0.7768 -0.7037 0.3549
0.8391 -0.6335 0.3560
0.8952 -0.5579 0.3572
0.9448 -0.4775 0.3584
0.9872 -0.3927 0.3597
1.0222 -0.3042 0.3611
1.0494 -0.2126 0.3625
1.0685 -0.1185 0.3640
1.0792 -0.0228 0.3655
1.0813 0.0739 0.3670
1.0748 0.1708 0.3685
1.0595 0.2672 0.3700
1.0356 0.3621 0.3715
1.0030 0.4548 0.3729
0.9620 0.5446 0.3743
0.9128 0.6305 0.3756
0.8557 0.7118 0.3769
0.7913 0.7878 0.3781
0.7199 0.8578 0.3792
0.6421 0.9210 0.3801
0.5586 0.9768 0.3810
0.4701 1.0248 0.3818
0.3774 1.0644 0.3824
0.2812 1.0952 0.3829
0.1825 1.1169 0.3832
0.0822 1.1293 0.3834
-0.0190 1.1323 0.3834
-0.1199 1.1258 0.3833
-0.2198 1.1099 0.3831
-0.3176 1.0847 0.3827
-0.4126 1.0506 0.3822
-0.5038 1.0078 0.3815
-0.5906 0.9569 0.3807
-0.6720 0.8982 0.3798
-0.7475 0.8324 0.3788
-0.8163 0.7601 0.3777
-0.8781 0.6820 0.3765
-0.9323 0.5989 0.3752
-0.9784 0.5114 0.3738
-1.0163 0.4204 0.3724
-1.0457 0.3268 0.3710
-1.0664 0.2312 0.3695
-1.0784 0.1346 0.3680
-1.0817 0.0376 0.3665
-1.0763 -0.0588 0.3650
-1.0624 -0.1540 0.3635
-1.0403 -0.2472 0.3620
-1.0101 -0.3378 0.3606
-0.9723 -0.4250 0.3593
-0.9271 -0.5082 0.3580
-0.8751 -0.5869 0.3568
-0.8166 -0.6605 0.3556
-0.7521 -0.7286 0.3546
-0.6822 -0.7907 0.3536
-0.6074 -0.8463 0.3527
-0.5283 -0.8952 0.3520
-0.4455 -0.9371 0.3513
-0.3595 -0.9716 0.3508
-0.2711 -0.9986 0.3504
-0.1807 -1.0179 0.3501
-0.0891 -1.0295 0.3499
0.0032 -1.0331 0.3498
0.0954 -1.0289 0.3499
0.1869 -1.0168 0.3501
0.2772 -0.9970 0.3504
0.3655 -0.9694 0.3508
0.4513 -0.9344 0.3513
0.5338 -0.8920 0.3520
0.6127 -0.8427 0.3528
0.6871 -0.7866 0.3536
0.7566 -0.7241 0.3546
0.8207 -0.6556 0.3557
0.8788 -0.5816 0.3568
0.9303 -0.5026 0.3580
0.9750 -0.4191 0.3593
1.0123 -0.3316 0.3607
1.0419 -0.2409 0.3621
1.0635 -0.1475 0.3635
1.0768 -0.0522 0.3650
1.0816 0.0443 0.3665
1.0777 0.1412 0.3680
0.9067 0.5973 0.3751
0.8526 0.6781 0.3764
0.7912 0.7539 0.3775
0.7228 0.8239 0.3786
0.6481 0.8874 0.3796
0.5676 0.9439 0.3805
0.4821 0.9927 0.3813
0.3922 1.0335 0.3819
0.2988 1.0658 0.3824
0.2027 1.0893 0.3828
0.1047 1.1036 0.3830
0.0058 1.1088 0.3831
-0.0932 1.1047 0.3830
-0.1913 1.0914 0.3828
-0.2877 1.0690 0.3825
-0.3815 1.0378 0.3820
-0.4718 0.9980 0.3814
-0.5579 0.9500 0.3806
-0.6390 0.8944 0.3798
-0.7145 0.8317 0.3788
-0.7836 0.7624 0.3777
-0.8459 0.6873 0.3765
-0.9009 0.6071 0.3753
-0.9482 0.5224 0.3740
-0.9874 0.4341 0.3726
-1.0183 0.3429 0.3712
-1.0408 0.2497 0.3698
-1.0547 0.1552 0.3683
-1.0601 0.0602 0.3668
-1.0570 -0.0345 0.3653
-1.0455 -0.1282 0.3639
-1.0258 -0.2201 0.3625
-0.9982 -0.3096 0.3611
-0.9630 -0.3960 0.3597
-0.9205 -0.4786 0.3584
-0.8712 -0.5570 0.3572
-0.8154 -0.6305 0.3561
-0.7536 -0.6987 0.3550
-0.6864 -0.7611 0.3541
-0.6142 -0.8173 0.3532
-0.5376 -0.8669 0.3524
-0.4572 -0.9097 0.3517
-0.3736 -0.9454 0.3512
-0.2874 -0.9737 0.3507
-0.1991 -0.9946 0.3504
-0.1095 -1.0078 0.3502
-0.0191 -1.0133 0.3501
0.0714 -1.0110 0.3502
0.1614 -1.0011 0.3503
0.2503 -0.9834 0.3506
0.3374 -0.9582 0.3510
0.4222 -0.9256 0.3515
0.5040 -0.8858 0.3521
0.5823 -0.8390 0.3528
0.6564 -0.7855 0.3536
0.7258 -0.7257 0.3546
0.7899 -0.6599 0.3556
0.8483 -0.5886 0.3567
0.9004 -0.5123 0.3579
0.9458 -0.4314 0.3591
0.9842 -0.3465 0.3605
1.0150 -0.2582 0.3618
1.0380 -0.1673 0.3632
1.0530 -0.0743 0.3647
1.0596 0.0201 0.3661
1.0579 0.1151 0.3676
1.0476 0.2098 0.3691
1.0287 0.3037 0.3706
1.0013 0.3958 0.3720
0.9656 0.4854 0.3734
0.9217 0.5717 0.3747
0.8700 0.6539 0.3760
0.8107 0.7313 0.3772
0.7444 0.8031 0.3783
0.6716 0.8687 0.3793
0.5928 0.9274 0.3802
0.5087 0.9786 0.3810
0.4201 1.0219 0.3817
0.3277 1.0568 0.3823
0.2323 1.0830 0.3827
0.1348 1.1002 0.3829
0.0361 1.1082 0.3831
-0.0630 1.1070 0.3830
-0.1614 1.0965 0.3829
-0.2584 1.0768 0.3826
-0.3531 1.0483 0.3821
-0.4446 1.0110 0.3816
-0.5321 0.9655 0.3809
-0.6148 0.9122 0.3800
-0.6920 0.8516 0.3791
-0.7632 0.7843 0.3781
-0.8276 0.7109 0.3769
-0.8849 0.6321 0.3757
-0.9345 0.5487 0.3744
-0.9762 0.4615 0.3730
-1.0097 0.3711 0.3716
-1.0348 0.2784 0.3702
-1.0513 0.1842 0.3687
-1.0593 0.0893 0.3673
-1.0588 -0.0056 0.3658
-1.0499 -0.0997 0.3643
-1.0327 -0.1922 0.3629
-1.0075 -0.2825 0.3615
-0.9746 -0.3699 0.3601
-0.9343 -0.4538 0.3588
-0.8870 -0.5335 0.3576
-0.8331 -0.6085 0.3564
-0.7731 -0.6784 0.3553
-0.7075 -0.7426 0.3543
-0.6368 -0.8007 0.3534
-0.5615 -0.8524 0.3526
-0.4822 -0.8974 0.3519
-0.3995 -0.9352 0.3513
-0.3140 -0.9658 0.3509
-0.2263 -0.9890 0.3505
-0.1371 -1.0046 0.3503
-0.0468 -1.0124 0.3501
0.0437 -1.0125 0.3501
0.1339 -1.0049 0.3503
0.2232 -0.9896 0.3505
0.3110 -0.9667 0.3508
0.3966 -0.9364 0.3513
0.4794 -0.8987 0.3519
0.5587 -0.8540 0.3526
0.6342 -0.8026 0.3534
0.7051 -0.7447 0.3543
0.7709 -0.6807 0.3553
0.8311 -0.6110 0.3564
0.8851 -0.5361 0.3575
0.9327 -0.4566 0.3587
0.9732 -0.3728 0.3600
1.0064 -0.2856 0.3614
1.0318 -0.1954 0.3628
1.0493 -0.1029 0.3642
1.0585 -0.0089 0.3657
1.0593 0.0860 0.3672
1.0516 0.1809 0.3686
1.0354 0.2751 0.3701
1.0106 0.3679 0.3715
0.9774 0.4583 0.3730
0.9360 0.5457 0.3743
0.8866 0.6292 0.3756
0.8296 0.7082 0.3768
0.7654 0.7817 0.3780
0.6945 0.8493 0.3790
0.6175 0.9102 0.3800
0.5350 0.9638 0.3808
0.4477 1.0095 0.3815
0.3563 1.0471 0.3821
0.2618 1.0760 0.3826
0.1648 1.0959 0.3829
0.0664 1.1067 0.3830
-0.0327 1.1083 0.3831
-0.1314 1.1007 0.3830
-0.2290 1.0838 0.3827
-0.3244 1.0579 0.3823
-0.4170 1.0233 0.3818
-0.5058 0.9803 0.3811
-0.5900 0.9293 0.3803
-0.6690 0.8709 0.3794
-0.7421 0.8055 0.3784
-0.8086 0.7339 0.3773
-0.8681 0.6567 0.3761
-0.9202 0.5747 0.3748
-0.9643 0.4885 0.3735
-1.0003 0.3990 0.3721
-1.0280 0.3070 0.3706
-1.0472 0.2131 0.3692
-1.0578 0.1184 0.3677
-1.0599 0.0234 0.3662
-1.0535 -0.0710 0.3648
-1.0388 -0.1641 0.3633
-1.0160 -0.2552 0.3619
-0.9855 -0.3435 0.3605
-0.9474 -0.4285 0.3592
-0.9022 -0.5096 0.3580
-0.8503 -0.5861 0.3568
-0.7921 -0.6576 0.3557
-0.7281 -0.7236 0.3546
-0.6589 -0.7836 0.3537
-0.5850 -0.8373 0.3529
-0.5068 -0.8843 0.3521
-0.4251 -0.9244 0.3515
-0.3404 -0.9573 0.3510
-0.2534 -0.9827 0.3506
-0.1645 -1.0006 0.3503
-0.0745 -1.0108 0.3502
0.0160 -1.0133 0.3501
0.1064 -1.0081 0.3502
0.1961 -0.9951 0.3504
0.2843 -0.9745 0.3507
0.3706 -0.9465 0.3512
0.4543 -0.9110 0.3517
0.5348 -0.8685 0.3524
0.6115 -0.8190 0.3531
0.6839 -0.7631 0.3540
0.7513 -0.7009 0.3550
0.8133 -0.6329 0.3560
0.8693 -0.5596 0.3572
0.9188 -0.4814 0.3584
0.9616 -0.3989 0.3596
0.9970 -0.3126 0.3610
1.0249 -0.2232 0.3624
1.0448 -0.1314 0.3638
1.0566 -0.0378 0.3652
1.0600 0.0569 0.3667
1.0549 0.1519 0.3682
1.0413 0.2464 0.3697
1.0191 0.3397 0.3711
0.9885 0.4309 0.3725
0.9495 0.5193 0.3739
0.9026 0.6041 0.3752
0.8479 0.6845 0.3765
0.7858 0.7598 0.3776
0.7169 0.8293 0.3787
0.6417 0.8923 0.3797
0.5608 0.9482 0.3806
0.4749 0.9964 0.3813
0.3847 1.0365 0.3819
0.2910 1.0681 0.3824
0.1947 1.0908 0.3828
0.0966 1.1044 0.3830
-0.0023 1.1088 0.3831
-0.1013 1.1040 0.3830
-0.1993 1.0899 0.3828
-0.2955 1.0668 0.3824
-0.3890 1.0348 0.3819
-0.4790 0.9943 0.3813
-0.5648 0.9457 0.3806
-0.6454 0.8895 0.3797
-0.7204 0.8262 0.3787
-0.7890 0.7565 0.3776
-0.8507 0.6809 0.3765
-0.9051 0.6003 0.3752
-0.9517 0.5153 0.3739
-0.9902 0.4267 0.3725
-1.0204 0.3354 0.3711
-1.0422 0.2420 0.3696
-1.0554 0.1474 0.3682
-1.0601 0.0524 0.3667
-1.0563 -0.0422 0.3652
-1.0442 -0.1358 0.3638
-1.0239 -0.2276 0.3623
-0.9956 -0.3168 0.3610
-0.9598 -0.4029 0.3596
-0.9168 -0.4852 0.3583
-0.8668 -0.5632 0.3571
-0.8105 -0.6363 0.3560
-0.7483 -0.7040 0.3549
-0.6806 -0.7659 0.3540
-0.6081 -0.8216 0.3531
-0.5312 -0.8707 0.3524
-0.4505 -0.9129 0.3517
-0.3666 -0.9480 0.3511
-0.2802 -0.9757 0.3507
-0.1919 -0.9959 0.3504
-0.1021 -1.0085 0.3502
-0.0117 -1.0134 0.3501
0.0788 -1.0105 0.3502
0.1687 -0.9999 0.3503
0.2575 -0.9817 0.3506
0.3445 -0.9558 0.3510
0.4290 -0.9226 0.3515
0.5106 -0.8822 0.3521
0.5885 -0.8349 0.3529
0.6622 -0.7809 0.3537
0.7312 -0.7205 0.3547
0.7949 -0.6543 0.3557
0.8528 -0.5826 0.3568
0.9044 -0.5058 0.3580
0.9492 -0.4246 0.3592
0.9870 -0.3394 0.3606
1.0172 -0.2509 0.3619
1.0396 -0.1597 0.3634
1.0538 -0.0666 0.3648
1.0598 0.0279 0.3663
1.0573 0.1228 0.3677
1.0463 0.2176 0.3692
1.0268 0.3113 0.3707
0.9987 0.4033 0.3721
0.9623 0.4926 0.3735
0.9178 0.5786 0.3748
0.8654 0.6604 0.3761
0.8056 0.7374 0.3773
0.7387 0.8087 0.3784
0.6654 0.8737 0.3794
0.5861 0.9318 0.3803
0.5016 0.9825 0.3811
0.4127 1.0251 0.3818
0.3200 1.0593 0.3823
0.2244 1.0848 0.3827
0.1268 1.1012 0.3830
0.0280 1.1085 0.3831
-0.0711 1.1065 0.3830
-0.1694 1.0952 0.3829
-0.2663 1.0748 0.3826
-0.3607 1.0455 0.3821
-0.4519 1.0076 0.3815
-0.5390 0.9615 0.3808
-0.6213 0.9075 0.3800
-0.6981 0.8463 0.3790
-0.7687 0.7785 0.3780
-0.8326 0.7046 0.3768
-0.8892 0.6255 0.3756
-0.9382 0.5417 0.3743
-0.9793 0.4542 0.3729
-1.0121 0.3636 0.3715
-1.0365 0.2707 0.3701
-1.0523 0.1765 0.3686
-1.0596 0.0815 0.3671
-1.0584 -0.0133 0.3657
-1.0488 -0.1073 0.3642
-1.0309 -0.1997 0.3628
-1.0051 -0.2898 0.3614
-0.9716 -0.3769 0.3600
-0.9307 -0.4605 0.3587
-0.8828 -0.5398 0.3575
-0.8284 -0.6145 0.3563
-0.7679 -0.6839 0.3553
-0.7019 -0.7476 0.3543
-0.6308 -0.8052 0.3534
-0.5551 -0.8564 0.3526
-0.4755 -0.9007 0.3519
-0.3926 -0.9380 0.3513
-0.3069 -0.9680 0.3508
-0.2191 -0.9906 0.3505
-0.1297 -1.0055 0.3502
-0.0394 -1.0127 0.3501
0.0511 -1.0122 0.3501
0.1413 -1.0040 0.3503
0.2305 -0.9880 0.3505
0.3181 -0.9645 0.3509
0.4035 -0.9336 0.3514
0.4860 -0.8953 0.3519
0.5651 -0.8501 0.3526
0.6402 -0.7981 0.3535
0.7106 -0.7396 0.3544
0.7760 -0.6752 0.3554
0.8357 -0.6051 0.3564
0.8893 -0.5298 0.3576
0.9363 -0.4499 0.3589
0.9762 -0.3658 0.3602
1.0088 -0.2783 0.3615
1.0336 -0.1879 0.3629
1.0503 -0.0953 0.3644
1.0589 -0.0011 0.3658
1.0590 0.0938 0.3673
1.0506 0.1886 0.3688
1.0337 0.2828 0.3702
1.0082 0.3754 0.3717
0.9743 0.4656 0.3731
0.9323 0.5527 0.3744
0.8823 0.6359 0.3757
0.8247 0.7144 0.3769
0.7599 0.7875 0.3781
0.6885 0.8545 0.3791
0.6110 0.9148 0.3801
0.5280 0.9678 0.3809
0.4403 1.0129 0.3816
0.3487 1.0498 0.3822
0.2539 1.0779 0.3826
0.1568 1.0972 0.3829
0.0583 1.1072 0.3831
-0.0408 1.1081 0.3831
-0.1395 1.0996 0.3829
-0.2369 1.0820 0.3827
-0.3321 1.0554 0.3823
-0.4244 1.0201 0.3817
-0.5128 0.9764 0.3810
-0.5967 0.9248 0.3802
-0.6752 0.8658 0.3793
-0.7478 0.7999 0.3783
-0.8138 0.7278 0.3772
-0.8727 0.6502 0.3760
-0.9241 0.5678 0.3747
-0.9676 0.4813 0.3734
-1.0029 0.3916 0.3720
-1.0299 0.2993 0.3705
-1.0484 0.2054 0.3691
-1.0583 0.1106 0.3676
-1.0597 0.0156 0.3661
-1.0526 -0.0787 0.3647
-1.0372 -0.1716 0.3632
-1.0138 -0.2625 0.3618
-0.9826 -0.3506 0.3604
-0.9440 -0.4353 0.3591
-0.8982 -0.5160 0.3579
-0.8457 -0.5922 0.3567
-0.7871 -0.6632 0.3556
-0.7227 -0.7287 0.3546
-0.6530 -0.7882 0.3536
-0.5787 -0.8414 0.3528
-0.5003 -0.8879 0.3521
-0.4183 -0.9274 0.3515
-0.3334 -0.9596 0.3510
-0.2461 -0.9845 0.3506
-0.1572 -1.0017 0.3503
-0.0671 -1.0113 0.3502
0.0234 -1.0132 0.3501
0.1138 -1.0073 0.3502
0.2033 -0.9937 0.3504
0.2915 -0.9725 0.3508
0.3776 -0.9438 0.3512
0.4611 -0.9078 0.3518
0.5413 -0.8647 0.3524
0.6176 -0.8147 0.3532
0.6896 -0.7582 0.3541
0.7566 -0.6955 0.3550
0.8181 -0.6271 0.3561
0.8736 -0.5533 0.3572
0.9226 -0.4748 0.3585
0.9647 -0.3919 0.3598
0.9996 -0.3054 0.3611
1.0268 -0.2158 0.3625
1.0461 -0.1238 0.3639
1.0572 -0.0301 0.3654
1.0599 0.0647 0.3668
1.0541 0.1597 0.3683
1.0398 0.2541 0.3698
1.0169 0.3472 0.3712
0.9856 0.4383 0.3726
