ply
format ascii 1.0
element vertex 609
property float32 x
property float32 y
property float32 z
end_header
9.0316 -23.7400 -8.4263
9.1780 -24.1246 -8.3867
14.5169 -23.9296 -7.9635
22.4027 -36.9285 -8.0741
22.4167 -36.9516 -7.8039
22.4139 -36.9469 -7.5283
22.4110 -36.9421 -7.2534
22.4082 -36.9374 -6.9791
22.4053 -36.9327 -6.7055
22.4063 -36.9344 -6.4335
19.8052 -40.5420 -6.4358
22.4057 -36.9333 -6.1616
-0.0000 -31.6757 -4.3191
22.4050 -36.9322 -5.8901
22.4044 -36.9312 -5.6192
22.4037 -36.9301 -5.3486
22.4030 -36.9290 -5.0785
22.4024 -36.9279 -4.8088
22.4017 -36.9268 -4.5395
19.6021 -40.1265 -4.4158
22.4011 -36.9257 -4.2706
19.6021 -40.1264 -4.1382
22.4004 -36.9247 -4.0020
19.6021 -40.1265 -3.8609
22.3998 -36.9236 -3.7337
19.6953 -40.3171 -3.6009
22.3991 -36.9225 -3.4657
22.3984 -36.9214 -3.1980
22.3978 -36.9203 -2.9306
22.3971 -36.9193 -2.6634
22.3965 -36.9182 -2.3964
22.3958 -36.9171 -2.1296
22.3952 -36.9160 -1.8630
22.3945 -36.9150 -1.5965
22.3939 -36.9139 -1.3302
22.3932 -36.9128 -1.0640
22.3926 -36.9118 -0.7979
22.3919 -36.9107 -0.5319
22.3913 -36.9096 -0.2659
22.3906 -36.9086 0.0000
22.3900 -36.9075 0.2659
22.3893 -36.9064 0.5318
-0.0000 -35.3152 0.6527
22.3887 -36.9053 0.7978
-0.0000 -35.3156 0.8704
15.3770 -40.4190 1.0658
19.4625 -39.8406 1.0928
22.3880 -36.9043 1.0638
-0.0000 -33.5090 1.0324
15.3757 -40.4158 1.3323
19.4625 -39.8406 1.3661
22.3066 -36.7700 1.3250
-0.0000 -33.5095 1.2391
15.3745 -40.4126 1.5988
19.4625 -39.8406 1.6396
22.2822 -36.7298 1.5885
-0.0000 -33.5099 1.4458
4.4147 -48.4419 2.0988
8.7969 -47.8626 2.0997
13.1160 -46.9079 2.1016
17.2912 -45.4507 2.0982
19.4810 -39.8785 1.9150
22.2282 -36.6408 1.8491
-0.0000 -33.5103 1.6527
3.8882 -42.6647 2.1129
7.7466 -42.1484 2.1136
11.5489 -41.3034 2.1152
15.2673 -40.1309 2.1176
17.4926 -35.8080 1.9655
20.8907 -34.4361 1.9865
0.0001 -38.3989 2.1310
3.4902 -38.2976 2.1342
6.9558 -37.8455 2.1355
10.3522 -37.0236 2.1335
13.6684 -35.9281 2.1333
15.8789 -32.5048 2.0077
18.9649 -31.2615 2.0292
0.0000 -34.7276 2.1419
3.1532 -34.5999 2.1429
6.2908 -34.2274 2.1464
9.3883 -33.5763 2.1503
12.4423 -32.7052 2.1582
15.2000 -31.1150 2.1359
17.1994 -28.3514 2.0453
0.0000 -31.9493 2.1682
2.9013 -31.8356 2.1694
5.7837 -31.4686 2.1713
8.6302 -30.8649 2.1750
11.4340 -30.0548 2.1822
14.1753 -29.0174 2.1916
15.7923 -26.0319 2.0663
0.0000 -29.6216 2.1936
2.6889 -29.5053 2.1941
5.3586 -29.1551 2.1952
7.9948 -28.5924 2.1986
10.5834 -27.8189 2.2042
13.1103 -26.8374 2.2119
15.2041 -25.0622 2.1708
0.0000 -27.6084 2.2156
2.5047 -27.4840 2.2148
4.9913 -27.1569 2.2159
7.4460 -26.6299 2.2191
9.8553 -25.9050 2.2243
12.2070 -24.9884 2.2318
14.5126 -23.9225 2.2455
0.0000 -25.8373 2.2337
2.3440 -25.7203 2.2328
4.6708 -25.4134 2.2339
6.9673 -24.9179 2.2369
9.2203 -24.2360 2.2418
11.4340 -23.4059 2.2521
13.5883 -22.3989 2.2650
0.0000 -24.2771 2.2496
2.2025 -24.1678 2.2488
4.3888 -23.8787 2.2498
6.5460 -23.4112 2.2526
8.6719 -22.7944 2.2599
10.7523 -22.0105 2.2699
12.7739 -21.0563 2.2821
0.0000 -22.8931 2.2637
2.0770 -22.7905 2.2629
4.1385 -22.5173 2.2638
6.1787 -22.0975 2.2688
8.1855 -21.5158 2.2763
10.1467 -20.7707 2.2858
6.6199 -10.9121 1.2620
-0.0000 -21.6570 2.2762
1.9650 -21.5621 2.2757
3.9191 -21.3234 2.2787
5.8512 -20.9262 2.2838
7.7503 -20.3718 2.2909
9.6051 -19.6620 2.3000
6.6057 -10.8888 1.3386
0.0000 -20.5552 2.2885
1.8663 -20.4791 2.2895
3.7220 -20.2509 2.2924
5.5563 -19.8715 2.2973
7.3585 -19.3421 2.3041
9.1177 -18.6643 2.3127
6.6089 -10.8941 1.4187
0.0000 -19.5712 2.3011
1.7770 -19.4983 2.3021
3.5436 -19.2799 2.3049
5.2893 -18.9168 2.3095
7.0040 -18.4102 2.3160
8.6805 -17.7693 2.3252
6.6122 -10.8995 1.4989
0.0000 -18.6759 2.3126
1.6956 -18.6060 2.3135
3.3812 -18.3966 2.3161
5.0476 -18.0523 2.3211
6.6853 -17.5727 2.3281
8.2845 -16.9587 2.3371
6.6155 -10.9049 1.5794
0.0000 -17.8640 2.3239
1.6220 -17.7977 2.3248
3.2346 -17.5990 2.3277
4.8285 -17.2687 2.3326
6.3943 -16.8077 2.3393
7.9225 -16.2177 2.3480
6.6187 -10.9103 1.6600
0.0000 -17.1223 2.3347
1.5546 -17.0585 2.3357
3.1001 -16.8672 2.3385
4.6273 -16.5491 2.3431
0.8991 -2.3633 0.3448
7.5686 -15.4932 2.3512
6.6220 -10.9157 1.7409
-0.0000 -16.4387 2.3447
1.4925 -16.3772 2.3456
2.9761 -16.1927 2.3483
0.6515 -2.3299 0.3451
0.8617 -2.2650 0.3457
1.0660 -2.1822 0.3464
6.6253 -10.9211 1.8220
-0.0000 -2.3177 0.3452
0.2104 -2.3087 0.3452
0.4194 -2.2817 0.3455
0.6255 -2.2369 0.3459
0.8272 -2.1744 0.3465
1.0233 -2.0947 0.3472
6.6286 -10.9265 1.9033
0.0000 -2.2287 0.3460
0.2023 -2.2201 0.3460
0.4033 -2.1940 0.3463
0.6014 -2.1508 0.3467
0.7954 -2.0907 0.3472
0.9838 -2.0139 0.3479
6.6319 -10.9320 1.9848
-0.0000 -2.1462 0.3467
0.1948 -2.1378 0.3468
0.3883 -2.1127 0.3470
0.5791 -2.0710 0.3474
0.7658 -2.0130 0.3479
0.9472 -1.9389 0.3486
6.6352 -10.9374 2.0666
0.0000 -2.0694 0.3474
0.1879 -2.0613 0.3475
0.3744 -2.0371 0.3477
0.5583 -1.9968 0.3481
0.7383 -1.9407 0.3486
0.9131 -1.8692 0.3492
6.6385 -10.9429 2.1486
-0.0000 -1.9978 0.3480
0.1814 -1.9900 0.3481
0.3614 -1.9665 0.3483
0.5390 -1.9276 0.3487
0.7127 -1.8733 0.3492
0.8813 -1.8041 0.3498
1.0437 -1.7204 0.3506
-0.0000 -1.9308 0.3486
0.1753 -1.9233 0.3487
0.3493 -1.9005 0.3489
0.5209 -1.8628 0.3493
0.6887 -1.8103 0.3497
0.8517 -1.7434 0.3503
1.0085 -1.6623 0.3511
0.0000 -1.8681 0.3492
0.1696 -1.8607 0.3493
0.3379 -1.8387 0.3495
0.5039 -1.8022 0.3498
0.6663 -1.7513 0.3503
0.8238 -1.6864 0.3509
0.9755 -1.6079 0.3516
-0.0000 -1.8091 0.3497
0.1642 -1.8020 0.3498
0.3273 -1.7807 0.3500
0.4880 -1.7452 0.3503
0.6452 -1.6959 0.3508
0.7977 -1.6330 0.3513
0.9445 -1.5569 0.3520
0.0000 -1.7537 0.3502
0.1592 -1.7468 0.3503
0.3172 -1.7260 0.3505
0.4730 -1.6916 0.3508
0.6253 -1.6438 0.3512
0.7732 -1.5827 0.3518
0.9153 -1.5089 0.3524
-0.0000 -1.7014 0.3507
0.1544 -1.6947 0.3508
0.3078 -1.6745 0.3509
0.4589 -1.6411 0.3513
0.6066 -1.5946 0.3517
0.7500 -1.5353 0.3522
0.8879 -1.4636 0.3529
-0.0000 -1.6520 0.3511
0.1500 -1.6455 0.3512
0.2988 -1.6259 0.3514
0.4455 -1.5934 0.3517
0.5890 -1.5482 0.3521
0.7281 -1.4906 0.3526
0.8620 -1.4209 0.3532
0.0000 -1.6053 0.3516
0.1457 -1.5989 0.3516
0.2904 -1.5799 0.3518
0.4329 -1.5483 0.3521
0.5723 -1.5043 0.3525
0.7075 -1.4482 0.3530
0.8374 -1.3804 0.3536
0.0000 -1.5610 0.3520
0.1417 -1.5548 0.3520
0.2824 -1.5363 0.3522
0.4210 -1.5055 0.3525
0.5565 -1.4627 0.3529
0.6879 -1.4081 0.3533
0.8142 -1.3422 0.3539
-0.0000 -1.5190 0.3523
0.1379 -1.5130 0.3524
0.2748 -1.4949 0.3526
0.4096 -1.4650 0.3528
0.5415 -1.4233 0.3532
0.6693 -1.3701 0.3537
0.7922 -1.3059 0.3543
-0.0000 -1.4791 0.3527
0.1343 -1.4732 0.3527
0.2675 -1.4556 0.3529
0.3988 -1.4264 0.3532
0.5272 -1.3858 0.3535
0.6517 -1.3340 0.3540
0.7713 -1.2714 0.3546
0.0000 -1.4411 0.3530
0.1308 -1.4354 0.3531
0.2607 -1.4182 0.3532
0.3886 -1.3898 0.3535
0.5136 -1.3501 0.3539
0.6349 -1.2996 0.3543
0.7514 -1.2386 0.3549
-0.0000 -1.4050 0.3534
0.1275 -1.3994 0.3534
0.2541 -1.3826 0.3536
0.3788 -1.3548 0.3538
0.5007 -1.3161 0.3542
0.6189 -1.2669 0.3546
0.7324 -1.2073 0.3552
0.0000 -1.3704 0.3537
0.1244 -1.3650 0.3537
0.2479 -1.3486 0.3539
0.3695 -1.3215 0.3541
0.4884 -1.2837 0.3545
0.6036 -1.2356 0.3549
0.7143 -1.1775 0.3554
-0.0000 -1.3375 0.3540
0.1214 -1.3322 0.3540
0.2419 -1.3162 0.3542
0.3606 -1.2897 0.3544
0.4766 -1.2528 0.3547
0.5891 -1.2058 0.3552
0.6971 -1.1490 0.3557
-0.0000 -1.3060 0.3542
0.1185 -1.3008 0.3543
0.2362 -1.2852 0.3544
0.3521 -1.2593 0.3547
0.4654 -1.2232 0.3550
0.5751 -1.1773 0.3554
0.6806 -1.1218 0.3559
-0.0000 -1.2758 0.3545
0.1158 -1.2707 0.3546
0.2307 -1.2555 0.3547
0.3440 -1.2301 0.3549
0.4546 -1.1949 0.3553
0.5618 -1.1500 0.3557
0.6648 -1.0958 0.3562
0.0000 -1.2469 0.3548
0.1132 -1.2419 0.3548
0.2255 -1.2270 0.3550
0.3362 -1.2023 0.3552
0.4443 -1.1678 0.3555
0.5490 -1.1239 0.3559
0.6497 -1.0709 0.3564
-0.0000 -1.2192 0.3550
0.1107 -1.2143 0.3551
0.2205 -1.1997 0.3552
0.3287 -1.1755 0.3554
0.4344 -1.1418 0.3557
0.5368 -1.0989 0.3561
0.6352 -1.0470 0.3566
-0.0000 -1.1926 0.3553
0.1083 -1.1878 0.3553
0.2157 -1.1736 0.3554
0.3215 -1.1498 0.3557
0.4249 -1.1168 0.3560
0.5251 -1.0748 0.3563
0.6212 -1.0240 0.3568
0.0000 -1.1671 0.3555
0.1059 -1.1624 0.3555
0.2111 -1.1484 0.3557
0.3146 -1.1252 0.3559
0.4158 -1.0929 0.3562
0.5138 -1.0517 0.3565
0.6079 -1.0020 0.3570
0.0000 -1.1425 0.3557
0.1037 -1.1379 0.3558
0.2066 -1.1242 0.3559
0.3080 -1.1015 0.3561
0.4070 -1.0698 0.3564
0.5029 -1.0295 0.3567
0.5950 -0.9808 0.3572
-0.0000 -1.1188 0.3559
0.1016 -1.1144 0.3560
0.2023 -1.1009 0.3561
0.3016 -1.0786 0.3563
0.3986 -1.0476 0.3566
0.4925 -1.0081 0.3569
0.5827 -0.9604 0.3574
-0.0000 -1.0961 0.3561
0.0995 -1.0917 0.3562
0.1982 -1.0785 0.3563
0.2955 -1.0567 0.3565
0.3904 -1.0263 0.3568
0.4824 -0.9876 0.3571
0.5707 -0.9408 0.3575
0.0000 -1.0741 0.3563
0.0975 -1.0698 0.3564
0.1943 -1.0569 0.3565
0.2895 -1.0355 0.3567
0.3826 -1.0057 0.3570
0.4727 -0.9677 0.3573
0.5593 -0.9219 0.3577
0.0000 -1.0529 0.3565
0.0956 -1.0487 0.3566
0.1904 -1.0361 0.3567
0.2838 -1.0150 0.3569
0.3750 -0.9858 0.3571
0.4634 -0.9486 0.3575
0.5482 -0.9037 0.3579
-0.0000 -1.0325 0.3567
0.0937 -1.0284 0.3567
0.1867 -1.0159 0.3569
0.2783 -0.9953 0.3570
0.3678 -0.9667 0.3573
0.4544 -0.9301 0.3576
0.5375 -0.8861 0.3580
-0.0000 -1.0128 0.3569
0.0919 -1.0087 0.3569
0.1832 -0.9965 0.3570
0.2730 -0.9763 0.3572
0.3607 -0.9481 0.3575
0.4457 -0.9123 0.3578
0.5272 -0.8690 0.3582
-0.0000 -0.9937 0.3571
0.0902 -0.9897 0.3571
0.1797 -0.9777 0.3572
0.2678 -0.9579 0.3574
0.3539 -0.9302 0.3576
0.4373 -0.8951 0.3580
0.5172 -0.8526 0.3583
0.0000 -0.9752 0.3572
0.0885 -0.9713 0.3573
0.1764 -0.9595 0.3574
0.2628 -0.9400 0.3575
0.3473 -0.9129 0.3578
0.4291 -0.8784 0.3581
0.5076 -0.8367 0.3585
0.0000 -0.9574 0.3574
0.0869 -0.9535 0.3574
0.1731 -0.9420 0.3575
0.2580 -0.9228 0.3577
0.3409 -0.8962 0.3579
0.4212 -0.8623 0.3582
0.4983 -0.8213 0.3586
-0.0000 -0.9401 0.3575
0.0853 -0.9363 0.3576
0.1700 -0.9249 0.3577
0.2534 -0.9061 0.3578
0.3348 -0.8800 0.3581
0.4136 -0.8467 0.3584
0.4892 -0.8065 0.3587
0.0000 -0.9233 0.3577
0.0838 -0.9196 0.3577
0.1670 -0.9084 0.3578
0.2488 -0.8899 0.3580
0.3288 -0.8643 0.3582
0.4062 -0.8315 0.3585
0.4805 -0.7920 0.3589
-0.0000 -0.9070 0.3578
0.0823 -0.9034 0.3579
0.1640 -0.8924 0.3580
0.2445 -0.8743 0.3581
0.3230 -0.8490 0.3584
0.3990 -0.8169 0.3587
0.4720 -0.7780 0.3590
-0.0000 -0.8913 0.3580
0.0809 -0.8877 0.3580
0.1612 -0.8769 0.3581
0.2402 -0.8591 0.3583
0.3174 -0.8342 0.3585
0.3921 -0.8026 0.3588
0.4638 -0.7645 0.3591
0.0000 -0.8760 0.3581
0.0795 -0.8724 0.3581
0.1584 -0.8619 0.3582
0.2361 -0.8443 0.3584
0.3119 -0.8199 0.3586
0.3854 -0.7888 0.3589
0.4558 -0.7513 0.3592
-0.0000 -0.8611 0.3582
0.0782 -0.8577 0.3583
0.1557 -0.8472 0.3584
0.2321 -0.8300 0.3585
0.3066 -0.8060 0.3587
0.3788 -0.7754 0.3590
0.4480 -0.7385 0.3594
-0.0000 -0.8467 0.3584
0.0768 -0.8433 0.3584
0.1531 -0.8330 0.3585
0.2282 -0.8161 0.3587
0.3015 -0.7925 0.3589
0.3724 -0.7624 0.3591
0.4405 -0.7261 0.3595
-0.0000 -0.8327 0.3585
0.0756 -0.8293 0.3585
0.1506 -0.8192 0.3586
0.2244 -0.8025 0.3588
0.2965 -0.7793 0.3590
0.3663 -0.7497 0.3593
0.4332 -0.7140 0.3596
-0.0000 -0.8190 0.3586
0.0743 -0.8157 0.3587
0.1481 -0.8058 0.3587
0.2207 -0.7894 0.3589
0.2916 -0.7665 0.3591
0.3602 -0.7374 0.3594
0.4261 -0.7023 0.3597
0.0000 -0.8058 0.3587
0.0731 -0.8025 0.3588
0.1457 -0.7927 0.3589
0.2171 -0.7766 0.3590
0.2869 -0.7541 0.3592
0.3544 -0.7255 0.3595
0.4191 -0.6909 0.3598
0.0000 -0.7928 0.3589
0.0720 -0.7896 0.3589
0.1434 -0.7800 0.3590
0.2137 -0.7641 0.3591
0.2823 -0.7420 0.3593
0.3487 -0.7138 0.3596
0.4124 -0.6798 0.3599
-0.0000 -0.7802 0.3590
0.0708 -0.7771 0.3590
0.1411 -0.7676 0.3591
0.2103 -0.7520 0.3592
0.2778 -0.7302 0.3594
0.3432 -0.7025 0.3597
0.4058 -0.6690 0.3600
0.0000 -0.7680 0.3591
0.0697 -0.7649 0.3591
0.1389 -0.7556 0.3592
0.2070 -0.7402 0.3593
0.2734 -0.7187 0.3595
0.3378 -0.6914 0.3598
0.3994 -0.6584 0.3601
0.0000 -0.7560 0.3592
0.0686 -0.7530 0.3592
0.1367 -0.7438 0.3593
0.2037 -0.7286 0.3594
0.2692 -0.7075 0.3596
0.3325 -0.6806 0.3599
0.3932 -0.6482 0.3602
-0.0000 -0.7444 0.3593
0.0676 -0.7414 0.3593
0.1346 -0.7324 0.3594
0.2006 -0.7174 0.3595
0.2650 -0.6966 0.3597
0.3274 -0.6701 0.3600
0.3871 -0.6382 0.3603
0.0000 -0.7330 0.3594
0.0665 -0.7301 0.3594
0.1326 -0.7212 0.3595
0.1975 -0.7064 0.3596
0.2610 -0.6860 0.3598
0.3224 -0.6599 0.3601
0.3812 -0.6284 0.3603
-0.0000 -0.7220 0.3595
0.0655 -0.7190 0.3595
0.1305 -0.7103 0.3596
0.1945 -0.6958 0.3597
0.2570 -0.6756 0.3599
0.3175 -0.6499 0.3601
0.3754 -0.6189 0.3604
-0.0000 -0.7111 0.3596
0.0645 -0.7083 0.3596
0.1286 -0.6996 0.3597
0.1916 -0.6853 0.3598
0.2532 -0.6654 0.3600
0.3127 -0.6401 0.3602
0.3698 -0.6096 0.3605
-0.0000 -0.7006 0.3597
0.0636 -0.6977 0.3597
0.1267 -0.6892 0.3598
0.1888 -0.6751 0.3599
0.2494 -0.6555 0.3601
0.3081 -0.6306 0.3603
0.3643 -0.6005 0.3606
0.0000 -0.6903 0.3598
0.0627 -0.6875 0.3598
0.1248 -0.6791 0.3599
0.1860 -0.6652 0.3600
0.2457 -0.6459 0.3602
0.3035 -0.6213 0.3604
0.3589 -0.5916 0.3607
0.0000 -0.6802 0.3599
0.0617 -0.6774 0.3599
0.1230 -0.6692 0.3600
0.1833 -0.6555 0.3601
0.2421 -0.6364 0.3603
0.2991 -0.6122 0.3605
0.3537 -0.5830 0.3608
-0.0000 -0.6703 0.3600
0.0608 -0.6676 0.3600
0.1212 -0.6595 0.3601
0.1806 -0.6460 0.3602
0.2386 -0.6272 0.3604
0.2947 -0.6033 0.3606
0.3485 -0.5745 0.3608
0.0000 -0.6607 0.3600
0.0600 -0.6580 0.3601
0.1195 -0.6500 0.3601
0.1780 -0.6367 0.3603
0.2352 -0.6182 0.3604
0.2905 -0.5946 0.3606
0.3435 -0.5662 0.3609
-0.0000 -0.6513 0.3601
0.0591 -0.6486 0.3602
0.1178 -0.6407 0.3602
0.1755 -0.6276 0.3603
0.2318 -0.6094 0.3605
0.2863 -0.5861 0.3607
0.3386 -0.5581 0.3610
-0.0000 -0.6420 0.3602
0.0583 -0.6394 0.3602
0.1161 -0.6316 0.3603
0.1730 -0.6187 0.3604
0.2285 -0.6007 0.3606
0.2823 -0.5778 0.3608
0.3338 -0.5502 0.3610
-0.0000 -0.6330 0.3603
0.0575 -0.6305 0.3603
0.1145 -0.6228 0.3604
0.1706 -0.6100 0.3605
0.2253 -0.5923 0.3607
0.2783 -0.5697 0.3609
0.3291 -0.5425 0.3611
-0.0000 -0.6242 0.3604
0.0567 -0.6217 0.3604
0.1129 -0.6141 0.3605
0.1682 -0.6015 0.3606
0.2222 -0.5840 0.3607
0.2744 -0.5617 0.3609
0.3245 -0.5349 0.3612
